# .PCD v0.7 - Point Cloud Data file format
VERSION 0.7
FIELDS x y z
SIZE 4 4 4
TYPE F F F
COUNT 1 1 1
WIDTH 1357
HEIGHT 1
VIEWPOINT 0 0 0 1 0 0 0
POINTS 1357
DATA ascii
0.071485668 -0.19749467 -0.32693699
0.071744673 -0.19750549 -0.32685265
0.071847126 -0.19750525 -0.32681876
0.072509147 -0.19744201 -0.32681614
0.072715007 -0.19749166 -0.32685167
0.072909065 -0.19750437 -0.3269203
0.073055729 -0.19750237 -0.32694176
0.073247999 -0.19751935 -0.32693467
0.073522009 -0.19751044 -0.32686499
0.07368391 -0.19748165 -0.32682374
0.073808998 -0.197404 -0.32681301
0.07452067 -0.19746865 -0.32680735
0.074716799 -0.1974882 -0.32686421
0.074886195 -0.19748479 -0.32695907
0.075196996 -0.197552 -0.326983
0.075277001 -0.19751467 -0.32698333
0.075503364 -0.19750562 -0.326922
0.075697184 -0.1975048 -0.32686192
0.075848997 -0.197447 -0.32681799
0.076090001 -0.19745301 -0.32681099
0.076339923 -0.19747593 -0.32683209
0.076547332 -0.19747768 -0.32687268
0.076701559 -0.19750501 -0.32695231
0.07685975 -0.19756925 -0.32698727
0.077312201 -0.19757719 -0.32698399
0.077464752 -0.19749726 -0.32694748
0.077728003 -0.19747454 -0.32687187
0.077901423 -0.19746327 -0.32681587
0.078107499 -0.197423 -0.32680398
0.078330003 -0.19745533 -0.32681
0.078706793 -0.19752234 -0.32688886
0.078897141 -0.19750886 -0.32697257
0.079104252 -0.19752826 -0.326987
0.079303138 -0.19749054 -0.32693312
0.079469502 -0.1974775 -0.32685977
0.085168995 -0.197524 -0.32682467
0.085282125 -0.19752051 -0.32684851
0.085481383 -0.19748199 -0.32688525
0.085720666 -0.19748566 -0.3268773
0.085922994 -0.19749233 -0.32686967
0.086121887 -0.19750156 -0.32687593
0.086289942 -0.19751631 -0.32693216
0.057971429 -0.1972893 -0.32697058
0.058089189 -0.19731107 -0.32694232
0.058296412 -0.19728127 -0.32689139
0.058517404 -0.19729429 -0.326866
0.058684882 -0.19729148 -0.32686371
0.058887638 -0.19729958 -0.32682651
0.059075084 -0.19729537 -0.32681677
0.059334803 -0.19727442 -0.32680699
0.060896099 -0.1972678 -0.326837
0.061131414 -0.19729252 -0.32693121
0.06128237 -0.19729081 -0.32693261
0.061544959 -0.19731568 -0.32686439
0.061682869 -0.19730657 -0.32682657
0.061826497 -0.19729124 -0.32682449
0.062681504 -0.1972855 -0.32682401
0.062883936 -0.19731461 -0.32690373
0.063070662 -0.19737267 -0.32697132
0.063761748 -0.19734825 -0.3269875
0.063923463 -0.19731432 -0.326958
0.064090751 -0.19731367 -0.32695761
0.064294003 -0.19733098 -0.32694128
0.064448506 -0.19731751 -0.32695308
0.069793001 -0.197335 -0.326998
0.069927335 -0.19727235 -0.32695833
0.070131332 -0.19727856 -0.32692826
0.070312329 -0.19729017 -0.32691249
0.070517212 -0.19730167 -0.32692468
0.0707165 -0.197336 -0.32698551
0.070847571 -0.19735129 -0.32698828
0.071370997 -0.197348 -0.32699999
0.071493998 -0.19733775 -0.32697776
0.071718 -0.19729532 -0.32691631
0.071880326 -0.19730629 -0.32685858
0.072105244 -0.19726676 -0.32681349
0.072356001 -0.197262 -0.32680199
0.072514243 -0.19727349 -0.32683429
0.072735004 -0.19728367 -0.32689634
0.072869428 -0.19729985 -0.32696715
0.073065743 -0.1973705 -0.32699376
0.073261999 -0.197381 -0.32697999
0.073543496 -0.1973315 -0.32691911
0.073678136 -0.19731522 -0.32686433
0.073887169 -0.19727965 -0.326821
0.074118003 -0.19721121 -0.3268064
0.074326999 -0.197228 -0.326823
0.07447011 -0.19730289 -0.32683945
0.07470338 -0.19732925 -0.32689613
0.07485228 -0.19731128 -0.32697228
0.075516202 -0.1973334 -0.3269878
0.075706884 -0.19730085 -0.32693359
0.075918719 -0.19732015 -0.32685313
0.076059751 -0.19730538 -0.32684213
0.076333098 -0.19731809 -0.32688367
0.076527998 -0.19726875 -0.32693377
0.076676667 -0.19732499 -0.32696167
0.077528998 -0.197396 -0.32698801
0.077735201 -0.19730759 -0.32693481
0.077869497 -0.19726427 -0.32687649
0.078109331 -0.19728325 -0.3268528
0.078280143 -0.19730172 -0.32685772
0.0784095 -0.1972605 -0.326893
0.078717157 -0.19731903 -0.32696068
0.078819498 -0.19735551 -0.32699299
0.079364337 -0.197329 -0.32697499
0.079484671 -0.19732116 -0.32693201
0.079665333 -0.19724698 -0.32685065
0.080926366 -0.19728699 -0.32683501
0.081082664 -0.19728066 -0.32684317
0.081217997 -0.19724099 -0.326803
0.085188664 -0.19731466 -0.326866
0.085308775 -0.19732012 -0.32688287
0.085481286 -0.19731303 -0.32693487
0.085706003 -0.19727367 -0.32693914
0.085877664 -0.1972809 -0.32691556
0.086101085 -0.19729818 -0.32692769
0.086290732 -0.19730128 -0.32696322
0.057969332 -0.1971201 -0.32695797
0.058094479 -0.19712791 -0.32693437
0.058308113 -0.1970897 -0.32690886
0.058503427 -0.19708857 -0.32685184
0.058675662 -0.19708687 -0.32688519
0.058876928 -0.19709006 -0.32685083
0.059083048 -0.19710918 -0.3268615
0.059323359 -0.19711472 -0.32683846
0.059458099 -0.1971056 -0.32682869
0.060765427 -0.19708574 -0.32681915
0.060888171 -0.19708908 -0.32685977
0.061135463 -0.1970804 -0.32696867
0.061285418 -0.19710006 -0.32697764
0.061553124 -0.19710439 -0.32693401
0.06168152 -0.19711195 -0.32687223
0.06187211 -0.19712232 -0.32685754
0.06267333 -0.19709416 -0.3268705
0.062885582 -0.19711767 -0.32695076
0.063987501 -0.19716999 -0.326994
0.064114138 -0.19714598 -0.32698128
0.064306602 -0.19712619 -0.32697541
0.064461425 -0.19714387 -0.32698998
0.069940999 -0.197134 -0.32699901
0.070140831 -0.19709383 -0.32696816
0.070301428 -0.19708028 -0.32696787
0.070536561 -0.19709367 -0.32695922
0.071738333 -0.19708766 -0.326967
0.071883768 -0.19710237 -0.32689974
0.072108634 -0.19710436 -0.32685354
0.072300501 -0.19711848 -0.32684833
0.072530001 -0.19710025 -0.32686174
0.072756 -0.19707566 -0.32695433
0.072850496 -0.197115 -0.32699102
0.073545247 -0.19714901 -0.32697749
0.073700882 -0.19712617 -0.32692242
0.073891878 -0.19712038 -0.32685313
0.074131697 -0.1970818 -0.32684374
0.074274577 -0.19707415 -0.32685757
0.074490994 -0.19709499 -0.32689634
0.074695498 -0.19711082 -0.32694799
0.074826397 -0.19713379 -0.32698542
0.075742625 -0.197138 -0.32696864
0.075910859 -0.19710156 -0.32694501
0.076074108 -0.19710588 -0.32691079
0.076351754 -0.19712234 -0.32694307
0.076460749 -0.19712724 -0.32696348
0.077741668 -0.19717367 -0.32697102
0.077891804 -0.1971074 -0.3269476
0.078124233 -0.1970899 -0.32692346
0.078264624 -0.19707388 -0.32694435
0.07842733 -0.19708733 -0.32694566
0.078648001 -0.19716901 -0.32698199
0.079699226 -0.19708566 -0.32691768
0.079843841 -0.19704984 -0.32685217
0.080531999 -0.197001 -0.32680699
0.0806868 -0.19704521 -0.32685301
0.080902547 -0.19708446 -0.32691002
0.081092894 -0.1970951 -0.32693732
0.081284873 -0.19709449 -0.32688287
0.081406496 -0.1970755 -0.32686502
0.083116002 -0.197069 -0.326814
0.085298993 -0.19710974 -0.3269262
0.085497282 -0.19714315 -0.32696515
0.085720494 -0.19713551 -0.3269875
0.085894749 -0.19712426 -0.32697299
0.086098664 -0.19711667 -0.32698435
0.086288251 -0.19716126 -0.32698798
0.05797375 -0.19694549 -0.32697248
0.058091372 -0.19691671 -0.32697138
0.058294058 -0.19691981 -0.32694587
0.058494292 -0.19686985 -0.32690927
0.058681998 -0.19687876 -0.32689488
0.058891065 -0.19688781 -0.32688826
0.059103139 -0.1969018 -0.32690668
0.059308667 -0.19691189 -0.32688457
0.059483007 -0.19691972 -0.32687563
0.059730556 -0.196898 -0.32682073
0.059874602 -0.19684181 -0.32680798
0.060743071 -0.19690731 -0.3268407
0.06087615 -0.19692248 -0.32688856
0.061081998 -0.196908 -0.32697701
0.061565399 -0.1969524 -0.32698599
0.061697777 -0.19691172 -0.32694948
0.061891779 -0.19691557 -0.32689688
0.062105007 -0.1969087 -0.32682928
0.062314 -0.196832 -0.32680899
0.062470112 -0.19686012 -0.32682702
0.062693335 -0.19688649 -0.32691517
0.062868834 -0.19692016 -0.32698402
0.064368002 -0.196977 -0.32699701
0.070136502 -0.1969655 -0.32699198
0.070274331 -0.19691668 -0.32699564
0.070501 -0.19695599 -0.326976
0.071754001 -0.196914 -0.326985
0.071898818 -0.19689545 -0.32696143
0.07211154 -0.19690828 -0.32689562
0.072304137 -0.19689956 -0.32690102
0.072526559 -0.19692622 -0.32690156
0.072650999 -0.1969315 -0.32695401
0.073732994 -0.1969576 -0.32697961
0.073879115 -0.19693589 -0.32694399
0.074109383 -0.19690506 -0.32690522
0.074270591 -0.1968679 -0.32690889
0.074512221 -0.19688733 -0.32695854
0.074712001 -0.19693676 -0.3269805
0.075943001 -0.196964 -0.32698852
0.076092497 -0.19693215 -0.32696936
0.076353006 -0.19698299 -0.32698467
0.076419502 -0.19698551 -0.3269895
0.078120001 -0.196959 -0.32698968
0.078272671 -0.196943 -0.326996
0.079779997 -0.196951 -0.32698801
0.079895929 -0.19689639 -0.32692489
0.080134004 -0.19686851 -0.326855
0.08032164 -0.19689927 -0.32684556
0.080491282 -0.19691761 -0.32685968
0.080683284 -0.19691357 -0.32690528
0.080921002 -0.19691099 -0.32697502
0.081108004 -0.19695567 -0.32699397
0.081329152 -0.19690514 -0.32695928
0.081425004 -0.19690132 -0.32692799
0.081661999 -0.1968455 -0.32683551
0.083128661 -0.19692968 -0.32682797
0.083301403 -0.19689479 -0.3268474
0.083447002 -0.1968385 -0.32684299
0.084914424 -0.19683686 -0.32681683
0.085267492 -0.19692133 -0.32696947
0.058145091 -0.19672355 -0.32696918
0.058302246 -0.19671659 -0.32696614
0.058478855 -0.19671099 -0.32694072
0.05868255 -0.19669546 -0.32691109
0.058892556 -0.19667967 -0.32690802
0.059118055 -0.19669762 -0.32693592
0.059315998 -0.19669709 -0.32692784
0.059503336 -0.19671272 -0.32692578
0.059756227 -0.19672714 -0.32686964
0.059863415 -0.19671208 -0.32685158
0.060702682 -0.19671339 -0.3268486
0.06088556 -0.19671474 -0.32692608
0.061758835 -0.1967455 -0.32697752
0.061892997 -0.19670056 -0.32695362
0.062100999 -0.1967141 -0.32686445
0.062287141 -0.19672158 -0.326848
0.062478557 -0.19669056 -0.32687122
0.062712997 -0.19667917 -0.32695684
0.062859997 -0.196759 -0.32699499
0.071948998 -0.19675501 -0.326996
0.072123624 -0.196703 -0.32696727
0.072243333 -0.19669683 -0.32694218
0.072515629 -0.19672127 -0.32697332
0.072628498 -0.19675601 -0.32698703
0.073872998 -0.19678 -0.32699701
0.074134454 -0.19674319 -0.32696992
0.074261002 -0.19670472 -0.326969
0.079971336 -0.19673432 -0.32698667
0.080151498 -0.19673049 -0.32694501
0.080316618 -0.196738 -0.32694572
0.080489092 -0.19674985 -0.32696107
0.080679253 -0.19679449 -0.32697499
0.081712507 -0.19670759 -0.3268902
0.081837505 -0.19668001 -0.326828
0.082506001 -0.19660901 -0.32681599
0.082690999 -0.19661999 -0.32682332
0.082890503 -0.19666798 -0.32684201
0.083145998 -0.19679201 -0.326924
0.083331712 -0.19674885 -0.32694155
0.083514996 -0.1966815 -0.32691649
0.08369457 -0.19663629 -0.32685471
0.084764659 -0.19668035 -0.32682565
0.084893502 -0.196694 -0.32686931
0.085006997 -0.19667099 -0.32692799
0.058157668 -0.19657235 -0.32697833
0.058324005 -0.19654757 -0.32698551
0.058487725 -0.19651708 -0.32696128
0.058694597 -0.19651826 -0.32696441
0.058903329 -0.19648121 -0.32694826
0.05911655 -0.19648254 -0.32697138
0.059282601 -0.1965358 -0.32698378
0.059484594 -0.19650823 -0.32696354
0.059724662 -0.19651248 -0.326947
0.059867762 -0.19652553 -0.32690763
0.060095001 -0.19647875 -0.32683226
0.060285002 -0.19646923 -0.32683536
0.060521994 -0.19645256 -0.32682034
0.060688585 -0.19649276 -0.32686433
0.060878001 -0.19650602 -0.32694975
0.061951 -0.19654866 -0.32699233
0.062122218 -0.19650699 -0.32692933
0.062306136 -0.19652429 -0.32688954
0.062477589 -0.19651674 -0.32691747
0.062675498 -0.196504 -0.326976
0.081758998 -0.1965525 -0.32696301
0.081906497 -0.19650616 -0.3268905
0.082109503 -0.19648451 -0.32685649
0.082312286 -0.1965007 -0.32686001
0.082493752 -0.1964705 -0.32691649
0.082700625 -0.19649 -0.32692614
0.082858749 -0.19652601 -0.32695249
0.083008498 -0.1965335 -0.32693249
0.083476 -0.196596 -0.32698101
0.083708666 -0.19648568 -0.32692915
0.083899118 -0.19645201 -0.32684678
0.084123001 -0.196421 -0.32682601
0.084302001 -0.19642468 -0.32681033
0.084481999 -0.196466 -0.32683501
0.084727429 -0.19652458 -0.32689801
0.084877387 -0.19651374 -0.32694498
0.085015997 -0.19660001 -0.326976
0.058478501 -0.19638351 -0.32699549
0.058649335 -0.19634449 -0.32698515
0.058913805 -0.19634719 -0.32698497
0.05976475 -0.19634075 -0.32698399
0.059866559 -0.19632193 -0.32697415
0.060114302 -0.19633049 -0.32688192
0.060284711 -0.19629928 -0.32688382
0.060524065 -0.19627911 -0.32687283
0.060686506 -0.19628516 -0.32692629
0.060869146 -0.19630955 -0.32696635
0.06214289 -0.19629978 -0.32698378
0.062312167 -0.19631092 -0.32694867
0.062485572 -0.19632564 -0.326965
0.081974 -0.196367 -0.32697701
0.082121998 -0.19638 -0.32691899
0.082314663 -0.19638999 -0.32696733
0.082411997 -0.1964 -0.32695201
0.083690003 -0.19639701 -0.326985
0.083901376 -0.19630988 -0.32695186
0.084093995 -0.19630234 -0.32695201
0.084295496 -0.19631925 -0.32690826
0.084500998 -0.196327 -0.32694799
0.084734 -0.196374 -0.3269935
0.059951 -0.196181 -0.326998
0.060098667 -0.19616099 -0.326969
0.060274862 -0.19612563 -0.32694951
0.060531717 -0.19609034 -0.32693797
0.060684316 -0.19608384 -0.32697231
0.062325999 -0.196173 -0.32698852
0.062450498 -0.196179 -0.3269915
0.060311802 -0.1959894 -0.32699117
0.060549997 -0.19596 -0.3269864
0.071585 -0.211051 -0.32667801
0.073655002 -0.21101201 -0.32679701
0.069922999 -0.210857 -0.326794
0.070120998 -0.21086851 -0.32679498
0.070276327 -0.21080601 -0.32676032
0.070491336 -0.21084434 -0.32676837
0.07073275 -0.2108365 -0.32678276
0.070863001 -0.210849 -0.32679901
0.071345255 -0.21087325 -0.32675099
0.071481504 -0.21091081 -0.32671666
0.071737997 -0.21087438 -0.32667425
0.071905158 -0.21086149 -0.32671407
0.072134003 -0.210841 -0.32670599
0.07254 -0.210804 -0.32679999
0.073347993 -0.21084666 -0.32676768
0.07354375 -0.21089175 -0.32671702
0.073708855 -0.21089642 -0.32669702
0.073905997 -0.210807 -0.32676601
0.074147001 -0.21082349 -0.3267445
0.06955 -0.210627 -0.326781
0.069707781 -0.21070006 -0.32672185
0.069914699 -0.2107209 -0.32670352
0.07011991 -0.21071726 -0.32668757
0.070257887 -0.210702 -0.32667053
0.070521757 -0.21070825 -0.32668099
0.070729539 -0.21068338 -0.32670322
0.070913836 -0.21070634 -0.32673481
0.071052253 -0.21070425 -0.32674488
0.071303003 -0.21072099 -0.32666785
0.071431249 -0.21076351 -0.32666349
0.071601003 -0.21080001 -0.326612
0.071933664 -0.21074833 -0.32660934
0.072138503 -0.21072701 -0.326628
0.072366498 -0.21074501 -0.32670802
0.072511509 -0.21068609 -0.32670218
0.072651602 -0.21069141 -0.326747
0.072927997 -0.21062675 -0.326767
0.0730514 -0.2106535 -0.32675618
0.073312998 -0.21070021 -0.32671368
0.0734495 -0.2107005 -0.3266415
0.074147001 -0.2107425 -0.32664049
0.074350663 -0.21068783 -0.32667899
0.074508697 -0.2106839 -0.32670519
0.074641667 -0.21064 -0.32672101
0.075184494 -0.21063951 -0.326776
0.075261496 -0.21063 -0.32676718
0.075525112 -0.21068045 -0.32668245
0.075644001 -0.210647 -0.32663602
0.069317997 -0.21043999 -0.32676649
0.069488861 -0.21049513 -0.32670873
0.069700785 -0.21052788 -0.32663009
0.069987997 -0.210559 -0.32660201
0.070120007 -0.2105675 -0.32660151
0.070736282 -0.21052215 -0.32662585
0.070915803 -0.21050057 -0.32663259
0.071068197 -0.21053541 -0.32664356
0.072515592 -0.21057241 -0.3266224
0.072703898 -0.21053319 -0.32667658
0.072922505 -0.21049833 -0.32670864
0.073058702 -0.2105062 -0.32668221
0.073301166 -0.210518 -0.32663798
0.073411003 -0.210556 -0.32662499
0.074542999 -0.21055 -0.32661137
0.074702673 -0.21053068 -0.32665265
0.074902229 -0.21050876 -0.32669291
0.075051002 -0.21051449 -0.32669351
0.075250283 -0.21049356 -0.32664514
0.075866997 -0.210567 -0.32672501
0.076113202 -0.21046619 -0.32670099
0.068358004 -0.210206 -0.326767
0.068497337 -0.21021734 -0.32678932
0.068715997 -0.210235 -0.326796
0.069131002 -0.21026775 -0.32675827
0.069321252 -0.21032549 -0.32667047
0.069445498 -0.21036124 -0.32664651
0.072778001 -0.210379 -0.32663101
0.0729388 -0.21035819 -0.32663
0.073038667 -0.21039134 -0.32661068
0.074909329 -0.210361 -0.32661131
0.075011998 -0.210363 -0.32660201
0.076108664 -0.21035965 -0.326626
0.076274671 -0.21031313 -0.32667431
0.076452002 -0.210254 -0.32674301
0.067593001 -0.21002799 -0.32678401
0.067673005 -0.21002765 -0.32677099
0.067931749 -0.21006624 -0.32669801
0.068071231 -0.21010807 -0.32673663
0.06830772 -0.21010871 -0.32671729
0.068513997 -0.21009184 -0.32672402
0.068678834 -0.2100845 -0.32673299
0.068852998 -0.21009368 -0.326709
0.069082089 -0.210105 -0.32667336
0.069271997 -0.21017601 -0.326612
0.076455504 -0.21014151 -0.326662
0.076643996 -0.21007933 -0.32674968
0.067562252 -0.20988625 -0.32672709
0.067661673 -0.20987755 -0.32666999
0.067920998 -0.20993035 -0.326617
0.068065375 -0.20994051 -0.32662737
0.068313606 -0.20995219 -0.32662719
0.068508998 -0.20997034 -0.32665399
0.068687752 -0.20990175 -0.32663801
0.068862006 -0.20991051 -0.326621
0.0690405 -0.20995051 -0.32661599
0.076698832 -0.20991451 -0.32668948
0.076847002 -0.20986199 -0.32677799
0.065756001 -0.20966433 -0.326774
0.065915085 -0.20968409 -0.32676318
0.066087306 -0.20969319 -0.32674164
0.066266499 -0.20970316 -0.32676569
0.066501163 -0.20964515 -0.32674703
0.066722661 -0.20962767 -0.32677135
0.066848502 -0.20963651 -0.32679552
0.067309603 -0.2096864 -0.32676721
0.067561246 -0.20969701 -0.32667077
0.067631602 -0.2097058 -0.3266204
0.068649001 -0.20979001 -0.326601
0.076755002 -0.209737 -0.32664001
0.076893657 -0.20971799 -0.32671356
0.077103995 -0.20969121 -0.32674724
0.077258602 -0.2096992 -0.326754
0.077594504 -0.2097165 -0.326702
0.077701285 -0.20972513 -0.32665744
0.077903003 -0.209631 -0.32663801
0.064788997 -0.20944899 -0.326792
0.065504715 -0.2094283 -0.32674974
0.065722004 -0.20950049 -0.32667875
0.065926567 -0.20951886 -0.32664999
0.066093996 -0.2095457 -0.32665578
0.066274785 -0.20951955 -0.32666552
0.066460997 -0.20949724 -0.3266905
0.066706821 -0.20948364 -0.32668018
0.06690833 -0.20949216 -0.32673231
0.067060553 -0.20947655 -0.32674703
0.067286499 -0.20950688 -0.32666716
0.076980002 -0.209575 -0.326666
0.077127501 -0.20956725 -0.32665801
0.0772622 -0.20956199 -0.32663858
0.078124002 -0.20951226 -0.32668674
0.078286998 -0.20945817 -0.32671067
0.064332999 -0.20923932 -0.326731
0.064503253 -0.20925274 -0.32670999
0.064748667 -0.20929867 -0.32671615
0.064914174 -0.20928517 -0.32673371
0.065056503 -0.20928876 -0.3267535
0.065295994 -0.209299 -0.3267355
0.065483816 -0.20930901 -0.32667935
0.065668002 -0.20930949 -0.32660651
0.066466004 -0.2093875 -0.32663149
0.066696994 -0.20932212 -0.32662243
0.066921115 -0.209297 -0.32663578
0.067069381 -0.20927685 -0.326653
0.067227997 -0.209356 -0.32660699
0.078324877 -0.20935863 -0.32666913
0.078428201 -0.20930019 -0.3266958
0.078603998 -0.20926 -0.32678199
0.063749753 -0.20905775 -0.326772
0.063857496 -0.20908017 -0.32673201
0.064071998 -0.20913401 -0.32670039
0.0643012 -0.20914081 -0.3266592
0.064507499 -0.209141 -0.326635
0.064708002 -0.209148 -0.32662499
0.064926669 -0.20910273 -0.3266432
0.065066166 -0.20910768 -0.32667503
0.065306164 -0.20911901 -0.32666099
0.065470502 -0.20916912 -0.32663265
0.067059003 -0.20913649 -0.32660198
0.078680798 -0.20910439 -0.326711
0.063371003 -0.20884249 -0.32672799
0.06348633 -0.20885624 -0.32666987
0.0637348 -0.2089316 -0.32666299
0.063860662 -0.20896666 -0.32663834
0.065126002 -0.20892951 -0.326621
0.065249994 -0.20894149 -0.326619
0.078767002 -0.20898201 -0.32668099
0.078878812 -0.20889573 -0.32667029
0.063305601 -0.208693 -0.32673961
0.06347625 -0.208718 -0.32661575
0.078909248 -0.20874326 -0.32661125
0.079154998 -0.20866799 -0.32677701
0.079324797 -0.20864539 -0.32673579
0.079493992 -0.20866095 -0.32676008
0.079672903 -0.2086821 -0.32674867
0.079855993 -0.20866549 -0.3267
0.063105002 -0.20845599 -0.32679799
0.063279174 -0.20852391 -0.32672125
0.063466504 -0.20852874 -0.32662323
0.079158999 -0.208517 -0.32664034
0.079316601 -0.20851049 -0.32664388
0.079491816 -0.20850591 -0.3266499
0.079660662 -0.20854402 -0.32662332
0.079999 -0.208496 -0.32664001
0.080063 -0.2084645 -0.326662
0.062689669 -0.20822066 -0.32676885
0.062890001 -0.208241 -0.32678035
0.063063003 -0.20831086 -0.32676572
0.063254111 -0.20830956 -0.32666957
0.063401997 -0.208381 -0.326617
0.080136999 -0.20836399 -0.32665101
0.080255993 -0.20825134 -0.326637
0.062157001 -0.208049 -0.32678699
0.062314663 -0.20806934 -0.32675698
0.062484756 -0.20810002 -0.32674301
0.06270507 -0.20808934 -0.32669276
0.062883936 -0.20808074 -0.32667053
0.063075133 -0.20809513 -0.32667837
0.063239664 -0.20814466 -0.326635
0.080360003 -0.208159 -0.32660699
0.080425002 -0.208095 -0.32660899
0.061947331 -0.20784734 -0.326749
0.06210338 -0.20789187 -0.32671964
0.062298633 -0.20793463 -0.32666883
0.062477004 -0.20796166 -0.32663235
0.062651999 -0.20799766 -0.32662967
0.063134 -0.20795199 -0.32660201
0.061579999 -0.207671 -0.32679099
0.061695665 -0.20769633 -0.32674298
0.061913166 -0.20771016 -0.32665434
0.062043667 -0.20774867 -0.32662201
0.06134025 -0.20748076 -0.32677224
0.061508428 -0.20750678 -0.32671961
0.061651248 -0.20754151 -0.3266595
0.061334748 -0.20730226 -0.32673562
0.061465252 -0.20731683 -0.32665008
0.06128918 -0.20709029 -0.32672828
0.061424505 -0.20708375 -0.32661787
0.080969498 -0.207049 -0.326635
0.061126001 -0.20681401 -0.326776
0.06127825 -0.20687769 -0.32667825
0.061411001 -0.20695101 -0.32661
0.081096999 -0.206815 -0.32673699
0.081292666 -0.20685667 -0.32677665
0.081491336 -0.20684566 -0.32677531
0.081717998 -0.206857 -0.32675701
0.081910804 -0.20689459 -0.3267546
0.082055002 -0.206857 -0.32671824
0.061118752 -0.20667201 -0.32674873
0.061262164 -0.20669933 -0.32663599
0.081100501 -0.20670399 -0.32665199
0.0813336 -0.20670319 -0.3266688
0.081494145 -0.20671745 -0.32666498
0.081721246 -0.206745 -0.32666498
0.081894331 -0.2067415 -0.32665101
0.082030997 -0.206728 -0.326637
0.060728598 -0.20643421 -0.32673919
0.060906902 -0.20646635 -0.32673037
0.061081626 -0.20651813 -0.326736
0.061245747 -0.20654175 -0.32662302
0.060366601 -0.20623501 -0.32675761
0.060468309 -0.20627062 -0.32673869
0.060722083 -0.20630576 -0.32665506
0.060892936 -0.20633432 -0.3266263
0.061094001 -0.20638134 -0.32664201
0.060131717 -0.20608442 -0.32676128
0.060343198 -0.20609991 -0.32666081
0.06045967 -0.206122 -0.32663333
0.059921667 -0.20586868 -0.32671756
0.060073446 -0.20592971 -0.32667905
0.060257502 -0.2059845 -0.32662451
0.059736751 -0.20560649 -0.32666001
0.059893273 -0.20572352 -0.32666099
0.0595535 -0.20546 -0.326727
0.059681166 -0.20550899 -0.32665485
0.059503753 -0.20531444 -0.32670256
0.059624001 -0.205386 -0.32662401
0.0593835 -0.205071 -0.32676899
0.059510797 -0.20511051 -0.32665962
0.083012998 -0.2050705 -0.326648
0.0593578 -0.2048808 -0.32674217
0.059494082 -0.20490734 -0.3266319
0.083062001 -0.20490134 -0.32669201
0.05929675 -0.20466825 -0.32676226
0.059445333 -0.20470633 -0.32663199
0.083129339 -0.20469701 -0.32671431
0.083205 -0.204629 -0.326758
0.059278287 -0.204466 -0.32674217
0.059419997 -0.20450801 -0.32661599
0.083157666 -0.20448299 -0.32663235
0.083258554 -0.20449212 -0.32669854
0.083528668 -0.20447649 -0.32674268
0.083650671 -0.20446765 -0.326763
0.059187666 -0.204289 -0.32678935
0.059271839 -0.20430051 -0.32671234
0.083277002 -0.20432141 -0.3266246
0.083547004 -0.20430574 -0.32666138
0.083668165 -0.20430082 -0.32668799
0.083826333 -0.20430933 -0.32670569
0.084117249 -0.20429374 -0.32674074
0.084280387 -0.20430061 -0.32669726
0.059192251 -0.20414275 -0.32678351
0.059270725 -0.20412092 -0.32670662
0.068966337 -0.20405702 -0.32660636
0.06910333 -0.20406866 -0.32661
0.069298662 -0.20408201 -0.32661065
0.069500998 -0.204065 -0.32661101
0.069695003 -0.204008 -0.32660201
0.070583001 -0.20405801 -0.326637
0.070708498 -0.20406425 -0.3266145
0.083675504 -0.2041575 -0.32661802
0.083832003 -0.204163 -0.32660699
0.084137 -0.20417199 -0.32666117
0.084272325 -0.20416819 -0.32663849
0.084623002 -0.204005 -0.326653
0.058795001 -0.20383 -0.32678801
0.058916859 -0.203844 -0.32675999
0.059152689 -0.20391521 -0.32670838
0.0592505 -0.20391501 -0.32667041
0.068945862 -0.20389529 -0.32661471
0.069092996 -0.20389687 -0.32662186
0.069291331 -0.20392101 -0.32662502
0.069526002 -0.20391074 -0.3266125
0.069691002 -0.20386882 -0.32660717
0.070592999 -0.20399299 -0.326693
0.070706144 -0.20392285 -0.32667184
0.070824996 -0.2038645 -0.32662499
0.071309336 -0.20389234 -0.32660332
0.071456335 -0.203857 -0.32660702
0.084679998 -0.20386925 -0.32668
0.058584001 -0.203613 -0.32678199
0.058714423 -0.20367399 -0.326736
0.058890667 -0.20369232 -0.32666582
0.059180997 -0.203768 -0.32660699
0.059244752 -0.2037735 -0.32662398
0.067541003 -0.20360649 -0.326608
0.0685592 -0.20365241 -0.32660899
0.068761498 -0.20364299 -0.32661349
0.068911768 -0.20368579 -0.326621
0.069089666 -0.20369799 -0.32664344
0.069309503 -0.20371418 -0.32664564
0.069556832 -0.20372349 -0.32665333
0.069666803 -0.20371518 -0.32662639
0.069901228 -0.20367435 -0.32662088
0.070058003 -0.20366681 -0.32661638
0.070283309 -0.20365322 -0.32661802
0.070404999 -0.203665 -0.326608
0.070766114 -0.20372301 -0.32667822
0.070852667 -0.20372812 -0.32664466
0.071028501 -0.2036345 -0.32663101
0.07131356 -0.20366132 -0.326626
0.071514554 -0.20369846 -0.32661468
0.071649499 -0.2036325 -0.3266075
0.084730498 -0.2037635 -0.32664001
0.084831998 -0.203666 -0.32666299
0.058530584 -0.20349568 -0.32674968
0.058670003 -0.20351061 -0.32666284
0.058807999 -0.20354199 -0.32662201
0.067268997 -0.203453 -0.326603
0.067556001 -0.20347546 -0.3266322
0.067750201 -0.20346701 -0.3266196
0.067827493 -0.20345201 -0.3266145
0.068113312 -0.20349263 -0.32662407
0.068279505 -0.20347601 -0.32662201
0.068516247 -0.20352358 -0.32662842
0.068692572 -0.20347871 -0.32664302
0.068930335 -0.20347923 -0.32664576
0.069107994 -0.20349091 -0.32666257
0.069315404 -0.20352161 -0.32669261
0.0695296 -0.2035158 -0.32668501
0.069671124 -0.20351362 -0.32666826
0.069921426 -0.20348899 -0.32665032
0.070085168 -0.20347565 -0.32664835
0.07029745 -0.20348877 -0.32664332
0.070472427 -0.20346513 -0.32662201
0.070741497 -0.20349263 -0.3266471
0.070854507 -0.20351909 -0.32665166
0.071090661 -0.20348734 -0.32664534
0.071330912 -0.20347734 -0.32664049
0.071524501 -0.2035 -0.3266319
0.071653001 -0.20348515 -0.32662943
0.071877003 -0.20343801 -0.32660151
0.072352 -0.203462 -0.32660601
0.084913336 -0.20348799 -0.32667732
0.05833767 -0.20328356 -0.32673392
0.058514614 -0.20332906 -0.32665434
0.058625001 -0.20339499 -0.32662001
0.067192003 -0.203246 -0.32660201
0.067326255 -0.2033115 -0.32662064
0.067510694 -0.20331748 -0.32664406
0.067717493 -0.20328026 -0.32665148
0.067842498 -0.20327848 -0.32662284
0.068126306 -0.20330246 -0.32665393
0.068258807 -0.2032886 -0.32666141
0.068529367 -0.20332336 -0.32666543
0.068669997 -0.20331807 -0.32666406
0.06893529 -0.203284 -0.32669401
0.069105543 -0.20327801 -0.32671055
0.069282673 -0.203299 -0.32672033
0.069491334 -0.20330767 -0.32670933
0.069680996 -0.20331523 -0.32668787
0.069906004 -0.20333 -0.32666835
0.070081003 -0.20328799 -0.32667345
0.070305876 -0.20328638 -0.32667667
0.070498504 -0.20328484 -0.32665938
0.070715405 -0.20330779 -0.32665437
0.070861638 -0.20330529 -0.32664967
0.071090505 -0.20334275 -0.32664925
0.071331076 -0.20328069 -0.32667506
0.071521334 -0.20328318 -0.326655
0.071657784 -0.20328844 -0.32665813
0.071904428 -0.20329115 -0.32661471
0.072039664 -0.20326202 -0.32660833
0.072332501 -0.20339149 -0.32660401
0.084948666 -0.20332502 -0.32662666
0.085069999 -0.203261 -0.326637
0.058124874 -0.20306201 -0.32676077
0.058288138 -0.20311581 -0.32667241
0.058426999 -0.203173 -0.326612
0.066949666 -0.20309098 -0.32661936
0.067081667 -0.20309933 -0.32662266
0.067289904 -0.20311061 -0.32663614
0.067509413 -0.20312594 -0.32667512
0.067693874 -0.20310637 -0.32668248
0.067853712 -0.20306273 -0.32666826
0.068139665 -0.20309059 -0.32668206
0.068266667 -0.20309584 -0.32669052
0.068533778 -0.2031092 -0.32669377
0.068655245 -0.20312114 -0.32668182
0.068884574 -0.20311271 -0.32670769
0.069082886 -0.20307489 -0.32673234
0.069256835 -0.20308767 -0.326745
0.069509998 -0.20310067 -0.32673216
0.069699436 -0.20310766 -0.32670698
0.069916494 -0.20312299 -0.32668731
0.070074752 -0.20311925 -0.32668114
0.070317738 -0.20307432 -0.32668552
0.070485003 -0.20308185 -0.32668158
0.070688911 -0.20309871 -0.3267042
0.070871621 -0.20309882 -0.32668865
0.071070999 -0.20311402 -0.32662567
0.071309604 -0.20311499 -0.3266944
0.07150612 -0.20308301 -0.32667738
0.071675777 -0.20308089 -0.32667202
0.07190717 -0.20309384 -0.32663032
0.072043784 -0.20310231 -0.32663766
0.072260998 -0.20309375 -0.32661325
0.072497666 -0.20305133 -0.32660568
0.072623998 -0.20306 -0.32660201
0.084959 -0.20318601 -0.32661101
0.085080333 -0.20312066 -0.32662234
0.057962999 -0.202813 -0.326765
0.058117397 -0.20288427 -0.326691
0.058230668 -0.20293599 -0.326628
0.066777997 -0.202805 -0.32660499
0.066898428 -0.20285957 -0.32662717
0.067094833 -0.20289248 -0.32666001
0.067312665 -0.202896 -0.32664746
0.06751667 -0.20291503 -0.32669532
0.067673445 -0.20292288 -0.32670367
0.067856006 -0.20290099 -0.32670164
0.068147898 -0.20288989 -0.32669851
0.068266004 -0.20288038 -0.32671389
0.068523996 -0.20290101 -0.32671633
0.068661071 -0.20291333 -0.32671162
0.068913661 -0.20292622 -0.32673112
0.069110572 -0.20288886 -0.32676187
0.069275498 -0.20288201 -0.326772
0.069449998 -0.20289133 -0.32674998
0.069689751 -0.20289968 -0.32673165
0.069934495 -0.20291565 -0.32670084
0.070101887 -0.20292233 -0.32670322
0.07033354 -0.20289263 -0.32669935
0.070479125 -0.2028735 -0.32669225
0.070710495 -0.20295849 -0.32679051
0.070879504 -0.20289417 -0.32668531
0.071364127 -0.20293425 -0.32672486
0.071469292 -0.2029136 -0.32671142
0.071677186 -0.20286636 -0.32668236
0.071925998 -0.20288683 -0.32665381
0.072061665 -0.20289487 -0.32664946
0.072315998 -0.202916 -0.3266497
0.072498411 -0.20290513 -0.32663178
0.072659403 -0.202895 -0.32661459
0.073118448 -0.20286292 -0.32661197
0.073240004 -0.20283735 -0.32660666
0.085143998 -0.202913 -0.32662451
0.057920557 -0.20266478 -0.32674676
0.058103401 -0.20272699 -0.32662338
0.066525564 -0.20267422 -0.32661211
0.066685617 -0.20272176 -0.32662946
0.066910751 -0.20268087 -0.32664537
0.067113496 -0.20268615 -0.32668898
0.067314669 -0.20269924 -0.32671416
0.06751667 -0.20270784 -0.32672426
0.067671917 -0.20271565 -0.32673323
0.067871667 -0.20272799 -0.32671919
0.06815967 -0.20267445 -0.32669985
0.068275556 -0.20268112 -0.3267141
0.068541326 -0.20269348 -0.32671833
0.068678938 -0.2027062 -0.32672533
0.068911001 -0.20272771 -0.32674196
0.069096088 -0.20270444 -0.3267771
0.06929367 -0.20267498 -0.32678869
0.069468997 -0.20268469 -0.32677868
0.069673449 -0.20269078 -0.32675278
0.069854334 -0.20270164 -0.32673284
0.070081905 -0.20272018 -0.32671574
0.070322499 -0.20271607 -0.32671514
0.070500918 -0.202693 -0.32671282
0.070711426 -0.20265701 -0.326731
0.070895061 -0.20268406 -0.32672402
0.071107 -0.20269901 -0.32665133
0.071344003 -0.20270538 -0.32671201
0.071459211 -0.20272323 -0.32671434
0.071684375 -0.2026995 -0.32668114
0.071944833 -0.2026795 -0.32667914
0.072080001 -0.20268789 -0.32666612
0.072320841 -0.20269835 -0.32666382
0.072509125 -0.20270617 -0.32665217
0.072674751 -0.20272376 -0.32662722
0.072805002 -0.20265099 -0.32662699
0.073115177 -0.20271134 -0.32663009
0.073280081 -0.20266451 -0.32662258
0.085207663 -0.20270534 -0.32662332
0.057890002 -0.20250811 -0.32672331
0.058065001 -0.2026 -0.32661399
0.066370666 -0.20250332 -0.32660833
0.066509008 -0.20251191 -0.3266257
0.066686198 -0.20252453 -0.32664755
0.066870876 -0.20251411 -0.32665724
0.067100748 -0.2024685 -0.32669985
0.067308769 -0.20249088 -0.32672587
0.067494541 -0.20250502 -0.32674631
0.067656748 -0.20250617 -0.32674542
0.067873277 -0.20251323 -0.32672235
0.068158247 -0.2025 -0.3267225
0.068272412 -0.20247293 -0.32671317
0.068508662 -0.20248367 -0.32672164
0.068682618 -0.20249727 -0.3267411
0.068915002 -0.20251 -0.32675335
0.06906978 -0.20251799 -0.32677281
0.069287002 -0.20248528 -0.32679057
0.069486327 -0.20247634 -0.32678333
0.069690213 -0.20248169 -0.32674745
0.069871999 -0.20249401 -0.32674149
0.070074558 -0.2025049 -0.3267211
0.070324533 -0.20251934 -0.32672536
0.070482008 -0.20251983 -0.32672325
0.070698328 -0.20249009 -0.32671121
0.070916891 -0.20248096 -0.32673645
0.071128331 -0.20249565 -0.32672599
0.071335144 -0.20251413 -0.3267273
0.071464449 -0.20250854 -0.32672083
0.071699835 -0.20252682 -0.32669774
0.071944334 -0.202516 -0.32668334
0.072081633 -0.20247298 -0.32668078
0.072338328 -0.20249017 -0.32666853
0.072516933 -0.20250176 -0.32666022
0.072639242 -0.20249501 -0.32662988
0.072817668 -0.20251434 -0.32665202
0.073122174 -0.20252831 -0.32664055
0.073297329 -0.20248623 -0.32663575
0.073428333 -0.20247434 -0.32661301
0.085225664 -0.20249701 -0.32663333
0.057783 -0.20229775 -0.32677776
0.057880666 -0.20231859 -0.32669312
0.066372335 -0.20229368 -0.32660767
0.066521063 -0.20229954 -0.32661986
0.066690333 -0.20231619 -0.32665291
0.066868879 -0.20232378 -0.32666856
0.067056 -0.2023005 -0.326711
0.067296498 -0.20228165 -0.32673791
0.067503333 -0.20229141 -0.3267478
0.067657836 -0.20229776 -0.32675758
0.067883916 -0.2023109 -0.3267239
0.068167195 -0.2023408 -0.32673621
0.068289705 -0.2022862 -0.32672882
0.068527006 -0.20227568 -0.32674032
0.068701059 -0.20229033 -0.32676303
0.06893266 -0.20230234 -0.32676616
0.069087446 -0.20231067 -0.32678345
0.069291398 -0.2023268 -0.32679719
0.069499999 -0.20230299 -0.32677698
0.069708891 -0.20227489 -0.32676765
0.069889165 -0.20228635 -0.32674682
0.070092887 -0.20229755 -0.32674021
0.070325091 -0.20231116 -0.32673618
0.070486404 -0.20231827 -0.32672822
0.070696726 -0.20232099 -0.32672307
0.070924774 -0.20228314 -0.32673734
0.071078829 -0.20228367 -0.32675833
0.071343668 -0.20229667 -0.32676187
0.071478248 -0.20230792 -0.32675239
0.071717836 -0.20231916 -0.32671246
0.071930327 -0.20232767 -0.32667899
0.072098367 -0.20227827 -0.32669279
0.072330996 -0.20229925 -0.32667899
0.072515063 -0.20228499 -0.32667315
0.072653331 -0.2022958 -0.32665512
0.072834998 -0.20230667 -0.32665667
0.073134452 -0.2023273 -0.32665837
0.073291712 -0.2023143 -0.32664084
0.073443994 -0.2023015 -0.326628
0.057763148 -0.20209415 -0.3267743
0.057880811 -0.20210925 -0.32667133
0.066053003 -0.20200351 -0.32660449
0.066333622 -0.20206852 -0.32662636
0.066517994 -0.20209585 -0.32664311
0.066691883 -0.20210795 -0.3266629
0.066886999 -0.20211667 -0.32668525
0.067071341 -0.20212834 -0.3267245
0.067322277 -0.20208146 -0.32675353
0.067513272 -0.20209008 -0.32675317
0.067669921 -0.20208462 -0.32676256
0.0679015 -0.20210366 -0.3267301
0.068165667 -0.20211934 -0.32674435
0.06826815 -0.20212594 -0.32673854
0.068495668 -0.20208867 -0.32674301
0.068718605 -0.20208234 -0.3267681
0.068922997 -0.2021095 -0.32676125
0.069077 -0.20209333 -0.32678619
0.069283664 -0.20216434 -0.32679799
0.069513001 -0.20216501 -0.326794
0.069754995 -0.2020832 -0.32677501
0.069907665 -0.20207866 -0.32676417
0.070111439 -0.20209022 -0.32676345
0.070336096 -0.202108 -0.32672554
0.070498124 -0.20210619 -0.32674241
0.070705004 -0.20212588 -0.32673892
0.070909359 -0.20211263 -0.32676214
0.071083002 -0.20206459 -0.32676083
0.071313664 -0.20208667 -0.32677832
0.071478136 -0.20209786 -0.32675645
0.071710005 -0.20210956 -0.32670522
0.071878999 -0.20211667 -0.32670799
0.072098106 -0.20210934 -0.32669291
0.072327003 -0.20207368 -0.32669899
0.072510667 -0.20208074 -0.32669458
0.072656006 -0.20208849 -0.32668057
0.072852999 -0.202098 -0.32666734
0.073138893 -0.20211266 -0.32667869
0.073283143 -0.20212062 -0.32665429
0.073432662 -0.20212601 -0.32662466
0.057761889 -0.20189567 -0.32676622
0.057877649 -0.20189951 -0.32665563
0.065567002 -0.20185702 -0.32660532
0.065706998 -0.201876 -0.326608
0.066091575 -0.20190544 -0.32660657
0.066290222 -0.201877 -0.32663596
0.066505559 -0.20189205 -0.32667965
0.066681594 -0.20189595 -0.32669702
0.066880837 -0.20190901 -0.32670283
0.067089327 -0.20192099 -0.32674083
0.067296378 -0.20190075 -0.32675526
0.067493722 -0.20188092 -0.32676435
0.067677394 -0.20188159 -0.32676375
0.067918919 -0.20189565 -0.32673606
0.06818267 -0.20191164 -0.32674301
0.068275332 -0.20191775 -0.32675228
0.068486504 -0.20192717 -0.32676163
0.068725571 -0.20187879 -0.32676986
0.068860501 -0.20188135 -0.32675532
0.069093667 -0.201893 -0.32679099
0.069272667 -0.20193 -0.32679436
0.069537997 -0.20185199 -0.32679299
0.069758996 -0.20191579 -0.32677898
0.069932602 -0.20188579 -0.326772
0.070128769 -0.20188212 -0.32676399
0.070341669 -0.20189343 -0.32675034
0.070483536 -0.20190173 -0.32674995
0.070687249 -0.20191057 -0.32676193
0.070911743 -0.20192365 -0.32676455
0.071094573 -0.20188713 -0.32678056
0.071328998 -0.201914 -0.32679498
0.071487717 -0.20189393 -0.32675549
0.07171531 -0.2018944 -0.32671589
0.071896337 -0.20190917 -0.32671249
0.072121672 -0.20192476 -0.32669947
0.072342001 -0.20190001 -0.32670599
0.072522916 -0.20188366 -0.3267006
0.072663859 -0.2018753 -0.32669714
0.072870009 -0.20189066 -0.32666466
0.073142424 -0.20191358 -0.32667631
0.073289476 -0.20190769 -0.32666332
0.073451005 -0.20191814 -0.32664114
0.085338503 -0.2018415 -0.32663602
0.057758283 -0.20168801 -0.32676929
0.057869468 -0.20169948 -0.32666704
0.065557405 -0.20169452 -0.32661229
0.065671004 -0.20167951 -0.32662082
0.065918997 -0.20164549 -0.32660502
0.066098556 -0.20171899 -0.32660687
0.066316873 -0.20167939 -0.32664889
0.066511855 -0.20168535 -0.32669729
0.066689745 -0.20168868 -0.32670698
0.066898495 -0.20170142 -0.32671094
0.067106836 -0.20171283 -0.32674852
0.06731762 -0.20171936 -0.32676214
0.067497 -0.2017009 -0.32677132
0.067695603 -0.20167427 -0.32678139
0.067922302 -0.2016937 -0.32674041
0.068069667 -0.20169634 -0.32675168
0.068280861 -0.20170464 -0.3267698
0.068435006 -0.20171666 -0.32678366
0.068742178 -0.20169128 -0.32677475
0.068877667 -0.20167316 -0.32675734
0.069086 -0.20171139 -0.32679638
0.069279 -0.201629 -0.32679901
0.069544002 -0.201784 -0.32679701
0.069740996 -0.20173071 -0.32679227
0.069894716 -0.20170999 -0.3267757
0.070139252 -0.20168263 -0.32676712
0.070316568 -0.20167257 -0.32676658
0.070486441 -0.20169388 -0.32677284
0.070705585 -0.2017035 -0.3267819
0.07092429 -0.20172058 -0.32677045
0.071057126 -0.20171726 -0.32679176
0.071277998 -0.2016335 -0.32678849
0.07148733 -0.20167959 -0.32676426
0.071712427 -0.20169242 -0.32672158
0.07191401 -0.201701 -0.32671782
0.072126396 -0.20172381 -0.32671088
0.072295398 -0.20171019 -0.32670659
0.072516441 -0.20170969 -0.32671112
0.072680004 -0.20167701 -0.32669383
0.072887667 -0.201683 -0.32667267
0.073150665 -0.20169432 -0.32667565
0.073295832 -0.20170742 -0.32666796
0.073498197 -0.20170312 -0.32663271
0.073665 -0.201719 -0.32660767
0.0853495 -0.201701 -0.326621
0.057757091 -0.20147362 -0.32676437
0.057870328 -0.20148169 -0.32667834
0.065346003 -0.20140401 -0.32660699
0.065565005 -0.20149563 -0.32662877
0.065666229 -0.20149499 -0.32663524
0.065916203 -0.2015204 -0.32661319
0.066098571 -0.20150256 -0.32661939
0.066310711 -0.20151128 -0.32665104
0.066521637 -0.20147882 -0.32670835
0.066687636 -0.20148738 -0.3267217
0.066900499 -0.20148899 -0.32672659
0.06712433 -0.20150584 -0.32675251
0.067335665 -0.20152037 -0.32677111
0.067506 -0.2015278 -0.3267785
0.067700274 -0.2014977 -0.32678783
0.067932107 -0.20147878 -0.326756
0.068020999 -0.20148401 -0.32674
0.068292469 -0.20150128 -0.32677317
0.068447001 -0.20157801 -0.32679701
0.068755254 -0.20153625 -0.32678226
0.068863831 -0.20149982 -0.32676199
0.069049001 -0.201544 -0.32679901
0.069249161 -0.20148467 -0.32678866
0.069761001 -0.2015125 -0.32679302
0.069898248 -0.20152886 -0.32676825
0.070109203 -0.2014914 -0.32676658
0.070287496 -0.20149483 -0.32675898
0.070488371 -0.20148446 -0.32677442
0.070670836 -0.20150484 -0.32678548
0.07091257 -0.20149985 -0.32677358
0.07103987 -0.20152399 -0.32678589
0.07127279 -0.2015148 -0.32679197
0.071506731 -0.20147754 -0.32674572
0.071704671 -0.20148489 -0.32673353
0.071856722 -0.20149885 -0.32671815
0.072110273 -0.20149873 -0.32668138
0.072294667 -0.2015145 -0.32669231
0.07251811 -0.20152423 -0.32671601
0.072667919 -0.20151164 -0.32671076
0.072904997 -0.20147467 -0.32667434
0.073128663 -0.20148332 -0.32667601
0.073285006 -0.20149381 -0.32667923
0.073460996 -0.20150054 -0.32664579
0.073643282 -0.20151685 -0.3266153
0.085363001 -0.201526 -0.32660666
0.057759874 -0.20126349 -0.32676098
0.057871085 -0.20128441 -0.3266671
0.065280505 -0.20129751 -0.32661352
0.065543003 -0.20124198 -0.32662433
0.065665834 -0.20128636 -0.32665452
0.065881334 -0.20130134 -0.32663599
0.066110671 -0.20130976 -0.32664043
0.066329502 -0.20133236 -0.32666436
0.066499673 -0.20130867 -0.32669744
0.066694684 -0.20127557 -0.32673562
0.06688758 -0.201285 -0.32673824
0.067097336 -0.20129545 -0.32676801
0.067325495 -0.20131183 -0.32677782
0.067468785 -0.20133322 -0.326794
0.067706168 -0.20132689 -0.32679018
0.067954883 -0.20128076 -0.32676837
0.068039 -0.20127632 -0.32675335
0.068310402 -0.20129347 -0.32678479
0.068469673 -0.20130067 -0.32679299
0.06875512 -0.20130891 -0.32679144
0.068871595 -0.2013202 -0.3267805
0.069448002 -0.201359 -0.32679701
0.069784999 -0.20137399 -0.32679501
0.069885008 -0.20131068 -0.32679167
0.070104666 -0.2013239 -0.32676804
0.070261598 -0.20131619 -0.32676321
0.070492469 -0.20128042 -0.32677585
0.070670098 -0.20126866 -0.32679135
0.070924461 -0.2012967 -0.32678202
0.071030997 -0.2013046 -0.3267906
0.071265504 -0.20133725 -0.32679522
0.0715129 -0.20130856 -0.32676303
0.071720891 -0.20127544 -0.32671735
0.071849667 -0.20127834 -0.32670349
0.0721175 -0.20129533 -0.32667762
0.072312333 -0.20130633 -0.3266995
0.072533883 -0.201315 -0.3266902
0.072690666 -0.20132317 -0.32669178
0.072919995 -0.20130101 -0.32668501
0.073146336 -0.20127535 -0.32668665
0.07330218 -0.2012855 -0.32667997
0.07347855 -0.20129234 -0.32664844
0.073662996 -0.20128897 -0.32662541
0.085358992 -0.20130162 -0.32662439
0.085464999 -0.20128849 -0.326655
0.057751223 -0.20109278 -0.32675877
0.057866 -0.20111999 -0.32665384
0.065295331 -0.20112449 -0.32662466
0.065537997 -0.201104 -0.32666901
0.065678544 -0.20107405 -0.3266829
0.06589967 -0.20109399 -0.32665601
0.066120058 -0.20110644 -0.32666525
0.066295497 -0.20110564 -0.32668102
0.066495918 -0.20112331 -0.32670203
0.066699564 -0.20110275 -0.32675877
0.066897459 -0.20107239 -0.32675225
0.067104496 -0.20109662 -0.32677862
0.067314997 -0.20111999 -0.32679799
0.067450337 -0.20110799 -0.32679364
0.067742281 -0.2011696 -0.32679313
0.067910753 -0.20111249 -0.32678726
0.068037406 -0.20108262 -0.32676521
0.068327397 -0.20108552 -0.32678229
0.068486333 -0.201092 -0.32678333
0.068774998 -0.20110899 -0.32679135
0.068875246 -0.20111783 -0.32677785
0.069761001 -0.201059 -0.32679701
0.069870219 -0.2010998 -0.32678568
0.070121787 -0.20111589 -0.32676613
0.070286497 -0.20112251 -0.326758
0.070502713 -0.20110099 -0.32675594
0.07070525 -0.20107585 -0.32677883
0.07092075 -0.201087 -0.32678258
0.071059823 -0.20109107 -0.32678789
0.071306996 -0.20109761 -0.3267906
0.071532749 -0.20112385 -0.3267577
0.071735166 -0.20110166 -0.3267175
0.071871594 -0.20108421 -0.32670942
0.072110109 -0.20108588 -0.3266831
0.072230838 -0.20109318 -0.32669234
0.0725061 -0.20111093 -0.32668081
0.072701685 -0.20111047 -0.32667875
0.072933331 -0.20112701 -0.32667035
0.073162004 -0.20110199 -0.32670099
0.073308945 -0.20108117 -0.3266857
0.073479004 -0.20107718 -0.32665136
0.073662199 -0.20110302 -0.32661739
0.085357666 -0.20112734 -0.32662335
0.0854498 -0.2010998 -0.32667261
0.057758443 -0.20092434 -0.32676756
0.057885833 -0.20091966 -0.32667527
0.058021002 -0.200868 -0.326603
0.064688332 -0.20088468 -0.32661369
0.064910203 -0.2008498 -0.32661262
0.065071501 -0.20086718 -0.32662299
0.06531366 -0.20091783 -0.32664415
0.065534115 -0.20092946 -0.32668692
0.065682694 -0.20088308 -0.32671654
0.065888748 -0.20086625 -0.3266755
0.066133939 -0.20089501 -0.32669386
0.066302449 -0.20090666 -0.32669488
0.066514336 -0.20091617 -0.32671857
0.066698015 -0.20092428 -0.326776
0.066903837 -0.20088725 -0.32677069
0.067079142 -0.20086728 -0.32677546
0.067330003 -0.20082501 -0.32679901
0.067437999 -0.200968 -0.32679901
0.067777663 -0.200936 -0.32679769
0.067895666 -0.20092016 -0.32679167
0.068043202 -0.20091581 -0.3267774
0.068328582 -0.20087683 -0.32677791
0.068456002 -0.20088117 -0.32678717
0.068730332 -0.20087235 -0.32679033
0.068860747 -0.20090775 -0.3267839
0.069737501 -0.20086627 -0.32679152
0.069886558 -0.20089111 -0.32677555
0.070104167 -0.20090616 -0.32675752
0.070271768 -0.20091245 -0.32676142
0.0705055 -0.20092681 -0.32675195
0.070694126 -0.20090075 -0.32676014
0.070893914 -0.20086999 -0.3267729
0.071064867 -0.20088693 -0.32677162
0.071263671 -0.20090099 -0.32678434
0.071522266 -0.20091367 -0.326763
0.071719669 -0.20092718 -0.32671949
0.071849369 -0.20092213 -0.32670027
0.072134875 -0.20088623 -0.32666388
0.07224717 -0.200884 -0.32667482
0.072502777 -0.200895 -0.32667097
0.072692007 -0.20090339 -0.32667089
0.072878167 -0.20091534 -0.32667318
0.073175333 -0.200927 -0.32668734
0.073323905 -0.2008937 -0.32668754
0.073488995 -0.20087449 -0.32664776
0.073655002 -0.200949 -0.32661301
0.08535666 -0.20089233 -0.32661033
0.08546 -0.20090483 -0.32670516
0.057775002 -0.20071684 -0.32676587
0.057890162 -0.20071499 -0.32667005
0.058005001 -0.20079701 -0.326612
0.064706333 -0.20067699 -0.32662833
0.064928666 -0.20068511 -0.32663819
0.065087333 -0.20069475 -0.32664144
0.065293498 -0.20072626 -0.32666877
0.065510109 -0.20072056 -0.3267082
0.065657914 -0.20070654 -0.32673815
0.065876164 -0.20067532 -0.32672068
0.066137917 -0.20068683 -0.32671651
0.066255115 -0.20069578 -0.3267099
0.066482082 -0.20070691 -0.32672146
0.066701427 -0.20071858 -0.32675096
0.066882201 -0.20071599 -0.32677278
0.067060001 -0.20068121 -0.3267808
0.067338005 -0.20072 -0.32679701
0.067784503 -0.20066899 -0.32679099
0.067888327 -0.20070244 -0.32678512
0.068054713 -0.2007113 -0.32677788
0.068351008 -0.20068309 -0.32678002
0.068472996 -0.20067282 -0.32678452
0.068706602 -0.20071283 -0.32679519
0.068866201 -0.200755 -0.32679281
0.069057003 -0.20069261 -0.32678938
0.069714002 -0.20067467 -0.32679233
0.069903553 -0.20068233 -0.32676929
0.070120499 -0.20069782 -0.32674718
0.07028845 -0.20070401 -0.32675511
0.070515737 -0.20071746 -0.32674149
0.070683829 -0.20072602 -0.32675299
0.070898876 -0.20070086 -0.326756
0.071076937 -0.2006733 -0.32676837
0.071280338 -0.20069166 -0.32676899
0.071521752 -0.20070367 -0.32675126
0.071692884 -0.20071544 -0.32671797
0.071871333 -0.20072211 -0.32668445
0.0720964 -0.20072059 -0.32666141
0.072244674 -0.20067412 -0.32664633
0.072519556 -0.20068599 -0.32666421
0.072709225 -0.2006951 -0.3266699
0.072894841 -0.20070733 -0.3266665
0.073192663 -0.20072 -0.32669166
0.073327579 -0.20072356 -0.32668081
0.073512442 -0.20069043 -0.32664812
0.073683001 -0.20060199 -0.326608
0.085377336 -0.20068634 -0.32666934
0.085479997 -0.20069683 -0.32674518
0.057780337 -0.2005095 -0.32677782
0.057885893 -0.20051116 -0.32668933
0.058017749 -0.20053649 -0.32660401
0.064721495 -0.200504 -0.326639
0.064918004 -0.200477 -0.32667282
0.065081835 -0.20048676 -0.32667565
0.065276667 -0.20050067 -0.32669035
0.065506332 -0.20051223 -0.32671779
0.065675266 -0.20052345 -0.32673508
0.065905407 -0.20048261 -0.326731
0.066151552 -0.20048581 -0.32673571
0.066266105 -0.20048079 -0.32671949
0.066500254 -0.20049934 -0.32673866
0.066708893 -0.20051289 -0.32674447
0.066892713 -0.20051722 -0.32677102
0.067079872 -0.20052001 -0.32678699
0.067792997 -0.200565 -0.326794
0.067901835 -0.20052482 -0.32679167
0.068058446 -0.20051256 -0.32678187
0.068343855 -0.20052843 -0.32678717
0.068459995 -0.20049985 -0.32677966
0.068728663 -0.20047651 -0.32678464
0.068925001 -0.200459 -0.32679799
0.069032006 -0.20049633 -0.32678366
0.069649503 -0.200499 -0.326785
0.069891661 -0.20049556 -0.3267594
0.070118144 -0.20047787 -0.32674599
0.070305444 -0.20049566 -0.32674974
0.07053294 -0.20050961 -0.32673872
0.070700325 -0.20051716 -0.32673934
0.07088156 -0.2005251 -0.32675591
0.071091868 -0.20048301 -0.3267552
0.071297333 -0.20048399 -0.32676932
0.071532995 -0.20050101 -0.32675084
0.071699001 -0.20049942 -0.32671243
0.071887888 -0.20051278 -0.32667488
0.072120331 -0.20052634 -0.32664952
0.072258502 -0.20049934 -0.32663468
0.072517 -0.20048673 -0.32665744
0.07270804 -0.20048472 -0.32664797
0.072896853 -0.200487 -0.32666072
0.073308341 -0.20051722 -0.3266761
0.073488787 -0.20052131 -0.32664257
0.073688 -0.20052999 -0.32660201
0.08534725 -0.2004745 -0.32665148
0.085483566 -0.20047571 -0.32673687
0.057785001 -0.200335 -0.326785
0.057890091 -0.20030415 -0.32671419
0.0580406 -0.20028439 -0.32661059
