# .PCD v0.7 - Point Cloud Data file format
VERSION 0.7
FIELDS x y z
SIZE 4 4 4
TYPE F F F
COUNT 1 1 1
WIDTH 1356
HEIGHT 1
VIEWPOINT 0 0 0 1 0 0 0
POINTS 1356
DATA ascii
-0.073528998 0.001546 -0.212295
-0.073526002 0.001622 -0.212301
-0.073522002 0.001699 -0.21230701
-0.073519997 0.001772 -0.212301
-0.073518001 0.001844 -0.212274
-0.073515996 0.001915 -0.212258
-0.073513001 0.001991 -0.21225999
-0.073509999 0.0020669999 -0.21225999
-0.073507003 0.002141 -0.212257
-0.073504999 0.0022150001 -0.212247
-0.073501997 0.002289 -0.212235
-0.0735 0.0023630001 -0.212229
-0.073496997 0.0024359999 -0.212218
-0.073495001 0.002508 -0.21220601
-0.073491998 0.0025820001 -0.212202
-0.073490001 0.002656 -0.21218801
-0.073487997 0.002727 -0.21216699
-0.073486 0.0028009999 -0.212155
-0.073482998 0.002874 -0.212145
-0.073481001 0.0029460001 -0.212134
-0.073478997 0.0030199999 -0.21211199
-0.073477998 0.003089 -0.21208601
-0.073476002 0.0031630001 -0.212069
-0.073472001 0.003239 -0.212075
-0.073468 0.0033170001 -0.21209501
-0.073463999 0.003395 -0.212111
-0.073459998 0.0034739999 -0.21213301
-0.073455997 0.0035540001 -0.212161
-0.073449999 0.003635 -0.212201
-0.073445998 0.0037159999 -0.212235
-0.07344 0.0037990001 -0.212277
-0.073435999 0.003877 -0.212301
-0.073432997 0.0039559999 -0.212312
-0.073429003 0.004032 -0.21231399
-0.073426001 0.0041080001 -0.212322
-0.073422998 0.0041840002 -0.212328
-0.073420003 0.0042579998 -0.212318
-0.073417 0.0043339999 -0.212323
-0.073413 0.0044120001 -0.21233501
-0.073409997 0.0044880002 -0.212341
-0.073406003 0.0045639998 -0.21235301
-0.073402002 0.004642 -0.21237101
-0.073399 0.0047189998 -0.212375
-0.073395997 0.004797 -0.212386
-0.073391996 0.0048730001 -0.21239799
-0.073389001 0.0049490002 -0.212396
-0.073385999 0.0050229998 -0.212394
-0.073384002 0.0050989999 -0.21238799
-0.073380999 0.0051719998 -0.21238101
-0.073377997 0.0052459999 -0.21238101
-0.073375002 0.0053249998 -0.21238901
-0.073371999 0.0053980001 -0.212387
-0.073367998 0.005479 -0.21240699
-0.073362999 0.00556 -0.21244299
-0.073357999 0.0056400001 -0.212469
-0.073353 0.005723 -0.212505
-0.073348001 0.005804 -0.21254601
-0.073343001 0.0058869999 -0.212588
-0.073338002 0.005969 -0.212626
-0.074339002 -0.0076370002 -0.212917
-0.074339002 -0.0075690001 -0.212855
-0.074340001 -0.0074999998 -0.212787
-0.074340999 -0.0074339998 -0.212712
-0.074340999 -0.007365 -0.21263599
-0.074341998 -0.0072969999 -0.212571
-0.074341998 -0.0072280001 -0.212521
-0.074340999 -0.0071569998 -0.212474
-0.074340001 -0.0070859999 -0.21243
-0.074340001 -0.0070170001 -0.21238799
-0.074339002 -0.0069459998 -0.212345
-0.074337997 -0.006877 -0.21230499
-0.074336 -0.0068040001 -0.212277
-0.074335001 -0.006732 -0.21224999
-0.074332997 -0.0066610002 -0.212226
-0.074331 -0.0065870001 -0.21221
-0.074329004 -0.006515 -0.21219701
-0.074326001 -0.0064420002 -0.21218701
-0.074323997 -0.0063680001 -0.212181
-0.074321002 -0.0062919999 -0.212181
-0.074317001 -0.0062179998 -0.21218801
-0.074313998 -0.0061440002 -0.212198
-0.074311003 -0.0060669999 -0.21220601
-0.074307002 -0.0059910002 -0.21222401
-0.074300997 -0.0059099998 -0.21227799
-0.074295998 -0.0058309999 -0.212322
-0.074290998 -0.005754 -0.212358
-0.074285999 -0.0056759999 -0.212387
-0.074281998 -0.005599 -0.21240699
-0.074279003 -0.0055229999 -0.212419
-0.074276 -0.0054469998 -0.212423
-0.074272998 -0.0053730002 -0.212419
-0.074271001 -0.0052999998 -0.212404
-0.074267998 -0.0052260002 -0.2124
-0.074265003 -0.0051520001 -0.212404
-0.074262001 -0.005076 -0.212404
-0.074258998 -0.0050019999 -0.21240699
-0.074256003 -0.0049279998 -0.212409
-0.074253 -0.0048520002 -0.21240699
-0.074249998 -0.0047780001 -0.212401
-0.074247003 -0.004704 -0.212401
-0.074244 -0.0046279998 -0.21240801
-0.074240997 -0.0045540002 -0.21240801
-0.074238002 -0.0044800001 -0.21239799
-0.074235998 -0.004406 -0.21238799
-0.074233003 -0.0043330002 -0.21238101
-0.074230999 -0.0042610001 -0.21236899
-0.074229002 -0.004187 -0.212357
-0.074225999 -0.0041129999 -0.21235199
-0.074222997 -0.0040369998 -0.212354
-0.074220002 -0.0039610001 -0.212364
-0.074216001 -0.003885 -0.21238001
-0.074212 -0.0038079999 -0.212402
-0.074207999 -0.00373 -0.21242
-0.074203998 -0.0036539999 -0.21243501
-0.074199997 -0.003577 -0.21244501
-0.074197002 -0.0035010001 -0.21246099
-0.074193001 -0.003425 -0.212469
-0.074189998 -0.0033509999 -0.212469
-0.074188001 -0.003277 -0.212464
-0.074184999 -0.0032039999 -0.21245
-0.074183002 -0.0031320001 -0.21243399
-0.074180998 -0.003058 -0.212424
-0.074178003 -0.0029839999 -0.21241499
-0.074175999 -0.002911 -0.212395
-0.074173003 -0.0028369999 -0.21239699
-0.074170001 -0.0027590001 -0.212413
-0.074166 -0.002685 -0.212418
-0.074162997 -0.0026110001 -0.212418
-0.074161001 -0.002535 -0.212414
-0.074157998 -0.0024610001 -0.212404
-0.074155003 -0.002387 -0.212403
-0.074152999 -0.0023129999 -0.21239699
-0.074150003 -0.0022390001 -0.21238901
-0.074147001 -0.0021639999 -0.212385
-0.074144997 -0.0020920001 -0.212378
-0.074143 -0.002018 -0.21236201
-0.074141003 -0.001947 -0.212338
-0.074138999 -0.0018729999 -0.21232
-0.074137002 -0.001799 -0.212309
-0.074134 -0.001726 -0.212303
-0.074130997 -0.001652 -0.212303
-0.074128002 -0.001576 -0.21230701
-0.074124001 -0.001499 -0.21231601
-0.074120998 -0.001423 -0.21232601
-0.074116997 -0.001347 -0.21234199
-0.074111998 -0.001268 -0.212372
-0.074107997 -0.00119 -0.212402
-0.074102998 -0.001111 -0.212428
-0.074098997 -0.0010329999 -0.21245199
-0.074095003 -0.00095399999 -0.212467
-0.074092001 -0.00087799999 -0.212475
-0.074088998 -0.000802 -0.212483
-0.074086003 -0.00072800001 -0.212479
-0.074083 -0.00065399997 -0.21247301
-0.074079998 -0.00057999999 -0.21247201
-0.074077003 -0.000504 -0.212474
-0.074074 -0.000428 -0.212476
-0.074070998 -0.00035399999 -0.212476
-0.074068002 -0.000279 -0.212474
-0.074065998 -0.000207 -0.212459
-0.074065 -0.000136 -0.212423
-0.074063003 -6.4e-05 -0.212411
-0.074058004 1.5e-05 -0.21244
-0.074055001 9.1000002e-05 -0.212438
-0.074052997 0.000164 -0.21242601
-0.074051 0.00023799999 -0.212414
-0.074049003 0.000309 -0.21239699
-0.074046999 0.00038099999 -0.212373
-0.074045002 0.00045200001 -0.212347
-0.074043997 0.00052399997 -0.212322
-0.074042 0.00059499999 -0.21229599
-0.074040003 0.00066700001 -0.21227799
-0.074037001 0.00074300001 -0.212276
-0.074034996 0.00081699999 -0.212273
-0.074032001 0.00089000002 -0.212267
-0.074028999 0.00096600002 -0.21226101
-0.074026003 0.001042 -0.21226899
-0.074023001 0.001116 -0.21227001
-0.074019998 0.001192 -0.212274
-0.074014999 0.001271 -0.212304
-0.07401 0.0013539999 -0.21234199
-0.074005999 0.001432 -0.212366
-0.074001998 0.001508 -0.212378
-0.073999003 0.001585 -0.212382
-0.073996 0.0016580001 -0.212375
-0.073994003 0.001734 -0.21236899
-0.073991999 0.001806 -0.21235099
-0.073990002 0.001875 -0.21232
-0.073987998 0.0019490001 -0.212312
-0.073983997 0.0020270001 -0.21232601
-0.073981002 0.0021029999 -0.21232601
-0.073978998 0.002175 -0.21231399
-0.073976003 0.0022509999 -0.21231499
-0.073973 0.002327 -0.212317
-0.073969997 0.0024009999 -0.212309
-0.073968001 0.002472 -0.212295
-0.073965997 0.0025460001 -0.212282
-0.073963001 0.0026199999 -0.21227799
-0.073959999 0.002694 -0.212272
-0.073958002 0.0027650001 -0.21225099
-0.073955998 0.002839 -0.212229
-0.073954001 0.00291 -0.212211
-0.073953003 0.0029819999 -0.21218701
-0.073951997 0.0030489999 -0.212148
-0.07395 0.00312 -0.21212199
-0.073946998 0.0031959999 -0.21212
-0.073944002 0.003272 -0.212127
-0.073940001 0.0033509999 -0.212157
-0.073934004 0.0034340001 -0.21219701
-0.073930003 0.003514 -0.21222501
-0.073926002 0.0035929999 -0.212249
-0.073921002 0.003673 -0.212285
-0.073916003 0.0037539999 -0.21231499
-0.073912002 0.0038340001 -0.212337
-0.073908001 0.0039130002 -0.212359
-0.073904 0.0039909999 -0.212373
-0.073900998 0.004067 -0.21238001
-0.073898003 0.0041410001 -0.21238001
-0.073894002 0.0042170002 -0.212382
-0.073891997 0.0042929999 -0.212378
-0.073889002 0.004367 -0.212374
-0.073885001 0.0044430001 -0.212383
-0.073881 0.004522 -0.212403
-0.073876999 0.0046020001 -0.212421
-0.073873997 0.0046780002 -0.212431
-0.073871002 0.0047539999 -0.21243501
-0.073867001 0.00483 -0.21244501
-0.073863 0.0049089999 -0.21246
-0.073859997 0.004985 -0.21246199
-0.073858 0.0050579999 -0.21245401
-0.073853999 0.005136 -0.21246199
-0.073850997 0.0052129999 -0.212474
-0.073848002 0.0052860002 -0.21246301
-0.073845997 0.0053579998 -0.21244299
-0.073843002 0.0054339999 -0.212447
-0.073839001 0.0055140001 -0.21247099
-0.073834002 0.005595 -0.212505
-0.073829003 0.0056759999 -0.212533
-0.073825002 0.0057560001 -0.212559
-0.073818997 0.005839 -0.212605
-0.073813997 0.0059239999 -0.212659
-0.075443 -0.0076299999 -0.21315201
-0.075443998 -0.0075619998 -0.21306799
-0.075444996 -0.0074959998 -0.212981
-0.075447001 -0.0074300002 -0.212889
-0.075447001 -0.0073589999 -0.212837
-0.075447999 -0.0072929999 -0.212758
-0.075447999 -0.0072240001 -0.21269999
-0.075447999 -0.0071550002 -0.212643
-0.075447999 -0.0070839999 -0.21259101
-0.075447001 -0.0070130001 -0.212548
-0.075447001 -0.0069439998 -0.212496
-0.075446002 -0.0068729999 -0.21246
-0.075443998 -0.0068020001 -0.212433
-0.075443 -0.00673 -0.212409
-0.075441003 -0.0066570002 -0.212385
-0.075438999 -0.0065850001 -0.212368
-0.075437002 -0.0065120002 -0.21235199
-0.075434998 -0.0064400001 -0.212332
-0.075432003 -0.0063669998 -0.21232
-0.075429998 -0.0062930002 -0.212311
-0.075427003 -0.0062190001 -0.212303
-0.075424999 -0.006145 -0.212299
-0.075421996 -0.0060709999 -0.212303
-0.075418003 -0.0059949998 -0.212322
-0.075414002 -0.0059179999 -0.212338
-0.075410999 -0.0058419998 -0.21234401
-0.075406998 -0.0057660001 -0.212364
-0.075401999 -0.0056870002 -0.2124
-0.075396001 -0.0056079999 -0.212446
-0.075392 -0.0055320002 -0.212468
-0.075388998 -0.0054560001 -0.212469
-0.075387001 -0.005382 -0.21246099
-0.075383 -0.0053079999 -0.212467
-0.075379997 -0.0052319998 -0.21247099
-0.075377002 -0.0051580002 -0.21247201
-0.075374 -0.0050840001 -0.21247
-0.075370997 -0.0050079999 -0.21247
-0.075369 -0.0049339999 -0.212466
-0.075365998 -0.0048600002 -0.212459
-0.075363003 -0.0047869999 -0.21245299
-0.075360999 -0.0047129998 -0.212451
-0.075358003 -0.0046390002 -0.21244501
-0.075355001 -0.0045650001 -0.212438
-0.075351998 -0.004489 -0.21243601
-0.075350001 -0.0044169999 -0.21242601
-0.075347997 -0.004344 -0.21241
-0.075346 -0.0042719999 -0.21238901
-0.075343996 -0.0041990001 -0.21237101
-0.075342 -0.004125 -0.212363
-0.075337999 -0.0040509999 -0.212367
-0.075335003 -0.0039750002 -0.212374
-0.075332001 -0.0039009999 -0.212376
-0.075328998 -0.003825 -0.212378
-0.075324997 -0.0037479999 -0.21239001
-0.075322002 -0.003672 -0.21240599
-0.075318001 -0.0035959999 -0.21241499
-0.075314 -0.003519 -0.212439
-0.075309999 -0.0034409999 -0.21246301
-0.075305998 -0.003365 -0.21248101
-0.075301997 -0.0032860001 -0.212503
-0.075296998 -0.00321 -0.212525
-0.075294003 -0.0031340001 -0.212534
-0.075291999 -0.00306 -0.21252599
-0.075289004 -0.0029859999 -0.21252
-0.075286001 -0.00291 -0.212522
-0.075282998 -0.0028359999 -0.212523
-0.075280003 -0.0027620001 -0.21251699
-0.075277001 -0.002686 -0.212513
-0.075273998 -0.0026120001 -0.212515
-0.075272001 -0.002538 -0.21250699
-0.075268999 -0.0024649999 -0.212494
-0.075267002 -0.002391 -0.212488
-0.075263999 -0.0023169999 -0.21248201
-0.075262003 -0.0022430001 -0.21247099
-0.075259998 -0.00217 -0.21245299
-0.075258002 -0.0020979999 -0.21243501
-0.075255997 -0.0020270001 -0.212413
-0.075254001 -0.001953 -0.2124
-0.075251997 -0.001879 -0.212384
-0.07525 -0.001808 -0.212366
-0.075246997 -0.001734 -0.21235301
-0.075245 -0.00166 -0.212345
-0.075240999 -0.001584 -0.21235301
-0.075236998 -0.001508 -0.21237101
-0.075234003 -0.001432 -0.212385
-0.075230002 -0.0013530001 -0.212401
-0.075226001 -0.0012769999 -0.212424
-0.075222 -0.001199 -0.21244401
-0.075217001 -0.00112 -0.212468
-0.075213 -0.001041 -0.212496
-0.075208999 -0.00096500001 -0.21250799
-0.075205997 -0.00088900002 -0.212514
-0.075203001 -0.00081300002 -0.212519
-0.075199999 -0.00073899998 -0.212515
-0.075198002 -0.000665 -0.21250699
-0.075195998 -0.00059399998 -0.212475
-0.075195 -0.00052499998 -0.212446
-0.075191997 -0.000447 -0.21245
-0.075188003 -0.00036999999 -0.21247201
-0.075184003 -0.00029200001 -0.21249001
-0.075180002 -0.000216 -0.212496
-0.075177997 -0.000142 -0.21248899
-0.075175002 -6.8000001e-05 -0.212483
-0.075172 6.0000002e-06 -0.21248101
-0.075168997 7.9999998e-05 -0.212477
-0.075167 0.000153 -0.212464
-0.075165004 0.000227 -0.21245199
-0.075162001 0.00030099999 -0.212442
-0.075159997 0.000375 -0.212438
-0.075157002 0.00044800001 -0.212431
-0.075154997 0.00052200002 -0.212419
-0.075153001 0.00059299998 -0.212393
-0.075152002 0.000665 -0.212368
-0.075148001 0.000741 -0.212372
-0.075144999 0.00081699999 -0.21238001
-0.075142004 0.00089299999 -0.212382
-0.075138003 0.00096899999 -0.21238799
-0.075135 0.001045 -0.21239901
-0.075130999 0.0011239999 -0.21241701
-0.075126998 0.0012000001 -0.21242701
-0.075124003 0.0012760001 -0.212431
-0.075121 0.0013520001 -0.21244501
-0.075116999 0.0014299999 -0.212455
-0.075113997 0.001504 -0.212456
-0.075112 0.001578 -0.21244401
-0.075108998 0.001652 -0.212432
-0.075107001 0.001726 -0.212428
-0.075103998 0.001799 -0.212413
-0.075103 0.001871 -0.212393
-0.075099997 0.001945 -0.21238101
-0.075097002 0.002018 -0.21238001
-0.075094 0.0020940001 -0.212376
-0.075092003 0.002168 -0.212372
-0.075089 0.0022440001 -0.212372
-0.075085998 0.002318 -0.212372
-0.075083002 0.0023920001 -0.212363
-0.075080998 0.0024659999 -0.212357
-0.075078003 0.002542 -0.212359
-0.075075001 0.0026159999 -0.212357
-0.075071998 0.002689 -0.21235
-0.075070001 0.0027630001 -0.212332
-0.075067997 0.0028349999 -0.21231
-0.075066 0.002906 -0.21228901
-0.075065002 0.0029780001 -0.212271
-0.075062998 0.0030489999 -0.212253
-0.075061001 0.00312 -0.21222401
-0.075058997 0.0031920001 -0.21220601
-0.075055003 0.00327 -0.21222199
-0.075051002 0.0033509999 -0.212254
-0.075046003 0.003429 -0.212276
-0.075041004 0.003512 -0.212312
-0.075035997 0.0035929999 -0.21235
-0.075032003 0.003671 -0.212368
-0.075029001 0.0037479999 -0.212377
-0.075025 0.003828 -0.212401
-0.07502 0.0039090002 -0.212431
-0.075016998 0.0039849998 -0.212439
-0.075014003 0.0040589999 -0.21243501
-0.075011 0.0041350001 -0.212439
-0.075007997 0.0042110002 -0.21244
-0.075005002 0.004284 -0.21243399
-0.075001001 0.0043629999 -0.21244401
-0.074997999 0.004439 -0.212456
-0.074993998 0.0045170002 -0.212466
-0.074989997 0.0045949998 -0.212486
-0.074986003 0.0046740002 -0.21249799
-0.074983001 0.0047479998 -0.212503
-0.074979998 0.004826 -0.21250699
-0.074977003 0.0049020001 -0.212515
-0.074973002 0.0049780002 -0.21251699
-0.074969999 0.0050539998 -0.212519
-0.074968003 0.0051279999 -0.21251599
-0.074965 0.005204 -0.212514
-0.074961998 0.0052780001 -0.21251
-0.074959002 0.005351 -0.21250001
-0.074956998 0.0054270001 -0.212497
-0.074952997 0.005506 -0.21251699
-0.074947 0.0055889999 -0.212567
-0.074942 0.0056719999 -0.212607
-0.074937001 0.005752 -0.212639
-0.074932002 0.005835 -0.212677
-0.074925996 0.0059199999 -0.212735
-0.074919999 0.0060049999 -0.212787
-0.074914999 0.0060859998 -0.212823
-0.075915001 -0.0075980001 -0.21313
-0.075916 -0.0075289998 -0.213057
-0.075916998 -0.0074629998 -0.21297701
-0.075919002 -0.0073950002 -0.21289
-0.075919002 -0.0073259999 -0.21283799
-0.075920001 -0.0072579999 -0.212759
-0.075920001 -0.007189 -0.212699
-0.075919002 -0.0071180002 -0.212662
-0.075917996 -0.0070489999 -0.212616
-0.075917996 -0.006978 -0.21257199
-0.075916998 -0.0069070002 -0.212529
-0.075916 -0.0068379999 -0.212487
-0.075915001 -0.0067670001 -0.212455
-0.075912997 -0.006693 -0.212432
-0.075911 -0.0066220001 -0.21241
-0.075910002 -0.006548 -0.212386
-0.075907998 -0.0064770002 -0.21236899
-0.075905003 -0.0064030001 -0.212359
-0.075902 -0.006329 -0.21235301
-0.075900003 -0.0062549999 -0.21234301
-0.075897001 -0.0061809998 -0.21234199
-0.075893998 -0.0061070002 -0.21235199
-0.075889997 -0.0060310001 -0.212356
-0.075887002 -0.005957 -0.212358
-0.075883999 -0.0058809998 -0.212368
-0.075879999 -0.0058050002 -0.212391
-0.075874999 -0.0057259998 -0.21242499
-0.075870998 -0.0056489999 -0.212447
-0.075865999 -0.0055709998 -0.212485
-0.075861998 -0.0054939999 -0.21250699
-0.075859003 -0.0054179998 -0.21250901
-0.075856 -0.0053440002 -0.212502
-0.075852998 -0.0052700001 -0.21250001
-0.075850002 -0.005194 -0.21250799
-0.075846002 -0.0051199999 -0.21252
-0.075843997 -0.0050440002 -0.212514
-0.075841002 -0.0049700001 -0.21250699
-0.075838 -0.0048969998 -0.212505
-0.075836003 -0.0048230002 -0.21249899
-0.075833 -0.0047490001 -0.212495
-0.075829998 -0.004673 -0.212494
-0.075828001 -0.0046009999 -0.212484
-0.075824998 -0.0045269998 -0.212474
-0.075823002 -0.0044539999 -0.212466
-0.075819999 -0.0043799998 -0.212457
-0.075818002 -0.0043060002 -0.212439
-0.075815998 -0.0042349999 -0.21241499
-0.075814001 -0.0041629998 -0.2124
-0.075810999 -0.0040870002 -0.212396
-0.075809002 -0.0040130001 -0.212396
-0.075805999 -0.003939 -0.212396
-0.075801998 -0.0038630001 -0.212401
-0.075799003 -0.003787 -0.212411
-0.075795002 -0.0037110001 -0.212429
-0.075791001 -0.003634 -0.21244501
-0.075787 -0.0035580001 -0.21246301
-0.075782999 -0.00348 -0.212493
-0.075778 -0.0034010001 -0.212521
-0.075773999 -0.0033249999 -0.21254
-0.075770997 -0.0032480001 -0.212556
-0.075767003 -0.0031719999 -0.21256401
-0.075764 -0.0030960001 -0.21256401
-0.075760998 -0.003022 -0.21256
-0.075759001 -0.0029490001 -0.212551
-0.075755998 -0.002875 -0.21254499
-0.075753003 -0.0028009999 -0.212547
-0.075750001 -0.002725 -0.212549
-0.075746998 -0.0026489999 -0.21255
-0.075744003 -0.002575 -0.21254399
-0.075741999 -0.002501 -0.21254
-0.075739004 -0.0024270001 -0.21253
-0.075737 -0.002356 -0.212511
-0.075735003 -0.0022819999 -0.212497
-0.075732 -0.002208 -0.21249101
-0.075730003 -0.002134 -0.21247999
-0.075727999 -0.0020610001 -0.21246199
-0.075726002 -0.001992 -0.21243601
-0.075723998 -0.0019180001 -0.212418
-0.075722001 -0.001846 -0.212401
-0.075721003 -0.001773 -0.21237899
-0.075718001 -0.001701 -0.212363
-0.075714998 -0.001625 -0.212368
-0.075710997 -0.001549 -0.212386
-0.075707003 -0.00147 -0.212404
-0.075703003 -0.001392 -0.212432
-0.075699002 -0.001313 -0.212456
-0.075695001 -0.001237 -0.21247201
-0.075691 -0.001159 -0.212492
-0.075686999 -0.001082 -0.212513
-0.075682998 -0.001004 -0.212531
-0.075678997 -0.00092600001 -0.212549
-0.075675003 -0.000849 -0.212561
-0.075672001 -0.00077500002 -0.212561
-0.075669996 -0.00070199999 -0.212547
-0.075668 -0.00063000002 -0.21253
-0.075666003 -0.00055699999 -0.212514
-0.075663 -0.00048300001 -0.212514
-0.075658999 -0.00040399999 -0.212524
-0.075655997 -0.00033000001 -0.212531
-0.075653002 -0.00025400001 -0.212531
-0.075649999 -0.00018 -0.21252701
-0.075648002 -0.000107 -0.212515
-0.075645 -3.3e-05 -0.21250799
-0.075643003 4.0999999e-05 -0.21250001
-0.07564 0.000115 -0.212494
-0.075636998 0.000191 -0.212492
-0.075635001 0.000264 -0.212487
-0.075631998 0.00033800001 -0.212475
-0.075630002 0.00041000001 -0.212457
-0.075627998 0.00048300001 -0.212441
-0.075626999 0.00055499998 -0.212414
-0.075625002 0.00062399998 -0.21239001
-0.075622 0.00069999998 -0.21238799
-0.075618997 0.00077599997 -0.21239699
-0.075615004 0.00085200003 -0.212403
-0.075612001 0.00093099999 -0.21241701
-0.075607002 0.001007 -0.212439
-0.075603001 0.001088 -0.212465
-0.075599 0.001166 -0.212483
-0.075595997 0.001242 -0.21249101
-0.075591996 0.001318 -0.21249799
-0.075589001 0.001392 -0.21249799
-0.075585999 0.001468 -0.212496
-0.075584002 0.001542 -0.212486
-0.075581998 0.0016139999 -0.212475
-0.075579002 0.0016890001 -0.212465
-0.075576998 0.001761 -0.21245299
-0.075575002 0.001835 -0.212437
-0.075572997 0.001906 -0.21242
-0.075570002 0.0019799999 -0.21241
-0.075567998 0.002054 -0.212402
-0.075565003 0.0021269999 -0.212393
-0.075562 0.002203 -0.212395
-0.075558998 0.0022770001 -0.212395
-0.075556003 0.002353 -0.21238901
-0.075553998 0.0024270001 -0.21237899
-0.075551003 0.002501 -0.212374
-0.075548999 0.002575 -0.21236999
-0.075545996 0.0026489999 -0.21236201
-0.075543001 0.002722 -0.212356
-0.075540997 0.0027960001 -0.21234301
-0.075539 0.002868 -0.212323
-0.075537004 0.002939 -0.212301
-0.075534999 0.0030129999 -0.212286
-0.075533003 0.003084 -0.21226799
-0.075531997 0.003156 -0.212246
-0.075529002 0.0032299999 -0.21224301
-0.075525001 0.0033100001 -0.212265
-0.075520001 0.003388 -0.212285
-0.075516 0.0034670001 -0.212311
-0.075511999 0.003548 -0.212339
-0.075507 0.0036259999 -0.21236099
-0.075502999 0.0037070001 -0.212391
-0.075498998 0.0037849999 -0.212413
-0.075493999 0.0038640001 -0.212437
-0.075489998 0.0039440002 -0.212455
-0.075487003 0.0040199999 -0.212464
-0.075484 0.004094 -0.21246
-0.075480998 0.0041700001 -0.212456
-0.075478002 0.0042440002 -0.212456
-0.075475 0.0043199998 -0.212458
-0.075470999 0.004398 -0.212475
-0.075467996 0.0044760001 -0.212485
-0.075464003 0.0045520002 -0.212493
-0.075460002 0.0046310001 -0.21250901
-0.075456999 0.0047089998 -0.212523
-0.075452998 0.0047849999 -0.212533
-0.075450003 0.004861 -0.212542
-0.075446002 0.0049390001 -0.21255
-0.075443 0.0050130002 -0.212548
-0.075439997 0.0050889999 -0.21254601
-0.075437002 0.005165 -0.21255399
-0.075433999 0.0052410001 -0.212557
-0.075432003 0.0053150002 -0.21254499
-0.075429998 0.0053869998 -0.21252701
-0.075425997 0.0054629999 -0.212533
-0.075420998 0.0055439998 -0.212567
-0.075415999 0.0056289998 -0.212613
-0.075410999 0.0057109999 -0.212653
-0.075406 0.0057919999 -0.21269099
-0.075400002 0.0058769998 -0.21274699
-0.075393997 0.0059620002 -0.212795
-0.075388998 0.0060450002 -0.21283901
-0.075383 0.0061280001 -0.212879
-0.076116003 -0.0075030001 -0.213112
-0.076117001 -0.0074339998 -0.213035
-0.076117001 -0.0073660002 -0.212981
-0.076118 -0.0072969999 -0.212905
-0.076118998 -0.0072289999 -0.21283001
-0.076118 -0.00716 -0.212782
-0.076118 -0.0070890002 -0.212733
-0.076118 -0.0070199999 -0.21268301
-0.076117001 -0.0069490001 -0.212639
-0.076116003 -0.0068780002 -0.212596
-0.076114997 -0.0068069999 -0.21256401
-0.076113999 -0.0067380001 -0.212533
-0.076112002 -0.006664 -0.212501
-0.076109998 -0.0065930001 -0.21248101
-0.076108001 -0.006519 -0.212465
-0.076105997 -0.0064480002 -0.212448
-0.076104 -0.0063740001 -0.21243601
-0.076100998 -0.0063 -0.21242601
-0.076099001 -0.0062270002 -0.21241701
-0.076095998 -0.0061530001 -0.212409
-0.076093003 -0.006079 -0.21240699
-0.076090001 -0.0060049999 -0.212413
-0.076086 -0.005928 -0.212431
-0.076081999 -0.0058519999 -0.21245199
-0.076077998 -0.0057740002 -0.212466
-0.076072998 -0.0056969998 -0.21250799
-0.076067999 -0.0056179999 -0.21255
-0.076063998 -0.005539 -0.212576
-0.076059997 -0.0054629999 -0.21259201
-0.076058 -0.0053889998 -0.212585
-0.076054998 -0.0053150002 -0.212577
-0.076052003 -0.0052410001 -0.21258099
-0.076049 -0.005165 -0.212585
-0.076045997 -0.0050909999 -0.212585
-0.076043002 -0.0050149998 -0.212584
-0.07604 -0.0049419999 -0.21258
-0.076036997 -0.0048679998 -0.21258
-0.076034002 -0.0047920002 -0.212578
-0.076030999 -0.0047180001 -0.212577
-0.076029003 -0.004644 -0.212569
-0.076026 -0.0045699999 -0.212567
-0.076022997 -0.0044959998 -0.21256299
-0.076021001 -0.0044229999 -0.21254601
-0.076018997 -0.0043509998 -0.21252599
-0.076017 -0.0042770002 -0.21251
-0.076015003 -0.0042039999 -0.21249799
-0.076012 -0.0041319998 -0.212485
-0.076010004 -0.0040580002 -0.212469
-0.076007001 -0.0039849998 -0.212467
-0.076003999 -0.003908 -0.212478
-0.075999998 -0.0038320001 -0.212488
-0.075997002 -0.003758 -0.21249001
-0.075994 -0.0036820001 -0.21249799
-0.075989999 -0.003604 -0.21251801
-0.075985998 -0.0035270001 -0.212542
-0.075980999 -0.0034479999 -0.212575
-0.075975999 -0.00337 -0.212605
-0.075971998 -0.0032909999 -0.21262901
-0.075969003 -0.003215 -0.212639
-0.075966001 -0.0031409999 -0.212639
-0.075962998 -0.0030670001 -0.212631
-0.075961001 -0.002994 -0.21261799
-0.075957999 -0.0029200001 -0.21261001
-0.075955003 -0.002846 -0.21261001
-0.075952001 -0.0027699999 -0.21261001
-0.075948998 -0.002696 -0.21260899
-0.075946003 -0.0026199999 -0.21260899
-0.075943001 -0.0025460001 -0.212613
-0.075939998 -0.0024699999 -0.212611
-0.075938001 -0.0023970001 -0.212598
-0.075935997 -0.002325 -0.212584
-0.075933002 -0.0022509999 -0.21257401
-0.075930998 -0.002177 -0.212566
-0.075929001 -0.002104 -0.21255501
-0.075925998 -0.0020300001 -0.212541
-0.075924002 -0.001958 -0.212525
-0.075921997 -0.001885 -0.212502
-0.075920999 -0.001813 -0.21247999
-0.075919002 -0.001742 -0.21246
-0.075916998 -0.001668 -0.21244401
-0.075912997 -0.001594 -0.212449
-0.075910002 -0.001516 -0.21246099
-0.075906001 -0.00144 -0.212475
-0.075902 -0.001363 -0.212487
-0.075897999 -0.001285 -0.21250699
-0.075893998 -0.001209 -0.212533
-0.075888999 -0.001128 -0.212566
-0.075884998 -0.001049 -0.212596
-0.075880997 -0.000971 -0.212614
-0.075877003 -0.000895 -0.21262001
-0.075874001 -0.00082100002 -0.212622
-0.075870998 -0.00074500003 -0.212626
-0.075868003 -0.00067099999 -0.212623
-0.075865999 -0.00059700001 -0.212607
-0.075864002 -0.00052399997 -0.212595
-0.075861 -0.00044900001 -0.21259899
-0.075857997 -0.00037299999 -0.212602
-0.075855002 -0.00030000001 -0.212596
-0.075851999 -0.000224 -0.212596
-0.075848997 -0.00015000001 -0.212598
-0.075846002 -7.4000003e-05 -0.212595
-0.075842999 0 -0.21259101
-0.075841002 7.4000003e-05 -0.21258301
-0.075838 0.00014800001 -0.21257301
-0.075836003 0.00022099999 -0.212566
-0.075833 0.00029500001 -0.212556
-0.075831003 0.00036899999 -0.21254399
-0.075828001 0.000443 -0.212538
-0.075825997 0.00051599997 -0.212525
-0.075824 0.000588 -0.212501
-0.075822003 0.00066000002 -0.212487
-0.075819001 0.00073500001 -0.21248101
-0.075815998 0.00081200001 -0.21249001
-0.075811997 0.00088800001 -0.212502
-0.075809002 0.00096600002 -0.212512
-0.075805001 0.001042 -0.212532
-0.075800002 0.0011230001 -0.212556
-0.075796999 0.001199 -0.21257
-0.075793996 0.001275 -0.212575
-0.075790003 0.001351 -0.212575
-0.075787999 0.001425 -0.212571
-0.075785004 0.001499 -0.212567
-0.075782001 0.001575 -0.21256299
-0.075779997 0.001649 -0.212556
-0.075777002 0.001722 -0.21254399
-0.075774997 0.001794 -0.212532
-0.075773001 0.001868 -0.212515
-0.075770997 0.001939 -0.21248899
-0.075769 0.0020099999 -0.212467
-0.075767003 0.002084 -0.21246099
-0.075764 0.0021579999 -0.21246
-0.075760998 0.002234 -0.212458
-0.075758003 0.0023080001 -0.21245199
-0.075755998 0.002382 -0.212442
-0.075753003 0.0024560001 -0.212439
-0.075750001 0.0025309999 -0.212437
-0.075746998 0.002605 -0.21243501
-0.075744003 0.0026809999 -0.212433
-0.075741999 0.002753 -0.212424
-0.075740002 0.0028289999 -0.212414
-0.075737 0.002901 -0.212402
-0.075736001 0.002972 -0.21237899
-0.075733997 0.0030429999 -0.212355
-0.075732 0.003115 -0.21233299
-0.075731002 0.003186 -0.21230599
-0.075727999 0.0032599999 -0.2123
-0.075723998 0.0033410001 -0.21232399
-0.075718999 0.003419 -0.21235199
-0.075714998 0.0034980001 -0.212378
-0.075709999 0.003578 -0.21240801
-0.075705998 0.0036589999 -0.21243399
-0.075700998 0.0037400001 -0.212466
-0.075695999 0.00382 -0.21249799
-0.075691998 0.0038989999 -0.21251801
-0.075687997 0.0039769998 -0.21253499
-0.075685002 0.0040529999 -0.212541
-0.075681999 0.004129 -0.212539
-0.075678997 0.0042030001 -0.21253499
-0.075676002 0.0042790002 -0.212533
-0.075672999 0.0043549999 -0.21253601
-0.075669996 0.004429 -0.21254
-0.075666003 0.0045070001 -0.212552
-0.075662002 0.0045850002 -0.21257401
-0.075658001 0.0046640001 -0.212586
-0.075654998 0.0047399998 -0.21258999
-0.075652003 0.0048159999 -0.21259899
-0.075648002 0.004894 -0.21261699
-0.075645 0.0049700001 -0.212621
-0.075641997 0.0050440002 -0.212615
-0.075639002 0.0051199999 -0.212611
-0.075635999 0.005196 -0.212616
-0.075632997 0.0052720001 -0.21262001
-0.075630002 0.0053480002 -0.212616
-0.075626999 0.0054239999 -0.21262001
-0.075622 0.0055030002 -0.212644
-0.075618997 0.0055809999 -0.21265601
-0.075613998 0.005661 -0.212681
-0.075608999 0.005742 -0.21271899
-0.075603999 0.0058249999 -0.212767
-0.075597003 0.0059119998 -0.212828
-0.075590998 0.0059969998 -0.212882
-0.075586997 0.0060780002 -0.212908
-0.075583003 0.0061579999 -0.21293201
-0.076334998 -0.0074820002 -0.213158
-0.076334998 -0.0074160001 -0.213089
-0.076334998 -0.0073449998 -0.213027
-0.076335996 -0.007276 -0.212964
-0.076335996 -0.0072079999 -0.21290199
-0.076335996 -0.0071390001 -0.21283799
-0.076335996 -0.0070699998 -0.212779
-0.076335996 -0.0070000002 -0.212731
-0.076334998 -0.0069309999 -0.21268401
-0.076334 -0.0068589998 -0.21264599
-0.076333001 -0.006788 -0.212616
-0.076330997 -0.0067170002 -0.21259101
-0.076329999 -0.0066430001 -0.21256299
-0.076328002 -0.0065720002 -0.21253701
-0.076325998 -0.0064980001 -0.21252
-0.076324001 -0.0064269998 -0.21250001
-0.076321997 -0.0063530002 -0.21249001
-0.076319002 -0.0062790001 -0.212478
-0.076316997 -0.0062060002 -0.212469
-0.076314002 -0.0061320001 -0.212465
-0.076311 -0.006058 -0.212465
-0.076307997 -0.0059819999 -0.212479
-0.076304004 -0.005905 -0.212497
-0.076300003 -0.0058289999 -0.212514
-0.076296002 -0.005752 -0.21253601
-0.076291002 -0.0056739999 -0.21257
-0.076286003 -0.005597 -0.212606
-0.076282002 -0.0055180001 -0.21263801
-0.076278001 -0.005442 -0.21265601
-0.076274 -0.0053659999 -0.212659
-0.076272003 -0.0052919998 -0.212657
-0.076269001 -0.0052160001 -0.212657
-0.076265998 -0.005142 -0.212657
-0.076263003 -0.0050679999 -0.212651
-0.07626 -0.0049919998 -0.212652
-0.076256998 -0.0049180002 -0.21265399
-0.076254003 -0.0048440001 -0.212658
-0.076251 -0.004768 -0.212658
-0.076247998 -0.0046939999 -0.212649
-0.076246001 -0.004621 -0.21263701
-0.076242998 -0.0045469999 -0.212631
-0.076241001 -0.0044729998 -0.21261699
-0.076238997 -0.004402 -0.212602
-0.076237001 -0.0043279999 -0.21258999
-0.076233998 -0.0042539998 -0.21258
-0.076232001 -0.004183 -0.212561
-0.076231003 -0.0041109999 -0.212533
-0.076228 -0.004038 -0.212521
-0.076224998 -0.0039610001 -0.212529
-0.076222003 -0.003885 -0.212534
-0.076218002 -0.0038109999 -0.212542
-0.076214999 -0.003735 -0.21255399
-0.07621 -0.0036559999 -0.212584
-0.076205999 -0.003578 -0.212606
-0.076201998 -0.0035019999 -0.21261799
-0.076197997 -0.003423 -0.212649
-0.076192997 -0.0033440001 -0.212681
-0.076190002 -0.003268 -0.21269301
-0.076187 -0.0031940001 -0.212695
-0.076183997 -0.003118 -0.21269099
-0.076181002 -0.0030439999 -0.21269
-0.076177999 -0.002971 -0.21268401
-0.076176003 -0.0028969999 -0.212678
-0.076173 -0.0028230001 -0.212676
-0.076169997 -0.002747 -0.212678
-0.076165996 -0.0026730001 -0.212681
-0.076163001 -0.002597 -0.21268301
-0.076160997 -0.0025229999 -0.212679
-0.076158002 -0.002449 -0.212671
-0.076154999 -0.0023729999 -0.21266399
-0.076153003 -0.0023020001 -0.21265399
-0.07615 -0.002226 -0.21264599
-0.076148003 -0.0021520001 -0.21264
-0.076145001 -0.00208 -0.21262901
-0.076144002 -0.0020069999 -0.212607
-0.076141998 -0.0019349999 -0.212587
-0.076140001 -0.001862 -0.212566
-0.076137997 -0.00179 -0.212542
-0.076136999 -0.0017190001 -0.212514
-0.076134004 -0.001645 -0.212505
-0.076131001 -0.001569 -0.212515
-0.076127 -0.001493 -0.21252701
-0.076122999 -0.001416 -0.212543
-0.076118998 -0.0013379999 -0.212565
-0.076114997 -0.00126 -0.212587
-0.076110996 -0.001183 -0.212605
-0.076107003 -0.001105 -0.212626
-0.076102003 -0.001024 -0.212662
-0.076098002 -0.000948 -0.212678
-0.076095 -0.000872 -0.21268199
-0.076091997 -0.00079800002 -0.21268199
-0.076089002 -0.00072200003 -0.21268199
-0.076086 -0.00064799999 -0.212681
-0.076082997 -0.00057400001 -0.21267501
-0.076081 -0.00050000002 -0.21266299
-0.076077998 -0.000424 -0.212667
-0.076075003 -0.000348 -0.21267401
-0.076072 -0.00027399999 -0.21267
-0.076068997 -0.00019999999 -0.21266399
-0.076066002 -0.00012500001 -0.21266
-0.076063998 -5.0999999e-05 -0.21265499
-0.076061003 2.3000001e-05 -0.212653
-0.076058 9.8999997e-05 -0.212651
-0.076054998 0.00017299999 -0.212651
-0.076052003 0.00024699999 -0.212644
-0.076049998 0.000321 -0.21262801
-0.076048002 0.000394 -0.21261001
-0.076045997 0.000466 -0.212596
-0.076044001 0.00053700001 -0.212577
-0.076041996 0.000611 -0.212559
-0.076039001 0.00068499998 -0.212549
-0.076036997 0.00075800001 -0.21254399
-0.076033004 0.00083700003 -0.212556
-0.076029003 0.00091499998 -0.21258
-0.076025002 0.00099099998 -0.212594
-0.076021001 0.00107 -0.212614
-0.076017 0.001148 -0.212634
-0.076013997 0.001224 -0.212642
-0.076010004 0.001301 -0.212651
-0.076007001 0.001377 -0.21265499
-0.076003999 0.00145 -0.212649
-0.076002002 0.001526 -0.212643
-0.075998999 0.0016 -0.21262901
-0.075997002 0.001672 -0.21262001
-0.075994 0.001747 -0.212614
-0.075992003 0.001819 -0.212596
-0.075990997 0.00189 -0.212569
-0.075989 0.001962 -0.212549
-0.075985998 0.0020359999 -0.212539
-0.075983003 0.002112 -0.21253701
-0.075980999 0.0021860001 -0.212534
-0.075978003 0.002259 -0.21253
-0.075975001 0.0023350001 -0.212524
-0.075972997 0.0024089999 -0.21251599
-0.075970002 0.002483 -0.21250901
-0.075966999 0.0025569999 -0.21250699
-0.075963996 0.002633 -0.212505
-0.075962 0.0027040001 -0.212493
-0.075960003 0.002778 -0.21247999
-0.075957 0.0028520001 -0.212466
-0.075956002 0.0029229999 -0.212446
-0.075953998 0.002995 -0.212429
-0.075951003 0.0030690001 -0.21241701
-0.075948998 0.0031399999 -0.21239901
-0.075948 0.003212 -0.212374
-0.075944997 0.0032870001 -0.21236999
-0.075940996 0.003366 -0.21239001
-0.075935997 0.0034459999 -0.212424
-0.075930998 0.0035250001 -0.21245199
-0.075926997 0.003605 -0.21247201
-0.075923003 0.0036840001 -0.212494
-0.075917996 0.003765 -0.21252599
-0.075914003 0.0038449999 -0.21255399
-0.075910002 0.0039209998 -0.212569
-0.075906001 0.0040000002 -0.212585
-0.075902998 0.0040759998 -0.212595
-0.075898997 0.004154 -0.212597
-0.075897001 0.0042280001 -0.212595
-0.075893998 0.0043020002 -0.21258999
-0.075891003 0.004377 -0.212584
-0.075888 0.0044539999 -0.21258999
-0.075883999 0.00453 -0.21259999
-0.075880997 0.0046080002 -0.212616
-0.075877003 0.0046859998 -0.212632
-0.075873002 0.0047650002 -0.212648
-0.075869001 0.0048429999 -0.212669
-0.075865 0.004921 -0.212679
-0.075861998 0.0049950001 -0.212679
-0.075859003 0.0050710002 -0.212681
-0.075856 0.0051469998 -0.21268301
-0.075852998 0.005223 -0.212688
-0.075850002 0.0052990001 -0.212686
-0.075847 0.0053730002 -0.212678
-0.075845003 0.0054469998 -0.212668
-0.075841002 0.0055249999 -0.21268
-0.075836003 0.0056059998 -0.212712
-0.075831003 0.0056889998 -0.21276
-0.075824998 0.0057740002 -0.21280999
-0.075819999 0.0058550001 -0.21284799
-0.075814001 0.0059389998 -0.21289399
-0.075809002 0.0060220002 -0.212942
-0.075804003 0.0061050002 -0.21297801
-0.075799003 0.0061860001 -0.21301
-0.076953001 -0.0075989999 -0.21320701
-0.076954998 -0.0075329999 -0.21311601
-0.076954998 -0.007464 -0.21306001
-0.076955996 -0.007396 -0.21299399
-0.076957002 -0.0073279999 -0.212905
-0.076958001 -0.0072610001 -0.212835
-0.076957002 -0.007191 -0.212786
-0.076957002 -0.007119 -0.212742
-0.076955996 -0.0070509999 -0.21269301
-0.076955996 -0.0069800001 -0.212651
-0.076954998 -0.006908 -0.212613
-0.076954 -0.0068370001 -0.21257401
-0.076953001 -0.0067679998 -0.212534
-0.076950997 -0.006697 -0.212504
-0.076949 -0.0066229999 -0.212483
-0.076947004 -0.0065520001 -0.212467
-0.076944999 -0.006478 -0.212451
-0.076943003 -0.0064039999 -0.21244299
-0.07694 -0.006331 -0.212438
-0.076938003 -0.0062569999 -0.21242601
-0.076935001 -0.0061829998 -0.212422
-0.076931998 -0.0061070002 -0.212428
-0.076929003 -0.0060330001 -0.212431
-0.076926 -0.005959 -0.212431
-0.076921999 -0.0058829999 -0.212441
-0.076917998 -0.005806 -0.212465
-0.076912999 -0.0057279998 -0.212495
-0.076908 -0.005651 -0.212534
-0.076903 -0.0055720001 -0.21257401
-0.076899 -0.0054930001 -0.212604
-0.076895997 -0.005417 -0.21260799
-0.076893002 -0.0053429999 -0.21261001
-0.076889001 -0.0052669998 -0.212622
-0.076885998 -0.0051930002 -0.212625
-0.076883003 -0.0051170001 -0.21261901
-0.076880001 -0.005043 -0.21261699
-0.076876998 -0.0049689999 -0.212615
-0.076875001 -0.0048949998 -0.212614
-0.076871999 -0.0048219999 -0.212612
-0.076869003 -0.0047459998 -0.212602
-0.076866999 -0.0046740002 -0.212594
-0.076863997 -0.0045980001 -0.21259101
-0.076861002 -0.004524 -0.21258301
-0.076858997 -0.0044530001 -0.21257301
-0.076856002 -0.004377 -0.21256299
-0.076853998 -0.004305 -0.21254601
-0.076853 -0.0042340001 -0.212522
-0.076851003 -0.00416 -0.212506
-0.076848999 -0.0040890002 -0.21249101
-0.076846004 -0.0040130001 -0.212485
-0.076843001 -0.003939 -0.21249101
-0.076839 -0.0038620001 -0.21249899
-0.076834999 -0.003786 -0.212513
-0.076831996 -0.0037100001 -0.212532
-0.076826997 -0.0036309999 -0.21255399
-0.076823004 -0.0035550001 -0.21258201
-0.076819003 -0.0034759999 -0.212602
-0.076815002 -0.0034 -0.212614
-0.076811999 -0.0033239999 -0.212622
-0.076808996 -0.0032500001 -0.21262901
-0.076806001 -0.003174 -0.212631
-0.076802999 -0.0031000001 -0.21262699
-0.076800004 -0.003026 -0.212621
-0.076797999 -0.0029519999 -0.21260899
-0.076794997 -0.002879 -0.212596
-0.076793 -0.0028049999 -0.212596
-0.076788999 -0.0027290001 -0.212602
-0.076785997 -0.002655 -0.212606
-0.076783001 -0.0025790001 -0.212607
-0.076779999 -0.002505 -0.212605
-0.076777004 -0.0024290001 -0.212605
-0.076774999 -0.002355 -0.21259899
-0.076771997 -0.0022809999 -0.212594
-0.076769002 -0.002205 -0.21259201
-0.076765999 -0.0021309999 -0.212586
-0.076764002 -0.0020600001 -0.212568
-0.076762997 -0.001986 -0.21254499
-0.076761 -0.001915 -0.212523
-0.076759003 -0.0018429999 -0.212503
-0.076757997 -0.001772 -0.21247201
-0.076756001 -0.001701 -0.212448
-0.076752998 -0.001627 -0.212442
-0.076750003 -0.0015510001 -0.21245
-0.076746002 -0.001472 -0.21247301
-0.076742001 -0.001396 -0.212493
-0.076738 -0.00132 -0.21250901
-0.076733999 -0.001241 -0.212525
-0.076729998 -0.001163 -0.212547
-0.076725997 -0.001086 -0.212565
-0.076722004 -0.001008 -0.212585
-0.076718003 -0.00092999998 -0.21260799
-0.076714002 -0.00085299998 -0.212616
-0.076710999 -0.00077899999 -0.21262001
-0.076707996 -0.000703 -0.21262801
-0.076705001 -0.000627 -0.21262801
-0.076701999 -0.00055300002 -0.21262901
-0.076699004 -0.00047699999 -0.212625
-0.076696001 -0.00040300001 -0.212623
-0.076692998 -0.00033000001 -0.21261901
-0.076690003 -0.00025400001 -0.21262001
-0.076687001 -0.000178 -0.21262801
-0.076683998 -0.000102 -0.21262801
-0.076681003 -2.8e-05 -0.212624
-0.076678 4.6000001e-05 -0.21261799
-0.076676004 0.00012 -0.212613
-0.076673001 0.00019399999 -0.21260899
-0.076669998 0.00026999999 -0.212603
-0.076668002 0.00034100001 -0.212593
-0.076664999 0.000417 -0.212588
-0.076663002 0.000489 -0.21257401
-0.076660998 0.00056000001 -0.212548
-0.076659001 0.000634 -0.212529
-0.076655999 0.00070799998 -0.212531
-0.076653004 0.00078599999 -0.212543
-0.076649003 0.00086199999 -0.21255299
-0.076645002 0.00094100001 -0.212569
-0.076641001 0.001019 -0.212587
-0.076637998 0.001095 -0.212598
-0.076633997 0.001171 -0.21261001
-0.076631002 0.001248 -0.212616
-0.076628 0.0013229999 -0.212616
-0.076624997 0.001397 -0.212616
-0.076622002 0.001473 -0.212611
-0.076619998 0.001547 -0.212603
-0.076617002 0.001621 -0.21259101
-0.076614998 0.001692 -0.212575
-0.076613002 0.0017659999 -0.212556
-0.076610997 0.001838 -0.212538
-0.076609001 0.001909 -0.21252
-0.076606996 0.001983 -0.212511
-0.076604001 0.0020590001 -0.212511
-0.076600999 0.0021329999 -0.21250901
-0.076598004 0.002207 -0.212503
-0.076595001 0.0022819999 -0.212501
-0.076591998 0.002358 -0.212502
-0.076589003 0.0024319999 -0.21249799
-0.076586999 0.002506 -0.21249001
-0.076583996 0.0025800001 -0.21247999
-0.076582 0.002654 -0.212467
-0.076580003 0.002725 -0.212451
-0.076577 0.0027989999 -0.21244501
-0.076575004 0.002873 -0.21243601
-0.076572999 0.0029440001 -0.21241599
-0.076571003 0.0030179999 -0.212396
-0.076569997 0.003087 -0.21236899
-0.076568 0.003156 -0.212337
-0.076566003 0.0032319999 -0.212329
-0.076562002 0.0033110001 -0.21235099
-0.076557003 0.003389 -0.212373
-0.076554 0.0034670001 -0.21238901
-0.076548003 0.003548 -0.21243
-0.076544002 0.0036289999 -0.21246199
-0.076539002 0.0037100001 -0.21249001
-0.076535001 0.003788 -0.21251
-0.076531 0.0038660001 -0.212524
-0.076526999 0.0039440002 -0.21254
-0.076523997 0.0040210001 -0.212548
-0.076521002 0.0040950002 -0.21254601
-0.076517999 0.0041700001 -0.21254499
-0.076516002 0.0042440002 -0.21253701
-0.076512001 0.0043199998 -0.212543
-0.076508999 0.0043990002 -0.212551
-0.076505996 0.0044729998 -0.21255399
-0.076502003 0.004551 -0.21256
-0.076499 0.0046270001 -0.21257401
-0.076494999 0.0047050002 -0.212586
-0.076490998 0.0047809999 -0.212596
-0.076488003 0.0048600002 -0.21261001
-0.076484002 0.0049379999 -0.21261799
-0.076480001 0.005014 -0.212635
-0.076476999 0.0050920001 -0.21264499
-0.076472998 0.0051679998 -0.212653
-0.076470003 0.0052470001 -0.21266299
-0.076467 0.005322 -0.21266299
-0.076463997 0.0053960001 -0.21266399
-0.076459996 0.005475 -0.212676
-0.076456003 0.0055550002 -0.212704
-0.076451004 0.0056360001 -0.212742
-0.076445997 0.005717 -0.21277
-0.076440997 0.0057990002 -0.212806
-0.076435998 0.0058820001 -0.212852
-0.07643 0.005965 -0.21289399
-0.076425001 0.006048 -0.212938
-0.076419003 0.0061329999 -0.21299
-0.076415002 0.006211 -0.21300399
-0.078250997 -0.0076000001 -0.21336
-0.078253999 -0.0075369999 -0.21323299
-0.078256004 -0.0074689998 -0.21314999
-0.078256004 -0.0074 -0.21308801
-0.078256004 -0.0073310002 -0.213026
-0.078256004 -0.0072610001 -0.21296901
-0.078256004 -0.0071919998 -0.212909
-0.078256004 -0.007123 -0.21286
-0.078254998 -0.0070520001 -0.21282201
-0.078253999 -0.0069809998 -0.212786
-0.078253001 -0.00691 -0.212751
-0.078252003 -0.0068379999 -0.212713
-0.078249998 -0.0067670001 -0.212685
-0.078248002 -0.0066940002 -0.212662
-0.078247003 -0.0066220001 -0.21263801
-0.078244999 -0.0065489998 -0.21262001
-0.078243002 -0.0064770002 -0.212605
-0.07824 -0.0064030001 -0.212597
-0.078236997 -0.006329 -0.212589
-0.078235 -0.0062549999 -0.212587
-0.078230999 -0.0061789998 -0.21259899
-0.078226998 -0.0061030001 -0.212614
-0.078224003 -0.006027 -0.212622
-0.078220002 -0.0059529999 -0.212634
-0.078217 -0.005876 -0.21264599
-0.078212 -0.0057999999 -0.212676
-0.078207001 -0.005721 -0.212715
-0.078202002 -0.0056420001 -0.212751
-0.078198001 -0.005566 -0.212773
-0.078194998 -0.0054899999 -0.212779
-0.078192003 -0.0054159998 -0.21277501
-0.078189999 -0.0053420002 -0.212769
-0.078185998 -0.0052660001 -0.212772
-0.078183003 -0.005192 -0.21277601
-0.078180999 -0.0051179999 -0.212768
-0.078178003 -0.0050420002 -0.212762
-0.078175001 -0.0049680001 -0.21275701
-0.078172997 -0.0048949998 -0.21274699
-0.078170002 -0.0048210002 -0.212745
-0.078166999 -0.0047470001 -0.212745
-0.078165002 -0.004673 -0.212734
-0.078162 -0.0045989999 -0.21272001
-0.078160003 -0.004526 -0.212712
-0.078157 -0.0044519999 -0.212708
-0.078155003 -0.0043779998 -0.212697
-0.078152999 -0.0043040002 -0.212679
-0.078151003 -0.0042329999 -0.212649
-0.078148998 -0.004162 -0.212632
-0.078147002 -0.0040879999 -0.212622
-0.078143999 -0.0040139998 -0.212624
-0.078139998 -0.0039380002 -0.212632
-0.078137003 -0.0038610001 -0.212642
-0.078133002 -0.0037849999 -0.212657
-0.078129001 -0.0037070001 -0.21268301
-0.078124002 -0.0036299999 -0.21271101
-0.078120001 -0.003552 -0.212735
-0.078116 -0.0034749999 -0.212753
-0.078112997 -0.003397 -0.212763
-0.078110002 -0.0033229999 -0.212768
-0.078106999 -0.003247 -0.212768
-0.078103997 -0.0031729999 -0.21276601
-0.078101002 -0.0030990001 -0.212768
-0.078097999 -0.003023 -0.21276499
-0.078096002 -0.0029519999 -0.21274699
-0.078093998 -0.002878 -0.212727
-0.078091003 -0.0028039999 -0.212723
-0.078088 -0.0027300001 -0.212734
-0.078083999 -0.002654 -0.21273801
-0.078082003 -0.0025800001 -0.212734
-0.078079 -0.002504 -0.21272799
-0.078075998 -0.0024300001 -0.212722
-0.078074001 -0.002357 -0.212717
-0.078070998 -0.0022829999 -0.212705
-0.078069001 -0.0022090001 -0.21269099
-0.078066997 -0.002135 -0.21268199
-0.078064002 -0.0020620001 -0.21267
-0.078061998 -0.00199 -0.212652
-0.078060001 -0.001917 -0.212634
-0.078057997 -0.001845 -0.212621
-0.078056 -0.001771 -0.21260101
-0.078054003 -0.0017 -0.212577
-0.078051001 -0.001626 -0.212576
-0.078047998 -0.001548 -0.21259201
-0.078043997 -0.001474 -0.212602
-0.078041002 -0.001397 -0.21260799
-0.078037001 -0.001321 -0.21261799
-0.078033 -0.001243 -0.212642
-0.078028999 -0.001164 -0.212669
-0.078024998 -0.001088 -0.21268301
-0.078020997 -0.00101 -0.21270099
-0.078016996 -0.000933 -0.212713
-0.078014001 -0.00085700001 -0.212717
-0.078010999 -0.00078100001 -0.212717
-0.078008004 -0.00070700003 -0.212714
-0.078005999 -0.000634 -0.21270999
-0.078002997 -0.00056000001 -0.212704
-0.078000002 -0.000486 -0.21270201
-0.077996999 -0.00040799999 -0.21270899
-0.077993996 -0.00033400001 -0.21270899
-0.077991001 -0.00026 -0.212705
-0.077987999 -0.000184 -0.212703
-0.077985004 -0.00011 -0.212705
-0.077982001 -3.4000001e-05 -0.21269999
-0.077979997 3.9999999e-05 -0.212696
-0.077977002 0.000114 -0.21269201
-0.077973999 0.000187 -0.21268401
-0.077972002 0.00026100001 -0.212671
-0.077969 0.00033499999 -0.212661
-0.077967003 0.000409 -0.212653
-0.077964999 0.000482 -0.212641
-0.077963002 0.00055400003 -0.212624
-0.077960998 0.00062499999 -0.212602
-0.077958003 0.00070099998 -0.21259201
-0.077955 0.00077500002 -0.212597
-0.077950999 0.00085399998 -0.212613
-0.077947997 0.00092999998 -0.21262699
-0.077944003 0.001006 -0.212635
-0.077941 0.001084 -0.21264499
-0.077936001 0.001163 -0.212667
-0.077932 0.001241 -0.212687
-0.077928998 0.001317 -0.212694
-0.077926002 0.001391 -0.212694
-0.077923 0.001467 -0.21270201
-0.077919997 0.001543 -0.21269999
-0.077917002 0.001617 -0.212695
-0.077914 0.001693 -0.212695
-0.077912003 0.001767 -0.21268301
-0.077909999 0.001838 -0.212661
-0.077907003 0.001912 -0.21265
-0.077904001 0.001988 -0.21265399
-0.077900998 0.0020639999 -0.21266399
-0.077898003 0.002138 -0.21266399
-0.077895001 0.0022140001 -0.212662
-0.077891998 0.00229 -0.212667
-0.077889003 0.0023660001 -0.212669
-0.077886 0.00244 -0.21266299
-0.077882998 0.0025140001 -0.21265499
-0.077881001 0.0025849999 -0.21264
-0.077878997 0.002659 -0.212624
-0.077877 0.0027330001 -0.212612
-0.077873997 0.0028059999 -0.212604
-0.077872001 0.002878 -0.21258301
-0.077871002 0.0029470001 -0.212547
-0.077868998 0.003021 -0.212531
-0.077867001 0.003094 -0.212524
-0.077864997 0.0031659999 -0.212502
-0.077862002 0.00324 -0.21249799
-0.077858001 0.0033179999 -0.21251599
-0.077854 0.003397 -0.21253601
-0.077849001 0.0034769999 -0.212567
-0.077845 0.0035580001 -0.212597
-0.07784 0.003636 -0.212621
-0.077835999 0.0037169999 -0.212651
-0.077831998 0.003795 -0.212667
-0.077829003 0.0038709999 -0.21267299
-0.077825002 0.003947 -0.21267501
-0.077822998 0.0040210001 -0.212672
-0.077820003 0.0040970002 -0.21267401
-0.077816002 0.0041729999 -0.212678
-0.077812999 0.004249 -0.212676
-0.077811003 0.0043230001 -0.212666
-0.077808 0.0043970002 -0.21266299
-0.077804998 0.0044729998 -0.212671
-0.077800997 0.004551 -0.212689
-0.077797003 0.0046319999 -0.21270899
-0.077793002 0.00471 -0.212731
-0.077789001 0.0047860001 -0.212745
-0.077785 0.004865 -0.21275499
-0.077781998 0.0049430002 -0.212768
-0.077777997 0.0050189998 -0.21277601
-0.077775002 0.0050949999 -0.21278401
-0.077771001 0.005173 -0.21279199
-0.077767998 0.0052490002 -0.2128
-0.077765003 0.0053229998 -0.21279299
-0.077762999 0.0053969999 -0.21278299
-0.077758998 0.005475 -0.21280099
-0.077753998 0.0055559999 -0.212833
-0.077748999 0.0056389999 -0.21286701
-0.077744 0.0057219998 -0.21291099
-0.077739 0.005804 -0.212947
-0.079149999 -0.007766 -0.213441
-0.079150997 -0.0076979999 -0.21336
-0.079150997 -0.0076290001 -0.2133
-0.079152003 -0.0075610001 -0.21323299
-0.079153001 -0.0074919998 -0.213163
-0.079153001 -0.0074240002 -0.21309599
-0.079153001 -0.0073549999 -0.213036
-0.079154 -0.0072869998 -0.212972
-0.079154 -0.007216 -0.21291099
-0.079153001 -0.0071470002 -0.21286701
-0.079152003 -0.0070759999 -0.21282201
-0.079150997 -0.007005 -0.212786
-0.079149999 -0.0069340002 -0.212758
-0.079148002 -0.0068600001 -0.212735
-0.079145998 -0.0067889998 -0.21271101
-0.079144001 -0.0067150001 -0.212689
