# .PCD v0.7 - Point Cloud Data file format
VERSION 0.7
FIELDS x y z
SIZE 4 4 4
TYPE F F F
COUNT 1 1 1
WIDTH 1408
HEIGHT 1
VIEWPOINT 0 0 0 1 0 0 0
POINTS 1408
DATA ascii
-0.051266 0.014157 -0.22619399
-0.051263001 0.014233 -0.226199
-0.051259998 0.014307 -0.22619499
-0.051258001 0.014378 -0.226179
-0.051254999 0.014454 -0.22617701
-0.051252998 0.014528 -0.226174
-0.05125 0.014602 -0.22617
-0.051247001 0.014676 -0.226166
-0.051244002 0.01475 -0.226162
-0.051240999 0.014826 -0.226165
-0.051236998 0.014902 -0.226183
-0.051233999 0.014978 -0.22619499
-0.051231001 0.015052 -0.22619499
-0.051227 0.015129 -0.22621299
-0.051222999 0.015205 -0.22623099
-0.051219001 0.015281 -0.226252
-0.051215 0.015358 -0.226276
-0.051210999 0.015434 -0.226302
-0.051205002 0.015513 -0.22634999
-0.051199999 0.015592 -0.22639
-0.051194001 0.015671 -0.22644199
-0.051189002 0.01575 -0.22648799
-0.051185001 0.015827 -0.2265
-0.051181 0.015903 -0.226531
-0.051174998 0.015984001 -0.22658101
-0.051171001 0.016061001 -0.22661699
-0.051162999 0.016145 -0.226707
-0.051151998 0.016233999 -0.226852
-0.051143002 0.016321 -0.22696801
-0.051369999 -0.0066780001 -0.22763801
-0.051369 -0.0066010002 -0.227597
-0.051368002 -0.0065239999 -0.227557
-0.051366001 -0.0064440002 -0.227521
-0.051364999 -0.0063689998 -0.227487
-0.051362999 -0.0062919999 -0.227469
-0.051360998 -0.0062170001 -0.227432
-0.05136 -0.0061389999 -0.227396
-0.051357999 -0.0060640001 -0.227376
-0.051355999 -0.005988 -0.22736
-0.051353 -0.0059110001 -0.227347
-0.051351 -0.005837 -0.22733299
-0.051348001 -0.0057609999 -0.227323
-0.051346 -0.0056850002 -0.227313
-0.051343001 -0.0056099999 -0.227301
-0.051341001 -0.0055359998 -0.2273
-0.051337998 -0.0054600001 -0.22729599
-0.051335 -0.005386 -0.227286
-0.051332999 -0.0053099999 -0.22727799
-0.05133 -0.0052339998 -0.227273
-0.051327001 -0.0051589999 -0.227265
-0.051323999 -0.0050849998 -0.227267
-0.051320001 -0.005012 -0.227295
-0.051316001 -0.0049379999 -0.227321
-0.051313002 -0.0048639998 -0.22731601
-0.051311001 -0.0047860001 -0.227292
-0.051309999 -0.0047109998 -0.22725999
-0.051307999 -0.0046350001 -0.22724199
-0.051306002 -0.0045579998 -0.227217
-0.051304001 -0.0044829999 -0.227191
-0.051302001 -0.0044069998 -0.227165
-0.051300999 -0.0043319999 -0.227139
-0.051298 -0.0042559998 -0.227129
-0.051295001 -0.0041820002 -0.22713
-0.051291998 -0.0041080001 -0.227134
-0.051289 -0.004032 -0.227136
-0.051286001 -0.0039579999 -0.227134
-0.051282998 -0.003882 -0.227129
-0.051281001 -0.0038069999 -0.227119
-0.051277999 -0.003733 -0.227117
-0.051274002 -0.0036579999 -0.227127
-0.051270999 -0.003584 -0.227136
-0.051268 -0.00351 -0.227136
-0.051265001 -0.0034340001 -0.22714201
-0.051261 -0.003362 -0.227164
-0.051256999 -0.0032870001 -0.227182
-0.051254001 -0.003213 -0.227189
-0.05125 -0.0031389999 -0.227199
-0.051245999 -0.003063 -0.22721501
-0.051243 -0.002991 -0.22722299
-0.051240999 -0.0029150001 -0.22721399
-0.051240001 -0.002838 -0.227166
-0.051238999 -0.0027630001 -0.227118
-0.051238 -0.002686 -0.227082
-0.051236998 -0.0026110001 -0.227047
-0.051235002 -0.002534 -0.22701301
-0.051233001 -0.0024600001 -0.226987
-0.051231001 -0.002385 -0.226971
-0.051229 -0.0023089999 -0.22695699
-0.051227 -0.002233 -0.22694001
-0.051224999 -0.0021579999 -0.22691999
-0.051222 -0.002084 -0.226908
-0.05122 -0.0020089999 -0.22688399
-0.051219001 -0.0019330001 -0.226861
-0.051215999 -0.001859 -0.22684699
-0.051213998 -0.001784 -0.22683699
-0.051210999 -0.00171 -0.226835
-0.051208001 -0.001634 -0.226832
-0.051205002 -0.00156 -0.22682799
-0.051203001 -0.001486 -0.226826
-0.051199999 -0.00141 -0.226822
-0.051197998 -0.0013370001 -0.226807
-0.051196001 -0.00126 -0.226767
-0.051196001 -0.0011849999 -0.226717
-0.051194999 -0.0011089999 -0.22668099
-0.051192999 -0.001034 -0.22664499
-0.051192999 -0.00095800002 -0.226584
-0.051192999 -0.00088299997 -0.22653399
-0.051190998 -0.00080799998 -0.226496
-0.05119 -0.00073299999 -0.226459
-0.051189002 -0.000657 -0.226421
-0.051187001 -0.00058200001 -0.226395
-0.051185001 -0.00050800003 -0.226381
-0.051183 -0.00043300001 -0.226363
-0.051181 -0.000359 -0.22635201
-0.051178001 -0.000283 -0.22634
-0.051176 -0.00021 -0.226326
-0.051173002 -0.000136 -0.22631399
-0.051169999 -5.9999998e-05 -0.22631501
-0.051167 1.4e-05 -0.226317
-0.051165 8.8000001e-05 -0.226311
-0.051162001 0.000162 -0.226307
-0.051158 0.00023600001 -0.22632
-0.051153999 0.00031 -0.226346
-0.051150002 0.00038300001 -0.226366
-0.051144999 0.00045799999 -0.22641
-0.051141001 0.00053000002 -0.226439
-0.051137 0.00060500001 -0.226455
-0.051134001 0.00067899999 -0.226469
-0.051130001 0.00075299997 -0.226475
-0.051128 0.00082900003 -0.226457
-0.051126 0.000902 -0.22644401
-0.051123999 0.00097599998 -0.22643
-0.051121999 0.001052 -0.22641
-0.051119 0.001125 -0.226408
-0.051116001 0.0012000001 -0.22641499
-0.051112998 0.001273 -0.226409
-0.051111002 0.001349 -0.226395
-0.051107999 0.001423 -0.226383
-0.051105998 0.001497 -0.22637799
-0.051103 0.001572 -0.226368
-0.051100999 0.001646 -0.226356
-0.051098 0.0017199999 -0.22634
-0.051096 0.0017960001 -0.226339
-0.051091 0.001868 -0.226367
-0.051086999 0.001943 -0.22639699
-0.051084001 0.002017 -0.226403
-0.051081002 0.0020910001 -0.22639599
-0.051077999 0.002165 -0.226408
-0.051073998 0.0022390001 -0.22642601
-0.051070001 0.0023149999 -0.226436
-0.051066998 0.002388 -0.22645099
-0.051063001 0.0024619999 -0.226469
-0.051059999 0.002538 -0.226469
-0.051057 0.0026120001 -0.22647101
-0.051052999 0.002686 -0.22648101
-0.05105 0.0027600001 -0.226484
-0.051047001 0.0028339999 -0.226482
-0.051045001 0.002908 -0.226478
-0.051042002 0.0029839999 -0.226474
-0.051038999 0.003058 -0.22647899
-0.051036 0.0031320001 -0.226477
-0.051033001 0.003206 -0.226467
-0.051029999 0.0032800001 -0.226467
-0.051027998 0.0033539999 -0.226468
-0.051024001 0.00343 -0.226468
-0.051020999 0.0035039999 -0.226476
-0.051017001 0.003578 -0.226494
-0.051013999 0.0036520001 -0.226496
-0.051011 0.003726 -0.226495
-0.051008999 0.0038020001 -0.226487
-0.051006 0.0038759999 -0.22647899
-0.051003002 0.0039499998 -0.226483
-0.050999999 0.0040239999 -0.22649001
-0.050997 0.004098 -0.226494
-0.050992999 0.0041720001 -0.226502
-0.05099 0.0042460002 -0.226502
-0.050988998 0.0043210001 -0.226473
-0.050985999 0.0043950002 -0.22647899
-0.050980002 0.00447 -0.226523
-0.050976999 0.0045440001 -0.22653501
-0.050974 0.0046179998 -0.22652601
-0.050972 0.0046919999 -0.22651599
-0.050969001 0.004768 -0.22651
-0.050967 0.0048420001 -0.226502
-0.050965 0.0049149999 -0.226485
-0.050962999 0.004989 -0.226465
-0.050960001 0.0050639999 -0.226449
-0.050958 0.005138 -0.226441
-0.050955001 0.0052120001 -0.226438
-0.050951999 0.0052860002 -0.226432
-0.050949 0.0053599998 -0.22643401
-0.050946001 0.0054359999 -0.226448
-0.050942 0.00551 -0.226464
-0.050937999 0.0055849999 -0.226477
-0.050935 0.005659 -0.226483
-0.050933 0.0057330001 -0.226475
-0.050930999 0.005806 -0.22645099
-0.050928999 0.0058820001 -0.226436
-0.050926 0.0059549999 -0.226432
-0.050923001 0.006029 -0.22643
-0.050919998 0.0061030001 -0.22642601
-0.050917 0.0061769998 -0.22643299
-0.050914001 0.0062529999 -0.226427
-0.050912 0.006327 -0.226423
-0.050907999 0.0064010001 -0.226437
-0.050905 0.0064750002 -0.22644199
-0.050903 0.0065489998 -0.22642399
-0.050900001 0.0066249999 -0.226408
-0.050896998 0.006699 -0.226408
-0.050895002 0.0067730001 -0.226409
-0.050891999 0.0068470002 -0.226411
-0.050889 0.0069200001 -0.22640499
-0.050886001 0.0069960002 -0.226395
-0.050884001 0.0070699998 -0.226381
-0.050882 0.0071430001 -0.226358
-0.05088 0.0072169998 -0.226344
-0.050875999 0.0072909999 -0.22635999
-0.050872002 0.0073660002 -0.22637799
-0.050868001 0.0074419999 -0.226399
-0.050864 0.0075170002 -0.226437
-0.050857998 0.0075940001 -0.22648101
-0.050855 0.0076680002 -0.22649699
-0.050852001 0.0077419998 -0.22649699
-0.050849002 0.0078159999 -0.22648799
-0.050848 0.0078910002 -0.22645999
-0.050845999 0.0079619996 -0.22643
-0.050843999 0.0080359997 -0.22641701
-0.050841 0.0081120003 -0.226411
-0.050838999 0.0081860004 -0.22639699
-0.050836999 0.0082590003 -0.226385
-0.050833002 0.0083339997 -0.226401
-0.050829999 0.0084079998 -0.22641
-0.050825998 0.0084840003 -0.226412
-0.050822999 0.0085580004 -0.22642399
-0.05082 0.0086319996 -0.226414
-0.050818998 0.0087050004 -0.226391
-0.050816 0.0087789996 -0.226381
-0.050813001 0.0088550001 -0.226381
-0.050810002 0.0089290002 -0.22637901
-0.050806999 0.0090030003 -0.22638001
-0.050804999 0.0090770004 -0.226372
-0.050802998 0.0091500003 -0.226358
-0.050799999 0.0092259999 -0.226358
-0.050795998 0.0093 -0.226365
-0.050793 0.0093750004 -0.226375
-0.050788999 0.009451 -0.226391
-0.050786 0.0095250001 -0.22639699
-0.050783001 0.0095990002 -0.22639699
-0.050779 0.0096730003 -0.22641
-0.050776001 0.009749 -0.226414
-0.050774001 0.0098230001 -0.22640599
-0.05077 0.0098970002 -0.22641
-0.050767001 0.0099729998 -0.226411
-0.050765 0.010047 -0.226401
-0.050762001 0.010121 -0.22639699
-0.050758999 0.010194 -0.226391
-0.050756998 0.010268 -0.22639
-0.050753001 0.010345 -0.226402
-0.050749999 0.010419 -0.226412
-0.050746001 0.010495 -0.22642
-0.050742999 0.010569 -0.226422
-0.05074 0.010643 -0.22641701
-0.050737999 0.010716 -0.226403
-0.050735999 0.01079 -0.226383
-0.050733998 0.010864 -0.226375
-0.050730001 0.010938 -0.22638801
-0.050726999 0.011014 -0.22639599
-0.050724 0.011088 -0.226382
-0.050721999 0.011162 -0.22638001
-0.050717998 0.011238 -0.22639699
-0.050714001 0.011312 -0.22640499
-0.050710998 0.011386 -0.226409
-0.050708 0.011462 -0.226411
-0.050705999 0.011536 -0.226402
-0.050703999 0.01161 -0.226386
-0.050701998 0.011683 -0.226364
-0.050698999 0.011757 -0.226356
-0.050696 0.011831 -0.226363
-0.050693002 0.011905 -0.22636101
-0.050689999 0.011981 -0.226353
-0.050687 0.012055 -0.22636101
-0.050684001 0.012131 -0.22637101
-0.050680999 0.012205 -0.22637001
-0.050678 0.012279 -0.226368
-0.050675001 0.012353 -0.226356
-0.050673001 0.012426 -0.226344
-0.050670002 0.012502 -0.226355
-0.050666999 0.012576 -0.226357
-0.050664 0.01265 -0.226345
-0.050661001 0.012726 -0.22634301
-0.050657999 0.0128 -0.226348
-0.050655 0.012874 -0.22634199
-0.050652999 0.012948 -0.226338
-0.050648998 0.013024 -0.22634999
-0.050646 0.013098 -0.226354
-0.050643001 0.013172 -0.226345
-0.050641 0.013246 -0.226327
-0.050639 0.013319 -0.22631299
-0.050636001 0.013393 -0.226316
-0.050632998 0.013469 -0.226316
-0.050631002 0.013543 -0.22630601
-0.050627999 0.013617 -0.22629
-0.050625999 0.01369 -0.22627901
-0.050624002 0.013762 -0.226261
-0.050622001 0.013838 -0.22625101
-0.050618 0.013912 -0.226261
-0.050616 0.013986 -0.226254
-0.050613001 0.014059 -0.226244
-0.050609 0.014136 -0.226256
-0.050606001 0.014212 -0.22627001
-0.050602999 0.014286 -0.226266
-0.0506 0.014359 -0.22625899
-0.050597001 0.014433 -0.226261
-0.050595 0.014507 -0.226257
-0.050592002 0.014583 -0.226245
-0.050588999 0.014657 -0.226246
-0.050586998 0.014731 -0.22623999
-0.050584 0.014805 -0.226226
-0.050581001 0.014878 -0.22622401
-0.050577998 0.014955 -0.226237
-0.050574001 0.015031 -0.226255
-0.05057 0.015107 -0.226271
-0.050565999 0.015184 -0.22629499
-0.050562002 0.01526 -0.226321
-0.050558001 0.015337 -0.22634099
-0.050553001 0.015415 -0.22637001
-0.050549001 0.015492 -0.22639599
-0.050545 0.015568 -0.226414
-0.050540999 0.015644999 -0.22643401
-0.050537001 0.015721001 -0.226454
-0.050531998 0.015799999 -0.2265
-0.050526001 0.015879 -0.226542
-0.050522 0.015958 -0.226578
-0.050517 0.016036 -0.22661901
-0.050508998 0.016117999 -0.226707
-0.050498001 0.016209999 -0.226868
-0.050491001 0.016291 -0.226942
-0.050979 -0.006999 -0.227607
-0.050979 -0.0069200001 -0.22754499
-0.050978001 -0.0068410002 -0.22749899
-0.050976999 -0.0067639998 -0.22746199
-0.050976999 -0.0066849999 -0.22739799
-0.050976001 -0.006608 -0.227354
-0.050974999 -0.0065310001 -0.227322
-0.050972998 -0.0064539998 -0.227294
-0.050971001 -0.0063789999 -0.227263
-0.050969999 -0.0063009998 -0.227229
-0.050969001 -0.0062239999 -0.227193
-0.050967 -0.006149 -0.227171
-0.050964002 -0.0060729999 -0.227164
-0.050960999 -0.0059969998 -0.227152
-0.050960001 -0.0059219999 -0.227126
-0.050958 -0.0058459998 -0.227108
-0.050955001 -0.0057700002 -0.227098
-0.050953001 -0.0056949998 -0.227081
-0.050951 -0.0056190002 -0.22705901
-0.050949 -0.0055419998 -0.22703101
-0.050946999 -0.0054680002 -0.22702099
-0.050942998 -0.0053940001 -0.227034
-0.05094 -0.00532 -0.227042
-0.050937001 -0.0052459999 -0.227042
-0.050934002 -0.0051699998 -0.22704799
-0.050930001 -0.0050980002 -0.227063
-0.050926 -0.0050229998 -0.227083
-0.050921999 -0.00495 -0.22711299
-0.050919 -0.0048739999 -0.227117
-0.050916001 -0.004799 -0.227099
-0.050914001 -0.0047249999 -0.227088
-0.050912 -0.00465 -0.227064
-0.050911002 -0.0045719999 -0.227034
-0.050909001 -0.004495 -0.22699399
-0.050907001 -0.0044200001 -0.22697499
-0.050903998 -0.004346 -0.226973
-0.050902002 -0.0042719999 -0.22696701
-0.050900001 -0.0041959998 -0.226951
-0.050896998 -0.0041209999 -0.226941
-0.050894 -0.0040449998 -0.22693799
-0.050891001 -0.0039710002 -0.22693799
-0.050887998 -0.0038970001 -0.226936
-0.050886001 -0.003821 -0.226928
-0.050882999 -0.0037450001 -0.226915
-0.05088 -0.003671 -0.226919
-0.050875999 -0.0035969999 -0.22693899
-0.050872002 -0.0035240001 -0.226965
-0.050868999 -0.00345 -0.22698
-0.050864998 -0.0033760001 -0.226992
-0.050861001 -0.003302 -0.227008
-0.050857 -0.0032269999 -0.227028
-0.050852999 -0.003155 -0.227052
-0.05085 -0.0030809999 -0.227065
-0.050847001 -0.0030050001 -0.227053
-0.050845001 -0.002929 -0.22703101
-0.050843999 -0.0028540001 -0.22700299
-0.050843 -0.002779 -0.22696599
-0.050841 -0.0027020001 -0.22693001
-0.050840002 -0.002626 -0.22689401
-0.050838001 -0.0025510001 -0.22687399
-0.050836001 -0.002475 -0.226851
-0.050834 -0.0024019999 -0.226823
-0.050833002 -0.002325 -0.226797
-0.050829999 -0.0022509999 -0.226785
-0.050827999 -0.002175 -0.22677299
-0.050825998 -0.0020999999 -0.226752
-0.050822999 -0.0020260001 -0.226744
-0.05082 -0.001952 -0.226742
-0.050818 -0.001877 -0.226724
-0.050816 -0.001801 -0.22670899
-0.050813001 -0.001727 -0.22670899
-0.050810002 -0.001653 -0.226717
-0.050806999 -0.001579 -0.226715
-0.050804 -0.0015050001 -0.22672001
-0.050799999 -0.0014290001 -0.226732
-0.050797001 -0.001355 -0.22673
-0.050795 -0.001281 -0.226724
-0.050792001 -0.001205 -0.226713
-0.050790999 -0.00113 -0.226679
-0.050790001 -0.001055 -0.226641
-0.050788999 -0.00098000001 -0.226597
-0.050787002 -0.00090400001 -0.226568
-0.050785001 -0.00082900003 -0.226542
-0.050783999 -0.00075399998 -0.22650801
-0.050783001 -0.00067899999 -0.226468
-0.050781 -0.00060500001 -0.226441
-0.050779 -0.00053000002 -0.226427
-0.050776999 -0.00045399999 -0.226409
-0.050774999 -0.00038099999 -0.22638901
-0.050772998 -0.00030499999 -0.22637101
-0.050771002 -0.000231 -0.226356
-0.050767999 -0.000158 -0.22634199
-0.050765999 -8.1999999e-05 -0.226328
-0.050763 -8e-06 -0.226322
-0.050760001 6.6000001e-05 -0.22633301
-0.050756998 0.00014 -0.226339
-0.050754 0.000214 -0.226335
-0.050751001 0.00028800001 -0.226335
-0.050747 0.00036199999 -0.226358
-0.050742 0.00043700001 -0.22639599
-0.050737001 0.00050999998 -0.226446
-0.050732002 0.00058300002 -0.226494
-0.050728001 0.000658 -0.226515
-0.050724 0.00073199999 -0.22652499
-0.050721999 0.00080799998 -0.226515
-0.050719999 0.00088100001 -0.22648899
-0.050717998 0.00095399999 -0.22646999
-0.050716002 0.00103 -0.226458
-0.050712999 0.001104 -0.226448
-0.05071 0.001178 -0.22645
-0.050708 0.001254 -0.22644
-0.050705999 0.001327 -0.226411
-0.050703999 0.001403 -0.226399
-0.050701 0.001477 -0.226395
-0.050698001 0.00155 -0.226385
-0.050694998 0.001624 -0.22638801
-0.050691999 0.001699 -0.226404
-0.050689001 0.001773 -0.226404
-0.050686002 0.001847 -0.226402
-0.050682999 0.001922 -0.226401
-0.05068 0.0019960001 -0.226393
-0.050677001 0.0020699999 -0.226401
-0.050673001 0.002145 -0.226421
-0.050669 0.0022189999 -0.226436
-0.050666001 0.002293 -0.226446
-0.050663002 0.0023670001 -0.226446
-0.050659999 0.002441 -0.226458
-0.050655998 0.0025160001 -0.22647201
-0.050652999 0.0025899999 -0.226475
-0.050650001 0.002666 -0.22647899
-0.050647002 0.0027399999 -0.22647899
-0.050643999 0.002814 -0.226475
-0.050641 0.0028880001 -0.226474
-0.050639 0.002961 -0.226466
-0.050636999 0.0030370001 -0.22644401
-0.050634 0.0031109999 -0.22643
-0.050631002 0.003184 -0.226431
-0.050629001 0.0032599999 -0.226423
-0.050625999 0.003334 -0.226421
-0.050622001 0.0034090001 -0.226439
-0.050618 0.003483 -0.22647201
-0.050613999 0.0035580001 -0.226492
-0.050611001 0.0036319999 -0.22649001
-0.050608002 0.003706 -0.226492
-0.050604001 0.0037799999 -0.226504
-0.050601002 0.003854 -0.226505
-0.050597999 0.0039280001 -0.226501
-0.050595 0.0040040002 -0.226509
-0.050592002 0.0040779999 -0.226509
-0.050588999 0.004152 -0.226504
-0.050586998 0.004226 -0.226502
-0.050584 0.0042989999 -0.226492
-0.050581001 0.004375 -0.22648799
-0.050577 0.0044490001 -0.22650699
-0.050574001 0.004524 -0.226523
-0.050570998 0.0045980001 -0.226513
-0.050569002 0.0046709999 -0.226495
-0.050565999 0.0047470001 -0.226492
-0.050563999 0.0048210002 -0.22649001
-0.050561 0.0048949998 -0.22648799
-0.050558001 0.0049689999 -0.226484
-0.050556 0.0050420002 -0.226467
-0.050554 0.0051179999 -0.22645099
-0.050551001 0.005192 -0.226439
-0.050549001 0.0052649998 -0.226431
-0.050546002 0.0053389999 -0.226436
-0.050542999 0.005413 -0.226436
-0.05054 0.0054890001 -0.226436
-0.050535999 0.005564 -0.22645199
-0.050531998 0.0056380001 -0.22645999
-0.050530002 0.0057120002 -0.22645301
-0.050526999 0.0057859998 -0.226449
-0.050524 0.0058610002 -0.226445
-0.050522 0.0059349998 -0.22643299
-0.050519999 0.0060089999 -0.226418
-0.050517999 0.0060820002 -0.226402
-0.050515 0.0061559998 -0.22639599
-0.050512001 0.006232 -0.226404
-0.050508 0.0063069998 -0.22641499
-0.050505001 0.0063809999 -0.226421
-0.050501999 0.006455 -0.226421
-0.050499 0.0065279999 -0.22641701
-0.050496999 0.006604 -0.22641
-0.050494 0.0066780001 -0.226402
-0.050491001 0.0067520002 -0.2264
-0.050487999 0.0068259998 -0.226394
-0.050485998 0.0068999999 -0.226391
-0.050483 0.006976 -0.22638699
-0.050480001 0.0070489999 -0.226381
-0.050477002 0.007123 -0.226383
-0.050473999 0.0071979999 -0.226395
-0.050469998 0.007272 -0.226402
-0.050466999 0.0073480001 -0.22641
-0.050462998 0.0074220002 -0.226422
-0.05046 0.007497 -0.22644
-0.050455 0.0075730002 -0.226465
-0.050452001 0.0076469998 -0.22647101
-0.050448999 0.0077209999 -0.226467
-0.050446998 0.007795 -0.226465
-0.050443999 0.0078710001 -0.226457
-0.050441001 0.007944 -0.22645
-0.050439 0.0080180001 -0.226446
-0.050436001 0.0080920001 -0.226436
-0.050434001 0.0081660002 -0.226419
-0.050432 0.0082390001 -0.226409
-0.050427999 0.0083149998 -0.226413
-0.050425999 0.0083889998 -0.22640701
-0.050423 0.0084629999 -0.226393
-0.050420001 0.008537 -0.22639801
-0.050416999 0.0086129997 -0.226408
-0.050414 0.0086869998 -0.226402
-0.050411001 0.0087609999 -0.2264
-0.050407998 0.008835 -0.226399
-0.050406002 0.0089090001 -0.226393
-0.050402999 0.0089849997 -0.22638699
-0.0504 0.0090579996 -0.226381
-0.050399002 0.0091300001 -0.226362
-0.050397001 0.0092049995 -0.22634
-0.050393999 0.0092789996 -0.226338
-0.050390001 0.009354 -0.226354
-0.050386 0.0094299996 -0.226381
-0.050381999 0.009505 -0.22639699
-0.050379001 0.0095809996 -0.226401
-0.050376002 0.0096540004 -0.226395
-0.050372999 0.0097279996 -0.226391
-0.05037 0.0098019997 -0.22639599
-0.050367001 0.0098759998 -0.22639599
-0.050363999 0.0099520003 -0.22639
-0.050361998 0.010026 -0.226382
-0.050359 0.0101 -0.226375
-0.050356001 0.010174 -0.22638699
-0.050352 0.01025 -0.226401
-0.050349001 0.010324 -0.226399
-0.050347 0.010398 -0.226392
-0.050344002 0.010472 -0.226384
-0.050340999 0.010548 -0.226384
-0.050338 0.010622 -0.226384
-0.050336 0.010695 -0.226373
-0.050333001 0.010769 -0.22637101
-0.050330002 0.010843 -0.226365
-0.050328001 0.010917 -0.22635099
-0.050324999 0.010991 -0.226346
-0.050322998 0.011064 -0.226328
-0.050321002 0.011138 -0.226316
-0.050317001 0.011214 -0.226338
-0.050312001 0.011291 -0.226374
-0.050308999 0.011365 -0.226381
-0.050306 0.011441 -0.22637101
-0.050303001 0.011515 -0.22637101
-0.050299998 0.011589 -0.226375
-0.050297 0.011665 -0.22637799
-0.050294001 0.011739 -0.226384
-0.050291002 0.011813 -0.226386
-0.050287999 0.011889 -0.226386
-0.050285 0.011963 -0.22637799
-0.050283 0.012036 -0.22636101
-0.050280001 0.012111 -0.226365
-0.050276998 0.012187 -0.226373
-0.050274 0.012258 -0.22636101
-0.050271999 0.012334 -0.226348
-0.050269 0.012408 -0.226348
-0.050267 0.012482 -0.226338
-0.050264001 0.012555 -0.22632
-0.050262 0.012629 -0.226311
-0.050259002 0.012703 -0.22630499
-0.050257001 0.012777 -0.226299
-0.050253998 0.012851 -0.22629599
-0.050251 0.012927 -0.22629599
-0.050248001 0.013001 -0.226302
-0.050244 0.013077 -0.226312
-0.050241001 0.013151 -0.226316
-0.050237998 0.013225 -0.226311
-0.050236002 0.013298 -0.22629499
-0.050234001 0.013372 -0.226271
-0.050232999 0.013445 -0.226247
-0.05023 0.013519 -0.226238
-0.050227001 0.013593 -0.226246
-0.050223 0.013669 -0.226256
-0.050221 0.013743 -0.226244
-0.050218999 0.013815 -0.22622301
-0.050216999 0.013888 -0.226215
-0.050213002 0.013965 -0.226225
-0.050209999 0.014041 -0.22623099
-0.050206002 0.014115 -0.226238
-0.050202999 0.014191 -0.22624201
-0.0502 0.014265 -0.226248
-0.050197002 0.014339 -0.226256
-0.050193999 0.014415 -0.22625799
-0.050191 0.014489 -0.22624899
-0.050189 0.014562 -0.22623301
-0.050186001 0.014636 -0.226229
-0.050182998 0.01471 -0.22623099
-0.050179999 0.014786 -0.22623
-0.050177 0.01486 -0.22623201
-0.050174002 0.014936 -0.22623999
-0.050170001 0.015013 -0.22625799
-0.050166 0.015087 -0.226274
-0.050161999 0.015165 -0.22629499
-0.050159 0.01524 -0.226303
-0.050154999 0.015316 -0.226309
-0.050151002 0.015392 -0.226327
-0.050147001 0.015469 -0.226355
-0.050142001 0.015547 -0.226393
-0.050138 0.015624 -0.226422
-0.050135002 0.015698001 -0.22641
-0.050133999 0.015768999 -0.226372
-0.050131001 0.015845001 -0.226376
-0.050120998 0.015931999 -0.22651801
-0.050110001 0.016021 -0.226662
-0.050104 0.016101999 -0.22671799
-0.050097 0.016184 -0.226806
-0.050085001 0.016276 -0.226978
-0.050539002 -0.0073219999 -0.22762001
-0.050539002 -0.0072420002 -0.227548
-0.050538 -0.0071640001 -0.227506
-0.050539002 -0.0070839999 -0.227423
-0.050539002 -0.0070059998 -0.227355
-0.050537001 -0.0069289999 -0.227327
-0.050537001 -0.00685 -0.227257
-0.050537001 -0.0067710001 -0.22720499
-0.050535999 -0.0066940002 -0.227158
-0.050533999 -0.0066169999 -0.22712199
-0.050533 -0.00654 -0.227082
-0.050531998 -0.0064630001 -0.22704799
-0.050530002 -0.0063860002 -0.22701199
-0.050528001 -0.0063100001 -0.22699299
-0.050526001 -0.0062350002 -0.22697499
-0.050524 -0.0061590001 -0.226951
-0.050522 -0.006083 -0.226937
-0.050519999 -0.0060080001 -0.226927
-0.050517 -0.005932 -0.226914
-0.050515 -0.0058559999 -0.2269
-0.050512001 -0.005783 -0.226896
-0.050508998 -0.0057080002 -0.2269
-0.050505999 -0.0056349998 -0.226897
-0.050503001 -0.0055590002 -0.226895
-0.050500002 -0.0054839998 -0.226905
-0.050496001 -0.0054100002 -0.226917
-0.050492 -0.0053380001 -0.226942
-0.050487999 -0.0052649998 -0.22697
-0.050484002 -0.0051910002 -0.226988
-0.050480999 -0.0051170001 -0.227
-0.050478 -0.005043 -0.22700299
-0.050475001 -0.0049669999 -0.226987
-0.050473999 -0.00489 -0.226951
-0.050473001 -0.0048139999 -0.226919
-0.050471 -0.004737 -0.22689299
-0.050469 -0.0046620001 -0.226868
-0.050466999 -0.004586 -0.22685
-0.050464999 -0.0045119999 -0.226836
-0.050462 -0.004437 -0.22682001
-0.05046 -0.0043609999 -0.226809
-0.050457001 -0.0042869998 -0.226805
-0.050453998 -0.0042110002 -0.226809
-0.050450999 -0.0041370001 -0.22680099
-0.050448999 -0.0040620002 -0.22679099
-0.050446 -0.0039880001 -0.226794
-0.050441999 -0.003914 -0.22679999
-0.050439 -0.0038399999 -0.22680201
-0.050437 -0.003764 -0.226796
-0.050434001 -0.0036899999 -0.226799
-0.050429001 -0.0036170001 -0.226831
-0.050425 -0.003542 -0.22686701
-0.050421 -0.0034700001 -0.226887
-0.050416999 -0.003396 -0.22689401
-0.050414 -0.0033199999 -0.226904
-0.050411001 -0.003245 -0.22691201
-0.050407 -0.0031729999 -0.22691999
-0.050404001 -0.0030970001 -0.226924
-0.050402001 -0.003022 -0.226905
-0.050400998 -0.0029460001 -0.226871
-0.050399002 -0.002871 -0.226841
-0.050398 -0.0027960001 -0.226809
-0.050395999 -0.002721 -0.22678401
-0.050393999 -0.0026449999 -0.226762
-0.050391998 -0.002569 -0.226742
-0.050390001 -0.0024939999 -0.22672001
-0.050388001 -0.00242 -0.226703
-0.050386 -0.0023449999 -0.226689
-0.050383002 -0.002269 -0.226669
-0.050381001 -0.0021939999 -0.226649
-0.050379001 -0.0021200001 -0.226642
-0.050376002 -0.002046 -0.22663601
-0.050372999 -0.0019700001 -0.22663601
-0.05037 -0.001896 -0.22664601
-0.050365999 -0.001822 -0.226656
-0.050363 -0.001748 -0.226661
-0.050360002 -0.0016740001 -0.22666501
-0.050356001 -0.001599 -0.226687
-0.050352 -0.001527 -0.226711
-0.050347999 -0.001452 -0.226724
-0.050345 -0.001378 -0.226732
-0.050342001 -0.001304 -0.22673801
-0.050340001 -0.001229 -0.22671001
-0.050340001 -0.001152 -0.226643
-0.050338998 -0.0010770001 -0.22660699
-0.050337002 -0.0010019999 -0.226583
-0.050335001 -0.00092600001 -0.22656099
-0.050333001 -0.00085299998 -0.22654
-0.050331999 -0.00077799999 -0.22650599
-0.050331 -0.00070099998 -0.226464
-0.050329 -0.000627 -0.22644199
-0.050326999 -0.00055300002 -0.22643501
-0.050324 -0.00047699999 -0.226427
-0.050321002 -0.00040399999 -0.22641701
-0.050319001 -0.00032799999 -0.226413
-0.050315998 -0.00025400001 -0.226409
-0.050314002 -0.00018 -0.22639599
-0.050310999 -0.000105 -0.226384
-0.050308 -3.2e-05 -0.22639
-0.050303999 4.2e-05 -0.22641
-0.050301 0.000116 -0.22641701
-0.050297 0.00019000001 -0.226429
-0.050292999 0.00026500001 -0.22646099
-0.050287999 0.00033800001 -0.226501
-0.050283 0.000413 -0.226546
-0.050276998 0.000486 -0.22659799
-0.050274 0.00056000001 -0.22661801
-0.050271001 0.000634 -0.22660799
-0.050269 0.00070999999 -0.22658999
-0.050268002 0.00078499998 -0.226551
-0.050267 0.00085800001 -0.226515
-0.050264999 0.000933 -0.22648101
-0.050262999 0.001009 -0.226459
-0.050262 0.001082 -0.22643401
-0.05026 0.001157 -0.22639599
-0.050259002 0.001232 -0.226364
-0.050255999 0.001306 -0.226362
-0.050253 0.00138 -0.226373
-0.050248999 0.001455 -0.226383
-0.050246 0.001529 -0.226383
-0.050243001 0.001603 -0.226391
-0.050239999 0.001677 -0.22639801
-0.050237 0.0017509999 -0.22639
-0.050234001 0.001825 -0.22639
-0.050230999 0.001901 -0.226394
-0.050228 0.0019749999 -0.226395
-0.050225001 0.002049 -0.226399
-0.050221 0.0021230001 -0.226419
-0.050216999 0.002197 -0.22643299
-0.050214998 0.0022710001 -0.226432
-0.050211001 0.0023449999 -0.22643401
-0.050207999 0.002419 -0.22644401
-0.050205 0.0024959999 -0.22645
-0.050202001 0.00257 -0.22645199
-0.050198998 0.0026430001 -0.22645099
-0.050195999 0.002717 -0.226445
-0.050193001 0.0027910001 -0.226441
-0.050191 0.0028649999 -0.226439
-0.050188001 0.002939 -0.22644199
-0.050184 0.0030149999 -0.22644199
-0.050182 0.003089 -0.22643401
-0.050179001 0.0031630001 -0.226428
-0.050175998 0.003237 -0.226441
-0.050173 0.0033110001 -0.226445
-0.050170001 0.0033869999 -0.226437
-0.050167002 0.003461 -0.226429
-0.050163999 0.0035349999 -0.22643401
-0.050161 0.003609 -0.22643401
-0.050158001 0.0036830001 -0.226432
-0.050154999 0.003759 -0.226448
-0.050151002 0.0038330001 -0.226458
-0.050147999 0.0039070002 -0.22646099
-0.050145 0.0039809998 -0.226463
-0.050142001 0.0040549999 -0.226459
-0.050138999 0.004129 -0.226457
-0.050136 0.0042030001 -0.22647201
-0.050131999 0.0042770002 -0.22648799
-0.050129 0.0043529999 -0.22649001
-0.050127 0.0044269999 -0.226476
-0.050124999 0.004501 -0.226459
-0.050122 0.0045739999 -0.226449
-0.05012 0.00465 -0.226439
-0.050117999 0.0047240001 -0.226419
-0.050115 0.0047980002 -0.22641
-0.050112002 0.0048719998 -0.22641601
-0.050108999 0.0049459999 -0.22642
-0.050106 0.0050209998 -0.22641
-0.050104 0.0050949999 -0.226399
-0.050101001 0.005169 -0.226391
-0.050099 0.0052430001 -0.22637901
-0.050097 0.005316 -0.226365
-0.050094001 0.0053920001 -0.226368
-0.05009 0.005467 -0.226384
-0.050085999 0.005541 -0.226402
-0.050082002 0.0056150001 -0.226418
-0.050078999 0.0056889998 -0.226422
-0.050076999 0.0057629999 -0.22640701
-0.050074998 0.0058380002 -0.226383
-0.050073002 0.0059119998 -0.22636101
-0.050071001 0.0059859999 -0.226354
-0.050067998 0.00606 -0.22635201
-0.050065 0.0061329999 -0.22634199
-0.050062999 0.006209 -0.226338
-0.050058998 0.0062830001 -0.226346
-0.050055999 0.0063570002 -0.22634301
-0.050053999 0.0064309998 -0.226327
-0.050051998 0.0065040002 -0.226311
-0.050048999 0.0065779998 -0.226307
-0.050046999 0.0066519999 -0.22630601
-0.050044 0.006728 -0.2263
-0.050041001 0.0068020001 -0.22628801
-0.050039001 0.0068760002 -0.226282
-0.050035 0.0069499998 -0.226301
-0.050030999 0.0070239999 -0.226317
-0.050028 0.0071 -0.22631501
-0.050026 0.0071740001 -0.226311
-0.050023001 0.0072479998 -0.226312
-0.050019 0.0073219999 -0.226316
-0.050016001 0.007396 -0.22633
-0.050011002 0.0074729999 -0.226358
-0.050007001 0.0075480002 -0.226382
-0.050003 0.0076239998 -0.226411
-0.049998999 0.0076990002 -0.22643299
-0.049996 0.007772 -0.226431
-0.049993999 0.0078480002 -0.22641701
-0.049991 0.0079220003 -0.226408
-0.049989 0.0079960003 -0.226402
-0.049986001 0.0080700004 -0.226394
-0.049982999 0.0081430003 -0.226386
-0.049981002 0.0082170004 -0.22637901
-0.049977999 0.0082909996 -0.22636899
-0.049975999 0.0083649997 -0.22636101
-0.049973 0.00844 -0.226349
-0.049970999 0.0085140001 -0.226336
-0.049968001 0.0085880002 -0.226338
-0.049965002 0.0086620003 -0.226348
-0.049961999 0.0087360004 -0.226344
-0.049959 0.008812 -0.226338
-0.049956001 0.0088860001 -0.22634099
-0.049952999 0.0089600002 -0.226339
-0.049950998 0.0090340003 -0.22632501
-0.049949002 0.0091070002 -0.22630601
-0.049947001 0.0091810003 -0.22629599
-0.049943998 0.0092550004 -0.226298
-0.049940001 0.009331 -0.22631
-0.049936 0.0094050001 -0.22633
-0.049931999 0.009482 -0.226347
-0.049929 0.0095560001 -0.226347
-0.049926002 0.0096300002 -0.226345
-0.049922999 0.0097059999 -0.226355
-0.049919002 0.00978 -0.22636899
-0.049915999 0.0098540001 -0.226372
-0.049913999 0.0099280002 -0.226358
-0.049911998 0.010001 -0.226344
-0.049908999 0.010077 -0.226344
-0.049904998 0.010152 -0.22635099
-0.049902 0.010225 -0.22635099
-0.049899999 0.010299 -0.22634301
-0.049897 0.010373 -0.226339
-0.049894001 0.010449 -0.226344
-0.049890999 0.010523 -0.226344
-0.049888 0.010597 -0.226336
-0.049885999 0.010671 -0.22632
-0.049883999 0.010744 -0.226311
-0.049881 0.01082 -0.226311
-0.049878001 0.010894 -0.22631501
-0.049874999 0.010968 -0.22631299
-0.049872 0.011042 -0.22630399
-0.049869999 0.011116 -0.2263
-0.049865998 0.011192 -0.226308
-0.049862001 0.011266 -0.226326
-0.049858 0.011343 -0.22634199
-0.049855001 0.011417 -0.226347
-0.049853001 0.01149 -0.226335
-0.049849998 0.011566 -0.22632501
-0.049848001 0.01164 -0.226317
-0.049844999 0.011714 -0.226312
-0.049842 0.011788 -0.226322
-0.049839001 0.011862 -0.226322
-0.049835999 0.011938 -0.22632
-0.049833 0.012012 -0.226317
-0.049830001 0.012086 -0.226321
-0.049826998 0.012162 -0.226331
-0.049823999 0.012236 -0.226321
-0.049821999 0.012309 -0.22630399
-0.049819998 0.012383 -0.22628801
-0.049817 0.012457 -0.226276
-0.049814999 0.01253 -0.22625799
-0.049812999 0.012604 -0.226247
-0.04981 0.012678 -0.226245
-0.049807999 0.012752 -0.226237
-0.049805 0.012825 -0.226227
-0.049803 0.012899 -0.22622
-0.049800001 0.012973 -0.22622
-0.049796999 0.013049 -0.22622
-0.049793001 0.013123 -0.226226
-0.049789999 0.013199 -0.226234
-0.049787 0.013273 -0.22623099
-0.049784999 0.013347 -0.22622301
-0.049782 0.013421 -0.226217
-0.04978 0.013495 -0.226206
-0.049777001 0.013568 -0.226198
-0.049773999 0.013644 -0.2262
-0.049771 0.013718 -0.22619601
-0.049768001 0.013792 -0.226192
-0.049766 0.013866 -0.22618701
-0.049763002 0.01394 -0.226179
-0.049759999 0.014014 -0.22617701
-0.049757 0.01409 -0.22618499
-0.049754001 0.014166 -0.22619
-0.049750999 0.01424 -0.22619
-0.049748 0.014314 -0.226184
-0.049745999 0.014388 -0.226174
-0.049743 0.014461 -0.22616699
-0.049741 0.014535 -0.22615901
-0.049738001 0.014609 -0.22615699
-0.049734 0.014685 -0.226163
-0.049731001 0.014759 -0.226162
-0.049729001 0.014833 -0.22616
-0.049725 0.014909 -0.22617
-0.049720999 0.014986 -0.226188
-0.049717002 0.015062 -0.22620399
-0.049713001 0.015138 -0.226227
-0.049709 0.015215 -0.226247
-0.049704999 0.015291 -0.226267
-0.049701001 0.015368 -0.226289
-0.049697001 0.015444 -0.226309
-0.049693 0.015522 -0.226335
-0.049687002 0.015602 -0.22638699
-0.049681 0.015681 -0.226441
-0.049678002 0.015757 -0.22645999
-0.049672998 0.015834 -0.22649001
-0.049667001 0.015915001 -0.226546
-0.049662001 0.015993999 -0.22659799
-0.049655002 0.016078001 -0.22667401
-0.049646001 0.016162001 -0.226776
-0.04964 0.016243 -0.22684599
-0.049631 0.016328 -0.226954
-0.050083999 -0.0073389998 -0.227539
-0.050085001 -0.0072590001 -0.22745
-0.050085001 -0.0071800002 -0.227394
-0.050085001 -0.0071020001 -0.227332
-0.050085001 -0.0070210001 -0.22726201
-0.050083999 -0.0069439998 -0.22721
-0.050085999 -0.0068629999 -0.227112
-0.050083999 -0.0067870002 -0.227081
-0.050082002 -0.0067099999 -0.227065
-0.050081 -0.006633 -0.227027
-0.050080001 -0.0065560001 -0.226979
-0.050078001 -0.00648 -0.22695699
-0.050076 -0.0064050001 -0.22693799
-0.050074 -0.006327 -0.22691201
-0.050071999 -0.0062520001 -0.226888
-0.050069999 -0.006176 -0.226872
-0.050067998 -0.0061010001 -0.22685701
-0.050065 -0.006025 -0.226841
-0.050062999 -0.0059489999 -0.22682901
-0.05006 -0.0058749998 -0.226835
-0.050055999 -0.0058030002 -0.226849
-0.050053 -0.0057290001 -0.22685599
-0.050048999 -0.0056540002 -0.226868
-0.050044999 -0.0055800001 -0.226898
-0.050041001 -0.005508 -0.226916
-0.050037 -0.0054330002 -0.226933
-0.050032999 -0.0053610001 -0.226961
-0.050030001 -0.0052860002 -0.22697701
-0.050027002 -0.0052120001 -0.22697701
-0.050023999 -0.0051369998 -0.22696801
-0.050021999 -0.0050610001 -0.226952
-0.050020002 -0.0049859998 -0.226926
-0.050019 -0.0049100001 -0.22689401
-0.050016999 -0.0048329998 -0.22686601
-0.050014999 -0.0047579999 -0.226835
-0.050014 -0.004681 -0.226795
-0.050012 -0.0046049999 -0.22677299
-0.050009999 -0.0045289998 -0.226759
-0.050007999 -0.0044559999 -0.226748
-0.050005 -0.0043799998 -0.226744
-0.050002001 -0.0043060002 -0.22674
-0.049998999 -0.0042300001 -0.226732
-0.049996 -0.004156 -0.226733
-0.049993001 -0.0040819999 -0.226741
-0.049989998 -0.0040079998 -0.226751
-0.049986001 -0.0039340002 -0.226761
-0.049982999 -0.0038600001 -0.226763
-0.04998 -0.0037849999 -0.22677401
-0.049975999 -0.0037110001 -0.226796
-0.049972001 -0.003639 -0.22682001
-0.049966998 -0.0035639999 -0.22684599
-0.049963001 -0.003491 -0.226887
-0.049958002 -0.0034179999 -0.226925
-0.049954001 -0.0033440001 -0.22694699
-0.049950998 -0.00327 -0.22694699
-0.049949002 -0.0031950001 -0.226924
-0.049947999 -0.003117 -0.226888
-0.049945999 -0.0030420001 -0.226852
-0.049945001 -0.002967 -0.22680999
-0.049943998 -0.0028919999 -0.226779
-0.049942002 -0.002817 -0.226749
-0.049941 -0.0027399999 -0.226705
-0.049940001 -0.002664 -0.226679
-0.049936999 -0.0025879999 -0.226667
-0.049934998 -0.0025150001 -0.226658
-0.049933001 -0.0024389999 -0.226642
-0.049929999 -0.0023650001 -0.226624
-0.049927 -0.00229 -0.226624
-0.049924999 -0.0022160001 -0.226625
-0.049922001 -0.002142 -0.226625
-0.049918 -0.0020669999 -0.22664499
-0.049913999 -0.001993 -0.226661
-0.049911 -0.0019189999 -0.226668
-0.049908001 -0.001845 -0.22667
-0.049904 -0.00177 -0.22668999
-0.049899999 -0.001698 -0.22670799
-0.049897 -0.001622 -0.226716
-0.049892999 -0.00155 -0.226731
-0.049888998 -0.0014750001 -0.226753
-0.049885001 -0.001401 -0.22676501
-0.049883001 -0.001325 -0.226757
-0.049881 -0.00125 -0.226732
-0.049880002 -0.001175 -0.22668201
-0.049880002 -0.001098 -0.22663
-0.049878001 -0.001025 -0.22659799
-0.049876999 -0.00094900001 -0.226567
-0.049876001 -0.00087400002 -0.226529
-0.049874 -0.00079899997 -0.226509
-0.049872 -0.00072299998 -0.22648899
-0.049869999 -0.00065 -0.22647201
-0.049867 -0.00057400001 -0.226456
-0.049865 -0.00050000002 -0.226438
-0.049862999 -0.00042500001 -0.22643401
-0.049858999 -0.000351 -0.226439
-0.049857002 -0.00027700001 -0.22643501
-0.049853001 -0.000203 -0.226441
-0.049849 -0.000128 -0.22646099
-0.049846001 -5.4e-05 -0.226473
-0.049842998 1.9999999e-05 -0.22647201
-0.04984 9.4000003e-05 -0.22646999
-0.049837001 0.000168 -0.22647201
-0.049833 0.00024199999 -0.22649001
-0.049828999 0.000317 -0.22652499
-0.049823999 0.00039 -0.22657099
-0.049819 0.000463 -0.226615
-0.049816001 0.00053899997 -0.226615
-0.049814001 0.00061400002 -0.226578
-0.049812999 0.00068699999 -0.226542
-0.049812 0.00076199998 -0.226502
-0.04981 0.00083799998 -0.226482
-0.049807001 0.00091200002 -0.22648101
-0.049805999 0.00098699995 -0.22645301
-0.049803998 0.00106 -0.22642501
-0.049802002 0.001136 -0.226409
-0.049800001 0.00121 -0.226392
-0.049796999 0.001283 -0.22637799
-0.049795002 0.001359 -0.226368
-0.049793001 0.001433 -0.226354
-0.049789999 0.0015069999 -0.226347
-0.049787 0.00158 -0.22634301
-0.049784001 0.001654 -0.226347
-0.049780998 0.00173 -0.226349
-0.049777001 0.001805 -0.22636101
-0.049773 0.001879 -0.226386
-0.049768999 0.001952 -0.22641601
-0.049764998 0.0020260001 -0.226436
-0.049761001 0.0021009999 -0.226454
-0.049757998 0.002175 -0.226467
-0.049755 0.0022509999 -0.226467
-0.049752001 0.002324 -0.226455
-0.04975 0.0023980001 -0.226439
-0.049747001 0.002472 -0.22644401
-0.049743999 0.0025460001 -0.22645199
-0.049741 0.0026219999 -0.226454
-0.049736999 0.002696 -0.22645999
-0.049734 0.0027699999 -0.22645999
-0.049731001 0.002844 -0.226469
-0.049727999 0.0029190001 -0.226477
-0.049725 0.002994 -0.226463
-0.049722999 0.0030680001 -0.22644299
-0.049720999 0.0031419999 -0.22644
-0.049718 0.003216 -0.226436
-0.049715001 0.0032899999 -0.226438
-0.049711999 0.003365 -0.22643401
-0.049710002 0.0034390001 -0.22641701
-0.049706999 0.003513 -0.226413
-0.049704 0.0035870001 -0.226427
-0.049699999 0.0036619999 -0.226445
-0.049695998 0.003736 -0.22645999
-0.049693 0.0038099999 -0.226464
-0.049690001 0.003884 -0.226464
-0.049687002 0.0039599999 -0.226458
-0.049685001 0.004034 -0.226454
-0.049681 0.0041080001 -0.226459
-0.049678002 0.0041820002 -0.22646099
-0.049676001 0.0042570001 -0.226447
-0.049674001 0.0043310001 -0.22642501
-0.04967 0.0044049998 -0.22644199
-0.049665999 0.0044800001 -0.22647201
-0.049663 0.0045540002 -0.226476
-0.049660999 0.0046270001 -0.22645999
-0.049658 0.0047030002 -0.22646099
-0.049655002 0.0047769998 -0.22645301
-0.049654 0.0048500001 -0.226413
-0.049651999 0.0049259998 -0.22638901
-0.049649999 0.0049990001 -0.226372
-0.049648002 0.0050730002 -0.22635999
-0.049644999 0.0051469998 -0.22635999
-0.049642 0.0052209999 -0.226364
-0.049639001 0.005295 -0.226363
-0.049635999 0.0053710002 -0.22635099
-0.049633998 0.0054449998 -0.226349
-0.049630001 0.0055189999 -0.226365
-0.049626 0.005593 -0.226386
-0.049621999 0.0056679999 -0.226404
-0.049619 0.005742 -0.22641
-0.049616002 0.0058180001 -0.226404
-0.049614001 0.0058909999 -0.226394
-0.049610998 0.005965 -0.226385
-0.049609002 0.0060390001 -0.226373
-0.049605999 0.0061130002 -0.226365
-0.049603 0.0061880001 -0.226363
-0.049600001 0.006263 -0.226366
-0.049596999 0.0063370001 -0.226368
-0.049594 0.0064110002 -0.226372
-0.049591001 0.0064849998 -0.22637001
-0.049587999 0.0065609999 -0.226373
-0.049585 0.006635 -0.22637901
-0.049582001 0.0067090001 -0.226383
-0.049578998 0.0067830002 -0.22637901
-0.049575999 0.0068560001 -0.226372
-0.049573999 0.0069320002 -0.226364
-0.049571 0.0070059998 -0.22635201
-0.049569 0.0070799999 -0.22634
-0.049566001 0.0071530002 -0.226337
-0.049563002 0.0072269998 -0.226335
-0.049559999 0.007303 -0.226339
-0.049557 0.0073779998 -0.226353
-0.049552999 0.0074519999 -0.22636899
-0.049548998 0.007526 -0.226394
-0.049545001 0.0076029999 -0.226412
-0.049541999 0.007677 -0.226414
-0.049539 0.0077510001 -0.226408
-0.049536999 0.007824 -0.226393
-0.049534999 0.0078980001 -0.22637101
-0.049532 0.0079720002 -0.226365
-0.049529999 0.0080469996 -0.226357
-0.049527001 0.0081209997 -0.22635201
-0.049524002 0.0081949998 -0.226348
-0.049522001 0.0082689999 -0.226346
-0.049518999 0.008343 -0.22634
-0.049516 0.0084189996 -0.22633301
-0.049513999 0.0084929997 -0.226327
-0.049511001 0.0085659996 -0.226327
-0.049507 0.0086409999 -0.226335
-0.049504001 0.008715 -0.22635201
-0.0495 0.0087909997 -0.226354
-0.049497999 0.0088649997 -0.22634
-0.049495999 0.0089379996 -0.226328
-0.049493 0.0090119997 -0.22632401
-0.049490001 0.0090859998 -0.226321
-0.049488001 0.0091620004 -0.226311
-0.049486 0.009234 -0.22629701
-0.049484 0.0093090003 -0.226276
-0.049481001 0.0093830004 -0.22626799
-0.049477 0.0094569996 -0.226298
-0.049472 0.0095340004 -0.226338
-0.049469002 0.0096079996 -0.22634199
-0.049465001 0.0096840002 -0.226353
-0.049462002 0.0097589996 -0.22636101
-0.049458999 0.0098320004 -0.226353
-0.049456 0.0099060005 -0.226347
-0.049454 0.0099799996 -0.22633199
-0.049453001 0.010053 -0.22629599
-0.049451001 0.010127 -0.226276
-0.049447998 0.010201 -0.226284
-0.049444001 0.010277 -0.22629499
-0.049440999 0.010351 -0.226307
-0.049437001 0.010428 -0.226329
-0.049433999 0.010502 -0.226327
-0.049431998 0.010575 -0.226301
-0.049430002 0.010649 -0.22628599
-0.049426999 0.010722 -0.22628
-0.049424998 0.010796 -0.22627001
-0.049422 0.01087 -0.226276
-0.049417999 0.010946 -0.226283
-0.049415 0.01102 -0.22627901
-0.049412999 0.011094 -0.226271
-0.049408998 0.01117 -0.226281
-0.049405001 0.011245 -0.226308
-0.049401 0.011321 -0.226338
-0.049396999 0.011398 -0.22635201
-0.049394 0.011472 -0.226354
-0.049391001 0.011545 -0.226346
-0.049389001 0.011619 -0.22634301
-0.049385998 0.011693 -0.226339
-0.049384002 0.011769 -0.22632501
-0.049382001 0.01184 -0.226303
-0.049380001 0.011914 -0.22627001
-0.049378 0.011987 -0.226256
-0.049375001 0.012061 -0.226264
-0.049369998 0.01214 -0.226294
-0.049366999 0.012214 -0.226311
-0.049364001 0.012288 -0.226299
-0.049362 0.012362 -0.226289
-0.049359001 0.012435 -0.22627699
-0.049357999 0.012509 -0.226254
-0.049355999 0.012582 -0.226236
-0.049353 0.012656 -0.226226
-0.049350999 0.01273 -0.22621
-0.049348 0.012804 -0.226207
-0.049345002 0.012878 -0.226209
-0.049343001 0.012951 -0.226199
-0.049339999 0.013025 -0.22618701
-0.049338002 0.013099 -0.226182
-0.049334999 0.013173 -0.22618
-0.049330998 0.013249 -0.226188
-0.049327999 0.013323 -0.226192
-0.049325999 0.013397 -0.226173
-0.049323998 0.01347 -0.226161
-0.049320001 0.013547 -0.226171
-0.049316999 0.013621 -0.226181
-0.049313001 0.013697 -0.226191
-0.049309999 0.013773 -0.22620399
-0.049307 0.013847 -0.226198
-0.049304999 0.013918 -0.22617599
-0.049302999 0.013994 -0.22616801
-0.049299002 0.014069 -0.226181
-0.049295999 0.014145 -0.226189
-0.049293 0.014219 -0.226193
-0.049290001 0.014293 -0.226191
-0.049286999 0.014366 -0.22617801
-0.049284998 0.01444 -0.226162
-0.049283002 0.014514 -0.226156
-0.049279999 0.01459 -0.226154
-0.049277 0.014661 -0.226147
-0.049275 0.014737 -0.22613899
-0.049272001 0.014811 -0.226137
-0.049268998 0.014887 -0.22613899
-0.049265001 0.014961 -0.22614899
-0.049261 0.015038 -0.22617599
-0.049256999 0.015116 -0.226202
-0.049253002 0.015191 -0.226216
-0.049249999 0.015267 -0.22622199
-0.049245998 0.015343 -0.226236
-0.049240999 0.01542 -0.226271
-0.049236 0.015499 -0.226307
-0.049231999 0.015575 -0.22634099
-0.049226001 0.015656 -0.22638699
-0.049221002 0.015733 -0.226429
-0.049217999 0.015809 -0.226439
-0.049214002 0.015885999 -0.226455
-0.049206 0.015969999 -0.226557
-0.049199 0.016051 -0.22661901
-0.049192999 0.016132001 -0.226685
-0.049185999 0.016214 -0.226767
-0.049176998 0.016301 -0.22688299
-0.049166001 0.01639 -0.227043
-0.049637001 -0.007365 -0.227561
-0.049637001 -0.0072849998 -0.227487
-0.049637999 -0.0072050001 -0.227401
-0.049639001 -0.007123 -0.227305
-0.049639001 -0.0070460001 -0.22725201
-0.049639001 -0.0069670002 -0.227192
-0.049637999 -0.0068890001 -0.227134
-0.049637001 -0.0068120002 -0.2271
-0.049635999 -0.0067340001 -0.22705799
-0.049633998 -0.0066570002 -0.227027
-0.049633 -0.0065819998 -0.22699299
-0.049632002 -0.0065029999 -0.226945
-0.049631 -0.006426 -0.22690301
-0.049628999 -0.0063510002 -0.226877
-0.049626999 -0.006273 -0.22685
-0.049625002 -0.0062000002 -0.22684
-0.049621999 -0.0061240001 -0.22684
-0.049619 -0.00605 -0.226832
-0.049617 -0.0059739999 -0.226817
-0.049614001 -0.0059000002 -0.22681899
-0.049610998 -0.0058260001 -0.226831
-0.049607001 -0.005752 -0.226843
-0.049603 -0.0056790002 -0.226873
-0.049598001 -0.0056059998 -0.22691201
-0.049594 -0.0055340002 -0.226944
-0.049589001 -0.0054609999 -0.22696801
-0.049586002 -0.0053869998 -0.22698601
-0.049582001 -0.0053119999 -0.227007
-0.049578 -0.0052379998 -0.227015
-0.049577001 -0.005163 -0.226991
-0.049575999 -0.0050860001 -0.226943
-0.049575999 -0.0050070002 -0.22688399
-0.049573999 -0.0049319998 -0.226844
-0.049573001 -0.0048549999 -0.226816
-0.049571 -0.0047789998 -0.22679199
-0.049569 -0.004704 -0.22676601
-0.049566999 -0.0046279998 -0.226751
-0.049564 -0.004553 -0.226739
-0.049562 -0.0044789999 -0.226731
-0.049559001 -0.0044030002 -0.226723
-0.049555998 -0.0043290001 -0.22672801
-0.049552999 -0.004255 -0.22673
-0.049550001 -0.0041809999 -0.22673
-0.049547002 -0.0041049998 -0.226734
-0.049543999 -0.0040310002 -0.226742
-0.049539998 -0.0039590001 -0.226751
-0.049536999 -0.003882 -0.22676501
-0.049532998 -0.0038099999 -0.226779
-0.049529001 -0.003736 -0.226797
-0.049525999 -0.0036609999 -0.22681201
-0.049522001 -0.0035870001 -0.226834
-0.049516998 -0.003514 -0.22686601
-0.049513001 -0.0034419999 -0.2269
-0.049509 -0.003367 -0.226923
-0.049504999 -0.0032929999 -0.226925
-0.049502999 -0.0032180001 -0.226907
-0.049502 -0.0031419999 -0.226873
-0.049501002 -0.0030650001 -0.226822
-0.049501002 -0.0029889999 -0.226776
-0.049499001 -0.0029130001 -0.226752
-0.049497001 -0.00284 -0.22672801
-0.049495 -0.0027620001 -0.226702
-0.049493 -0.002689 -0.226689
-0.049490001 -0.0026130001 -0.226675
-0.049488001 -0.002537 -0.22665501
-0.049486 -0.0024639999 -0.22664499
-0.049483001 -0.002388 -0.226634
-0.049481001 -0.0023139999 -0.226622
-0.049477998 -0.0022400001 -0.22663
-0.049474001 -0.002166 -0.226638
-0.049470998 -0.0020920001 -0.226641
-0.049467999 -0.002016 -0.226643
-0.049465001 -0.001944 -0.22665501
-0.049461 -0.001869 -0.226679
-0.049456999 -0.001795 -0.22669899
-0.049453001 -0.0017199999 -0.226722
-0.049449001 -0.001648 -0.226748
-0.049444001 -0.001573 -0.226778
-0.04944 -0.001499 -0.226798
-0.049438 -0.001425 -0.226787
-0.049435999 -0.00135 -0.22676501
-0.049433999 -0.001274 -0.226733
-0.049433 -0.001199 -0.226695
-0.049431998 -0.0011239999 -0.22666
-0.049431 -0.001049 -0.22662801
-0.049428999 -0.00097400002 -0.226594
-0.049426999 -0.00089800003 -0.22657
-0.049424998 -0.00082299998 -0.226551
-0.049424 -0.00074799999 -0.226509
-0.049423002 -0.00067199999 -0.226473
-0.049421001 -0.00059900002 -0.226465
-0.049417999 -0.00052499998 -0.226464
-0.049415 -0.000451 -0.226466
-0.049410999 -0.000374 -0.226474
-0.049408 -0.00030000001 -0.226482
-0.049403999 -0.000228 -0.226496
-0.049401 -0.00015399999 -0.226513
-0.049396999 -7.9999998e-05 -0.226521
-0.049394 -4e-06 -0.226521
-0.049391001 7.0000002e-05 -0.226523
-0.049387999 0.000143 -0.226538
-0.049384002 0.00021899999 -0.22656
-0.049380001 0.000291 -0.226578
-0.049376 0.00036599999 -0.226602
-0.049371 0.00044100001 -0.22663499
-0.049366999 0.00051500002 -0.226649
-0.049364999 0.000589 -0.226643
-0.049362998 0.00066399999 -0.226625
-0.049361002 0.00073999999 -0.22658899
-0.04936 0.00081300002 -0.22655199
-0.049359001 0.00088800001 -0.22651599
-0.049357001 0.000963 -0.226492
-0.049355 0.001037 -0.22647101
-0.049353 0.001112 -0.22645099
-0.049352001 0.001186 -0.22642501
-0.049350001 0.001259 -0.22640701
-0.049346 0.001335 -0.22640701
-0.049343001 0.001409 -0.22642
-0.049339999 0.001484 -0.22643
-0.049336001 0.001558 -0.226432
-0.049332999 0.001632 -0.22644
-0.049329001 0.001706 -0.22646099
-0.049325999 0.00178 -0.226469
-0.049323 0.001856 -0.226459
