# .PCD v0.7 - Point Cloud Data file format
VERSION 0.7
FIELDS x y z
SIZE 4 4 4
TYPE F F F
COUNT 1 1 1
WIDTH 1493
HEIGHT 1
VIEWPOINT 0 0 0 1 0 0 0
POINTS 1493
DATA ascii
-0.050581001 0.114203 -0.23507901
-0.050577 0.11428 -0.235103
-0.050572999 0.114356 -0.235111
-0.050570998 0.114432 -0.235102
-0.050569002 0.114505 -0.23508801
-0.050565999 0.114581 -0.235076
-0.050563999 0.114655 -0.23507001
-0.050561 0.114731 -0.235066
-0.050558001 0.114807 -0.235061
-0.050556 0.11488 -0.23505101
-0.050553001 0.114956 -0.235039
-0.050551001 0.11503 -0.235037
-0.050547998 0.115106 -0.23503301
-0.050545 0.115182 -0.235027
-0.050542001 0.115257 -0.23502199
-0.05054 0.115331 -0.23501199
-0.050537001 0.115405 -0.23500399
-0.050533999 0.115483 -0.23501199
-0.050531 0.115557 -0.23502199
-0.050526999 0.115633 -0.235027
-0.050524 0.11571 -0.23504101
-0.050519999 0.115786 -0.235053
-0.050517 0.115862 -0.23505101
-0.050515 0.115936 -0.235045
-0.050512001 0.116011 -0.235035
-0.05051 0.116085 -0.235016
-0.050508 0.116161 -0.235008
-0.050503999 0.116237 -0.235016
-0.050501 0.116311 -0.235026
-0.050496999 0.116387 -0.23503999
-0.050494 0.116463 -0.235047
-0.050492 0.116537 -0.23503099
-0.050489001 0.116613 -0.23502301
-0.050485998 0.116689 -0.235027
-0.050484002 0.116765 -0.235017
-0.050482001 0.116838 -0.23499601
-0.050480001 0.116912 -0.23497599
-0.050477002 0.116987 -0.234964
-0.050475001 0.117061 -0.23495001
-0.050473001 0.117137 -0.234934
-0.050471 0.11721 -0.234919
-0.050469 0.117284 -0.23490299
-0.050466001 0.11736 -0.234901
-0.050462998 0.117436 -0.234897
-0.050461002 0.117509 -0.23488399
-0.050457999 0.117585 -0.23489
-0.050453998 0.117662 -0.23491199
-0.050450001 0.117738 -0.23492201
-0.050446998 0.117814 -0.234918
-0.050445002 0.117888 -0.234908
-0.050441999 0.117964 -0.23490299
-0.050439999 0.118037 -0.234899
-0.050437 0.118113 -0.234883
-0.050434999 0.118187 -0.23487701
-0.050430998 0.118263 -0.234883
-0.050427999 0.118339 -0.23489
-0.050425 0.118415 -0.234898
-0.050422002 0.118491 -0.234898
-0.050418999 0.118565 -0.234888
-0.050416999 0.118641 -0.234872
-0.050415002 0.118714 -0.234863
-0.050411999 0.11879 -0.234861
-0.050409 0.118866 -0.234853
-0.050407 0.11894 -0.234833
-0.050406002 0.119013 -0.234809
-0.050402999 0.119087 -0.2348
-0.0504 0.119163 -0.23480999
-0.050395999 0.119239 -0.234824
-0.050393 0.119315 -0.234826
-0.050390001 0.119391 -0.234828
-0.050388001 0.119465 -0.234818
-0.050384998 0.119541 -0.23481099
-0.050381999 0.119617 -0.23481899
-0.050379001 0.119693 -0.234815
-0.050376002 0.119767 -0.234809
-0.050372999 0.119843 -0.234813
-0.05037 0.119919 -0.234814
-0.050367001 0.119993 -0.23481201
-0.050363999 0.120069 -0.234816
-0.050361 0.120145 -0.234814
-0.050359 0.120218 -0.234798
-0.050356001 0.120294 -0.234799
-0.050352 0.12037 -0.234813
-0.050349999 0.120446 -0.234805
-0.050347 0.12052 -0.234799
-0.050344002 0.120596 -0.23480301
-0.050340999 0.120672 -0.23480301
-0.050338 0.120748 -0.2348
-0.050337002 0.120821 -0.23477601
-0.050335001 0.120895 -0.234754
-0.050331999 0.120971 -0.23475599
-0.050329 0.121045 -0.23475599
-0.050326999 0.12112 -0.234741
-0.050324 0.121194 -0.234727
-0.050321002 0.12127 -0.234733
-0.050317999 0.121346 -0.23473901
-0.050315 0.121422 -0.234733
-0.050312001 0.121496 -0.23472799
-0.050308999 0.121572 -0.23472799
-0.050306 0.121648 -0.23472799
-0.050303999 0.121724 -0.23472799
-0.050299998 0.1218 -0.23473801
-0.050297 0.121876 -0.234734
-0.050294999 0.12195 -0.234727
-0.050292 0.122026 -0.234731
-0.050287999 0.122102 -0.234735
-0.050285 0.122178 -0.23473901
-0.050282001 0.122254 -0.23473901
-0.050280001 0.122328 -0.234736
-0.050276998 0.122404 -0.23472799
-0.050275002 0.122477 -0.23470999
-0.050273001 0.122551 -0.234694
-0.050269999 0.122627 -0.23469201
-0.050267 0.1227 -0.234687
-0.050264999 0.122776 -0.234681
-0.050262 0.122852 -0.23467501
-0.05026 0.122926 -0.234659
-0.050257001 0.122999 -0.23464701
-0.050253998 0.123075 -0.234648
-0.050251 0.123151 -0.234648
-0.050248999 0.123225 -0.234642
-0.050246 0.123301 -0.23463599
-0.050243001 0.123377 -0.23464
-0.050239999 0.123453 -0.234641
-0.050237 0.123529 -0.234639
-0.050234001 0.123603 -0.234643
-0.050230999 0.123679 -0.23464499
-0.050228 0.123755 -0.23464701
-0.050225001 0.123831 -0.234649
-0.050221998 0.123907 -0.234652
-0.050218999 0.123983 -0.234652
-0.050216001 0.124059 -0.234648
-0.050213002 0.124135 -0.23465
-0.050209999 0.124211 -0.234658
-0.050207 0.124287 -0.23465601
-0.050204001 0.124361 -0.234643
-0.050202001 0.124434 -0.23462901
-0.050198998 0.124513 -0.23463701
-0.050195999 0.124589 -0.234643
-0.050193001 0.124662 -0.23463701
-0.050190002 0.124738 -0.234634
-0.050188001 0.124812 -0.234626
-0.050184999 0.124888 -0.234612
-0.050182998 0.124961 -0.23459999
-0.050179999 0.125037 -0.23459201
-0.050177999 0.125111 -0.234587
-0.050175 0.125185 -0.234577
-0.050173 0.12526099 -0.23457099
-0.050170001 0.125337 -0.234567
-0.050167002 0.125412 -0.23456299
-0.050163999 0.125486 -0.23456
-0.050161 0.125562 -0.23456401
-0.050158001 0.12563799 -0.23457
-0.050154999 0.125715 -0.23457401
-0.050152 0.125793 -0.234578
-0.050149001 0.125866 -0.23457401
-0.050145 0.125945 -0.23458301
-0.050142001 0.126021 -0.234593
-0.050138999 0.12609699 -0.234595
-0.050136 0.126173 -0.234597
-0.050133001 0.126249 -0.234597
-0.050129998 0.126323 -0.234585
-0.050128002 0.126396 -0.234576
-0.050124999 0.126472 -0.23457401
-0.050122 0.12654801 -0.234568
-0.05012 0.12662201 -0.234558
-0.050117001 0.1267 -0.23456401
-0.050113998 0.12677599 -0.234569
-0.050112002 0.12684999 -0.234551
-0.050110001 0.12692299 -0.234529
-0.050106999 0.12699699 -0.23451699
-0.050105002 0.12706999 -0.234503
-0.050103001 0.12714399 -0.23449001
-0.050099999 0.12722 -0.234486
-0.050097 0.127296 -0.234484
-0.050094999 0.12737 -0.234474
-0.050092001 0.127446 -0.234476
-0.050088 0.127524 -0.234483
-0.050085001 0.127598 -0.234483
-0.050083 0.127673 -0.234477
-0.050080001 0.127749 -0.23447099
-0.050076999 0.12782501 -0.234469
-0.050074 0.12789901 -0.234468
-0.050071001 0.127975 -0.234468
-0.050067998 0.128051 -0.234468
-0.050066002 0.128125 -0.234458
-0.050064001 0.12819999 -0.23444
-0.050062001 0.128272 -0.234421
-0.050058998 0.12834799 -0.234419
-0.050055999 0.128426 -0.234429
-0.050053 0.128502 -0.234431
-0.050050002 0.128576 -0.234419
-0.050048999 0.128649 -0.234396
-0.050046999 0.128721 -0.234372
-0.050044999 0.128794 -0.234356
-0.050042 0.128868 -0.23434199
-0.050039999 0.128941 -0.23432501
-0.050039001 0.129015 -0.234301
-0.050037 0.129086 -0.234281
-0.050035 0.12916 -0.234267
-0.050032001 0.129236 -0.234266
-0.050028998 0.12931199 -0.234264
-0.050026 0.12938599 -0.234254
-0.050023999 0.12946101 -0.234246
-0.050021 0.129535 -0.23424
-0.050019 0.129611 -0.23423401
-0.050016001 0.129687 -0.234227
-0.050012998 0.129761 -0.234221
-0.050011002 0.12983499 -0.23421299
-0.050007999 0.12991001 -0.234209
-0.050005 0.129986 -0.234201
-0.050003 0.13006 -0.23418801
-0.050000999 0.130134 -0.23418
-0.049998 0.13021 -0.23417801
-0.049995001 0.130283 -0.234166
-0.049993001 0.130357 -0.23414899
-0.049991 0.130431 -0.234137
-0.049989 0.130504 -0.23412301
-0.049986001 0.13057999 -0.234115
-0.049984001 0.13065401 -0.23410501
-0.049982 0.13072699 -0.234092
-0.04998 0.13080101 -0.234072
-0.049977999 0.130872 -0.23405001
-0.049975999 0.130946 -0.234033
-0.049973998 0.13101999 -0.234015
-0.049972001 0.131093 -0.234001
-0.049968999 0.13116699 -0.233989
-0.049966998 0.13124099 -0.233977
-0.049965002 0.13131399 -0.23397
-0.049961999 0.13139001 -0.23396
-0.049959999 0.131464 -0.23395
-0.049956001 0.131542 -0.23395599
-0.049952999 0.13161799 -0.233962
-0.04995 0.13169201 -0.233961
-0.049947001 0.13177 -0.233961
-0.049943998 0.131846 -0.23396701
-0.049941 0.13192201 -0.233973
-0.049938001 0.131998 -0.233973
-0.049934998 0.132074 -0.233971
-0.049931999 0.13214999 -0.233968
-0.049929 0.13222399 -0.233968
-0.049926002 0.132302 -0.23397
-0.049922999 0.132376 -0.233968
-0.049920999 0.132452 -0.23395801
-0.049918 0.13252801 -0.23396
-0.049913999 0.132604 -0.233963
-0.049911998 0.132677 -0.233945
-0.049910001 0.13274901 -0.233927
-0.049908001 0.132825 -0.23391899
-0.049904998 0.132898 -0.233916
-0.049903002 0.132974 -0.233908
-0.049899999 0.133048 -0.23389199
-0.049897999 0.133122 -0.233888
-0.049894001 0.1332 -0.23390201
-0.04989 0.133278 -0.233916
-0.049887002 0.133357 -0.23392899
-0.049883001 0.133435 -0.233941
-0.049879 0.133513 -0.23395699
-0.049876001 0.133589 -0.23396499
-0.049872998 0.13366701 -0.23396499
-0.049869001 0.133743 -0.233971
-0.049865 0.13382401 -0.23399501
-0.049860999 0.133904 -0.23402099
-0.049857002 0.133981 -0.234035
-0.049853999 0.134059 -0.234043
-0.049849998 0.134137 -0.234064
-0.049844999 0.13421801 -0.234088
-0.049841002 0.134298 -0.234116
-0.049837001 0.134379 -0.234136
-0.049833 0.13445701 -0.234144
-0.049830001 0.134533 -0.234156
-0.049826 0.13461401 -0.23417801
-0.049821001 0.134694 -0.2342
-0.049817 0.134772 -0.23422199
-0.049812999 0.13485301 -0.234244
-0.049809001 0.13493299 -0.234264
-0.049803998 0.13501599 -0.234304
-0.049798999 0.13509899 -0.23434199
-0.049794 0.13518199 -0.234384
-0.049787 0.135269 -0.234448
-0.049782 0.135352 -0.234492
-0.049775999 0.135437 -0.23454
-0.050691999 0.096506 -0.23696101
-0.050694 0.096591003 -0.236849
-0.050694 0.096672997 -0.23676699
-0.050694998 0.096754998 -0.236679
-0.050696999 0.096839003 -0.236577
-0.050698001 0.096920997 -0.236495
-0.050698001 0.097002 -0.23642901
-0.050696999 0.09708 -0.23637401
-0.050696 0.097159997 -0.236334
-0.050694998 0.097237997 -0.23628201
-0.050694998 0.097318999 -0.236228
-0.050694 0.097397998 -0.236182
-0.050693002 0.097476996 -0.23614401
-0.050691001 0.097553998 -0.23610801
-0.050689999 0.097631998 -0.23607901
-0.050687999 0.097710997 -0.23604301
-0.050686002 0.097787999 -0.236021
-0.050685 0.097865 -0.23598699
-0.050682999 0.097944997 -0.23595101
-0.050680999 0.098020002 -0.235935
-0.050678998 0.098098002 -0.235919
-0.050677001 0.098173 -0.235902
-0.050675001 0.098251 -0.23588
-0.050673001 0.098328002 -0.235852
-0.050671 0.098406002 -0.23582999
-0.050669 0.098480999 -0.23582201
-0.050666001 0.098559 -0.235808
-0.050664 0.098637 -0.235783
-0.050662 0.098711997 -0.23576701
-0.050661001 0.098788999 -0.23573101
-0.050659999 0.098867998 -0.235687
-0.050657999 0.098945998 -0.235671
-0.050655 0.099022001 -0.23565701
-0.050652999 0.099099003 -0.235642
-0.050650999 0.099174999 -0.235618
-0.050648998 0.099252 -0.235594
-0.050647002 0.099327996 -0.23558199
-0.050645001 0.099404998 -0.23556601
-0.050641999 0.099481001 -0.23555
-0.050639998 0.099556997 -0.235539
-0.050636999 0.099633001 -0.235535
-0.050634999 0.099707998 -0.23552699
-0.050632 0.099784002 -0.235525
-0.050629001 0.099859998 -0.235523
-0.050625999 0.099936001 -0.23552001
-0.050623 0.100012 -0.23551799
-0.050620001 0.100088 -0.235512
-0.050618 0.100164 -0.23550799
-0.050615001 0.100239 -0.235496
-0.050613001 0.100315 -0.23548
-0.050609998 0.100391 -0.23548301
-0.050606001 0.100465 -0.235497
-0.050602999 0.100542 -0.235507
-0.050599001 0.100614 -0.23552699
-0.050595999 0.10069 -0.23553699
-0.050593 0.100766 -0.235526
-0.050590999 0.100841 -0.235506
-0.050590001 0.100919 -0.235478
-0.050588001 0.100996 -0.23545399
-0.050585002 0.10107 -0.235456
-0.050581999 0.101146 -0.235456
-0.050579999 0.101224 -0.235433
-0.050577998 0.101299 -0.23541901
-0.050574001 0.101375 -0.235421
-0.050570998 0.101449 -0.23542701
-0.050567999 0.101525 -0.235425
-0.050565999 0.101601 -0.23542
-0.050563 0.101677 -0.235412
-0.050560001 0.101753 -0.235414
-0.050556999 0.101827 -0.235424
-0.050553001 0.101903 -0.23543
-0.050549999 0.101977 -0.23543601
-0.050547 0.102053 -0.235439
-0.050545 0.102129 -0.235425
-0.050542999 0.102204 -0.23540699
-0.05054 0.102282 -0.235397
-0.050538 0.102356 -0.23538899
-0.050535001 0.102432 -0.235384
-0.050531 0.102508 -0.23539799
-0.050526999 0.102583 -0.23542
-0.050524 0.102657 -0.235438
-0.050519999 0.102731 -0.23545
-0.050515998 0.102807 -0.235462
-0.050512999 0.102881 -0.235467
-0.050510999 0.102957 -0.23545501
-0.050508998 0.103033 -0.235441
-0.050505999 0.103109 -0.235429
-0.050503999 0.103184 -0.235423
-0.050501 0.10326 -0.23542599
-0.050496999 0.103334 -0.23543
-0.050494999 0.10341 -0.23542599
-0.050492 0.103486 -0.23542599
-0.050487999 0.103562 -0.235434
-0.050485 0.103637 -0.235438
-0.050482001 0.103713 -0.235443
-0.050478999 0.103787 -0.23544499
-0.050476 0.103863 -0.235447
-0.050473001 0.103939 -0.235447
-0.050469998 0.104015 -0.235447
-0.050466999 0.104089 -0.23546
-0.050462998 0.104163 -0.235476
-0.05046 0.104239 -0.23548201
-0.050457001 0.104315 -0.23547199
-0.050455 0.10439 -0.23544601
-0.050453 0.104466 -0.23543601
-0.050448999 0.104541 -0.235459
-0.050443999 0.104615 -0.235493
-0.050441001 0.104691 -0.23549899
-0.050439 0.104767 -0.235485
-0.050436001 0.104843 -0.235477
-0.050432999 0.104919 -0.235478
-0.05043 0.104993 -0.235478
-0.050427999 0.105069 -0.23547
-0.050425999 0.105144 -0.23545
-0.050423998 0.105221 -0.23542599
-0.050422002 0.105297 -0.23541
-0.050418999 0.105371 -0.235411
-0.050416 0.105447 -0.235413
-0.050413001 0.105523 -0.235413
-0.050409 0.105597 -0.235421
-0.050404999 0.105674 -0.235439
-0.050402001 0.105748 -0.23544601
-0.0504 0.105823 -0.23543601
-0.050397001 0.105899 -0.235438
-0.050393 0.105974 -0.235452
-0.050390001 0.10605 -0.23546401
-0.050386999 0.106124 -0.235456
-0.050384998 0.106201 -0.23543499
-0.050383002 0.106277 -0.23541901
-0.050381001 0.10635 -0.235403
-0.050377999 0.106426 -0.23539899
-0.050375 0.106502 -0.23540699
-0.05037 0.106577 -0.235434
-0.050367001 0.106653 -0.23545
-0.050363999 0.106727 -0.235442
-0.050361998 0.106803 -0.235434
-0.050358001 0.106879 -0.235438
-0.050356001 0.106955 -0.23543499
-0.050353002 0.107029 -0.235425
-0.050351001 0.107104 -0.235413
-0.050347999 0.10718 -0.23540901
-0.050345 0.107256 -0.235405
-0.050342999 0.107332 -0.235387
-0.050340999 0.107407 -0.235366
-0.050338998 0.107483 -0.23535401
-0.050336 0.107559 -0.235348
-0.050333001 0.107633 -0.23535199
-0.050330002 0.107709 -0.23536
-0.050326999 0.107783 -0.23536301
-0.050322998 0.107859 -0.235367
-0.050319999 0.107935 -0.23537099
-0.050317999 0.108009 -0.235367
-0.050315 0.108085 -0.235357
-0.050312001 0.108161 -0.235364
-0.050308999 0.108235 -0.23537
-0.050306 0.108311 -0.235358
-0.050303999 0.108386 -0.235348
-0.050301 0.108462 -0.23535199
-0.050297 0.108536 -0.235358
-0.050294001 0.108613 -0.235367
-0.050291002 0.108689 -0.235369
-0.050287999 0.108762 -0.235367
-0.050285 0.108839 -0.235375
-0.050282001 0.108915 -0.235377
-0.050280001 0.108988 -0.23536199
-0.050278001 0.109063 -0.235328
-0.050276998 0.109138 -0.235284
-0.050276 0.109214 -0.235256
-0.050273001 0.10929 -0.235254
-0.050269 0.109364 -0.235277
-0.050264999 0.10944 -0.235291
-0.050262999 0.109516 -0.23527899
-0.05026 0.109592 -0.235275
-0.050255999 0.109666 -0.235295
-0.050253 0.109743 -0.235305
-0.050250001 0.109818 -0.235296
-0.050248001 0.109892 -0.23528799
-0.050244998 0.109968 -0.235292
-0.050241001 0.110043 -0.23530801
-0.050237998 0.110119 -0.23531599
-0.050235 0.110195 -0.235311
-0.050230999 0.110269 -0.23532701
-0.050228 0.110345 -0.235341
-0.050225999 0.11042 -0.235301
-0.050225001 0.110495 -0.235267
-0.050221998 0.11057 -0.235274
-0.050218999 0.110646 -0.235282
-0.050216001 0.110721 -0.235268
-0.050214 0.110795 -0.235256
-0.050212 0.110871 -0.23524401
-0.050209999 0.110946 -0.23522501
-0.050207 0.111022 -0.235211
-0.050205 0.111096 -0.23520499
-0.050200999 0.111172 -0.235209
-0.050198998 0.111248 -0.235203
-0.050195999 0.111321 -0.235191
-0.050193999 0.111397 -0.23518801
-0.050191 0.111473 -0.23518801
-0.050188001 0.111547 -0.23519
-0.050184 0.111623 -0.2352
-0.050179999 0.1117 -0.23522
-0.050177 0.111774 -0.235229
-0.050174002 0.11185 -0.235227
-0.050170999 0.111926 -0.235223
-0.050168999 0.111999 -0.23520701
-0.050167002 0.112075 -0.23518901
-0.050163999 0.112151 -0.235199
-0.050159998 0.112227 -0.23521399
-0.050156999 0.112301 -0.235208
-0.050154999 0.112377 -0.23519801
-0.050151002 0.112453 -0.235208
-0.050147001 0.112528 -0.23523
-0.050144002 0.112604 -0.23523299
-0.050142001 0.112679 -0.23521701
-0.050140001 0.112753 -0.235193
-0.050138999 0.112828 -0.235153
-0.050138 0.112901 -0.235119
-0.050136 0.112977 -0.235108
-0.050131999 0.113053 -0.23512401
-0.050128002 0.113127 -0.23514199
-0.050124999 0.113203 -0.235146
-0.050122 0.113279 -0.235144
-0.050119001 0.113355 -0.235147
-0.050115999 0.113429 -0.235145
-0.050113 0.113505 -0.235147
-0.050110001 0.113581 -0.235155
-0.050106999 0.113656 -0.235157
-0.050104 0.113731 -0.235149
-0.050101999 0.113807 -0.23514
-0.050099 0.113881 -0.23514
-0.050096001 0.113957 -0.23514199
-0.050092999 0.114033 -0.235146
-0.05009 0.114109 -0.235144
-0.050085999 0.114183 -0.235157
-0.050082002 0.11426 -0.235175
-0.050078999 0.114336 -0.235173
-0.050078001 0.114409 -0.235153
-0.050074 0.114485 -0.235155
-0.050071001 0.114561 -0.235165
-0.050067998 0.114637 -0.235162
-0.050066002 0.114711 -0.235146
-0.050064001 0.114786 -0.235118
-0.050062999 0.114859 -0.23508801
-0.050060999 0.114933 -0.23506901
-0.050058 0.115009 -0.235065
-0.050055001 0.115085 -0.235073
-0.050051998 0.115161 -0.235067
-0.050050002 0.115234 -0.23505101
-0.050046999 0.11531 -0.235048
-0.050044 0.115387 -0.235064
-0.050039999 0.115463 -0.23507001
-0.050037 0.115537 -0.235072
-0.050034001 0.115613 -0.23507801
-0.050030999 0.115689 -0.235076
-0.050028 0.115763 -0.235073
-0.050026 0.115838 -0.23506901
-0.050023001 0.115914 -0.235063
-0.050021 0.115988 -0.23505101
-0.050018001 0.116064 -0.235039
-0.050014999 0.11614 -0.235052
-0.050011002 0.116216 -0.235066
-0.050009999 0.116289 -0.23503201
-0.050007999 0.116363 -0.235002
-0.050005 0.116439 -0.23501
-0.050000999 0.116516 -0.23503999
-0.049996998 0.116592 -0.235053
-0.049995001 0.116665 -0.23503099
-0.049993001 0.116741 -0.235015
-0.049989998 0.116815 -0.23500501
-0.049988002 0.11689 -0.234989
-0.049986001 0.116964 -0.234982
-0.049982 0.11704 -0.23499
-0.04998 0.117116 -0.234984
-0.049977999 0.117189 -0.23495799
-0.049975999 0.117263 -0.234945
-0.049973 0.117339 -0.234945
-0.049970001 0.117415 -0.234943
-0.049966998 0.117491 -0.23494101
-0.049964 0.117565 -0.234945
-0.049959999 0.117641 -0.234965
-0.049956001 0.11772 -0.234982
-0.049954001 0.117793 -0.234972
-0.049950998 0.117869 -0.234962
-0.049949002 0.117943 -0.234954
-0.049945999 0.118019 -0.234944
-0.049943 0.118095 -0.234953
-0.049938999 0.118171 -0.234963
-0.049936999 0.118245 -0.234945
-0.049934998 0.11832 -0.23493101
-0.049931999 0.118394 -0.234933
-0.049929 0.11847 -0.234935
-0.049926002 0.118546 -0.234936
-0.049922999 0.118622 -0.234928
-0.049920999 0.118696 -0.23491199
-0.049919002 0.118769 -0.23490401
-0.049915999 0.118845 -0.234898
-0.049913999 0.118919 -0.23488501
-0.049911998 0.118995 -0.234871
-0.049908999 0.11907 -0.23486499
-0.049906 0.119144 -0.234859
-0.049904 0.11922 -0.234853
-0.049901001 0.119294 -0.23485801
-0.049897 0.119372 -0.234868
-0.049894001 0.119446 -0.23486599
-0.049892001 0.119522 -0.23485599
-0.049888998 0.119598 -0.234854
-0.049885999 0.119672 -0.234863
-0.049881998 0.11975 -0.234871
-0.049880002 0.119824 -0.234863
-0.049876999 0.119898 -0.234859
-0.049874 0.119974 -0.234855
-0.049871001 0.12005 -0.23484901
-0.049867999 0.120126 -0.23485599
-0.049865 0.120202 -0.23486
-0.049862001 0.120276 -0.23486
-0.049858999 0.120352 -0.234864
-0.049856 0.120428 -0.23486
-0.049853999 0.120501 -0.234835
-0.049851999 0.120575 -0.23481899
-0.049849 0.120651 -0.23481899
-0.049846999 0.120726 -0.234809
-0.049844999 0.1208 -0.234797
-0.049842 0.120876 -0.234786
-0.04984 0.120949 -0.23476601
-0.049837999 0.121023 -0.23475599
-0.049835 0.121099 -0.23476
-0.049830999 0.121175 -0.23476601
-0.049828 0.121251 -0.234769
-0.049825002 0.121327 -0.23476499
-0.049823001 0.121401 -0.234753
-0.049819998 0.121477 -0.234753
-0.049817 0.121553 -0.234759
-0.049814001 0.121629 -0.23476
-0.049810998 0.121703 -0.234754
-0.049807999 0.121779 -0.234752
-0.049805999 0.121855 -0.23475
-0.049802002 0.121931 -0.23475599
-0.049798999 0.122007 -0.23477
-0.049795002 0.122083 -0.234777
-0.049793001 0.122157 -0.234769
-0.049791001 0.122232 -0.234753
-0.049787998 0.122306 -0.234741
-0.049786001 0.122382 -0.234735
-0.049782999 0.122456 -0.234732
-0.04978 0.122532 -0.234726
-0.049778 0.122605 -0.234714
-0.049775001 0.122681 -0.234704
-0.049772002 0.122757 -0.234712
-0.049768999 0.122833 -0.234715
-0.049766 0.122907 -0.234707
-0.049764 0.122983 -0.23469099
-0.049763002 0.123054 -0.234667
-0.049759999 0.12313 -0.234649
-0.049757998 0.123203 -0.23464
-0.049755 0.123277 -0.234634
-0.049752001 0.123356 -0.234648
-0.049748 0.123432 -0.234658
-0.049745999 0.123508 -0.234652
-0.049743 0.123582 -0.234651
-0.049740002 0.123657 -0.234651
-0.049736999 0.123733 -0.23464701
-0.049734 0.123809 -0.234653
-0.049729999 0.123888 -0.234671
-0.049725998 0.123964 -0.234681
-0.049724001 0.12404 -0.234677
-0.049720999 0.124116 -0.23467401
-0.049717002 0.124192 -0.23468199
-0.049713999 0.124268 -0.234688
-0.049711 0.124344 -0.234696
-0.049709 0.124418 -0.23468
-0.049706999 0.124491 -0.23464701
-0.049704999 0.124565 -0.234639
-0.049701001 0.124643 -0.23464701
-0.049697999 0.124717 -0.234649
-0.049695998 0.124793 -0.23464499
-0.049694002 0.124866 -0.234622
-0.049692001 0.12494 -0.234598
-0.049690001 0.12501299 -0.234586
-0.049687002 0.125089 -0.234576
-0.049685001 0.125163 -0.23457301
-0.049681999 0.125239 -0.23457301
-0.049678002 0.125315 -0.234577
-0.049674999 0.12539101 -0.23458099
-0.049672 0.125467 -0.234579
-0.04967 0.125543 -0.234577
-0.049665999 0.12561899 -0.234584
-0.049663 0.12569501 -0.234594
-0.049658999 0.125773 -0.23459999
-0.049656 0.12584899 -0.234604
-0.049653001 0.125925 -0.23460799
-0.049649999 0.126001 -0.23460799
-0.049647 0.126075 -0.234605
-0.049644999 0.126151 -0.23460101
-0.049642 0.12622701 -0.234595
-0.049639001 0.126303 -0.234593
-0.049635999 0.126377 -0.234595
-0.049633 0.126453 -0.23460101
-0.049630001 0.12652899 -0.234598
-0.049628001 0.12660199 -0.234578
-0.049626 0.12667599 -0.234558
-0.049624 0.126752 -0.23455
-0.049621001 0.126825 -0.23453601
-0.049619999 0.12689701 -0.23450699
-0.049617998 0.12696999 -0.234485
-0.049614999 0.127046 -0.234483
-0.049612001 0.127122 -0.234487
-0.049609002 0.127198 -0.234486
-0.049605999 0.12727401 -0.23448201
-0.049603 0.12735 -0.234486
-0.049600001 0.127426 -0.23449001
-0.049596999 0.12750199 -0.234486
-0.049594 0.12757801 -0.23449001
-0.049591001 0.127654 -0.234495
-0.049587999 0.12773 -0.234493
-0.049585 0.12780599 -0.23449101
-0.049582001 0.127882 -0.23449101
-0.04958 0.127956 -0.23448101
-0.049577001 0.128031 -0.23447099
-0.049575001 0.128105 -0.23446199
-0.049573001 0.128179 -0.23445
-0.049570002 0.128253 -0.234438
-0.049566999 0.128328 -0.23443399
-0.049564999 0.12840401 -0.234433
-0.049563002 0.12847801 -0.234411
-0.049561001 0.12855101 -0.23438901
-0.049559001 0.12862501 -0.234375
-0.049555998 0.12869699 -0.23436201
-0.049554002 0.12877201 -0.234346
-0.049552001 0.12884399 -0.234328
-0.049550999 0.12891699 -0.234302
-0.049548998 0.12899099 -0.234285
-0.049546 0.12906501 -0.234273
-0.049543999 0.12914 -0.234267
-0.049541 0.129214 -0.23426101
-0.049538001 0.12929 -0.23425101
-0.049536001 0.129364 -0.234244
-0.049532998 0.129438 -0.23424
-0.049529999 0.129513 -0.234236
-0.049527999 0.12958901 -0.23423
-0.049525 0.129665 -0.23422199
-0.049522001 0.129739 -0.23422299
-0.049518999 0.129815 -0.23422299
-0.049516998 0.12989099 -0.23421501
-0.049515001 0.12996399 -0.23419701
-0.049513001 0.13003799 -0.23417901
-0.049511001 0.13011 -0.234162
-0.049508002 0.13018499 -0.23415799
-0.049504999 0.130261 -0.234156
-0.049502999 0.130335 -0.234144
-0.0495 0.130411 -0.234138
-0.049497001 0.13048699 -0.234139
-0.049495 0.13056099 -0.23413099
-0.049493 0.13063399 -0.234107
-0.049490999 0.130703 -0.23407701
-0.049490001 0.130777 -0.23404799
-0.049488001 0.13084801 -0.234026
-0.049486 0.130922 -0.234016
-0.049484 0.130996 -0.234
-0.049481001 0.131069 -0.233987
-0.049479 0.131145 -0.233979
-0.049476001 0.131219 -0.23397499
-0.049472999 0.131295 -0.23397499
-0.04947 0.13137101 -0.233971
-0.049467001 0.131447 -0.233972
-0.049463999 0.13152499 -0.23398
-0.049461 0.13159899 -0.233978
-0.049458999 0.13167199 -0.23396599
-0.049456 0.13174801 -0.23395801
-0.049454 0.131822 -0.233955
-0.049451001 0.131898 -0.233953
-0.049447 0.13197599 -0.233959
-0.049444001 0.13204999 -0.233959
-0.049442001 0.132126 -0.233953
-0.049439002 0.132202 -0.23395699
-0.049435001 0.13228001 -0.233964
-0.049433 0.13235401 -0.233954
-0.049431 0.13242701 -0.23393799
-0.049428001 0.13250101 -0.233934
-0.049424998 0.132577 -0.233934
-0.049422 0.13265499 -0.233943
-0.049419001 0.13273101 -0.233941
-0.049417 0.13280299 -0.233925
-0.049415 0.13287599 -0.23390301
-0.049412001 0.13294999 -0.233895
-0.049408998 0.133028 -0.233898
-0.049405999 0.133104 -0.2339
-0.049403001 0.13318001 -0.233908
-0.049399 0.133259 -0.233924
-0.049394999 0.13333701 -0.233944
-0.049391001 0.13341799 -0.23396
-0.049387001 0.133494 -0.23397
-0.049384002 0.133572 -0.233978
-0.049380001 0.13365 -0.233991
-0.049377002 0.133728 -0.234005
-0.049373001 0.133807 -0.234015
-0.049369 0.133885 -0.234033
-0.049364999 0.133965 -0.23405901
-0.049361002 0.13404401 -0.234079
-0.049357001 0.134124 -0.234099
-0.049353 0.134203 -0.234119
-0.049350001 0.134279 -0.23412301
-0.049346 0.13435701 -0.23413301
-0.049341001 0.13444 -0.23416901
-0.049336001 0.13451999 -0.234199
-0.049332999 0.134599 -0.23421299
-0.049329001 0.13467699 -0.23422401
-0.049325 0.134755 -0.234246
-0.049321 0.134836 -0.234264
-0.049316999 0.13491599 -0.23429
-0.049311001 0.13499901 -0.234332
-0.049306002 0.13508201 -0.234372
-0.049300998 0.13516501 -0.23441
-0.049295001 0.135252 -0.234474
-0.049288001 0.13533901 -0.23453499
-0.049283002 0.13542201 -0.234575
-0.050244 0.096715003 -0.236903
-0.050246 0.096799001 -0.236793
-0.050248001 0.096882001 -0.236697
-0.050248001 0.096963003 -0.23663101
-0.050246999 0.097042002 -0.236578
-0.050246 0.097122997 -0.23652799
-0.050244998 0.097200997 -0.236478
-0.050244998 0.097280003 -0.23643
-0.050244 0.097359002 -0.23638199
-0.050243001 0.097438 -0.23633599
-0.050241999 0.097516999 -0.236296
-0.050239999 0.097594 -0.23626199
-0.050239 0.097673997 -0.236229
-0.050237 0.097750999 -0.23619901
-0.050236002 0.097829998 -0.236165
-0.050234001 0.097907998 -0.236141
-0.050232001 0.097983003 -0.236119
-0.05023 0.098061003 -0.236099
-0.050228 0.098137997 -0.236076
-0.050225999 0.098214999 -0.23605201
-0.050223999 0.098292999 -0.23603
-0.050221998 0.098370001 -0.236008
-0.050220001 0.098448001 -0.23599599
-0.050216999 0.098522 -0.23599
-0.050214998 0.098599002 -0.23597001
-0.050213002 0.098677002 -0.23594099
-0.050212 0.098754004 -0.23591299
-0.050209999 0.098833002 -0.23588701
-0.050207999 0.098911002 -0.235851
-0.050207 0.098987997 -0.235817
-0.050205 0.099064998 -0.235789
-0.050202999 0.099142998 -0.235772
-0.050200999 0.099218003 -0.23575801
-0.050198 0.099293999 -0.235746
-0.050195999 0.099372 -0.23573001
-0.050193999 0.099446997 -0.23571999
-0.050191 0.099523 -0.235718
-0.050188001 0.099598996 -0.23571301
-0.050186001 0.099675 -0.23570301
-0.050182998 0.099753 -0.235687
-0.050181001 0.099827997 -0.235671
-0.050177999 0.099904001 -0.23566701
-0.050175 0.099978 -0.23567399
-0.050172001 0.100054 -0.23568
-0.050168999 0.10013 -0.23568
-0.050166 0.100206 -0.235678
-0.050163999 0.100282 -0.23566601
-0.050161 0.100358 -0.235654
-0.050159 0.100433 -0.23564699
-0.050154999 0.100509 -0.235651
-0.050152 0.100584 -0.23566499
-0.050147999 0.100658 -0.235687
-0.050145 0.100734 -0.235689
-0.050143 0.10081 -0.23567
-0.050140999 0.100887 -0.235642
-0.050138999 0.100965 -0.23562001
-0.050136998 0.10104 -0.235606
-0.050133999 0.101116 -0.235598
-0.050131999 0.101192 -0.23559
-0.050129 0.101268 -0.23558301
-0.050126001 0.101343 -0.235579
-0.050124001 0.101419 -0.235571
-0.050120998 0.101495 -0.235559
-0.050117999 0.101571 -0.235559
-0.050115 0.101647 -0.235569
-0.050110999 0.101721 -0.235578
-0.050108001 0.101797 -0.23558
-0.050106 0.101873 -0.235576
-0.050103001 0.101949 -0.235572
-0.050099999 0.102025 -0.23556601
-0.050097 0.102101 -0.235561
-0.050094001 0.102175 -0.235563
-0.050090998 0.102251 -0.23557299
-0.050087001 0.102325 -0.235589
-0.050083999 0.102401 -0.23560099
-0.050080001 0.102476 -0.23562101
-0.050076 0.10255 -0.235644
-0.050071999 0.102625 -0.23566601
-0.050069001 0.102699 -0.23567399
-0.050066002 0.102776 -0.23565599
-0.050065 0.102852 -0.235632
-0.050062999 0.102927 -0.235613
-0.050060999 0.103005 -0.23559301
-0.050058 0.103081 -0.235577
-0.050055999 0.103156 -0.235567
-0.050053 0.103232 -0.235567
-0.050048999 0.103306 -0.235577
-0.050046999 0.103382 -0.235572
-0.050044 0.103458 -0.235562
-0.050041001 0.103534 -0.23556601
-0.050037999 0.103608 -0.235578
-0.050034001 0.103684 -0.23558401
-0.050030999 0.103758 -0.235589
-0.050028 0.103835 -0.235595
-0.050025001 0.103911 -0.23560099
-0.050021999 0.103985 -0.235607
-0.050018001 0.104061 -0.235617
-0.050014999 0.104137 -0.23561101
-0.050012998 0.104213 -0.235604
-0.050009001 0.104287 -0.235618
-0.050005 0.104361 -0.235636
-0.050002001 0.104437 -0.23564801
-0.049998999 0.104514 -0.23565599
-0.049996 0.104588 -0.23565701
-0.049993001 0.104664 -0.23565499
-0.049989998 0.104739 -0.235649
-0.049988002 0.104815 -0.235625
-0.049986001 0.104892 -0.23561101
-0.049982999 0.104966 -0.235613
-0.04998 0.105042 -0.23560999
-0.049977999 0.105118 -0.235596
-0.049975 0.105194 -0.235588
-0.049973 0.10527 -0.23558199
-0.049970001 0.105346 -0.235578
-0.049966998 0.105421 -0.235568
-0.049965002 0.105497 -0.235559
-0.049961001 0.105571 -0.235567
-0.049958002 0.105647 -0.235579
-0.049954999 0.105721 -0.235585
-0.049950998 0.105798 -0.235597
-0.049947999 0.105872 -0.235606
-0.049945001 0.105948 -0.235608
-0.049941 0.106024 -0.235616
-0.049938001 0.106098 -0.235622
-0.049936 0.106174 -0.235616
-0.049933001 0.10625 -0.23560099
-0.049931001 0.106325 -0.235585
-0.049927998 0.106401 -0.235589
-0.049924999 0.106477 -0.235589
-0.049922001 0.106553 -0.23559099
-0.049918 0.106628 -0.23561101
-0.049913999 0.106702 -0.23563001
-0.049911998 0.106778 -0.235614
-0.049911 0.106853 -0.23558401
-0.049908999 0.10693 -0.23555
-0.049906999 0.107006 -0.23552801
-0.049904 0.10708 -0.23552901
-0.049901001 0.107156 -0.23552699
-0.049899001 0.107231 -0.235517
-0.049896002 0.107307 -0.23550899
-0.049892999 0.107383 -0.23550899
-0.04989 0.107457 -0.235514
-0.049887002 0.107533 -0.235526
-0.049883999 0.107609 -0.23553
-0.049881 0.107685 -0.23551799
-0.049878001 0.107759 -0.235514
-0.049874999 0.107835 -0.23553
-0.049871001 0.107912 -0.235549
-0.049867999 0.107986 -0.235557
-0.049865 0.108062 -0.235557
-0.049862001 0.108137 -0.235541
-0.049858999 0.108211 -0.235543
-0.049856 0.108288 -0.235557
-0.049853001 0.108364 -0.23555601
-0.049851 0.108439 -0.23554
-0.049848001 0.108515 -0.23554
-0.049844 0.108589 -0.235552
-0.049841002 0.108665 -0.235548
-0.049839001 0.108741 -0.235531
-0.049837001 0.108816 -0.235517
-0.049834002 0.10889 -0.235513
-0.049832001 0.108966 -0.235505
-0.049828999 0.109042 -0.235493
-0.049826998 0.109118 -0.235484
-0.049823999 0.109193 -0.23547199
-0.049821999 0.109267 -0.23546
-0.049819 0.109343 -0.23545399
-0.049817 0.109419 -0.235448
-0.049814001 0.109494 -0.235434
-0.049812 0.10957 -0.235431
-0.049809001 0.109644 -0.23542701
-0.049805999 0.10972 -0.23541699
-0.049803 0.109796 -0.235421
-0.049800001 0.10987 -0.235433
-0.049796999 0.109946 -0.23543601
-0.049794 0.110022 -0.235438
-0.049791001 0.110096 -0.235438
-0.049787998 0.110172 -0.235432
-0.049784999 0.110248 -0.23542801
-0.049782 0.110324 -0.235425
-0.049779002 0.110398 -0.235429
-0.049775999 0.110474 -0.235439
-0.049773 0.11055 -0.235431
-0.049771 0.110625 -0.235415
-0.049768999 0.110701 -0.235405
-0.049766 0.110775 -0.235396
-0.049764 0.110851 -0.235386
-0.049761001 0.110926 -0.23537201
-0.049759001 0.111 -0.235356
-0.049757 0.111076 -0.235348
-0.049754001 0.111151 -0.235339
-0.049750999 0.111225 -0.235333
-0.049748 0.111301 -0.235337
-0.049745999 0.111377 -0.235331
-0.049743 0.111453 -0.235319
-0.049740002 0.111527 -0.235328
-0.049736001 0.111603 -0.235348
-0.049733002 0.111679 -0.235348
-0.049731001 0.111755 -0.235332
-0.049727999 0.111829 -0.235322
-0.049725 0.111905 -0.235321
-0.049722001 0.111981 -0.235323
-0.049718998 0.112057 -0.235329
-0.049716 0.112131 -0.23532701
-0.049713999 0.112206 -0.23530699
-0.049711999 0.112282 -0.23529699
-0.049709 0.112356 -0.235294
-0.049706001 0.112432 -0.235302
-0.049702 0.112508 -0.235322
-0.049697999 0.112585 -0.235332
-0.049695998 0.112658 -0.235324
-0.049693 0.112734 -0.235319
-0.049690001 0.11281 -0.235313
-0.049688 0.112884 -0.23529699
-0.049687002 0.112959 -0.235267
-0.049685001 0.113033 -0.23525099
-0.049681999 0.113108 -0.23524199
-0.049679998 0.113184 -0.23523401
-0.049676999 0.113258 -0.23523
-0.049674001 0.113334 -0.235228
-0.049671002 0.11341 -0.235228
-0.049667999 0.113486 -0.235229
-0.049665 0.11356 -0.23523299
-0.049660999 0.113636 -0.23524299
-0.049658 0.113712 -0.23525301
-0.049655002 0.113788 -0.23525099
-0.049651999 0.113862 -0.235255
-0.049648002 0.113939 -0.235274
-0.049644999 0.114015 -0.235284
-0.049642 0.114091 -0.235274
-0.04964 0.114164 -0.235266
-0.049637001 0.11424 -0.235264
-0.049633998 0.114316 -0.235268
-0.049630001 0.114393 -0.23528101
-0.049626 0.114469 -0.235295
-0.049623001 0.114545 -0.235303
-0.049621001 0.114619 -0.235291
-0.049619 0.114694 -0.235273
-0.049616002 0.114768 -0.235264
-0.049614001 0.114844 -0.23524401
-0.049612999 0.114917 -0.23521399
-0.049610998 0.114992 -0.23519599
-0.049608 0.115068 -0.23519599
-0.049605001 0.115142 -0.23519699
-0.049601998 0.115218 -0.23518699
-0.049600001 0.115294 -0.235173
-0.049596999 0.115368 -0.235165
-0.049594 0.115444 -0.23516899
-0.049591001 0.11552 -0.23517799
-0.049587999 0.115596 -0.235186
-0.049584001 0.115672 -0.235192
-0.049580999 0.115746 -0.235194
-0.049578998 0.115822 -0.23519
-0.049575999 0.115898 -0.23518801
-0.049573001 0.115974 -0.235183
-0.049571 0.116047 -0.23517101
-0.049568001 0.116121 -0.235155
-0.049566001 0.116197 -0.235137
-0.049564 0.116272 -0.23513301
-0.049559999 0.116349 -0.23514999
-0.049555998 0.116425 -0.235164
-0.049552999 0.116499 -0.235168
-0.049550001 0.116575 -0.235162
-0.049547002 0.116651 -0.235164
-0.049543999 0.116727 -0.235162
-0.049541999 0.116801 -0.235149
-0.049541 0.116874 -0.23512299
-0.049539 0.116949 -0.235101
-0.049536999 0.117023 -0.235085
-0.049534 0.117099 -0.235074
-0.049532 0.117172 -0.23505799
-0.049529999 0.117248 -0.23503999
-0.049527001 0.117322 -0.235034
-0.049524002 0.117398 -0.23503999
-0.049520001 0.117476 -0.235061
-0.049516998 0.11755 -0.235073
-0.049513001 0.117627 -0.23507901
-0.049509998 0.117703 -0.235089
-0.049507 0.117779 -0.235091
-0.049504001 0.117855 -0.23508701
-0.049501002 0.117931 -0.23508801
-0.049499001 0.118004 -0.235074
-0.049495999 0.11808 -0.235064
-0.049493 0.118156 -0.235072
-0.049488999 0.118232 -0.23508
-0.049486998 0.118306 -0.235073
-0.049484 0.118382 -0.235081
-0.049479 0.118461 -0.235103
-0.049477 0.118535 -0.235101
-0.049474999 0.11861 -0.235075
-0.049474001 0.118681 -0.23504101
-0.049472 0.118757 -0.23502
-0.049469002 0.118833 -0.23502
-0.049467001 0.118906 -0.235006
-0.049465001 0.11898 -0.23498601
-0.049462002 0.119056 -0.234979
-0.049458999 0.11913 -0.234975
-0.049456 0.119208 -0.234981
-0.049453001 0.119282 -0.234983
-0.049449999 0.119357 -0.23497701
-0.049447998 0.119431 -0.23496699
-0.049445 0.119507 -0.234962
-0.049442001 0.119583 -0.23496599
-0.049439002 0.119659 -0.234972
-0.049435999 0.119735 -0.23497801
-0.049431998 0.119811 -0.23498
-0.049430002 0.119885 -0.23497701
-0.049426999 0.119961 -0.234963
-0.049424998 0.120034 -0.234945
-0.049423002 0.12011 -0.234935
-0.049419999 0.120184 -0.234937
-0.049415998 0.120263 -0.234953
-0.049412999 0.120339 -0.23496599
-0.049408998 0.120415 -0.23497599
-0.049405999 0.120491 -0.234982
-0.049403999 0.120565 -0.23496801
-0.049401999 0.120638 -0.23494001
-0.049401 0.120711 -0.234907
-0.049398001 0.120787 -0.23489299
-0.049396001 0.120861 -0.234891
-0.049392998 0.120936 -0.23487499
-0.049392 0.12101 -0.23485599
-0.049389001 0.121086 -0.234854
-0.049385 0.121162 -0.23485801
-0.049383 0.121236 -0.23484799
-0.049380999 0.121311 -0.23483799
-0.049377002 0.121386 -0.234845
-0.049373999 0.121464 -0.234853
-0.049371 0.121538 -0.23484901
-0.049369 0.121613 -0.234835
-0.049366001 0.121687 -0.234827
-0.049362998 0.121765 -0.234841
-0.049359001 0.121842 -0.234862
-0.049355999 0.121918 -0.234864
-0.049353 0.121994 -0.23486
-0.049350999 0.122067 -0.234846
-0.049348 0.122143 -0.234842
-0.049345002 0.122219 -0.234846
-0.049341001 0.122295 -0.234853
-0.049338002 0.122372 -0.23486499
-0.049334999 0.122448 -0.234871
-0.049332999 0.122521 -0.234853
-0.04933 0.122597 -0.23484901
-0.049327001 0.122673 -0.234845
-0.049325 0.122747 -0.234832
-0.049323 0.12282 -0.234814
-0.049321 0.122894 -0.23479199
-0.049318999 0.122969 -0.23477601
-0.049316 0.123043 -0.234769
-0.049314 0.123119 -0.23475701
-0.049311001 0.123193 -0.234749
-0.049309 0.123266 -0.234743
-0.049306002 0.123342 -0.234745
-0.049302001 0.123421 -0.23475599
-0.049299002 0.123497 -0.23476
-0.049295999 0.123573 -0.234762
-0.049291998 0.123649 -0.23477601
-0.049288001 0.123727 -0.234788
-0.049286 0.123801 -0.234788
-0.049283002 0.123877 -0.234777
-0.049279999 0.123953 -0.234773
-0.049277999 0.124027 -0.234771
-0.049275 0.124103 -0.234767
-0.049272001 0.124179 -0.234767
-0.049268998 0.124255 -0.234767
-0.049265999 0.124331 -0.23477
-0.049261998 0.124407 -0.23478
-0.049259 0.124485 -0.234796
-0.049256001 0.124561 -0.23479401
-0.049254 0.124635 -0.23477601
-0.049252 0.124708 -0.234751
-0.049249999 0.124781 -0.23472901
-0.049247 0.124855 -0.234723
-0.049245 0.124931 -0.234721
-0.049242001 0.125007 -0.234707
-0.049240001 0.125081 -0.234696
-0.049237002 0.125154 -0.234694
-0.049233999 0.125232 -0.234696
-0.049231 0.125306 -0.234698
-0.049228001 0.12538201 -0.234694
-0.049226001 0.125458 -0.234687
-0.049222998 0.125534 -0.234689
-0.049219001 0.12560999 -0.234699
-0.049215999 0.125686 -0.234703
-0.049213 0.125762 -0.234705
-0.049210001 0.125838 -0.234699
-0.049208 0.125912 -0.234688
-0.049205001 0.12598801 -0.234688
-0.049201999 0.126064 -0.234686
-0.049199 0.12614 -0.23468199
-0.049197 0.126214 -0.23467401
-0.049192999 0.12629201 -0.234678
-0.04919 0.126368 -0.23469301
-0.049185999 0.126444 -0.234705
-0.049183 0.12651999 -0.23470099
-0.049180999 0.126596 -0.234685
-0.049178999 0.126669 -0.23466299
-0.049176998 0.12674101 -0.23464601
-0.049175002 0.12681399 -0.23462801
-0.049173001 0.12689 -0.23461001
-0.049171999 0.12696099 -0.234586
-0.049169999 0.12703501 -0.234569
-0.049167 0.127111 -0.234569
-0.049164001 0.127187 -0.23457099
-0.049160998 0.12726299 -0.234565
-0.049157999 0.12733901 -0.234565
-0.049155001 0.127415 -0.234567
-0.049152002 0.127491 -0.23457
-0.049148001 0.127569 -0.23458201
-0.049144998 0.127645 -0.23458999
-0.049141999 0.127719 -0.234578
-0.049139999 0.127794 -0.23456401
-0.049137998 0.127868 -0.234551
-0.049136002 0.127942 -0.234539
-0.049132999 0.12801699 -0.234531
-0.04913 0.128093 -0.234531
-0.049127001 0.128169 -0.234531
-0.049123999 0.128245 -0.23453
-0.049121 0.128319 -0.23452599
-0.049118999 0.12839501 -0.23451599
-0.049116999 0.128466 -0.234494
-0.049114998 0.12853999 -0.234474
-0.049113002 0.12861601 -0.234469
-0.049111001 0.12868699 -0.234449
-0.049109999 0.128758 -0.234411
-0.049107999 0.128832 -0.23439001
-0.049105 0.12890799 -0.234384
-0.049102999 0.12898099 -0.234368
-0.049100999 0.129053 -0.234346
-0.049098998 0.129126 -0.234328
-0.049097002 0.1292 -0.234317
-0.049093999 0.12927601 -0.234311
-0.049091 0.129352 -0.23431499
-0.049088001 0.129428 -0.234321
-0.049084999 0.129504 -0.234317
-0.049082 0.12958001 -0.23431601
-0.049079001 0.129656 -0.23431601
-0.049077 0.12973 -0.23430599
-0.049074002 0.129805 -0.23429599
-0.049072001 0.129879 -0.23427799
-0.049070001 0.129953 -0.234267
-0.049067002 0.13002899 -0.23426101
-0.049063999 0.130105 -0.234263
-0.049061 0.130178 -0.23425899
-0.049059 0.130254 -0.234245
-0.049056999 0.130326 -0.23423
-0.049054999 0.130401 -0.234218
-0.049052 0.130475 -0.234212
-0.04905 0.130549 -0.2342
-0.049047999 0.130622 -0.234183
-0.049045999 0.130696 -0.234163
-0.049044002 0.130767 -0.234137
-0.049042001 0.130841 -0.234111
-0.049040001 0.130914 -0.234098
-0.049038 0.130988 -0.234092
-0.049035002 0.131064 -0.234088
-0.049033001 0.131138 -0.23407599
-0.049029998 0.131212 -0.234062
-0.049028002 0.131285 -0.234051
-0.049024999 0.13136099 -0.234045
-0.049022999 0.13143501 -0.23403899
-0.04902 0.131513 -0.23404101
-0.049015999 0.131589 -0.234043
-0.049013998 0.13166299 -0.234038
-0.049011 0.13173901 -0.234034
-0.049008001 0.131815 -0.234038
-0.049005002 0.131891 -0.23404001
-0.049001001 0.131969 -0.23404799
-0.048999 0.132043 -0.234046
-0.048996001 0.132118 -0.234035
-0.048992999 0.132194 -0.234035
-0.04899 0.13227101 -0.234045
-0.048985999 0.132349 -0.234055
-0.048983 0.132425 -0.234053
-0.048981 0.132498 -0.234035
-0.048978999 0.132572 -0.23402999
-0.048976 0.13264801 -0.234028
-0.048973002 0.132724 -0.23402201
-0.048971001 0.132798 -0.23401199
-0.048967998 0.132871 -0.234001
-0.048965 0.132947 -0.234001
-0.048962001 0.13302299 -0.233999
-0.04896 0.13309699 -0.23399501
-0.048957001 0.133173 -0.23399501
-0.048953999 0.133251 -0.233999
-0.048951 0.133325 -0.23399401
-0.048948001 0.13340101 -0.23398399
-0.048944999 0.133477 -0.233992
-0.048939999 0.13356 -0.234034
-0.048935 0.13364001 -0.234062
-0.048932001 0.133719 -0.234074
-0.048928 0.133799 -0.23409399
-0.048923999 0.13387699 -0.23411199
-0.048920002 0.133954 -0.23412199
-0.048916001 0.13403399 -0.23414201
-0.048912 0.134115 -0.234172
-0.048907001 0.134195 -0.2342
-0.048903 0.134276 -0.234228
-0.048898999 0.13435601 -0.234249
-0.048895001 0.134434 -0.234255
-0.048891999 0.13451 -0.234257
-0.048888002 0.134589 -0.234273
-0.048884001 0.13466699 -0.234291
-0.04888 0.134748 -0.234317
-0.048875 0.13483 -0.23435301
-0.048870001 0.134913 -0.234391
-0.048864 0.13499799 -0.234437
-0.048859 0.13508099 -0.234483
-0.048854001 0.13516399 -0.234525
-0.049800001 0.097478002 -0.236573
-0.049798999 0.097557001 -0.23652899
-0.049798001 0.097635999 -0.236489
-0.049796 0.097713001 -0.23645499
-0.049795002 0.097790003 -0.23642799
-0.049793001 0.09787 -0.236394
-0.049791999 0.097947001 -0.23636401
-0.049789999 0.098024003 -0.23633599
-0.049787998 0.098102003 -0.23631801
-0.049786001 0.098178998 -0.23629799
-0.049784001 0.098256998 -0.236279
-0.049782 0.098332003 -0.236259
-0.04978 0.098412 -0.236231
-0.049778 0.098489001 -0.236203
-0.049775999 0.098567002 -0.236183
-0.049773999 0.098641999 -0.236165
-0.049772002 0.098719999 -0.236145
-0.049770001 0.098798998 -0.23610801
-0.049768999 0.098875999 -0.236072
-0.049766999 0.098953001 -0.236044
-0.049766 0.099031001 -0.23602
-0.049764 0.099108003 -0.23599599
-0.049761999 0.099186003 -0.235974
-0.049759001 0.099261001 -0.23595899
-0.049757 0.099339001 -0.235947
-0.049755 0.099414997 -0.235935
-0.049752001 0.099490002 -0.235925
-0.04975 0.099565998 -0.23591299
-0.049747001 0.099643998 -0.235897
-0.049745001 0.099719003 -0.235888
-0.049741998 0.099794999 -0.235882
-0.049738999 0.099871002 -0.235884
-0.049736001 0.099946998 -0.23588599
-0.049733002 0.100023 -0.23587801
-0.049731001 0.100099 -0.235874
-0.049727999 0.100175 -0.23587701
-0.049724001 0.100249 -0.235881
-0.049720999 0.100325 -0.23588499
-0.049718 0.100401 -0.235883
-0.049715001 0.100477 -0.23588499
-0.049711999 0.100551 -0.23589601
-0.049708001 0.100628 -0.235908
-0.049706001 0.100703 -0.2359
-0.049704 0.100781 -0.235872
-0.049702 0.100858 -0.235846
-0.049699999 0.100934 -0.235824
-0.049697999 0.101009 -0.235811
-0.049695998 0.101087 -0.235801
-0.049693 0.101163 -0.23578499
-0.049690999 0.101238 -0.23577701
-0.049688 0.101314 -0.235781
-0.049685001 0.10139 -0.23577701
-0.049681999 0.101466 -0.23576801
-0.049679 0.101542 -0.23577
-0.049676001 0.101616 -0.235782
-0.049672 0.101692 -0.235788
-0.049669001 0.101766 -0.23579
-0.049665999 0.101842 -0.235791
-0.049663 0.101918 -0.23579299
-0.049660001 0.101994 -0.23579299
-0.049656998 0.10207 -0.23579501
-0.049654 0.102145 -0.235807
-0.049649999 0.102221 -0.235817
-0.049647 0.102295 -0.23582999
-0.049642999 0.102371 -0.23583999
-0.04964 0.102445 -0.23585001
-0.049635999 0.102522 -0.235862
-0.049633 0.102598 -0.23587
-0.049630001 0.102672 -0.23587801
-0.049626999 0.102748 -0.235875
-0.049625002 0.102823 -0.235855
-0.049623001 0.102901 -0.235829
-0.049621001 0.102976 -0.235809
-0.049619 0.103052 -0.23579501
-0.049616002 0.10313 -0.235789
-0.049612999 0.103204 -0.23578601
-0.049610998 0.103279 -0.235782
-0.049608 0.103355 -0.23578399
-0.049603999 0.10343 -0.23579399
-0.049601 0.103506 -0.2358
-0.049598001 0.103582 -0.235801
-0.049594998 0.103658 -0.235797
-0.049593002 0.103733 -0.23577701
-0.049591001 0.103809 -0.235763
-0.049587 0.103885 -0.23578499
-0.049582001 0.10396 -0.23582099
-0.049578 0.104034 -0.23583999
-0.049575001 0.10411 -0.23583999
-0.049571998 0.104186 -0.235844
-0.049569 0.104261 -0.235852
-0.049564999 0.104337 -0.235862
-0.049562 0.104411 -0.235879
-0.049557999 0.104487 -0.235889
-0.049555 0.104562 -0.23590299
-0.049552001 0.104638 -0.23590501
-0.049550001 0.104715 -0.23588701
-0.049548 0.10479 -0.235851
-0.049546 0.104868 -0.235826
-0.049543999 0.104941 -0.235816
-0.049541 0.105019 -0.23581199
-0.049538001 0.105093 -0.235808
-0.049536001 0.105169 -0.23580199
-0.049532998 0.105245 -0.23580299
-0.049529001 0.105321 -0.235815
-0.049527001 0.105397 -0.235809
-0.049524002 0.105473 -0.23579299
-0.049520999 0.105547 -0.235797
-0.049518 0.105623 -0.235807
-0.049515001 0.105699 -0.23581199
-0.049511001 0.105775 -0.235824
-0.049508002 0.105849 -0.235834
-0.049504999 0.105925 -0.23582999
-0.049502 0.106001 -0.23582999
-0.049499001 0.106075 -0.23583201
-0.049495999 0.106151 -0.235827
-0.049493 0.106227 -0.235825
-0.049490001 0.106303 -0.235829
-0.049486998 0.106379 -0.23583899
-0.049483001 0.106453 -0.235847
-0.049479999 0.10653 -0.23585699
-0.049476001 0.106606 -0.23587
-0.049474001 0.10668 -0.235866
-0.049472 0.106757 -0.235842
-0.04947 0.106833 -0.235828
-0.049467001 0.106909 -0.235824
-0.049465001 0.106982 -0.235809
-0.049463 0.107058 -0.235789
-0.049460001 0.107135 -0.235771
-0.049458001 0.107211 -0.235751
-0.049456 0.107287 -0.235737
-0.049453001 0.107361 -0.23574001
-0.049449999 0.107437 -0.235744
-0.049447 0.107513 -0.235744
-0.049444001 0.107588 -0.23573799
-0.049442001 0.107664 -0.235732
-0.049438 0.107738 -0.23574001
-0.049433999 0.107815 -0.235759
-0.049431 0.107891 -0.235769
-0.049428001 0.107965 -0.235769
-0.049424998 0.108043 -0.235769
-0.049422 0.108117 -0.23576701
-0.049419001 0.108193 -0.235761
-0.049417 0.108269 -0.235762
-0.049414001 0.108345 -0.23576
-0.049410999 0.10842 -0.235754
-0.049408 0.108495 -0.235764
-0.049403999 0.108571 -0.23578399
-0.049401 0.108647 -0.235787
-0.049399 0.108723 -0.23576701
-0.049396999 0.108798 -0.23573899
-0.049394999 0.108873 -0.235723
-0.049392 0.108947 -0.235709
-0.049391001 0.109023 -0.235686
-0.049389001 0.109098 -0.235658
-0.049385998 0.109174 -0.235652
-0.049383 0.10925 -0.23566
-0.049380001 0.109326 -0.23565599
-0.049378999 0.109401 -0.235626
-0.049377002 0.109475 -0.23560899
-0.049373999 0.109551 -0.23561101
-0.049371 0.109627 -0.23560899
-0.049368002 0.109702 -0.235599
-0.049364999 0.109779 -0.23560899
-0.049361002 0.109853 -0.235632
-0.049357001 0.109929 -0.235652
-0.049353998 0.110005 -0.235658
-0.049350999 0.110079 -0.23565599
-0.049348 0.110155 -0.23564801
-0.049346 0.110231 -0.235636
-0.049343001 0.110307 -0.235627
-0.049339999 0.110383 -0.235635
-0.049336001 0.110457 -0.23565499
-0.049332999 0.110533 -0.235661
-0.049330998 0.110609 -0.235645
-0.049327999 0.110684 -0.235626
-0.049325999 0.11076 -0.235618
-0.049323 0.110834 -0.23560999
-0.049321 0.11091 -0.235588
-0.049320001 0.110985 -0.235558
-0.049318001 0.11106 -0.23553699
-0.049316 0.111136 -0.235517
-0.049313001 0.11121 -0.235511
-0.049309999 0.111286 -0.235523
-0.049306002 0.111362 -0.235531
-0.049304001 0.111438 -0.235523
-0.049300998 0.111514 -0.235524
-0.049298 0.111588 -0.23553
