# .PCD v0.7 - Point Cloud Data file format
VERSION 0.7
FIELDS x y z
SIZE 4 4 4
TYPE F F F
COUNT 1 1 1
WIDTH 1553
HEIGHT 1
VIEWPOINT 0 0 0 1 0 0 0
POINTS 1553
DATA ascii
-0.130822 0.15835001 -0.232348
-0.13081899 0.15842199 -0.232346
-0.130816 0.15849601 -0.232347
-0.130813 0.15856799 -0.232347
-0.13081101 0.15864199 -0.23233899
-0.130808 0.158713 -0.232329
-0.130806 0.158787 -0.232308
-0.130804 0.15886 -0.23229
-0.13080101 0.158933 -0.2323
-0.130798 0.159005 -0.23231199
-0.130795 0.159077 -0.232317
-0.13079301 0.15915 -0.232289
-0.13079301 0.159225 -0.232235
-0.13079099 0.159297 -0.232215
-0.130788 0.15937001 -0.23221201
-0.130786 0.15944199 -0.232198
-0.130784 0.15951601 -0.232178
-0.13078199 0.159587 -0.232161
-0.130779 0.159661 -0.232155
-0.130776 0.159733 -0.232161
-0.13077401 0.159805 -0.232153
-0.13077199 0.159879 -0.232136
-0.130769 0.15995 -0.232132
-0.130766 0.16002201 -0.232136
-0.13076399 0.160096 -0.232114
-0.130762 0.16016901 -0.23209301
-0.130759 0.16024099 -0.23209301
-0.13075601 0.16031399 -0.232109
-0.130753 0.160386 -0.232115
-0.130749 0.160458 -0.232122
-0.13074601 0.16053 -0.23212799
-0.130743 0.160602 -0.232134
-0.13074 0.160676 -0.232134
-0.13073801 0.160748 -0.23212899
-0.130735 0.160822 -0.232131
-0.130731 0.16089401 -0.232141
-0.13072801 0.16096599 -0.232152
-0.130725 0.16103899 -0.232162
-0.130721 0.161111 -0.232168
-0.13071901 0.161184 -0.232154
-0.13071699 0.161256 -0.23214699
-0.130713 0.161328 -0.232161
-0.13071001 0.161402 -0.23216701
-0.130707 0.161474 -0.23216499
-0.130704 0.16154601 -0.23217
-0.130702 0.16161799 -0.232164
-0.13069899 0.16169199 -0.232154
-0.130697 0.161764 -0.232132
-0.130696 0.161837 -0.232099
-0.130694 0.16191 -0.232081
-0.13069101 0.161982 -0.23208299
-0.130688 0.162054 -0.23208199
-0.130686 0.162126 -0.232072
-0.130683 0.1622 -0.23206399
-0.13067999 0.16227201 -0.23207
-0.130676 0.16234501 -0.23210301
-0.13067199 0.16241699 -0.23212899
-0.130669 0.162489 -0.23212101
-0.130668 0.162562 -0.232095
-0.130666 0.162634 -0.23206399
-0.130665 0.162707 -0.23203599
-0.13066199 0.162779 -0.23203599
-0.130659 0.16285101 -0.23203599
-0.130657 0.16292199 -0.232015
-0.13065501 0.16299599 -0.232013
-0.130651 0.163068 -0.232021
-0.130648 0.16314 -0.232022
-0.13064601 0.163214 -0.23202001
-0.130642 0.163287 -0.23203
-0.130639 0.163359 -0.232048
-0.13063601 0.163431 -0.232049
-0.13063399 0.16350301 -0.232035
-0.13063 0.16357701 -0.23204499
-0.13062599 0.16364899 -0.232071
-0.130623 0.163721 -0.232078
-0.130621 0.163793 -0.23206601
-0.13061801 0.163867 -0.232062
-0.130615 0.163939 -0.232068
-0.130612 0.164011 -0.23207299
-0.13060801 0.164085 -0.232079
-0.130604 0.164158 -0.23210301
-0.13060001 0.16423 -0.232135
-0.130596 0.164303 -0.232164
-0.130592 0.16437501 -0.232182
-0.13059001 0.16444901 -0.23217399
-0.130587 0.16452099 -0.23217399
-0.130583 0.164593 -0.232189
-0.13057999 0.164667 -0.232189
-0.130578 0.164739 -0.23218299
-0.130574 0.164814 -0.232199
-0.13056999 0.164886 -0.23222999
-0.130566 0.164959 -0.232254
-0.13056201 0.165033 -0.232262
-0.130559 0.165105 -0.23227
-0.130556 0.165177 -0.23227499
-0.130555 0.16524801 -0.23222899
-0.13055199 0.16532201 -0.232243
-0.130547 0.16539501 -0.23229299
-0.130542 0.16547 -0.23232
-0.130538 0.165543 -0.232352
-0.13053299 0.165617 -0.23238599
-0.130529 0.16569 -0.232416
-0.13052601 0.16576201 -0.232418
-0.13052399 0.16583499 -0.232401
-0.130522 0.165907 -0.232389
-0.130518 0.165979 -0.232401
-0.130511 0.16605499 -0.232485
-0.13050599 0.16613001 -0.23253401
-0.130503 0.16620199 -0.23253199
-0.13049901 0.16627701 -0.232554
-0.130495 0.16634899 -0.232586
-0.130491 0.16642401 -0.2326
-0.13048799 0.16649599 -0.232619
-0.130484 0.16656999 -0.232645
-0.13047899 0.16664501 -0.232669
-0.130476 0.16671699 -0.232687
-0.130473 0.16679101 -0.232692
-0.13046899 0.16686399 -0.232714
-0.130465 0.16693801 -0.23273399
-0.13046101 0.16701201 -0.23274399
-0.130457 0.16708501 -0.23277
-0.13045301 0.16716 -0.232805
-0.130447 0.167235 -0.23285501
-0.13044199 0.16731 -0.232903
-0.130437 0.167385 -0.232945
-0.13043299 0.167457 -0.23297299
-0.13043 0.167531 -0.23297399
-0.130426 0.167606 -0.23299
-0.130421 0.16768099 -0.233044
-0.13041601 0.16775499 -0.23307601
-0.130412 0.16783001 -0.233106
-0.130408 0.16790301 -0.233137
-0.130403 0.16797701 -0.233163
-0.13039701 0.168055 -0.23322301
-0.130391 0.16813 -0.23329499
-0.13038599 0.16820499 -0.23333301
-0.130381 0.16828001 -0.233373
-0.130376 0.168357 -0.233417
-0.131034 0.147734 -0.23476499
-0.131034 0.14781199 -0.234699
-0.131032 0.147889 -0.23466299
-0.131032 0.14797001 -0.234595
-0.131033 0.14805201 -0.234505
-0.13103101 0.148127 -0.234484
-0.13102999 0.148203 -0.23446
-0.13102899 0.14828201 -0.234412
-0.131028 0.148358 -0.234356
-0.131027 0.148435 -0.234318
-0.131025 0.148513 -0.234294
-0.131024 0.14859 -0.23425101
-0.131024 0.14866801 -0.23418701
-0.131023 0.148746 -0.23415101
-0.13101999 0.148819 -0.234147
-0.131018 0.148895 -0.23413099
-0.131017 0.14896999 -0.234092
-0.131015 0.149047 -0.23405799
-0.131014 0.149123 -0.234024
-0.13101199 0.14920001 -0.23399401
-0.13101199 0.149277 -0.23395
-0.13101099 0.149354 -0.233907
-0.131009 0.14943101 -0.23387299
-0.131007 0.149505 -0.23385499
-0.131005 0.14958 -0.233833
-0.13100401 0.149657 -0.23380201
-0.13100199 0.14973301 -0.233766
-0.131 0.149808 -0.233748
-0.130998 0.149882 -0.23373
-0.130997 0.149957 -0.233696
-0.130996 0.150034 -0.233657
-0.13099299 0.15011001 -0.233641
-0.130991 0.15018301 -0.23362701
-0.13099 0.150261 -0.233593
-0.130988 0.150334 -0.233564
-0.130987 0.15041099 -0.23353601
-0.13098501 0.15048601 -0.233504
-0.13098399 0.150562 -0.233468
-0.130983 0.150637 -0.23343401
-0.130981 0.150712 -0.233409
-0.130979 0.15078799 -0.23337901
-0.130977 0.15086301 -0.233355
-0.13097499 0.150938 -0.233335
-0.130973 0.151012 -0.233318
-0.130972 0.151087 -0.23329
-0.13097 0.151163 -0.233256
-0.130969 0.15123799 -0.23322999
-0.13096701 0.15131301 -0.233198
-0.13096599 0.151388 -0.233163
-0.130964 0.151462 -0.233147
-0.130962 0.151538 -0.233127
-0.13096 0.151611 -0.233099
-0.13095801 0.151686 -0.23307399
-0.13095599 0.15176199 -0.233052
-0.130954 0.15183499 -0.233034
-0.130952 0.15191101 -0.23301201
-0.130951 0.15198401 -0.232989
-0.13094901 0.15206 -0.232969
-0.13094699 0.152133 -0.23294701
-0.130945 0.152207 -0.23291899
-0.130944 0.152284 -0.232887
-0.130942 0.152357 -0.23285601
-0.13094001 0.15243299 -0.232834
-0.13093799 0.15250599 -0.232814
-0.130937 0.152582 -0.232786
-0.130935 0.15265501 -0.232765
-0.130932 0.152729 -0.23276301
-0.13092899 0.152803 -0.232757
-0.130927 0.152876 -0.232741
-0.130925 0.15294801 -0.232732
-0.130922 0.15302201 -0.23272599
-0.13091999 0.15309601 -0.23271801
-0.130917 0.15317 -0.232712
-0.130915 0.15324099 -0.23270699
-0.13091201 0.15331499 -0.232693
-0.13090999 0.15338901 -0.232673
-0.130909 0.153464 -0.232645
-0.130907 0.15353701 -0.232618
-0.130905 0.153611 -0.23260599
-0.13090201 0.153685 -0.2326
-0.1309 0.153758 -0.232582
-0.130898 0.153832 -0.23256899
-0.130896 0.153906 -0.232555
-0.13089301 0.153979 -0.23254099
-0.130891 0.154053 -0.23252299
-0.130889 0.154127 -0.232508
-0.130887 0.15419801 -0.232494
-0.130885 0.154274 -0.232482
-0.13088199 0.154346 -0.23247001
-0.13088 0.15442 -0.232467
-0.130877 0.15449101 -0.232463
-0.13087399 0.15456299 -0.232465
-0.130871 0.15463801 -0.232473
-0.130868 0.15470999 -0.23248
-0.13086499 0.154781 -0.23247001
-0.130863 0.154855 -0.232458
-0.13086 0.154929 -0.232454
-0.13085701 0.155003 -0.232449
-0.13085499 0.155075 -0.232445
-0.130852 0.155147 -0.232445
-0.130849 0.155221 -0.23244201
-0.13084701 0.155293 -0.232438
-0.130844 0.155366 -0.232434
-0.130841 0.15543801 -0.232428
-0.13083801 0.15551201 -0.23243301
-0.130835 0.15558501 -0.232447
-0.130831 0.15565699 -0.232453
-0.13082901 0.15572999 -0.23244099
-0.13082699 0.15580399 -0.232426
-0.130825 0.155876 -0.232416
-0.130822 0.155949 -0.23240399
-0.13081899 0.156022 -0.232408
-0.130816 0.156094 -0.23242299
-0.130812 0.156166 -0.232435
-0.13080899 0.156238 -0.232435
-0.130807 0.156312 -0.23242299
-0.130805 0.156385 -0.23240601
-0.130803 0.156459 -0.23239601
-0.13079999 0.15653101 -0.23239399
-0.130797 0.15660299 -0.232388
-0.130795 0.15667699 -0.232379
-0.13079301 0.15674999 -0.232365
-0.13079 0.15682399 -0.232353
-0.130788 0.156896 -0.232345
-0.130785 0.156968 -0.23233999
-0.13078199 0.157042 -0.23233999
-0.130779 0.157113 -0.23233999
-0.130777 0.157187 -0.232335
-0.13077401 0.157259 -0.232329
-0.130771 0.157331 -0.23233099
-0.130768 0.157405 -0.232337
-0.13076501 0.15747701 -0.232344
-0.130762 0.15754899 -0.232346
-0.130759 0.15762299 -0.232342
-0.130757 0.157695 -0.232334
-0.13075399 0.15776899 -0.23233099
-0.130751 0.157841 -0.232335
-0.130748 0.157913 -0.23233899
-0.130744 0.157985 -0.232357
-0.130741 0.158058 -0.232364
-0.130739 0.158131 -0.232342
-0.13073701 0.158205 -0.232328
-0.130734 0.158277 -0.232328
-0.130732 0.15835001 -0.23232301
-0.130729 0.15842199 -0.232315
-0.13072599 0.15849601 -0.232309
-0.130724 0.15856799 -0.232309
-0.13072 0.15864 -0.232316
-0.13071799 0.158714 -0.232316
-0.130715 0.158786 -0.23231401
-0.130712 0.15886 -0.232306
-0.13071001 0.158931 -0.232291
-0.13070799 0.159005 -0.23228499
-0.130705 0.159077 -0.232279
-0.130703 0.159151 -0.23225801
-0.130702 0.159224 -0.23222201
-0.13070001 0.15929499 -0.2322
-0.130698 0.15936901 -0.232188
-0.130696 0.15944099 -0.232177
-0.130693 0.15951499 -0.232169
-0.13068999 0.159586 -0.23216701
-0.130687 0.159658 -0.23216499
-0.130685 0.159732 -0.232162
-0.13068201 0.159804 -0.232152
-0.130679 0.159876 -0.232154
-0.130676 0.15995 -0.232163
-0.130674 0.16002201 -0.23214699
-0.13067199 0.16009501 -0.23212101
-0.130669 0.16016699 -0.232123
-0.130666 0.160239 -0.23213001
-0.13066401 0.160313 -0.232126
-0.130661 0.160385 -0.232124
-0.130658 0.160457 -0.232118
-0.130656 0.160531 -0.232107
-0.13065299 0.160603 -0.23210301
-0.13065 0.160675 -0.232113
-0.13064601 0.16074701 -0.232127
-0.130643 0.16081899 -0.23214801
-0.130639 0.16089199 -0.23215599
-0.130637 0.160965 -0.232152
-0.13063399 0.161037 -0.23214801
-0.130631 0.161109 -0.232153
-0.130628 0.161184 -0.232161
-0.13062499 0.161256 -0.232163
-0.130622 0.161328 -0.232164
-0.130619 0.161401 -0.232162
-0.13061699 0.16147301 -0.232136
-0.13061599 0.16154601 -0.232114
-0.130613 0.16161799 -0.232109
-0.13061 0.16169 -0.232115
-0.130606 0.161764 -0.232123
-0.130604 0.161836 -0.23212101
-0.130601 0.161908 -0.23210999
-0.13059901 0.161982 -0.232098
-0.130596 0.162054 -0.232094
-0.130594 0.162126 -0.23209199
-0.13059101 0.16219801 -0.232097
-0.130587 0.16227201 -0.232105
-0.130585 0.162343 -0.232089
-0.130584 0.162415 -0.232058
-0.13058101 0.162489 -0.232054
-0.130577 0.162561 -0.23208199
-0.130574 0.162633 -0.232088
-0.13057201 0.162705 -0.232061
-0.13057099 0.16277801 -0.23203699
-0.130568 0.16285001 -0.232043
-0.130565 0.16292199 -0.232035
-0.13056301 0.162995 -0.23201799
-0.13056 0.163067 -0.232012
-0.130558 0.163139 -0.232006
-0.130555 0.163213 -0.232012
-0.130551 0.163286 -0.232039
-0.130547 0.163358 -0.23204499
-0.13054501 0.16343001 -0.232041
-0.130542 0.16350199 -0.232048
-0.130538 0.16357601 -0.232052
-0.130536 0.16364799 -0.232054
-0.13053299 0.16372 -0.23205
-0.13053 0.163794 -0.23204499
-0.130527 0.163866 -0.232051
-0.13052399 0.163938 -0.232059
-0.130521 0.16401 -0.23205499
-0.130518 0.164084 -0.232054
-0.13051499 0.164156 -0.232068
-0.130511 0.16422801 -0.232086
-0.13050701 0.16430099 -0.232106
-0.130503 0.16437501 -0.23213699
-0.13049901 0.16444799 -0.232163
-0.130496 0.16452 -0.232171
-0.130493 0.164592 -0.232169
-0.13049001 0.164666 -0.23216601
-0.13048699 0.164738 -0.232164
-0.130485 0.164812 -0.23215
-0.130483 0.164883 -0.232142
-0.13047899 0.164956 -0.232161
-0.130473 0.165031 -0.232217
-0.130468 0.165104 -0.23227499
-0.130463 0.165177 -0.232309
-0.130459 0.165251 -0.23233099
-0.130456 0.165324 -0.232348
-0.13045301 0.16539501 -0.232338
-0.13045099 0.16546901 -0.232326
-0.130448 0.16554099 -0.232326
-0.130445 0.165613 -0.23232301
-0.130441 0.16568699 -0.23234899
-0.130436 0.16576099 -0.232397
-0.13043199 0.16583499 -0.232419
-0.130428 0.165907 -0.23243999
-0.13042299 0.16598199 -0.23247799
-0.13042 0.166054 -0.23249
-0.130418 0.16612799 -0.23247799
-0.13041499 0.1662 -0.232475
-0.130411 0.16627499 -0.232499
-0.13040701 0.166347 -0.232529
-0.130402 0.16642199 -0.23256899
-0.13039599 0.16649701 -0.23261701
-0.130393 0.16656899 -0.232638
-0.130389 0.16664401 -0.23264401
-0.13038599 0.16671599 -0.232656
-0.130382 0.16678999 -0.232684
-0.13037699 0.16686299 -0.23271801
-0.130373 0.16693699 -0.232739
-0.13037001 0.16701201 -0.23275299
-0.130366 0.16708399 -0.232767
-0.130362 0.16715901 -0.23280101
-0.130356 0.167234 -0.232851
-0.13035201 0.167308 -0.23288199
-0.130348 0.167381 -0.232906
-0.13034301 0.167456 -0.23294
-0.13034 0.16753 -0.23295601
-0.130335 0.167605 -0.232986
-0.13033099 0.167677 -0.23301899
-0.130327 0.167751 -0.23302899
-0.13032299 0.167826 -0.23305701
-0.130318 0.16790099 -0.233101
-0.13031299 0.16797601 -0.233143
-0.130308 0.168051 -0.23318
-0.130302 0.168128 -0.23323999
-0.13029701 0.168203 -0.233292
-0.130293 0.168275 -0.233312
-0.130289 0.16835199 -0.23334
-0.130946 0.147883 -0.234659
-0.130945 0.14796001 -0.23461699
-0.130945 0.148041 -0.234543
-0.130945 0.148121 -0.234477
-0.130944 0.14819799 -0.23444299
-0.130942 0.148274 -0.23441499
-0.130941 0.148351 -0.234378
-0.13094001 0.14842799 -0.234336
-0.13093799 0.148505 -0.234304
-0.130937 0.14858 -0.23427001
-0.130935 0.14865801 -0.23424
-0.130934 0.148735 -0.234207
-0.130933 0.148812 -0.23415899
-0.130932 0.14888901 -0.23412099
-0.130931 0.148966 -0.234079
-0.13092899 0.149041 -0.23404901
-0.13092799 0.14911699 -0.23402201
-0.130926 0.14919201 -0.234
-0.130925 0.149269 -0.23396
-0.130924 0.14934599 -0.233916
-0.130922 0.149423 -0.233882
-0.13092101 0.149499 -0.23385701
-0.130918 0.149572 -0.233845
-0.130915 0.149646 -0.233843
-0.130913 0.14972199 -0.233825
-0.13091201 0.14979701 -0.23379301
-0.13091099 0.149874 -0.23375399
-0.130909 0.149949 -0.23371799
-0.130909 0.15002801 -0.233668
-0.130908 0.150103 -0.23362599
-0.130906 0.150181 -0.233597
-0.130904 0.150254 -0.23357099
-0.13090201 0.15033001 -0.233559
-0.1309 0.15040299 -0.233539
-0.130899 0.150479 -0.23350701
-0.130897 0.150556 -0.23348001
-0.130896 0.150631 -0.23344401
-0.13089401 0.15070599 -0.23341399
-0.13089301 0.15078101 -0.233374
-0.13089199 0.150859 -0.233336
-0.130891 0.150934 -0.233299
-0.130888 0.151007 -0.23328701
-0.130886 0.151081 -0.233279
-0.13088401 0.15115701 -0.233257
-0.13088199 0.151232 -0.233228
-0.130881 0.151307 -0.23318601
-0.13088 0.151382 -0.23314799
-0.130879 0.151458 -0.23311999
-0.130876 0.15153299 -0.233101
-0.13087501 0.15160801 -0.23306701
-0.13087399 0.151683 -0.233027
-0.130872 0.151757 -0.233013
-0.130869 0.151831 -0.233013
-0.130867 0.151905 -0.23300201
-0.13086399 0.151978 -0.232986
-0.130863 0.152054 -0.23296
-0.130861 0.152127 -0.232934
-0.130859 0.15220299 -0.232913
-0.130858 0.15227801 -0.232877
-0.13085701 0.152353 -0.232829
-0.13085499 0.152428 -0.232807
-0.130853 0.152502 -0.232792
-0.130851 0.152575 -0.23277199
-0.130849 0.152649 -0.232758
-0.13084599 0.152723 -0.232752
-0.130843 0.152797 -0.23275299
-0.13084 0.152869 -0.23275299
-0.13083801 0.152942 -0.232743
-0.130836 0.153016 -0.23272499
-0.130834 0.15309 -0.23270801
-0.130831 0.153163 -0.232704
-0.13082799 0.153235 -0.232704
-0.130826 0.153309 -0.23269001
-0.130824 0.153383 -0.232667
-0.130822 0.153458 -0.232647
-0.130821 0.153531 -0.232619
-0.13081899 0.153607 -0.232591
-0.130817 0.153679 -0.232586
-0.130814 0.153752 -0.23257799
-0.130812 0.153826 -0.232564
-0.13080999 0.1539 -0.232546
-0.130807 0.153973 -0.23253299
-0.130805 0.154045 -0.23252501
-0.13080201 0.154119 -0.232521
-0.13079999 0.154191 -0.232517
-0.130797 0.154265 -0.23250601
-0.130795 0.154338 -0.232494
-0.13079201 0.154412 -0.23248599
-0.13079 0.154486 -0.23248
-0.130787 0.154558 -0.232473
-0.130785 0.154631 -0.23246101
-0.13078301 0.154705 -0.232437
-0.13078099 0.154778 -0.232421
-0.130778 0.154852 -0.23241401
-0.130776 0.15492401 -0.232416
-0.13077199 0.15499599 -0.23242401
-0.130769 0.155068 -0.232426
-0.130767 0.15514199 -0.232421
-0.13076399 0.15521599 -0.232419
-0.130761 0.155288 -0.23241299
-0.130759 0.155362 -0.23240501
-0.13075601 0.155434 -0.23240601
-0.130753 0.155506 -0.232416
-0.130749 0.155578 -0.23242199
-0.13074601 0.155652 -0.232425
-0.130744 0.155724 -0.23242299
-0.130741 0.155798 -0.23241501
-0.130739 0.15587001 -0.232403
-0.13073599 0.15594301 -0.232402
-0.130733 0.15601499 -0.232402
-0.13073 0.15608899 -0.232402
-0.13072699 0.156161 -0.232402
-0.130725 0.156233 -0.232399
-0.130722 0.156307 -0.23239499
-0.13071901 0.156379 -0.232399
-0.130716 0.156453 -0.232399
-0.130714 0.156525 -0.23239
-0.130711 0.156599 -0.23237599
-0.13070901 0.15667 -0.23237
-0.130706 0.156744 -0.232366
-0.130704 0.15681601 -0.23235901
-0.13070101 0.15689 -0.232353
-0.130698 0.15696201 -0.23235101
-0.130696 0.15703601 -0.232343
-0.130693 0.15710799 -0.232342
-0.13068999 0.15718099 -0.232338
-0.130688 0.157253 -0.232334
-0.130685 0.157325 -0.232325
-0.130683 0.157399 -0.23232099
-0.130679 0.157471 -0.232335
-0.130675 0.157544 -0.232353
-0.13067199 0.157616 -0.23236001
-0.13067 0.15768801 -0.232354
-0.130667 0.15776099 -0.23233999
-0.130665 0.15783501 -0.232334
-0.130661 0.15790699 -0.232345
-0.130658 0.157979 -0.232353
-0.13065501 0.158051 -0.23235101
-0.130652 0.158125 -0.23235101
-0.13065 0.158197 -0.232352
-0.130647 0.158271 -0.232342
-0.13064501 0.158343 -0.23233201
-0.130642 0.158417 -0.23232999
-0.130639 0.158489 -0.232327
-0.130637 0.158562 -0.232319
-0.13063499 0.15863401 -0.23230501
-0.130632 0.15870801 -0.232299
-0.130629 0.15877999 -0.232306
-0.13062599 0.158852 -0.232308
-0.130623 0.158926 -0.232302
-0.130621 0.158999 -0.23228601
-0.13062 0.159071 -0.232261
-0.13061699 0.159144 -0.232243
-0.130615 0.159218 -0.232225
-0.130614 0.159289 -0.23220199
-0.130611 0.159363 -0.23219199
-0.13060801 0.159435 -0.23219401
-0.130606 0.15950701 -0.232186
-0.130604 0.15958101 -0.232171
-0.130602 0.15965199 -0.232153
-0.13059901 0.15972599 -0.232145
-0.130596 0.159798 -0.232151
-0.130593 0.15987 -0.23215801
-0.13059001 0.159944 -0.232152
-0.130588 0.160016 -0.232144
-0.130585 0.16009 -0.23213901
-0.130583 0.160161 -0.232133
-0.13058101 0.16023301 -0.232117
-0.13057899 0.16030701 -0.232097
-0.130576 0.16037799 -0.23209199
-0.130573 0.16045199 -0.23209
-0.13056999 0.160524 -0.23209
-0.130567 0.160596 -0.232098
-0.13056301 0.160669 -0.232117
-0.13056 0.160741 -0.23212899
-0.130557 0.160815 -0.232125
-0.130555 0.160886 -0.232105
-0.13055301 0.16095801 -0.23210201
-0.130548 0.16103099 -0.232132
-0.13054501 0.161103 -0.23214801
-0.130542 0.16117699 -0.232152
-0.130539 0.161249 -0.232145
-0.130537 0.161321 -0.232135
-0.13053399 0.161395 -0.232143
-0.13053 0.161467 -0.232154
-0.130528 0.161541 -0.232132
-0.13052601 0.161612 -0.23211201
-0.13052399 0.16168401 -0.232106
-0.130521 0.16175801 -0.232109
-0.130518 0.16182999 -0.232109
-0.13051499 0.161902 -0.23211101
-0.130512 0.161974 -0.232115
-0.130509 0.162046 -0.23212001
-0.13050599 0.16212 -0.232126
-0.130503 0.162192 -0.232124
-0.130501 0.162266 -0.23210201
-0.13049901 0.16233701 -0.232081
-0.13049699 0.16240899 -0.232069
-0.130495 0.16248301 -0.232061
-0.130493 0.162554 -0.23204599
-0.13048901 0.162626 -0.23205
-0.130486 0.162699 -0.232068
-0.130483 0.162771 -0.23206399
-0.130481 0.162844 -0.232053
-0.13047799 0.162917 -0.232061
-0.130474 0.162991 -0.232067
-0.130472 0.16306201 -0.232051
-0.13046999 0.16313399 -0.23203801
-0.130468 0.163206 -0.232032
-0.130464 0.16328 -0.232034
-0.13046101 0.163352 -0.232044
-0.130458 0.163424 -0.232049
-0.130456 0.163496 -0.232043
-0.13045201 0.16357 -0.232051
-0.130449 0.163642 -0.23206
-0.130446 0.16371401 -0.232058
-0.13044401 0.16378599 -0.23205
-0.130441 0.16385999 -0.232044
-0.130438 0.163932 -0.232051
-0.13043401 0.164004 -0.232069
-0.130431 0.164078 -0.23207299
-0.130429 0.16415 -0.232069
-0.13042501 0.164222 -0.23207401
-0.130421 0.164295 -0.2321
-0.130418 0.164369 -0.232114
-0.13041499 0.164441 -0.232116
-0.130412 0.16451301 -0.232115
-0.130409 0.16458499 -0.232115
-0.13040601 0.16465899 -0.232131
-0.130401 0.16473199 -0.232171
-0.13039701 0.16480599 -0.23219
-0.130395 0.164878 -0.23218
-0.130393 0.164949 -0.23214801
-0.13039 0.165022 -0.23215599
-0.13038599 0.165096 -0.232173
-0.130382 0.165168 -0.232199
-0.13037699 0.165241 -0.232241
-0.130372 0.165316 -0.232287
-0.13036799 0.165389 -0.232317
-0.130364 0.165463 -0.232336
-0.13036101 0.165535 -0.232334
-0.130358 0.16560701 -0.232338
-0.130355 0.165681 -0.232346
-0.13035201 0.16575301 -0.232347
-0.130349 0.16582599 -0.232357
-0.130344 0.16590001 -0.23238499
-0.13034 0.165975 -0.232411
-0.130337 0.16604701 -0.232428
-0.130334 0.16611899 -0.232428
-0.13033099 0.16619299 -0.232436
-0.130326 0.16626801 -0.232476
-0.13032 0.16634101 -0.23252399
-0.130316 0.166416 -0.23255301
-0.130312 0.16648801 -0.232573
-0.130309 0.16656201 -0.232585
-0.13030501 0.16663501 -0.232605
-0.130301 0.16670901 -0.232632
-0.13029701 0.16678201 -0.232658
-0.130291 0.166857 -0.23271
-0.13028701 0.166931 -0.23273601
-0.13028499 0.167005 -0.23273
-0.130282 0.167077 -0.232731
-0.13027699 0.167152 -0.23277099
-0.130271 0.167227 -0.232829
-0.13026699 0.1673 -0.232861
-0.130262 0.167375 -0.232889
-0.13025799 0.167449 -0.23292001
-0.130255 0.167521 -0.232926
-0.13025101 0.167596 -0.23293599
-0.130247 0.16767 -0.23297
-0.130243 0.16774499 -0.232988
-0.130238 0.16782001 -0.233031
-0.13023201 0.167895 -0.233099
-0.130227 0.16797 -0.23313899
-0.13022301 0.168044 -0.233153
-0.130219 0.168119 -0.233181
-0.13021301 0.168194 -0.23324101
-0.13021 0.168268 -0.233252
-0.13065501 0.148406 -0.234364
-0.13065501 0.14848299 -0.23431601
-0.13065401 0.14856 -0.234272
-0.130652 0.148638 -0.234239
-0.13065 0.14871299 -0.234217
-0.130647 0.14878701 -0.23421501
-0.13064501 0.14886101 -0.234211
-0.13064399 0.14894 -0.234157
-0.13064601 0.149021 -0.234055
-0.13064501 0.14909799 -0.234018
-0.130642 0.14917199 -0.23401
-0.130639 0.14924601 -0.23400199
-0.130639 0.149323 -0.23395599
-0.130638 0.14940199 -0.23390301
-0.130637 0.14947701 -0.233871
-0.13063399 0.149551 -0.23386499
-0.130632 0.149627 -0.233851
-0.130631 0.149703 -0.23379301
-0.130631 0.149782 -0.233742
-0.130629 0.149857 -0.233716
-0.13062701 0.149933 -0.233686
-0.13062599 0.15001 -0.23365401
-0.13062499 0.150085 -0.233622
-0.130623 0.150161 -0.233601
-0.130621 0.150234 -0.233573
-0.130621 0.150313 -0.233509
-0.13062 0.15039 -0.23347101
-0.13062 0.15046801 -0.233403
-0.13062 0.150547 -0.233334
-0.130619 0.150622 -0.233298
-0.13061699 0.150695 -0.23327599
-0.130615 0.15077101 -0.23326001
-0.130613 0.15084501 -0.233243
-0.130611 0.15092 -0.233225
-0.13060901 0.150994 -0.233207
-0.13060699 0.151069 -0.233179
-0.130605 0.151144 -0.233147
-0.130604 0.151219 -0.233108
-0.130603 0.15129501 -0.23308399
-0.13060001 0.15136901 -0.23307399
-0.13059799 0.15144201 -0.233054
-0.130596 0.151518 -0.233035
-0.130594 0.151591 -0.23302101
-0.130592 0.151667 -0.23299301
-0.13059101 0.151742 -0.232959
-0.13058899 0.151815 -0.232942
-0.130586 0.151889 -0.23294
-0.130584 0.151963 -0.232926
-0.130582 0.15203799 -0.23289999
-0.13057999 0.15211201 -0.23287299
-0.13057899 0.152187 -0.23283499
-0.130578 0.152262 -0.232807
-0.130575 0.152336 -0.232793
-0.130573 0.15241 -0.23277999
-0.13057201 0.152485 -0.23275
-0.13056999 0.152558 -0.232724
-0.130567 0.152632 -0.23271801
-0.130564 0.152704 -0.23272
-0.13056099 0.152778 -0.232719
-0.130559 0.152852 -0.232715
-0.130557 0.152926 -0.23269901
-0.130555 0.152999 -0.23268101
-0.13055199 0.153073 -0.232676
-0.13055 0.153147 -0.23266
-0.130548 0.15322 -0.23264
-0.130546 0.153293 -0.232614
-0.13054401 0.153367 -0.232601
-0.130542 0.153441 -0.23258699
-0.13054 0.15351599 -0.232563
-0.130537 0.15358999 -0.23255099
-0.13053501 0.153662 -0.232538
-0.13053299 0.15373699 -0.23251399
-0.130531 0.15381099 -0.23249801
-0.130529 0.15388399 -0.23247799
-0.130527 0.15395799 -0.23246101
-0.13052499 0.15403 -0.232455
-0.130522 0.15410399 -0.232457
-0.130519 0.154175 -0.232448
-0.13051701 0.15425099 -0.232434
-0.130514 0.154323 -0.23243
-0.130511 0.154395 -0.232438
-0.13050801 0.154467 -0.232439
-0.13050599 0.154541 -0.23243301
-0.130503 0.154615 -0.232427
-0.1305 0.154687 -0.23243301
-0.13049699 0.154759 -0.23243999
-0.130495 0.15483201 -0.23242401
-0.130492 0.154906 -0.232408
-0.13049001 0.15497801 -0.23240399
-0.13048699 0.15505201 -0.232393
-0.130486 0.15512501 -0.23236901
-0.130483 0.15519901 -0.232363
-0.13048001 0.15527099 -0.232365
-0.13047799 0.15534499 -0.232348
-0.130476 0.15541799 -0.232328
-0.130474 0.15549199 -0.23232
-0.13047101 0.155564 -0.23232201
-0.130467 0.155636 -0.232335
-0.130463 0.155709 -0.232353
-0.13045999 0.155781 -0.232363
-0.130458 0.155853 -0.232357
-0.130455 0.155926 -0.23235001
-0.13045201 0.15599801 -0.232348
-0.13045 0.15607201 -0.232342
-0.130447 0.156146 -0.23233201
-0.13044401 0.15621801 -0.23233099
-0.13044199 0.15628999 -0.23233099
-0.130439 0.15636399 -0.23233099
-0.130436 0.156436 -0.232326
-0.13043299 0.156509 -0.23232
-0.130431 0.156581 -0.23231401
-0.130428 0.156653 -0.232316
-0.13042501 0.156725 -0.23232099
-0.130422 0.156799 -0.23232099
-0.130419 0.15687101 -0.232319
-0.130417 0.15694501 -0.232307
-0.13041399 0.15701699 -0.232302
-0.130411 0.15709101 -0.23230401
-0.130409 0.157162 -0.232292
-0.13040701 0.15723599 -0.23228
-0.130404 0.157308 -0.232273
-0.130401 0.157382 -0.23227499
-0.13039801 0.157454 -0.232287
-0.130394 0.157527 -0.23230299
-0.130391 0.157599 -0.23231401
-0.13038801 0.157671 -0.232308
-0.13038599 0.15774401 -0.23229
-0.130384 0.157818 -0.232282
-0.130381 0.15789001 -0.23228499
-0.13037799 0.15796199 -0.232281
-0.130375 0.15803599 -0.232279
-0.130372 0.158108 -0.232278
-0.13037001 0.158181 -0.23227
-0.13036799 0.158253 -0.23226
-0.130365 0.158327 -0.232254
-0.130362 0.158399 -0.232263
-0.13035899 0.158471 -0.232269
-0.130356 0.15854301 -0.232269
-0.130353 0.158617 -0.232271
-0.13034999 0.15868901 -0.23226599
-0.130348 0.15876301 -0.232254
-0.130346 0.15883601 -0.23223799
-0.130344 0.15890799 -0.232214
-0.13034201 0.158981 -0.232199
-0.130339 0.159053 -0.23219299
-0.130337 0.159125 -0.232191
-0.130334 0.159199 -0.23218501
-0.13033099 0.159271 -0.23218
-0.130329 0.159345 -0.23217601
-0.130326 0.159417 -0.23216601
-0.13032401 0.15949 -0.23215701
-0.13032199 0.15956201 -0.232143
-0.130319 0.15963601 -0.232131
-0.130317 0.15970699 -0.23212101
-0.13031401 0.159779 -0.232116
-0.130312 0.159853 -0.23211201
-0.130309 0.159925 -0.2321
-0.130307 0.159999 -0.232096
-0.130303 0.160071 -0.232107
-0.130301 0.160143 -0.232099
-0.130299 0.160216 -0.232077
-0.13029601 0.16028801 -0.23208199
-0.130292 0.16036101 -0.232094
-0.13029 0.16043399 -0.232086
-0.130288 0.160506 -0.232068
-0.13028499 0.160578 -0.232069
-0.130282 0.160652 -0.232069
-0.130279 0.160724 -0.232069
-0.13027599 0.160796 -0.23207501
-0.130273 0.160868 -0.23208
-0.13027 0.16094001 -0.23208401
-0.13026699 0.16101401 -0.232086
-0.130264 0.16108599 -0.232086
-0.130261 0.161158 -0.23210301
-0.130257 0.161231 -0.232115
-0.130254 0.161303 -0.232115
-0.13025101 0.161376 -0.232115
-0.13024899 0.161448 -0.23210999
-0.130247 0.161522 -0.232096
-0.130245 0.161594 -0.23208
-0.130242 0.16166499 -0.23206501
-0.13023999 0.16173901 -0.232061
-0.130236 0.16181099 -0.232069
-0.130233 0.161883 -0.232077
-0.13022999 0.161957 -0.232078
-0.130227 0.162029 -0.232078
-0.130224 0.162101 -0.23208199
-0.13022099 0.162173 -0.232086
-0.130218 0.162248 -0.23209099
-0.130215 0.16232 -0.232097
-0.13021301 0.16239101 -0.232089
-0.130211 0.16246501 -0.23205701
-0.13021 0.162536 -0.232034
-0.130208 0.162608 -0.23201799
-0.13020501 0.162681 -0.232006
-0.13020299 0.162753 -0.231995
-0.1302 0.162825 -0.23199099
-0.130197 0.16289701 -0.231995
-0.13019501 0.162971 -0.231977
-0.130193 0.16304199 -0.23196401
-0.13019 0.163114 -0.23196401
-0.130187 0.163188 -0.231968
-0.13018399 0.16326 -0.23197
-0.130182 0.163332 -0.23196299
-0.130179 0.163404 -0.231953
-0.13017599 0.163478 -0.23196299
-0.130173 0.16355 -0.23197301
-0.130169 0.16362201 -0.231978
-0.13016599 0.163697 -0.231988
-0.130163 0.16376901 -0.23199201
-0.13016 0.16384 -0.231989
-0.13015801 0.163912 -0.231985
-0.130155 0.163984 -0.231987
-0.130152 0.164058 -0.23198099
-0.13015001 0.16413 -0.231976
-0.130146 0.164202 -0.231994
-0.130142 0.164277 -0.23201799
-0.13013799 0.164349 -0.232042
-0.130134 0.16442201 -0.232061
-0.13012999 0.16449399 -0.232077
-0.130127 0.164566 -0.232089
-0.130124 0.16463999 -0.23209301
-0.13011999 0.164713 -0.23210999
-0.130116 0.16478699 -0.232132
-0.13011301 0.164859 -0.23213799
-0.13011 0.164931 -0.23214
-0.130107 0.165003 -0.23213901
-0.130105 0.165077 -0.232133
-0.130101 0.165149 -0.232149
-0.130096 0.165222 -0.232197
-0.130091 0.165297 -0.232237
-0.130087 0.16537 -0.232254
-0.13008399 0.165442 -0.232274
-0.13008 0.165516 -0.23228
-0.130078 0.16558801 -0.23226599
-0.13007601 0.16565999 -0.23225699
-0.130073 0.16573399 -0.232261
-0.130069 0.165806 -0.232271
-0.13006601 0.16587999 -0.232291
-0.130062 0.165953 -0.23231
-0.13005701 0.16602699 -0.232342
-0.130052 0.1661 -0.232392
-0.13004801 0.16617499 -0.232418
-0.130046 0.166246 -0.232403
-0.130044 0.166318 -0.232389
-0.13003901 0.166393 -0.23241501
-0.130033 0.16646799 -0.232489
-0.13002799 0.166541 -0.232527
-0.130025 0.16661499 -0.23254199
-0.130023 0.166687 -0.23252399
-0.13001999 0.166761 -0.232528
-0.130016 0.166833 -0.23255201
-0.13001201 0.166908 -0.232563
-0.130008 0.166982 -0.232591
-0.13000201 0.16705599 -0.23265301
-0.129997 0.16712999 -0.232693
-0.12999199 0.16720501 -0.232743
-0.129988 0.16728 -0.232769
-0.129985 0.16735201 -0.23277199
-0.129981 0.16742601 -0.23278999
-0.129976 0.167501 -0.232822
-0.129972 0.167576 -0.232852
-0.129968 0.167648 -0.232887
-0.129963 0.167725 -0.232923
-0.129958 0.167798 -0.232963
-0.129954 0.167873 -0.232995
-0.129949 0.16794699 -0.23302899
-0.13047101 0.14777 -0.23479401
-0.130474 0.147855 -0.234658
-0.130475 0.147937 -0.23458
-0.130473 0.148013 -0.23455501
-0.130472 0.14809 -0.234519
-0.13046999 0.148165 -0.23449101
-0.130468 0.148241 -0.23447099
-0.130467 0.14831799 -0.234433
-0.13046899 0.14840101 -0.23432501
-0.130468 0.148479 -0.23428801
-0.130465 0.148552 -0.234282
-0.130464 0.14862999 -0.234248
-0.13046201 0.14870501 -0.234212
-0.130459 0.148779 -0.234221
-0.130456 0.14885101 -0.234231
-0.130455 0.14893 -0.234175
-0.130456 0.149012 -0.23408499
-0.130455 0.14908899 -0.234037
-0.130454 0.14916401 -0.234005
-0.13045201 0.14924 -0.23398601
-0.13045 0.149315 -0.23395599
-0.130449 0.14939199 -0.23391999
-0.130447 0.14946701 -0.233896
-0.130446 0.149543 -0.233869
-0.13044401 0.14962 -0.233835
-0.130445 0.1497 -0.233749
-0.13044401 0.149777 -0.23370899
-0.13044199 0.14985199 -0.23368099
-0.13044199 0.149929 -0.233631
-0.13044 0.150005 -0.23361
-0.130438 0.150078 -0.233592
-0.130436 0.15015601 -0.23356199
-0.130435 0.150231 -0.233518
-0.13043401 0.150308 -0.233473
-0.13043299 0.150383 -0.233447
-0.130431 0.15045901 -0.23342501
-0.13043 0.150535 -0.233373
-0.130429 0.15061 -0.23333099
-0.130427 0.150686 -0.233318
-0.13042399 0.15075999 -0.23331
-0.130422 0.150833 -0.233292
-0.13042 0.15090901 -0.233272
-0.130419 0.150984 -0.233235
-0.130418 0.151059 -0.233197
-0.130417 0.151136 -0.233155
-0.13041499 0.15121201 -0.233123
-0.130413 0.15128499 -0.233109
-0.13041 0.15135901 -0.233106
-0.130409 0.15143301 -0.23308399
-0.13040701 0.151508 -0.23306
-0.13040499 0.151581 -0.23303799
-0.130403 0.151657 -0.23302101
-0.1304 0.151731 -0.233013
-0.13039801 0.151803 -0.233005
-0.13039599 0.151878 -0.232985
-0.130394 0.151952 -0.23296
-0.130392 0.152027 -0.232932
-0.130391 0.15210199 -0.232904
-0.130389 0.15217599 -0.232884
-0.13038699 0.15225101 -0.232849
-0.13038599 0.152326 -0.232823
-0.130383 0.1524 -0.23280901
-0.130382 0.152475 -0.23278099
-0.13038 0.152549 -0.232758
-0.13037699 0.152623 -0.232752
-0.130375 0.152696 -0.232742
-0.130373 0.15277 -0.232722
-0.130371 0.152844 -0.23270699
-0.13036899 0.152917 -0.232683
-0.130367 0.15299299 -0.232669
-0.130364 0.153065 -0.23267099
-0.13036101 0.153139 -0.232667
-0.13035899 0.153212 -0.232648
-0.130357 0.153286 -0.232628
-0.130355 0.153359 -0.23260801
-0.130354 0.15343399 -0.232564
-0.130353 0.15351 -0.23254099
-0.13034999 0.15358099 -0.232539
-0.130347 0.15365499 -0.232529
-0.130346 0.15372901 -0.232501
-0.130344 0.15380201 -0.23247799
-0.13034201 0.153878 -0.232466
-0.130339 0.15394901 -0.232456
-0.130337 0.15402099 -0.232453
-0.130334 0.15409499 -0.232455
-0.13033099 0.15416899 -0.232443
-0.130329 0.15424301 -0.23242299
-0.130326 0.15431499 -0.23243301
-0.13032199 0.154385 -0.232458
-0.130318 0.154458 -0.232472
-0.130316 0.154531 -0.232462
-0.13031401 0.154605 -0.232445
-0.130311 0.154679 -0.232439
-0.130308 0.154751 -0.232439
-0.13030601 0.154825 -0.232435
-0.13030399 0.15489601 -0.23242199
-0.130302 0.15497001 -0.23240399
-0.130299 0.15504301 -0.232388
-0.13029701 0.15511701 -0.23237599
-0.130294 0.15518899 -0.232381
-0.130291 0.155261 -0.232383
-0.130289 0.15533701 -0.23236901
-0.13028701 0.15540799 -0.232353
-0.130284 0.15548199 -0.232342
-0.130282 0.15555599 -0.232338
-0.13027801 0.155626 -0.232354
-0.130275 0.155701 -0.232362
-0.130272 0.155772 -0.232355
-0.13027 0.155846 -0.232345
-0.13026699 0.155918 -0.232347
-0.130264 0.15599 -0.232345
-0.130262 0.156065 -0.23232
-0.13026001 0.156137 -0.232306
-0.13025799 0.156211 -0.23229
-0.130255 0.15628301 -0.23229299
-0.130252 0.15635701 -0.23229501
-0.13024899 0.15642899 -0.232299
-0.130246 0.156501 -0.232297
-0.130245 0.156574 -0.232264
-0.130243 0.15664899 -0.232234
-0.13023999 0.156721 -0.232246
-0.130237 0.156794 -0.23225801
-0.130234 0.156866 -0.23225699
-0.13023099 0.156938 -0.232261
-0.130228 0.157012 -0.232263
-0.130225 0.157084 -0.232261
-0.13022199 0.15715601 -0.232262
-0.130219 0.15722799 -0.23226801
-0.130216 0.1573 -0.232272
-0.13021301 0.15737399 -0.232282
-0.130208 0.157444 -0.232309
-0.13020501 0.157519 -0.23232099
-0.130202 0.157591 -0.232317
-0.1302 0.157662 -0.23230501
-0.130198 0.157736 -0.23229399
-0.13019501 0.15781 -0.23228601
-0.130192 0.157882 -0.23229
-0.130189 0.15795401 -0.232302
-0.13018601 0.15802599 -0.23230299
-0.130183 0.15809999 -0.232297
-0.130181 0.158172 -0.23228499
-0.130179 0.158245 -0.232272
-0.13017599 0.158317 -0.23226801
-0.130173 0.158389 -0.23227599
-0.13017 0.158463 -0.232282
-0.13016701 0.158535 -0.23228499
-0.130164 0.158609 -0.232281
-0.130162 0.15868101 -0.232271
-0.13015901 0.158755 -0.232255
-0.13015699 0.15882599 -0.232246
-0.130155 0.15889999 -0.232236
-0.130152 0.15897401 -0.23221999
-0.13015001 0.159045 -0.232206
-0.130147 0.159117 -0.232207
-0.130144 0.159191 -0.232209
-0.130142 0.159263 -0.232197
-0.13014001 0.159337 -0.232179
-0.130137 0.159409 -0.23217601
-0.130135 0.15948001 -0.23217399
-0.130132 0.159554 -0.23216
-0.13012999 0.15962601 -0.232145
-0.130128 0.15969899 -0.232133
-0.130125 0.159771 -0.232133
-0.13012201 0.159843 -0.232133
-0.13011999 0.159917 -0.23212799
-0.130117 0.159989 -0.232124
-0.130114 0.160063 -0.232124
-0.13011099 0.160135 -0.23212001
-0.130109 0.160207 -0.232107
-0.130107 0.16028 -0.232099
-0.13010401 0.160353 -0.232105
-0.130101 0.16042501 -0.232107
-0.130098 0.160496 -0.232106
-0.130096 0.16057 -0.232094
-0.13009299 0.160642 -0.23208199
-0.13009 0.160716 -0.232085
-0.130087 0.160788 -0.232099
-0.13008299 0.16086 -0.232109
-0.13008 0.160932 -0.23211101
-0.130078 0.16100401 -0.23210999
-0.13007399 0.16107801 -0.232118
-0.130071 0.16115101 -0.23212799
-0.130068 0.16122299 -0.232126
-0.13006601 0.161294 -0.232117
-0.130063 0.161368 -0.23212101
-0.130059 0.161441 -0.232131
-0.13005701 0.161512 -0.23212101
-0.130055 0.161586 -0.23210999
-0.130052 0.161658 -0.2321
-0.13005 0.161732 -0.23209199
-0.13004699 0.16180401 -0.23209199
-0.130045 0.16187499 -0.232085
-0.130042 0.16194899 -0.23207299
-0.13003901 0.162021 -0.232079
-0.130036 0.162093 -0.232086
-0.130033 0.162165 -0.23208401
-0.130031 0.162239 -0.23206601
-0.13002899 0.16231 -0.23204599
-0.130026 0.16238201 -0.23205701
-0.130023 0.162457 -0.232061
-0.13002101 0.16252799 -0.23204701
-0.13001899 0.1626 -0.232021
-0.130017 0.162673 -0.23199999
-0.130016 0.162744 -0.23197401
-0.130014 0.162818 -0.23194
-0.13001201 0.162889 -0.231931
-0.130008 0.162962 -0.231947
-0.130005 0.16303401 -0.231961
-0.13000201 0.16310599 -0.23196501
-0.129999 0.16317999 -0.23197
-0.129995 0.163252 -0.231978
-0.12999301 0.163324 -0.231976
-0.12999 0.163396 -0.231962
-0.129988 0.16347 -0.231947
-0.129986 0.163541 -0.231933
-0.12998401 0.16361301 -0.231925
-0.12998 0.16368701 -0.231939
-0.129976 0.16376001 -0.23197
-0.129972 0.16383199 -0.231984
-0.12997 0.163904 -0.231978
-0.129967 0.163976 -0.231971
-0.12996399 0.16405 -0.231979
-0.129961 0.164122 -0.231989
-0.12995701 0.164194 -0.23199899
-0.129954 0.164269 -0.232013
-0.12995 0.164341 -0.232024
-0.12994701 0.16441301 -0.23203599
-0.129943 0.16448499 -0.23205601
-0.12994 0.16455799 -0.232069
-0.12993699 0.16463199 -0.232071
-0.129934 0.16470399 -0.23207299
-0.12993 0.16477799 -0.23208299
-0.12992699 0.16485 -0.232097
-0.129924 0.164922 -0.23210201
-0.12992001 0.164995 -0.232116
-0.129916 0.165069 -0.232144
-0.129912 0.165142 -0.23217
-0.129907 0.165214 -0.232199
-0.129904 0.165288 -0.232209
-0.12990201 0.16536 -0.232201
-0.129898 0.16543201 -0.232209
-0.129895 0.165507 -0.232228
-0.12989099 0.16557901 -0.23224001
-0.129888 0.16565099 -0.23224001
-0.129885 0.16572499 -0.23224001
-0.12988301 0.165797 -0.23223899
-0.129879 0.16587099 -0.232255
-0.12987401 0.165944 -0.23229299
-0.12987 0.166017 -0.232319
-0.129866 0.166091 -0.232334
-0.12986299 0.166163 -0.232352
-0.129859 0.166237 -0.232364
-0.12985601 0.166309 -0.232364
-0.129853 0.166383 -0.232371
-0.129849 0.166456 -0.232393
-0.12984499 0.16653 -0.23241299
-0.129842 0.166603 -0.232429
-0.12983701 0.166677 -0.23246101
-0.129834 0.166749 -0.23247001
-0.129832 0.166823 -0.232454
-0.12982801 0.166895 -0.232466
-0.129822 0.166971 -0.23253
-0.12981699 0.167046 -0.232584
-0.129812 0.16712099 -0.23263501
-0.129807 0.16719601 -0.232667
-0.129804 0.16726799 -0.232677
-0.12980101 0.16734201 -0.23268101
-0.129797 0.16741399 -0.23269799
-0.129793 0.16748901 -0.232728
-0.129787 0.167564 -0.23278999
-0.12978099 0.16764 -0.23285399
-0.129777 0.167714 -0.232868
-0.12977301 0.167786 -0.23288199
-0.129769 0.167861 -0.232921
-0.12976401 0.167936 -0.23295701
-0.12976 0.16801 -0.232987
-0.12975501 0.16808499 -0.23301899
-0.13032401 0.147532 -0.234851
-0.13032199 0.147607 -0.234826
-0.13032 0.14768299 -0.23480999
-0.130318 0.14775901 -0.234796
-0.130317 0.147836 -0.23474801
-0.130321 0.14792401 -0.234598
-0.13032199 0.14800601 -0.23449799
-0.13032 0.148082 -0.234485
-0.130317 0.148155 -0.234473
-0.130316 0.14823399 -0.23442701
-0.130317 0.148313 -0.234359
-0.130316 0.14839201 -0.234313
-0.13031401 0.148469 -0.234275
-0.13031299 0.148546 -0.234236
-0.130312 0.148623 -0.234194
-0.130311 0.148698 -0.23416001
-0.130309 0.148774 -0.234134
-0.130307 0.148849 -0.234124
-0.13030501 0.14892501 -0.234107
-0.13030399 0.149002 -0.23405901
-0.130303 0.14907899 -0.234019
-0.1303 0.14915299 -0.23401301
-0.1303 0.149233 -0.23393901
-0.130302 0.149315 -0.233834
-0.130299 0.149389 -0.233832
-0.13029601 0.149461 -0.233836
-0.13029499 0.149538 -0.23379201
-0.13029601 0.149618 -0.233714
-0.13029499 0.14969499 -0.23367301
-0.130292 0.14976899 -0.23366299
-0.13029 0.14984301 -0.233657
-0.130289 0.14992 -0.233615
-0.130289 0.15000001 -0.233537
-0.13028701 0.15007401 -0.23352399
-0.13028499 0.150149 -0.23350599
-0.130283 0.150223 -0.233482
-0.130281 0.150296 -0.23346999
-0.130279 0.150372 -0.233447
-0.13027699 0.150447 -0.23342501
-0.130275 0.15052301 -0.23340701
-0.130274 0.150598 -0.23336101
-0.130274 0.150676 -0.23329499
-0.130273 0.15075199 -0.23326799
-0.130271 0.15082499 -0.233248
-0.13026799 0.150901 -0.233236
-0.130266 0.15097401 -0.233216
-0.130264 0.15105 -0.233191
-0.130263 0.151125 -0.23316699
-0.130261 0.151198 -0.233135
-0.13025901 0.151274 -0.23311099
-0.130257 0.15134899 -0.23309
-0.130256 0.15142301 -0.233062
-0.130255 0.1515 -0.233016
-0.130253 0.151573 -0.232996
-0.13025001 0.151649 -0.232988
-0.13024899 0.151722 -0.232967
-0.130247 0.151796 -0.23294701
-0.130244 0.15187 -0.232933
-0.130242 0.15194499 -0.232915
-0.13023999 0.15201899 -0.23289999
-0.130238 0.15209199 -0.23288
-0.130237 0.15216801 -0.23284601
-0.130235 0.152243 -0.23282599
-0.13023201 0.15231501 -0.23283499
-0.130229 0.15238699 -0.23283701
-0.130227 0.15246101 -0.23281901
-0.130225 0.152536 -0.23278099
-0.130224 0.152613 -0.232742
-0.13022199 0.152687 -0.232722
-0.130219 0.15276 -0.23272
-0.130217 0.152832 -0.23270801
-0.130215 0.152908 -0.232685
-0.13021301 0.152981 -0.232667
-0.130211 0.153055 -0.232655
-0.130209 0.153128 -0.23263501
-0.130207 0.15320399 -0.23260801
-0.13020501 0.15327699 -0.23259
-0.13020299 0.15335099 -0.232582
-0.130201 0.15342499 -0.232566
-0.130199 0.15349799 -0.232531
-0.130197 0.15357099 -0.232511
-0.13019399 0.15364499 -0.232513
-0.130191 0.15371799 -0.232517
-0.130189 0.153791 -0.232508
-0.130187 0.15386499 -0.232494
-0.13018399 0.153937 -0.23248801
-0.130182 0.15401 -0.232472
-0.13018 0.154084 -0.232453
-0.130178 0.154158 -0.232443
-0.13017499 0.154232 -0.232437
-0.130173 0.154303 -0.232427
-0.13017 0.154377 -0.23242
-0.13016701 0.154451 -0.23242
-0.130164 0.154523 -0.232416
-0.130162 0.154597 -0.232408
-0.13015901 0.154669 -0.232409
-0.130156 0.154741 -0.23241299
-0.130153 0.154815 -0.23241501
-0.130151 0.15488601 -0.232403
-0.13014901 0.154962 -0.23238599
-0.130147 0.15503401 -0.232366
-0.130145 0.15510701 -0.23235001
-0.130142 0.15518101 -0.232342
-0.13013899 0.15525299 -0.232337
-0.130137 0.15532701 -0.232335
-0.130134 0.15539999 -0.23232301
-0.130132 0.15547401 -0.23230299
-0.13012999 0.15554599 -0.232302
-0.130126 0.155618 -0.23231199
-0.130123 0.15569 -0.23232
-0.13011999 0.155764 -0.232318
-0.130119 0.155837 -0.232279
-0.130118 0.155912 -0.232237
-0.130116 0.155984 -0.232233
-0.13011301 0.156058 -0.23222999
-0.13011099 0.156132 -0.232214
-0.130108 0.156203 -0.232206
-0.130105 0.156275 -0.232208
-0.13010301 0.156349 -0.232205
-0.1301 0.15642101 -0.232199
-0.130097 0.156495 -0.232199
-0.13009401 0.156565 -0.232215
-0.13009 0.15663999 -0.232226
-0.130087 0.156712 -0.232232
-0.13008399 0.156784 -0.232232
-0.130081 0.156856 -0.232232
-0.130078 0.156928 -0.232243
-0.13007399 0.15700001 -0.232263
-0.130071 0.15707199 -0.232271
-0.130068 0.15714601 -0.232261
-0.13006601 0.15721799 -0.23225001
-0.130063 0.15729199 -0.23225001
-0.13006 0.157364 -0.23225001
-0.13005701 0.157436 -0.23225699
-0.130054 0.157508 -0.232271
-0.130051 0.15758 -0.23227499
-0.13004801 0.157654 -0.232269
-0.130046 0.157728 -0.232262
-0.130043 0.1578 -0.232252
-0.130041 0.157873 -0.23224001
-0.13003799 0.15794501 -0.232242
-0.130035 0.15801799 -0.232251
-0.130031 0.15809 -0.23225699
-0.13002799 0.15816399 -0.23225901
-0.130026 0.158236 -0.232255
-0.130023 0.158309 -0.232246
-0.13002101 0.158381 -0.232232
-0.130018 0.158455 -0.232228
-0.130016 0.158527 -0.232226
-0.130013 0.1586 -0.23221301
-0.13001101 0.158672 -0.23221099
-0.130008 0.15874401 -0.232217
-0.130005 0.15881801 -0.23221099
-0.13000201 0.15888999 -0.23221
-0.129999 0.158962 -0.23221
-0.129998 0.159035 -0.23218
-0.129997 0.159109 -0.23213901
-0.129995 0.159182 -0.232125
-0.12999099 0.159255 -0.232151
-0.129987 0.159327 -0.23217499
-0.12998401 0.159399 -0.23217601
-0.12998199 0.15947101 -0.23215599
-0.12998 0.15954401 -0.23213799
-0.129978 0.15961599 -0.232124
-0.12997501 0.15968999 -0.23211101
-0.12997299 0.15976299 -0.232097
-0.12997 0.159835 -0.23209301
-0.129968 0.159907 -0.232087
-0.12996501 0.159981 -0.23208401
-0.129962 0.160053 -0.232098
-0.129958 0.160125 -0.232106
-0.12995499 0.160197 -0.232109
-0.129953 0.160271 -0.232099
-0.129951 0.16034301 -0.23208299
-0.12994801 0.16041499 -0.232085
-0.129945 0.16048899 -0.23208
-0.129943 0.16056 -0.232062
-0.129941 0.160632 -0.232062
-0.12993699 0.160704 -0.232078
-0.129934 0.160779 -0.232085
-0.129931 0.16085 -0.232081
-0.12992901 0.16092201 -0.23207299
-0.12992699 0.160996 -0.23205499
-0.129924 0.16106801 -0.23204599
-0.129921 0.16114201 -0.23205601
-0.129917 0.16121399 -0.23207
-0.129914 0.161286 -0.232072
-0.12991101 0.161358 -0.23207501
-0.12990899 0.16143 -0.232071
-0.129906 0.161504 -0.232061
-0.129904 0.161575 -0.23204599
-0.12990201 0.161649 -0.23203599
-0.129899 0.16172101 -0.23203599
-0.129896 0.16179299 -0.23203599
-0.129893 0.16186699 -0.232031
-0.12989099 0.161938 -0.232015
-0.129889 0.16201 -0.232005
-0.129886 0.162084 -0.232015
-0.12988199 0.162156 -0.23202001
-0.12988 0.162228 -0.232014
-0.129878 0.16230001 -0.232004
-0.129875 0.16237199 -0.231995
-0.12987199 0.16244601 -0.23199099
-0.129869 0.16251799 -0.231995
-0.129867 0.16259199 -0.23199099
-0.12986501 0.162663 -0.231978
-0.129862 0.162735 -0.231968
-0.129859 0.162807 -0.23197
-0.12985601 0.162881 -0.231966
-0.12985501 0.16295201 -0.231943
-0.129853 0.16302399 -0.231923
-0.12985 0.163096 -0.231933
-0.12984601 0.16316999 -0.231949
-0.129843 0.163242 -0.23194399
-0.129841 0.163314 -0.23193
-0.129839 0.163388 -0.231922
-0.12983599 0.16346 -0.23191901
-0.129833 0.163532 -0.231923
-0.12983 0.16360401 -0.231933
-0.12982599 0.16367801 -0.23194499
-0.129823 0.16374999 -0.231948
-0.12982 0.163822 -0.23194399
-0.12981699 0.163894 -0.231948
-0.129814 0.163966 -0.23195399
-0.129811 0.16404 -0.23196299
-0.12980799 0.164112 -0.231967
-0.129805 0.164184 -0.231971
-0.12980101 0.164259 -0.23198301
-0.129798 0.164331 -0.23199201
-0.129795 0.16440301 -0.231994
-0.129792 0.16447499 -0.231998
-0.12978899 0.164547 -0.232002
-0.129786 0.164621 -0.232015
-0.12978201 0.164693 -0.232031
-0.129779 0.164768 -0.23203699
-0.129776 0.16484 -0.232043
-0.12977199 0.164912 -0.232058
-0.129768 0.164984 -0.232078
-0.129765 0.165059 -0.23209199
-0.12976199 0.165131 -0.232094
-0.129759 0.16520301 -0.232095
-0.129756 0.16527499 -0.232099
-0.129752 0.16534901 -0.232117
-0.129748 0.16542201 -0.232143
-0.12974399 0.16549601 -0.23215599
-0.129741 0.16556799 -0.232168
-0.129737 0.16564 -0.232186
-0.12973399 0.16571499 -0.2322
-0.12973 0.165787 -0.232217
-0.12972701 0.165861 -0.232223
-0.129723 0.165933 -0.232237
-0.12972 0.166006 -0.23224699
-0.12971701 0.16608 -0.23225001
-0.129714 0.166152 -0.23225801
-0.12971 0.166226 -0.23227599
-0.129706 0.166299 -0.2323
-0.129702 0.166371 -0.23232201
-0.12969799 0.166446 -0.232353
-0.129693 0.16652 -0.232379
-0.12969001 0.166592 -0.232383
-0.129687 0.166664 -0.232391
-0.129684 0.166738 -0.232398
-0.12967999 0.166813 -0.232412
-0.129677 0.166885 -0.23243
-0.129673 0.166959 -0.232444
-0.129668 0.167032 -0.23248599
-0.12966201 0.167108 -0.232559
-0.129658 0.167182 -0.23257899
-0.129655 0.167254 -0.232583
-0.129651 0.167329 -0.23259699
-0.129647 0.167403 -0.232621
-0.12964299 0.167476 -0.232656
-0.129638 0.167551 -0.23268799
-0.12963299 0.167625 -0.232728
-0.129628 0.16769999 -0.232768
-0.129623 0.16777501 -0.23282
-0.129618 0.16785 -0.232869
-0.129614 0.167924 -0.232875
-0.129611 0.167997 -0.232889
-0.129605 0.168074 -0.23295499
-0.12959801 0.16814999 -0.23303699
-0.129593 0.16822501 -0.233079
-0.130265 0.147531 -0.23480099
-0.130264 0.147608 -0.23477601
-0.130261 0.147682 -0.23477601
-0.130257 0.147755 -0.234786
-0.130255 0.14782999 -0.234772
-0.130261 0.14792199 -0.23457199
-0.130261 0.148002 -0.23449799
-0.13025901 0.14807799 -0.234487
-0.130256 0.14815199 -0.234483
-0.130254 0.14822701 -0.234459
-0.130254 0.14830799 -0.234391
-0.130253 0.148385 -0.234347
-0.130252 0.148462 -0.23430599
-0.130252 0.14854001 -0.234244
-0.13025101 0.148619 -0.234198
-0.13025001 0.14869399 -0.234166
-0.13025001 0.148773 -0.23409399
-0.130248 0.148848 -0.23407599
-0.130245 0.14892299 -0.234083
-0.130242 0.148996 -0.234073
-0.130243 0.149077 -0.234001
-0.13024101 0.149152 -0.233963
-0.13023999 0.149229 -0.233924
-0.130242 0.149312 -0.233816
-0.13023899 0.149386 -0.233812
-0.130236 0.14945801 -0.23382001
-0.130234 0.14953201 -0.233806
-0.13023201 0.149608 -0.233785
-0.13022999 0.149683 -0.23377299
-0.13023099 0.149763 -0.233687
