-0.0998138 0.151907 0.983342 0.0256956
-0.101502 0.155779 0.982563 0.0270411
-0.10356 0.174469 0.979202 0.0288456
-0.108377 0.178595 0.977936 0.0350421
-0.10794 0.176097 0.978437 0.0342825
-0.108921 0.186899 0.976322 0.0357771
-0.109908 0.190181 0.975578 0.0375602
-0.106455 0.196926 0.974622 0.0397628
-0.103077 0.199042 0.974555 0.0370658
-0.105396 0.213695 0.971198 0.0389323
-0.108169 0.227678 0.96771 0.0450541
-0.11675 0.239207 0.963924 0.0495711
-0.121384 0.244863 0.961929 0.0500859
-0.124186 0.264945 0.956233 0.0534115
-0.126475 0.263872 0.95623 0.053964
-0.128694 0.269567 0.954343 0.0511785
-0.127353 0.282186 0.950869 0.0495662
-0.126882 0.282446 0.950855 0.0483813
-0.127314 0.294595 0.947103 0.0469322
-0.127163 0.292072 0.947905 0.0454975
-0.123521 0.28952 0.949169 0.0416192
-0.12108 0.285434 0.950719 0.0375969
-0.117678 0.271983 0.95508 0.0346529
-0.113783 0.276899 0.954139 0.0318898
-0.112674 0.267646 0.956906 0.02992
-0.109498 0.266547 0.957582 0.0299752
-0.109069 0.247391 0.962757 0.0271892
-0.106409 0.244064 0.963903 0.0177684
-0.105025 0.23719 0.965769 0.0119407
-0.106303 0.240418 0.964831 0.00792443
-0.108802 0.229317 0.967252 0.00400191
-0.107772 0.237235 0.965456 0.00390945
-0.107082 0.231018 0.967039 0.00318713
-0.104473 0.220027 0.969883 0.00243958
-0.104648 0.218969 0.970104 0.00407841
-0.10447 0.210811 0.971928 0.00243243
-0.100933 0.209812 0.972518 0.00440687
-0.100956 0.223576 0.969444 0.0122886
-0.0984467 0.243172 0.964974 0.0129659
-0.140184 -0.365911 0.920031 0.0157232
-0.143121 -0.368451 0.918564 0.0164018
-0.14397 -0.372845 0.916657 0.0204744
-0.144929 -0.370972 0.917265 0.0217163
-0.144222 -0.380102 0.913631 0.0232337
-0.144315 -0.381041 0.913226 0.028596
-0.145559 -0.362926 0.920379 0.0309714
-0.146221 -0.35883 0.921879 0.0300259
-0.13914 -0.364768 0.920643 0.0193216
-0.126701 -0.345687 0.929757 0.00625111
-0.126583 -0.335779 0.933397 0.0111015
-0.126815 -0.333935 0.934027 0.0146869
-0.125479 -0.341094 0.931617 0.0184349
-0.133371 -0.355811 0.924992 0.028898
-0.129765 -0.355354 0.925681 0.0279554
-0.129145 -0.343544 0.930214 0.0272869
-0.125968 -0.334142 0.934067 0.0233362
-0.12194 -0.335642 0.934064 0.0190575
-0.113357 -0.335714 0.935118 0.00551799
-0.112212 -0.336538 0.93496 0.000524449
-0.111413 -0.35062 0.929867 0
-0.11365 -0.338271 0.934161 0
-0.114982 -0.327232 0.937922 0.00157314
-0.116023 -0.337597 0.934113 0
-0.117466 -0.328806 0.937064 0
-0.117061 -0.334687 0.93503 0
-0.118238 -0.32468 0.938404 0
-0.121053 -0.32292 0.938653 0
-0.119834 -0.326619 0.937529 0
-0.115889 -0.337521 0.934157 0
-0.118105 -0.33624 0.934342 0
-0.119088 -0.335639 0.934433 0
-0.121611 -0.339533 0.932699 0
-0.120585 -0.332078 0.935512 0
-0.117994 -0.324602 0.938462 0
-0.110273 -0.32453 0.939425 0
-0.110943 -0.323958 0.939544 0
-0.112898 -0.306111 0.945278 0
-0.108989 -0.302449 0.946914 0
-0.111135 -0.291451 0.950108 0
-0.114801 -0.28583 0.951379 0
-0.11436 -0.274304 0.954819 0
-0.111262 -0.277622 0.954226 0.000728159
-0.11312 -0.274995 0.954768 0
-0.111962 -0.273165 0.955429 0
-0.10658 -0.267844 0.957549 0
-0.105283 -0.263297 0.958953 0
-0.102458 -0.264963 0.9588 0
-0.103142 -0.257172 0.960846 0
-0.105076 -0.250709 0.962343 0
-0.110493 -0.251369 0.961564 0
-0.11558 -0.247195 0.962048 0
-0.120954 -0.246411 0.961588 0.00158077
-0.118678 -0.240331 0.963409 0.00184373
-0.117065 -0.247679 0.961744 0.00442686
-0.115863 -0.24736 0.961971 0.00201825
-0.102991 -0.250032 0.962744 0
-0.0969043 -0.251746 0.962929 0
-0.106107 -0.241452 0.964594 0
-0.103564 -0.244281 0.964158 0
-0.113071 -0.234925 0.965415 0
-0.113764 -0.238791 0.964384 0
-0.105046 -0.249009 0.962787 0
-0.103271 -0.253278 0.961866 0
-0.104353 -0.251477 0.962221 0
-0.0961992 -0.257917 0.961366 0
-0.0922777 -0.259509 0.961322 0
-0.0863582 -0.256994 0.962547 0
-0.0784237 -0.254934 0.963773 0
-0.0761426 -0.245729 0.966344 0
-0.0707489 -0.246688 0.966509 0
-0.0667092 -0.24442 0.967372 0
-0.060869 -0.234327 0.97025 0
-0.064319 -0.223263 0.972634 0
-0.0670455 -0.219688 0.973264 0
-0.0615902 -0.227371 0.971859 0
-0.0654143 -0.227146 0.971661 0
-0.0659659 -0.218896 0.973516 0
-0.0676815 -0.219154 0.97334 0
-0.0717244 -0.216821 0.973573 0
-0.0720617 -0.218445 0.973185 0
-0.0799652 -0.205582 0.975367 0
-0.0878227 -0.192491 0.977361 0
-0.0963108 -0.179806 0.978976 0
-0.0994105 -0.171448 0.980165 0
-0.0976712 -0.16074 0.982152 0
-0.0971723 -0.15399 0.983283 0
-0.103581 -0.144627 0.98405 0
-0.108969 -0.128463 0.985709 0
-0.11822 -0.113344 0.986497 0.00407749
-0.130039 -0.100746 0.986377 0.0227671
-0.14177 -0.0893028 0.985863 0.0436084
-0.150278 -0.082782 0.985172 0.060223
-0.152235 -0.0891226 0.984318 0.0612958
-0.148182 -0.087399 0.985091 0.0559122
-0.138566 -0.0893995 0.98631 0.0473111
-0.132705 -0.0910997 0.98696 0.041309
-0.124762 -0.0906214 0.988039 0.0389593
-0.114094 -0.0934822 0.989062 0.0284134
-0.110312 -0.0928612 0.989549 0.0282684
-0.119543 -0.0811848 0.989504 0.0386792
-0.131488 -0.0783713 0.988215 0.0512939
-0.137446 -0.0718988 0.987896 0.0625251
-0.13787 -0.0676524 0.988137 0.0658564
-0.137465 -0.0756738 0.987612 0.0684732
-0.139071 -0.0747086 0.98746 0.0655595
-0.140851 -0.0724345 0.987377 0.0652618
-0.131721 -0.0807726 0.987991 0.0512806
-0.125912 -0.0805536 0.988766 0.0388986
-0.114826 -0.0892367 0.989369 0.0206247
-0.110028 -0.0903313 0.989815 0.00506304
-0.105608 -0.0883734 0.990473 0
-0.102752 -0.0855352 0.991023 0.00110794
-0.0931388 -0.0903055 0.991549 0
-0.0864093 -0.0939301 0.991822 0
-0.0760573 -0.105283 0.99153 0
-0.0699143 -0.0970515 0.992821 0
-0.0720035 -0.0881127 0.993505 0
-0.0731823 -0.0759779 0.99442 0
-0.0750777 -0.0756253 0.994306 0
-0.075864 -0.0703897 0.994631 0
-0.0818117 -0.0675631 0.994355 0
-0.0842989 -0.0597843 0.994645 0
-0.0976701 -0.0486227 0.99403 0
-0.0978119 -0.0507346 0.993911 0
-0.0915478 -0.064741 0.993694 0
-0.0892622 -0.0649511 0.993888 0
-0.0860034 -0.0739645 0.993545 0
-0.0868363 -0.0761096 0.993311 0
-0.0900248 -0.0690971 0.99354 0
-0.0918169 -0.0704426 0.993281 0
-0.0961646 -0.0652491 0.993225 0
-0.0963722 -0.0661286 0.993146 0
-0.105007 -0.0660556 0.992275 0
-0.107232 -0.0603532 0.992401 0
-0.104996 -0.0638497 0.992421 0
-0.101669 -0.0625843 0.992848 0
-0.0915902 -0.0736964 0.993066 0
-0.0765854 -0.0778673 0.994018 0
-0.0792661 -0.0704079 0.994364 0
-0.0754369 -0.0721504 0.994537 0
-0.0722927 -0.0681167 0.995055 0
-0.0701437 -0.0671427 0.995275 0
-0.0695304 -0.0554093 0.99604 0
-0.0675015 -0.0516743 0.99638 0
-0.0733112 -0.0498909 0.99606 0
-0.0776252 -0.04488 0.995972 0.000669231
-0.0783427 -0.0503858 0.995652 0
-0.081999 -0.0418185 0.995755 0
-0.0862199 -0.0406293 0.995447 0
-0.0882305 -0.0502511 0.994832 0
-0.0954619 -0.0459361 0.994373 0
-0.0982132 -0.0534316 0.99373 0
-0.101496 -0.0429513 0.993908 0
-0.107673 -0.0359544 0.993536 0
-0.109228 -0.0415493 0.993148 0
-0.115849 -0.0311355 0.992779 0.00947392
-0.117767 -0.0417848 0.992162 0.0182925
-0.119947 -0.0277069 0.992394 0.0236968
-0.121759 -0.0217963 0.99232 0.0252776
-0.119847 -0.0306046 0.992321 0.0186103
-0.109702 -0.0352023 0.993341 0.0068848
-0.0998504 -0.052699 0.993606 0
-0.0899496 -0.0489331 0.994744 0
-0.0835268 -0.0508716 0.995206 0
-0.0748156 -0.0626818 0.995225 0
-0.0764726 -0.0637002 0.995035 0
-0.0775766 -0.0690829 0.99459 0
-0.0808776 -0.0628753 0.994739 0
-0.0867051 -0.0565744 0.994626 0
-0.0931426 -0.0531214 0.994235 0
-0.100509 -0.0464349 0.993852 0
-0.108721 -0.0462666 0.992995 0
-0.110609 -0.0422123 0.992967 0
-0.116403 -0.0373556 0.992499 0
-0.114562 -0.0339696 0.992835 0
-0.112557 -0.0335273 0.993079 0
-0.119501 -0.0374214 0.992129 0
-0.121968 -0.0315853 0.992031 0.000497657
-0.12142 -0.0338788 0.992023 0
-0.121183 -0.0229741 0.992364 0
-0.125515 -0.0163445 0.991957 0
-0.133796 -0.0168168 0.990866 0.0018843
-0.135736 -0.0108096 0.990686 0.0037861
-0.139521 -0.00541997 0.990204 0.0128872
-0.138256 0.00756964 0.990368 0.016755
-0.137445 0.0110132 0.990448 0.0180836
-0.13652 0.00866245 0.990599 0.0149467
-0.135789 0.0142347 0.990636 0.020574
-0.145927 0.0218354 0.989054 0.0316185
-0.14855 0.0222844 0.988654 0.0324057
-0.152867 0.0309918 0.987761 0.0345437
-0.152062 0.0196755 0.988175 0.0329576
-0.153547 0.0221443 0.987893 0.0355374
-0.157894 0.0315899 0.986951 0.0390608
-0.163893 0.0383495 0.985732 0.0418587
-0.161748 0.0451823 0.985797 0.0422734
-0.160766 0.0427613 0.986066 0.0451457
-0.15163 0.0352591 0.987808 0.0443475
-0.149071 0.0334361 0.988261 0.0480586
-0.144882 0.0331943 0.988892 0.0494475
-0.140494 0.037263 0.98938 0.0492486
-0.13937 0.0426577 0.989321 0.0486633
-0.130826 0.0365898 0.99073 0.0420076
-0.121109 0.0324593 0.992108 0.0346159
-0.109426 0.030547 0.993526 0.0245205
-0.0946199 0.0344243 0.994918 0.0137222
-0.0844559 0.0335312 0.995863 0.00569589
-0.0800833 0.0349672 0.996175 0
-0.0776395 0.0283532 0.996578 0
-0.0749459 0.0324507 0.996659 0
-0.0745275 0.0381888 0.996487 0
-0.0760402 0.0490444 0.995898 0
-0.0802493 0.0545816 0.995279 0
-0.0837363 0.0545065 0.994996 0
-0.0932518 0.0670814 0.99338 0
-0.0945085 0.0701102 0.993052 0
-0.0918071 0.0824718 0.992356 0
-0.102769 0.0902659 0.990601 0
-0.110093 0.0950245 0.989368 0.00384165
-0.112322 0.102426 0.988379 0.0106789
-0.10954 0.108714 0.988019 0.0158823
-0.101972 0.105822 0.989143 0.0131317
-0.103842 0.110637 0.988421 0.015201
-0.105559 0.101717 0.989197 0.0128991
-0.101698 0.108958 0.988831 0.0109886
-0.0936597 0.104833 0.99007 0.00159886
-0.0836922 0.103512 0.991101 0
-0.0798114 0.0917024 0.992583 0
-0.0857274 0.0978586 0.991501 0
-0.0886395 0.0983696 0.991194 0
-0.0792029 0.0969158 0.992136 0
-0.075897 0.101133 0.991974 0
-0.0688294 0.0999275 0.992611 0
-0.0725245 0.107181 0.991591 0
-0.0836015 0.123987 0.988756 0.00893369
-0.0890846 0.133319 0.987061 0.0228997
-0.0953357 0.154881 0.983322 0.030041
-0.0967061 0.16468 0.981595 0.0351332
-0.0940889 0.167418 0.981386 0.0361842
-0.0929536 0.166078 0.981722 0.0356231
-0.0893676 0.178091 0.979947 0.0375753
-0.094724 0.182749 0.978586 0.0403461
-0.0908848 0.182163 0.979059 0.0403661
-0.0942313 0.178023 0.979504 0.044208
-0.0906401 0.178732 0.979714 0.0403317
-0.0935149 0.193687 0.976596 0.0398694
-0.096727 0.206056 0.973748 0.039801
-0.0993071 0.222696 0.969817 0.0434115
-0.105698 0.226564 0.968244 0.0468896
-0.107876 0.236455 0.965635 0.0529442
-0.112231 0.238991 0.964514 0.0518723
-0.113442 0.247341 0.962265 0.0512368
-0.114223 0.252261 0.960894 0.0473212
-0.115783 0.261669 0.958188 0.0450398
-0.118916 0.270537 0.955337 0.0469115
-0.121468 0.27566 0.95355 0.0435087
-0.124127 0.285799 0.950216 0.041016
-0.126189 0.291277 0.948279 0.0432147
-0.124135 0.292206 0.948265 0.0404655
-0.122408 0.286856 0.950121 0.0423123
-0.118892 0.290622 0.949423 0.040699
-0.11546 0.291784 0.94949 0.0348294
-0.111674 0.286633 0.95151 0.0324765
-0.106931 0.274116 0.955733 0.0274023
-0.103405 0.255389 0.961293 0.0197104
-0.101357 0.241726 0.965036 0.0116413
-0.0993786 0.233258 0.967323 0.00998046
-0.0992386 0.227833 0.96863 0.00500397
-0.104194 0.233699 0.96671 0.00543964
-0.104833 0.24586 0.96362 0.00448325
-0.103783 0.236765 0.966008 0
-0.102446 0.227427 0.968391 0
-0.103083 0.221963 0.969591 0
-0.0997969 0.2313 0.96775 6.12659e-05
-0.0962935 0.22691 0.969144 0.00275316
-0.0946041 0.244238 0.96509 0.00643616
-0.0940911 0.241709 0.965776 0.00770283
-0.0999551 0.275822 0.955997 0.0163732
-0.129445 -0.363658 0.922495 0.00206971
-0.136194 -0.375732 0.916666 0.0166535
-0.137346 -0.381296 0.914193 0.0127363
-0.136631 -0.361568 0.92228 0.00898909
-0.13422 -0.371549 0.91866 0.0178386
-0.13757 -0.373695 0.917293 0.0260003
-0.144679 -0.37094 0.917317 0.0361618
-0.144105 -0.363865 0.920237 0.0311192
-0.13893 -0.347021 0.92751 0.0257674
-0.127423 -0.347793 0.928872 0.0113519
-0.121447 -0.345477 0.930535 0.00665755
-0.120559 -0.345933 0.930482 0.0163459
-0.124378 -0.341293 0.931692 0.0237627
-0.132617 -0.355406 0.925256 0.0327714
-0.128168 -0.353613 0.926569 0.0254617
-0.124113 -0.351844 0.927794 0.024035
-0.128528 -0.340737 0.931332 0.0272564
-0.122584 -0.34876 0.929161 0.0180732
-0.111931 -0.357169 0.927309 0.00920642
-0.10426 -0.348985 0.931311 0
-0.102477 -0.354298 0.929501 0
-0.103728 -0.345699 0.932595 0
-0.110585 -0.341428 0.93338 0.000544568
-0.113807 -0.334639 0.935449 0.00283741
-0.120615 -0.334858 0.934517 0.00939397
-0.119979 -0.335379 0.934412 0.00523918
-0.117644 -0.338891 0.933441 0.00114431
-0.117864 -0.327123 0.937602 0
-0.116729 -0.325722 0.938232 0
-0.114368 -0.338431 0.934015 0
-0.117487 -0.345569 0.93101 0
-0.117692 -0.344474 0.93139 0
-0.117114 -0.336884 0.934234 0
-0.118465 -0.331585 0.935958 0
-0.115002 -0.324554 0.93885 0
-0.111852 -0.324779 0.939153 0
-0.115839 -0.312392 0.942864 0
-0.11008 -0.304714 0.946061 0
-0.113081 -0.303846 0.945986 0
-0.113171 -0.291845 0.949747 0
-0.119578 -0.287843 0.950183 0
-0.117488 -0.279311 0.952986 0
-0.115093 -0.285192 0.951535 0
-0.111904 -0.279611 0.95357 0
-0.111968 -0.27267 0.95557 0
-0.113767 -0.262192 0.958286 0.00280432
-0.105372 -0.262143 0.959259 0
-0.0927399 -0.275003 0.95696 0
-0.0928336 -0.268715 0.958736 0
-0.0875655 -0.264845 0.960307 0
-0.0895106 -0.265496 0.959948 0
-0.0987035 -0.252169 0.962636 0
-0.101516 -0.247852 0.963465 0
-0.104824 -0.2416 0.964697 0.00162533
-0.102463 -0.244177 0.964302 0
-0.0894138 -0.253536 0.963185 0
-0.0822985 -0.248699 0.965078 0
-0.0873308 -0.248469 0.964695 0
-0.0920653 -0.242123 0.965868 0
-0.0944892 -0.243677 0.965243 0
-0.0956738 -0.24351 0.965168 0
-0.0992858 -0.243956 0.96469 0
-0.0933885 -0.252817 0.962997 0
-0.0981745 -0.247266 0.963961 0
-0.101242 -0.241979 0.964985 0
-0.0995317 -0.241341 0.965323 0
-0.104743 -0.241411 0.964754 0
-0.0971147 -0.245434 0.964537 0
-0.0845651 -0.245694 0.965652 0
-0.0838192 -0.240549 0.967011 0
-0.0826407 -0.230497 0.969558 0
-0.0770956 -0.235097 0.96891 0
-0.073749 -0.227746 0.970924 0
-0.0763235 -0.221563 0.972155 0
-0.0815227 -0.212464 0.973762 0
-0.0772177 -0.217692 0.972958 0
-0.0707008 -0.222319 0.972407 0
-0.0669051 -0.222238 0.972694 0
-0.0609292 -0.224039 0.972674 0
-0.0709211 -0.2135 0.974365 0
-0.0782321 -0.217857 0.97284 0
-0.0774393 -0.203743 0.975957 0
-0.0798232 -0.200917 0.976351 0
-0.08961 -0.186352 0.978388 0
-0.0968587 -0.175623 0.979681 0
-0.0974523 -0.16832 0.980903 0
-0.0858793 -0.163213 0.982846 0
-0.0919687 -0.143348 0.98539 0
-0.0964123 -0.132084 0.986539 0
-0.110159 -0.116872 0.987019 0.0145034
-0.127639 -0.103715 0.986383 0.0357128
-0.13931 -0.0916987 0.985994 0.0524751
-0.14991 -0.0853509 0.985009 0.0603359
-0.148099 -0.0920651 0.984678 0.062265
-0.144137 -0.091104 0.985355 0.0581133
-0.133791 -0.0917688 0.986751 0.0485229
-0.125454 -0.0965446 0.987391 0.0385611
-0.113788 -0.100539 0.988405 0.0245711
-0.124132 -0.100913 0.987121 0.0334036
-0.133379 -0.098157 0.986192 0.0428093
-0.145173 -0.0809512 0.986089 0.0589352
-0.158452 -0.0710781 0.984805 0.0730699
-0.161854 -0.0661159 0.984597 0.0856374
-0.16302 -0.0597239 0.984813 0.0913904
-0.164558 -0.0665403 0.98412 0.0850091
-0.152395 -0.0696101 0.985865 0.0738186
-0.140778 -0.0679335 0.987708 0.0590563
-0.125299 -0.0842515 0.988535 0.0448929
-0.116351 -0.0870995 0.989382 0.0321991
-0.107559 -0.0967603 0.989479 0.0203268
-0.0977388 -0.102273 0.989943 0.00456166
-0.0927046 -0.0984731 0.990812 0
-0.089223 -0.10616 0.990338 0
-0.0829342 -0.105332 0.990973 0
-0.0790807 -0.102782 0.991555 0
-0.0779839 -0.102703 0.99165 0
-0.0710578 -0.0945717 0.992979 0
-0.068512 -0.0941443 0.993198 0
-0.066881 -0.0815658 0.994421 0
-0.0673562 -0.0749913 0.994907 0
-0.0688402 -0.0752732 0.994784 0
-0.0753586 -0.0690088 0.994766 0
-0.0813941 -0.0644333 0.994597 0
-0.0826686 -0.05854 0.994856 0
-0.0835317 -0.0567556 0.994888 0
-0.0753131 -0.0746221 0.994364 0
-0.0738495 -0.0780029 0.994214 0
-0.0666461 -0.088621 0.993833 0
-0.0656324 -0.090554 0.993726 0
-0.0718242 -0.0816758 0.994068 0
-0.0755733 -0.0900667 0.993064 0
-0.0841235 -0.0826222 0.993024 0
-0.0875778 -0.0851114 0.992515 0
-0.0911695 -0.074763 0.993025 0
-0.0929145 -0.0721802 0.993054 0
-0.0922147 -0.0704936 0.993241 0
-0.0860943 -0.0745739 0.993492 0
-0.0789082 -0.0808662 0.993597 0
-0.0716807 -0.0773176 0.994426 0
-0.0680739 -0.0762402 0.994763 0
-0.0709378 -0.0754717 0.994622 0
-0.0713484 -0.0683771 0.995105 0
-0.072059 -0.0715467 0.994831 0
-0.0707237 -0.0531337 0.99608 0
-0.0756614 -0.0453619 0.996101 0
-0.0794568 -0.0378862 0.996118 0.00251257
-0.0848642 -0.031619 0.995891 0.00790914
-0.091019 -0.0375261 0.995142 0.0129677
-0.0870245 -0.0332476 0.995651 0.00657917
-0.0830504 -0.0400218 0.995741 0
-0.0855718 -0.0387008 0.99558 0
-0.0933822 -0.0354597 0.994999 0
-0.0997958 -0.0411505 0.994157 0
-0.109548 -0.0353113 0.993354 0
-0.115557 -0.0296288 0.992859 0.00568164
-0.123589 -0.0325101 0.991801 0.0121681
-0.126945 -0.0239177 0.991621 0.0185707
-0.123522 -0.0371378 0.991647 0.0198034
-0.125758 -0.025248 0.99174 0.0235561
-0.125606 -0.0228432 0.991817 0.0292232
-0.116682 -0.0248013 0.99286 0.0242447
-0.107929 -0.0260652 0.993817 0.012223
-0.0962551 -0.0373301 0.994656 0.000253979
-0.0904194 -0.0451648 0.994879 0
-0.0829111 -0.0536076 0.995114 0
-0.0760034 -0.0574797 0.995449 0
-0.0740512 -0.0566495 0.995644 0
-0.0723313 -0.0637704 0.99534 0
-0.0737091 -0.0640057 0.995224 0
-0.0755998 -0.0615728 0.995235 0
-0.0816616 -0.0528518 0.995258 0
-0.0897622 -0.047445 0.994833 0
-0.0993359 -0.0460595 0.993987 0
-0.103911 -0.0420578 0.993697 0
-0.10585 -0.0427531 0.993463 0
-0.110065 -0.0347113 0.993318 0
-0.10917 -0.0369352 0.993337 0
-0.113587 -0.0402354 0.992713 0
-0.120594 -0.0347472 0.992094 0
-0.119206 -0.0417613 0.991991 0
-0.117886 -0.0250045 0.992712 0
-0.120071 -0.0206805 0.99255 0
-0.126714 -0.0154656 0.991819 0
-0.134401 -0.00487214 0.990915 0.00135296
-0.139323 -0.00493221 0.990235 0.0038417
-0.147771 0.00527719 0.989007 0.0136379
-0.14971 0.0181229 0.988564 0.0204122
-0.150076 0.0126058 0.988594 0.0273735
-0.153594 0.0219157 0.987891 0.0356948
-0.154338 0.0219054 0.987775 0.0373067
-0.157552 0.0297746 0.987062 0.0384312
-0.1579 0.038806 0.986692 0.0409166
-0.158761 0.0281412 0.986916 0.0451673
-0.15976 0.0257639 0.98682 0.042794
-0.166816 0.0285569 0.985574 0.0493671
-0.162673 0.0429735 0.985744 0.0478302
-0.164641 0.0430179 0.985415 0.0487907
-0.163254 0.0498369 0.985325 0.0497582
-0.160657 0.0474218 0.98587 0.052763
-0.154478 0.0434403 0.987041 0.0548881
-0.154128 0.0460795 0.986976 0.0588842
-0.147716 0.050119 0.987759 0.0584615
-0.139125 0.0490449 0.98906 0.054293
-0.126187 0.0372224 0.991308 0.0429869
-0.120088 0.0307105 0.992288 0.0362963
-0.106941 0.0358312 0.99362 0.0262022
-0.0953023 0.0382171 0.994714 0.0196818
-0.090951 0.039327 0.995079 0.013549
-0.0886833 0.0426743 0.995145 0.00732094
-0.0892289 0.0372618 0.995314 0.00935358
-0.0845073 0.0424696 0.995517 0.00514592
-0.0848115 0.0490031 0.995191 0
-0.0836562 0.0544142 0.995008 0
-0.0881018 0.0600233 0.994301 0.00970968
-0.0985415 0.0733428 0.992427 0.0154361
-0.104707 0.0821768 0.991102 0.019533
-0.101704 0.0850722 0.991171 0.0154852
-0.0908103 0.0788944 0.992738 0
-0.0953298 0.0855352 0.991764 0
-0.102346 0.0850811 0.991104 0
-0.105737 0.0979756 0.989556 0.00705479
-0.104886 0.104782 0.988949 0.0200676
-0.0990758 0.107655 0.989239 0.0191088
-0.0916556 0.107547 0.989966 0.0139822
-0.0884305 0.0955936 0.991485 0.00730097
-0.0910669 0.103682 0.990433 0.0119361
-0.0930096 0.107694 0.989824 0.0176987
-0.0902102 0.108815 0.98996 0.0173061
-0.078949 0.106456 0.991178 0.00426059
-0.0762848 0.101687 0.991887 0
-0.0706825 0.0946609 0.992997 0
-0.0786201 0.0996037 0.991916 0.00425904
-0.0746851 0.107036 0.991446 0
-0.0704789 0.105207 0.99195 0
-0.0734271 0.11033 0.991179 0
-0.0745279 0.126056 0.98922 0.00905009
-0.0763104 0.129045 0.988698 0.0175053
-0.0796815 0.137975 0.987225 0.0240446
-0.0842603 0.163662 0.982912 0.033256
-0.0824016 0.15866 0.983889 0.0331454
-0.0835918 0.174108 0.981172 0.0341025
-0.0878325 0.174312 0.980765 0.037573
-0.0913033 0.182258 0.979002 0.0401231
-0.089278 0.183599 0.978939 0.0411702
-0.0880173 0.18738 0.978336 0.0432262
-0.0915909 0.192408 0.977031 0.0448745
-0.0931449 0.193818 0.976606 0.042334
-0.0945184 0.199887 0.975249 0.0401557
-0.0956995 0.216404 0.971602 0.0409504
-0.0979715 0.225206 0.969373 0.041692
-0.0990978 0.233909 0.967195 0.0458693
-0.104797 0.242954 0.96436 0.0507664
-0.104031 0.249672 0.962726 0.0488438
-0.107312 0.251202 0.961968 0.0465808
-0.110068 0.258228 0.959793 0.04502
-0.113987 0.267441 0.956809 0.0400141
-0.115887 0.274245 0.954652 0.0395498
-0.117219 0.283765 0.951702 0.0395271
-0.120915 0.289162 0.949613 0.0419205
-0.123603 0.295929 0.947179 0.0438051
-0.119285 0.29896 0.946781 0.0429382
-0.114339 0.290474 0.950027 0.0379746
-0.112804 0.290364 0.950244 0.0354531
-0.109057 0.280359 0.95368 0.0298893
-0.105917 0.27147 0.956601 0.0248182
-0.105203 0.254765 0.961263 0.0196346
-0.0997188 0.243684 0.964715 0.012626
-0.0963668 0.241478 0.96561 0.00767357
-0.0960501 0.236346 0.96691 0.00933448
-0.0987753 0.24063 0.965578 0.0069145
-0.100228 0.229976 0.968021 0.00270884
-0.0999302 0.215313 0.971419 0
-0.101827 0.217594 0.970713 0
-0.0993661 0.214649 0.971623 0
-0.0985707 0.225284 0.969294 0
-0.0972441 0.229582 0.968419 0
-0.0999982 0.23702 0.966344 0.00335259
-0.100886 0.24877 0.963294 0.0083117
-0.0970317 0.242248 0.96535 0.0078197
-0.0959404 0.264838 0.959508 0.0106416
-0.126528 -0.393488 0.910581 0.0125739
-0.127938 -0.385783 0.913676 0.00491755
-0.126311 -0.37696 0.917577 0
-0.132714 -0.372761 0.918388 0.0123202
-0.135787 -0.37546 0.916838 0.0180716
-0.137901 -0.375529 0.916494 0.0236951
-0.138417 -0.362267 0.921739 0.0283236
-0.13169 -0.345914 0.928979 0.0159552
-0.119152 -0.340445 0.932684 0
-0.12193 -0.343374 0.931251 0.0118446
-0.124225 -0.347788 0.929307 0.0183175
-0.124714 -0.347702 0.929274 0.0264685
-0.12124 -0.353427 0.927572 0.022869
-0.124049 -0.362581 0.923659 0.0300853
-0.126021 -0.360219 0.924316 0.0279306
-0.118943 -0.354466 0.927473 0.0233942
-0.114646 -0.351881 0.928997 0.0204423
-0.104091 -0.35395 0.929454 0.00392219
-0.100992 -0.351961 0.93055 0
-0.0977432 -0.364841 0.925925 0
-0.100878 -0.350772 0.931012 0
-0.105203 -0.337645 0.935376 0
-0.10836 -0.339757 0.93425 0
-0.114644 -0.33618 0.934794 0.00207585
-0.117348 -0.334839 0.93494 0.00799335
-0.118307 -0.334848 0.934815 0.00461749
-0.119472 -0.330308 0.936281 0
-0.114635 -0.331791 0.936362 0
-0.113995 -0.329945 0.937092 0
-0.114803 -0.340196 0.93332 0
-0.116656 -0.341647 0.93256 0
-0.118719 -0.335864 0.934399 0
-0.115675 -0.332776 0.935884 0
-0.113855 -0.324938 0.938857 0
-0.112088 -0.314515 0.942612 0
-0.111975 -0.312876 0.94317 0
-0.111001 -0.295046 0.949014 0
-0.11253 -0.297582 0.948041 0
-0.113952 -0.294679 0.948778 0
-0.111397 -0.293374 0.949485 0
-0.119107 -0.283111 0.951663 0
-0.121023 -0.274328 0.95399 0.00366093
-0.117204 -0.277166 0.953647 0
-0.114041 -0.273895 0.954974 0.00124983
-0.11098 -0.265883 0.957596 0
-0.106944 -0.267419 0.957627 0
-0.0937704 -0.275142 0.95682 0
-0.0901029 -0.270051 0.958621 0
-0.0821816 -0.282105 0.955857 0
-0.0814823 -0.271462 0.958994 0
-0.0927248 -0.254467 0.962626 0
-0.0978479 -0.256012 0.961709 0
-0.101564 -0.247164 0.963636 0
-0.0967434 -0.249083 0.963638 0
-0.0821022 -0.256913 0.962941 0
-0.077608 -0.251965 0.964619 0
-0.080536 -0.24179 0.966981 0
-0.0854696 -0.244261 0.965936 0
-0.0853251 -0.251646 0.964051 0
-0.0938819 -0.244691 0.965045 0
-0.0907122 -0.243804 0.965573 0
-0.0963739 -0.248077 0.963935 0
-0.102546 -0.240571 0.965199 0
-0.101089 -0.242246 0.964934 0
-0.104607 -0.233588 0.966692 0
-0.105215 -0.234596 0.966382 0
-0.0998749 -0.240929 0.96539 0
-0.0895121 -0.24009 0.966615 0
-0.0810015 -0.248013 0.965364 0
-0.0849554 -0.228425 0.969848 0
-0.0824792 -0.235318 0.968412 0
-0.0797633 -0.225622 0.970944 0
-0.0795967 -0.220184 0.972205 0
-0.0851551 -0.213182 0.973294 0
-0.0858726 -0.214109 0.973028 0
-0.0770286 -0.225955 0.971087 0
-0.0692587 -0.224555 0.971997 0
-0.0672047 -0.223667 0.972346 0
-0.0727364 -0.210897 0.974798 0
-0.0824135 -0.206338 0.975004 0
-0.0849149 -0.199746 0.976161 0
-0.0872636 -0.19108 0.977688 0
-0.0898827 -0.185599 0.978506 0
-0.0932453 -0.180906 0.97907 0
-0.0886521 -0.170817 0.981307 0
-0.0870343 -0.161717 0.982992 0
-0.0889214 -0.143896 0.98559 0
-0.0922371 -0.137903 0.986142 0
-0.109876 -0.121998 0.98643 0.0201504
-0.124953 -0.113098 0.985695 0.0384298
-0.139747 -0.0930132 0.985809 0.0582031
-0.144111 -0.0864223 0.985781 0.0660874
-0.147802 -0.0847711 0.985377 0.0695856
-0.134251 -0.0955712 0.986328 0.0542679
-0.123328 -0.098053 0.98751 0.0447114
-0.114467 -0.104314 0.987935 0.0312092
-0.106914 -0.107479 0.988442 0.0235405
-0.11492 -0.111583 0.987088 0.0335584
-0.12568 -0.102676 0.986743 0.0482703
-0.139306 -0.0915316 0.98601 0.065143
-0.155297 -0.0717168 0.985261 0.0804891
-0.169012 -0.0686998 0.983217 0.090018
-0.167104 -0.0605053 0.984081 0.0880583
-0.164253 -0.069028 0.984 0.0789975
-0.159252 -0.0689004 0.984831 0.0709635
-0.138018 -0.0722048 0.987794 0.05257
-0.12317 -0.0854976 0.988696 0.0366704
-0.109896 -0.0940205 0.989486 0.0217202
-0.100173 -0.0999828 0.989934 0.00830181
-0.0886616 -0.110121 0.989956 0
-0.0809306 -0.110426 0.990584 0
-0.0822841 -0.116435 0.989784 0
-0.0784889 -0.115454 0.990207 0
-0.0739583 -0.106298 0.99158 0
-0.0757471 -0.105022 0.991581 0
-0.0759055 -0.0905117 0.992998 0
-0.0783755 -0.0899598 0.992857 0
-0.0750217 -0.0865072 0.993423 0
-0.0745953 -0.0783947 0.994128 0
-0.0765445 -0.0735944 0.994346 0
-0.0820279 -0.0691998 0.994225 0
-0.0851638 -0.0595152 0.994588 0
-0.0804532 -0.0581752 0.995059 0
-0.0820264 -0.0518999 0.995278 0
-0.0754469 -0.064674 0.99505 0
-0.0716345 -0.0762801 0.99451 0
-0.0631142 -0.0814076 0.994681 0
-0.0624109 -0.0870296 0.994249 0
-0.0674669 -0.0836381 0.99421 0
-0.0682358 -0.0930094 0.993324 0
-0.0728421 -0.0890273 0.993362 0
-0.0757923 -0.0876966 0.99326 0
-0.0801639 -0.0803044 0.993542 0
-0.0801483 -0.0743604 0.994005 0
-0.0785587 -0.0745226 0.99412 0
-0.0774532 -0.0733756 0.994292 0
-0.0766462 -0.0776436 0.994031 0
-0.0717564 -0.0751467 0.994587 0
-0.0735027 -0.0705459 0.994797 0
-0.0741494 -0.0729223 0.994577 0
-0.0774015 -0.0596014 0.995217 0
-0.078162 -0.059826 0.995144 0
-0.0757617 -0.0445288 0.996131 0
-0.0734991 -0.0388369 0.996539 0.000719739
-0.0796074 -0.0341913 0.99624 0.00892172
-0.0883004 -0.0314018 0.995599 0.0173936
-0.0919839 -0.0369844 0.995073 0.0230911
-0.0870553 -0.0363308 0.995541 0.0151178
-0.0855379 -0.0385472 0.995589 0.00869122
-0.0861392 -0.0384483 0.995541 0.00257359
-0.090692 -0.0301027 0.995424 0.000370486
-0.0983015 -0.0343258 0.994564 0.000941527
-0.10274 -0.0355162 0.994074 0.000919748
-0.112524 -0.0278942 0.993257 0.00702111
-0.118009 -0.0323247 0.992486 0.00913952
-0.125384 -0.0245503 0.991805 0.0163892
-0.12844 -0.0360234 0.991063 0.0208607
-0.130078 -0.0275413 0.991121 0.0266451
-0.127318 -0.0276812 0.991476 0.0291484
-0.124381 -0.0201667 0.992029 0.028817
-0.115342 -0.0234323 0.993049 0.0170206
-0.110129 -0.0300749 0.993462 0.00903513
-0.100617 -0.0362529 0.994265 0
-0.0928484 -0.0511001 0.994368 0
-0.0873241 -0.0554932 0.994633 0
-0.0828201 -0.0560581 0.994987 0
-0.0786182 -0.063085 0.994907 0
-0.0776249 -0.0633812 0.994966 0
-0.074587 -0.0631406 0.995214 0
-0.0789039 -0.0532838 0.995457 0
-0.0841741 -0.0482163 0.995284 0
-0.0919686 -0.0442473 0.994778 0
-0.0974405 -0.0370571 0.994551 0
-0.0993548 -0.0427634 0.994133 0
-0.0979746 -0.039661 0.994398 0
-0.0996531 -0.0365686 0.99435 0
-0.101064 -0.0434436 0.993931 0
-0.103201 -0.0396266 0.993871 0
-0.106206 -0.042321 0.993443 0
-0.113006 -0.0315576 0.993093 0
-0.111113 -0.0201859 0.993603 0
-0.121279 -0.0125638 0.992539 0
-0.127618 -0.00215126 0.991821 0.00119024
-0.135913 -0.000421721 0.990721 0.00489318
-0.139748 0.00298115 0.990183 0.00909945
-0.143806 0.0189729 0.989424 0.0177542
-0.144635 0.0110434 0.989424 0.0261772
-0.152295 0.0258831 0.987996 0.0348574
-0.150411 0.0167529 0.988482 0.0342805
-0.149923 0.0262698 0.988349 0.0347039
-0.153041 0.0312989 0.987724 0.0388065
-0.152536 0.0300305 0.987841 0.0425751
-0.1482 0.0232219 0.988685 0.0423887
-0.149975 0.0210989 0.988465 0.0459914
-0.150037 0.0267518 0.988318 0.0483558
-0.154199 0.0402692 0.987219 0.0511108
-0.160531 0.0463673 0.985941 0.0525619
-0.158073 0.0479397 0.986263 0.0502585
-0.155053 0.0454189 0.986862 0.0526078
-0.157033 0.0525616 0.986194 0.0590738
-0.153203 0.0583989 0.986468 0.0612274
-0.143619 0.0544383 0.988135 0.0559253
-0.12996 0.0476137 0.990375 0.0468395
-0.116185 0.0343364 0.992634 0.0362293
-0.105157 0.0406314 0.993625 0.0275808
-0.09625 0.0347276 0.994751 0.0245971
-0.0957596 0.0440554 0.994429 0.0235956
-0.0915172 0.0444184 0.994812 0.0146876
-0.095974 0.0411633 0.994532 0.01643
-0.0935086 0.053014 0.994206 0.0180765
-0.0905829 0.0598585 0.994088 0.0173483
-0.0869436 0.0650785 0.994085 0.0134765
-0.0890559 0.0653416 0.993881 0.018268
-0.105906 0.0833537 0.990876 0.0316583
-0.109822 0.0914496 0.989735 0.0295348
-0.113502 0.0921862 0.989252 0.0287179
-0.100828 0.0906178 0.990768 0.0139013
-0.0951899 0.0858581 0.99175 0
-0.097512 0.0836094 0.991716 0.000764272
-0.105811 0.0969982 0.989644 0.0132399
-0.107553 0.107592 0.98836 0.0219422
-0.105741 0.108864 0.988417 0.0195797
-0.090298 0.108459 0.989991 0.0115937
-0.0947325 0.110548 0.989346 0.0196787
-0.0890743 0.105277 0.990446 0.019617
-0.0900266 0.110299 0.989813 0.0272327
-0.0867558 0.110535 0.990078 0.0214091
-0.0778146 0.110042 0.990876 0.00858779
-0.074727 0.102471 0.991925 0.00433373
-0.0757826 0.0984072 0.992257 0.00577259
-0.0688485 0.0921468 0.993362 0
-0.0757425 0.105484 0.991532 0.000848137
-0.0711895 0.111599 0.9912 0.000592235
-0.0717816 0.116517 0.990591 0.00536417
-0.0702632 0.12432 0.989751 0.00918865
-0.0712554 0.123953 0.989726 0.0161828
-0.0702029 0.132613 0.988679 0.0166125
-0.0690214 0.141876 0.987475 0.0247783
-0.0762086 0.159114 0.984315 0.0313333
-0.0803097 0.164916 0.983033 0.0331318
-0.0824372 0.163617 0.983074 0.0344977
-0.0845756 0.171705 0.981511 0.0327278
-0.0860138 0.183209 0.979304 0.037349
-0.0885511 0.181773 0.979345 0.0411543
-0.0898763 0.18437 0.978739 0.0419845
-0.0985865 0.198749 0.975079 0.0432741
-0.0949693 0.201 0.974977 0.0431877
-0.0956244 0.213669 0.972215 0.0423368
-0.0941072 0.225025 0.969798 0.0433789
-0.0896816 0.235524 0.967722 0.0439944
-0.096127 0.239964 0.966011 0.0497544
-0.0971923 0.250642 0.963189 0.0485363
-0.104583 0.25847 0.960341 0.046618
-0.107353 0.2605 0.959487 0.0464524
-0.111491 0.279514 0.953647 0.0457912
-0.114737 0.277066 0.953976 0.0445719
-0.117 0.291177 0.949488 0.0446395
-0.113801 0.283537 0.952185 0.0407887
-0.117505 0.30863 0.943896 0.0433587
-0.118708 0.312132 0.942593 0.0453475
-0.112009 0.297172 0.948231 0.0395244
-0.106644 0.284897 0.952607 0.0308509
-0.105195 0.291111 0.950888 0.0297228
-0.102906 0.28601 0.952685 0.0261277
-0.101894 0.270102 0.957425 0.0261677
-0.0984419 0.256152 0.961611 0.0159199
-0.0966695 0.240661 0.965783 0.0129568
-0.0951992 0.242774 0.9654 0.00702237
-0.0986165 0.237362 0.966403 0.00674586
-0.0959938 0.230248 0.968386 0
-0.0976878 0.223504 0.969795 0
-0.0956554 0.214893 0.971942 0
-0.0943361 0.208307 0.973503 0
-0.0950519 0.223015 0.97017 0
-0.0939504 0.227652 0.9692 0
-0.0920352 0.220109 0.971124 0
-0.0950654 0.23815 0.966565 0.00302074
-0.0968163 0.236564 0.96678 0.00768768
-0.0946711 0.250001 0.963606 0.0126289
-0.117622 -0.396566 0.910439 0.000731309
-0.117396 -0.386261 0.914888 0
-0.122812 -0.382811 0.915627 0.00283768
-0.126866 -0.37198 0.91953 0.00872688
-0.124839 -0.382827 0.915346 0.0141284
-0.129074 -0.378628 0.916505 0.0221681
-0.12818 -0.380969 0.915659 0.0166556
-0.126944 -0.355176 0.92614 0.010917
-0.118781 -0.354719 0.927397 0.00114276
-0.11833 -0.353955 0.927747 0.0057918
-0.123469 -0.351224 0.928115 0.0193272
-0.122863 -0.344459 0.930727 0.0235024
-0.121951 -0.35106 0.928378 0.0267649
-0.113177 -0.354083 0.92834 0.0184778
-0.11388 -0.35746 0.926959 0.0186115
-0.108907 -0.355269 0.928398 0.019701
-0.104161 -0.349684 0.931059 0.00957077
-0.0979988 -0.35116 0.931173 0.000473861
-0.0944219 -0.359228 0.928461 0
-0.0934963 -0.37223 0.92342 0
-0.0956184 -0.358805 0.928502 0
-0.0957253 -0.357694 0.92892 0
-0.103403 -0.346656 0.932275 0
-0.107974 -0.335901 0.935688 0
-0.116079 -0.328247 0.937432 0.00488222
-0.116793 -0.324191 0.938754 0.00495466
-0.113098 -0.328842 0.937588 0
-0.118359 -0.325314 0.938169 0
-0.115372 -0.330387 0.936768 0
-0.11642 -0.333227 0.935631 0
-0.114575 -0.33748 0.934334 0
-0.112547 -0.329734 0.937341 0
-0.109412 -0.32868 0.938082 0
-0.104152 -0.325505 0.939787 0
-0.103531 -0.313587 0.943899 0
-0.102588 -0.306782 0.946235 0
-0.101822 -0.295092 0.950028 0
-0.105005 -0.300832 0.947879 0
-0.110805 -0.286526 0.951643 0
-0.115351 -0.287343 0.950857 0
-0.118606 -0.273951 0.954402 0
-0.122312 -0.273207 0.954148 0
-0.11525 -0.280576 0.952887 0
-0.108906 -0.276551 0.954808 0
-0.111036 -0.266151 0.957515 0
-0.106007 -0.267751 0.957639 0
-0.0989712 -0.271808 0.957249 0
-0.0873466 -0.279928 0.956039 0
-0.0764568 -0.278656 0.957343 0
-0.0792437 -0.270829 0.95936 0
-0.080113 -0.263621 0.961294 0
-0.0908242 -0.256505 0.962266 0
-0.0889214 -0.257991 0.962047 0
-0.0835329 -0.26024 0.961924 0
-0.0789894 -0.257361 0.963081 0
-0.0771593 -0.252349 0.964555 0
-0.0777093 -0.240154 0.967619 0
-0.0801075 -0.241793 0.967015 0
-0.0832887 -0.244049 0.96618 0
-0.0845809 -0.239153 0.967291 0
-0.0868413 -0.24312 0.966101 0
-0.0902206 -0.238982 0.966824 0
-0.100895 -0.236564 0.966363 0
-0.104866 -0.237647 0.965675 0
-0.104022 -0.226646 0.968406 0
-0.107227 -0.223224 0.968852 0
-0.104055 -0.216088 0.970813 0
-0.0921422 -0.231953 0.968353 0
-0.0844213 -0.23953 0.967212 0
-0.0891216 -0.229122 0.969309 0
-0.0999482 -0.22788 0.968546 0
-0.100542 -0.213238 0.971813 0
-0.096462 -0.213735 0.972117 0
-0.0951261 -0.209512 0.973168 0
-0.085443 -0.217722 0.972264 0
-0.0742543 -0.225143 0.971492 0
-0.0678468 -0.225048 0.971983 0
-0.0683217 -0.221902 0.972672 0
-0.0708467 -0.209077 0.97533 0
-0.0754375 -0.197683 0.977359 0
-0.0773416 -0.191653 0.978411 0
-0.0851475 -0.179897 0.979993 0
-0.0868295 -0.172208 0.981226 0
-0.080608 -0.179037 0.980535 0
-0.0730818 -0.170688 0.982611 0
-0.0740158 -0.16185 0.984036 0
-0.0793556 -0.145356 0.986192 0
-0.08393 -0.130797 0.98785 0.000359083
-0.099122 -0.12239 0.98752 0.0254346
-0.124498 -0.112667 0.985802 0.0475823
-0.142541 -0.0995952 0.984765 0.0632626
-0.154204 -0.0844193 0.984426 0.0758099
-0.146766 -0.0843373 0.985569 0.0709589
-0.127431 -0.0930118 0.987477 0.0507378
-0.115111 -0.107657 0.987502 0.0367641
-0.104055 -0.106497 0.988853 0.0237179
-0.110358 -0.107809 0.988027 0.0327788
-0.117633 -0.101836 0.987822 0.0447245
-0.127074 -0.103314 0.986498 0.06033
-0.133567 -0.0970147 0.98628 0.0718593
-0.148359 -0.073269 0.986216 0.0835909
-0.15635 -0.0776319 0.984646 0.0846514
-0.155922 -0.0737598 0.985012 0.0819715
-0.15478 -0.0724386 0.98529 0.0771407
-0.140497 -0.077444 0.987048 0.0629838
-0.114803 -0.0891839 0.989377 0.0410123
-0.0982282 -0.0985131 0.990276 0.0170803
-0.0906944 -0.105785 0.990245 0
-0.0898176 -0.109406 0.989931 0
-0.0819231 -0.112744 0.990241 0
-0.0756896 -0.12008 0.989875 0
-0.0746882 -0.120807 0.989862 0
-0.0742827 -0.118403 0.990183 0
-0.0722593 -0.109805 0.991323 0
-0.0790284 -0.101207 0.991722 0
-0.0868019 -0.0929684 0.991878 0
-0.086108 -0.0865954 0.992515 0
-0.0852307 -0.0805315 0.993101 0
-0.0862015 -0.073035 0.993597 0
-0.0886278 -0.0655765 0.993904 0
-0.0892197 -0.0553288 0.994474 0
-0.088322 -0.0547625 0.994585 0
-0.09166 -0.054196 0.994314 0
-0.0933075 -0.053238 0.994213 0
-0.0839035 -0.0630945 0.994474 0
-0.0766462 -0.0685337 0.9947 0
-0.073643 -0.077093 0.9943 0
-0.0657211 -0.0819472 0.994467 0
-0.0595382 -0.0895524 0.994201 0
-0.0601907 -0.0936296 0.993786 0
-0.0635027 -0.0899664 0.993918 0
-0.0678893 -0.0849715 0.994068 0
-0.0710765 -0.0788882 0.994346 0
-0.0685568 -0.0807059 0.994377 0
-0.0710615 -0.0743874 0.994694 0
-0.0761907 -0.0699893 0.994634 0
-0.07823 -0.0752337 0.994093 0
-0.077906 -0.0672786 0.994688 0
-0.0805161 -0.0645622 0.99466 0
-0.0862813 -0.0599461 0.994466 0
-0.0868354 -0.0508279 0.994925 0
-0.0867131 -0.0502755 0.994964 0
-0.0860063 -0.0413525 0.995436 0.00370495
-0.0869538 -0.0338254 0.995638 0.013252
-0.0915513 -0.0323587 0.995274 0.0207975
-0.0932397 -0.0296589 0.995202 0.02276
-0.0934418 -0.0351363 0.995005 0.0233164
-0.0890661 -0.0374004 0.995323 0.0209361
-0.0849763 -0.0419413 0.9955 0.0100348
-0.0832375 -0.0439275 0.995561 0.00329287
-0.086011 -0.0384911 0.99555 0.00258493
-0.0847223 -0.0438877 0.995438 0.00232494
-0.0890234 -0.0447809 0.995022 0
-0.0953888 -0.0378938 0.994719 7.32816e-05
-0.103512 -0.0312733 0.994136 0.00632536
-0.111117 -0.0227023 0.993548 0.0134685
-0.113413 -0.0290329 0.993124 0.0247229
-0.114627 -0.0227895 0.993147 0.0305631
-0.11371 -0.0256164 0.993184 0.0303324
-0.117717 -0.0213148 0.992818 0.0287415
-0.113983 -0.0230159 0.993216 0.0240472
-0.105679 -0.0332011 0.993846 0.00819746
-0.100648 -0.0357466 0.99428 0
-0.10326 -0.044203 0.993672 0
-0.102509 -0.0467251 0.993634 0
-0.100408 -0.0454539 0.993908 0
-0.0976696 -0.0532906 0.993791 0
-0.0934462 -0.0523017 0.99425 0
-0.0901535 -0.0588921 0.994185 0
-0.08962 -0.0514901 0.994644 0
-0.0940989 -0.0433251 0.99462 0
-0.100278 -0.0424187 0.994055 0
-0.0987574 -0.0432918 0.994169 0
-0.100517 -0.0450612 0.993914 0
-0.091949 -0.0454745 0.994725 0
-0.095394 -0.0384463 0.994697 0
-0.099597 -0.0422169 0.994132 0
-0.0985375 -0.0405594 0.994306 0
-0.105056 -0.0349864 0.993851 0
-0.109839 -0.0290302 0.993525 0
-0.116347 -0.0158691 0.993082 0
-0.11719 -0.00487104 0.993098 0.00271602
-0.118992 0.00701168 0.99287 0.00286559
-0.125091 0.00391289 0.992138 0.00566104
-0.136951 0.00550538 0.990562 0.0137652
-0.14717 0.014963 0.988998 0.024904
-0.15324 0.021462 0.987956 0.0361046
-0.152958 0.0288302 0.987812 0.0406434
-0.148601 0.0245456 0.988593 0.0376201
-0.151321 0.0253534 0.988159 0.0405505
-0.153103 0.0259715 0.987869 0.0437482
-0.144876 0.0178194 0.989289 0.0439043
-0.135882 0.0153236 0.990607 0.0424644
-0.137445 0.0150709 0.990395 0.0440019
-0.137446 0.0206248 0.990294 0.047062
-0.147303 0.0305698 0.988619 0.0530885
-0.151096 0.0326098 0.987981 0.0552347
-0.158395 0.0459288 0.986307 0.0571511
-0.162382 0.0600477 0.984899 0.0644453
-0.164238 0.0659273 0.984215 0.0714985
-0.15268 0.0654417 0.986107 0.0647916
-0.148172 0.063724 0.986906 0.0643005
-0.137795 0.063813 0.988403 0.0583812
-0.132132 0.0566638 0.989611 0.047782
-0.125725 0.0525277 0.990674 0.0434614
-0.110266 0.0473147 0.992775 0.0367353
-0.1033 0.052044 0.993288 0.0334633
-0.0920654 0.0459798 0.994691 0.0195293
-0.0908681 0.0447087 0.994859 0.0173881
-0.0932465 0.0561184 0.99406 0.0186743
-0.0994205 0.0654297 0.992892 0.0288821
-0.102617 0.0746316 0.991917 0.0275141
-0.103529 0.0882264 0.990706 0.0307559
-0.101704 0.088052 0.99091 0.0325682
-0.113243 0.0942306 0.989089 0.0340655
-0.111522 0.0972136 0.988996 0.0281865
-0.106584 0.0996653 0.989296 0.0230756
-0.102367 0.0998818 0.989719 0.0128452
-0.101805 0.0984293 0.989923 0.0153325
-0.101743 0.105722 0.989177 0.0195311
-0.101361 0.109415 0.988815 0.022841
-0.0954284 0.112596 0.989048 0.0170489
-0.0868562 0.107992 0.99035 0.0101115
-0.0883493 0.104225 0.990622 0.0141853
-0.0923821 0.110433 0.989581 0.0249813
-0.0872408 0.111723 0.989903 0.0231838
-0.0815786 0.106133 0.991 0.018742
-0.0779572 0.111847 0.990663 0.0128777
-0.073522 0.107616 0.99147 0.0114146
-0.0711852 0.102156 0.992218 0.00194066
-0.0670708 0.100117 0.992712 0
-0.0649536 0.0982474 0.99304 0
-0.0654802 0.100474 0.992783 0
-0.0704373 0.109266 0.991514 0.00300157
-0.0696804 0.113672 0.991072 0.00894029
-0.0661741 0.126508 0.989756 0.0135867
-0.0601258 0.120417 0.990901 0.0109732
-0.0594493 0.13639 0.98887 0.0211772
-0.0660581 0.152317 0.986122 0.032063
-0.0639794 0.151886 0.986325 0.0281838
-0.0739087 0.157532 0.984744 0.0309248
-0.0759789 0.165634 0.983256 0.0304962
-0.0794181 0.180922 0.980286 0.0317442
-0.0880116 0.17995 0.97973 0.0371881
-0.0897573 0.187937 0.978071 0.038091
-0.097199 0.200722 0.974815 0.0425256
-0.0934762 0.196274 0.976083 0.0414743
-0.0947507 0.205205 0.974122 0.0400587
-0.0905863 0.224051 0.970358 0.0432983
-0.0875467 0.238072 0.967294 0.0428641
-0.0899282 0.233764 0.968126 0.0444832
-0.090838 0.240879 0.966295 0.0433877
-0.096043 0.258243 0.961294 0.0421132
-0.10254 0.270213 0.957324 0.0452971
-0.107835 0.284092 0.952714 0.047183
-0.108223 0.285385 0.952283 0.0457389
-0.10832 0.296977 0.948721 0.0438063
-0.11123 0.302894 0.946511 0.0414297
-0.112574 0.305373 0.945555 0.0410538
-0.113051 0.295847 0.948522 0.0402836
-0.108606 0.309151 0.944791 0.0361843
-0.109606 0.312246 0.943657 0.0367269
-0.106397 0.310826 0.944493 0.0352879
-0.102271 0.295444 0.94987 0.0306635
-0.0998901 0.281171 0.954445 0.0289394
-0.0974809 0.27107 0.957611 0.0203618
-0.0987047 0.261155 0.960237 0.021424
-0.0957928 0.247921 0.964033 0.0121481
-0.0955778 0.24706 0.964275 0.0074686
-0.0952377 0.241844 0.96563 0.00730555
-0.0956189 0.237287 0.966722 0.00468387
-0.0940516 0.224835 0.969847 0
-0.0924422 0.211628 0.972969 0
-0.0879908 0.218366 0.971892 0
-0.0899125 0.229027 0.969259 0
-0.0907977 0.230236 0.96889 3.35102e-05
-0.0903409 0.220744 0.971139 0
-0.0910947 0.206114 0.974279 0
-0.0940369 0.242788 0.965511 0.0140872
-0.116496 -0.3752 0.919594 0.00509747
-0.115871 -0.389614 0.91366 0
-0.12298 -0.38708 0.913808 0.00778833
-0.127507 -0.374244 0.918523 0.0108313
-0.131368 -0.380758 0.915295 0.018139
-0.128965 -0.372043 0.919213 0.0178623
-0.127358 -0.376855 0.917475 0.0150257
-0.124954 -0.361264 0.924053 0.00833759
-0.121687 -0.355188 0.926841 0.00457285
-0.121954 -0.355243 0.926785 0.000907932
-0.121012 -0.352966 0.927777 0.00785463
-0.120711 -0.345679 0.930556 0.014078
-0.11866 -0.346311 0.930585 0.0216808
-0.119064 -0.352521 0.928199 0.0206889
-0.113717 -0.358332 0.926643 0.0224768
-0.109828 -0.359286 0.926742 0.0190323
-0.099927 -0.354161 0.92983 0.00853056
-0.0929689 -0.353472 0.930814 0
-0.0901951 -0.352859 0.931319 0
-0.0869537 -0.369859 0.92501 0
-0.0894755 -0.363858 0.927147 0
-0.0936956 -0.36267 0.927196 0
-0.0938092 -0.361091 0.9278 0
-0.101384 -0.340708 0.934687 0
-0.109197 -0.333684 0.936339 0.000466576
-0.11257 -0.322246 0.939939 0.00442254
-0.112352 -0.327735 0.938065 0
-0.111477 -0.328185 0.938012 0
-0.110364 -0.321905 0.940318 0
-0.109503 -0.326295 0.938904 0
-0.112904 -0.325578 0.93875 0
-0.113661 -0.322465 0.939733 0
-0.11219 -0.328916 0.937671 0
-0.106017 -0.325317 0.939643 0
-0.110827 -0.307586 0.945044 0
-0.105335 -0.306644 0.945978 0
-0.106913 -0.297901 0.948591 0
-0.107893 -0.291514 0.950462 0
-0.105585 -0.290082 0.951159 0
-0.109938 -0.284719 0.952286 0
-0.109556 -0.277855 0.954355 0
-0.109261 -0.283036 0.952865 0
-0.107004 -0.289057 0.951313 0
-0.110888 -0.274731 0.955106 0
-0.10986 -0.277352 0.954467 0
-0.104042 -0.276771 0.955287 0
-0.0981455 -0.267205 0.958629 0
-0.082825 -0.27948 0.956573 0
-0.078941 -0.275272 0.95812 0
-0.0792296 -0.269522 0.959729 0
-0.0798586 -0.263708 0.961291 0
-0.080773 -0.259988 0.962228 0
-0.0775507 -0.261712 0.962025 0
-0.0798767 -0.258783 0.962627 0
-0.0753841 -0.252675 0.96461 0
-0.0747558 -0.252139 0.964799 0
-0.0830709 -0.238219 0.967652 0
-0.0862777 -0.229843 0.969396 0.000532687
-0.0820393 -0.239638 0.96739 0
-0.084658 -0.238844 0.96736 0
-0.0801914 -0.238843 0.967741 0
-0.0882837 -0.234004 0.968219 0
-0.0996267 -0.231795 0.967649 0
-0.102628 -0.228254 0.968177 0
-0.102506 -0.215884 0.971023 0
-0.104481 -0.219049 0.970104 0
-0.10159 -0.20627 0.973207 0
-0.0918257 -0.21967 0.971243 0
-0.0898266 -0.22685 0.969778 0
-0.0957343 -0.217584 0.971335 0
-0.0953535 -0.214069 0.972153 0
-0.0998749 -0.200758 0.974536 0
-0.103434 -0.200226 0.974275 0
-0.101285 -0.201672 0.974202 0
-0.0925974 -0.201843 0.975031 0
-0.0782796 -0.212693 0.973979 0
-0.068971 -0.21791 0.973529 0
-0.0678087 -0.212018 0.97491 0
-0.0714295 -0.199434 0.977305 0
-0.0681637 -0.191218 0.979178 0
-0.0756358 -0.183072 0.980186 0
-0.0776625 -0.174927 0.981514 0
-0.078365 -0.16973 0.98237 0
-0.0716558 -0.169834 0.982864 0
-0.0632759 -0.166163 0.984066 0
-0.0585306 -0.166222 0.98435 0
-0.0635158 -0.15133 0.986441 0
-0.0786674 -0.130296 0.988349 0
-0.0980728 -0.116868 0.988293 0.0267138
-0.118995 -0.11017 0.986764 0.0513501
-0.136241 -0.0992585 0.985691 0.0657583
-0.147815 -0.0850787 0.985349 0.0737219
-0.143162 -0.0834578 0.986174 0.0720573
-0.12225 -0.0916961 0.988254 0.0560629
-0.105636 -0.111085 0.988181 0.0346355
-0.102561 -0.110302 0.988592 0.0294082
-0.115954 -0.103888 0.987807 0.0421689
-0.131892 -0.0947974 0.986721 0.0570176
-0.144188 -0.0955142 0.98493 0.067882
-0.143612 -0.094813 0.985082 0.0697326
-0.150731 -0.0863407 0.984797 0.0710134
-0.148795 -0.0860841 0.985114 0.0703626
-0.141404 -0.0836745 0.986409 0.0643348
-0.126716 -0.0940836 0.987467 0.046587
-0.111248 -0.105462 0.988181 0.028072
-0.093962 -0.112438 0.989206 0.00975237
-0.0779179 -0.124617 0.989141 0
-0.0698644 -0.124547 0.989751 0
-0.0652698 -0.134421 0.988772 0
-0.0665141 -0.12888 0.989427 0
-0.0723248 -0.120343 0.990094 0
-0.0708029 -0.120061 0.990238 0
-0.0655214 -0.110453 0.991719 0
-0.0686762 -0.106714 0.991915 0
-0.0754637 -0.101314 0.991988 0
-0.0844665 -0.0930513 0.992072 0
-0.0861243 -0.0894948 0.992257 0
-0.0914187 -0.0762236 0.992891 0
-0.0945431 -0.0644215 0.993434 0
-0.0994667 -0.0549849 0.99352 0.00106548
-0.0922245 -0.0535357 0.994298 0
-0.0933262 -0.0511052 0.994323 0
-0.0956047 -0.0443289 0.994432 3.32128e-05
-0.0986322 -0.0447349 0.994118 0.00625166
-0.0880151 -0.051477 0.994788 0.00444477
-0.0766486 -0.055858 0.995492 0
-0.0697376 -0.0659752 0.995381 0
-0.0661968 -0.0711876 0.995264 0
-0.062236 -0.0824724 0.994648 0
-0.0594835 -0.0827669 0.994792 0
-0.0642039 -0.0808562 0.994656 0
-0.0680448 -0.0820214 0.994305 0
-0.0672928 -0.0782932 0.994657 0
-0.0681006 -0.0835623 0.994173 0
-0.0739726 -0.0757189 0.994382 0
-0.0830442 -0.0686264 0.99418 0
-0.0856094 -0.0645991 0.994232 0
-0.0868272 -0.0570806 0.994587 0
-0.0852914 -0.0615211 0.994455 0
-0.0876413 -0.0511199 0.99484 0
-0.090747 -0.0426681 0.99496 0
-0.0913578 -0.0455756 0.994775 0
-0.0914062 -0.040269 0.994999 0.00462552
-0.0950081 -0.0368118 0.994796 0.0175362
-0.100758 -0.0334233 0.994349 0.0267678
-0.102461 -0.0285278 0.994328 0.0292166
-0.0992207 -0.0308592 0.994587 0.0265309
-0.0898438 -0.0416958 0.995083 0.013809
-0.0869453 -0.0462869 0.995137 0.00605462
-0.0868319 -0.0466005 0.995133 0.00106673
-0.0890379 -0.0471581 0.994911 0.000994293
-0.0846169 -0.055302 0.994878 0.00156663
-0.0825276 -0.0517498 0.995244 0
-0.087653 -0.0472692 0.995029 0.00298898
-0.0970766 -0.0364075 0.994611 0.0100181
-0.0993829 -0.0244738 0.994748 0.0135038
-0.0998128 -0.02759 0.994624 0.0238075
-0.103149 -0.0128834 0.994582 0.0313085
-0.108758 -0.0208704 0.993849 0.0368353
-0.111106 -0.0129665 0.993724 0.035224
-0.108119 -0.0221675 0.993891 0.0241341
-0.108889 -0.0269114 0.99369 0.0119643
-0.107961 -0.0298147 0.993708 0.00525464
-0.103456 -0.0411663 0.993782 0
-0.100955 -0.0375545 0.994182 0
-0.0942078 -0.04515 0.994528 0
-0.0905813 -0.0476108 0.99475 0
-0.0858056 -0.0505062 0.995031 0
-0.0864127 -0.0575733 0.994594 0
-0.0868511 -0.0500162 0.994965 0
-0.090795 -0.0451798 0.994844 0
-0.0895145 -0.0498323 0.994738 0
-0.0842213 -0.051441 0.995118 0
-0.0830693 -0.0541298 0.995073 0
-0.078154 -0.0530819 0.995527 0
-0.076951 -0.0498277 0.995789 0
-0.0797137 -0.0513364 0.995495 0
-0.0874253 -0.0392326 0.995398 0
-0.0933653 -0.0443732 0.994643 0
-0.100308 -0.0295655 0.994517 0
-0.105569 -0.0231434 0.994143 0
-0.111383 -0.00949563 0.993732 0
-0.112861 -0.00265547 0.993607 0.00116659
-0.115734 -0.00179819 0.993279 0.00661842
-0.126159 0.00789828 0.991979 0.0176982
-0.142693 0.0216199 0.989531 0.0389438
-0.153068 0.0273852 0.987836 0.0490464
-0.146648 0.0301356 0.98873 0.0483034
-0.150505 0.029067 0.988182 0.0505609
-0.145832 0.0262791 0.98896 0.0465405
-0.147234 0.019285 0.988914 0.0458552
-0.14791 0.0210176 0.988778 0.0464609
-0.141731 0.0203808 0.989695 0.0477924
-0.135263 0.0110974 0.990748 0.0486941
-0.136017 0.0154221 0.990587 0.0494236
-0.138249 0.021622 0.990161 0.0532299
-0.147202 0.0338509 0.988527 0.0587669
-0.15887 0.0485175 0.986107 0.0680867
-0.170742 0.0666206 0.983061 0.0765941
