-0.0245296 0.0891596 0.995715 0.00452315
-0.0220063 0.0894231 0.995751 0.00617966
-0.0318947 0.0897917 0.99545 0.0138059
-0.0347153 0.0832598 0.995923 0.00499733
-0.0375961 0.0794394 0.99613 0.0038255
-0.0398542 0.0773112 0.99621 0.00445621
-0.040522 0.079857 0.995982 0.00587797
-0.0411123 0.0760362 0.996257 0.00490488
-0.0397515 0.0752461 0.996372 0.00434829
-0.0413023 0.0734354 0.996444 0.00463541
-0.042307 0.0769412 0.996138 0.00468731
-0.042962 0.0796034 0.9959 0.00483284
-0.0443248 0.0773711 0.996017 0.00481175
-0.047261 0.0770768 0.995904 0.005805
-0.0479504 0.0817593 0.995498 0.0106011
-0.0489087 0.0798855 0.995603 0.00463278
-0.0489289 0.0769436 0.995834 0.0053115
-0.0492769 0.0821366 0.995402 0.00628211
-0.0489222 0.0868363 0.995021 0.00863049
-0.0494401 0.0896712 0.994744 0.00863462
-0.050183 0.0878985 0.994865 0.00815555
0.266799 0.053537 0.962264 0.00308127
0.275767 0.0573106 0.959514 0.00526631
-0.0653588 0.0933215 0.993488 0.00904469
-0.0635632 0.100579 0.992897 0.0105316
-0.060206 0.102118 0.992949 0.0141732
-0.0551113 0.0998474 0.993475 0.0128744
-0.0487938 0.100768 0.993713 0.0148594
-0.0443797 0.09766 0.99423 0.00836308
-0.0428264 0.102907 0.993769 0.0111605
-0.0388907 0.105144 0.993696 0.0105376
-0.0353463 0.0858244 0.995683 0.00422661
-0.0378806 0.0861054 0.995566 0.00710504
-0.0399377 0.0841065 0.995656 0.00546755
-0.0406092 0.0857353 0.99549 0.00666957
-0.0417915 0.0838708 0.9956 0.00531425
-0.0394894 0.0819802 0.995851 0.00514953
-0.0413512 0.0834696 0.995652 0.00578634
-0.0416874 0.0868132 0.995352 0.00999224
-0.0424865 0.0849312 0.995481 0.00688133
-0.0439417 0.0838774 0.995507 0.00477896
-0.0469756 0.0859955 0.995187 0.00755756
-0.0479005 0.0902749 0.994764 0.0104608
-0.0493689 0.0897193 0.994743 0.00707999
-0.0488448 0.0893992 0.994797 0.0063967
-0.0489443 0.0955418 0.994221 0.00645235
-0.0495345 0.0991049 0.993843 0.00978433
-0.048874 0.0972132 0.994063 0.00977696
-0.0506484 0.0991355 0.993784 0.0100193
0.265713 0.0625933 0.962018 0.00850673
0.276889 0.0615471 0.958929 0.00804354
-0.065351 0.107898 0.992012 0.00986207
-0.0629009 0.112985 0.991604 0.0109441
-0.0600528 0.112831 0.991798 0.0156416
-0.0553258 0.114165 0.99192 0.0165921
-0.0502332 0.109078 0.992763 0.0166765
-0.0461318 0.114441 0.992358 0.0144704
-0.0418509 0.106997 0.993378 0.0127507
-0.0358975 0.0971447 0.994623 0.00749006
-0.0375264 0.0966345 0.994612 0.00829013
-0.0401862 0.0946338 0.994701 0.00922092
-0.0410539 0.0942994 0.994697 0.00815595
-0.0395986 0.0890256 0.995242 0.00434427
-0.0411802 0.0974507 0.994388 0.00964368
-0.0417086 0.0916293 0.994919 0.00526828
-0.0422015 0.0945982 0.994621 0.00653738
-0.0439176 0.0938477 0.994617 0.0100876
-0.0456374 0.0938962 0.994536 0.00550903
-0.0466905 0.0952722 0.994356 0.00724603
-0.0484675 0.0996333 0.993843 0.00692233
-0.04882 0.0975789 0.99403 0.00743592
-0.0489739 0.103715 0.993401 0.0095885
-0.0506267 0.109657 0.992679 0.00790319
-0.049087 0.108313 0.992904 0.00835514
-0.0494418 0.108618 0.992853 0.0091855
-0.0489962 0.11532 0.992119 0.0113195
-0.0487816 0.114108 0.99227 0.00767317
-0.0498698 0.115548 0.992049 0.005534
-0.0521243 0.108877 0.992688 0.00272678
-0.0520274 0.11224 0.992318 0.00355263
0.264198 0.0695334 0.961959 0.00597777
0.275791 0.0680845 0.958803 0.00781739
-0.0515595 0.123927 0.990951 0.0139284
-0.0428756 0.12147 0.991669 0.0116262
-0.0389922 0.107147 0.993478 0.0111903
-0.0423476 0.112552 0.992743 0.0119088
-0.0433384 0.11114 0.992859 0.0140654
-0.0426543 0.113025 0.992676 0.0157189
-0.0448146 0.109223 0.993006 0.0131785
-0.0455682 0.105216 0.993405 0.00940728
-0.0451277 0.107919 0.993135 0.00578528
-0.0476447 0.112018 0.992563 0.00750959
-0.048364 0.108162 0.992956 0.0053998
-0.0492784 0.116072 0.992018 0.00701913
-0.0503218 0.117561 0.99179 0.00851993
-0.0495667 0.118019 0.991774 0.0100484
-0.0496292 0.120145 0.991515 0.00859387
-0.0495214 0.120657 0.991458 0.00765061
-0.0496021 0.119913 0.991544 0.00487457
-0.0503279 0.117969 0.991741 0.00140125
-0.0527705 0.115186 0.991941 0.00454652
-0.0528854 0.115733 0.991871 0.00514848
-0.0528702 0.119307 0.991449 0.00501501
-0.0511173 0.113122 0.992265 0.00222296
0.254284 0.0815871 0.963682 0.0078132
0.26105 0.080631 0.961952 0.00644666
0.274538 0.0757225 0.95859 0.00804749
-0.0439952 0.124589 0.991233 0.0166019
-0.0427217 0.119117 0.991961 0.0131942
-0.0416212 0.12071 0.991815 0.0127091
-0.0435749 0.120896 0.991708 0.0122488
-0.0449649 0.115267 0.992316 0.00889001
-0.0457206 0.116719 0.992112 0.00729988
-0.0460908 0.120772 0.99161 0.00154169
-0.0488961 0.124404 0.991026 0.00616083
-0.0498695 0.126217 0.990748 0.00690697
-0.0498308 0.118822 0.991664 0.00507154
-0.0494968 0.122734 0.991205 0.0099361
-0.0507046 0.128684 0.990389 0.0120495
-0.0494449 0.127452 0.990611 0.00538018
-0.0502068 0.127566 0.990559 0.00502479
-0.0509196 0.124777 0.990877 0.0042502
-0.0521089 0.120617 0.991331 0.00249857
-0.0532714 0.123401 0.990926 0.00690389
-0.0524005 0.12105 0.991262 0.00222852
-0.0509843 0.123439 0.991042 0.00427748
-0.0524227 0.120379 0.991343 0.00598029
-0.0542242 0.117588 0.991581 0.00371271
0.255299 0.093399 0.96234 0.00893095
0.259475 0.0930061 0.961261 0.0069547
-0.0429153 0.132199 0.990294 0.0154262
-0.0440445 0.126486 0.99099 0.00915234
-0.0434602 0.130554 0.990488 0.00464438
-0.0442176 0.128584 0.990712 0.00337371
-0.047424 0.127203 0.990742 0.00433054
-0.0498873 0.13091 0.990138 0.00677107
-0.0503078 0.133449 0.989778 0.00709891
-0.049591 0.136007 0.989466 0.0127815
-0.0511612 0.138166 0.989087 0.0139706
-0.0513156 0.14194 0.988544 0.00769189
-0.0498323 0.132758 0.989895 0.00175065
-0.0512321 0.128259 0.990417 0.0017453
-0.0526775 0.128035 0.99037 0.0019511
-0.051828 0.128726 0.990325 0
-0.052861 0.126241 0.99059 0.00227713
-0.0512755 0.125429 0.990777 0.0013305
-0.0521768 0.121614 0.991205 0.00125372
-0.0549295 0.1231 0.990873 0.00329329
-0.0567875 0.12967 0.98993 0.00555451
-0.0588678 0.135092 0.989083 0.00829116
-0.0597497 0.143259 0.98788 0.0152006
-0.0609529 0.122411 0.990606 0.00806614
0.251903 0.10195 0.962367 0.00868361
-0.0501376 0.145786 0.988045 0.0135161
-0.0518268 0.146194 0.987897 0.0111259
-0.0510624 0.144017 0.988257 0.00545681
-0.0505402 0.139302 0.988959 0.0034628
-0.0520583 0.142506 0.988424 0.00692669
-0.0522655 0.140211 0.988741 0.00101636
-0.0521004 0.136038 0.989333 0.00209559
-0.052546 0.139221 0.988866 0.00394379
-0.0509942 0.139207 0.98895 0.00381632
-0.0525257 0.129902 0.990135 0.00262337
-0.0553569 0.136517 0.98909 0.0061098
-0.0566575 0.139035 0.988665 0.00648344
-0.0578487 0.141705 0.988217 0.00845906
-0.0588136 0.142898 0.987988 0.0101967
-0.0602713 0.148652 0.987051 0.0136973
-0.0612026 0.138439 0.988478 0.0111473
-0.0619724 0.137354 0.988581 0.00965725
-0.062099 0.130096 0.989555 0.00359208
-0.0631397 0.137353 0.988508 0.00502603
-0.0655093 0.137855 0.988284 0.00657083
0.255155 0.113239 0.960246 0.0115063
-0.0517896 0.157654 0.986135 0.0076994
-0.0525869 0.155785 0.98639 0.0106106
-0.0523084 0.146106 0.987885 0.00663658
-0.052151 0.141066 0.988626 0.00230336
-0.0521494 0.147384 0.987704 0.00721033
-0.0519368 0.148858 0.987494 0.00717204
-0.0523286 0.144484 0.988123 0.00161065
-0.0541693 0.142255 0.988347 0.00331826
-0.0560918 0.146059 0.987684 0.00297964
-0.0579361 0.158214 0.985704 0.00801539
-0.0586425 0.15686 0.985878 0.0105433
-0.0599397 0.158517 0.985535 0.0118662
-0.0615583 0.157209 0.985645 0.0128963
-0.0615879 0.146653 0.987269 0.00511492
-0.0627055 0.144022 0.987586 0.00504934
-0.0641229 0.148763 0.986792 0.00742784
-0.0659126 0.144476 0.987311 0.00704036
-0.0671454 0.14837 0.98665 0.0102204
-0.0691653 0.158763 0.984891 0.0130859
-0.0718628 0.166828 0.983364 0.0159336
0.258383 0.125482 0.957858 0.0169198
-0.0531123 0.148892 0.987426 0.00147065
-0.0554829 0.154112 0.986494 0.00727236
-0.0547991 0.150757 0.987051 0
-0.0590915 0.163491 0.984774 0.0118113
-0.0589097 0.165089 0.984518 0.0118665
-0.0599499 0.172905 0.983112 0.0132935
-0.0618264 0.169901 0.98352 0.0141663
-0.0622243 0.155846 0.98582 0.00581113
-0.0641223 0.161744 0.984747 0.0075435
-0.0649676 0.154407 0.985869 0.00853075
-0.0665783 0.158178 0.985164 0.0109275
-0.0685326 0.164029 0.984072 0.0155277
-0.0702624 0.166717 0.983498 0.0152782
-0.0719387 0.173477 0.982207 0.0151425
-0.0720506 0.168167 0.983122 0.0141976
-0.0743683 0.168045 0.98297 0.0155785
-0.0746357 0.167427 0.983055 0.0116096
-0.0752839 0.154563 0.985111 0.00134331
-0.0774897 0.157601 0.984458 0.0035465
-0.0788048 0.156718 0.984494 0.00573915
-0.0802645 0.150187 0.985394 0.00244859
0.238077 0.148518 0.959824 0.0228345
0.257661 0.137605 0.956387 0.0199989
-0.0653168 0.166803 0.983824 0.0107231
-0.0651135 0.158339 0.985236 0.0098858
-0.0674221 0.167286 0.9836 0.0114523
-0.069679 0.17697 0.981747 0.0164944
-0.0708382 0.177842 0.981506 0.0193941
-0.0719143 0.183399 0.980405 0.014486
-0.0721292 0.193782 0.978389 0.0155638
-0.0732158 0.185874 0.979842 0.0127299
-0.074409 0.17708 0.98138 0.0111805
-0.0763483 0.168572 0.982728 0.00385869
-0.0774761 0.166063 0.983067 0.00217291
-0.0799081 0.159072 0.984028 0.00310018
-0.0810391 0.16239 0.983393 0.00650677
-0.0815119 0.151332 0.985116 0.00122737
-0.0817738 0.147464 0.985681 0
-0.0819919 0.149972 0.985285 0.000812585
-0.0827055 0.153452 0.984689 0
-0.0838052 0.150582 0.985039 0
-0.0846911 0.163125 0.982964 0.00234817
-0.0854855 0.164623 0.982645 0.00217822
0.232625 0.157363 0.959751 0.0215649
0.236174 0.154323 0.959378 0.0192979
-0.0766005 0.180088 0.980663 0.00528432
-0.0782806 0.177976 0.980916 0.00194855
-0.0803904 0.170092 0.982144 0.00403964
-0.0811363 0.168462 0.982363 0.00233306
-0.0818897 0.164328 0.983001 0.000857087
-0.0819783 0.162249 0.983339 0
-0.0827327 0.160462 0.983569 0
-0.0834264 0.167226 0.982382 0
-0.0842755 0.167424 0.982276 0.00238233
-0.0849124 0.17091 0.981621 0.00565424
-0.0854858 0.175782 0.98071 0.00292141
-0.0853995 0.167673 0.982137 0.000469749
0.232762 0.167807 0.957947 0.0220459
0.240528 0.171688 0.955337 0.023873
-0.0819744 0.161964 0.983386 0.000201696
-0.0838901 0.181946 0.979724 0.00370953
-0.0842957 0.185962 0.978934 0.004942
-0.0868561 0.19081 0.977777 0.0123402
-0.0860617 0.184877 0.978986 0.00620921
-0.085606 0.186855 0.97865 0.00301982
-0.083577 0.18432 0.979306 0.00275741
-0.0819283 0.18847 0.978656 0.0017592
-0.0798104 0.17842 0.980712 0.00122791
-0.078058 0.178715 0.9808 0
-0.0778768 0.177936 0.980956 4.58154e-05
-0.075302 0.183674 0.980099 0.00153188
-0.0722184 0.189644 0.979193 0.000956031
-0.0685731 0.190766 0.979237 0
0.220959 0.181546 0.958237 0.0215887
0.233701 0.176669 0.956123 0.0221548
0.238878 0.176576 0.95486 0.0220386
-0.0852732 0.203168 0.975424 0.00389556
-0.0836721 0.197267 0.976773 0.00540285
-0.0828207 0.203845 0.975494 0.00617704
-0.0803231 0.199838 0.976531 0.00451506
-0.0793258 0.202246 0.976117 0.00227449
-0.0787835 0.204924 0.975602 0.00687514
-0.0767869 0.200139 0.976754 0.00543007
-0.0732556 0.205274 0.975959 0.00376701
-0.0692301 0.196766 0.978003 0
-0.0639198 0.203013 0.977088 0.00133565
-0.0525369 0.221415 0.973763 0.00757619
0.185273 0.203532 0.961378 0.0211978
0.202995 0.201751 0.95817 0.0239761
0.221493 0.190845 0.956305 0.0200105
0.234065 0.18645 0.954175 0.0238788
-0.0787211 0.206131 0.975353 0.00134099
-0.0715166 0.209402 0.975211 0
-0.0706329 0.20948 0.975258 0.00329019
-0.0652721 0.2232 0.972585 0.00568879
-0.0501002 0.238296 0.969899 0.00834716
-0.0471102 0.246881 0.9679 0.0120284
-0.0351275 0.242754 0.969452 0.0075696
-0.0189046 0.250562 0.967916 0.00633179
-0.000518157 0.255383 0.96684 0.00797903
0.13602 0.226086 0.964564 0.0148861
0.145433 0.229909 0.962284 0.0188448
0.170709 0.214989 0.961581 0.0167608
0.188344 0.214298 0.958438 0.0202316
0.205191 0.213833 0.955077 0.0235744
-0.0496695 0.230053 0.97191 0.00154403
-0.0468494 0.247241 0.967821 0.00713388
-0.0358604 0.257728 0.965552 0.00852711
-0.0183181 0.268617 0.963073 0.00732255
0.0043909 0.275339 0.961337 0.008218
0.0240063 0.268863 0.962879 0.00583597
0.0361782 0.281565 0.95886 0.0117532
0.0471677 0.271579 0.961259 0.0104357
0.0555382 0.277944 0.95899 0.0124713
0.0646854 0.273033 0.959827 0.0136213
0.0752394 0.262865 0.961895 0.0127885
0.0915621 0.251453 0.963529 0.0143404
0.112675 0.245598 0.962801 0.0157509
0.122918 0.239219 0.963154 0.0149891
0.135868 0.235977 0.962213 0.0152432
0.146203 0.234234 0.961124 0.0164274
0.171571 0.222859 0.959634 0.0147511
0.0359144 0.293645 0.95524 0.0130728
0.0442019 0.288531 0.95645 0.0108747
0.055353 0.286528 0.956472 0.0128246
0.0644412 0.283981 0.956662 0.0158844
0.0740238 0.271206 0.959671 0.0129179
0.0927795 0.265119 0.959742 0.0137115
0.112396 0.254169 0.960607 0.0152424
0.122034 0.242436 0.962462 0.0132239
0.130591 0.24682 0.960222 0.0176255
0.0678571 -0.185873 0.980228 0.0132312
0.0658961 -0.181585 0.981165 0.0155246
0.0719528 -0.180166 0.981001 0.0153448
0.0855851 -0.173738 0.981066 0.0154673
0.1003 -0.174842 0.979474 0.0237747
-0.00169072 -0.159247 0.987237 0
0.00588088 -0.159786 0.987134 0.00213303
0.0148147 -0.162469 0.986602 0.00305291
0.031957 -0.165563 0.985681 0.000348818
0.0433179 -0.159539 0.986241 0
0.0551919 -0.16596 0.984587 0.00845592
0.0660188 -0.175264 0.982306 0.0160274
0.0725161 -0.17405 0.982063 0.0161389
0.0868085 -0.167819 0.981988 0.0172443
0.101198 -0.166973 0.980754 0.0252756
0.111272 -0.163676 0.980219 0.0208001
0.116265 -0.164116 0.979565 0.0158486
-0.0164161 -0.144183 0.989415 0.00355335
-0.00239763 -0.14921 0.988803 0
0.00559446 -0.151553 0.988433 0
0.0154761 -0.155033 0.987788 0.00129369
0.0310415 -0.155606 0.987331 0.00150208
0.0420807 -0.154958 0.987024 0.00380698
0.0543731 -0.161124 0.985435 0.00268276
0.065942 -0.163518 0.984334 0.00759528
0.0728448 -0.169035 0.982914 0.00792631
0.0867741 -0.161203 0.983099 0.0147586
0.101385 -0.155997 0.982541 0.0227072
0.111877 -0.15827 0.981037 0.0241085
0.120381 -0.160344 0.979693 0.0173684
0.128367 -0.158473 0.978983 0.0121849
-0.0371384 -0.130432 0.990761 0.00472076
-0.030265 -0.136381 0.990194 0.0055849
-0.0180384 -0.139481 0.99006 0.00582847
-0.00440404 -0.141876 0.989875 0.0012645
0.00324625 -0.140583 0.990064 0.000914626
0.014083 -0.146268 0.989145 0
0.0304279 -0.148146 0.988497 0
0.0412066 -0.14765 0.988181 0.00225548
0.053901 -0.150305 0.987169 0.00642154
0.06476 -0.151622 0.986315 0.00692179
0.0732078 -0.153311 0.985463 0.00948948
0.087445 -0.15637 0.98382 0.0119183
0.102966 -0.151881 0.983021 0.018217
0.113056 -0.152052 0.981885 0.0194608
0.121809 -0.15491 0.98039 0.0132881
0.128695 -0.154608 0.979558 0.0119581
-0.0410214 -0.12398 0.991436 0.0070422
-0.0386863 -0.12314 0.991635 0.00565731
-0.0303788 -0.12919 0.991154 0.00494294
-0.0185684 -0.128052 0.991594 0.00662909
-0.00550905 -0.134629 0.990881 0.00336165
-0.00154854 -0.12915 0.991624 0
0.0141824 -0.136645 0.990519 6.30157e-05
0.0297239 -0.139149 0.989825 0.00173481
0.0423605 -0.138271 0.989488 0.000872782
0.0527195 -0.140147 0.988726 0.00457029
0.0642831 -0.14016 0.98804 0.00683677
0.0716891 -0.140158 0.987531 0.00862559
0.0887386 -0.144657 0.985495 0.0147717
0.103477 -0.147118 0.983691 0.0168824
0.113377 -0.14658 0.98268 0.00995605
0.122584 -0.144868 0.981828 0.0113817
0.129183 -0.146478 0.980743 0.0100453
-0.0438854 -0.116068 0.992271 0.00889625
-0.038964 -0.119091 0.992118 0.00526382
-0.0305535 -0.119526 0.992361 0.00646054
-0.0182647 -0.12301 0.992237 0.00527428
-0.00331718 -0.123097 0.992389 0.00629305
0.0128127 -0.131613 0.991218 0
0.029688 -0.131951 0.990812 0.00170604
0.0417181 -0.132023 0.990368 0
0.0525668 -0.130956 0.989994 0.00601413
0.0645917 -0.131654 0.989189 0.00959782
0.07269 -0.13386 0.988331 0.0112557
0.0885359 -0.138594 0.986384 0.0128696
0.0886441 -0.134069 0.986999 0.012854
0.103689 -0.142979 0.984279 0.00915673
0.113257 -0.138624 0.983848 0.0108231
0.124045 -0.136401 0.982857 0.0129014
0.12965 -0.13536 0.982277 0.00916618
0.169139 -0.132508 0.976644 0.00914227
-0.045076 -0.106473 0.993293 0.00738155
-0.0411093 -0.10499 0.993623 0.00682365
-0.0324944 -0.111302 0.993255 0.0101283
-0.0199138 -0.113992 0.993282 0.00862503
-0.00262143 -0.116899 0.99314 0.00968618
0.0123189 -0.117281 0.993022 0.00142262
0.0285587 -0.118402 0.992555 0.00612542
0.0421738 -0.124673 0.991301 0.00571498
0.0513137 -0.121543 0.991259 0.00731742
0.0606991 -0.124468 0.990365 0.00902331
0.0699267 -0.127361 0.989388 0.0100016
0.0882836 -0.126497 0.988031 0.0121925
0.105897 -0.132471 0.985514 0.0144137
0.115543 -0.12941 0.984836 0.0133847
0.123826 -0.126974 0.984147 0.0124142
0.132416 -0.127365 0.982977 0.0108231
0.15341 -0.127323 0.979926 0.00589899
0.166661 -0.124165 0.978165 0.00445285
0.169797 -0.124143 0.977628 0.00665518
-0.054972 -0.094819 0.993976 0.00594984
-0.0454413 -0.0960391 0.99434 0.00707156
-0.0427098 -0.0945586 0.994603 0.00676476
-0.0337823 -0.0983899 0.994574 0.00928862
-0.0207697 -0.102425 0.994524 0.00495568
-0.0042252 -0.111456 0.99376 0.0104092
0.00900687 -0.112254 0.993639 0.00697438
0.0251925 -0.111221 0.993476 0.00725046
0.0407354 -0.11474 0.99256 0.0103257
0.0519983 -0.113633 0.992161 0.00761959
0.0608108 -0.115644 0.991428 0.0122646
0.0694999 -0.118928 0.990467 0.00890918
0.0880965 -0.119587 0.988907 0.01499
0.1047 -0.119651 0.98728 0.016733
0.115603 -0.120621 0.985945 0.0136784
0.125181 -0.120418 0.984799 0.00827672
0.132814 -0.118116 0.984078 0.00806056
0.153921 -0.118979 0.980894 0
0.16582 -0.117278 0.979158 0.00154621
0.170398 -0.117369 0.978361 0.00461442
-0.0462208 -0.086543 0.995175 0.00860272
-0.0439037 -0.083678 0.995525 0.010633
-0.0350918 -0.087047 0.995586 0.00732085
-0.0224261 -0.091838 0.995521 0.00817192
-0.00440721 -0.099733 0.995004 0.011726
0.0095391 -0.100174 0.994924 0.0111035
0.022665 -0.102233 0.994502 0.0128708
0.0380596 -0.102519 0.994003 0.0113486
0.0520562 -0.104041 0.99321 0.0169216
0.0606934 -0.105443 0.992571 0.0145327
0.0687943 -0.106704 0.991908 0.013845
0.0871159 -0.109178 0.990197 0.0151582
0.1036 -0.106194 0.988934 0.0153938
0.116172 -0.108519 0.987283 0.0130557
0.125841 -0.112187 0.985687 0.00655238
0.134517 -0.113808 0.984354 0.00565817
0.155305 -0.109121 0.981821 0.000747943
0.168218 -0.108981 0.979707 0
0.171414 -0.109888 0.979052 0
-0.0463183 -0.0806101 0.995669 0.0076337
-0.0433119 -0.0785396 0.99597 0.00685701
-0.0348622 -0.0794346 0.99623 0.00828748
-0.0228476 -0.0823225 0.996344 0.0112233
-0.0045105 -0.0893112 0.995994 0.0152354
0.00992951 -0.0883839 0.996037 0.014895
0.0222437 -0.0923308 0.99548 0.0159568
0.0359827 -0.0956201 0.994767 0.0176075
0.0517758 -0.0943366 0.994193 0.019279
0.0605319 -0.0978618 0.993357 0.0177172
0.0690917 -0.0976391 0.992821 0.0166419
0.0860196 -0.100326 0.991229 0.0124767
0.104399 -0.0981721 0.989678 0.0168061
0.115253 -0.0985982 0.988431 0.0105636
0.125349 -0.100878 0.986971 0.00921005
0.13235 -0.101528 0.98599 0.00728446
0.158888 -0.103578 0.981848 0.00510232
0.17198 -0.101053 0.979904 0.00605434
0.175463 -0.100614 0.979331 0.00775336
-0.0467182 -0.0738369 0.996175 0.0101434
-0.0434972 -0.0743321 0.996284 0.00870811
-0.0347275 -0.0725284 0.996762 0.00898591
-0.0231737 -0.0745839 0.996945 0.0123907
-0.00478392 -0.077192 0.997005 0.015071
0.00922172 -0.0792051 0.996816 0.0186355
0.0220817 -0.0793616 0.996601 0.0189119
0.0353876 -0.0839979 0.995837 0.0216947
0.0515836 -0.0868699 0.994883 0.0215771
0.060079 -0.0857602 0.994503 0.0202574
0.0700135 -0.0808918 0.994261 0.0210824
0.0853894 -0.0859641 0.992632 0.0128405
0.104238 -0.0864836 0.990785 0.0148605
0.114873 -0.0889735 0.989388 0.0111091
0.124744 -0.0869402 0.988373 0.00912247
0.132328 -0.0898744 0.987123 0.00745856
0.16222 -0.0945829 0.982211 0.0061158
0.171948 -0.091242 0.980871 0.00417108
0.175808 -0.0922584 0.980092 0.00517202
-0.0470743 -0.0658072 0.996721 0.0074844
-0.0425035 -0.0661889 0.996901 0.00535989
-0.0351342 -0.0663367 0.997179 0.00971746
-0.0229689 -0.0696615 0.997306 0.0143249
-0.0231548 -0.0675027 0.99745 0.0131087
-0.00486982 -0.0667056 0.997761 0.0139519
0.00871056 -0.0666089 0.997741 0.0188596
0.0218452 -0.0675237 0.997479 0.0206051
0.0351316 -0.0718375 0.996797 0.0224113
0.0510424 -0.0763131 0.995777 0.0190517
0.0592474 -0.0739089 0.995504 0.0198364
0.06945 -0.0707673 0.995072 0.01869
0.0862082 -0.0709656 0.993746 0.0135939
0.101833 -0.0716158 0.99222 0.00804889
0.114276 -0.0738806 0.990698 0.0103974
0.122614 -0.073545 0.989726 0.0081793
0.132653 -0.0765639 0.988201 0.00841597
0.160578 -0.0845844 0.983392 0.0033437
0.175416 -0.0844101 0.980869 0.00652845
0.17974 -0.0843262 0.980093 0.0068598
-0.0559772 -0.0588026 0.996699 0.00256818
-0.0463698 -0.0592437 0.997166 0.00102256
-0.0429041 -0.0573222 0.997433 0.00309957
-0.0359587 -0.0566299 0.997747 0.0124176
-0.0247933 -0.0609744 0.997831 0.0133794
-0.00920571 -0.0585274 0.998243 0.0104241
0.00502055 -0.0544204 0.998505 0.0151969
0.0205482 -0.0528409 0.998392 0.0208042
0.0330329 -0.0586793 0.99773 0.0209462
0.0464818 -0.0646701 0.996824 0.0218187
0.0595915 -0.0630275 0.996231 0.0204867
0.06823 -0.0623384 0.99572 0.0180546
0.0855841 -0.0596587 0.994543 0.0107442
0.101497 -0.0640638 0.992771 0.00534379
0.113157 -0.0615057 0.991672 0.0051181
0.120594 -0.0646 0.990598 0.00336512
0.13109 -0.0680636 0.989031 0.00630255
0.160598 -0.0709157 0.984469 0.0083058
0.176212 -0.0725562 0.981675 0.0104327
0.17864 -0.0731876 0.981189 0.0110192
-0.0565378 -0.0486023 0.997217 0.00121794
-0.0467479 -0.0501545 0.997647 0.00300018
-0.0441048 -0.0472378 0.997909 0.00202998
-0.0355097 -0.0482328 0.998205 0.0074102
-0.0238755 -0.0458243 0.998664 0.00919089
-0.0101555 -0.0488976 0.998752 0.0114741
0.00489773 -0.0433104 0.99905 0.013731
0.0206743 -0.0432894 0.998849 0.0189587
0.032567 -0.0466383 0.998381 0.0179482
0.0449124 -0.0495369 0.997762 0.0164687
0.0596556 -0.0526036 0.996832 0.0167218
0.0679247 -0.0527499 0.996295 0.0136725
0.0850214 -0.0560045 0.994804 0.00303793
0.100854 -0.0529633 0.99349 0.00102892
0.111629 -0.0537279 0.992296 0.00267155
0.119171 -0.0528016 0.991469 0.00151093
0.128301 -0.0554029 0.990187 0
0.159259 -0.0574134 0.985566 0.00998919
0.172742 -0.0571064 0.98331 0.012374
0.17561 -0.0577103 0.982767 0.0102391
-0.0559824 -0.0425118 0.997526 0.000415812
-0.0436435 -0.0386415 0.9983 0
-0.0349006 -0.0411476 0.998543 0.00111275
-0.0231032 -0.0379095 0.999014 0.00264926
-0.0098076 -0.0370829 0.999264 0.0078871
0.00517722 -0.0380577 0.999262 0.00978513
0.020793 -0.0372872 0.999088 0.0144687
0.0339561 -0.0393815 0.998647 0.0134269
0.0446916 -0.0396298 0.998214 0.0140565
0.0593225 -0.0462884 0.997165 0.0142651
0.067816 -0.0480794 0.996539 0.0129259
0.0718132 -0.045835 0.996364 0.00949972
0.0839796 -0.0483256 0.995295 0
0.101409 -0.0435534 0.993891 0.00525253
0.109867 -0.0432865 0.993003 0.00522681
0.117004 -0.046444 0.992045 0.00267415
0.128015 -0.0492153 0.99055 0.00138922
0.155628 -0.0502754 0.986535 0.00282648
0.170785 -0.0485265 0.984113 0.0104239
0.175787 -0.049301 0.983193 0.0138394
-0.0442516 -0.0334715 0.99846 0
-0.0353182 -0.0337704 0.998805 0
-0.023425 -0.0317765 0.99922 0
-0.0091908 -0.0305093 0.999492 0.00164921
0.00554559 -0.0296347 0.999545 0.00779727
0.022652 -0.0322762 0.999222 0.0116486
0.0333015 -0.0343945 0.998853 0.00671746
0.0422679 -0.0321475 0.998589 0.00837051
0.0558653 -0.0356524 0.997802 0.00978922
0.0661045 -0.0342761 0.997224 0.00929367
0.0709232 -0.0361013 0.996828 0.00843247
0.0839966 -0.0383214 0.995729 0.00216695
0.0994002 -0.0368499 0.994365 0.00139829
0.109212 -0.0389078 0.993257 0.00257613
0.117796 -0.0392966 0.99226 0.00089359
0.127421 -0.0417562 0.990969 0.00219082
0.157269 -0.0403774 0.98673 0.00951718
0.17311 -0.0390955 0.984126 0.0118259
-0.0432222 -0.0270733 0.998699 0
-0.0353742 -0.0259135 0.999038 0
-0.0229966 -0.0273914 0.99936 0
-0.00879927 -0.025963 0.999624 0
0.00665373 -0.0252469 0.999659 0.00328222
0.0228763 -0.0257245 0.999407 0.00540337
0.0338949 -0.0275605 0.999045 0.00161978
0.0406716 -0.0269258 0.99881 0.00307569
0.0551562 -0.0268762 0.998116 0.00436102
0.0650693 -0.0254102 0.997557 0.00531211
0.0695937 -0.0257885 0.997242 0.000179943
0.0838838 -0.0291635 0.996049 0
0.0987161 -0.0300342 0.994662 0.000348297
0.108372 -0.0327988 0.993569 0
0.117182 -0.0322219 0.992588 0.00368804
0.128332 -0.0329112 0.991185 0.00766973
0.157232 -0.0314544 0.987061 0.0104784
0.16705 -0.0286299 0.985533 0.0100851
0.169723 -0.0288687 0.985069 0.0082467
-0.0436537 -0.0201198 0.998844 0
-0.0376564 -0.0211692 0.999067 0
-0.0226671 -0.0218745 0.999504 0
-0.00742317 -0.018571 0.9998 0
0.00503487 -0.0190743 0.999805 0.00191128
0.0211304 -0.0215155 0.999545 0.000999362
0.0346232 -0.0193939 0.999212 0.000324344
0.0413768 -0.0210013 0.998923 0.00330178
0.0526237 -0.0194307 0.998425 0.0049864
0.0653614 -0.0204857 0.997651 0.00149137
0.0708757 -0.0222218 0.997238 0
0.083761 -0.0222984 0.996236 0.00122874
0.099157 -0.0224969 0.994817 0.00619697
0.109382 -0.023593 0.99372 0.00982873
0.115993 -0.0245356 0.992947 0.00612616
0.128343 -0.0257536 0.991395 0.00869667
0.162745 -0.0228501 0.986404 0.0121466
0.170346 -0.0248903 0.98507 0.0115914
-0.0432678 -0.0165451 0.998926 0
-0.0380261 -0.0161608 0.999146 0
-0.0223639 -0.0172168 0.999602 0
-0.00728981 -0.0156399 0.999851 0
0.0052565 -0.0166446 0.999848 0
0.0209535 -0.0117044 0.999712 0.00297317
0.035261 -0.0151309 0.999264 0.00360799
0.0420234 -0.0152455 0.999 0.00195093
0.0541584 -0.0169236 0.998389 0.0011902
0.0658028 -0.0156792 0.997709 0.00226037
0.0716654 -0.0161309 0.997298 0
0.0849413 -0.0151422 0.996271 0.00682017
0.098181 -0.0159188 0.995041 0.00833969
0.107496 -0.0168437 0.994063 0.00791799
0.115549 -0.0179826 0.993139 0.0113661
0.126484 -0.017274 0.991818 0.0124762
0.16141 -0.0206251 0.986672 0.0141591
0.170175 -0.0186409 0.985237 0.0132969
-0.0424394 -0.0151499 0.998984 0
-0.0381078 -0.0169586 0.99913 0
-0.0348429 -0.0157277 0.999269 0
-0.0223786 -0.014504 0.999644 0
-0.00706323 -0.012605 0.999896 0
0.00526085 -0.0128729 0.999903 0.0025186
0.0199601 -0.00959649 0.999755 0.00329701
0.0341146 -0.0142093 0.999317 0
0.0431664 -0.0135935 0.998975 0.00316875
0.0509497 -0.0124669 0.998623 0.00535165
0.0631374 -0.013863 0.997909 0.0013215
0.0723959 -0.0145698 0.99727 0.00400526
0.0849014 -0.0113879 0.996324 0.00792282
0.0974011 -0.0118488 0.995175 0.00626764
0.107138 -0.0129248 0.99416 0.00611452
0.115144 -0.0111589 0.993286 0.011328
0.126585 -0.010428 0.991901 0.014314
0.156276 -0.0156285 0.98759 0.0139514
0.169495 -0.0138781 0.985433 0.0125112
-0.0428391 -0.0112324 0.999019 0
-0.0341173 -0.00977074 0.99937 0
-0.0224852 -0.00512711 0.999734 0.000450171
-0.00695754 -0.00704004 0.999951 0.00129104
0.00551197 -0.00894094 0.999945 0.00499422
0.0179515 -0.00837004 0.999804 0.00589258
0.0350043 -0.00696596 0.999363 0.00463209
0.0436521 -0.00947759 0.999002 0.00194989
0.0526225 -0.00761027 0.998585 0.00672583
0.0637068 -0.00789081 0.997937 0.00248142
0.0722326 -0.00874182 0.99735 0.00473815
0.0835596 -0.0103132 0.996449 0.0033633
0.104326 -0.00558743 0.994527 0.00750849
0.113547 -0.00561815 0.993517 0.0130388
0.127246 -0.00664916 0.991849 0.0161368
0.154807 -0.0081504 0.987911 0.0105245
0.170912 -0.00768679 0.985256 0.0141047
-0.0433315 -0.00908263 0.99902 0
-0.0338812 -0.00660687 0.999404 0
-0.0222665 -0.00313422 0.999747 0.000840073
-0.00638598 -0.0033026 0.999974 0.00532335
0.00676821 -0.00508244 0.999964 0.00760413
0.0182627 -0.00386878 0.999826 0.00672845
0.0352212 -0.00721329 0.999353 0.00617999
0.0454493 -0.0048372 0.998955 0.00937457
0.0526535 -0.0039866 0.998605 0.00515035
0.0649337 -0.00334765 0.997884 0.00409976
0.0727248 -0.0037889 0.997345 0.00503235
0.0860985 -0.00400848 0.996279 0.0116429
0.102056 -0.00514663 0.994765 0.0100058
0.112388 -0.00264977 0.993661 0.0134573
0.126304 -0.000925401 0.991991 0.0145975
0.153626 -0.00407218 0.988121 0.00904724
0.171477 -0.00374523 0.985181 0.0123833
-0.0437965 -0.00750097 0.999012 0
-0.0338395 -0.00312574 0.999422 0
-0.0224028 -0.0013506 0.999748 0
-0.00632005 0.000275611 0.99998 0.00573899
0.00745767 0.00144221 0.999971 0.00747798
0.0194139 -0.0017221 0.99981 0.00576336
0.0366178 -0.00282624 0.999325 0.00618309
0.045197 -0.000604565 0.998978 0.00815549
0.0527882 -0.00138683 0.998605 0.00560448
0.0666549 -0.00223382 0.997774 0.00423794
0.0734556 2.49379e-06 0.997298 0.00391153
0.0857212 0.000180909 0.996319 0.0071596
0.102671 -0.000994212 0.994715 0.00825515
0.110329 0.0012881 0.993894 0.0118054
0.125413 0.00239205 0.992102 0.0114545
0.157135 0.00490419 0.987565 0.0163204
0.170538 0.00138931 0.98535 0.0117964
-0.035238 0.00205714 0.999377 0
-0.0226543 0.00197581 0.999741 0
-0.00570098 0.0029202 0.999979 0.001139
0.00804673 0.00213377 0.999965 0.00783312
0.0199861 0.000331027 0.9998 0.00705899
0.0351067 -0.000305267 0.999384 0.00801383
0.0454494 -0.000564825 0.998966 0.00313535
0.053301 0.00101944 0.998578 0.00320878
0.0659988 0.00169024 0.997818 0.006872
0.0726805 0.0010317 0.997355 0.00520517
0.0857749 0.00135718 0.996314 0.0042872
0.102774 0.00280936 0.994701 0.00568339
0.11038 0.000977435 0.993889 0.00705567
0.125907 0.000756334 0.992042 0.0100378
-0.0354836 0.00365186 0.999364 0
-0.0229885 0.0030268 0.999731 0.00037644
-0.00606412 0.00132555 0.999981 0.00532732
0.00875772 0.00119075 0.999961 0.00648636
0.0203069 0.000288738 0.999794 0.00554611
0.0355599 -0.00167848 0.999366 0.00561274
0.0464692 -0.0016365 0.998918 0.00219946
0.0545994 -0.000315415 0.998508 0.00420703
0.0650726 0.00270964 0.997877 0.00815856
0.0727345 0.000963366 0.997351 0.00855955
0.0855056 0.00328921 0.996332 0.00540151
0.103217 0.00571767 0.994642 0.00843154
0.111426 0.00288659 0.993769 0.00706321
0.123867 0.0029849 0.992294 0.00938691
0.130064 0.00593764 0.991488 0.0142654
0.15485 0.00283685 0.987934 0.0131086
-0.0358321 0.00190318 0.999356 0
-0.0232548 0.00225399 0.999727 0
-0.00688406 0.00271816 0.999973 0.00534265
0.00533301 0.00146314 0.999985 0.00436078
0.0185957 0.000671878 0.999827 0.00322173
0.0368136 -0.00221971 0.99932 0
0.0477681 -0.0023745 0.998856 0.00193789
0.0555785 -0.00178153 0.998453 0.0041293
0.0658273 0.00227867 0.997828 0.00660317
0.0722875 0.00187061 0.997382 0.00555099
0.0862397 0.00518883 0.996261 0.0100135
0.104261 0.00539211 0.994535 0.0128303
0.111313 0.00469727 0.993774 0.0109477
0.120711 0.00244801 0.992685 0.0118994
0.129179 0.00580221 0.991604 0.0151961
0.156348 0.00523033 0.987688 0.0167989
0.174158 0.00266706 0.984714 0.0204498
-0.0356448 4.84051e-05 0.999364 0
-0.0223126 0.000162391 0.999751 0
-0.00618538 -0.00057004 0.999981 0
0.00487541 0.000830997 0.999988 0.00424222
0.0198858 0.00256473 0.999799 0.00753133
0.0373433 -0.000121492 0.999303 0.00172162
0.0487573 -0.00327684 0.998805 0.00127757
0.0572493 -0.000724296 0.99836 0.0071259
0.0666928 0.0036818 0.997767 0.00654168
0.072598 0.00417214 0.997353 0.00517803
0.0870934 0.00522804 0.996186 0.00885619
0.104067 0.0045811 0.99456 0.0108342
0.108982 0.00309481 0.994039 0.00854984
0.118233 0.00211439 0.992984 0.00878504
0.128017 0.00189875 0.99177 0.0127837
0.156393 0.00169862 0.987693 0.0171628
-0.0360753 -0.00128588 0.999348 0
-0.0220416 -0.00118244 0.999756 0
-0.00524973 0.000260222 0.999986 0
0.00479816 -0.00166721 0.999987 0.00164156
0.018832 -0.00021785 0.999823 0.00438495
0.0380962 -0.00409324 0.999266 0.00346382
0.0487844 -0.0010919 0.998809 0.00217138
0.0574878 -0.000345554 0.998346 0.00667677
0.0683952 0.00335673 0.997653 0.0128635
0.0748477 0.0062145 0.997176 0.0125173
0.0873123 0.00771396 0.996151 0.0120398
0.101303 0.00571554 0.994839 0.0152278
0.110431 0.00346626 0.993878 0.0130003
0.120833 0.00199359 0.992671 0.0161335
0.129348 0.00328626 0.991594 0.0137171
-0.0362452 0.00089962 0.999343 0
-0.0220392 -0.00214222 0.999755 9.73158e-05
-0.00459048 -0.000272174 0.999989 0
0.00585657 -0.00334784 0.999977 0.00218408
0.0187705 -0.00107858 0.999823 0.00631316
0.0391354 0.000341711 0.999234 0.0058219
0.0490469 0.000119101 0.998796 0.00885311
0.0587338 0.00279808 0.99827 0.0121634
0.0696687 0.00710091 0.997545 0.016306
0.0764174 0.00967496 0.997029 0.0197513
0.0887162 0.010443 0.996002 0.0189164
0.100483 0.0063016 0.994919 0.0125466
0.109849 0.00332834 0.993943 0.0133481
0.1226 0.00250086 0.992453 0.0145508
0.128961 0.00321289 0.991644 0.011587
-0.0224109 -0.00240171 0.999746 0.00380622
-0.00448264 -0.00460214 0.999979 9.27194e-05
0.00276775 -0.00265559 0.999993 0.00334431
0.019442 -0.00276829 0.999807 0.00210746
0.0387818 -0.000896983 0.999247 0.00543512
0.0489793 0.000451168 0.9988 0.00848688
0.0586776 0.00445875 0.998267 0.0161549
0.0700592 0.00917706 0.997501 0.0197756
0.0772164 0.007284 0.996988 0.0191684
0.0890065 0.0114821 0.995965 0.0181464
0.101333 0.00949786 0.994807 0.0165768
0.111963 0.00770108 0.993683 0.0189549
0.121254 0.00455956 0.992611 0.0140034
0.129607 0.00305856 0.991561 0.0108049
-0.036037 -0.00174137 0.999349 0.00387877
-0.0218924 -0.00230214 0.999758 0.00665158
-0.00153634 -0.00375316 0.999992 0.00180356
0.0187827 -0.00308584 0.999819 0.00539446
0.0390535 -0.00290762 0.999233 0.00765247
0.0491035 0.000359338 0.998794 0.0119239
0.0603088 0.00450388 0.99817 0.0177517
0.0714818 0.00746193 0.997414 0.0184755
0.0781274 0.00629423 0.996924 0.0199684
0.0910102 0.0134953 0.995759 0.0233213
0.0903113 0.00766302 0.995884 0.0201322
0.102168 0.00580524 0.99475 0.0160091
0.111187 0.00605401 0.993781 0.0137266
0.12276 0.00272915 0.992433 0.0145856
0.129933 -2.96101e-05 0.991523 0.0101736
-0.0362458 -0.00101764 0.999342 0.00817362
-0.0214343 -0.00642168 0.99975 0.00710049
0.000185013 -0.0015257 0.999999 0.00531328
0.0187608 -0.00164932 0.999823 0.0081345
0.0381092 -0.00647223 0.999253 0.00734027
0.0493558 -0.00240089 0.998778 0.0138818
0.0601762 -0.000755912 0.998187 0.0158559
0.0707175 0.00297343 0.997492 0.0207336
0.0770688 0.00668104 0.997003 0.0194055
0.0903044 0.00549783 0.995899 0.0196331
0.10267 0.00517968 0.994702 0.0138528
0.112917 0.00356305 0.993598 0.0132322
0.124968 0.00236286 0.992158 0.017605
0.132749 0.000442663 0.99115 0.0155389
-0.0435435 -0.00443874 0.999042 0.00662048
-0.0352465 -0.00479807 0.999367 0.00684343
-0.0217527 -0.00398183 0.999756 0.00827976
0.0010735 -0.00473291 0.999988 0.00749136
0.0158392 -0.000165638 0.999875 0.00957605
0.0337888 -0.00551423 0.999414 0.010105
0.0508899 -0.00711274 0.998679 0.0145205
0.0602709 -0.00295692 0.998178 0.0203412
0.0683376 -0.00332855 0.997657 0.01596
0.0763451 0.00216279 0.997079 0.0202902
0.0921194 0.00684384 0.995724 0.0238253
0.104302 0.00580902 0.994529 0.0159766
0.113812 0.00235366 0.9935 0.0128403
0.123783 -0.000873767 0.992309 0.011744
0.133743 -0.0032968 0.991011 0.0139312
-0.0491807 -0.00316515 0.998785 0.00390539
-0.044379 -0.00709828 0.99899 0.00343702
-0.0353981 -0.00682752 0.99935 0.00941898
-0.020392 -0.00718963 0.999766 0.00622703
0.00121538 -0.0057523 0.999983 0.00358198
0.0143343 -0.00627018 0.999878 0.00938706
0.0313481 -0.00727172 0.999482 0.00784035
0.0469421 -0.00859106 0.998861 0.0127974
0.0591844 -0.0113467 0.998183 0.0153521
0.0683537 -0.00815843 0.997628 0.0189968
0.0766203 -0.00822691 0.997026 0.0172272
0.0911454 -8.92765e-05 0.995838 0.0153647
0.104634 0.00134057 0.99451 0.014642
0.114382 -0.00103436 0.993436 0.0149987
0.12465 -0.00285639 0.992197 0.0122346
0.132334 -0.00591289 0.991188 0.00620214
-0.0488315 -0.00357269 0.998801 0.00306941
-0.0444775 -0.00840663 0.998975 0
-0.0355228 -0.00638219 0.999348 0.00863611
-0.0201246 -0.00747057 0.99977 0.00652809
0.00170859 -0.00689036 0.999975 0.00917659
0.0141471 -0.00590086 0.999883 0.00873583
0.0265768 -0.00853421 0.99961 0.00854845
0.0456172 -0.0144252 0.998855 0.0095745
0.0586622 -0.011436 0.998212 0.0130747
0.0671574 -0.0119065 0.997671 0.0149507
0.0753423 -0.0126135 0.997078 0.0117996
0.0903498 -0.00915189 0.995868 0.00958762
0.104606 -0.00587548 0.994496 0.00910715
0.113643 -0.00578995 0.993505 0.0108676
0.124375 -0.00460309 0.992225 0.0113985
0.132474 -0.00848133 0.99115 0.00778441
-0.0447799 -0.0109183 0.998937 0
-0.0358669 -0.0103527 0.999303 0.00330887
-0.0202545 -0.0101572 0.999743 0.00495506
0.00235422 -0.0104092 0.999943 0.00466321
0.0140281 -0.0115233 0.999835 0.00796168
0.0273799 -0.0104621 0.99957 0.00574484
0.045473 -0.0153536 0.998848 0.00745386
0.0588486 -0.0160153 0.998138 0.00853928
0.0665993 -0.015248 0.997663 0.00751122
0.0759115 -0.0150791 0.997001 0.00887589
0.0912239 -0.0162784 0.995697 0.0062733
0.104196 -0.0116966 0.994488 0.00612772
0.113918 -0.0101451 0.993438 0.00581369
0.122107 -0.00925982 0.992474 0.00750769
0.130447 -0.00695787 0.991431 0.00951058
-0.0489637 -0.0098281 0.998752 0
-0.044941 -0.0113807 0.998925 0
-0.0356638 -0.0151235 0.999249 0
-0.0210942 -0.0109084 0.999718 0.00319579
-0.000475884 -0.014245 0.999898 0.00244458
0.0140415 -0.0143611 0.999798 0.000411452
0.027157 -0.0136986 0.999537 0.002368
0.0443814 -0.0155074 0.998894 0.00420011
0.0581139 -0.0186573 0.998136 0.00224441
0.0671721 -0.0162255 0.997609 0.00692119
0.0747691 -0.0197048 0.997006 0.00483749
0.091039 -0.0163271 0.995714 0.0048974
0.10461 -0.0167824 0.994372 0.00323839
0.11515 -0.0143534 0.993244 0.00616151
0.121814 -0.0147212 0.992444 0.00316663
0.129796 -0.0112285 0.991477 0.00461811
0.173524 -0.0121029 0.984755 0.0116991
-0.0494871 -0.00932526 0.998731 0
-0.0447521 -0.0101845 0.998946 0
-0.0362067 -0.0111163 0.999282 0.00165035
-0.0208546 -0.0138068 0.999687 0.000332556
-0.00229871 -0.0163874 0.999863 0.00272149
0.0121191 -0.0165189 0.99979 0.00176535
0.0274234 -0.0161057 0.999494 0.00384145
0.0426585 -0.0161964 0.998958 0.00778596
0.053553 -0.0173586 0.998414 0.0071332
0.0682126 -0.0184642 0.9975 0.00762833
0.0759592 -0.0198298 0.996914 0.00526846
0.0916947 -0.0188243 0.995609 0.00399836
0.105264 -0.0170842 0.994298 0.0033153
0.114794 -0.0192539 0.993203 0.00333235
0.121828 -0.0167345 0.99241 0.00102616
0.13026 -0.0143753 0.991376 0.00243237
-0.0495432 -0.00747212 0.998744 0
-0.0458392 -0.010455 0.998894 0.0027212
-0.0370901 -0.00992474 0.999263 0.00687529
-0.0229265 -0.011706 0.999669 0.00839216
-0.00640665 -0.0129413 0.999896 0.00731686
0.0112353 -0.0144669 0.999832 0.00690881
0.0278434 -0.0162036 0.999481 0.00691378
0.0416437 -0.0161091 0.999003 0.00621177
0.0544007 -0.0173612 0.998368 0.00809138
0.0680941 -0.0195095 0.997488 0.00734315
0.0771831 -0.0211359 0.996793 0.00317788
0.0922401 -0.0202086 0.995532 0.00202433
0.107038 -0.0160572 0.994125 0.00634566
0.116296 -0.0186473 0.99304 0.0039374
0.122718 -0.0185299 0.992269 0.00349841
0.132017 -0.0184709 0.991075 0.0044749
-0.0462772 -0.00906691 0.998887 0.00317173
-0.0378106 -0.0106293 0.999228 0.00457619
-0.0229292 -0.0139828 0.999639 0.00296147
-0.00658892 -0.0142817 0.999876 0.00745368
0.0103483 -0.0163624 0.999813 0.00986934
0.0285239 -0.0157428 0.999469 0.0115149
0.0419355 -0.016838 0.998978 0.00972204
0.0549816 -0.0175541 0.998333 0.0121423
0.0681992 -0.0221542 0.997426 0.00721988
0.0761709 -0.022364 0.996844 0.00765754
0.079768 -0.0199272 0.996614 0.00502248
0.092779 -0.0177851 0.995528 0.00102
0.107645 -0.0181612 0.994023 0.00810523
0.114863 -0.0170317 0.993235 0.00463435
0.123388 -0.01779 0.992199 0.00685849
0.132123 -0.0193064 0.991045 0.0042677
-0.0477033 -0.00760915 0.998833 0.0109419
-0.0382337 -0.00901215 0.999228 0.0107254
-0.0238459 -0.0124579 0.999638 0.0088385
-0.0068106 -0.0136418 0.999884 0.00881327
0.0105063 -0.0144459 0.99984 0.0103333
0.0281599 -0.0137134 0.999509 0.0165407
0.043884 -0.015579 0.998915 0.0122907
0.0549514 -0.0193444 0.998302 0.0105643
0.0690972 -0.0199981 0.997409 0.0114113
0.0758733 -0.0177813 0.996959 0.00869718
0.0805105 -0.0182113 0.996587 0.00855481
0.0936777 -0.0197832 0.995406 0.00350416
0.107968 -0.0190962 0.993971 0.00512522
0.116122 -0.0207728 0.993018 0.00509331
0.122658 -0.0211411 0.992224 0.00634331
0.132089 -0.0198735 0.991039 0.003638
0.157789 -0.0213659 0.987242 0
-0.0474152 -0.00686254 0.998852 0.0103151
-0.0378942 -0.007538 0.999253 0.0108878
-0.0245299 -0.0112655 0.999636 0.0103293
-0.00781904 -0.012064 0.999897 0.0117065
0.00971813 -0.0126022 0.999873 0.01554
0.0281769 -0.0139198 0.999506 0.0189839
0.0447221 -0.0158429 0.998874 0.0161222
0.0520113 -0.0176867 0.99849 0.0159291
0.0643926 -0.0178217 0.997765 0.0108076
0.0757971 -0.0162929 0.99699 0.0124838
0.0811418 -0.0199336 0.996503 0.00597879
0.0932962 -0.0221105 0.995393 0.00555567
0.10832 -0.0207364 0.9939 0.00510535
0.115967 -0.0212783 0.993025 0.00498408
0.122888 -0.0222417 0.992171 0.00191629
0.13217 -0.0202642 0.99102 0.00178025
0.157595 -0.023934 0.987214 0
-0.0468344 -0.00538476 0.998888 0.00877288
-0.0376722 -0.00545005 0.999275 0.0129562
-0.0247637 -0.00929786 0.99965 0.0129126
-0.00927492 -0.0129788 0.999873 0.0138118
0.00921223 -0.0134523 0.999867 0.0152491
0.029393 -0.01388 0.999472 0.0168606
0.0448672 -0.0177445 0.998835 0.0150597
0.052196 -0.0179696 0.998475 0.0118886
0.0641502 -0.0178399 0.997781 0.0111979
0.0752427 -0.019565 0.996973 0.00751738
0.0817466 -0.0210264 0.996431 0.00828445
0.0939094 -0.0223965 0.995329 0.00328423
0.107336 -0.0240205 0.993933 0.000851557
0.116786 -0.0227597 0.992896 0.00739608
0.123724 -0.0231149 0.992047 0.00470144
0.132669 -0.0240721 0.990868 0.000390272
0.164302 -0.0235808 0.986128 0
-0.0474396 -0.00790729 0.998843 0.00157348
-0.0412033 -0.00707532 0.999126 0.00770866
-0.0245741 -0.0127309 0.999617 0.00987229
-0.00889484 -0.0111553 0.999898 0.0127761
0.00592637 -0.0128 0.999901 0.0140319
0.0220877 -0.0125055 0.999678 0.0127986
0.0449397 -0.0161632 0.998859 0.0122919
0.0533758 -0.0198666 0.998377 0.0101779
0.0638399 -0.0233383 0.997687 0.00395178
0.0761421 -0.0226345 0.99684 0.00511548
0.0815824 -0.025129 0.99635 0.00444886
0.0942441 -0.0213257 0.995321 0.00383085
0.107514 -0.024141 0.99391 0.000209603
0.115493 -0.0257783 0.992974 0.00287551
0.123421 -0.0260972 0.992011 0.00246129
0.132406 -0.0260973 0.990852 0.00059664
0.158231 -0.0242603 0.987104 0
-0.0600091 -0.00950264 0.998153 0.00389641
-0.0490696 -0.00803043 0.998763 0.0039618
-0.0414971 -0.00729687 0.999112 0.00780061
-0.0239326 -0.0128648 0.999631 0.00726515
-0.00819141 -0.0115851 0.999899 0.00932037
0.0052883 -0.0137618 0.999891 0.0101684
0.0246327 -0.014214 0.999596 0.0107769
0.0424471 -0.0164194 0.998964 0.00917794
0.0534863 -0.0207679 0.998353 0.00899818
0.0644028 -0.0228923 0.997661 0.00684281
0.0761349 -0.023565 0.996819 0.00476952
0.0827292 -0.0263542 0.996224 0.00235846
0.0943752 -0.024652 0.995231 0
0.107335 -0.0261816 0.993878 0
0.115328 -0.0266654 0.992969 0.00278789
0.121404 -0.0277377 0.992216 0.000693945
0.129652 -0.0260457 0.991217 0.00125455
0.157602 -0.0258909 0.987163 0.00162545
-0.0645266 -0.015942 0.997789 0
-0.0596722 -0.0122882 0.998142 0
-0.0481321 -0.0056395 0.998825 0.0017925
-0.0442267 -0.00417062 0.999013 0.00498646
-0.036345 -0.0109384 0.999279 0.00193216
-0.0240808 -0.0125483 0.999631 0.00408685
-0.00770491 -0.0168994 0.999828 0.00318177
0.00557386 -0.0133523 0.999895 0.00385639
0.0176627 -0.0166952 0.999705 0.00626749
0.0402955 -0.0195579 0.998996 0.0102097
0.0528915 -0.0212008 0.998375 0.00569791
0.0611508 -0.0228961 0.997866 0.00624156
0.0739292 -0.0243162 0.996967 0.00204585
0.0839054 -0.0245192 0.996172 0.00350588
0.0952446 -0.0269644 0.995089 0
0.106994 -0.0260208 0.993919 0
0.114587 -0.0249448 0.9931 0.00308422
0.120814 -0.0250091 0.99236 0.0032615
0.131469 -0.0278916 0.990928 0.00171389
0.159975 -0.024295 0.986822 0.00612878
0.173445 -0.0246308 0.984535 0.00718854
-0.0649367 -0.0179821 0.997727 0
-0.0598723 -0.0118678 0.998136 0
-0.047625 -0.00938867 0.998821 0.000348652
-0.0441393 -0.00727261 0.998999 0.00447924
-0.0366472 -0.0106564 0.999271 0.00466041
-0.0236258 -0.015076 0.999607 0.00474336
-0.0080848 -0.0156679 0.999845 0.00529356
0.0062198 -0.0161236 0.999851 0.00545832
0.0167715 -0.0177272 0.999702 0.00139415
0.0389392 -0.0218239 0.999003 0.0041192
0.0514261 -0.0234003 0.998403 0.00169853
0.0605711 -0.022394 0.997913 0.00563085
0.0750565 -0.0268062 0.996819 0.000871415
0.083869 -0.0261672 0.996133 0.00216329
0.0958725 -0.0274421 0.995015 0.0051572
0.112437 -0.0267449 0.993299 0.00527044
0.11937 -0.0263349 0.9925 0.00315376
0.130832 -0.0277124 0.991017 0.00728381
0.161826 -0.0264865 0.986464 0.0101219
0.173507 -0.0254654 0.984503 0.00712756
-0.0695521 -0.0154323 0.997459 0
-0.0653317 -0.0180539 0.9977 0
-0.0598323 -0.0159019 0.998082 0
-0.0485944 -0.00894943 0.998778 0.00301934
-0.0443937 -0.00861906 0.998977 0.00371069
-0.0371965 -0.00937196 0.999264 0.00344195
-0.0231089 -0.0166208 0.999595 0
-0.00809583 -0.0173909 0.999816 0.000786636
0.00598099 -0.0188334 0.999805 0.00185696
0.0156671 -0.0166307 0.999739 0.00133561
0.0379308 -0.023191 0.999011 0.000418997
0.0503227 -0.0239084 0.998447 0.00385704
0.0595831 -0.0256918 0.997893 0.00304345
0.0726079 -0.0279141 0.99697 0.00322089
0.0853897 -0.0256005 0.996019 0.00584444
0.0967134 -0.0294195 0.994877 0.0044984
0.112631 -0.0269987 0.99327 0.006756
0.11992 -0.028829 0.992365 0.00666205
0.13176 -0.0257561 0.990947 0.00787087
0.161797 -0.0303044 0.986359 0.0106174
0.178836 -0.0285064 0.983466 0.0154363
-0.0715891 -0.0149179 0.997323 0
-0.0656203 -0.0162292 0.997713 0
-0.0598428 -0.0164858 0.998072 0
-0.0492268 -0.0133154 0.998699 0.00509446
-0.0447507 -0.0119614 0.998927 0.00407223
-0.0377784 -0.0136017 0.999194 0.000557558
-0.0230977 -0.0184053 0.999564 0
-0.00790315 -0.020573 0.999757 0
0.00512687 -0.0221102 0.999742 0.00224444
0.0154135 -0.0210543 0.99966 0.000624392
0.0360451 -0.0216617 0.999115 0.00476459
0.0476396 -0.0230663 0.998598 0.00505162
0.0593566 -0.0248474 0.997928 0.00303165
0.0757771 -0.023608 0.996845 0.00892344
0.0843669 -0.0282192 0.996035 0.00448186
0.0987915 -0.0255416 0.99478 0.0103669
0.113184 -0.0268869 0.99321 0.00735947
0.121029 -0.0281742 0.992249 0.00924374
0.133538 -0.0281371 0.990644 0.0119847
0.164601 -0.0285302 0.985947 0.0166863
0.177969 -0.0245339 0.98373 0.0169516
-0.0720751 -0.0171632 0.997252 0.00109455
-0.068745 -0.0194719 0.997444 0
-0.0657796 -0.0186988 0.997659 0
-0.0605654 -0.0151578 0.998049 0
-0.0487076 -0.0186254 0.998639 0.000837445
-0.0446027 -0.0169896 0.99886 0.0029067
-0.0378916 -0.0149062 0.999171 0.00512493
-0.023461 -0.0187586 0.999549 0
-0.00722135 -0.0192544 0.999789 4.26417e-05
0.00450325 -0.0216346 0.999756 0.00185939
0.0147136 -0.0228258 0.999631 0.00232488
0.0315758 -0.0223476 0.999251 0.00348353
0.0425824 -0.0205149 0.998882 0.00797129
0.0595661 -0.0247498 0.997917 0.0101497
0.0692649 -0.0229163 0.997335 0.0104842
0.099549 -0.025796 0.994698 0.0112779
0.11619 -0.0264178 0.992876 0.0144195
0.123033 -0.0279652 0.992009 0.0130306
0.13509 -0.0250718 0.990516 0.0170976
0.139417 -0.0265768 0.989877 0.0182762
0.16603 -0.0238048 0.985833 0.019979
0.179576 -0.0215488 0.983508 0.0200898
-0.0727356 -0.0149806 0.997239 0.00160097
-0.0682752 -0.0202866 0.99746 0
-0.0657524 -0.0198535 0.997638 0
-0.0612176 -0.0188528 0.997946 0.00314167
-0.048291 -0.0178986 0.998673 0.000394852
-0.0440164 -0.0173239 0.998881 0.000377137
-0.0376669 -0.0186363 0.999117 0.000905631
-0.0233614 -0.0220649 0.999484 0
-0.00657954 -0.0229708 0.999714 0
0.00510119 -0.0210578 0.999765 0.00448104
0.0147369 -0.0225319 0.999637 0.000914762
0.0313717 -0.022799 0.999248 0.00413701
0.0452764 -0.0204975 0.998764 0.0111727
0.0587506 -0.0241814 0.99798 0.00972685
0.0697564 -0.0230291 0.997298 0.0118977
0.116865 -0.0251402 0.99283 0.0145225
0.12513 -0.0229764 0.991874 0.0175513
0.134759 -0.0240558 0.990586 0.0214327
0.139742 -0.0252757 0.989865 0.0191975
0.165596 -0.023056 0.985924 0.0192026
0.178808 -0.022355 0.98363 0.0187628
0.196567 -0.0200755 0.980285 0.0201416
-0.0719373 -0.0182519 0.997242 0
-0.0678816 -0.0200285 0.997492 0
-0.0658638 -0.0188609 0.99765 0
-0.060817 -0.0191192 0.997966 0.00227068
-0.0489331 -0.0194627 0.998612 0.00357924
-0.045181 -0.0195821 0.998787 0.000570042
-0.0375928 -0.020792 0.999077 0.000526617
-0.0234178 -0.0237779 0.999443 0.00182181
-0.00632658 -0.0197358 0.999785 0.00216152
0.00215131 -0.0238131 0.999714 0
0.0126986 -0.0241207 0.999628 0.00222191
0.0305375 -0.0246978 0.999228 0.00413393
0.0462792 -0.0208412 0.998711 0.00875112
0.0594179 -0.018981 0.998053 0.0119697
0.0702951 -0.0204803 0.997316 0.0138097
0.0843065 -0.0242263 0.996145 0.0134062
0.117731 -0.0241597 0.992752 0.0182148
0.124993 -0.0247649 0.991849 0.0189397
0.135141 -0.0249764 0.990512 0.0214182
0.141363 -0.0238154 0.989671 0.0229201
