-0.0422774 -0.00138822 0.999105 0
-0.041725 -0.00164249 0.999128 0
-0.0433742 -0.0013132 0.999058 0.00319284
-0.043473 -0.00131521 0.999054 0.00260518
-0.0432484 -0.00136766 0.999063 0.00737597
-0.0447384 -0.000822907 0.998998 0.00951343
-0.0436078 -0.00188594 0.999047 0.00121215
-0.0430139 -0.00206606 0.999072 0
-0.0427152 -0.00289921 0.999083 0
-0.0427375 -0.00296799 0.999082 0
-0.0441145 -0.00354913 0.99902 0
-0.0440426 -0.00371607 0.999023 0
-0.0453512 -0.00438347 0.998962 0
-0.0448012 -0.00457434 0.998985 0
-0.0456575 -0.00480947 0.998946 0.00166906
-0.044152 -0.00539216 0.99901 0.00461319
-0.0446079 -0.00602833 0.998986 0.000699722
-0.0441882 -0.00613648 0.999004 0.00186071
-0.044245 -0.00576228 0.999004 0.000504346
-0.0461178 -0.00542825 0.998921 0.00696271
-0.0461784 -0.00527461 0.998919 0.0076162
-0.0451394 -0.00635099 0.99896 0.00340911
-0.0432575 -0.00731769 0.999037 0
-0.0424065 -0.00758829 0.999072 0
-0.0430745 -0.00857013 0.999035 0
-0.0444308 -0.00886938 0.998973 0.00342171
-0.0458915 -0.00964115 0.9989 0.00575641
-0.0469636 -0.0100488 0.998846 0.0118502
-0.0477531 -0.0103294 0.998806 0.0154961
-0.0463424 -0.0108382 0.998867 0.0187421
-0.0456697 -0.0111743 0.998894 0.0191776
-0.0458163 -0.0114837 0.998884 0.0191992
-0.0462516 -0.0119645 0.998858 0.0194871
-0.0462587 -0.0120434 0.998857 0.0160668
-0.0472334 -0.0126753 0.998803 0.0160588
-0.0466892 -0.0128955 0.998826 0.0110813
-0.0453157 -0.0128562 0.99889 0.00469808
-0.0463306 -0.0127963 0.998844 0.00569429
-0.0462197 -0.0130483 0.998846 0.00355859
-0.0470885 -0.0134418 0.9988 0.00548131
-0.0471402 -0.0136069 0.998796 0.00701156
-0.0480269 -0.0135997 0.998753 0.00988567
-0.0479311 -0.0143124 0.998748 0.010515
-0.0472952 -0.014782 0.998772 0.00763872
-0.0456998 -0.0154552 0.998836 0.00613596
-0.0462281 -0.016131 0.998801 0.00288378
-0.0452223 -0.0164262 0.998842 0.0032267
-0.0449029 -0.0174323 0.998839 0.00139359
-0.0447952 -0.0183867 0.998827 0
-0.0451427 -0.0186492 0.998806 0
-0.0456029 -0.0187273 0.998784 0
-0.046214 -0.0191098 0.998749 0.00433721
-0.0464725 -0.0202251 0.998715 0.00231867
-0.0453575 -0.0208131 0.998754 0
-0.0453372 -0.0206816 0.998758 0
-0.045046 -0.0207747 0.998769 0.000857483
-0.0448779 -0.0211847 0.998768 0.00317084
-0.0446846 -0.020948 0.998782 0.00291689
-0.0443183 -0.0209553 0.998798 0.00349791
-0.0438309 -0.0213014 0.998812 0.00360426
-0.0445322 -0.0211786 0.998783 0.00702536
-0.0460673 -0.0209329 0.998719 0.00996498
-0.0447021 -0.0212772 0.998774 0.00506415
-0.0468162 -0.0214984 0.998672 0.00838247
-0.0466338 -0.0216791 0.998677 0.00348448
-0.0460415 -0.0219873 0.998698 0.0028524
-0.0461229 -0.0225925 0.99868 0.00606346
-0.0474962 -0.0226 0.998616 0.00697246
-0.0473345 -0.0223133 0.99863 0.00511699
-0.0466244 -0.0227969 0.998652 0
-0.0454747 -0.0232398 0.998695 0
-0.0459545 -0.0239938 0.998655 0
-0.0462424 -0.0241099 0.998639 0
-0.0468935 -0.0240665 0.99861 0
-0.0467743 -0.0236047 0.998627 0
-0.0471626 -0.0234381 0.998612 0
-0.0486442 -0.023394 0.998542 0
-0.0496993 -0.022469 0.998511 0.0061533
-0.0508767 -0.0220031 0.998462 0.0115754
-0.0500984 -0.021781 0.998507 0.00675579
-0.0498485 -0.0221124 0.998512 0.0043425
-0.049405 -0.0214925 0.998548 0.000700192
-0.0524324 -0.020527 0.998414 0.00564259
-0.0511788 -0.0199532 0.99849 0.000158703
-0.0501268 -0.0195647 0.998551 0
-0.0500757 -0.0199685 0.998546 0
-0.0503652 -0.0192965 0.998544 0
-0.0506725 -0.0186265 0.998542 0.000772964
-0.0508992 -0.0182233 0.998538 0.0049525
-0.0493804 -0.0187125 0.998605 0
-0.0510949 -0.0179741 0.998532 0.00731631
-0.0522057 -0.0176877 0.99848 0.0144095
-0.0522769 -0.0171336 0.998486 0.0182721
-0.0515313 -0.0166467 0.998533 0.0170966
-0.0505846 -0.0156415 0.998597 0.011559
-0.0502584 -0.0147978 0.998627 0.0100843
-0.0496386 -0.0143448 0.998664 0.00735724
-0.0520443 -0.0136675 0.998551 0.0138409
-0.0508163 -0.0131222 0.998622 0.0100971
-0.0497795 -0.0134008 0.99867 0.00461243
-0.0489484 -0.0135438 0.998709 0.00147173
-0.0479221 -0.0135827 0.998759 0
-0.0496583 -0.0118916 0.998695 0.00726231
-0.048973 -0.0114127 0.998735 0.0115576
-0.0489313 -0.0116251 0.998735 0.00662163
-0.0488529 -0.0109454 0.998746 0.00865933
-0.0474094 -0.0111288 0.998814 0.00258678
-0.046877 -0.0108452 0.998842 0.000236878
-0.0480714 -0.0108087 0.998785 0.00402221
-0.0470202 -0.0113242 0.99883 0
-0.0459903 -0.0113169 0.998878 0
-0.0473935 -0.00997023 0.998827 0.00027793
-0.0472979 -0.009928 0.998832 0.000726359
-0.0480873 -0.00944359 0.998799 0.00537133
-0.0470859 -0.00923468 0.998848 0.00240338
-0.0472251 -0.00912287 0.998843 0.00300115
-0.0466448 -0.00923185 0.998869 0
-0.0468118 -0.0099151 0.998855 0
-0.0469821 -0.00916836 0.998854 0
-0.0466349 -0.00914675 0.99887 0
-0.0468729 -0.00874016 0.998863 0
-0.0476217 -0.00821683 0.998832 0.000240338
-0.0467187 -0.00848187 0.998872 0
-0.0471355 -0.0081569 0.998855 0
-0.0485346 -0.0076469 0.998792 0
-0.0491582 -0.007421 0.998763 0.00148461
-0.0492439 -0.00732504 0.99876 0
-0.0480803 -0.00750324 0.998815 0
-0.0482028 -0.00683169 0.998814 0
-0.0472313 -0.00647545 0.998863 0
-0.048852 -0.0053149 0.998792 0.000470855
-0.0498936 -0.00451892 0.998744 0.00453429
-0.0502332 -0.00379063 0.99873 0.00585817
-0.050783 -0.00324077 0.998704 0.00833805
-0.0514994 -0.00251785 0.99867 0.00742131
-0.0517608 -0.0025686 0.998656 0.00625417
-0.0511886 -0.00225949 0.998686 0.00409296
-0.0511011 -0.00267512 0.99869 0.00359171
-0.0504349 -0.00260843 0.998724 0.00386335
-0.0504254 -0.00191946 0.998726 0.00437505
-0.0483909 -0.00217041 0.998826 0
-0.0498385 -0.00181348 0.998756 0.00658626
-0.0482686 -0.00179593 0.998833 0.00534089
-0.048445 -0.00120375 0.998825 0.00415373
-0.0501735 -0.000532895 0.99874 0.0120557
-0.0499074 -0.000418304 0.998754 0.014334
-0.0502661 -0.000696409 0.998736 0.0161251
-0.0488719 -0.00123366 0.998804 0.0127535
-0.0506649 -0.000601662 0.998716 0.0167478
-0.0501405 -0.000712697 0.998742 0.013809
-0.049436 -0.0006235 0.998777 0.0169565
-0.0499481 -0.000437401 0.998752 0.0161423
-0.0481324 -0.00150273 0.99884 0.00967971
-0.0463499 -0.00124589 0.998924 0.00885956
-0.0458003 -0.00132033 0.99895 0.00762687
-0.0451097 -0.00148953 0.998981 0.00887395
-0.0446853 -0.00132251 0.999 0.00811754
-0.0454445 -0.00114296 0.998966 0.00986533
-0.0449114 -0.00113406 0.99899 0.012402
-0.0445433 -0.00101948 0.999007 0.0102494
-0.0450288 -0.000994395 0.998985 0.0100824
-0.0441201 -0.00146617 0.999025 0.00339568
-0.0433929 -0.00148519 0.999057 0.00359228
-0.0436724 -0.00109386 0.999045 0.00842786
-0.044962 -0.0015584 0.998987 0.00386498
-0.0458113 -0.00128965 0.998949 0.0103566
-0.0456725 -0.00139356 0.998955 0.0125053
-0.0442746 -0.00198458 0.999017 0.00335185
-0.0434133 -0.00268567 0.999054 0
-0.0425432 -0.002266 0.999092 0
-0.0434009 -0.00198545 0.999056 0.00190126
-0.0427112 -0.002195 0.999085 0.00230066
-0.0409231 -0.00303011 0.999158 0
-0.0397947 -0.00344698 0.999202 0
-0.039718 -0.00373126 0.999204 0
-0.0393274 -0.00370417 0.99922 0
-0.039429 -0.00368176 0.999216 0
-0.0385981 -0.00416366 0.999246 0
-0.0387594 -0.00409759 0.99924 0
-0.0379305 -0.0054195 0.999266 0
-0.0377884 -0.0053289 0.999272 0
-0.0373797 -0.00552456 0.999286 0
-0.0345498 -0.00639548 0.999382 0
-0.0338745 -0.00753014 0.999398 0
-0.0333803 -0.00806318 0.99941 0
-0.0335856 -0.00650537 0.999415 0
-0.0338545 -0.00705216 0.999402 0
-0.03568 -0.00688378 0.99934 0
-0.0329766 -0.00759477 0.999427 0
-0.0332694 -0.00724339 0.99942 0
-0.0327326 -0.00887352 0.999425 0
-0.0322007 -0.00976635 0.999434 0
-0.0324036 -0.00944532 0.99943 0
-0.033902 -0.00891765 0.999385 0
-0.0343742 -0.00909514 0.999368 0.00240358
-0.0347318 -0.0092075 0.999354 0.00436999
-0.0345939 -0.00969273 0.999354 0.000101022
-0.0340557 -0.00924743 0.999377 0.000151251
-0.0349843 -0.0102884 0.999335 0.00294211
-0.0335009 -0.0113194 0.999375 0.00453888
-0.0329723 -0.0121559 0.999382 0.00280324
-0.0339385 -0.0109351 0.999364 0.00408991
-0.0329244 -0.0106872 0.999401 0.00412118
-0.0332984 -0.0114923 0.999379 0.00531223
-0.032191 -0.0119257 0.999411 0
-0.0329719 -0.0127359 0.999375 0
-0.0337325 -0.0135303 0.999339 0
-0.0368396 -0.0146852 0.999213 0.00559912
-0.0366628 -0.0141111 0.999228 0.00691191
-0.0357252 -0.0141039 0.999262 0.00900215
-0.0354789 -0.0142812 0.999268 0.00735328
-0.0355409 -0.014876 0.999258 0.00815173
-0.0336891 -0.0157439 0.999308 0.0069702
-0.0349798 -0.0162378 0.999256 0.00469458
-0.0346878 -0.0172417 0.99925 0.00671199
-0.0347273 -0.0179147 0.999236 0.0149799
-0.0353651 -0.0188224 0.999197 0.0136093
-0.0333629 -0.0197196 0.999249 0.00806181
-0.0339963 -0.0195234 0.999231 0.00348567
-0.0346828 -0.0194204 0.99921 0.00979838
-0.0345624 -0.0203841 0.999195 0.00184632
-0.03653 -0.0201867 0.999129 0.00505737
-0.0357248 -0.0210334 0.99914 0
-0.0359323 -0.021381 0.999125 0
-0.0356221 -0.0230694 0.999099 0
-0.0363688 -0.0235482 0.999061 0
-0.0363655 -0.0228337 0.999078 0
-0.0376357 -0.0219576 0.99905 0
-0.0381936 -0.0216327 0.999036 0.00556554
-0.0364678 -0.021858 0.999096 0
-0.0361717 -0.0219953 0.999103 0
-0.036009 -0.0229035 0.999089 0
-0.0353088 -0.0228738 0.999115 0
-0.0361898 -0.024728 0.999039 0
-0.0359998 -0.0251533 0.999035 0
-0.0372219 -0.023951 0.99902 0
-0.0362844 -0.0242068 0.999048 0
-0.036353 -0.0242306 0.999045 0
-0.0375867 -0.0241487 0.999002 0
-0.0387719 -0.0221504 0.999003 0
-0.0377972 -0.0212126 0.99906 0
-0.0373706 -0.0218186 0.999063 0
-0.0373894 -0.0217241 0.999065 0.00186129
-0.0384024 -0.0222317 0.999015 0
-0.0383915 -0.0221173 0.999018 0.000498478
-0.0407871 -0.0215137 0.998936 0.00751123
-0.0416112 -0.0216565 0.998899 0.0100598
-0.0420977 -0.0206272 0.998901 0.0172687
-0.0413928 -0.0206792 0.998929 0.0157537
-0.0420405 -0.0207244 0.998901 0.0176841
-0.0420219 -0.0208555 0.998899 0.0157851
-0.0429806 -0.0204592 0.998866 0.0181551
-0.0449096 -0.0204386 0.998782 0.0235833
-0.0433344 -0.021059 0.998839 0.0183865
-0.0438033 -0.0204994 0.99883 0.0187025
-0.0427003 -0.0205124 0.998877 0.0148254
-0.0422202 -0.0211377 0.998885 0.00980499
-0.0432756 -0.0196062 0.998871 0.0087942
-0.0419188 -0.0191745 0.998937 0.00551772
-0.0432101 -0.017634 0.99891 0.00962114
-0.044102 -0.0160532 0.998898 0.0115777
-0.0436025 -0.0161419 0.998919 0.0113314
-0.0425556 -0.0167289 0.998954 0.00545284
-0.0435916 -0.017226 0.998901 0.00317747
-0.0424436 -0.0164762 0.998963 0.00326662
-0.0418765 -0.0169285 0.998979 0.00125644
-0.0417623 -0.0169063 0.998985 0
-0.0415589 -0.0177394 0.998979 0
-0.0410974 -0.0184402 0.998985 0
-0.0418704 -0.0184815 0.998952 0
-0.0419992 -0.0175694 0.998963 0
-0.0432962 -0.0171933 0.998914 0
-0.0434311 -0.0179033 0.998896 0
-0.0430636 -0.0182896 0.998905 0
-0.0441441 -0.0163368 0.998892 0
-0.0452506 -0.0145487 0.99887 0.00135312
-0.0442944 -0.014091 0.998919 0
-0.0437343 -0.0138303 0.998948 0
-0.0433959 -0.0139523 0.998961 0
-0.0413939 -0.0144089 0.999039 0
-0.0414254 -0.0131178 0.999056 0
-0.0426576 -0.0128422 0.999007 0
-0.0422218 -0.0117927 0.999039 0
-0.0421114 -0.0111258 0.999051 0
-0.0423896 -0.010255 0.999049 0
-0.0409919 -0.00938008 0.999115 0
-0.0415892 -0.00972224 0.999088 0
-0.0423502 -0.0078106 0.999072 0
-0.0430739 -0.00878776 0.999033 0
-0.0431042 -0.00786416 0.99904 0
-0.0428395 -0.00736701 0.999055 0
-0.0431772 -0.00639624 0.999047 0
-0.0443751 -0.00550172 0.999 0.00043458
-0.0437414 -0.00546062 0.999028 0
-0.0446001 -0.00484804 0.998993 0
-0.044845 -0.00423048 0.998985 0
-0.0446758 -0.00281088 0.998998 0
-0.0449544 -0.000905312 0.998989 0
-0.0450898 0.000199427 0.998983 0
-0.0440164 -0.000416025 0.999031 0
-0.0461264 -2.01624e-05 0.998936 0.00205456
-0.0455141 0.00119828 0.998963 0.00112547
-0.046401 0.00173474 0.998921 0
-0.0456351 0.0008064 0.998958 0
-0.0446783 0.00125921 0.999001 0
-0.0441103 0.00168619 0.999025 0
-0.0430676 0.0014336 0.999071 0
-0.0432937 0.00231521 0.99906 0
-0.0441163 0.00250077 0.999023 0
-0.0437066 0.00322564 0.999039 0
-0.0446202 0.00418126 0.998995 0
-0.0446656 0.00520828 0.998988 0
-0.044695 0.00643818 0.99898 0
-0.0451591 0.0063777 0.998959 0
-0.0440194 0.0065908 0.999009 0
-0.0445898 0.00670781 0.998983 0
-0.0433047 0.00760233 0.999033 0
-0.0426409 0.00943127 0.999046 0
-0.043704 0.0103502 0.998991 0
-0.0428661 0.010699 0.999024 0
-0.0429827 0.0118343 0.999006 0
-0.0437855 0.0130342 0.998956 0
-0.0446517 0.0139934 0.998905 0
-0.0458803 0.0155917 0.998825 0
-0.0445235 0.0174485 0.998856 0
-0.0459794 0.0188379 0.998765 0
-0.0467628 0.0205612 0.998694 0
-0.0484092 0.021474 0.998597 0.00259899
-0.0485218 0.0213536 0.998594 0.00287243
-0.0504697 0.0217097 0.99849 0.00238549
-0.0486754 0.0221395 0.998569 0.00146378
-0.0488671 0.0223551 0.998555 0
-0.0488991 0.0235649 0.998526 0
-0.0486524 0.0251551 0.998499 0
-0.0491379 0.0256967 0.998461 0
-0.0504453 0.0257435 0.998395 0
-0.0503245 0.02809 0.998338 0
-0.0515607 0.0284308 0.998265 0
-0.0528697 0.0316524 0.9981 0
-0.0529562 0.0333509 0.99804 0
-0.0528956 0.032477 0.998072 0.000641605
-0.0513409 0.0313739 0.998188 0
-0.0509474 0.0321655 0.998183 0
-0.0512031 0.0326302 0.998155 0
-0.0519099 0.0347798 0.998046 0
-0.0510638 0.0338997 0.99812 0
-0.0504185 0.0344988 0.998132 0
-0.0514769 0.0358617 0.99803 0
-0.0507936 0.0378031 0.997993 0
-0.0521869 0.0396817 0.997849 0.00490799
-0.052652 0.0394541 0.997833 0.00672557
-0.0508464 0.0389216 0.997948 0.000251556
-0.0493478 0.0389927 0.99802 0
-0.0490194 0.0399794 0.997997 0
-0.0496515 0.0409385 0.997927 0
-0.0493209 0.0427399 0.997868 0
-0.0495888 0.0433615 0.997828 0
-0.0495469 0.0443329 0.997787 0.00249796
-0.0496099 0.0444519 0.997779 0.0013798
-0.0492396 0.0464278 0.997707 0.00291523
-0.0495873 0.0473475 0.997647 0.00325051
-0.0497001 0.0469052 0.997662 0.00125798
-0.0503171 0.0489607 0.997532 0.00625142
-0.0496624 0.0500736 0.99751 0.00519221
-0.0494711 0.0503933 0.997503 0.00546404
-0.0493363 0.0526405 0.997394 0.00805538
-0.0488207 0.0522382 0.997441 0.0100997
-0.0478244 0.0521947 0.997491 0.00541058
-0.0478728 0.0516086 0.997519 0.00652359
-0.0473952 0.0531396 0.997462 0.0030479
-0.0480958 0.0557576 0.997285 0.00466984
-0.0481666 0.0582785 0.997138 0.00598628
-0.0477091 0.0575618 0.997201 0.00383985
-0.0469207 0.0563593 0.997307 0
-0.0476933 0.0594895 0.997089 0
-0.0475372 0.0590855 0.99712 0
-0.0477754 0.0608761 0.997001 0
-0.0476911 0.0617994 0.996949 0
-0.0478296 0.061947 0.996933 0
-0.0480704 0.0626688 0.996876 0
-0.0479728 0.0620996 0.996916 0
-0.0477676 0.0625605 0.996897 0
-0.0475836 0.0638775 0.996823 0
-0.0476276 0.0653189 0.996727 0
-0.048033 0.067349 0.996573 0
-0.0482173 0.066962 0.99659 0
-0.0485833 0.0704052 0.996335 0.00222133
-0.0499014 0.0745084 0.995971 0.0111768
-0.0493005 0.0738787 0.996048 0.0110082
-0.0497981 0.0771446 0.995776 0.0134488
-0.0488723 0.0741169 0.996051 0.00976633
-0.0490283 0.0763007 0.995879 0.00845806
-0.0491524 0.0779227 0.995747 0.00913907
-0.0496219 0.0787083 0.995662 0.00893717
-0.0497056 0.0776516 0.995741 0.00744806
-0.0497618 0.0791713 0.995618 0.00796156
-0.0489935 0.0770594 0.995822 0.00177816
-0.0496561 0.0808271 0.99549 0.00595147
-0.0498922 0.0847024 0.995156 0.00490875
-0.0562165 -0.0842401 0.994858 0.00507792
-0.0555477 -0.0810036 0.995165 0.00288957
-0.05584 -0.0793865 0.995279 0.0036961
-0.0551718 -0.0765156 0.995541 0.000910777
-0.0546678 -0.0742525 0.99574 0
-0.0553815 -0.0733217 0.995769 0.00317849
-0.0553456 -0.0713606 0.995914 0.00261814
-0.0558261 -0.0704495 0.995952 0.00600331
-0.0555945 -0.0686895 0.996088 0.00414331
-0.0557158 -0.0674585 0.996165 0.00464704
-0.055057 -0.0659861 0.9963 0.00297227
-0.0543776 -0.0641297 0.996459 0
-0.0536985 -0.0632471 0.996552 0
-0.0540225 -0.0624457 0.996585 0
-0.0542565 -0.0612642 0.996646 0
-0.0544969 -0.0606159 0.996672 0
-0.0545472 -0.0599353 0.996711 0
-0.0541085 -0.05931 0.996772 0
-0.0539558 -0.0587316 0.996815 0
-0.0545312 -0.0579272 0.99683 0
-0.054909 -0.0572461 0.996849 0.000228422
-0.0552812 -0.0569111 0.996848 0.00313355
-0.0550618 -0.0558172 0.996922 0.00193487
-0.0558174 -0.0555959 0.996892 0.00600232
-0.055654 -0.0548469 0.996943 0.00601726
-0.0545113 -0.053206 0.997095 0.000899679
-0.0545969 -0.0519985 0.997154 0
-0.0539457 -0.0510139 0.99724 0
-0.0538917 -0.05021 0.997284 0
-0.0546434 -0.0494332 0.997282 0
-0.0541779 -0.0490178 0.997327 0
-0.0538924 -0.048456 0.99737 0
-0.0531184 -0.0476552 0.997451 0
-0.0531977 -0.0471271 0.997471 0
-0.0536597 -0.0459455 0.997502 0
-0.053623 -0.0448665 0.997553 0
-0.0539135 -0.0434966 0.997598 0
-0.0537094 -0.0427066 0.997643 0
-0.0541418 -0.0416916 0.997662 0
-0.0550892 -0.0403232 0.997667 0
-0.0547639 -0.0396405 0.997712 0.00165042
-0.0541609 -0.038185 0.997802 0
-0.0532637 -0.0369884 0.997895 0
-0.053986 -0.0353194 0.997917 0
-0.0544757 -0.033832 0.997942 0
-0.055359 -0.0324655 0.997939 0.00554224
-0.0546251 -0.0304359 0.998043 0.00326082
-0.054311 -0.028766 0.99811 0.00280173
-0.0554351 -0.0272432 0.998091 0.0106523
-0.0556919 -0.0245128 0.998147 0.00768469
-0.0553527 -0.0223557 0.998217 0.00823677
-0.0548788 -0.0202781 0.998287 0.00827566
-0.053498 -0.0184331 0.998398 0.00348292
-0.0524142 -0.017687 0.998469 0
-0.0515809 -0.0168014 0.998527 0
-0.0515591 -0.0157697 0.998545 0
-0.0514009 -0.0154173 0.998559 0
-0.051222 -0.0149451 0.998575 0
-0.0520114 -0.0144703 0.998542 0
-0.0514288 -0.0141418 0.998577 0
-0.0505433 -0.0137584 0.998627 0
-0.0517793 -0.0132816 0.99857 0
-0.0520023 -0.0125877 0.998568 0
-0.0514083 -0.0120589 0.998605 0
-0.05123 -0.0116198 0.998619 0
-0.0513312 -0.0113124 0.998618 0
-0.0507206 -0.0107776 0.998655 0
-0.0502378 -0.0103651 0.998684 0
-0.0503252 -0.00989997 0.998684 0
-0.0496502 -0.00963495 0.99872 0
-0.0505931 -0.00931476 0.998676 0
-0.0503404 -0.00903891 0.998691 0.000748393
-0.0494703 -0.0092489 0.998733 0
-0.0501279 -0.00889299 0.998703 0
-0.0499763 -0.00833248 0.998716 0
-0.0504705 -0.00806032 0.998693 0.00165135
-0.0499844 -0.00767715 0.998721 0
-0.0489307 -0.00736118 0.998775 0
-0.0491367 -0.00695173 0.998768 0
-0.0491116 -0.00657455 0.998772 0
-0.0488197 -0.00578193 0.998791 0
-0.048996 -0.00552106 0.998784 0
-0.0496422 -0.00536562 0.998753 0
-0.049427 -0.00516173 0.998764 0
-0.0490725 -0.00479399 0.998784 0
-0.0495794 -0.00482721 0.998758 0
-0.0485388 -0.0043133 0.998812 0
-0.0491551 -0.00422545 0.998782 0
-0.0499122 -0.00381844 0.998746 0
-0.0502196 -0.0031144 0.998733 0
-0.0515368 -0.00290847 0.998667 0.000751497
-0.0495809 -0.00284742 0.998766 0
-0.0491222 -0.00313179 0.998788 0
-0.0495124 -0.00258472 0.99877 0
-0.0492863 -0.00255746 0.998781 0
-0.0487949 -0.00243923 0.998806 0
-0.0480041 -0.00236824 0.998844 0
-0.048825 -0.00204467 0.998805 0
-0.0482566 -0.00175251 0.998833 0
-0.0457351 -0.00127104 0.998953 0
-0.047193 -0.000998576 0.998885 0
-0.0464149 -0.000802724 0.998922 0
-0.0462589 -0.000459134 0.998929 0
-0.0468766 -0.000368324 0.998901 0
-0.0465002 8.40924e-05 0.998918 0
-0.0469757 0.000393324 0.998896 0
-0.0468325 0.000508032 0.998903 0
-0.0474904 0.000811775 0.998871 0
-0.0488722 0.00135975 0.998804 0.00449366
-0.0487651 0.00150695 0.998809 0.00713296
-0.0514075 0.00197395 0.998676 0.0126423
-0.0502276 0.00235896 0.998735 0.0151222
-0.0502103 0.00218766 0.998736 0.0185553
-0.0491017 0.00230273 0.998791 0.016734
-0.0503936 0.00280358 0.998726 0.0218292
-0.0500996 0.00267942 0.998741 0.0192955
-0.0475532 0.00246266 0.998866 0.010832
-0.0475209 0.00264138 0.998867 0.0068841
-0.0455748 0.00234055 0.998958 0.00223377
-0.0457533 0.00286188 0.998949 0.00130424
-0.046593 0.00307967 0.998909 0.00218207
-0.0455993 0.00296238 0.998955 0
-0.0448956 0.00293905 0.998987 0
-0.0450532 0.00262674 0.998981 0
-0.0442727 0.00292065 0.999015 0.000840659
-0.044072 0.00262354 0.999025 0
-0.0456422 0.00307903 0.998953 0.00577174
-0.0449936 0.00296202 0.998983 0.00563
-0.0457817 0.00270563 0.998948 0.00591637
-0.0446656 0.00270157 0.998998 7.11948e-05
-0.0451356 0.00268315 0.998977 0.00173691
-0.0447536 0.0029492 0.998994 0.00306551
-0.0439284 0.00272377 0.999031 0.00229523
-0.0442835 0.00278963 0.999015 0.007868
-0.0449218 0.00313842 0.998986 0.0106645
-0.0439919 0.00306826 0.999027 0.00586847
-0.0437297 0.00281871 0.999039 0.00182215
-0.0438457 0.00274265 0.999035 0
-0.043388 0.00289593 0.999054 0
-0.0423267 0.00264371 0.9991 0.000432277
-0.0424009 0.00222069 0.999098 0
-0.0410906 0.00188758 0.999154 0
-0.0425141 0.00226547 0.999093 0.000348297
-0.0434724 0.00221067 0.999052 0.00629774
-0.044742 0.00222377 0.998996 0.00760134
-0.0450121 0.00193901 0.998985 0.00719747
-0.0438293 0.00194716 0.999037 0.00828796
-0.0442056 0.00157084 0.999021 0.00358738
-0.0437376 0.00153156 0.999042 0.00278308
-0.0428463 0.00119875 0.999081 0
-0.0426212 0.000685222 0.999091 0
-0.043106 0.000786781 0.99907 0
-0.0421244 0.000474915 0.999112 0.00175207
-0.041618 0.000188607 0.999134 0.0027597
-0.0427936 8.57701e-05 0.999084 0.00600152
-0.0416988 -0.000469369 0.99913 0
-0.0421132 -0.000626433 0.999113 0.00235177
-0.0433882 -0.000629126 0.999058 0.00553661
-0.0439614 -0.000721799 0.999033 0.00451289
-0.0439223 -0.00075927 0.999035 0.00455617
-0.0458768 -0.000652555 0.998947 0.0107353
-0.0437777 -0.00121424 0.999041 0.00519485
-0.0440687 -0.00123709 0.999028 0
-0.0431155 -0.00126335 0.999069 0
-0.0420533 -0.00170703 0.999114 0
-0.0418007 -0.00178415 0.999124 0
-0.0428345 -0.00192493 0.99908 0
-0.0426528 -0.00189099 0.999088 0
-0.0433631 -0.00224572 0.999057 0
-0.0439831 -0.0027917 0.999028 0
-0.0429164 -0.00316489 0.999074 0
-0.0434175 -0.00341233 0.999051 0
-0.0419877 -0.00369755 0.999111 0
-0.0430284 -0.0040223 0.999066 0
-0.0438208 -0.00381097 0.999032 0
-0.0440661 -0.00384773 0.999021 0
-0.0446726 -0.00359756 0.998995 0.00310152
-0.0459981 -0.00390256 0.998934 0.00777868
-0.0450988 -0.0044972 0.998972 0.00669586
-0.0470747 -0.00421638 0.998883 0.0139182
-0.0472345 -0.00495979 0.998872 0.0096073
-0.0464753 -0.00453347 0.998909 0.00960215
-0.0452821 -0.00514511 0.998961 0.00368612
-0.0449901 -0.00596479 0.99897 0.00315782
-0.0435213 -0.00709524 0.999027 0
-0.0428359 -0.00796818 0.99905 0
-0.0429692 -0.00886552 0.999037 0
-0.0433421 -0.00921327 0.999018 0
-0.0438836 -0.00982906 0.998988 0
-0.0426096 -0.00970797 0.999045 0
-0.0432573 -0.0108178 0.999005 0
-0.0441067 -0.0111898 0.998964 0
-0.0439336 -0.0114715 0.998969 0
-0.0445352 -0.0117625 0.998939 0
-0.0438484 -0.0123256 0.998962 0.00070493
-0.0453284 -0.0125719 0.998893 0.00695249
-0.0459125 -0.0132578 0.998857 0.0076733
-0.046615 -0.0134345 0.998823 0.0140636
-0.0470719 -0.0133024 0.998803 0.0155516
-0.0468326 -0.0137242 0.998808 0.0158365
-0.0479407 -0.0135368 0.998758 0.0190497
-0.0480536 -0.0133003 0.998756 0.0176916
-0.0480506 -0.0130349 0.99876 0.0183239
-0.0493076 -0.0135479 0.998692 0.0213512
-0.0486218 -0.0142296 0.998716 0.0172079
-0.0474227 -0.0144802 0.99877 0.00957335
-0.0485566 -0.0151703 0.998705 0.014425
-0.0481932 -0.0160483 0.998709 0.00923902
-0.0485646 -0.0171511 0.998673 0.00940324
-0.048433 -0.0182234 0.99866 0.00775354
-0.0478767 -0.0189744 0.998673 0.00490885
-0.0468406 -0.0189198 0.998723 0.00583147
-0.0451998 -0.0193249 0.998791 0.0053397
-0.0468099 -0.0198769 0.998706 0.00401395
-0.0454253 -0.0199747 0.998768 0.00198351
-0.0449611 -0.0208528 0.998771 0.000170117
-0.0451071 -0.0219599 0.998741 0
-0.0444692 -0.0224628 0.998758 0
-0.0454031 -0.0229071 0.998706 0.0030184
-0.0466734 -0.0225725 0.998655 0.00600687
-0.0456335 -0.0230749 0.998692 0.00391798
-0.0447207 -0.0227963 0.998739 0.00376978
-0.0442481 -0.0228189 0.99876 0
-0.0433333 -0.0236399 0.998781 0
-0.0433419 -0.0239081 0.998774 0
-0.0438113 -0.0241881 0.998747 0
-0.0449667 -0.0236544 0.998708 0
-0.0458433 -0.0228598 0.998687 0
-0.0462314 -0.0230389 0.998665 0
-0.0469241 -0.0234134 0.998624 0.00153799
-0.0459703 -0.0239369 0.998656 0
-0.0460247 -0.0242692 0.998645 0
-0.0457996 -0.0246646 0.998646 0
-0.045255 -0.0249564 0.998664 0
-0.0465371 -0.0250993 0.998601 0
-0.0470181 -0.0244825 0.998594 0
-0.0466291 -0.0244524 0.998613 0
-0.0475699 -0.0241584 0.998576 0.000463256
-0.0500783 -0.0237205 0.998464 0.00668524
-0.0500506 -0.0233848 0.998473 0.00930317
-0.0497389 -0.0236021 0.998483 0.00641113
-0.0480406 -0.023392 0.998571 0
-0.0481626 -0.0225094 0.998586 0
-0.0469838 -0.0226077 0.99864 0
-0.0486746 -0.0218241 0.998576 0
-0.0489013 -0.0210901 0.998581 0
-0.0507276 -0.0199964 0.998512 0.00498233
-0.0504354 -0.0194903 0.998537 0.00456051
-0.0488818 -0.0193836 0.998616 0
-0.0496807 -0.0184543 0.998595 0.00087763
-0.0511121 -0.0184163 0.998523 0.00782388
-0.0501424 -0.0188643 0.998564 0.00891109
-0.05008 -0.0178176 0.998586 0.00935268
-0.0484068 -0.0183105 0.99866 0.000381715
-0.048274 -0.0178761 0.998674 0
-0.048859 -0.0177333 0.998648 0
-0.0482008 -0.0163525 0.998704 0
-0.0476459 -0.0161433 0.998734 0
-0.048169 -0.0158154 0.998714 0
-0.0472399 -0.0155237 0.998763 0
-0.0486406 -0.0147312 0.998708 0
-0.0478547 -0.0143745 0.998751 0
-0.0471347 -0.013684 0.998795 0
-0.047412 -0.0130424 0.99879 0
-0.0474862 -0.0119537 0.9988 0
-0.0481252 -0.0119045 0.99877 0
-0.0472681 -0.0124617 0.998805 0
-0.0467162 -0.0127185 0.998827 0
-0.0472865 -0.0118793 0.998811 0
-0.0471447 -0.0115507 0.998821 0
-0.0472716 -0.0104384 0.998828 0.00506682
-0.0478412 -0.0104146 0.998801 0.00710428
-0.0461697 -0.0108538 0.998875 0.000760849
-0.045887 -0.0114291 0.998881 0
-0.0456882 -0.0109779 0.998895 0
-0.0471945 -0.0108866 0.998826 0
-0.0484128 -0.00995512 0.998778 0.00140243
-0.0477223 -0.00988921 0.998812 0
-0.0470625 -0.00995629 0.998842 0
-0.0470782 -0.00984545 0.998843 0
-0.0465694 -0.00988028 0.998866 0
-0.0483701 -0.00897562 0.998789 0
-0.0479917 -0.00919348 0.998805 0
-0.0473405 -0.00831473 0.998844 0
-0.0472524 -0.00810024 0.99885 0.00131635
-0.047991 -0.00794124 0.998816 0
-0.0482339 -0.00830652 0.998802 0
-0.0475681 -0.00879874 0.998829 0
-0.0489573 -0.00815179 0.998768 0
-0.0498576 -0.00724036 0.99873 0.0012786
-0.0500339 -0.00606813 0.998729 0.0054416
-0.0511309 -0.00585932 0.998675 0.00731
-0.0512294 -0.00538704 0.998672 0.00650921
-0.0490616 -0.00536112 0.998781 0.00156589
-0.0494678 -0.00493089 0.998764 0
-0.0495267 -0.00425932 0.998764 0.00210761
-0.052551 -0.00308967 0.998613 0.0129851
-0.0512663 -0.00260682 0.998682 0.0127047
-0.0515581 -0.00268539 0.998666 0.0113832
-0.0494857 -0.00313507 0.99877 0.00197271
-0.0486546 -0.00283515 0.998812 0
-0.0487344 -0.00216741 0.998809 0
-0.0483612 -0.00241784 0.998827 0.000227694
-0.0481505 -0.00203537 0.998838 0.00300414
-0.0498672 -0.00128799 0.998755 0.00327577
-0.0493361 -0.00123422 0.998781 0
-0.050197 -0.00144493 0.998738 0.00304534
-0.048273 -0.00076918 0.998834 0.000292445
-0.0496003 -0.000693011 0.998769 0.0033627
-0.0487681 -0.000869804 0.99881 0.00463792
-0.0500435 -0.000785374 0.998747 0.0104711
-0.0497725 -0.000520378 0.99876 0.0104091
-0.0518937 0.00031392 0.998653 0.012511
-0.0509068 0.000545622 0.998703 0.0107149
-0.0495723 0.000484201 0.99877 0.00917127
-0.048472 -0.000365544 0.998824 0
-0.0464704 -0.000946299 0.998919 0
-0.0470464 -0.000901409 0.998892 0
-0.0446436 -0.000722874 0.999003 0
-0.0439458 -0.000753289 0.999034 0
-0.0454479 -0.000352087 0.998967 0.00172409
-0.0456339 -0.00050636 0.998958 0.00363045
-0.0458052 -0.000370856 0.99895 0.0135513
-0.0459683 -0.000879491 0.998942 0.0101742
-0.0446756 -0.00145413 0.999 0.0021581
-0.0437518 -0.00161931 0.999041 0.000627293
-0.044433 -0.00101772 0.999012 0
-0.0446688 -0.000921649 0.999001 0.00190841
-0.0443601 -0.00135272 0.999015 0.00173395
-0.0437543 -0.00189592 0.999041 0
-0.0431901 -0.00245317 0.999064 0
-0.0431151 -0.00229049 0.999067 0
-0.0434844 -0.00214805 0.999052 0
-0.0425656 -0.00222499 0.999091 0
-0.0422498 -0.00199978 0.999105 0
-0.0433136 -0.00173773 0.99906 0
-0.0437774 -0.00212112 0.999039 0
-0.0434213 -0.00339153 0.999051 0
-0.0428278 -0.00312651 0.999078 0
-0.0417345 -0.00396266 0.999121 0
-0.0413298 -0.00454494 0.999135 0
-0.0404322 -0.00419659 0.999173 0
-0.0423137 -0.00419391 0.999096 0
-0.0408773 -0.00533787 0.99915 0
-0.040461 -0.00538609 0.999167 0
-0.0398267 -0.00539011 0.999192 0
-0.0392293 -0.0070088 0.999206 0
-0.0390681 -0.0066153 0.999215 0
-0.039454 -0.00651325 0.9992 0
-0.0400642 -0.0064164 0.999177 0
-0.0404795 -0.00651124 0.999159 0
-0.0395404 -0.00693192 0.999194 0
-0.0391663 -0.00756075 0.999204 0
-0.0393958 -0.00728261 0.999197 0.00137623
-0.0389456 -0.00809653 0.999209 0.0031301
-0.0391187 -0.00853324 0.999198 0
-0.0390869 -0.00810893 0.999203 0
-0.0394263 -0.00801368 0.99919 0
-0.0392855 -0.00848171 0.999192 0.000379136
-0.0383091 -0.00911119 0.999224 0
-0.0391358 -0.00959205 0.999188 0.000121346
-0.0379665 -0.00901669 0.999238 0
-0.0381605 -0.00956201 0.999226 0
-0.0387246 -0.0103024 0.999197 0
-0.0383821 -0.00963137 0.999217 0
-0.0396635 -0.00975457 0.999165 0.00420782
-0.0399156 -0.0107741 0.999145 0.00664681
-0.0389967 -0.0124831 0.999161 0.00101686
-0.0379661 -0.0134285 0.999189 0
-0.037866 -0.0138186 0.999187 0
-0.0376207 -0.0137901 0.999197 0.000284606
-0.0369743 -0.0145222 0.999211 0
-0.0385904 -0.0138847 0.999159 0.00510539
-0.0377223 -0.0152022 0.999173 0.00405249
-0.0365927 -0.0178881 0.99917 0
-0.0367253 -0.0188396 0.999148 0
-0.0376586 -0.017976 0.999129 0
-0.0371931 -0.0186054 0.999135 0
-0.037148 -0.0201558 0.999106 0
-0.0370996 -0.0197795 0.999116 0
-0.0351969 -0.0204883 0.99917 0
-0.0355281 -0.0217995 0.999131 0
-0.0368611 -0.0226047 0.999065 0
-0.0371976 -0.0221745 0.999062 0
-0.0375266 -0.0221538 0.99905 0
-0.0384619 -0.0221686 0.999014 0
-0.0389983 -0.0231379 0.998971 0
-0.039093 -0.0232717 0.998965 0
-0.0389575 -0.0234039 0.998967 0
-0.0389415 -0.0225181 0.998988 0
-0.0403455 -0.0216831 0.99895 0.00359784
-0.0406566 -0.0213024 0.998946 0.000290768
-0.0402237 -0.0213655 0.998962 0.00405624
-0.0408423 -0.0216403 0.998931 0.00728333
-0.0388976 -0.0226411 0.998987 0.00140674
-0.0384877 -0.02289 0.998997 0
-0.0386255 -0.0232779 0.998983 0
-0.0396618 -0.0237578 0.998931 0
-0.040452 -0.0237223 0.9989 0
-0.0397263 -0.0238321 0.998926 0
-0.0392631 -0.02405 0.998939 0
-0.0382004 -0.0229597 0.999006 0
-0.0387346 -0.0227888 0.99899 0
-0.0395025 -0.0222732 0.998971 0.00149418
-0.0391356 -0.0224336 0.998982 0
-0.040455 -0.0223511 0.998931 0
-0.0400457 -0.0217288 0.998962 0
-0.0404796 -0.0209374 0.998961 0
-0.0410825 -0.0208967 0.998937 0
-0.0418251 -0.0198037 0.998929 0.00257253
-0.0422501 -0.0205221 0.998896 0.00428898
-0.0421989 -0.0215647 0.998877 0
-0.0430935 -0.0213706 0.998842 0.00483239
-0.043902 -0.0219317 0.998795 0.00456062
-0.0419704 -0.0220838 0.998875 0.00344163
-0.0431724 -0.0215842 0.998834 0.00661078
-0.0417655 -0.0210498 0.998906 0.00229934
-0.0423892 -0.0199945 0.998901 0.00634919
-0.0437374 -0.0197675 0.998847 0.00728494
-0.043112 -0.0200363 0.998869 0.00296626
-0.0432983 -0.0202184 0.998858 0
-0.0416926 -0.0227937 0.99887 0
-0.0418092 -0.0217251 0.998889 0
-0.0427988 -0.0217761 0.998846 0
-0.0443142 -0.0200409 0.998817 0.00459814
-0.0439118 -0.0200118 0.998835 0.00258026
-0.0443175 -0.0181262 0.998853 0.00312318
-0.0459478 -0.0171847 0.998796 0.00539456
-0.044964 -0.0179425 0.998827 0.00212617
-0.0468226 -0.0171102 0.998757 0.00438932
-0.0467594 -0.0164869 0.99877 0.000453491
-0.0467154 -0.0165523 0.998771 0.00368227
-0.0470305 -0.0171252 0.998747 0.00198881
-0.0474958 -0.016782 0.99873 0.00619423
-0.0464387 -0.0156513 0.998799 0.00417623
-0.0455682 -0.0148135 0.998851 0
-0.0459828 -0.015704 0.998819 0
-0.0471094 -0.012818 0.998808 0.00426986
-0.0461584 -0.012903 0.998851 0.00231119
-0.0462851 -0.0128007 0.998846 0.00493307
-0.0462016 -0.0119105 0.998861 0.00230989
-0.0456625 -0.012216 0.998882 0
-0.0452007 -0.0121451 0.998904 0
-0.0459423 -0.0137188 0.99885 0
-0.0452254 -0.0139537 0.998879 0
-0.0451345 -0.0135856 0.998889 0
-0.0443189 -0.0121683 0.998943 0
-0.0445079 -0.011842 0.998939 0
-0.0457787 -0.010279 0.998899 0
-0.0454197 -0.00979412 0.99892 0
-0.0464726 -0.0093868 0.998875 0
-0.046666 -0.00921067 0.998868 0
-0.047776 -0.00654513 0.998837 0.00493158
-0.0473676 -0.00729087 0.998851 0.00213063
-0.0480523 -0.00662128 0.998823 0.00172533
-0.0474528 -0.00653938 0.998852 0
-0.0479161 -0.00593115 0.998834 0
-0.0474836 -0.00560257 0.998856 0
-0.0478896 -0.00363886 0.998846 0
-0.0473509 -0.00291522 0.998874 0
-0.0469105 -0.00213752 0.998897 0
-0.0471659 -0.00154915 0.998886 0
-0.0482423 -0.00100573 0.998835 0.00122883
-0.0479302 0.000333263 0.998851 0.00558697
-0.0470103 0.00046303 0.998894 0.00328542
-0.0455585 -0.000129883 0.998962 0
-0.0449427 0.000298946 0.99899 0
-0.0451537 -0.000331829 0.99898 0
-0.0466157 -0.000389944 0.998913 0
-0.0461812 -0.00149574 0.998932 0
-0.0458036 -0.00105329 0.99895 0
-0.045881 0.000260602 0.998947 0
-0.0457634 0.00147129 0.998951 0
-0.0461098 0.00171521 0.998935 0
-0.0468681 0.00179274 0.998899 0
-0.0466312 0.00185945 0.99891 0
-0.0472346 0.00388446 0.998876 0
-0.045694 0.00582816 0.998939 0
-0.0452982 0.00627186 0.998954 0
-0.0458271 0.00645425 0.998929 0
-0.0463516 0.00666484 0.998903 0
-0.0479519 0.00860227 0.998813 0
-0.0481111 0.00982019 0.998794 0
-0.0488254 0.0108893 0.998748 0
-0.0484431 0.0116617 0.998758 0
-0.0496976 0.0118444 0.998694 0
-0.0492569 0.0115014 0.99872 0
-0.0496953 0.0134395 0.998674 0
-0.0493807 0.0141713 0.998679 0
-0.0485835 0.0146297 0.998712 0
-0.0495496 0.0156636 0.998649 0
-0.0498808 0.0159203 0.998628 0
-0.0496546 0.0176303 0.998611 0
-0.0511759 0.0199112 0.998491 0
-0.0509755 0.0206492 0.998486 0
-0.0522068 0.0225223 0.998382 0
-0.0528884 0.0248905 0.99829 0
-0.0537091 0.0261399 0.998214 0
-0.0539696 0.0269912 0.998178 0.00211154
-0.0534447 0.0276007 0.998189 0
-0.0530225 0.0291309 0.998168 0
-0.0523877 0.0299249 0.998178 0
-0.0526374 0.0306557 0.998143 0
-0.0521117 0.0311821 0.998154 0
-0.0539547 0.0313956 0.99805 0
-0.0524664 0.032346 0.998099 0
-0.0529023 0.0346117 0.998 0
-0.0526391 0.0369425 0.99793 0
-0.0528331 0.0371801 0.997911 0
-0.0521008 0.0364765 0.997975 0
-0.0526986 0.0378565 0.997893 0
-0.0526805 0.0389893 0.99785 0
-0.0523104 0.0398145 0.997837 0
-0.0516977 0.040517 0.997841 0
-0.0515249 0.0419642 0.99779 0
-0.0520831 0.0425531 0.997736 0
-0.0526482 0.0452182 0.997589 0.00481527
-0.0520022 0.0461064 0.997582 0.00284724
-0.0521755 0.0479295 0.997487 0.00445332
-0.0518393 0.0477933 0.997511 0.00321174
-0.0518387 0.0482073 0.997491 0.00412387
-0.0520197 0.048646 0.997461 0.0055348
-0.0513888 0.0493821 0.997457 0.00418261
-0.0516491 0.0512024 0.997352 0.00680567
-0.0507692 0.0517207 0.99737 0.00546684
-0.0511474 0.0527338 0.997298 0.00940638
-0.0514579 0.0532134 0.997256 0.00987506
-0.0505973 0.0529225 0.997316 0.00867976
-0.0504005 0.0547986 0.997225 0.00843689
-0.0504061 0.0561462 0.997149 0.0079985
-0.0503302 0.0584737 0.997019 0.0122953
-0.0496378 0.0586387 0.997044 0.0101176
-0.0490136 0.0576796 0.997131 0.00675995
-0.0487189 0.0575405 0.997154 0.00422539
-0.0484102 0.0570578 0.997196 0.000236509
-0.0483771 0.0581673 0.997134 0
-0.0485512 0.0597939 0.997029 0
-0.0484232 0.0597537 0.997038 0
-0.0489239 0.0603094 0.99698 0
-0.0491703 0.0607293 0.996942 0
-0.0492289 0.0607045 0.996941 0
-0.0490979 0.0606669 0.99695 0
-0.0496339 0.0625532 0.996807 0
-0.0504967 0.065302 0.996587 0.00162389
-0.0510592 0.0664096 0.996485 0.00422896
-0.0510977 0.0671329 0.996435 0.00459694
-0.0511816 0.0681302 0.996363 0.00293748
-0.0505063 0.0654774 0.996575 0
-0.0503463 0.0649846 0.996615 0
-0.0508691 0.0667304 0.996473 0
-0.0508281 0.0671057 0.99645 0
-0.05042 0.0680502 0.996407 0
-0.0506276 0.0667915 0.996482 0
-0.0503666 0.0694221 0.996315 0
-0.0507907 0.0716819 0.996134 0
-0.0506996 0.0727749 0.996059 0
-0.0499267 0.0732131 0.996066 0
-0.0495062 0.0755883 0.995909 0
-0.0495307 0.076695 0.995824 0
-0.0488397 0.0768502 0.995846 0
-0.0485002 0.0777801 0.99579 0
-0.0539985 -0.0864443 0.994792 0
-0.0532904 -0.0842499 0.995019 0
-0.0529181 -0.0818276 0.995241 0
-0.0533479 -0.0797073 0.99539 0
-0.0536586 -0.0775581 0.995543 0
-0.0535746 -0.0755182 0.995704 0
-0.0536118 -0.0736769 0.99584 0
-0.054129 -0.0719254 0.99594 0
-0.0543382 -0.0703395 0.996042 0
-0.0542273 -0.0689197 0.996147 0
-0.0548769 -0.0668176 0.996255 0
-0.0544351 -0.0655727 0.996362 0
-0.0550151 -0.064092 0.996426 0
-0.0553675 -0.0634674 0.996447 0
-0.0557391 -0.0622629 0.996502 0
-0.0559186 -0.0610135 0.996569 0
-0.0560703 -0.0601663 0.996612 0
-0.0560376 -0.0592128 0.996671 0
-0.0561706 -0.0581943 0.996724 0
-0.0557665 -0.0575752 0.996782 0
-0.0562699 -0.0568324 0.996797 0
-0.0565015 -0.056141 0.996823 0
-0.0563168 -0.0556434 0.996861 0
-0.0559569 -0.0551056 0.996911 0
-0.0554645 -0.0534201 0.997031 0
-0.056179 -0.0524303 0.997043 0
-0.0556218 -0.0517369 0.997111 0
-0.0555123 -0.0511001 0.99715 0
-0.0550434 -0.0501819 0.997222 0
-0.0550464 -0.0494331 0.997259 0
-0.0551291 -0.0487749 0.997287 0
-0.0546674 -0.0480912 0.997346 0
-0.0544368 -0.0472786 0.997397 0
-0.054322 -0.046368 0.997446 0
-0.0540376 -0.0455677 0.997499 0
-0.054009 -0.0447592 0.997537 0
-0.0539538 -0.0435226 0.997594 0
-0.0536677 -0.042699 0.997645 0
-0.0537843 -0.0414061 0.997694 0.000381045
-0.0540911 -0.0395911 0.997751 0.00164607
-0.0546343 -0.0377494 0.997793 0.00280735
-0.0541658 -0.0363113 0.997872 0.00291661
-0.053535 -0.0346105 0.997966 0.0012152
-0.0535838 -0.0331389 0.998013 0
-0.0536566 -0.0317012 0.998056 0.00329936
-0.0533399 -0.0294581 0.998142 0.00157628
-0.053476 -0.0268493 0.998208 0.00102959
-0.0544107 -0.0255152 0.998193 0.00748526
-0.0533206 -0.0227264 0.998319 0.00610258
-0.0534687 -0.0211028 0.998347 0.00722909
-0.0543837 -0.020203 0.998316 0.0114688
-0.0545959 -0.0188424 0.998331 0.00952832
-0.0537249 -0.017445 0.998403 0.00544164
-0.0529517 -0.0162563 0.998465 0.00258278
-0.0532527 -0.015852 0.998455 0.00392421
-0.0525679 -0.0149707 0.998505 0.00344191
-0.0530729 -0.0143641 0.998487 0.00354979
-0.0527078 -0.013854 0.998514 0
-0.0527201 -0.0134076 0.998519 0
-0.0533696 -0.0124733 0.998497 0
-0.0528675 -0.0120419 0.998529 0.000490694
-0.0525426 -0.0116447 0.998551 0
-0.0528195 -0.0112503 0.998541 0
-0.0527753 -0.0108364 0.998548 0
-0.0506243 -0.0104536 0.998663 0
-0.0510457 -0.0099427 0.998647 0
-0.050643 -0.00973695 0.998669 0
-0.050259 -0.00937761 0.998692 0
-0.0503553 -0.00916453 0.998689 0
-0.0501903 -0.00904091 0.998699 0
-0.0504041 -0.00865515 0.998691 0
-0.0506027 -0.00893228 0.998679 0
-0.0480454 -0.00872956 0.998807 0
-0.0478711 -0.00859712 0.998817 0
-0.049528 -0.00772513 0.998743 0
-0.0499075 -0.00736266 0.998727 0
-0.0505904 -0.00667636 0.998697 0
-0.0509302 -0.0065731 0.998681 0
-0.0518326 -0.00606937 0.998637 0
-0.0514034 -0.0060337 0.99866 0
-0.0508422 -0.00566918 0.998691 0
-0.0505254 -0.00489484 0.998711 0
-0.049577 -0.00456427 0.99876 0
-0.0497605 -0.00412372 0.998753 0
-0.0495191 -0.00365773 0.998766 0
-0.0513789 -0.00300296 0.998675 0.000739741
-0.0510537 -0.00277302 0.998692 0.00483725
-0.0519592 -0.00240787 0.998646 0.00504522
-0.0502503 -0.00236589 0.998734 0
-0.0502284 -0.00201442 0.998736 0
-0.0492829 -0.00194636 0.998783 0
-0.0488864 -0.00126368 0.998804 0
-0.048858 -0.000797138 0.998805 0
-0.0495102 -0.000499424 0.998774 0.00421046
-0.0498253 -0.000650975 0.998758 0
-0.0500101 -0.000649836 0.998749 0
-0.0499526 -0.000388234 0.998751 0
-0.0505031 -0.000182937 0.998724 0
-0.0495031 0.0001335 0.998774 0
-0.0485438 0.000269554 0.998821 0
-0.0481512 0.000387443 0.99884 0
-0.0486509 0.000497448 0.998816 0
-0.0479073 0.00040421 0.998852 0
-0.0478624 0.000172145 0.998854 0
-0.0477354 0.000394294 0.99886 0
-0.0490419 0.00103301 0.998796 0.00296147
-0.0510836 0.00131676 0.998694 0.0127556
-0.0492801 0.00156836 0.998784 0.00803656
-0.0487916 0.00160239 0.998808 0.00412042
-0.0478696 0.00141225 0.998853 0
-0.0474515 0.00215743 0.998871 0.00130056
-0.0474343 0.0020945 0.998872 0.00291051
-0.0474967 0.00244011 0.998868 0.00307313
-0.0480366 0.00255402 0.998842 0.000528086
-0.0483875 0.00249822 0.998825 0
-0.0479979 0.00277799 0.998844 0
-0.0483677 0.00317984 0.998825 0.00135766
-0.0483668 0.00334812 0.998824 0.00498176
-0.0487527 0.00353696 0.998805 0.0106065
-0.0468303 0.00325881 0.998897 0.00306738
-0.0468832 0.00314013 0.998895 0.000568764
-0.0467429 0.00334785 0.998901 0
-0.0477997 0.00358769 0.99885 0.00373201
-0.0461707 0.00351582 0.998927 0.000666867
-0.04549 0.00357853 0.998958 0
-0.0468027 0.00387566 0.998897 0.00243315
-0.0457134 0.003866 0.998947 0
-0.0442997 0.00337763 0.999013 0
-0.0438292 0.00347046 0.999033 0
-0.0429313 0.003455 0.999072 0
-0.0438992 0.00348258 0.99903 0
-0.0437864 0.00329879 0.999035 0
-0.0452094 0.00342355 0.998972 0
-0.0456029 0.00329896 0.998954 0
-0.0455483 0.00357463 0.998956 0.00103198
-0.0457205 0.00361987 0.998948 0
-0.0453379 0.00302465 0.998967 0
-0.0451607 0.00299949 0.998975 0
-0.044981 0.00310883 0.998983 0
-0.0456927 0.00265575 0.998952 0
-0.0451439 0.00266026 0.998977 0
-0.0450711 0.00262076 0.99898 0.00376514
-0.044357 0.002261 0.999013 0.00194298
-0.0435052 0.00173199 0.999052 0
-0.0440545 0.00178559 0.999027 0
-0.0453533 0.00233506 0.998968 0.00577099
-0.0448528 0.0021118 0.998991 0.00571281
-0.0442208 0.00193424 0.99902 0.00695454
-0.0452933 0.00188252 0.998972 0.0092045
-0.0451013 0.00146947 0.998981 0.00468981
-0.0465219 0.00122283 0.998917 0.00657319
-0.047138 0.000454579 0.998888 0
-0.047611 0.000459762 0.998866 0.00710218
-0.0473229 -3.10891e-05 0.99888 0.00405323
-0.0475046 -0.000125277 0.998871 0.0050744
-0.0475144 -0.000339734 0.99887 0.00840802
-0.0485114 -0.000299124 0.998823 0.0145244
-0.047915 -0.000531905 0.998851 0.00994479
-0.0459189 -0.000794426 0.998945 0.00643966
-0.0442593 -0.00136881 0.999019 0.000225588
-0.044151 -0.00151444 0.999024 0
-0.043305 -0.00214188 0.99906 0
-0.044168 -0.00148814 0.999023 0.00540437
-0.0450304 -0.00132147 0.998985 0.00765005
-0.0431383 -0.00159992 0.999068 0.00187577
-0.0426996 -0.00123565 0.999087 0
-0.0432172 -0.00166502 0.999064 0
-0.0428001 -0.00201532 0.999082 0
-0.0427203 -0.00275074 0.999083 0
-0.0423427 -0.00311644 0.999098 0
-0.0433834 -0.0032588 0.999053 0
-0.0427396 -0.00361874 0.99908 0
-0.0436296 -0.00348871 0.999042 0
-0.0439661 -0.00403672 0.999025 0
-0.0446831 -0.00392981 0.998993 0
-0.0445644 -0.00387673 0.998999 0
-0.0435709 -0.00373899 0.999043 0
-0.0442854 -0.00405363 0.999011 0
-0.0465909 -0.00400622 0.998906 0.00795441
-0.0452652 -0.00477699 0.998964 0.00258205
-0.0465391 -0.00493743 0.998904 0.00523445
-0.0439622 -0.00585821 0.999016 0
-0.0432794 -0.00676037 0.99904 0
-0.042253 -0.00756783 0.999078 0
-0.0430762 -0.00718631 0.999046 0
-0.0435382 -0.00717406 0.999026 0
-0.0446686 -0.0070778 0.998977 0
-0.0455823 -0.00745745 0.998933 0.00111052
-0.0470357 -0.00838184 0.998858 0.00682122
-0.0469188 -0.00922018 0.998856 0.00554646
-0.0454378 -0.0104698 0.998912 0
-0.0458147 -0.0106186 0.998894 0.00412331
-0.0456219 -0.0107714 0.998901 0.00427819
-0.0458376 -0.0122948 0.998873 0.00235395
-0.0460713 -0.0124226 0.998861 0.00971617
-0.0448964 -0.0136957 0.998898 0.00549572
-0.0452371 -0.014139 0.998876 0.00725539
-0.0444367 -0.014374 0.998909 0.00271579
-0.0453545 -0.014793 0.998861 0.00537858
-0.0469523 -0.0154846 0.998777 0.00863396
-0.0473189 -0.0155919 0.998758 0.0110613
-0.0471912 -0.0165333 0.998749 0.0144941
-0.0466801 -0.0169538 0.998766 0.00890961
-0.045547 -0.0168341 0.99882 0.00488917
-0.0452566 -0.0170887 0.998829 0.00397226
-0.0456037 -0.0169031 0.998817 0.00498638
-0.0463621 -0.0176466 0.998769 0.00512293
-0.0466835 -0.0175965 0.998755 0.00707227
-0.0485441 -0.0180242 0.998658 0.0168395
-0.0456764 -0.01898 0.998776 0.00605623
-0.0450352 -0.0203571 0.998778 0.00511364
-0.0453398 -0.0215368 0.998739 0.00627351
-0.0461109 -0.0219998 0.998694 0.00979494
-0.0458403 -0.0223313 0.998699 0.00440495
-0.0456957 -0.0228753 0.998693 0.00563529
-0.0462443 -0.0226429 0.998673 0.0067619
-0.0452158 -0.0230946 0.99871 0.0006078
-0.0456452 -0.0235033 0.998681 0.00279502
-0.0453252 -0.0237953 0.998689 0
-0.0453085 -0.0238814 0.998688 0
-0.044757 -0.0245742 0.998696 0
-0.0462304 -0.0237429 0.998649 0
-0.0458195 -0.0244216 0.998651 0
-0.0466182 -0.024735 0.998607 0
-0.0457341 -0.0245916 0.998651 0
-0.0466014 -0.023874 0.998628 0
-0.0463027 -0.0243775 0.99863 0
-0.0470919 -0.0242686 0.998596 0
-0.0460334 -0.0256268 0.998611 0
-0.046029 -0.0259831 0.998602 0
-0.0473582 -0.0261647 0.998535 0
-0.0477917 -0.026081 0.998517 0
-0.0480513 -0.0260421 0.998505 0
-0.0474118 -0.0266095 0.998521 0
-0.0473653 -0.0265084 0.998526 0
-0.0475102 -0.0254818 0.998546 0
-0.0472388 -0.0254565 0.998559 0
-0.0467719 -0.0253702 0.998583 0
-0.0478922 -0.024544 0.998551 0
-0.0473535 -0.0233347 0.998606 0
-0.0464716 -0.0226219 0.998663 0
-0.0464335 -0.0229338 0.998658 0
-0.0455028 -0.0230921 0.998697 0
-0.0457765 -0.0231163 0.998684 0
-0.0464307 -0.0222485 0.998674 0
-0.0456441 -0.0213239 0.99873 0
-0.0457503 -0.0204729 0.998743 0
-0.045975 -0.0200272 0.998742 0
-0.0469807 -0.0197422 0.998701 0
-0.0464144 -0.0190496 0.998741 0
-0.0463751 -0.0182035 0.998758 0
-0.0461273 -0.0182993 0.998768 0
-0.0458497 -0.018193 0.998783 0
-0.045635 -0.0179504 0.998797 0
-0.0446405 -0.0182791 0.998836 0
-0.0448993 -0.0185549 0.998819 0
-0.0457224 -0.0170691 0.998808 0
-0.0465968 -0.0165616 0.998776 0
-0.0462192 -0.0160495 0.998802 0
-0.0467474 -0.0154584 0.998787 0
-0.0477682 -0.0146313 0.998751 0
-0.0469311 -0.015137 0.998783 0
-0.046893 -0.0145506 0.998794 0
-0.0458952 -0.0145133 0.998841 0
-0.045985 -0.0134856 0.998851 0
-0.0472695 -0.0127422 0.998801 0
-0.0470296 -0.0121778 0.998819 0.000476461
-0.0480087 -0.0119862 0.998775 0
-0.04858 -0.0115122 0.998753 0.00634069
-0.047274 -0.011497 0.998816 0.00479467
-0.0478491 -0.0114352 0.998789 0.0056657
-0.0474287 -0.0114272 0.998809 0.00284805
-0.0476649 -0.0110312 0.998802 0.00108392
-0.0467509 -0.0119245 0.998835 0
-0.046147 -0.0119042 0.998864 0.000332855
-0.0469502 -0.0117294 0.998828 0
-0.048055 -0.0111397 0.998783 0.000563377
-0.0483292 -0.010333 0.998778 0.000303982
-0.0486684 -0.00966089 0.998768 0.00501974
-0.0480963 -0.00963279 0.998796 0
-0.0478423 -0.00889468 0.998815 0
-0.0490095 -0.00810275 0.998765 0.000604877
-0.0487734 -0.00874256 0.998772 0
-0.0494946 -0.00807415 0.998742 0
-0.0500376 -0.00796473 0.998716 0.00650226
-0.0501478 -0.00787356 0.998711 0.00768099
-0.0511499 -0.007462 0.998663 0.00827723
-0.0497763 -0.00738592 0.998733 0.00149294
-0.0500143 -0.00664405 0.998726 0.00311005
-0.0511232 -0.00570848 0.998676 0.00984091
-0.0505462 -0.00520245 0.998708 0.0103146
-0.0511665 -0.00482251 0.998678 0.0101002
-0.0510081 -0.00417925 0.99869 0.0078416
-0.0489193 -0.00410949 0.998794 0.00563867
-0.050675 -0.00350227 0.998709 0.00414229
-0.0502653 -0.0027229 0.998732 0.00483097
-0.0501564 -0.00294663 0.998737 0.00366986
-0.0485763 -0.00303583 0.998815 0
-0.0485985 -0.00289884 0.998814 0
-0.0487024 -0.00229969 0.998811 0.00100716
-0.0484846 -0.00184753 0.998822 0
-0.0481994 -0.00196926 0.998836 0.00211969
-0.0474949 -0.00242579 0.998869 0
-0.0472656 -0.00226139 0.99888 0
-0.0478228 -0.00189096 0.998854 0
-0.0480821 -0.00202494 0.998841 0.00328679
-0.0490605 -0.00163654 0.998794 0.00511774
-0.0482552 -0.00145209 0.998834 0.00756116
-0.0491946 -0.0004314 0.998789 0.0121775
-0.0501272 -0.00013363 0.998743 0.0145744
-0.0502499 0.000302077 0.998737 0.0124348
-0.0496329 2.27068e-05 0.998767 0.0100709
-0.0482266 -0.000723801 0.998836 0.000272037
-0.0488176 -6.87175e-05 0.998808 0.0037173
-0.0482706 0.000164457 0.998834 0.00350989
-0.0479096 -7.8284e-05 0.998852 0.00211096
-0.0468165 -0.000330625 0.998903 0
-0.0461628 -0.000539165 0.998934 0
-0.045909 -0.000970296 0.998945 0
-0.0473702 -0.000355515 0.998877 0
-0.0471589 -0.00039531 0.998887 0
-0.045636 -0.000455184 0.998958 0
-0.0455733 -0.00013822 0.998961 0
-0.0453152 -0.000541223 0.998973 0
-0.0455154 -0.000729175 0.998963 0
-0.0451702 -0.00103365 0.998979 0
-0.0465176 -0.000688244 0.998917 0
-0.0455154 -0.00113503 0.998963 0
-0.0459506 -0.000712631 0.998944 0
-0.0468489 -0.000372403 0.998902 0
-0.0470109 -0.000292317 0.998894 0
-0.0458763 -0.00027532 0.998947 0
-0.0461385 -0.00037272 0.998935 0
-0.0457905 -0.00127334 0.99895 0
-0.0450177 -0.00173058 0.998985 0
-0.0453065 -0.00164771 0.998972 0
-0.0438729 -0.00201344 0.999035 0
-0.0440257 -0.00261405 0.999027 0
-0.0430141 -0.00300228 0.99907 0
-0.0427923 -0.00289613 0.99908 0
-0.0432688 -0.00332035 0.999058 0
-0.0424363 -0.00381084 0.999092 0
-0.0433478 -0.00443981 0.99905 0
-0.0416985 -0.00483684 0.999119 0
