# .PCD v0.7 - Point Cloud Data file format
VERSION 0.7
FIELDS x y z
SIZE 4 4 4
TYPE F F F
COUNT 1 1 1
WIDTH 1341
HEIGHT 1
VIEWPOINT 0 0 0 1 0 0 0
POINTS 1341
DATA ascii
-0.051885001 -0.038899999 -0.26076701
-0.051881999 -0.038825002 -0.26076499
-0.051879 -0.038747001 -0.26076499
-0.051876001 -0.038671002 -0.26076499
-0.051872998 -0.038594998 -0.260764
-0.051869001 -0.038518999 -0.260766
-0.051865999 -0.038440999 -0.26077199
-0.051863 -0.038362999 -0.26077601
-0.051860001 -0.038286999 -0.26077601
-0.051856998 -0.038210999 -0.26077801
-0.051853999 -0.038132999 -0.260777
-0.051851001 -0.038059 -0.26076701
-0.051848002 -0.037981 -0.26076099
-0.051844999 -0.037905 -0.26076701
-0.051842 -0.037829001 -0.26076701
-0.051839001 -0.037751 -0.26076001
-0.051835999 -0.037675001 -0.26076201
-0.051833 -0.037597001 -0.260764
-0.051830001 -0.037521001 -0.26076201
-0.051826999 -0.037447002 -0.26075399
-0.051824 -0.03737 -0.26074901
-0.051821001 -0.037292998 -0.260757
-0.051817 -0.037214998 -0.26076901
-0.051814001 -0.037137002 -0.26077101
-0.051810998 -0.037060998 -0.260773
-0.051808 -0.036982998 -0.260773
-0.051805001 -0.036906999 -0.26076999
-0.051801998 -0.036830999 -0.260768
-0.051798999 -0.036756001 -0.260768
-0.051796 -0.036680002 -0.26076201
-0.051793002 -0.036602002 -0.26076201
-0.051789999 -0.036525998 -0.26076901
-0.051787 -0.036448002 -0.26076299
-0.051785 -0.036373999 -0.26075301
-0.051780999 -0.036295999 -0.260759
-0.051778 -0.036217999 -0.26076901
-0.051773999 -0.036139999 -0.260773
-0.051771 -0.036063999 -0.26077199
-0.051768001 -0.035987999 -0.260766
-0.051766001 -0.035912 -0.26075801
-0.051763002 -0.035836 -0.26075199
-0.051759999 -0.03576 -0.26075101
-0.051757 -0.035684999 -0.26074499
-0.051754002 -0.035608999 -0.26074299
-0.051750999 -0.035530999 -0.26074499
-0.051748 -0.035452999 -0.26075101
-0.051745001 -0.035377 -0.26074699
-0.051741999 -0.035301 -0.26074401
-0.051739 -0.035225 -0.260746
-0.051736001 -0.035147 -0.26074201
-0.051734 -0.035071 -0.260732
-0.051731002 -0.034997001 -0.26072201
-0.051727999 -0.034922 -0.260719
-0.051725 -0.034844 -0.260719
-0.051722001 -0.034768 -0.26071301
-0.051720001 -0.034692001 -0.260703
-0.051716998 -0.034616001 -0.260699
-0.051713999 -0.034540001 -0.26070201
-0.051709998 -0.034462001 -0.260708
-0.051707 -0.034386002 -0.26071
-0.051704999 -0.034309998 -0.26069999
-0.051702 -0.034235001 -0.26069
-0.0517 -0.034159001 -0.260683
-0.051697001 -0.034083001 -0.26067299
-0.051693998 -0.034008998 -0.260665
-0.051690999 -0.033930998 -0.260663
-0.051688001 -0.033854999 -0.26066101
-0.051685002 -0.033776999 -0.26066199
-0.051681999 -0.033700999 -0.260658
-0.051679999 -0.033628002 -0.26064599
-0.051677 -0.033551998 -0.260638
-0.051674001 -0.033475999 -0.26063901
-0.051670998 -0.033397999 -0.26064301
-0.051667999 -0.033321999 -0.26063699
-0.051665999 -0.033245999 -0.260629
-0.051663 -0.033171002 -0.26061901
-0.051660001 -0.033094998 -0.260618
-0.051656999 -0.033016998 -0.260618
-0.051654 -0.032942999 -0.26061201
-0.051651999 -0.032867 -0.260598
-0.051649999 -0.032793999 -0.26058
-0.051647 -0.032717999 -0.26057899
-0.051644001 -0.032639999 -0.26057699
-0.051642001 -0.032566 -0.26055899
-0.051639002 -0.032492001 -0.26054901
-0.051635999 -0.032414999 -0.26054901
-0.051633 -0.032338999 -0.260548
-0.051631 -0.032263 -0.26053801
-0.051628001 -0.032189 -0.26052999
-0.051624998 -0.032113001 -0.260528
-0.051622 -0.032035001 -0.26052901
-0.051619001 -0.031959001 -0.26052901
-0.051615998 -0.031883001 -0.26052299
-0.051614001 -0.031808 -0.260515
-0.051610999 -0.031732 -0.26051301
-0.051608 -0.031654 -0.26051199
-0.051605001 -0.031578001 -0.260508
-0.051601999 -0.031502001 -0.260506
-0.051599 -0.031426001 -0.26050201
-0.051596001 -0.031350002 -0.26050401
-0.051592998 -0.031272002 -0.26050001
-0.051591001 -0.031198001 -0.26048899
-0.051587999 -0.031122999 -0.26048499
-0.051585 -0.031044999 -0.26048699
-0.051582001 -0.030968999 -0.26048499
-0.051578999 -0.030893 -0.26047999
-0.051576 -0.030817 -0.26047999
-0.051573001 -0.030741001 -0.260472
-0.051571 -0.030665001 -0.26046601
-0.051568002 -0.030588999 -0.26046199
-0.051564999 -0.030514 -0.26045501
-0.051562 -0.030438 -0.26045299
-0.051559001 -0.03036 -0.26045901
-0.051555999 -0.030284001 -0.26045901
-0.051553 -0.030208001 -0.26045501
-0.051550001 -0.030130001 -0.26045701
-0.051546 -0.030051 -0.26047
-0.051543001 -0.029973 -0.260472
-0.051539999 -0.029899999 -0.260456
-0.051538002 -0.029826 -0.26044601
-0.051534999 -0.029748 -0.26045001
-0.051530998 -0.029668 -0.26046699
-0.051527001 -0.029589999 -0.260479
-0.051523998 -0.029511999 -0.260479
-0.051902 -0.046580002 -0.26146001
-0.051902 -0.046507999 -0.26140001
-0.051902 -0.046434999 -0.26133999
-0.051901001 -0.046362001 -0.26129699
-0.051899999 -0.046289001 -0.26125899
-0.051899001 -0.046213999 -0.26122701
-0.051897001 -0.04614 -0.26120001
-0.051895998 -0.046064999 -0.26116601
-0.051895 -0.045991998 -0.26112801
-0.051893 -0.045919001 -0.261094
-0.051892001 -0.045844998 -0.261071
-0.051890001 -0.045770001 -0.261049
-0.051888 -0.045694001 -0.26102301
-0.051886 -0.045621 -0.260997
-0.051883999 -0.045547999 -0.26097
-0.051883001 -0.045472 -0.260948
-0.051879998 -0.045396 -0.260934
-0.051878002 -0.045322999 -0.26091599
-0.051876001 -0.045247 -0.26089299
-0.051874001 -0.045173999 -0.26087701
-0.051871002 -0.045097999 -0.260867
-0.051869001 -0.045022 -0.26085499
-0.051867001 -0.044946998 -0.26084
-0.051865 -0.044872999 -0.26082
-0.051863 -0.044798002 -0.2608
-0.051860999 -0.044723999 -0.260782
-0.051858 -0.044647999 -0.260773
-0.051855002 -0.044573002 -0.26076499
-0.051853001 -0.044496998 -0.260755
-0.051849999 -0.044420999 -0.26074499
-0.051848002 -0.044344999 -0.26074001
-0.051844999 -0.044268999 -0.26073599
-0.051842 -0.044193 -0.26073
-0.051839001 -0.044119999 -0.26072201
-0.051837001 -0.044041999 -0.26071799
-0.051833 -0.043965999 -0.26072299
-0.051830001 -0.043889999 -0.26072699
-0.051826 -0.043811999 -0.260737
-0.051823001 -0.043735001 -0.26074299
-0.051821001 -0.04366 -0.26073101
-0.051817998 -0.043584 -0.26072201
-0.051814999 -0.043508001 -0.26072001
-0.051812001 -0.043432001 -0.26071799
-0.051809002 -0.043356001 -0.26072001
-0.051805999 -0.043278001 -0.26073
-0.051801998 -0.043202002 -0.260732
-0.051800001 -0.043125998 -0.26072499
-0.051796999 -0.043049999 -0.26072901
-0.051793002 -0.042973999 -0.260739
-0.051789999 -0.042895999 -0.260739
-0.051787 -0.042819999 -0.260739
-0.051782999 -0.042744 -0.260748
-0.05178 -0.042665999 -0.26075599
-0.051777001 -0.04259 -0.26076001
-0.051773001 -0.042512 -0.260766
-0.051770002 -0.042435002 -0.26076999
-0.051766999 -0.04236 -0.26076999
-0.051764 -0.042282999 -0.260775
-0.051759999 -0.042204998 -0.26078299
-0.051757 -0.042128999 -0.26078501
-0.051754002 -0.042052999 -0.26078901
-0.051750001 -0.041974999 -0.260795
-0.051747002 -0.041898999 -0.2608
-0.051743999 -0.041820999 -0.26080599
-0.051741 -0.041745 -0.26080799
-0.051738001 -0.041669 -0.26080599
-0.051734999 -0.041591 -0.26080599
-0.051731002 -0.041515 -0.26080999
-0.051727999 -0.041439001 -0.260813
-0.051725 -0.041361 -0.26081499
-0.051722001 -0.041285001 -0.260813
-0.051718999 -0.041209001 -0.260813
-0.051715001 -0.041131001 -0.26082301
-0.051711999 -0.041053001 -0.26083499
-0.051708002 -0.040977001 -0.260842
-0.051704999 -0.040899001 -0.26084399
-0.051702 -0.040823001 -0.26084599
-0.051699001 -0.040747002 -0.26084399
-0.051695999 -0.040670998 -0.26084399
-0.051693 -0.040592998 -0.26084301
-0.051690001 -0.040516999 -0.26083699
-0.051688001 -0.040440999 -0.260833
-0.051684 -0.040364999 -0.260833
-0.051681001 -0.040286999 -0.26083699
-0.051677998 -0.040211 -0.26084
-0.051674999 -0.040135 -0.26083401
-0.051672999 -0.040059999 -0.26082399
-0.05167 -0.039983999 -0.260818
-0.051667001 -0.039907999 -0.260822
-0.051663 -0.039829999 -0.26082599
-0.051660001 -0.039754 -0.260827
-0.051658001 -0.039678 -0.26081899
-0.051654998 -0.039602 -0.260813
-0.051651999 -0.039526001 -0.260813
-0.051649 -0.039448 -0.260809
-0.051647 -0.039374001 -0.26079801
-0.051644001 -0.039299 -0.26078999
-0.051640999 -0.039221 -0.26079601
-0.051638 -0.039145 -0.26079401
-0.051635001 -0.039069001 -0.26078099
-0.051633 -0.038995001 -0.260777
-0.051630002 -0.038917001 -0.260773
-0.051626999 -0.038841002 -0.26077101
-0.051623002 -0.038763002 -0.26078099
-0.051619999 -0.038686998 -0.26078299
-0.051617 -0.038610999 -0.26077801
-0.051614001 -0.038532998 -0.26078001
-0.051610999 -0.038456999 -0.260782
-0.051608 -0.038380999 -0.26077801
-0.051605001 -0.038306002 -0.260768
-0.051603001 -0.038229998 -0.26076701
-0.051599 -0.038152002 -0.26077101
-0.051596001 -0.038075998 -0.260775
-0.051592998 -0.037997998 -0.26076901
-0.051589999 -0.037921999 -0.26076299
-0.051587 -0.037845999 -0.26076201
-0.051584002 -0.037769999 -0.26076201
-0.051580999 -0.037694 -0.26076201
-0.051578 -0.037616 -0.26076001
-0.051575001 -0.03754 -0.26076001
-0.051571999 -0.037464 -0.26076099
-0.051569 -0.037386 -0.26076099
-0.051566001 -0.037310001 -0.26076099
-0.051562998 -0.037232 -0.26076499
-0.05156 -0.037156001 -0.26076701
-0.051557001 -0.037080001 -0.26076299
-0.051553998 -0.037002001 -0.260764
-0.051550999 -0.036926001 -0.260768
-0.051546998 -0.036848001 -0.26076999
-0.051543999 -0.036770001 -0.26077801
-0.051541001 -0.036694001 -0.260782
-0.051537 -0.036616001 -0.260782
-0.051534999 -0.036540002 -0.260777
-0.051532 -0.036463998 -0.260777
-0.051527999 -0.036386002 -0.26078299
-0.051525 -0.036309998 -0.26078099
-0.051523 -0.036235001 -0.260775
-0.051518999 -0.036157001 -0.26078001
-0.051516 -0.036077999 -0.260784
-0.051513001 -0.036003001 -0.260784
-0.051509999 -0.035927001 -0.260784
-0.051507 -0.035849001 -0.260786
-0.051504001 -0.035773002 -0.26078901
-0.051500998 -0.035695001 -0.26078701
-0.051498 -0.035619002 -0.26078099
-0.051495001 -0.035542998 -0.26077899
-0.051492002 -0.035466999 -0.260775
-0.051488999 -0.035390999 -0.260775
-0.051486 -0.035312999 -0.26078001
-0.051483002 -0.035236999 -0.26077801
-0.051479999 -0.035158999 -0.26077601
-0.051476002 -0.035080999 -0.26078001
-0.051472999 -0.035004999 -0.26078001
-0.051470999 -0.034929 -0.260775
-0.051468 -0.034853 -0.26076901
-0.051465001 -0.034777001 -0.26076901
-0.051461998 -0.034701999 -0.260759
-0.051460002 -0.034626 -0.26074499
-0.051456999 -0.03455 -0.26074001
-0.051454999 -0.034474 -0.260732
-0.051452 -0.034401 -0.26072401
-0.051449001 -0.034322999 -0.26073
-0.051445 -0.034244001 -0.26074001
-0.051442999 -0.034169 -0.26072699
-0.051440001 -0.034095 -0.26071301
-0.051437002 -0.034017 -0.26071301
-0.051433999 -0.033941001 -0.26071501
-0.051431 -0.033865001 -0.26070899
-0.051429 -0.033789001 -0.26069999
-0.051426001 -0.033714 -0.26068801
-0.051422998 -0.033638 -0.26068601
-0.051421002 -0.033562001 -0.26068199
-0.051417999 -0.033486001 -0.260676
-0.051415 -0.033410002 -0.26066899
-0.051412001 -0.033335 -0.26066101
-0.051410001 -0.033259001 -0.26065901
-0.051406998 -0.033183001 -0.26065099
-0.051405001 -0.033109002 -0.26063201
-0.051401999 -0.033034001 -0.26062
-0.051399 -0.032958001 -0.26062199
-0.051396001 -0.032882001 -0.26062
-0.051394001 -0.032806002 -0.26060799
-0.051391002 -0.032729998 -0.26059699
-0.051389001 -0.032657001 -0.26058501
-0.051385999 -0.032581002 -0.26058099
-0.051383 -0.032503001 -0.26058501
-0.051380001 -0.032427002 -0.26058099
-0.051378001 -0.032350998 -0.26056999
-0.051375002 -0.032276999 -0.26055801
-0.051373001 -0.032202002 -0.26054999
-0.051369 -0.032122999 -0.26055601
-0.051366001 -0.032047 -0.26055899
-0.051364001 -0.031971999 -0.26054701
-0.051360998 -0.031895999 -0.26054299
-0.051357001 -0.031817999 -0.26054701
-0.051355001 -0.031741999 -0.26054299
-0.051352002 -0.031665999 -0.26054001
-0.051348999 -0.03159 -0.26053801
-0.051346 -0.031512 -0.26053801
-0.051343001 -0.031438001 -0.26052999
-0.051341001 -0.031362999 -0.26051801
-0.051337998 -0.031289 -0.26050901
-0.051336002 -0.031213 -0.26049501
-0.051332999 -0.031135 -0.260499
-0.051329002 -0.031057 -0.26051301
-0.051325999 -0.030981001 -0.26050901
-0.051323999 -0.030906999 -0.26049599
-0.051320001 -0.030828999 -0.26049799
-0.051316999 -0.030753 -0.26049799
-0.051314998 -0.030678 -0.260492
-0.051312 -0.030602001 -0.26049
-0.051309001 -0.030525999 -0.260481
-0.051306002 -0.030449999 -0.26047701
-0.051302999 -0.030374 -0.26047501
-0.051300999 -0.030298 -0.26046899
-0.051297002 -0.03022 -0.26047099
-0.051293999 -0.030142 -0.26047701
-0.051291 -0.030066 -0.26047999
-0.051288001 -0.029988 -0.26048201
-0.051284 -0.02991 -0.26048601
-0.051282 -0.029834 -0.26048201
-0.051279001 -0.029758001 -0.26047999
-0.051275 -0.029681999 -0.260483
-0.051272001 -0.029603999 -0.260483
-0.051268999 -0.029526001 -0.26048499
-0.051654998 -0.046675 -0.261448
-0.051654998 -0.046604998 -0.261381
-0.051654998 -0.046532001 -0.26132101
-0.051654998 -0.046459999 -0.261262
-0.051654998 -0.046388999 -0.26121399
-0.051654 -0.046314001 -0.26117
-0.051653001 -0.046243001 -0.261125
-0.051651999 -0.046168 -0.26107901
-0.051651001 -0.046094999 -0.26103899
-0.051649999 -0.046021 -0.26100701
-0.051647998 -0.045945998 -0.26098201
-0.051647 -0.045873001 -0.26095
-0.051645 -0.045798998 -0.26092201
-0.051644001 -0.045726001 -0.26089299
-0.051642999 -0.045653 -0.26085299
-0.051640999 -0.045577999 -0.26082501
-0.051639002 -0.045504 -0.260809
-0.051635999 -0.045428 -0.26079801
-0.051633999 -0.045352999 -0.260782
-0.051631998 -0.045279 -0.260764
-0.051628999 -0.045203 -0.26075599
-0.051626999 -0.045127001 -0.260746
-0.051624998 -0.045051999 -0.26072499
-0.051623002 -0.044978 -0.26070699
-0.051619999 -0.044902001 -0.26070699
-0.051617 -0.044826999 -0.26070499
-0.051614001 -0.044751 -0.260694
-0.051612001 -0.044675 -0.26067799
-0.05161 -0.044599 -0.26066801
-0.051605999 -0.044523001 -0.260674
-0.051603001 -0.044447001 -0.26067999
-0.051600002 -0.044371001 -0.26067299
-0.051598001 -0.044296 -0.260665
-0.051594999 -0.044220001 -0.26065901
-0.051592 -0.044144001 -0.26065299
-0.051589999 -0.044068001 -0.260645
-0.051585998 -0.043992002 -0.26064801
-0.051583 -0.043914001 -0.260656
-0.051580001 -0.043838002 -0.260656
-0.051577002 -0.043763999 -0.26065001
-0.051573999 -0.043685999 -0.26064801
-0.051571 -0.043609999 -0.26065099
-0.051568002 -0.043533999 -0.26065099
-0.051564999 -0.043458 -0.26065299
-0.051561002 -0.04338 -0.260663
-0.051557999 -0.043304 -0.26067701
-0.051553998 -0.043226 -0.260681
-0.051550999 -0.04315 -0.26067999
-0.051548 -0.043074001 -0.26068601
-0.051545002 -0.042998001 -0.26068801
-0.051541999 -0.042920001 -0.26068601
-0.051539 -0.042844001 -0.26068601
-0.051536001 -0.042768002 -0.260683
-0.051532999 -0.042691998 -0.26068899
-0.051529001 -0.042615999 -0.260701
-0.051525999 -0.042537998 -0.26070899
-0.051522002 -0.042459 -0.260717
-0.051518999 -0.042383 -0.260721
-0.051516 -0.042307001 -0.26072001
-0.051513001 -0.042231001 -0.260726
-0.051509 -0.042153001 -0.26073599
-0.051506002 -0.042077001 -0.26074201
-0.051502001 -0.041999001 -0.26075
-0.051499002 -0.041923001 -0.260757
-0.051495999 -0.041847002 -0.26075301
-0.051493 -0.041769002 -0.26074901
-0.051490001 -0.041692998 -0.26074699
-0.051486999 -0.041616999 -0.26074901
-0.051484 -0.041538998 -0.260755
-0.051479999 -0.041462999 -0.26076001
-0.051477 -0.041384999 -0.260768
-0.051474001 -0.041308999 -0.26077399
-0.051470999 -0.041232999 -0.26076999
-0.051468 -0.041157 -0.260766
-0.051465001 -0.041079 -0.26076901
-0.051461 -0.041003 -0.26077899
-0.051458001 -0.040925 -0.26078099
-0.051454999 -0.040849 -0.26077899
-0.051452 -0.040773001 -0.260773
-0.051449001 -0.040697001 -0.26077199
-0.051445998 -0.040621001 -0.26077199
-0.051442999 -0.040543001 -0.26077399
-0.051440001 -0.040467001 -0.26077399
-0.051437002 -0.040391002 -0.26077399
-0.051433999 -0.040314998 -0.260768
-0.051431 -0.040238 -0.26076499
-0.051428001 -0.040162001 -0.26076299
-0.051426001 -0.040086001 -0.260757
-0.051422998 -0.040010002 -0.26075101
-0.051419999 -0.039933998 -0.26074699
-0.051417001 -0.039857998 -0.260746
-0.051415 -0.039781999 -0.26073799
-0.051412001 -0.039707001 -0.260732
-0.051408999 -0.039631002 -0.26073
-0.051406 -0.039554998 -0.260726
-0.051403001 -0.039478999 -0.26072299
-0.051399998 -0.039402999 -0.26072299
-0.051397 -0.039324999 -0.26072499
-0.051394001 -0.039248999 -0.260719
-0.051391002 -0.039173 -0.260717
-0.051387999 -0.039097 -0.26071799
-0.051385999 -0.039021 -0.260708
-0.051383 -0.038945999 -0.26069999
-0.051380001 -0.038869999 -0.26070201
-0.051376998 -0.038791999 -0.26070201
-0.051374 -0.038716 -0.26070499
-0.051369999 -0.03864 -0.26070899
-0.051368002 -0.038562 -0.260701
-0.051364999 -0.038488001 -0.26069301
-0.051362 -0.038410001 -0.26069701
-0.051357999 -0.038332 -0.26070401
-0.051355999 -0.038258001 -0.260694
-0.051353 -0.038182002 -0.26068401
-0.051350001 -0.038104001 -0.26068601
-0.051346999 -0.038026001 -0.260694
-0.051344 -0.037950002 -0.26069501
-0.051341001 -0.037873998 -0.26069301
-0.051337998 -0.037797999 -0.26068899
-0.051335 -0.037719999 -0.26069099
-0.051330999 -0.037641998 -0.260701
-0.051328 -0.037565999 -0.260701
-0.051325001 -0.037489999 -0.26069999
-0.051321998 -0.037415002 -0.26069599
-0.051320001 -0.037338998 -0.26068801
-0.051316001 -0.037261002 -0.260694
-0.051313002 -0.037182 -0.26070601
-0.051309001 -0.037106 -0.26071101
-0.051306002 -0.037028 -0.26070699
-0.051302999 -0.036952 -0.26070699
-0.0513 -0.036874 -0.26071501
-0.051295999 -0.036796 -0.26072499
-0.051293001 -0.036718 -0.260737
-0.051289 -0.03664 -0.260741
-0.051286001 -0.036564 -0.26074401
-0.051282998 -0.036488 -0.26074401
-0.051279999 -0.03641 -0.26074401
-0.051277 -0.036334001 -0.26074201
-0.051274002 -0.036258001 -0.26074001
-0.051270999 -0.036180001 -0.26074299
-0.051268 -0.036102001 -0.26074901
-0.051263999 -0.036026001 -0.26075101
-0.051261 -0.035950001 -0.26074901
-0.051259 -0.035872001 -0.26074499
-0.051256001 -0.035796002 -0.26074299
-0.051252 -0.035719998 -0.260746
-0.051249001 -0.035642002 -0.260748
-0.051245999 -0.035565998 -0.26075199
-0.051243 -0.035487998 -0.26075599
-0.051238999 -0.035409998 -0.26076001
-0.051236 -0.035333999 -0.26076001
-0.051233001 -0.035255998 -0.26076099
-0.051231001 -0.035181999 -0.26075101
-0.051228002 -0.035107002 -0.260737
-0.051224999 -0.035030998 -0.260739
-0.051222 -0.034952998 -0.260741
-0.051219001 -0.034876999 -0.26073799
-0.051217001 -0.034800999 -0.260732
-0.051213 -0.034722999 -0.260732
-0.051210999 -0.034646999 -0.260728
-0.051208001 -0.034570999 -0.26071799
-0.051205002 -0.034495998 -0.26071501
-0.051201999 -0.034419999 -0.260717
-0.051199 -0.034343999 -0.26070899
-0.051197 -0.034267999 -0.260703
-0.051192999 -0.034189999 -0.26070499
-0.051190998 -0.034113999 -0.26070401
-0.051188 -0.034038 -0.260694
-0.051185999 -0.033964999 -0.26067999
-0.051183999 -0.033891 -0.260656
-0.051182002 -0.033815999 -0.26064301
-0.051178001 -0.033739001 -0.260649
-0.051174998 -0.033661 -0.26065099
-0.051171999 -0.033585001 -0.260649
-0.051169001 -0.03351 -0.260647
-0.051167 -0.033434 -0.260638
-0.051164001 -0.033358 -0.26062199
-0.051162001 -0.033282001 -0.260618
-0.051158998 -0.033206001 -0.26061401
-0.051157001 -0.033133 -0.26059499
-0.051155001 -0.033059001 -0.260575
-0.051151998 -0.032984 -0.26056901
-0.051148999 -0.032908 -0.26056901
-0.051146001 -0.032832 -0.26056501
-0.051143002 -0.032754 -0.260564
-0.051139999 -0.032678001 -0.26056001
-0.051137999 -0.032604001 -0.26054999
-0.051135 -0.032528002 -0.26054201
-0.051132001 -0.032451998 -0.26053801
-0.051130001 -0.032377001 -0.26052499
-0.051128 -0.032303002 -0.26050901
-0.051125001 -0.032226998 -0.260501
-0.051121999 -0.032152001 -0.26049501
-0.051120002 -0.032076001 -0.26049
-0.051116999 -0.032000002 -0.26049
-0.051112998 -0.031922001 -0.26049799
-0.051109999 -0.031844001 -0.26050001
-0.051107001 -0.031769998 -0.26049599
-0.051104002 -0.031691998 -0.26049
-0.051100999 -0.031615999 -0.26048899
-0.051098 -0.031539999 -0.26049101
-0.051095001 -0.031461999 -0.26049101
-0.051093001 -0.031388 -0.260481
-0.051089998 -0.031312998 -0.26046899
-0.051086999 -0.031237001 -0.26046601
-0.051084001 -0.031160999 -0.26046601
-0.051082 -0.031084999 -0.26046199
-0.051077999 -0.031006999 -0.26046199
-0.051075 -0.030928999 -0.26046601
-0.051072001 -0.030853 -0.26047099
-0.051068999 -0.030774999 -0.26046899
-0.051066998 -0.030701 -0.26045501
-0.051064 -0.030625001 -0.26044899
-0.051061001 -0.030548999 -0.26044899
-0.051058002 -0.030471001 -0.260452
-0.051054001 -0.030393001 -0.26046199
-0.051050998 -0.030316999 -0.26046401
-0.051047999 -0.030241 -0.26045999
-0.051045001 -0.030162999 -0.26046199
-0.051042002 -0.030087 -0.26045799
-0.051038999 -0.030009 -0.260461
-0.051034998 -0.029931 -0.26047099
-0.051031999 -0.029855 -0.26047301
-0.051029 -0.029777 -0.26046699
-0.051026002 -0.029701 -0.26047501
-0.051022999 -0.029623 -0.260479
-0.05102 -0.029547 -0.26046801
-0.051403001 -0.046766002 -0.26146501
-0.051403999 -0.046693999 -0.261383
-0.051405001 -0.046624001 -0.26131901
-0.051403999 -0.046549 -0.26126599
-0.051403999 -0.046478 -0.26121801
-0.051403001 -0.046404999 -0.26116201
-0.051403001 -0.046332002 -0.26111099
-0.051401999 -0.046259001 -0.26106301
-0.051401 -0.046186 -0.26102301
-0.051399998 -0.046112999 -0.26099601
-0.051398002 -0.046038002 -0.260968
-0.051397 -0.045965001 -0.26093
-0.051396001 -0.045891002 -0.260892
-0.051394001 -0.045816001 -0.260869
-0.051392999 -0.045743 -0.26084101
-0.051391002 -0.045669001 -0.26081499
-0.051389001 -0.045593999 -0.26079899
-0.051387001 -0.04552 -0.26077801
-0.051385 -0.045444999 -0.26075599
-0.051382001 -0.045368999 -0.26074201
-0.051380001 -0.045295 -0.260728
-0.051378001 -0.045219999 -0.26070899
-0.051376 -0.045146 -0.26068899
-0.051374 -0.04507 -0.26067701
-0.051371001 -0.044994999 -0.26067299
-0.051368002 -0.044918999 -0.26067001
-0.051364999 -0.044842999 -0.26065999
-0.051362999 -0.044767 -0.26065201
-0.05136 -0.044691 -0.26064199
-0.051357999 -0.044615999 -0.260636
-0.051353998 -0.044539999 -0.26063901
-0.051351 -0.044464 -0.26063699
-0.051348999 -0.044388 -0.260631
-0.051346 -0.044312 -0.26062301
-0.051343001 -0.044236001 -0.260616
-0.051341001 -0.044160001 -0.26061401
-0.051337 -0.044084001 -0.260618
-0.051334001 -0.044008002 -0.26062599
-0.051330999 -0.043930002 -0.26062599
-0.051328 -0.043855999 -0.26062101
-0.051325001 -0.043779999 -0.26061901
-0.051321998 -0.043701999 -0.26062101
-0.051318999 -0.043625999 -0.26062301
-0.051314998 -0.043547999 -0.260631
-0.051312 -0.043471999 -0.26063499
-0.051309001 -0.043396 -0.26063401
-0.051306002 -0.04332 -0.26063401
-0.051302999 -0.043244001 -0.26063401
-0.0513 -0.043168001 -0.260638
-0.051295999 -0.043090001 -0.26065201
-0.051293001 -0.043014001 -0.26066199
-0.051289 -0.042936001 -0.260663
-0.051286001 -0.042860001 -0.260663
-0.051282998 -0.042784002 -0.260665
-0.051279999 -0.042707998 -0.26067099
-0.051277 -0.042629998 -0.26067701
-0.051272999 -0.042553999 -0.26068199
-0.051270001 -0.042475998 -0.260692
-0.051266 -0.042399 -0.26069799
-0.051263001 -0.042323001 -0.26070401
-0.051259998 -0.042245001 -0.26071
-0.051256001 -0.042169001 -0.26071799
-0.051252998 -0.042091001 -0.260721
-0.05125 -0.042015001 -0.26072299
-0.051247001 -0.041939002 -0.26072299
-0.051244002 -0.041862998 -0.26072299
-0.051240999 -0.041786999 -0.26072299
-0.051238 -0.041708998 -0.260726
-0.051233999 -0.041630998 -0.26073399
-0.051231001 -0.041554999 -0.260746
-0.051228002 -0.041478999 -0.26074401
-0.051224999 -0.041402999 -0.26074201
-0.051220998 -0.041324999 -0.260748
-0.051217999 -0.041249 -0.26075101
-0.051215 -0.041173 -0.26074901
-0.051212002 -0.041095 -0.26075101
-0.051208999 -0.041019 -0.260757
-0.051205002 -0.040941 -0.26076299
-0.051201999 -0.040865 -0.26076499
-0.051199 -0.040787 -0.260766
-0.051196001 -0.040711001 -0.26076201
-0.051194001 -0.040635001 -0.26075199
-0.051190998 -0.040561002 -0.260746
-0.051188 -0.040483002 -0.26074001
-0.051185001 -0.040408 -0.260737
-0.051182002 -0.040332001 -0.260741
-0.051178999 -0.040256001 -0.260741
-0.051176 -0.040180001 -0.260739
-0.051173002 -0.040102001 -0.26073101
-0.051169999 -0.040026002 -0.26073
-0.051167998 -0.039949998 -0.260726
-0.051165 -0.039873999 -0.26072201
-0.051162001 -0.039797999 -0.26072201
-0.051158998 -0.039721999 -0.26071599
-0.051155999 -0.039647002 -0.26070699
-0.051153999 -0.039570998 -0.260703
-0.051151 -0.039494999 -0.260699
-0.051148001 -0.039418999 -0.26069501
-0.051144999 -0.039342999 -0.26068601
-0.051143002 -0.039267998 -0.260674
-0.051139999 -0.039191999 -0.26066801
-0.051137 -0.039115999 -0.26066399
-0.051135 -0.039042 -0.26065201
-0.051132999 -0.038966 -0.26063901
-0.051130001 -0.038890999 -0.26063299
-0.051127002 -0.038812999 -0.26063699
-0.051123999 -0.038736999 -0.26063499
-0.051121 -0.038663 -0.260631
-0.051118001 -0.038585 -0.26063401
-0.051114999 -0.038509 -0.26062801
-0.051112 -0.038433 -0.26062199
-0.051109001 -0.038357001 -0.26062199
-0.051105998 -0.038281001 -0.26062
-0.051103 -0.038203001 -0.26061901
-0.051100001 -0.038127001 -0.26061699
-0.051096998 -0.038049001 -0.26062101
-0.051093999 -0.037973002 -0.260629
-0.051091 -0.037896998 -0.260625
-0.051086999 -0.037819002 -0.260631
-0.051084001 -0.037741002 -0.26064199
-0.051081002 -0.037664998 -0.26064199
-0.051077999 -0.037588999 -0.260636
-0.051075 -0.037510999 -0.260636
-0.051072001 -0.037434999 -0.26064399
-0.051068 -0.037356999 -0.260649
-0.051065002 -0.037278999 -0.260649
-0.051061001 -0.037202999 -0.26066101
-0.051058002 -0.037124999 -0.260667
-0.051054999 -0.037048999 -0.260667
-0.051050998 -0.036970999 -0.26067701
-0.051047999 -0.036892001 -0.260685
-0.051045001 -0.036814 -0.260692
-0.051042002 -0.036738999 -0.26068801
-0.051040001 -0.036665 -0.26067001
-0.051036999 -0.036589 -0.26066601
-0.051033001 -0.036509 -0.26067999
-0.051029 -0.036431 -0.26069099
-0.051026002 -0.036352001 -0.26070499
-0.051022001 -0.036274001 -0.26071101
-0.051019002 -0.036198001 -0.26071101
-0.051015999 -0.036120001 -0.26071501
-0.051013 -0.036044002 -0.26071301
-0.051010001 -0.035967998 -0.26071
-0.051006 -0.035890002 -0.26072001
-0.051003002 -0.035813998 -0.26072401
-0.050999999 -0.035735998 -0.26071799
-0.050997 -0.035659999 -0.26072201
-0.050994001 -0.035583999 -0.26071799
-0.050990999 -0.035507001 -0.26071501
-0.050988 -0.035429999 -0.26072499
-0.050985001 -0.035351999 -0.26073101
-0.050981998 -0.035275999 -0.26072699
-0.050979 -0.035200998 -0.260717
-0.050976001 -0.035123002 -0.26071399
-0.050972998 -0.035046998 -0.26071599
-0.050969999 -0.034968998 -0.26072001
-0.050967 -0.034892999 -0.26071399
-0.050964002 -0.034816999 -0.260712
-0.050960999 -0.034740999 -0.260712
-0.050958 -0.034665 -0.26070899
-0.050955001 -0.034587 -0.26070499
-0.050951999 -0.034511 -0.260701
-0.050949998 -0.034435999 -0.26069501
-0.050946999 -0.034359999 -0.26068899
-0.050944 -0.034283999 -0.26068199
-0.050942 -0.034208 -0.260674
-0.050939001 -0.034132 -0.26067001
-0.050937001 -0.034058999 -0.260658
-0.050934002 -0.033983 -0.26065099
-0.050930999 -0.033907 -0.26063901
-0.050928999 -0.033831 -0.260625
-0.050926 -0.033758 -0.26061901
-0.050923001 -0.033679999 -0.26062101
-0.050921001 -0.033604 -0.26061201
-0.050919 -0.033530001 -0.26059601
-0.050916001 -0.033454001 -0.26058799
-0.050912999 -0.033378001 -0.26058799
-0.05091 -0.033303 -0.26058099
-0.050907999 -0.033227 -0.26056901
-0.050905 -0.033151001 -0.26056701
-0.050902002 -0.033075001 -0.26056501
-0.050898999 -0.032999001 -0.260555
-0.050896998 -0.032926001 -0.260544
-0.050895002 -0.032850001 -0.260528
-0.050891999 -0.032776002 -0.26051399
-0.050889999 -0.032699998 -0.26051199
-0.050886001 -0.032621998 -0.26051199
-0.050884001 -0.032547001 -0.26050699
-0.050880998 -0.032471001 -0.260499
-0.050878 -0.032395002 -0.260499
-0.050875001 -0.032319002 -0.26049301
-0.050873 -0.032244999 -0.26048401
-0.050870001 -0.032168999 -0.26047999
-0.050866999 -0.032090999 -0.26048201
-0.050864 -0.032015 -0.26047999
-0.050861001 -0.031939998 -0.260474
-0.050857998 -0.031863999 -0.26046899
-0.050856002 -0.031787999 -0.260463
-0.050852999 -0.031709999 -0.260463
-0.050849002 -0.031633999 -0.26046699
-0.050845999 -0.031558 -0.260465
-0.050843999 -0.031482 -0.260456
-0.050841 -0.031406 -0.260454
-0.050838001 -0.031328 -0.260454
-0.050834998 -0.031252 -0.260452
-0.050832 -0.031176999 -0.26045001
-0.050829001 -0.031098999 -0.260452
-0.050825998 -0.031022999 -0.26045299
-0.050822999 -0.030947 -0.260445
-0.05082 -0.030871 -0.260443
-0.050817002 -0.030793 -0.260445
-0.050813999 -0.030717 -0.26044101
-0.050811 -0.030641001 -0.26043999
-0.050808001 -0.030563001 -0.26044399
-0.050804999 -0.030486999 -0.26044399
-0.050801001 -0.030409001 -0.26045001
-0.050797001 -0.030329 -0.26046601
-0.050794002 -0.030253001 -0.26046601
-0.050792001 -0.030179 -0.26045501
-0.050788 -0.030099001 -0.260465
-0.050783999 -0.030018 -0.260483
-0.050781 -0.029942 -0.26048899
-0.050778002 -0.029866001 -0.260483
-0.050774999 -0.029788001 -0.26048699
-0.050771002 -0.029708 -0.26050499
-0.050767001 -0.029627999 -0.260524
-0.050763 -0.029549999 -0.26052999
-0.051130999 -0.046693001 -0.261511
-0.051130999 -0.046622001 -0.26144499
-0.051130999 -0.046549998 -0.26137799
-0.051132001 -0.046478 -0.26130801
-0.051132001 -0.046406999 -0.26125601
-0.051130999 -0.046332002 -0.26120901
-0.051130001 -0.046261001 -0.26116499
-0.051128998 -0.046186 -0.261123
-0.051128 -0.046112999 -0.26108599
-0.051127002 -0.046039999 -0.26104
-0.051126 -0.045967001 -0.26100001
-0.051125001 -0.045892999 -0.260966
-0.051123001 -0.045818001 -0.260943
-0.051121 -0.045743998 -0.26092499
-0.051120002 -0.045671001 -0.26089701
-0.051118001 -0.045596 -0.260865
-0.051116001 -0.045522001 -0.260842
-0.051114 -0.045446999 -0.26082799
-0.051112 -0.045371 -0.26081201
-0.051109999 -0.045297001 -0.26079199
-0.051107001 -0.045221999 -0.26078099
-0.051105 -0.045146 -0.26076499
-0.051103 -0.045072999 -0.26074299
-0.051100999 -0.044996999 -0.26073101
-0.051098 -0.044921 -0.26073
-0.051095001 -0.044845 -0.260728
-0.051091999 -0.044769 -0.26072201
-0.051089998 -0.044693001 -0.260712
-0.051086999 -0.044617999 -0.26070201
-0.051084999 -0.044544 -0.26068899
-0.051082 -0.044468001 -0.26067901
-0.051079001 -0.044392001 -0.26067901
-0.051075999 -0.044314001 -0.26067901
-0.051073 -0.044238001 -0.260683
-0.051070001 -0.044162001 -0.26068199
-0.051066998 -0.044087 -0.260674
-0.051064 -0.044011001 -0.260674
-0.051061001 -0.043935001 -0.260674
-0.051058002 -0.043859001 -0.26067299
-0.051054999 -0.043783002 -0.26067099
-0.051052 -0.043706998 -0.26067099
-0.051049002 -0.043629002 -0.26067501
-0.051045999 -0.043552998 -0.260681
-0.051042002 -0.043476999 -0.26068699
-0.051038999 -0.043398999 -0.260694
-0.051034998 -0.043322001 -0.26070201
-0.051031999 -0.043246001 -0.26070601
-0.051029 -0.043168001 -0.26070401
-0.051026002 -0.043092001 -0.260708
-0.051022999 -0.043016002 -0.26071301
-0.05102 -0.042939998 -0.26071501
-0.051015999 -0.042862002 -0.260717
-0.051013 -0.042785998 -0.260721
-0.051010001 -0.042709999 -0.26072901
-0.051006 -0.042631999 -0.26073301
-0.051003002 -0.042555999 -0.26073799
-0.050999001 -0.042477999 -0.26075199
-0.050996002 -0.042399999 -0.26076201
-0.050992999 -0.042323001 -0.260766
-0.05099 -0.042247001 -0.260768
-0.050987002 -0.042172 -0.260766
-0.050983999 -0.042096 -0.26076499
-0.050980002 -0.042017002 -0.260775
-0.050976999 -0.041940998 -0.26078299
-0.050972998 -0.041862998 -0.26078701
-0.050969999 -0.041786999 -0.260793
-0.050967 -0.041708998 -0.260795
-0.050964002 -0.041632999 -0.26079801
-0.050960999 -0.041556999 -0.2608
-0.050958 -0.041480999 -0.26079601
-0.050953999 -0.041402999 -0.26079801
-0.050951 -0.041327 -0.26080799
-0.050948001 -0.041249 -0.260809
-0.050944999 -0.041173 -0.26080501
-0.050942 -0.041097 -0.26080701
-0.050939001 -0.041019 -0.260809
-0.050935999 -0.040943 -0.260811
-0.050933 -0.040867001 -0.26081201
-0.050930001 -0.040791001 -0.26080999
-0.050926998 -0.040715002 -0.26080799
-0.050923999 -0.040637001 -0.26080799
-0.050921001 -0.040562 -0.260804
-0.050918002 -0.040486 -0.2608
-0.050914999 -0.040410001 -0.26080099
-0.050912 -0.040334001 -0.26079899
-0.050909001 -0.040256001 -0.260795
-0.050905999 -0.040180001 -0.260791
-0.050903 -0.040104002 -0.26078701
-0.050900001 -0.040027998 -0.26078799
-0.050896998 -0.039949998 -0.26079199
-0.050894 -0.039873999 -0.26079401
-0.050891001 -0.039797999 -0.260786
-0.050889 -0.039723001 -0.26077801
-0.050886001 -0.039647002 -0.260777
-0.050882999 -0.039570998 -0.26076499
-0.050880998 -0.039496999 -0.26074699
-0.050878 -0.039421 -0.26074299
-0.050875001 -0.039342999 -0.26074299
-0.050872002 -0.039267998 -0.26074001
-0.050870001 -0.039191999 -0.26073399
-0.050866999 -0.039115999 -0.260728
-0.050864 -0.039039999 -0.260728
-0.050861001 -0.038964 -0.26072901
-0.050857998 -0.038888 -0.26072299
-0.050855 -0.03881 -0.260719
-0.050852001 -0.038734 -0.26071501
-0.050849002 -0.038658999 -0.26071301
-0.050847001 -0.038582999 -0.26070601
-0.050843999 -0.038507 -0.26069999
-0.050841 -0.038431 -0.26069799
-0.050838001 -0.038355 -0.26069799
-0.050834998 -0.038279001 -0.26069799
-0.050832 -0.038201001 -0.26069999
-0.050829001 -0.038125001 -0.260703
-0.050825998 -0.038047001 -0.260703
-0.050822001 -0.037971001 -0.26070699
-0.050818998 -0.037893001 -0.26070499
-0.050816 -0.037817001 -0.260703
-0.050813001 -0.037741002 -0.260708
-0.050810002 -0.037663002 -0.26071399
-0.050806001 -0.037585001 -0.26071599
-0.050802998 -0.037509002 -0.26071799
-0.050799999 -0.037431002 -0.26072401
-0.050797001 -0.037354998 -0.26073
-0.050793 -0.037275001 -0.26074201
-0.050788999 -0.037198 -0.26075101
-0.050786 -0.03712 -0.26075301
-0.050783001 -0.037044 -0.26075301
-0.050779998 -0.036966 -0.260757
-0.050776001 -0.036888 -0.26076499
-0.050772998 -0.036812 -0.26076901
-0.05077 -0.036736 -0.26076999
-0.050767001 -0.036658 -0.260766
-0.050763998 -0.03658 -0.26077601
-0.050760001 -0.036502 -0.26079199
-0.050756998 -0.036424 -0.26079199
-0.050754 -0.036348 -0.26079199
-0.050749999 -0.03627 -0.26079699
-0.050747 -0.036194 -0.26080301
-0.050744001 -0.036116 -0.26080301
-0.050740998 -0.036040001 -0.26080099
-0.050737999 -0.035964001 -0.26079699
-0.050735001 -0.035886001 -0.260802
-0.050732002 -0.035810001 -0.260804
-0.050728999 -0.035732001 -0.260802
-0.050725002 -0.035656001 -0.260804
-0.050721999 -0.035580002 -0.26080599
-0.050719 -0.035502002 -0.26081201
-0.050716002 -0.035424002 -0.26081499
-0.050712999 -0.035347998 -0.260813
-0.05071 -0.035271998 -0.26080501
-0.050708 -0.035195999 -0.260795
-0.050705001 -0.035121001 -0.26078501
-0.050701998 -0.035043001 -0.26079199
-0.050698001 -0.034965001 -0.2608
-0.050694998 -0.034889001 -0.26079401
-0.050693002 -0.034814999 -0.260784
-0.050689999 -0.034736998 -0.26078001
-0.050687 -0.034660999 -0.260777
-0.050685 -0.034584999 -0.26076901
-0.050682001 -0.034511998 -0.260757
-0.05068 -0.034435999 -0.26074699
-0.050677001 -0.034359999 -0.26074299
-0.050673999 -0.034283999 -0.26073
-0.050671998 -0.034209002 -0.26072001
-0.050669 -0.034132998 -0.26071799
-0.050666001 -0.034056999 -0.26071399
-0.050664 -0.033980999 -0.26070201
-0.050661001 -0.033907 -0.26069301
-0.050659001 -0.033831999 -0.260681
-0.050657 -0.033758 -0.260667
-0.050654002 -0.033682 -0.26065499
-0.050652001 -0.033606999 -0.26064199
-0.050648998 -0.033532999 -0.26063201
-0.050647002 -0.033457 -0.26062599
-0.050643999 -0.033381 -0.26061201
-0.050641999 -0.033307999 -0.26060101
-0.050639 -0.033229999 -0.26059699
-0.050636001 -0.033156 -0.260593
-0.050632998 -0.033078 -0.26058701
-0.050631002 -0.033004001 -0.260571
-0.050629001 -0.032931 -0.26056001
-0.050625999 -0.032855 -0.260548
-0.050624002 -0.032781001 -0.26053199
-0.050620999 -0.032706 -0.260526
-0.050618999 -0.03263 -0.26052299
-0.050616 -0.032554001 -0.260517
-0.050613001 -0.032476 -0.260517
-0.050609998 -0.032400001 -0.260517
-0.050607 -0.032324001 -0.260515
-0.050604001 -0.032248002 -0.26051199
-0.050601002 -0.032170001 -0.26051199
-0.050597999 -0.032094002 -0.26050401
-0.050595999 -0.032021001 -0.26049399
-0.050593 -0.031943001 -0.26049599
-0.050588999 -0.031867001 -0.260501
-0.050586 -0.031789001 -0.260499
-0.050584 -0.031713001 -0.26049101
-0.050581001 -0.031637002 -0.26048699
-0.050577998 -0.031560998 -0.26049101
-0.050574001 -0.031482998 -0.26049101
-0.050572 -0.031406999 -0.26049
-0.050569002 -0.031330999 -0.260488
-0.050565999 -0.031254999 -0.260488
-0.050563 -0.031176999 -0.26048601
-0.050560001 -0.031101 -0.26047999
-0.050556999 -0.031025 -0.260481
-0.050553001 -0.030947 -0.26048699
-0.050549999 -0.030869 -0.260499
-0.050546002 -0.030791 -0.26050699
-0.050542999 -0.030715 -0.260501
-0.05054 -0.030639 -0.26050201
-0.050537001 -0.030559 -0.26051
-0.050533 -0.030480999 -0.26051801
-0.050530002 -0.030402999 -0.26052201
-0.050526999 -0.030327 -0.260524
-0.050524 -0.030249 -0.260528
-0.050521001 -0.030173 -0.260528
-0.050517 -0.030095 -0.260537
-0.050512999 -0.030014999 -0.26054901
-0.05051 -0.029936001 -0.26056099
-0.050505999 -0.029858001 -0.260573
-0.050501999 -0.029778 -0.26058099
-0.050499 -0.029702 -0.26058501
-0.050496001 -0.029624 -0.26058701
-0.050785001 -0.046633001 -0.261509
-0.050785001 -0.046560001 -0.26144701
-0.050783999 -0.046487 -0.261401
-0.050783001 -0.046413999 -0.261356
-0.050783001 -0.046340998 -0.26130199
-0.050783001 -0.046268001 -0.26124999
-0.050781999 -0.046195 -0.26120499
-0.050781 -0.046122 -0.261161
-0.050779998 -0.046048999 -0.26111701
-0.050779 -0.045976002 -0.26108
-0.050778002 -0.045903001 -0.26104799
-0.050776999 -0.045828 -0.26101199
-0.050774999 -0.045754999 -0.26097801
-0.050774001 -0.045681 -0.26094699
-0.050772 -0.045607999 -0.260923
-0.05077 -0.045531999 -0.26089701
-0.050769001 -0.045458999 -0.26086599
-0.050767001 -0.045386001 -0.26084
-0.050765 -0.045310002 -0.260822
-0.050763 -0.045235001 -0.26080999
-0.050760001 -0.045159001 -0.2608
-0.050758 -0.045085002 -0.26078501
-0.050756 -0.04501 -0.26076701
-0.050754 -0.044936001 -0.26075101
-0.050751001 -0.044860002 -0.26073301
-0.050749 -0.044785 -0.260726
-0.050746001 -0.044709001 -0.26072001
-0.050742999 -0.044633001 -0.26071399
-0.05074 -0.044557001 -0.26071399
-0.050737999 -0.044481002 -0.26070601
-0.050735001 -0.044404998 -0.26069701
-0.050732002 -0.044330001 -0.26069099
-0.050728999 -0.044254001 -0.26068699
-0.050726999 -0.044178002 -0.260685
-0.050724 -0.044101998 -0.26068601
-0.050719999 -0.044025999 -0.26069
-0.050717 -0.043947998 -0.260692
-0.050714001 -0.043871999 -0.26068601
-0.050712001 -0.043798 -0.26067999
-0.050708 -0.043719999 -0.26068601
-0.050705001 -0.043644 -0.26068899
-0.050701998 -0.043568 -0.26068699
-0.050698999 -0.04349 -0.26069099
-0.050696 -0.043416001 -0.26068899
-0.050693002 -0.043338001 -0.26068699
-0.050689999 -0.043262001 -0.26069599
-0.050686002 -0.043184001 -0.26069799
-0.050684001 -0.043110002 -0.260694
-0.05068 -0.043032002 -0.26069599
-0.050675999 -0.042954002 -0.260712
-0.050673001 -0.042877998 -0.260721
-0.050670002 -0.042801999 -0.26072699
-0.050666999 -0.042723998 -0.26072901
-0.050663002 -0.042647999 -0.26072901
-0.050659999 -0.042571001 -0.260737
-0.050657 -0.042493001 -0.26074499
-0.050652999 -0.042417001 -0.260748
-0.050650001 -0.042339001 -0.26075399
-0.050647002 -0.042263001 -0.26075399
-0.050643999 -0.042187002 -0.26075199
-0.050641 -0.042110998 -0.26075199
-0.050638001 -0.042033002 -0.26075801
-0.050634 -0.041956998 -0.26076299
-0.050631002 -0.041880999 -0.26076901
-0.050627999 -0.041802999 -0.26077101
-0.050625 -0.041726999 -0.260773
-0.050622001 -0.041650999 -0.260773
-0.050618999 -0.041575 -0.26077199
-0.050616 -0.041497 -0.26077399
-0.050611999 -0.041418999 -0.260784
-0.050608002 -0.041343 -0.26079801
-0.050604999 -0.041265 -0.2608
-0.050602 -0.041189 -0.2608
-0.050599001 -0.041113 -0.26080099
-0.050595999 -0.041035 -0.26080301
-0.050593 -0.040959001 -0.26080301
-0.050588999 -0.040881 -0.260809
-0.050586 -0.040805001 -0.26081499
-0.050583001 -0.040729001 -0.26081201
-0.050579999 -0.040653002 -0.26080799
-0.050577 -0.040575001 -0.26080999
-0.050574001 -0.040499002 -0.26081401
-0.05057 -0.040421002 -0.26082
-0.050567001 -0.040344998 -0.260822
-0.050563999 -0.040268999 -0.26081899
-0.050562002 -0.040192999 -0.26081699
-0.050558001 -0.040114999 -0.26081699
-0.050554998 -0.040038999 -0.26081899
-0.050551999 -0.039963 -0.26081499
-0.050549001 -0.039884999 -0.26081401
-0.050546002 -0.039809 -0.26081401
-0.050544001 -0.039733 -0.26080999
-0.050540999 -0.039657999 -0.260804
-0.050538 -0.039581999 -0.2608
-0.050535001 -0.039503999 -0.26080301
-0.050531998 -0.039427999 -0.26079899
-0.050528999 -0.039352 -0.260793
-0.050526001 -0.039276 -0.260793
-0.050523002 -0.0392 -0.260791
-0.050519999 -0.039124001 -0.26078999
-0.050517 -0.039048001 -0.260786
-0.050514001 -0.038970001 -0.260784
-0.050510999 -0.038894001 -0.260782
-0.050508998 -0.038818002 -0.26077801
-0.050505999 -0.038743 -0.260775
-0.050503001 -0.038667001 -0.260775
-0.050499 -0.038589001 -0.26077899
-0.050496999 -0.038513001 -0.260775
-0.050494 -0.038435001 -0.26077101
-0.050491001 -0.038359001 -0.26077101
-0.050487999 -0.038283002 -0.260764
-0.050485 -0.038206998 -0.26075801
-0.050482001 -0.038130999 -0.26075599
-0.050478999 -0.038052998 -0.26075399
-0.050476 -0.037976999 -0.26075801
-0.050473001 -0.037900999 -0.26076499
-0.050469998 -0.037822999 -0.26076299
-0.050466999 -0.037746999 -0.26076499
-0.050462998 -0.037668999 -0.260773
-0.05046 -0.037590999 -0.26077899
-0.050455999 -0.037515 -0.26078299
-0.050453 -0.037436999 -0.260786
-0.050450001 -0.037361 -0.26078799
-0.050446998 -0.037283 -0.26079401
-0.050443999 -0.037204999 -0.26079601
-0.050439999 -0.037129 -0.260802
-0.050437 -0.037051 -0.26080999
-0.050434001 -0.036973 -0.260811
-0.050430998 -0.036897 -0.26080501
-0.050427999 -0.036821 -0.26080701
-0.050423998 -0.036743 -0.260811
-0.050421 -0.036665 -0.260813
-0.050418001 -0.036589 -0.26082
-0.050415002 -0.036511 -0.260822
-0.050411999 -0.036435001 -0.26082
-0.050409 -0.036359001 -0.26082
-0.050404999 -0.036281001 -0.26082799
-0.050402001 -0.036203001 -0.26083401
-0.050399002 -0.036125001 -0.260833
-0.050395999 -0.036049001 -0.260831
-0.050393 -0.035973001 -0.260831
-0.050390001 -0.035895001 -0.260833
-0.050386999 -0.035819001 -0.260831
-0.050383002 -0.035741001 -0.26084301
-0.050379001 -0.035663001 -0.26085201
-0.050377 -0.035587002 -0.26084799
-0.050374001 -0.035509001 -0.26084599
-0.050370999 -0.035433002 -0.26084599
-0.050367001 -0.035355002 -0.26084599
-0.050363999 -0.035278998 -0.26084399
-0.050361 -0.035202999 -0.260851
-0.050358001 -0.035124999 -0.260847
-0.050356001 -0.035048999 -0.26083699
-0.050353002 -0.034972999 -0.260833
-0.050349999 -0.034897 -0.26083401
-0.050347 -0.034818999 -0.26083601
-0.050344002 -0.034743 -0.26083601
-0.050340999 -0.034667999 -0.26082799
-0.050338 -0.034591999 -0.26081601
-0.050336 -0.034515999 -0.26080599
-0.050333001 -0.03444 -0.26080501
-0.050330002 -0.034364 -0.26079899
-0.050326999 -0.034288 -0.26079699
-0.050324 -0.034210999 -0.260791
-0.050322 -0.034136999 -0.260784
-0.050319001 -0.034061 -0.26077601
-0.050317001 -0.033985 -0.26076999
-0.050314002 -0.033909 -0.26076201
-0.050310999 -0.033833999 -0.26075
-0.050308999 -0.03376 -0.26073501
-0.050306998 -0.033686001 -0.260717
-0.050305001 -0.033611 -0.26070699
-0.050301999 -0.033532999 -0.26070699
-0.050299 -0.033457 -0.26070699
-0.050296001 -0.033381 -0.26070401
-0.050292999 -0.033305001 -0.26069799
-0.050291002 -0.033232 -0.26067799
-0.050289001 -0.033156 -0.26065999
-0.050285999 -0.03308 -0.26065499
-0.050283998 -0.033006001 -0.260645
-0.050280999 -0.032933 -0.260629
-0.050278999 -0.032857001 -0.26061499
-0.050276 -0.032781001 -0.26060599
-0.050274 -0.032708 -0.26059401
-0.050271999 -0.032632001 -0.260584
-0.050269 -0.032556001 -0.26058
-0.050266001 -0.032480001 -0.26056999
-0.050264001 -0.032407001 -0.26055899
-0.050260998 -0.032331001 -0.26055101
-0.050257999 -0.032255001 -0.26054701
-0.050255001 -0.032179002 -0.26054299
-0.050253 -0.032102998 -0.26053599
-0.050250001 -0.032026999 -0.260528
-0.050246999 -0.031952001 -0.260524
-0.050244998 -0.031876002 -0.26052001
-0.050241999 -0.031800002 -0.26051599
-0.050239 -0.031722002 -0.26051301
-0.050236002 -0.031645998 -0.26050901
-0.050232999 -0.031569999 -0.26050499
-0.05023 -0.031493999 -0.26050901
-0.050225999 -0.031415999 -0.260517
-0.050223 -0.031337999 -0.26051801
-0.050220001 -0.031261999 -0.26051399
-0.050218001 -0.031186 -0.260508
-0.050214998 -0.03111 -0.26050401
-0.050211001 -0.031032 -0.26051
-0.050207999 -0.030954 -0.26052201
-0.050205 -0.030875999 -0.26052499
-0.050200999 -0.030797999 -0.26053101
-0.050198 -0.030719999 -0.260539
-0.050193999 -0.030644 -0.26054299
-0.050191 -0.030565999 -0.26054499
-0.050188001 -0.030487999 -0.26055101
-0.050184999 -0.030409999 -0.26055199
-0.050181001 -0.030334 -0.26055601
-0.050177999 -0.030255999 -0.260564
-0.050175 -0.030177999 -0.26056799
-0.050170999 -0.030099001 -0.26057401
-0.050168 -0.030021001 -0.260584
-0.050163999 -0.029943001 -0.26058999
-0.050161 -0.029865 -0.26059499
-0.050158001 -0.029789001 -0.26059499
-0.050340001 -0.046728998 -0.26149699
-0.050338998 -0.046656001 -0.261464
-0.050337002 -0.046581 -0.26142401
-0.050337002 -0.046507999 -0.26137799
-0.050336 -0.046436999 -0.26133099
-0.050335001 -0.046362001 -0.26128501
-0.050335001 -0.046289001 -0.26123899
-0.050333999 -0.046216 -0.26119101
-0.050333999 -0.046146002 -0.261136
-0.050333001 -0.046073001 -0.261094
-0.050331999 -0.045997001 -0.26106
-0.050331 -0.045924 -0.261015
-0.050330002 -0.045851 -0.26098299
-0.050328001 -0.045777999 -0.26095501
-0.050326999 -0.045705002 -0.26091999
-0.050324999 -0.045628998 -0.26089001
-0.050322998 -0.045556001 -0.26086599
-0.050322 -0.045480002 -0.260842
-0.050319999 -0.045407001 -0.26082101
-0.050317999 -0.045334 -0.260791
-0.050317001 -0.045258 -0.260757
-0.050315 -0.045185 -0.26072699
-0.050314002 -0.045111999 -0.26070401
-0.050310999 -0.045035999 -0.26068401
-0.050310001 -0.044962998 -0.260656
-0.050308 -0.044886999 -0.26063499
-0.050306 -0.044814002 -0.26062101
-0.050303001 -0.044737998 -0.260611
-0.050301 -0.044661999 -0.26059499
-0.050298002 -0.044588 -0.26058501
-0.050296001 -0.044511002 -0.26057801
-0.050294001 -0.044436999 -0.260562
-0.050291002 -0.044360999 -0.260548
-0.050289001 -0.044286001 -0.26054001
-0.050285999 -0.044211999 -0.26053101
-0.050283 -0.044133998 -0.26052701
-0.050280001 -0.044057999 -0.26053101
-0.050276998 -0.043981999 -0.26052901
-0.050274 -0.043906 -0.26052299
-0.050271001 -0.04383 -0.260526
-0.050268002 -0.043754 -0.26053399
-0.050264001 -0.043676 -0.26054001
-0.050260998 -0.0436 -0.26054001
-0.050257999 -0.043524001 -0.26054001
-0.050255001 -0.043448001 -0.26054299
-0.050252002 -0.043372001 -0.26054299
-0.050248999 -0.043296002 -0.26054499
-0.050246 -0.043218002 -0.26054701
-0.050243001 -0.043141998 -0.26054701
-0.050239999 -0.043065999 -0.26054499
-0.050237 -0.042989999 -0.260548
-0.050232999 -0.042913999 -0.26055199
-0.05023 -0.042835999 -0.26054999
-0.050227001 -0.042762 -0.260548
-0.050223999 -0.042684 -0.26055199
-0.050221 -0.042608 -0.260555
-0.050218001 -0.042532001 -0.260555
-0.050214998 -0.042456001 -0.260555
-0.050212 -0.042380001 -0.26055101
-0.050209001 -0.042304002 -0.26054701
-0.050206002 -0.042226002 -0.26054999
-0.050202999 -0.042149998 -0.26055801
-0.050198998 -0.042072002 -0.26056999
-0.050195001 -0.041995998 -0.260584
-0.050191998 -0.041919999 -0.260584
-0.050189 -0.041841999 -0.260582
-0.050186001 -0.041765999 -0.26058701
-0.050182 -0.041687999 -0.26059699
-0.050179001 -0.041611001 -0.26061299
-0.050175 -0.041535001 -0.26061299
-0.050172001 -0.041457001 -0.26061499
-0.050168999 -0.041379001 -0.260627
-0.050165001 -0.041303001 -0.26063401
-0.050161999 -0.041225001 -0.26064
-0.050158001 -0.041149002 -0.26064801
-0.050154999 -0.041071001 -0.26065001
-0.050152 -0.040995002 -0.26065001
-0.05015 -0.040918998 -0.26064301
-0.050147001 -0.040842999 -0.26064101
-0.050143 -0.040764999 -0.26065701
-0.050138999 -0.040686999 -0.26066899
-0.050136 -0.040610999 -0.26066899
-0.050133001 -0.040532999 -0.26067299
-0.050129 -0.040456001 -0.26067999
-0.050126001 -0.040380999 -0.260676
-0.050124001 -0.040305 -0.26066801
-0.050120998 -0.040229 -0.26066801
-0.050117999 -0.040151 -0.26067001
-0.050113998 -0.040075 -0.26068199
-0.050110999 -0.039997 -0.26068899
-0.050108001 -0.039921001 -0.26068699
-0.050105002 -0.039845001 -0.260683
