-0.0557715 0.138629 0.988773 0.0153636
-0.0529164 0.119164 0.991464 0.0145929
-0.0544972 0.120465 0.991221 0.0125521
-0.0486002 0.122105 0.991327 0.0103397
-0.0366156 0.117137 0.992441 0
-0.0331335 0.120782 0.992126 0
-0.0215079 0.153424 0.987926 0
-0.0223942 0.161944 0.986546 0
-0.0186826 0.182323 0.983061 0
-0.0216838 0.16616 0.98586 0
-0.0186075 0.151471 0.988287 0
-0.01003 0.140604 0.990015 0
-0.0128542 0.136878 0.990505 0
-0.0189904 0.13491 0.990676 0
-0.0223635 0.111257 0.99354 0
-0.0272037 0.1207 0.992316 0
-0.0279114 0.086851 0.99583 0.00563117
-0.0231737 0.0891803 0.995746 0
-0.023834 0.119232 0.99258 0
-0.0220046 0.135123 0.990584 0
-0.019317 0.150111 0.98848 0
-0.0230961 0.145543 0.989082 0
-0.0246837 0.156557 0.98736 0
-0.0164663 0.164982 0.986159 0
-0.0171667 0.147917 0.988851 0
-0.0135009 0.167063 0.985854 0
-0.0083947 0.17778 0.984034 0
0.00470913 0.203945 0.978971 0
0.0129348 0.1954 0.980638 0
0.00533851 0.189176 0.981929 0
0.00516482 0.163086 0.986598 0
-0.00606519 0.122355 0.992468 0
-0.0103206 0.115146 0.993295 0
-0.013463 0.119245 0.992774 0
-0.00580158 0.13245 0.991173 0
-0.00783779 0.14468 0.989447 0
-0.00738506 0.128498 0.991682 0
-0.0133666 0.119126 0.992789 0
-0.00740117 0.123371 0.992333 0
-0.0137674 0.129818 0.991442 0
-0.00700694 0.125152 0.992113 0
-0.0120041 0.123759 0.99224 0
-0.0128802 0.123423 0.992271 0
-0.00711078 0.141264 0.989946 0
-0.0144894 0.123033 0.992297 0
-0.016571 0.119861 0.992652 0
-0.0220168 0.124328 0.991997 0
-0.0222611 0.123572 0.992086 0
-0.0293128 0.120857 0.992237 0.00231507
0.097971 0.0771191 0.992197 0.00430617
0.101338 0.077867 0.9918 0.0053046
0.113241 0.0960495 0.988914 0
0.122958 0.107447 0.986578 0
0.129095 0.0860023 0.987896 0
0.154823 0.0267878 0.987579 0
0.169804 0.0325719 0.984939 0
0.178852 0.0433111 0.982922 0
0.183769 0.0404274 0.982138 0
0.188835 0.0274468 0.981625 0
0.203845 0.0163148 0.978867 0
-0.0617944 0.118379 0.991044 0.0298251
-0.052108 0.121989 0.991163 0.0172862
-0.0480303 0.122305 0.99133 0.0149979
-0.0391778 0.109918 0.993168 0
-0.0490702 0.109217 0.992806 0
-0.0358916 0.127749 0.991157 0
-0.0336111 0.147619 0.988473 0
-0.0211182 0.164787 0.986103 0
-0.016541 0.150332 0.988497 0
-0.0137986 0.122331 0.992393 0
-0.0129015 0.12724 0.991788 0
-0.00933205 0.12537 0.992066 0
-0.0215887 0.124196 0.992023 0
-0.0246898 0.111486 0.993459 0
-0.0268107 0.100723 0.994553 0
-0.0222759 0.108678 0.993827 0
-0.0219086 0.135454 0.990541 0
-0.0184469 0.161547 0.986693 0
-0.0248032 0.138369 0.99007 0
-0.0240144 0.128418 0.991429 0
-0.0198139 0.147222 0.988905 0
-0.0205817 0.14755 0.98884 0
-0.00796688 0.169091 0.985568 0
-0.00580258 0.166572 0.986012 0
0.00142805 0.178821 0.983881 0
0.0054176 0.174918 0.984568 0
-0.00077498 0.169496 0.985531 0
-0.00159649 0.133882 0.990996 0
-0.0072461 0.116156 0.993205 0
-0.00970415 0.105079 0.994417 0
-0.0135094 0.0997334 0.994922 0
-0.0182258 0.107256 0.994064 0
-0.0106481 0.129728 0.991492 0
-0.00980445 0.134352 0.990885 0
-0.0111501 0.136077 0.990636 0
-0.0146975 0.116851 0.993041 0
-0.00741954 0.119202 0.992842 0
-0.0101508 0.116886 0.993094 0
-0.0117059 0.104872 0.994417 0
-0.0144291 0.115183 0.993239 0
-0.00788255 0.129965 0.991487 0
-0.0147431 0.134108 0.990857 0
-0.016396 0.118686 0.992796 0
-0.0203834 0.123787 0.992099 0
-0.0219072 0.130312 0.991231 0
-0.0280292 0.132278 0.990816 0
-0.0304167 0.116804 0.992689 0.0117902
-0.0233693 0.113522 0.993261 0
-0.00285893 0.111943 0.99371 0
0.0512563 0.0701146 0.996221 0.0114584
0.0651509 0.0912178 0.993697 0.0228113
0.0897035 0.0668854 0.99372 0.00963392
0.0989853 0.0634779 0.993062 0.00938316
0.112702 0.0739196 0.990875 0.00446553
0.124402 0.092123 0.987946 0
0.13451 0.0659481 0.988715 0
0.147664 0.0395246 0.988248 0
0.1537 0.0418996 0.987229 0
0.164265 0.0365078 0.98574 0
0.175675 0.0393596 0.983661 0
0.178311 0.0251465 0.983653 0
0.192383 0.0217799 0.981078 0
-0.0408671 0.117693 0.992209 0.00573755
-0.0535689 0.109816 0.992507 0
-0.0505722 0.0969368 0.994005 0
-0.0260638 0.114193 0.993117 0
-0.0356999 0.124491 0.991578 0
-0.0325259 0.130356 0.990934 0
-0.023964 0.112793 0.99333 0
-0.00763276 0.114692 0.993372 0
-0.00658636 0.114931 0.993352 0
-0.0211522 0.125237 0.991901 0
-0.0212637 0.110128 0.99369 0
-0.0167499 0.104896 0.994342 0
-0.0171553 0.106614 0.994152 0
-0.0138973 0.135505 0.990679 0
-0.0158085 0.132891 0.991005 0
-0.017428 0.133165 0.990941 0
-0.0175394 0.134734 0.990727 0
-0.0195325 0.132648 0.990971 0
-0.0190397 0.138501 0.990179 0
-0.0149929 0.151848 0.98829 0
-0.0177629 0.165305 0.986083 0
-0.0145248 0.143553 0.989536 0
-0.0163317 0.141035 0.98987 0
-0.00803743 0.132225 0.991187 0
-0.0105127 0.12087 0.992613 0
-0.00445107 0.112676 0.993622 0
-0.0123849 0.0974694 0.995161 0
-0.012636 0.102326 0.994671 0.00202284
-0.0113083 0.114632 0.993344 0
-0.00825401 0.125912 0.992007 0
-0.0125869 0.123324 0.992287 0.00197598
-0.0121437 0.136353 0.990586 0
-0.00770801 0.125512 0.992062 0
-0.00961914 0.105766 0.994345 0
-0.0188669 0.105491 0.994241 0
-0.0125257 0.104624 0.994433 0
-0.0149225 0.107691 0.994072 0
-0.0194495 0.107563 0.994008 0
-0.0204063 0.114043 0.993266 0
-0.022528 0.108909 0.993796 0
-0.0207232 0.134132 0.990747 0
-0.0262588 0.141548 0.989583 0
-0.0310461 0.119695 0.992325 0.00577132
-0.0319739 0.0995074 0.994523 0.00917348
-0.0187426 0.0955558 0.995248 0
-0.00344849 0.10363 0.99461 0
-0.00187503 0.104318 0.994542 0
-0.000619182 0.0978172 0.995204 0
0.00598772 0.103981 0.994561 0
0.0182985 0.114714 0.99323 0
0.0468919 0.0929739 0.994564 0.00280421
0.0623867 0.0943271 0.993585 0.0150221
0.0848634 0.0725925 0.993745 0.0316165
0.0914729 0.0582517 0.994102 0.0227392
0.0986454 0.0731723 0.992429 0.0149505
0.119571 0.0565689 0.991213 0.00626096
0.123949 0.046762 0.991186 0.0104048
0.129917 0.0621205 0.989577 0
0.138461 0.0478658 0.98921 0.000644168
0.157267 0.0317317 0.987046 0
0.169006 0.0370758 0.984917 0
0.168832 0.031869 0.985129 0
0.174032 0.0224681 0.984484 0
-0.0548672 0.100258 0.993447 0.00641729
-0.0449579 0.113079 0.992568 0
-0.0328151 0.11535 0.992783 0
-0.0277575 0.121538 0.992199 0
-0.0152811 0.119846 0.992675 0
-0.0150101 0.110482 0.993765 0
-0.0199358 0.107077 0.994051 0
-0.0143786 0.102802 0.994598 0
-0.00814009 0.102893 0.994659 0
-0.0150687 0.106055 0.994246 0
-0.00964476 0.115466 0.993265 0
-0.0178243 0.108862 0.993897 0
-0.025502 0.118281 0.992653 0
-0.0216495 0.124991 0.991922 0
-0.0160286 0.13311 0.990972 0
-0.0169482 0.121034 0.992504 0
-0.0178804 0.129664 0.991397 0
-0.0147143 0.129535 0.991466 0
-0.0220636 0.115786 0.993029 0
-0.0219414 0.129948 0.991278 0
-0.0161897 0.123665 0.992192 0
-0.014843 0.131926 0.991148 0
-0.0198001 0.136861 0.990392 0
-0.0154982 0.124964 0.99204 0
-0.00648494 0.113552 0.993511 0.00663623
0.00359478 0.115771 0.99327 0
-0.00863609 0.152808 0.988218 0.00257472
-0.0219022 0.140929 0.989777 0.0049054
-0.0203299 0.146931 0.988938 0
-0.00799426 0.132319 0.991175 0
-0.0126405 0.113819 0.993421 0
-0.0105222 0.112291 0.99362 0
-0.0219882 0.11257 0.993401 0
-0.0248141 0.121476 0.992284 0
-0.0177226 0.125018 0.991996 0
-0.0260296 0.119301 0.992517 0
-0.0252427 0.139117 0.989954 0
-0.0249961 0.144057 0.989254 0
-0.0242286 0.140566 0.989775 0
-0.0244325 0.140723 0.989747 0
-0.0231885 0.114073 0.993202 0
-0.0181144 0.120365 0.992564 0
-0.0121244 0.106768 0.99421 0
-8.58702e-05 0.11264 0.993636 0
0.00381685 0.119433 0.992835 0
0.00252019 0.10436 0.994536 0
-0.000475947 0.121999 0.99253 0
0.00364515 0.112386 0.993658 0
0.0120938 0.0902201 0.995848 0
0.01413 0.085702 0.996221 0.00358828
0.00693646 0.0928108 0.99566 0.00439274
0.0120688 0.109545 0.993909 0
0.00898635 0.112655 0.993594 0.0048484
0.0141257 0.113021 0.993492 0
0.00918677 0.117742 0.993002 0.0165626
0.0152735 0.0985302 0.995017 0.0191374
0.0430848 0.104902 0.993549 0.0185292
0.0467769 0.112194 0.992585 0.00145018
0.0667138 0.107574 0.991956 0.00526063
0.0796118 0.0841951 0.993264 0.0241132
0.0873041 0.0787103 0.993067 0.0262971
0.100606 0.0844392 0.991337 0.0158368
0.109161 0.066867 0.991773 0.0196865
0.115228 0.063327 0.991318 0.025869
0.128577 0.058259 0.989987 0.0215083
0.13634 0.0699861 0.988187 0.0280665
0.159605 0.0497612 0.985926 0.00901628
0.16307 0.0415559 0.985739 0
0.164426 0.0338238 0.985809 0
-0.0195884 0.110019 0.993737 0
-0.0158509 0.0978213 0.995078 0
-0.0138078 0.102722 0.994614 0
-0.0140413 0.0994355 0.994945 0
-0.0129401 0.101421 0.994759 0
-0.0186318 0.112589 0.993467 0
-0.0227401 0.117959 0.992758 0
-0.0128819 0.121418 0.992518 0
-0.0150473 0.112622 0.993524 0
-0.0167406 0.111322 0.993643 0
-0.01477 0.12112 0.992528 0
-0.0219172 0.0897681 0.995722 0
-0.0221351 0.112669 0.993386 0
-0.031386 0.106452 0.993822 0
-0.0173851 0.125801 0.991903 0
-0.0205238 0.129969 0.991306 0
-0.0255144 0.124339 0.991912 0
-0.026172 0.121738 0.992217 0.0136411
-0.0208327 0.114538 0.9932 0.0155298
-0.0135815 0.14736 0.98899 0.0115284
-0.0160458 0.158562 0.987219 0.00534344
-0.0165802 0.160888 0.986833 0.00489438
-0.0223567 0.140525 0.989825 0.00564472
-0.00869661 0.121413 0.992564 0
-0.00802285 0.111062 0.993781 0
-0.00685895 0.111276 0.993766 0
-0.0173813 0.118663 0.992782 0
-0.0186605 0.13726 0.990359 0
-0.014755 0.141928 0.989767 0
-0.0212886 0.122257 0.99227 0
-0.0318561 0.123591 0.991822 0
-0.036545 0.109861 0.993275 0.00521865
-0.0302056 0.114145 0.993005 0
-0.0225054 0.123478 0.992092 0
-0.0243458 0.118809 0.992619 0
-0.0183783 0.117579 0.992893 0
-0.0130412 0.109851 0.993862 0
-0.00575567 0.11179 0.993715 0
0.00105277 0.110214 0.993907 0
0.00390034 0.119096 0.992875 0
0.00242052 0.108052 0.994142 0
0.00868246 0.101418 0.994806 0
0.00868649 0.10047 0.994902 0
0.0115687 0.0940362 0.995502 0.00677807
0.00673369 0.0924069 0.995699 0.00628622
0.00236214 0.0969789 0.995284 0.00130344
0.00758997 0.0839264 0.996443 0.00299593
0.0170093 0.110227 0.993761 0.00926894
0.0111778 0.1171 0.993057 0.0216485
0.00999182 0.099637 0.994974 0.0288767
0.0136505 0.102723 0.994616 0.030035
0.0172956 0.0746233 0.997062 0.0292934
0.028344 0.086547 0.995845 0.0158598
0.0331137 0.0882273 0.99555 0.0277583
0.0413414 0.0955877 0.994562 0.0125716
0.0630877 0.0996578 0.99302 0.0207345
0.0743387 0.10097 0.992108 0.0180147
0.079938 0.106232 0.991123 0.0271153
0.0942695 0.0861111 0.991816 0.0192904
0.107354 0.0916373 0.989989 0.024097
0.123543 0.0824689 0.988907 0.0244817
0.126544 0.0715095 0.98938 0.0301982
0.131826 0.0537821 0.989813 0.0354203
0.135086 0.0625489 0.988858 0.0350229
0.141002 0.0436223 0.989048 0.0264462
0.157629 0.0433661 0.986546 0.00281648
0.16521 0.0468362 0.985146 0
-0.0186752 0.110353 0.993717 0
-0.0152381 0.0940561 0.99545 0
-0.0242795 0.0825043 0.996295 0.00678561
-0.018513 0.0928924 0.995504 0.00502701
-0.020997 0.098538 0.994912 0
-0.0203705 0.117804 0.992828 0
-0.014067 0.113394 0.993451 0
-0.0245136 0.106064 0.994057 0.00507489
-0.0227033 0.10308 0.994414 0.0154572
-0.026377 0.1119 0.993369 0.00825356
-0.015804 0.116714 0.99304 0
-0.0154463 0.125878 0.991925 0.0173783
-0.0259986 0.121637 0.992234 0.00774972
-0.0276699 0.112472 0.99327 0.0075586
-0.0168744 0.104222 0.994411 0
-0.0213343 0.103366 0.994415 0
-0.0281831 0.100577 0.99453 0
-0.02802 0.113384 0.993156 0
-0.0251817 0.118452 0.99264 0
-0.0243842 0.114415 0.993134 0
-0.0399998 0.0853531 0.995548 0.0143851
-0.031325 0.0773469 0.996512 0.0122648
-0.027815 0.089787 0.995573 0.00367252
-0.0271577 0.0900582 0.995566 0.000244244
-0.0274575 0.100256 0.994583 0
-0.0272732 0.0933336 0.995261 0
-0.0107014 0.097617 0.995167 0
-0.00470493 0.0912764 0.995815 0
0.000586274 0.0997163 0.995016 0
0.00666471 0.103293 0.994629 0
0.00279189 0.0990777 0.995076 0
0.00346007 0.086334 0.99626 0
-0.00548948 0.0915464 0.995786 0.00405054
-0.00521633 0.0718545 0.997402 0.0014047
0.000806031 0.0642401 0.997934 0.00376505
0.0100108 0.0861165 0.996235 0.00759279
0.00547774 0.0913408 0.995805 0.0242833
0.0130575 0.0878952 0.996044 0.0300483
0.0100304 0.0889611 0.995985 0.0367366
0.0119472 0.0987466 0.995041 0.0306829
0.0155267 0.0700036 0.997426 0.0307513
0.018825 0.0567956 0.998208 0.0319659
0.0255831 0.0712676 0.997129 0.0223582
0.0383356 0.069989 0.996811 0.0198572
0.051085 0.0745344 0.995909 0.00744534
0.0621586 0.088062 0.994174 0.00979653
0.067663 0.0887605 0.993752 0.0257359
0.0866126 0.0906908 0.992106 0.0144855
0.109493 0.0728848 0.991312 0.0229083
0.12274 0.0765162 0.989485 0.0271912
0.129005 0.0806201 0.988361 0.0200784
0.139029 0.0394543 0.989502 0.0330316
0.138717 0.0257857 0.989996 0.0502256
0.146097 0.025235 0.988948 0.0354565
0.163785 0.0207479 0.986278 0.0137178
-0.0205937 0.0731483 0.997108 0.00426189
-0.0161014 0.0703285 0.997394 0.00715456
-0.0158207 0.0926356 0.995574 0.00837621
-0.0153939 0.110886 0.993714 0.00269748
-0.0240385 0.0963135 0.995061 0.00867764
-0.022862 0.0968178 0.99504 0.00247823
-0.0175071 0.100717 0.994761 0.00626146
-0.0339284 0.0948152 0.994917 0.00676897
-0.0383463 0.0911665 0.995097 0.0119373
-0.0410235 0.1018 0.993959 0.0226023
-0.0370603 0.0897914 0.995271 0.0141637
-0.027998 0.0811561 0.996308 0.00611775
-0.0408382 0.0794482 0.996002 0.00295125
-0.0403429 0.0889899 0.995215 0
-0.0314117 0.0909159 0.995363 0
-0.0294371 0.0885441 0.995637 0.00424759
-0.014958 0.0799879 0.996684 0
-0.00654257 0.0819082 0.996618 0
0.00298481 0.0810089 0.996709 0
0.00567745 0.107637 0.994174 0
0.00671412 0.112433 0.993637 0
0.0100366 0.108527 0.994043 0
0.00652618 0.102663 0.994695 0
0.0042469 0.0780727 0.996939 0
0.000382801 0.043805 0.99904 7.15774e-05
0.00250593 0.0514571 0.998672 0.0158903
0.00429826 0.079109 0.996857 0.0258014
0.00525938 0.0766808 0.997042 0.0307964
0.00868976 0.0881857 0.996066 0.03736
0.0121967 0.10191 0.994719 0.0325247
0.0213173 0.0847698 0.996172 0.0240436
0.0139648 0.0641488 0.997843 0.0328026
0.0265935 0.0673645 0.997374 0.0249439
0.0323857 0.0621891 0.997539 0.0193246
0.0557099 0.0807947 0.995173 0.00493002
0.0737081 0.0949905 0.992746 0
0.0765965 0.100407 0.991994 0
0.0877277 0.0957771 0.991529 0.00582414
0.102076 0.0754679 0.99191 0.0214445
0.12035 0.0728434 0.990055 0.0246815
0.1332 0.0681404 0.988744 0.0215336
0.131014 0.0436405 0.99042 0.0323708
0.137013 0.0293844 0.990133 0.0367983
0.151806 0.0230667 0.988141 0.0570918
-0.0152737 0.0823393 0.996487 0.0061477
-0.0379534 0.0866137 0.995519 0.0143649
-0.0344346 0.0793882 0.996249 0.0224158
-0.0320436 0.100291 0.994442 0.0155317
-0.0255644 0.0934177 0.995299 0.00566572
-0.0339533 0.0720191 0.996825 0.0133178
-0.0394145 0.0618914 0.997304 0.0137508
-0.0328307 0.0928398 0.99514 0.00565019
-0.0393115 0.0931817 0.994873 0.000412653
-0.0255766 0.0834676 0.996182 0
-0.0144882 0.0693872 0.997485 0
-0.00342305 0.068711 0.997631 0
0.00773341 0.0878944 0.9961 0
0.0131636 0.119244 0.992778 0
0.0114941 0.107936 0.994091 0
0.0164622 0.0954621 0.995297 0
0.000914046 0.0893689 0.995998 0
-0.0075745 0.0725875 0.997333 0.00191135
-0.00260134 0.0531617 0.998583 0.00376344
-0.000378538 0.0589611 0.99826 0
0.00577859 0.0613717 0.998098 0.0195655
0.00123648 0.0879987 0.99612 0.0298669
0.000435131 0.0782534 0.996933 0.0398038
0.014379 0.0762882 0.996982 0.040651
0.0147509 0.0652902 0.997757 0.0311486
0.0237545 0.0668988 0.997477 0.021777
0.0305512 0.0624687 0.997579 0.0201279
0.0357771 0.0560365 0.997788 0.00371698
0.052604 0.0858943 0.994915 0
0.0649115 0.0774301 0.994882 0
0.0724682 0.0727977 0.99471 0.00119273
0.0833157 0.0735175 0.993808 0.00234154
0.109746 0.0772287 0.990955 0.00901272
0.123667 0.0671837 0.990047 0.0211952
0.127073 0.0663038 0.989675 0.0232272
0.137303 0.0703634 0.988027 0.0190626
0.139092 0.0478353 0.989123 0.0228516
0.155598 0.0370978 0.987124 0.0594408
-0.0109275 0.120755 0.992622 0
-0.0448093 0.0723831 0.99637 0.0239494
-0.0361615 0.0773959 0.996344 0.0159281
-0.0281355 0.0654169 0.997461 0.0157164
-0.0342683 0.0531705 0.997997 0.00819631
-0.03438 0.052445 0.998032 0.00365866
-0.0269636 0.068926 0.997257 0.00517108
-0.0306489 0.0731419 0.99685 0.00178911
-0.0274361 0.0652322 0.997493 0
-0.0220121 0.0640889 0.997701 0
-0.00626722 0.0714803 0.997422 0
-0.00380921 0.075978 0.997102 0
0.00376013 0.0895156 0.995978 0
0.0118172 0.102947 0.994617 0
0.0181208 0.0962873 0.995189 0
0.0041856 0.0894276 0.995984 0
-0.00716913 0.0742315 0.997215 0.0057548
-0.00870905 0.0611772 0.998089 0.00891079
-0.00595791 0.0630203 0.997994 0.000425701
0.00325496 0.057623 0.998333 0.0135937
0.00682342 0.0752623 0.99714 0.0157617
0.00381945 0.0747445 0.997195 0.0286839
0.00582298 0.0536885 0.998541 0.0329443
0.0230001 0.0480698 0.998579 0.0182321
0.0277578 0.0421807 0.998724 0.0131698
0.0222939 0.0379721 0.99903 0.0203185
0.0336799 0.0487983 0.998241 0.013157
0.0479116 0.0613401 0.996966 0.00194863
0.0594031 0.0519202 0.996883 0.0164469
0.0801076 0.0450522 0.995768 0.0126647
0.0861444 0.0514433 0.994954 0.00870882
0.102962 0.0672305 0.992411 0.014552
0.113343 0.0656536 0.991384 0.00499707
0.116532 0.0455557 0.992142 0.0310627
0.131488 0.0515424 0.989977 0.0388857
0.136631 0.0595966 0.988828 0.0293559
-0.029419 0.0550991 0.998047 0.025729
-0.0309293 0.0348744 0.998913 0.0301789
-0.0273265 0.042852 0.998708 0.0144765
-0.0328262 0.0370239 0.998775 0.0212471
-0.0258919 0.0455962 0.998624 0.0187999
-0.015608 0.0712904 0.997333 0.00361359
-0.00610766 0.0675946 0.997694 0.00419524
0.00261661 0.0856316 0.996323 0
-0.00250481 0.0827022 0.996571 0.000371497
0.0016309 0.0818469 0.996644 0
0.00366833 0.0703869 0.997513 0
-0.00674482 0.0643279 0.997906 0
-0.00190928 0.0782263 0.996934 0.0124434
-0.00324354 0.0697304 0.997561 0.00278392
0.00652735 0.0720306 0.997381 0.00266745
0.00396496 0.0648722 0.997886 0.0157245
0.000977161 0.0545574 0.99851 0.0188739
0.0112031 0.0473674 0.998815 0.00419012
0.02737 0.0382951 0.998892 0.00254988
0.0239814 0.0122911 0.999637 0.0199364
0.025888 0.0252286 0.999346 0.00943552
0.0343687 0.0406499 0.998582 0.0111305
0.050602 0.0558512 0.997156 0.0125141
0.0637404 0.0281539 0.997569 0.0327465
0.0746363 0.0234148 0.996936 0.0301401
0.0831828 0.0281211 0.996137 0.0176696
0.106913 0.0470141 0.993156 0.00649067
0.112507 0.0475774 0.992511 0.00787423
0.122637 0.0321658 0.99193 0.0326015
0.129681 0.0400205 0.990748 0.0393235
0.129981 0.0355809 0.990878 0.0469045
-0.0330833 0.037041 0.998766 0.0280049
-0.0219534 0.0514349 0.998435 0.0181712
-0.0174108 0.0594901 0.998077 0.0009666
0.00243625 0.0786258 0.996901 0
-0.00270116 0.0661402 0.997807 0
-0.00537643 0.0809903 0.9967 0
-0.0103083 0.0767621 0.996996 0
-0.00942287 0.0722318 0.997343 0
0.00477824 0.0767184 0.997041 0
0.0148966 0.0862647 0.996161 0
0.00447353 0.0902177 0.995912 0
0.0082905 0.084539 0.996386 0
0.0131634 0.084434 0.996342 0.00369758
0.0154609 0.0773332 0.996885 0
0.017806 0.0442096 0.998864 0.0121136
0.0213502 0.031556 0.999274 0.0144399
0.0268041 0.0158516 0.999515 0.0131903
0.0259545 0.0246698 0.999359 0.0161395
0.0361971 0.0441375 0.99837 0.0138477
0.0543648 0.0495123 0.997293 0.0108851
0.0626485 0.0316193 0.997535 0.0358094
0.0715405 0.0399786 0.996636 0.0360945
0.0799901 0.0375465 0.996088 0.0252459
0.0964314 0.0352631 0.994715 0.0266176
0.107953 0.0475383 0.993019 0.0206395
0.115872 0.0405081 0.992438 0.0298036
0.126364 0.0546473 0.990478 0.032086
0.127193 0.0540159 0.990406 0.0341256
-0.0199328 0.0681465 0.997476 0.0171699
-0.00325855 0.0688346 0.997623 0
-0.00352168 0.0726139 0.997354 0
-0.0051855 0.068127 0.997663 0
-0.00611419 0.0837709 0.996466 0
-0.000303977 0.0911238 0.995839 0
0.00596254 0.0754173 0.997134 0
0.00735118 0.0868697 0.996193 0
0.0139711 0.0904881 0.9958 0
0.0135989 0.097142 0.995178 0
0.0182108 0.0837628 0.996319 0
0.0253958 0.0842274 0.996123 0
0.0221937 0.0455744 0.998714 0
0.0185993 0.0368707 0.999147 0.0143269
0.0245314 0.0387314 0.998949 0.0191277
0.0352986 0.0460016 0.998317 0.015504
0.0382287 0.046401 0.998191 0.0222055
0.0485795 0.0415503 0.997955 0.0241985
0.0475374 0.0356267 0.998234 0.0358511
0.0655605 0.0466316 0.996758 0.0435161
0.0768635 0.0464448 0.995959 0.0363133
0.0801153 0.0332314 0.996232 0.0252992
0.101286 0.0285038 0.994449 0.035758
0.108834 0.0392049 0.993287 0.0227139
0.125712 0.0599314 0.990255 0.0190726
0.121138 0.0671841 0.990359 0.017998
-0.00882162 0.0424536 0.999059 0
-0.00575354 0.0601467 0.998173 0
-0.00767821 0.0607523 0.998123 0
-0.0110332 0.0680729 0.997619 0
-0.00511635 0.0667569 0.997756 0
0.00101958 0.0635392 0.997979 0
-0.00037034 0.0489537 0.998801 0
0.00704795 0.0666709 0.99775 0
0.0158576 0.0803052 0.996644 0
0.0164446 0.0681586 0.997539 0
0.026106 0.0626128 0.997696 0
0.0290667 0.0411573 0.99873 2.38173e-05
0.0317587 0.0349162 0.998886 0
0.0273621 0.0211224 0.999402 0.0246565
0.0337321 0.0290286 0.999009 0.0290218
0.0444291 0.0208596 0.998795 0.0201495
0.0432283 -0.00498633 0.999053 0.042581
0.0486091 0.0276641 0.998435 0.0407095
0.0601281 0.0423527 0.997292 0.0410811
0.0735792 0.0428764 0.996367 0.0300472
0.080039 0.019455 0.996602 0.0356804
0.0950169 0.0176467 0.995319 0.0279667
0.105764 0.0170482 0.994245 0.0191956
0.106589 0.0231741 0.994033 0.0139119
0.111 0.0338312 0.993244 0.0145893
-0.0136894 0.0718252 0.997323 0
-0.01551 0.0565955 0.998277 0
-0.0167109 0.0649364 0.99775 0
-0.0191351 0.0619826 0.997894 0.00440674
-0.0180121 0.0649614 0.997725 0.001934
-0.00302655 0.0594967 0.998224 0
0.00884823 0.0608783 0.998106 0
0.00997115 0.0731315 0.997272 0
0.0141589 0.0661769 0.997707 0
0.0180908 0.0431665 0.998904 0
0.0214855 0.0332225 0.999217 0.00150128
0.0258064 0.0365928 0.998997 0.00513829
0.043656 0.0245782 0.998744 0.0108087
0.0424733 0.0071033 0.999072 0.0217761
0.042205 -0.00354178 0.999103 0.0250048
0.048941 0.0182226 0.998635 0.0297243
0.0497985 0.0279343 0.998369 0.0342785
0.0705778 0.0525771 0.99612 0.0125071
0.0856812 0.0604717 0.994486 0.0158828
0.0992676 0.0152797 0.994943 0.0240368
0.102913 0.0113245 0.994626 0.0251439
0.10435 0.0195648 0.994348 0.0218126
-0.0170721 0.0921643 0.995597 0.0107968
0.00275048 0.0766182 0.997057 0
0.0114831 0.0708895 0.997418 0
0.0112963 0.090137 0.995865 0
0.0135157 0.0715841 0.997343 0
0.01823 0.0661106 0.997646 0
0.0144413 0.0472324 0.998779 0
0.020726 0.0472435 0.998668 0
0.025952 0.0272946 0.999291 0.0139009
0.0363704 0.00805399 0.999306 0.0103694
0.0429621 0.0278726 0.998688 0.0294833
0.0553276 0.031397 0.997975 0.0229903
0.0673146 0.0530634 0.99632 0.0262586
0.0776138 0.0440257 0.996011 0.01763
0.0933515 0.023389 0.995358 0.025619
0.101256 0.00843586 0.994825 0.0223512
-0.000343374 0.072883 0.99734 0
0.0140474 0.0795151 0.996735 0
0.0123778 0.0795828 0.996751 0
0.0118945 0.0676928 0.997635 0
0.0133843 0.0513266 0.998592 0
0.0158892 0.0497144 0.998637 0
0.0186104 0.0376349 0.999118 0
0.0310544 0.034592 0.998919 0
0.0284124 0.0131051 0.99951 0.00524454
0.050559 0.0220723 0.998477 0.0280091
0.0575363 0.0338446 0.99777 0.023246
0.0730447 0.0455368 0.996289 0.0236269
0.0914781 0.0257116 0.995475 0.00909986
0.100494 0.00646059 0.994917 0.00163953
0.126923 0.00222275 0.99191 0
-0.000260972 0.0553895 0.998465 0.00402561
0.00460349 0.0582724 0.99829 0
0.00511774 0.0575111 0.998332 0
0.0036932 0.0528348 0.998596 0
0.0092364 0.0336387 0.999391 0
0.0112927 0.0241917 0.999644 0
0.0196731 0.0294528 0.999373 0
0.0458151 0.0153434 0.998832 0.0196015
0.0555577 0.0288609 0.998038 0.0143613
0.0687918 0.0509146 0.996331 0.0258381
0.0695298 0.0537024 0.996133 0.0182622
0.0890928 0.0368983 0.99534 0.00540254
-0.00877292 0.0494698 0.998737 0.0142057
0.0045711 0.0565771 0.998388 0
0.00733707 0.0576127 0.998312 0
0.0156484 0.0697374 0.997443 0
0.0109283 0.0476053 0.998806 0
0.0140562 0.0447417 0.9989 0
0.0201382 0.0342722 0.99921 0
0.0552924 0.0245509 0.998168 0.00545944
0.0592381 0.0390421 0.99748 0.00923141
0.0701957 0.0473508 0.996409 0.00921392
0.0836064 0.0185407 0.996326 0.00780967
0.00744239 0.0559291 0.998407 0
0.00930772 0.0519753 0.998605 0
0.0075555 0.0574414 0.99832 0
0.00985362 0.0351512 0.999333 0
0.0117586 0.0239212 0.999645 0
0.0154968 0.0437974 0.99892 0
0.0181456 0.034551 0.999238 0
0.0441204 0.0271787 0.998656 0
0.0597999 0.0431065 0.997279 0.0110987
-0.0109958 0.0202285 0.999735 0
-0.00263463 0.0293771 0.999565 0
0.00375372 0.021913 0.999753 0
0.00555429 0.0195175 0.999794 0
0.0172643 0.0380483 0.999127 0.00117588
0.0600386 0.0243396 0.997899 0.00714682
-0.00962063 0.0153149 0.999836 0
0.00890527 0.036751 0.999285 0.00299422
0.0148911 0.0380625 0.999164 0
0.0574961 0.0145979 0.998239 0
0.0124046 -0.00759763 0.999894 0.0219673
0.0147256 -0.00412476 0.999883 0.0194025
-0.00295125 0.000714138 0.999995 0
0.0477259 -0.0351365 0.998242 0.0228355
0.0462344 -0.0176614 0.998774 0
0.0610923 -0.0343128 0.997542 0.00731877
0.0572636 -0.0445885 0.997363 0.0147997
0.060081 -0.0335572 0.997629 0.00719725
0.0473179 -0.0243925 0.998582 0.00488795
0.0562838 -0.0386033 0.997668 0.00729963
-0.0101136 -0.0375144 0.999245 0.0134494
0.0418042 -0.0379015 0.998407 0.00305708
-0.0136371 -0.0450014 0.998894 0.00944552
-0.0118445 -0.0427086 0.999017 0.0141402
0.00450978 -0.0448669 0.998983 0.00564503
0.0135142 -0.0314305 0.999415 0.00115597
0.0257644 -0.0377155 0.998956 0.0104099
0.0443596 -0.0519333 0.997665 0.00991568
-0.00833572 -0.0353489 0.99934 0
-0.0055259 -0.0371307 0.999295 0.017346
0.00426995 -0.037937 0.999271 0.000518983
0.0154449 -0.0416218 0.999014 0
0.0133889 -0.0442155 0.998932 0.00480625
0.0273851 -0.0417575 0.998752 0.0109839
0.0313489 -0.0498327 0.998265 0.0165203
0.0398508 -0.0435409 0.998257 0.00776706
0.0463818 -0.0543029 0.997447 0.0229308
-0.00832241 -0.0264799 0.999615 0.0172448
-0.00722053 -0.0325506 0.999444 0.0211294
0.00609713 -0.0309231 0.999503 0
0.00309349 -0.0382049 0.999265 0.00310634
0.0158191 -0.041688 0.999005 0
0.0116673 -0.0568754 0.998313 0.0150448
0.0365179 -0.0568288 0.997716 0.0192125
0.0411082 -0.053615 0.997715 0.0207176
0.0490504 -0.062225 0.996856 0.0185565
0.092405 -0.0633836 0.993702 0.0297833
-0.00821597 -0.0446459 0.998969 0.0259216
-0.00932189 -0.0345914 0.999358 0.0192328
-0.00170647 -0.0315933 0.999499 0.00743175
0.0142384 -0.0291882 0.999473 0
-0.000199006 -0.0432208 0.999066 0
0.00738413 -0.0369432 0.99929 0
0.00974201 -0.0575172 0.998297 0.00652649
0.0187886 -0.047959 0.998673 0.00734805
0.0189652 -0.0425541 0.998914 0.017654
0.0376934 -0.0439599 0.998322 0.00881078
0.0483329 -0.0697731 0.996391 0.02009
0.0530286 -0.0676253 0.996301 0.00644827
0.0613755 -0.0463339 0.997039 0.0140433
0.0763317 -0.0436113 0.996128 0
0.0902816 -0.0612655 0.99403 0.0111808
-0.00593898 -0.0460776 0.99892 0.0131183
-0.00858292 -0.0399797 0.999164 0.00838486
-0.000833743 -0.0370887 0.999312 0
0.00204288 -0.0460525 0.998937 0.00896662
0.0083919 -0.0254111 0.999642 0
0.00247904 -0.0365329 0.999329 0
0.00494229 -0.0401147 0.999183 0
0.00541082 -0.0638176 0.997947 0.00595515
0.0194243 -0.0504431 0.998538 0.00432275
0.0266096 -0.0423857 0.998747 0
0.0427242 -0.0429526 0.998163 0
0.0431612 -0.0707715 0.996558 0.0079579
0.0463998 -0.0619882 0.996998 0
0.0652238 -0.0317145 0.997367 0
0.0752046 -0.0522312 0.995799 0
0.0876927 -0.0514213 0.99482 0.000614891
0.0914962 -0.0477745 0.994659 0
-0.00753489 -0.0401387 0.999166 0.00186247
-0.00102824 -0.034327 0.99941 0.00201714
0.00459357 -0.0585347 0.998275 0
0.00506744 -0.0331278 0.999438 0
0.00213858 -0.0148945 0.999887 0
0.00444324 -0.0245401 0.999689 0
0.00796704 -0.0434868 0.999022 0.000426466
0.0132142 -0.0569487 0.99829 0.000926157
0.0107786 -0.0596005 0.998164 0.00824649
0.0243951 -0.0695715 0.997279 0.00557919
0.0331203 -0.0566541 0.997844 0.00793612
0.0344576 -0.0615133 0.997511 0.0100768
0.0504127 -0.0501 0.997471 0.00137413
0.0637683 -0.0406555 0.997136 0
0.07682 -0.0401946 0.996234 0
0.085337 -0.071844 0.993759 0.00311636
0.090491 -0.0486818 0.994707 0.00155878
-0.0158526 -0.04083 0.99904 0.00880474
1.44836e-05 -0.0389163 0.999242 0.00088615
-0.00238854 -0.0522327 0.998632 0
0.00111474 -0.0322667 0.999479 0
-0.00407943 -0.0266883 0.999635 0
-0.00350871 -0.0356398 0.999359 0
0.00674397 -0.0522535 0.998611 0.0110018
0.0219598 -0.0409163 0.998921 0
0.0228265 -0.0413234 0.998885 0
0.0255744 -0.076596 0.996734 0
0.0290133 -0.0828492 0.99614 0.0189735
0.0366614 -0.0721446 0.99672 0.0155624
0.0493839 -0.050345 0.99751 0.00705802
0.0641834 -0.0456933 0.996891 0
0.0708209 -0.0498531 0.996242 0
0.0835581 -0.0707536 0.993988 0.00123377
0.0845832 -0.0563654 0.994821 0
-0.02249 -0.0741129 0.996996 0.0300299
-0.0136079 -0.0687158 0.997544 0.0294419
-0.0178405 -0.0695623 0.997418 0.0213635
-0.014954 -0.060236 0.998072 0.0128599
-0.0100055 -0.0598056 0.99816 0.00625612
-0.0110595 -0.0488187 0.998746 0.0012698
-0.00254057 -0.0463548 0.998922 0
0.000405997 -0.0485879 0.998819 0
-2.87217e-05 -0.0562683 0.998416 0.00485447
0.0175195 -0.0636249 0.99782 0
0.0150241 -0.064114 0.997829 0
0.0143792 -0.0752415 0.997062 0
0.0220929 -0.085917 0.996057 0.0046784
0.0323947 -0.0972226 0.994735 0.0265229
0.0413004 -0.0734438 0.996444 0.0102044
0.0464198 -0.078131 0.995862 0.0180198
0.0665759 -0.0577724 0.996107 0
0.0780314 -0.0927456 0.992628 0
0.0787752 -0.0956549 0.992293 0.000163837
0.0843018 -0.0779249 0.993389 0
0.101116 -0.0815946 0.991523 0
0.110794 -0.0846236 0.990234 0
-0.0288615 -0.0940441 0.99515 0.0316697
-0.0257494 -0.0997563 0.994679 0.0370743
-0.0201938 -0.0820918 0.99642 0.0349132
-0.0173779 -0.0748289 0.997045 0.032175
-0.0177475 -0.0712596 0.9973 0.021185
-0.0160301 -0.0709723 0.99735 0.0127228
-0.0121372 -0.071438 0.997371 0.0069113
-0.00669812 -0.0525757 0.998594 0.0017368
-0.00409118 -0.0641317 0.997933 0.00204255
0.0036332 -0.0724108 0.997368 0.00522367
-0.00520652 -0.0765671 0.997051 0.0037016
0.0054995 -0.0849554 0.99637 0
0.00633173 -0.0968833 0.995276 0.000751284
0.0106765 -0.0936278 0.99555 0.0127527
0.029927 -0.095206 0.995008 0.0141618
0.0391448 -0.089789 0.995191 0.007566
0.0422099 -0.0793698 0.995951 0.0115634
0.0500377 -0.0828541 0.995305 0.0137795
0.0639384 -0.0877494 0.994089 0.000246353
0.0762066 -0.0996076 0.992104 0
0.085449 -0.10922 0.990338 0
0.0802276 -0.0896887 0.992733 0.00983187
0.0864786 -0.0856808 0.992562 0.0086945
0.0935988 -0.0780684 0.992544 0
0.0983084 -0.0908343 0.991002 0
0.110998 -0.0921482 0.989539 0.0010687
0.121256 -0.0966892 0.987901 0.00405159
-0.0323725 -0.0755479 0.996617 0.0148412
-0.0328404 -0.0779827 0.996414 0.0230506
-0.0392899 -0.0758229 0.996347 0.0312756
-0.0326606 -0.0787558 0.996359 0.0289834
-0.0305151 -0.0897805 0.995494 0.0304379
-0.0392577 -0.105276 0.993668 0.0488835
-0.0229391 -0.0787855 0.996628 0.0395018
-0.0191348 -0.0823375 0.996421 0.0427228
-0.0179903 -0.0856926 0.996159 0.01448
-0.0138268 -0.0902548 0.995823 0.0133635
-0.0153785 -0.0868266 0.996105 0.0136106
-0.00952441 -0.0687716 0.997587 0.00258041
-0.0110154 -0.0729355 0.997276 0.00127317
-0.0184045 -0.0739108 0.997095 0.00452782
-0.00702054 -0.0499646 0.998726 0
-0.00059382 -0.0672053 0.997739 0
0.00382602 -0.0874224 0.996164 0.0202989
0.00278485 -0.0954703 0.995428 0.0202861
0.0168855 -0.0923481 0.995584 0.0167857
0.0287775 -0.0875219 0.995747 0.0269392
0.0345235 -0.089903 0.995352 0.0229685
0.0451526 -0.0963285 0.994325 0.0251928
0.0570178 -0.100816 0.99327 0.0206456
0.0682894 -0.100133 0.992628 0.0130191
0.0706337 -0.103045 0.992166 0.0158758
0.0853315 -0.0863385 0.992605 0.0304489
0.0881858 -0.0969252 0.991377 0.0142932
0.0920338 -0.0918384 0.991512 0.0051384
0.102279 -0.10866 0.988803 0.00993978
0.109432 -0.0996236 0.988989 0.00303714
0.11849 -0.0945981 0.988439 0.000248562
-0.0355575 -0.0834496 0.995877 0.0112765
-0.0263263 -0.0815154 0.996324 0.00644878
-0.0320804 -0.0888669 0.995527 0.0193051
-0.0373853 -0.0818773 0.995941 0.0124074
-0.0358872 -0.0842641 0.995797 0.0174503
-0.0396282 -0.110152 0.993124 0.023769
-0.035159 -0.109607 0.993353 0.0339432
-0.031957 -0.0929333 0.995159 0.0320097
-0.0275458 -0.0886001 0.995686 0.0346875
-0.00836754 -0.0975121 0.995199 0.0225942
-0.0077524 -0.0983288 0.995124 0.0169443
-0.0140923 -0.0988036 0.995007 0.0204054
-0.0154803 -0.0905069 0.995775 0.0256273
-0.0196015 -0.0843718 0.996242 0.0165529
-0.0195649 -0.077317 0.996815 0.0125303
-0.0125041 -0.0683448 0.997583 0.00316272
-0.00139978 -0.0734398 0.997299 0.00354557
0.00111029 -0.0994629 0.995041 0.0103158
0.00406665 -0.0970398 0.995272 0.0127342
0.0126511 -0.100692 0.994837 0.0270894
0.0250567 -0.105191 0.994136 0.0243682
0.0277427 -0.113277 0.993176 0.0366217
0.0378735 -0.132768 0.990423 0.0439845
0.054427 -0.118777 0.991428 0.0247511
0.0608562 -0.12161 0.990711 0.0299853
0.0692409 -0.104804 0.99208 0.0196949
0.0783499 -0.0845408 0.993335 0.0296581
0.0843955 -0.0826488 0.992999 0.0209655
0.0902643 -0.102483 0.990631 0.00323804
0.0999958 -0.099998 0.98995 0.00865739
0.108533 -0.0972974 0.98932 0.0137728
0.124062 -0.115386 0.985543 0.0175023
0.125425 -0.0979985 0.987251 0.0127746
-0.0305051 -0.0430218 0.998608 0
-0.0330136 -0.0826475 0.996032 0.00957716
-0.0377745 -0.104416 0.993816 0.0142133
-0.0327588 -0.103814 0.994057 0.012055
-0.0390549 -0.0931713 0.994884 0.0164732
-0.035658 -0.103022 0.99404 0.021778
-0.0294728 -0.097627 0.994787 0.00441253
-0.0357866 -0.102045 0.994136 0.0217219
-0.0360774 -0.107256 0.993577 0.034756
-0.0257672 -0.117592 0.992728 0.0318337
-0.0205447 -0.127518 0.991623 0.0250332
-0.0255563 -0.123572 0.992006 0.0199744
-0.0146206 -0.112676 0.993524 0.0183662
-0.0194137 -0.111153 0.993614 0.0218977
-0.0248106 -0.107082 0.993941 0.0276874
-0.0269725 -0.106453 0.993952 0.0336963
-0.0163393 -0.0846799 0.996274 0.0233119
-0.0181086 -0.102992 0.994517 0.0257289
-0.00976472 -0.119426 0.992795 0.0241049
0.00350401 -0.115139 0.993343 0.0266254
0.0137535 -0.145882 0.989206 0.0456896
0.0194193 -0.138656 0.99015 0.0404363
0.0280574 -0.147518 0.988661 0.0382619
0.041541 -0.13963 0.989332 0.0304986
0.0581178 -0.125147 0.990434 0.0212056
0.0656372 -0.135572 0.988591 0.0389703
0.0714114 -0.121894 0.989971 0.0303842
0.0873821 -0.0987618 0.991267 0.0185441
0.0902544 -0.102586 0.990621 0.0196735
0.100642 -0.103235 0.989552 0.0177099
0.116695 -0.0960111 0.988516 0.0127871
0.11989 -0.123716 0.985049 0.0240822
0.121736 -0.102099 0.987297 0.0139511
-0.0286634 -0.0661515 0.997398 0.0029485
-0.0307386 -0.0862622 0.995798 0.00926984
-0.0255175 -0.0898789 0.995626 0
-0.0347452 -0.0858138 0.995705 0.00919194
-0.0390155 -0.0780744 0.996184 0.00774817
-0.0280661 -0.0858478 0.995913 0.00368939
-0.0283998 -0.0884929 0.995672 0
-0.0295357 -0.0948551 0.995053 0.019229
-0.0249651 -0.0865773 0.995932 0.016846
-0.0236441 -0.109821 0.99367 0.0144841
-0.0380831 -0.117485 0.992344 0.020809
-0.042946 -0.124624 0.991274 0.0277191
-0.0362249 -0.108632 0.993422 0.0361357
-0.0252551 -0.111714 0.993419 0.0307045
-0.0261938 -0.107349 0.993876 0.0333022
-0.0394091 -0.106944 0.993484 0.0555166
-0.0235419 -0.11173 0.99346 0.042584
-0.0212348 -0.114013 0.993252 0.0283355
-0.0111042 -0.109636 0.99391 0.0135911
-0.00894448 -0.121079 0.992603 0.0306401
0.00473397 -0.136913 0.990572 0.0405838
0.0276289 -0.141469 0.989557 0.0424011
0.0364727 -0.142615 0.989106 0.0435508
0.04898 -0.137854 0.989241 0.0240582
0.064532 -0.131595 0.989201 0.0201722
0.065106 -0.13078 0.989271 0.0264746
0.0736393 -0.123889 0.98956 0.0381079
0.0884519 -0.117683 0.989104 0.0273444
0.0917055 -0.112881 0.989367 0.0227397
0.0988045 -0.121571 0.987653 0.0304971
0.114652 -0.123963 0.985641 0.0206963
0.123784 -0.122105 0.984768 0.0186848
0.124915 -0.126385 0.984085 0.0194587
0.133399 -0.138542 0.981331 0.0276722
-0.0356231 -0.0391711 0.998597 0
-0.0467279 -0.075583 0.996044 0.0141048
-0.0374062 -0.0684392 0.996954 0.00122833
-0.0343065 -0.0732277 0.996725 0.0124784
-0.0313615 -0.081845 0.996152 0.00830023
-0.0240045 -0.082429 0.996308 0.00697389
-0.0296426 -0.083924 0.996031 0.00794679
-0.0351613 -0.0848578 0.995772 0.0147994
-0.0370967 -0.0808202 0.996038 0.00243029
-0.0337311 -0.0954576 0.994862 0.00473846
-0.0295786 -0.0942966 0.995105 0.00945642
-0.0353438 -0.10305 0.994048 0.0193375
-0.0279941 -0.0940631 0.995173 0.0110519
-0.0282858 -0.102837 0.994296 0.00867009
-0.0355145 -0.10374 0.99397 0.0200465
-0.0417291 -0.110994 0.992945 0.0335241
-0.0412256 -0.109634 0.993117 0.0371985
-0.0276208 -0.108842 0.993675 0.0365544
-0.0281567 -0.111249 0.993394 0.0377907
-0.0262676 -0.111048 0.993468 0.0416493
-0.0221817 -0.118638 0.99269 0.0362586
-0.0133611 -0.140277 0.990022 0.0331543
-0.0233664 -0.138717 0.990056 0.0412349
-0.0080109 -0.125001 0.992124 0.03499
0.00892451 -0.122021 0.992487 0.0424831
0.0321217 -0.14189 0.989361 0.0422356
0.0325422 -0.139494 0.989688 0.0378723
0.0505917 -0.134054 0.989682 0.0232875
0.061298 -0.123837 0.990407 0.0146256
0.0679044 -0.134349 0.988605 0.0241317
0.0711475 -0.135535 0.988215 0.0299179
0.0834688 -0.130055 0.987987 0.02581
0.0881762 -0.123475 0.988422 0.0229817
0.10452 -0.119198 0.987354 0.0207101
0.111312 -0.133268 0.984809 0.0282871
0.124663 -0.126425 0.984112 0.0265204
0.138533 -0.129339 0.981876 0.0209785
0.139353 -0.134243 0.981101 0.0261528
-0.0201205 -0.0534278 0.998369 0
-0.0200075 -0.0500758 0.998545 0
-0.0197483 -0.0596081 0.998026 0
-0.0382048 -0.0681727 0.996942 0
-0.0331637 -0.0774206 0.996447 0.00165039
-0.0318038 -0.0903525 0.995402 0.00504569
-0.0295541 -0.110631 0.993422 0.00347212
-0.0321116 -0.115975 0.992733 0.0123064
-0.0221514 -0.0853945 0.996101 0
-0.0296504 -0.0816536 0.99622 0.00410548
-0.0383806 -0.0998227 0.994265 0.00954691
-0.0348751 -0.104441 0.993919 0.00146904
-0.0409176 -0.114101 0.992626 0.0114467
-0.037837 -0.0951439 0.994744 0
-0.0341803 -0.111181 0.993212 0.0140017
-0.0305825 -0.0968428 0.99483 0.014364
-0.039818 -0.124856 0.991376 0.0237183
-0.0415086 -0.129694 0.990685 0.024094
-0.0426068 -0.136788 0.989684 0.035928
-0.0230484 -0.126417 0.991709 0.0363764
-0.0163424 -0.109891 0.993809 0.0372172
-0.0246475 -0.125503 0.991787 0.0412225
-0.00497691 -0.13859 0.990337 0.0219688
-0.00565116 -0.146266 0.989229 0.0315231
0.0149448 -0.145956 0.989178 0.0421063
0.0331427 -0.145467 0.988808 0.0349084
0.0386167 -0.134171 0.990205 0.0311008
0.0496076 -0.146286 0.987998 0.0096228
0.0628141 -0.137356 0.988528 0.0231079
0.0695734 -0.139384 0.987791 0.0259178
0.0691405 -0.143022 0.987302 0.0362631
0.0830225 -0.141911 0.986392 0.0192749
0.0821869 -0.143062 0.986295 0.0163231
0.0955102 -0.124971 0.987552 0.0162228
0.11392 -0.138617 0.983772 0.00992684
0.124972 -0.133255 0.983171 0.0084529
0.134137 -0.147636 0.979904 0.0169474
0.14728 -0.147694 0.978006 0.0388819
-0.0185764 -0.0678329 0.997524 0
-0.0216224 -0.0762225 0.996856 0.00567572
-0.0227209 -0.0781671 0.996681 0.00104424
-0.0382845 -0.0799366 0.996064 0.00278789
-0.0468267 -0.0933319 0.994533 0.012948
-0.034557 -0.0894456 0.995392 0.0053789
-0.0335296 -0.0978727 0.994634 0.0111347
-0.0263732 -0.113042 0.99324 0
-0.0342975 -0.119894 0.992194 0.00294612
-0.0279335 -0.09891 0.994704 0
-0.0309118 -0.0837424 0.996008 2.67731e-05
-0.0380739 -0.0905927 0.99516 0
-0.0391085 -0.0949817 0.994711 0
-0.0443308 -0.102116 0.993784 0.00124853
-0.0404809 -0.101091 0.994053 0
-0.0275511 -0.101018 0.994503 0.00629395
-0.0306517 -0.0975093 0.994762 0.00597485
-0.0330628 -0.105611 0.993858 0.0109509
-0.0406917 -0.123436 0.991518 0.0161101
-0.0419202 -0.142667 0.988883 0.0345533
0.00125771 -0.148261 0.988947 0.0368831
0.042571 -0.116605 0.992266 0.0156965
0.0596187 -0.143797 0.98781 0.0220684
0.0783883 -0.119226 0.989768 0.0129034
0.0767361 -0.126254 0.989026 0.0163109
0.0788528 -0.135367 0.987653 0.00866472
0.0808742 -0.141648 0.986608 0.00613405
0.0997295 -0.13365 0.985998 0.00451917
0.10883 -0.145501 0.983354 0.0047129
0.121184 -0.159169 0.979786 0.00732443
0.128462 -0.158003 0.979047 0.0135274
0.1402 -0.142797 0.979772 0.0281002
0.152396 -0.119378 0.981083 0.0231492
-0.0433943 -0.0987461 0.994166 0.0178978
-0.00945756 -0.0639763 0.997907 0
-0.0156374 -0.0814071 0.996558 0
-0.0178348 -0.0777286 0.996815 0
-0.0251916 -0.0843723 0.996116 0.00458516
-0.0323124 -0.0665355 0.997261 0.00944354
-0.0496063 -0.0901368 0.994693 0.0103531
-0.0385035 -0.0775683 0.996243 0.000674162
-0.0405962 -0.0917264 0.994956 0.0178719
-0.0398148 -0.0912313 0.995034 0.00480422
-0.0406681 -0.0921318 0.994916 0
-0.045361 -0.104383 0.993502 0.00765945
-0.0402132 -0.112904 0.992792 0.0161163
-0.0428187 -0.098895 0.994176 0.0145256
-0.0477001 -0.0930533 0.994518 0.010864
-0.0453229 -0.0860865 0.995256 0
-0.0422667 -0.0833437 0.995624 0
-0.0360322 -0.0877796 0.995488 0.00242254
-0.0330071 -0.0989254 0.994547 0.00793849
-0.0338513 -0.0973859 0.994671 0.0122428
-0.034989 -0.0898796 0.995338 0.00661964
-0.0324852 -0.115086 0.992824 0.0115362
0.0803799 -0.116468 0.989936 0
0.0799517 -0.123991 0.989057 0.00554
0.0729558 -0.136496 0.98795 0.0217231
0.0763273 -0.131271 0.988404 0.0158056
0.100504 -0.13855 0.985242 0
0.103295 -0.1545 0.982578 0.00149724
0.117483 -0.156146 0.980722 0.00511426
0.12492 -0.134493 0.983009 0.000466237
0.138294 -0.126844 0.982235 0.0208089
0.156796 -0.130583 0.97896 0.0266075
-0.0357005 -0.0861921 0.995639 0.0131941
-0.0400584 -0.0778874 0.996157 0.016712
-0.0125095 -0.0869847 0.996131 0
-0.0080047 -0.0955544 0.995392 0
-0.0164716 -0.0845154 0.996286 0
-0.0222124 -0.0762644 0.99684 0
-0.0226868 -0.076283 0.996828 0
-0.0318252 -0.0648094 0.99739 0
-0.0407537 -0.0875469 0.995326 0.0111534
-0.0374211 -0.0753065 0.996458 0.00137344
-0.0439846 -0.0809243 0.995749 0.0108245
-0.0425684 -0.0999462 0.994082 0.00777049
-0.0456342 -0.0951991 0.994412 0
-0.041903 -0.0946365 0.99463 0
-0.0457807 -0.10869 0.993021 0.0102246
-0.0481455 -0.118289 0.991811 0.0138866
-0.0425502 -0.0945175 0.994613 0.00535175
-0.0416497 -0.0797765 0.995942 0
-0.0500208 -0.0844913 0.995168 0.00185166
-0.0379947 -0.08139 0.995958 0
-0.0358677 -0.103622 0.99397 0.00804539
0.0786843 -0.13801 0.9873 0.0298318
0.0714819 -0.128006 0.989194 0.0199767
0.104439 -0.144154 0.984029 0.0037986
0.113073 -0.141089 0.983518 0
0.124566 -0.131378 0.983475 0
0.122864 -0.131103 0.983726 0.000915945
0.134253 -0.132052 0.982109 0
0.148136 -0.113509 0.982431 0.0038833
0.142526 -0.120911 0.982378 0.00391741
-0.0342184 -0.140652 0.989468 0.00681086
-0.031984 -0.11788 0.992513 0.0132579
-0.0300431 -0.109 0.993588 0.0142195
-0.0319071 -0.0911657 0.995324 0.0076365
-0.0350426 -0.0860362 0.995676 0.00395769
-0.0388759 -0.0742102 0.996485 0.0116761
-0.0280395 -0.0946788 0.995113 0
-0.0258097 -0.101466 0.994504 0
-0.0173417 -0.108102 0.993988 0
-0.0195107 -0.106775 0.994092 0
-0.0216771 -0.102974 0.994448 0
-0.0216652 -0.104863 0.994251 0
-0.0240277 -0.0973912 0.994956 0
-0.027596 -0.101159 0.994487 0.00094444
-0.0440458 -0.108023 0.993172 0.0140898
-0.0470071 -0.0969598 0.994178 0.0154967
-0.0422552 -0.105678 0.993502 0.00329575
-0.0479255 -0.122088 0.991361 0.00591068
-0.0500271 -0.117205 0.991847 0.0105679
-0.0444652 -0.102033 0.993787 0.00207564
-0.0487072 -0.121165 0.991437 0.00778854
-0.0434418 -0.118523 0.992001 0.0133264
-0.0445138 -0.0915854 0.994802 0.00201553
-0.0452215 -0.0971277 0.994244 0
-0.0463752 -0.0975379 0.994151 0.00707845
-0.0390957 -0.0927009 0.994926 0
0.108046 -0.14709 0.983204 0
0.117921 -0.1496 0.98169 0
0.124156 -0.12843 0.983916 0
0.1241 -0.122253 0.98471 0
0.123516 -0.125197 0.984413 0.00379473
0.12569 -0.121522 0.984599 0.00504643
0.132153 -0.127429 0.983004 0.00472643
0.134254 -0.1196 0.983703 0.00505785
0.157249 -0.124554 0.979673 0.0153511
0.162055 -0.12924 0.978282 0.0241765
-0.026834 -0.135795 0.990373 0.00846365
-0.0254313 -0.114704 0.993074 0.000128955
-0.0271011 -0.0998015 0.994638 0.012701
-0.0310189 -0.0974078 0.994761 0.00165259
-0.0386222 -0.0982875 0.994408 0.00402303
-0.0366969 -0.103173 0.993986 0.0129676
-0.0382547 -0.103372 0.993907 0.00166776
-0.0388234 -0.112888 0.992849 0
-0.0385979 -0.12539 0.991356 0
-0.0290009 -0.111409 0.993351 0
-0.0287767 -0.103605 0.994202 0
-0.0317846 -0.110248 0.993396 0
-0.0283729 -0.108757 0.993663 0
-0.0332165 -0.0956503 0.994861 0
-0.0510826 -0.10571 0.993084 0.00682538
-0.0486722 -0.124513 0.991023 0.0239484
-0.0439806 -0.112801 0.992644 0.0189687
-0.0517108 -0.118382 0.991621 0.00663248
-0.0631402 -0.125977 0.990022 0.00854545
-0.0511286 -0.101566 0.993514 0.00641413
-0.0535956 -0.107206 0.992791 0.0152899
-0.051833 -0.122045 0.99117 0.0201647
-0.0493664 -0.105365 0.993208 0.00838711
-0.0488363 -0.101643 0.993622 0.0059456
-0.044329 -0.0980067 0.994198 0.000330277
0.110047 -0.135727 0.984616 0
0.112761 -0.124423 0.985801 0
0.115068 -0.125407 0.98541 0
0.119396 -0.112663 0.986434 0.00154041
0.137052 -0.115794 0.983773 0.00717616
0.146284 -0.127652 0.980972 0.0288221
0.150453 -0.127563 0.980353 0.0290237
0.163948 -0.126476 0.978328 0.021666
-0.0236736 -0.104887 0.994202 0
-0.022534 -0.101244 0.994606 0
-0.0289418 -0.106692 0.993871 0
-0.0314394 -0.107686 0.993688 0
-0.0379056 -0.115282 0.992609 0
-0.0321603 -0.112681 0.993111 0.0036087
-0.0345779 -0.120891 0.992063 0.00123024
-0.038473 -0.120185 0.992006 0.00682285
-0.0268817 -0.0971968 0.994902 0
-0.0318504 -0.0833893 0.996008 0.00268931
-0.0315115 -0.073281 0.996813 0.00815822
-0.0322969 -0.0906728 0.995357 0.00248728
-0.0254719 -0.0939067 0.995255 0
-0.0290558 -0.10703 0.993831 0
-0.0355235 -0.118677 0.992297 0
-0.0365165 -0.12227 0.991825 0
-0.0359409 -0.119147 0.992226 0
-0.0367929 -0.108489 0.993416 0
-0.0401587 -0.102074 0.993966 0
-0.0465628 -0.104114 0.993475 0
-0.043692 -0.0956771 0.994453 0
-0.0514931 -0.123268 0.991037 0.0128975
-0.056841 -0.131115 0.989736 0.0336565
-0.0568344 -0.124589 0.990579 0.0283019
-0.0598978 -0.115687 0.991478 0.0234004
-0.0556871 -0.119719 0.991245 0.00963716
-0.0522935 -0.107961 0.992779 0.0126958
-0.0490707 -0.10067 0.993709 0.00713131
0.105009 -0.13431 0.98536 0.00859109
0.112161 -0.108795 0.987716 0
0.120476 -0.108424 0.986778 0
0.128103 -0.116576 0.984886 0.00847004
0.134475 -0.110133 0.984778 0.0338645
0.150758 -0.108883 0.982556 0.0219027
0.155904 -0.130812 0.979072 0.0169282
0.166545 -0.12894 0.977567 0.0127521
-0.017525 -0.102741 0.994554 0
-0.0212054 -0.0980431 0.994956 0
-0.0273216 -0.109453 0.993616 0
-0.0349333 -0.119579 0.99221 0
-0.0380191 -0.120088 0.992035 0.0120856
-0.039583 -0.123804 0.991517 0.00838165
-0.034673 -0.110033 0.993323 0.0029415
-0.0370066 -0.100488 0.99425 0.00616014
-0.0377357 -0.10538 0.993716 0.00318811
-0.0271591 -0.0974411 0.994871 0
-0.0289922 -0.0848353 0.995973 0
-0.0226488 -0.0824641 0.996337 0
-0.0324501 -0.103893 0.994059 0
-0.0342968 -0.116743 0.99257 0
-0.0359703 -0.104173 0.993909 0
-0.0356413 -0.120883 0.992027 0
-0.0341558 -0.122419 0.991891 0.00258911
-0.0489018 -0.126026 0.990821 0.00613381
-0.0415749 -0.107121 0.993376 0
-0.038069 -0.108596 0.993357 0
-0.0452041 -0.104377 0.99351 0.00530363
-0.0529015 -0.117048 0.991716 0.016282
-0.0476263 -0.129518 0.990433 0.017033
-0.0540224 -0.127755 0.990333 0.0310768
-0.0557978 -0.143994 0.988004 0.0350556
-0.062209 -0.153277 0.986223 0.0356148
-0.0583399 -0.121195 0.990913 0.0267663
-0.0628171 -0.125634 0.990086 0.0245469
-0.0527763 -0.113424 0.992144 0.012424
0.0998772 -0.12826 0.986699 0.004576
0.113973 -0.104417 0.987981 0
0.118146 -0.107383 0.987173 0
0.135539 -0.111186 0.984514 0.00457187
0.139021 -0.109026 0.98427 0.0163258
0.15215 -0.103062 0.982969 0.0108187
0.168491 -0.117019 0.978732 0.0174272
0.17662 -0.134666 0.975023 0.017972
0.183752 -0.125451 0.974935 0.00710053
-0.0359096 -0.107568 0.993549 0
-0.0286019 -0.102015 0.994372 0
-0.032118 -0.104156 0.994042 0
-0.0253177 -0.127991 0.991452 0
-0.0285917 -0.106685 0.993882 0
-0.0230352 -0.122817 0.992162 0
-0.0180264 -0.123398 0.992194 0
-0.0153092 -0.114405 0.993316 0
-0.0192422 -0.110578 0.993681 0
-0.0331108 -0.106113 0.993803 0.00112635
-0.0373068 -0.116736 0.992462 0.000649877
-0.0428807 -0.125642 0.991148 0.00741991
-0.0300436 -0.106235 0.993887 0
-0.0329231 -0.10854 0.993547 0
-0.0272069 -0.103743 0.994232 0
-0.0272855 -0.113055 0.993214 0
-0.0285463 -0.108382 0.993699 0
-0.0229295 -0.0911218 0.995576 0
-0.0186508 -0.0999829 0.994814 0
-0.0323782 -0.121316 0.992086 0
-0.0374858 -0.12053 0.992002 0
-0.0452792 -0.124703 0.99116 0.00950794
-0.0476508 -0.120467 0.991573 0.00480792
-0.0405397 -0.101719 0.993987 0.00343177
-0.041987 -0.112528 0.992761 0
-0.0389493 -0.120845 0.991907 0
-0.0421074 -0.124719 0.991298 0.00517134
-0.0384563 -0.126212 0.991258 0.0023078
-0.0420112 -0.120016 0.991883 0.000788667
-0.0582666 -0.133361 0.989353 0.0357583
-0.0566903 -0.13898 0.988671 0.0376833
