# .PCD v0.7 - Point Cloud Data file format
VERSION 0.7
FIELDS x y z
SIZE 4 4 4
TYPE F F F
COUNT 1 1 1
WIDTH 1367
HEIGHT 1
VIEWPOINT 0 0 0 1 0 0 0
POINTS 1367
DATA ascii
-0.14500749 -0.287736 -0.403157
-0.14490199 -0.28770548 -0.40318501
-0.1447065 -0.28770748 -0.403191
-0.1444155 -0.28769499 -0.403191
-0.14428049 -0.28773999 -0.40319252
-0.144109 -0.28767648 -0.40318236
-0.14389788 -0.28768575 -0.40317869
-0.1437536 -0.28771341 -0.40317622
-0.14356466 -0.28771201 -0.40319267
-0.14333965 -0.28771615 -0.40317583
-0.14307426 -0.2876955 -0.40317652
-0.142864 -0.28770602 -0.4031643
-0.14269912 -0.28769565 -0.40316802
-0.14250401 -0.28769267 -0.40316355
-0.14225966 -0.28770635 -0.40314937
-0.14208233 -0.28771132 -0.40316167
-0.14193429 -0.28773332 -0.40317217
-0.14171125 -0.28769875 -0.40316498
-0.14089 -0.287788 -0.4032
-0.1438525 -0.28750101 -0.40318647
-0.143722 -0.28755599 -0.403189
-0.143555 -0.28752702 -0.403184
-0.143342 -0.287494 -0.40319601
-0.14301966 -0.287514 -0.40318868
-0.14287642 -0.28753501 -0.4031778
-0.14267024 -0.28750372 -0.40317824
-0.14248 -0.28749648 -0.40318251
-0.14224666 -0.28748432 -0.40317166
-0.14207301 -0.28756499 -0.40319401
-0.1419435 -0.28749967 -0.40319014
-0.14170109 -0.28751308 -0.40317371
-0.143877 -0.28738901 -0.40319699
-0.142832 -0.28733599 -0.40318549
-0.1427158 -0.28735539 -0.4031958
-0.142432 -0.28732699 -0.40319899
-0.141893 -0.287242 -0.40319949
-0.1416302 -0.28731221 -0.40319061
-0.141601 -0.28714901 -0.4032
-0.14206401 -0.27885801 -0.40319899
-0.142178 -0.2786735 -0.40319347
-0.140193 -0.278671 -0.40319899
-0.14222133 -0.27848399 -0.40318599
-0.14209038 -0.27847776 -0.40318447
-0.14196767 -0.27849266 -0.40318036
-0.14176901 -0.27842799 -0.40319201
-0.14149301 -0.2784704 -0.40319261
-0.141278 -0.278449 -0.40318799
-0.14117125 -0.27850002 -0.4031865
-0.14092749 -0.2785095 -0.40319049
-0.140655 -0.27841401 -0.40319401
-0.14045267 -0.278478 -0.40318868
-0.14037049 -0.27842951 -0.40318751
-0.14008859 -0.27847901 -0.40318817
-0.14228299 -0.27829048 -0.403193
-0.14207633 -0.27830285 -0.40317187
-0.141958 -0.27830797 -0.403171
-0.14176133 -0.27828035 -0.40318564
-0.1415019 -0.2782917 -0.40316546
-0.14127065 -0.27830067 -0.40317667
-0.14115071 -0.2783033 -0.40317112
-0.14092034 -0.27832499 -0.40314302
-0.14064899 -0.27830303 -0.403184
-0.14046967 -0.27827966 -0.40315804
-0.14034225 -0.27827427 -0.40316224
-0.14011933 -0.27830014 -0.40315846
-0.139947 -0.2783035 -0.40316576
-0.139797 -0.27823201 -0.40318599
-0.142875 -0.27806699 -0.40319899
-0.14247601 -0.27809083 -0.40318033
-0.1422831 -0.27810079 -0.4031775
-0.14208022 -0.2781083 -0.40316159
-0.14194967 -0.27812266 -0.40314034
-0.141752 -0.27809399 -0.40318099
-0.14149232 -0.27810583 -0.40316257
-0.14125361 -0.27809381 -0.40317458
-0.14112455 -0.27809146 -0.40316856
-0.140908 -0.27810201 -0.40315399
-0.14064001 -0.27811733 -0.40316936
-0.14046049 -0.27809501 -0.403146
-0.14032699 -0.27809918 -0.40314469
-0.14010899 -0.27807915 -0.403126
-0.13998534 -0.27808067 -0.40313068
-0.1397516 -0.27806899 -0.4031654
-0.13951451 -0.27806252 -0.40318701
-0.1391435 -0.27808398 -0.40319002
-0.143047 -0.277879 -0.40319401
-0.142869 -0.27792001 -0.40316966
-0.1427086 -0.27791199 -0.40318078
-0.14246801 -0.27790698 -0.40314475
-0.14228722 -0.27787691 -0.40314677
-0.14209108 -0.27789426 -0.40312728
-0.141939 -0.27790034 -0.40312466
-0.14174367 -0.27790967 -0.40315399
-0.14148366 -0.27792135 -0.40313992
-0.14125779 -0.27791399 -0.40315238
-0.14111601 -0.27790615 -0.40314701
-0.14089699 -0.277879 -0.403137
-0.14062901 -0.277895 -0.40315631
-0.140452 -0.27790967 -0.40311599
-0.14031766 -0.27791321 -0.403137
-0.14010051 -0.2778925 -0.40310878
-0.13997599 -0.27789497 -0.40311998
-0.13973424 -0.27789927 -0.40314549
-0.13954221 -0.27788776 -0.40316457
-0.13909473 -0.27789217 -0.40318945
-0.14411339 -0.27768499 -0.40319282
-0.143888 -0.27767998 -0.403193
-0.143795 -0.277686 -0.40318
-0.14344101 -0.27766901 -0.403189
-0.14320451 -0.27772403 -0.403189
-0.14307749 -0.2776745 -0.40318626
-0.14285833 -0.27769899 -0.403146
-0.14276734 -0.27770132 -0.40317902
-0.14250422 -0.27771866 -0.40313721
-0.14227866 -0.27769265 -0.40312114
-0.14208312 -0.27771023 -0.40308699
-0.141929 -0.27767834 -0.40309635
-0.14173299 -0.27768701 -0.40313467
-0.14151266 -0.277697 -0.40310654
-0.14129288 -0.27770665 -0.40311936
-0.14110756 -0.27772123 -0.40311736
-0.1408895 -0.27769449 -0.40309501
-0.14062101 -0.27771097 -0.403128
-0.14044033 -0.27768704 -0.40311369
-0.14030701 -0.27769166 -0.40311587
-0.14009084 -0.27770799 -0.40310118
-0.13996667 -0.277711 -0.40311036
-0.13972484 -0.27771351 -0.40313685
-0.13955119 -0.27770883 -0.40315539
-0.1392245 -0.27770001 -0.40318602
-0.13908191 -0.27769238 -0.40315789
-0.13872549 -0.27765501 -0.40317899
-0.14410289 -0.27749434 -0.40317935
-0.14391501 -0.27747899 -0.40319338
-0.1437415 -0.27750149 -0.4031885
-0.14343399 -0.27752033 -0.40317166
-0.14330122 -0.27752268 -0.40318587
-0.14311075 -0.2775045 -0.40317151
-0.14284734 -0.27747634 -0.40313032
-0.142757 -0.27747801 -0.40315267
-0.14250551 -0.27750489 -0.40312126
-0.14228229 -0.2774995 -0.40310794
-0.14211275 -0.27754337 -0.40307748
-0.14197017 -0.27748999 -0.40308785
-0.1417245 -0.277502 -0.40310901
-0.14149359 -0.2774902 -0.40308982
-0.14129312 -0.27749324 -0.40309787
-0.1411072 -0.2774916 -0.40309113
-0.14087999 -0.27750996 -0.40308866
-0.14061034 -0.27752337 -0.40314463
-0.140431 -0.27750099 -0.403101
-0.14029801 -0.27750516 -0.403097
-0.14007966 -0.27748486 -0.40308681
-0.13995565 -0.27748731 -0.403092
-0.13971382 -0.27749115 -0.40311834
-0.13953167 -0.27750084 -0.40315035
-0.13921534 -0.27751365 -0.40317369
-0.13912076 -0.27751637 -0.40314341
-0.1389945 -0.27749699 -0.403146
-0.1387185 -0.27750802 -0.40315998
-0.138354 -0.27741 -0.40318701
-0.14409283 -0.27730748 -0.40317917
-0.14391525 -0.27730924 -0.40318599
-0.1436891 -0.27728143 -0.40318733
-0.14346932 -0.27729484 -0.40317452
-0.14329123 -0.27730066 -0.40314966
-0.1431025 -0.27732036 -0.40314469
-0.14283851 -0.277291 -0.40311599
-0.142748 -0.27729398 -0.40313351
-0.1425204 -0.27728638 -0.40310717
-0.14229083 -0.2772834 -0.40310588
-0.14213882 -0.27730218 -0.40305552
-0.14196156 -0.2773048 -0.40306759
-0.14171599 -0.277318 -0.40307632
-0.1415026 -0.27731097 -0.4030796
-0.14131449 -0.27729675 -0.40307948
-0.141105 -0.27728203 -0.40308774
-0.14086933 -0.27728766 -0.40306666
-0.14060301 -0.277376 -0.40312299
-0.1404922 -0.2772958 -0.40310082
-0.14028911 -0.27732068 -0.40308189
-0.14007026 -0.2773 -0.40308398
-0.1399475 -0.27730298 -0.4030655
-0.13970426 -0.2773045 -0.40311223
-0.13952167 -0.27727968 -0.40311384
-0.13920532 -0.27729201 -0.40313801
-0.13910379 -0.27730432 -0.40312734
-0.13898434 -0.27731067 -0.40315565
-0.13870901 -0.27732101 -0.40315267
-0.13848175 -0.27729049 -0.40318799
-0.138348 -0.277298 -0.40318099
-0.1381315 -0.2772395 -0.40318799
-0.144794 -0.27707201 -0.403198
-0.14444534 -0.27709201 -0.40319169
-0.1442385 -0.27706552 -0.40318948
-0.14408444 -0.27712333 -0.4031527
-0.14390633 -0.27712467 -0.4031688
-0.14372075 -0.27709448 -0.40316999
-0.14349243 -0.27709243 -0.40316072
-0.14328057 -0.27707931 -0.40312898
-0.14309217 -0.27709901 -0.40311933
-0.14283 -0.27710631 -0.40308833
-0.14274001 -0.27710965 -0.40309966
-0.14252901 -0.27710718 -0.40310341
-0.14229301 -0.27710226 -0.40310445
-0.14213786 -0.27707812 -0.4030506
-0.14195122 -0.27708355 -0.40304276
-0.14170568 -0.27709699 -0.403052
-0.1414845 -0.277105 -0.40304801
-0.141305 -0.27711082 -0.40306649
-0.14111245 -0.27710143 -0.40305811
-0.140861 -0.2771025 -0.40303001
-0.14050184 -0.27708882 -0.40304849
-0.14027855 -0.27709967 -0.40305722
-0.14006166 -0.27711517 -0.40305665
-0.13993834 -0.27711868 -0.40305033
-0.13969634 -0.27712065 -0.40307418
-0.13951324 -0.27709526 -0.40308526
-0.13911182 -0.27708617 -0.40310714
-0.13897467 -0.27708864 -0.403119
-0.13869734 -0.27709833 -0.40314901
-0.13846301 -0.27711982 -0.40319318
-0.138338 -0.27711201 -0.40319231
-0.1381235 -0.277091 -0.40318501
-0.1460475 -0.2768375 -0.40319601
-0.145835 -0.27689901 -0.40318376
-0.145455 -0.27682099 -0.403193
-0.14536899 -0.27682501 -0.40319499
-0.1448845 -0.27688801 -0.40318447
-0.14471641 -0.27691403 -0.40318757
-0.144437 -0.27690798 -0.403166
-0.14423001 -0.27688035 -0.40316966
-0.14407402 -0.27690211 -0.4031249
-0.14389633 -0.276903 -0.40313765
-0.14371265 -0.27690914 -0.40314183
-0.14350887 -0.27691162 -0.40314251
-0.14327167 -0.27689499 -0.40311167
-0.14311133 -0.27692565 -0.403097
-0.1428912 -0.276869 -0.4030624
-0.14273067 -0.276889 -0.40305337
-0.14251184 -0.27690217 -0.40305331
-0.142304 -0.27692261 -0.40303576
-0.14216083 -0.27691451 -0.40302697
-0.141945 -0.27693665 -0.40300766
-0.14169601 -0.27691099 -0.40304148
-0.14147435 -0.27688316 -0.40301833
-0.14129482 -0.2768895 -0.40304303
-0.14109425 -0.27690533 -0.40303993
-0.14085199 -0.27691802 -0.40301767
-0.14049326 -0.27690423 -0.40302849
-0.14026138 -0.27688676 -0.4030315
-0.14011049 -0.276932 -0.4030135
-0.13994575 -0.27691323 -0.40302172
-0.13968651 -0.27689949 -0.40304199
-0.13950549 -0.27691099 -0.40305233
-0.13911898 -0.27690533 -0.4030838
-0.13896501 -0.276903 -0.403106
-0.13868749 -0.27691251 -0.40315601
-0.138412 -0.27688366 -0.40318632
-0.13832599 -0.27688801 -0.403198
-0.13811368 -0.27690497 -0.40318534
-0.14609 -0.27670485 -0.40318942
-0.145891 -0.27669302 -0.40318701
-0.14579999 -0.27665901 -0.40317801
-0.1454505 -0.27671051 -0.40317601
-0.14530556 -0.27665713 -0.40318656
-0.14518 -0.27665198 -0.40318853
-0.14492033 -0.276703 -0.40316367
-0.1447082 -0.27672261 -0.40315217
-0.144471 -0.27670226 -0.4031395
-0.1442215 -0.27669501 -0.40314049
-0.14406411 -0.27668101 -0.403088
-0.14388718 -0.27668318 -0.40308401
-0.14370282 -0.27668765 -0.40309849
-0.14353366 -0.27669719 -0.40312651
-0.14329568 -0.27670792 -0.40309766
-0.14315633 -0.27672434 -0.40308666
-0.14290124 -0.27669924 -0.40304199
-0.14272201 -0.27670449 -0.40303302
-0.14250167 -0.27668035 -0.40302196
-0.14223349 -0.27673 -0.40301102
-0.142185 -0.27673599 -0.403007
-0.141691 -0.27680001 -0.403023
-0.14148033 -0.27670899 -0.40300834
-0.14128575 -0.276705 -0.40302774
-0.141095 -0.27669841 -0.40301371
-0.140843 -0.27673298 -0.403005
-0.140578 -0.27678701 -0.40300301
-0.14032975 -0.2767635 -0.40301424
-0.139919 -0.27671099 -0.403005
-0.13968679 -0.27669302 -0.40300578
-0.13949449 -0.27668867 -0.403034
-0.13910116 -0.27670929 -0.40306282
-0.13895701 -0.27671865 -0.40307334
-0.138676 -0.27672502 -0.40318465
-0.13843466 -0.27668431 -0.40317532
-0.13826151 -0.2767055 -0.4031857
-0.1381236 -0.27666521 -0.40316662
-0.137987 -0.276618 -0.4032
-0.146725 -0.27645999 -0.40319601
-0.14645199 -0.276402 -0.40319401
-0.14622767 -0.276481 -0.40319231
-0.14609863 -0.27649489 -0.40316728
-0.14592634 -0.2765075 -0.40316436
-0.14579301 -0.27651098 -0.403162
-0.145441 -0.27652469 -0.40316734
-0.14529979 -0.27648538 -0.40316758
-0.145172 -0.27650398 -0.403191
-0.14490966 -0.27648032 -0.40314233
-0.144767 -0.2764813 -0.40311435
-0.14450534 -0.27649716 -0.40311718
-0.14421467 -0.27651301 -0.40308633
-0.1440676 -0.27650422 -0.4030562
-0.1439022 -0.27649119 -0.40306377
-0.14369451 -0.27650374 -0.40306899
-0.1435158 -0.2764914 -0.4030816
-0.14329354 -0.27649319 -0.40306491
-0.14316 -0.27648175 -0.40305024
-0.14293775 -0.27653101 -0.40304127
-0.14271367 -0.27651933 -0.40300569
-0.14253649 -0.27649099 -0.40301999
-0.14121801 -0.27655602 -0.403007
-0.14115199 -0.27649099 -0.40300551
-0.13948575 -0.27650324 -0.40301749
-0.13909033 -0.27648661 -0.40304145
-0.13894767 -0.27649701 -0.40303266
-0.138668 -0.27650502 -0.40310404
-0.13849133 -0.27650931 -0.403144
-0.13828915 -0.2765193 -0.40314105
-0.13812175 -0.2764945 -0.403128
-0.13798299 -0.2765075 -0.40316802
-0.137743 -0.27650702 -0.403182
-0.14680851 -0.27627599 -0.40319848
-0.146694 -0.27629423 -0.40318951
-0.14644599 -0.27629101 -0.403184
-0.14623867 -0.27628234 -0.40318501
-0.14608882 -0.2762869 -0.40314311
-0.14591582 -0.2762858 -0.4031395
-0.14578301 -0.27629033 -0.40312633
-0.14543001 -0.27630267 -0.40314832
-0.14528002 -0.27630889 -0.40314302
-0.145164 -0.27632034 -0.403146
-0.14490099 -0.27629602 -0.40312076
-0.14475751 -0.27629548 -0.403106
-0.14447901 -0.27629179 -0.40307498
-0.144206 -0.27632701 -0.40306598
-0.14409243 -0.27629644 -0.40304583
-0.14391057 -0.27631313 -0.40303934
-0.14368601 -0.27631882 -0.40304551
-0.1435262 -0.2763136 -0.40305439
-0.14330533 -0.27630147 -0.40303037
-0.14316575 -0.2763125 -0.40303326
-0.14297351 -0.27632701 -0.40301102
-0.1427035 -0.27633351 -0.40300751
-0.13943499 -0.27639699 -0.403007
-0.13908175 -0.27630213 -0.40301991
-0.13893634 -0.27627599 -0.40301934
-0.13865967 -0.27628532 -0.40304366
-0.138483 -0.27628967 -0.40307733
-0.13830855 -0.27629912 -0.40307486
-0.13814077 -0.27630678 -0.4031052
-0.13797599 -0.276324 -0.40310469
-0.137734 -0.27632234 -0.40316367
-0.14806899 -0.27610183 -0.40319079
-0.147912 -0.27611899 -0.40319753
-0.147737 -0.276043 -0.40319899
-0.14747199 -0.27605399 -0.4032
-0.14707266 -0.27607834 -0.40318799
-0.1467063 -0.27607971 -0.40318799
-0.14643733 -0.27610496 -0.40316966
-0.14624184 -0.27611083 -0.403144
-0.14609522 -0.27610478 -0.40312332
-0.14590774 -0.27610099 -0.40310949
-0.1457745 -0.276106 -0.40310198
-0.14542067 -0.27608168 -0.40310967
-0.14526978 -0.27608764 -0.40311581
-0.14515434 -0.27609932 -0.40311202
-0.1448925 -0.27611163 -0.40309751
-0.144749 -0.27611133 -0.40307736
-0.14453176 -0.2761265 -0.40307426
-0.144398 -0.27605799 -0.40304199
-0.14409828 -0.27610356 -0.40303239
-0.14391124 -0.27610061 -0.40301961
-0.14367549 -0.27609769 -0.40302253
-0.14350784 -0.27610832 -0.40301368
-0.14328828 -0.27613845 -0.40301046
-0.14318468 -0.27612168 -0.40301266
-0.13911399 -0.27616951 -0.40301549
-0.1389955 -0.2761575 -0.403025
-0.138651 -0.27609998 -0.40302151
-0.13847551 -0.276106 -0.403027
-0.13828944 -0.27609843 -0.40304142
-0.13813068 -0.27608564 -0.40307009
-0.13796499 -0.27610168 -0.40308931
-0.13772567 -0.27610198 -0.40310034
-0.13744199 -0.27611434 -0.40318432
-0.13730699 -0.2760435 -0.40319601
-0.14808838 -0.27587214 -0.40318459
-0.14790125 -0.27588901 -0.40318125
-0.14773101 -0.27589568 -0.40316769
-0.14746499 -0.27590835 -0.40317765
-0.14733332 -0.27586332 -0.40319467
-0.147064 -0.27589399 -0.40316647
-0.146874 -0.27586299 -0.40319499
-0.14669767 -0.275906 -0.403173
-0.14642668 -0.275884 -0.40314636
-0.14624774 -0.27590725 -0.40312701
-0.14609516 -0.27590144 -0.40310016
-0.14589867 -0.27591667 -0.40309235
-0.14576568 -0.27592 -0.40308568
-0.145413 -0.27589798 -0.403065
-0.14527319 -0.27591041 -0.40309438
-0.14515725 -0.27587524 -0.40309751
-0.14488134 -0.27588952 -0.40308663
-0.14473899 -0.27589035 -0.40305066
-0.14456467 -0.27590367 -0.40305838
-0.14439033 -0.27591032 -0.40304065
-0.14418633 -0.27592134 -0.40302601
-0.1439365 -0.27594352 -0.40300551
-0.14366649 -0.27591324 -0.40300551
-0.14349851 -0.27592301 -0.40300849
-0.14317501 -0.27593601 -0.403007
-0.1386435 -0.27595252 -0.40301001
-0.13847101 -0.275996 -0.40300199
-0.13822199 -0.275933 -0.40301099
-0.13812283 -0.2759015 -0.40303382
-0.13795634 -0.27588168 -0.40303135
-0.13771667 -0.27588168 -0.40304232
-0.13743266 -0.275893 -0.40313634
-0.13730033 -0.27589616 -0.40316668
-0.137189 -0.27582401 -0.40318
-0.13699234 -0.27591631 -0.40319034
-0.149756 -0.27564499 -0.40318599
-0.14866376 -0.27568474 -0.40319377
-0.14846 -0.275644 -0.403198
-0.14833541 -0.27570921 -0.40319318
-0.1480971 -0.27569056 -0.40317619
-0.14789169 -0.27567664 -0.40315497
-0.14772032 -0.27567366 -0.40314901
-0.14745434 -0.27568567 -0.40316033
-0.14728189 -0.27570286 -0.40318453
-0.14711218 -0.27567735 -0.40317333
-0.14686733 -0.27571499 -0.403175
-0.14673467 -0.27572033 -0.40315747
-0.1465252 -0.27571321 -0.40315777
-0.1462535 -0.27570403 -0.403108
-0.14610991 -0.27568981 -0.40308219
-0.14592409 -0.27569503 -0.40305498
-0.14575501 -0.27569833 -0.40306032
-0.1454055 -0.27574998 -0.40305901
-0.14529844 -0.27570644 -0.40307659
-0.14517 -0.2757104 -0.4030672
-0.14487299 -0.27570552 -0.40306303
-0.14473051 -0.27570599 -0.40302402
-0.14455433 -0.27568164 -0.40303102
-0.144383 -0.27576301 -0.40302101
-0.144179 -0.275774 -0.40301299
-0.13813101 -0.27577049 -0.40301025
-0.137707 -0.27569699 -0.40303701
-0.13742399 -0.27570701 -0.40311301
-0.13729149 -0.27571177 -0.40314549
-0.13715883 -0.27567816 -0.40315998
-0.13690899 -0.27569667 -0.40316868
-0.13671599 -0.27564934 -0.40317202
-0.15008199 -0.27544999 -0.40319502
-0.149983 -0.27549133 -0.40317869
-0.14974834 -0.27549565 -0.40317264
-0.1495294 -0.27549499 -0.40317479
-0.14927201 -0.27549836 -0.4031848
-0.14901951 -0.27550501 -0.40319198
-0.14888383 -0.27546033 -0.40318701
-0.14867483 -0.27548116 -0.40317717
-0.148491 -0.27547738 -0.40318218
-0.14828199 -0.27550223 -0.40317637
-0.14809671 -0.27550167 -0.40316191
-0.14789979 -0.27549958 -0.40313578
-0.14774066 -0.27547732 -0.403128
-0.1474455 -0.27550101 -0.40313751
-0.1472888 -0.2754862 -0.40316725
-0.14712733 -0.27547932 -0.40315211
-0.14685734 -0.27549466 -0.403144
-0.14672451 -0.27549902 -0.403126
-0.14649798 -0.27550867 -0.40312219
-0.14624466 -0.27551901 -0.40309235
-0.14611568 -0.27550757 -0.40307534
-0.14590286 -0.27549413 -0.40304127
-0.14574434 -0.27547699 -0.40304634
-0.14531223 -0.27549523 -0.40304133
-0.14515501 -0.27550501 -0.40303636
-0.14486484 -0.27552119 -0.40302828
-0.14472599 -0.27559501 -0.40300399
-0.1445455 -0.27549699 -0.40301198
-0.137703 -0.27558699 -0.40301001
-0.13741599 -0.27552333 -0.403072
-0.13728316 -0.27552631 -0.40311733
-0.13714924 -0.27549201 -0.40315774
-0.136885 -0.27548999 -0.40313381
-0.13669334 -0.27547666 -0.40315101
-0.136558 -0.27540001 -0.40318599
-0.151483 -0.27526 -0.403198
-0.15022451 -0.27528501 -0.40318298
-0.15011659 -0.27528995 -0.40318242
-0.149974 -0.27530599 -0.40316299
-0.14973901 -0.27527666 -0.403124
-0.14951134 -0.27528933 -0.40314031
-0.1492911 -0.27530065 -0.40316343
-0.149011 -0.27532065 -0.40316066
-0.14892341 -0.27530938 -0.40316683
-0.14870949 -0.27529398 -0.40316033
-0.1484818 -0.27528578 -0.40316281
-0.14828126 -0.27529025 -0.40314573
-0.148096 -0.27528936 -0.40312245
-0.14791568 -0.275307 -0.40311381
-0.1477465 -0.27530551 -0.40311566
-0.14743601 -0.27531698 -0.40313134
-0.1472996 -0.2753064 -0.40314803
-0.14711867 -0.27529433 -0.40312782
-0.14684799 -0.27530801 -0.40313351
-0.14671366 -0.27527699 -0.4031072
-0.14653249 -0.27530074 -0.40311402
-0.146299 -0.27528122 -0.40307778
-0.146098 -0.27531204 -0.40305817
-0.14591475 -0.27531537 -0.40303588
-0.1457355 -0.27529252 -0.40301698
-0.14527944 -0.27528542 -0.40301326
-0.14514451 -0.27528331 -0.40301332
-0.1449005 -0.27533752 -0.40301049
-0.13740568 -0.27530202 -0.40304366
-0.13727334 -0.27530566 -0.40308046
-0.13714033 -0.27530634 -0.40313601
-0.13690582 -0.27531117 -0.40311342
-0.13668524 -0.27529275 -0.40311426
-0.136554 -0.27532601 -0.40319201
-0.15202801 -0.27509096 -0.40319499
-0.15197149 -0.27505201 -0.4031935
-0.15166101 -0.27506101 -0.403193
-0.15151241 -0.27509522 -0.40318117
-0.151299 -0.27504551 -0.40319651
-0.15092432 -0.27507401 -0.40318933
-0.15064099 -0.275004 -0.40318999
-0.15029401 -0.2751005 -0.40317133
-0.15011767 -0.27511203 -0.40316868
-0.149965 -0.27512166 -0.40314865
-0.1497305 -0.27509201 -0.403101
-0.1495025 -0.275105 -0.40312025
-0.14932282 -0.27507886 -0.40314081
-0.149148 -0.27510375 -0.40314972
-0.14892951 -0.27509362 -0.40313497
-0.14870112 -0.27510989 -0.403137
-0.1484932 -0.27510682 -0.40313643
-0.14829901 -0.27509725 -0.4031105
-0.14809646 -0.27510017 -0.40310228
-0.1479183 -0.27507514 -0.40309027
-0.14773732 -0.27508584 -0.40307334
-0.147425 -0.27509499 -0.40311566
-0.14728017 -0.27510086 -0.40312615
-0.14710911 -0.27510846 -0.40312222
-0.14683867 -0.27512369 -0.40312299
-0.14670449 -0.27509251 -0.40309852
-0.14656651 -0.27509499 -0.40310949
-0.1462898 -0.275089 -0.40305862
-0.14609464 -0.27509618 -0.40303755
-0.14589581 -0.275148 -0.4030118
-0.145731 -0.27518201 -0.40300101
-0.1452975 -0.27512598 -0.40300149
-0.145163 -0.27509299 -0.40301201
-0.13729675 -0.27509236 -0.40304387
-0.1371315 -0.27508634 -0.40308201
-0.13688201 -0.275105 -0.40308002
-0.13667567 -0.275107 -0.4031105
-0.13654266 -0.27510267 -0.40319002
-0.15204325 -0.27490476 -0.4031755
-0.1519645 -0.27490401 -0.40318
-0.15165199 -0.27487668 -0.40317199
-0.15151133 -0.27488801 -0.40317431
-0.15129256 -0.27489841 -0.40317759
-0.1510884 -0.27488416 -0.40319079
-0.15090761 -0.2749126 -0.4031752
-0.150636 -0.27489299 -0.40316951
-0.15028368 -0.27487949 -0.40313816
-0.15010756 -0.27489102 -0.40313733
-0.14995533 -0.274901 -0.40310931
-0.149721 -0.27490735 -0.40309
-0.14949434 -0.274921 -0.40309319
-0.14931476 -0.27489501 -0.40310225
-0.14918751 -0.2748965 -0.403117
-0.1489279 -0.27488223 -0.40310398
-0.148691 -0.27488911 -0.40310559
-0.14847417 -0.27490187 -0.40310249
-0.14829068 -0.27491316 -0.40308514
-0.14812428 -0.27491382 -0.40308464
-0.147929 -0.27490199 -0.40306017
-0.14772874 -0.27490124 -0.40305001
-0.147415 -0.27487364 -0.40308166
-0.14726983 -0.27487966 -0.40309903
-0.14709888 -0.27488768 -0.40309533
-0.14682934 -0.27490267 -0.403079
-0.146696 -0.27490786 -0.40306887
-0.14655967 -0.27491233 -0.40305266
-0.14631481 -0.27491078 -0.40303677
-0.1461138 -0.27490741 -0.40302259
-0.13725424 -0.2748985 -0.40303397
-0.1371225 -0.27490127 -0.4030655
-0.13690975 -0.27490151 -0.40303779
-0.13669838 -0.27487564 -0.40307602
-0.136527 -0.27480501 -0.40318301
-0.15251124 -0.27464473 -0.40318626
-0.15226066 -0.27469668 -0.40318632
-0.15209739 -0.27469948 -0.40317613
-0.15195534 -0.27472004 -0.40317035
-0.1516435 -0.274692 -0.40315598
-0.15150225 -0.2747035 -0.40316024
-0.151317 -0.27468941 -0.40316859
-0.15112267 -0.27468634 -0.40316793
-0.15088516 -0.27470815 -0.40313664
-0.15062766 -0.27470899 -0.40313968
-0.1503545 -0.2746965 -0.4031055
-0.15011455 -0.27469289 -0.403108
-0.14994533 -0.27468166 -0.40307832
-0.14971067 -0.27468634 -0.40306732
-0.14948365 -0.27470019 -0.40306714
-0.14930683 -0.27471098 -0.40307036
-0.14918 -0.27471301 -0.40307769
-0.14891917 -0.27469835 -0.40307999
-0.148724 -0.27470276 -0.40309975
-0.14849725 -0.27468789 -0.40307736
-0.14827968 -0.27469167 -0.40306666
-0.14810716 -0.27470103 -0.40305924
-0.14792112 -0.2747182 -0.40302134
-0.14772125 -0.27473649 -0.4030205
-0.1474085 -0.27469149 -0.40302598
-0.14726225 -0.27469701 -0.40305525
-0.14707886 -0.27469042 -0.40304556
-0.146819 -0.27468231 -0.40304768
-0.1466855 -0.27468666 -0.40304267
-0.14654966 -0.27469131 -0.40302363
-0.14630561 -0.27471963 -0.4030126
-0.146098 -0.27478999 -0.40300101
-0.137205 -0.27471367 -0.40302435
-0.13711333 -0.27471599 -0.40304837
-0.136939 -0.27473399 -0.40300301
-0.13670117 -0.27469984 -0.40305337
-0.13647674 -0.27469701 -0.40315625
-0.13629125 -0.27470776 -0.40318999
-0.136162 -0.27460301 -0.40319601
-0.135956 -0.27462101 -0.403193
-0.15374 -0.27446899 -0.40318501
-0.15325533 -0.2744945 -0.40317917
-0.15310749 -0.27443001 -0.40319252
-0.15287501 -0.27447298 -0.40319467
-0.152678 -0.27445352 -0.40319401
-0.15250374 -0.27449703 -0.40318054
-0.15231167 -0.27449402 -0.40318167
-0.15210901 -0.27449253 -0.40316853
-0.1519666 -0.2744852 -0.40313163
-0.15163501 -0.274508 -0.40312502
-0.1514935 -0.274519 -0.40313601
-0.151326 -0.27451238 -0.40313703
-0.15110545 -0.27449191 -0.40314266
-0.15087549 -0.27448764 -0.40310112
-0.15061699 -0.27448767 -0.40311801
-0.150346 -0.27451301 -0.40308133
-0.150122 -0.27451393 -0.40307501
-0.14993599 -0.27449599 -0.403063
-0.1497035 -0.27450252 -0.403023
-0.14947751 -0.27455449 -0.403036
-0.149296 -0.27448949 -0.40305281
-0.14916866 -0.27449104 -0.40306833
-0.14891066 -0.27451342 -0.40305769
-0.14871599 -0.27451882 -0.40306917
-0.14851199 -0.27450815 -0.40306142
-0.1482705 -0.27450597 -0.40305549
-0.14808799 -0.27449536 -0.40303856
-0.14787062 -0.27451199 -0.403014
-0.147669 -0.274569 -0.40300399
-0.147403 -0.27458 -0.403009
-0.14727458 -0.2745114 -0.40302858
-0.14712483 -0.27451667 -0.40302417
-0.1468105 -0.27449951 -0.40301901
-0.14669333 -0.27451602 -0.40301403
-0.146543 -0.27454501 -0.40300301
-0.13710383 -0.27449468 -0.40301049
-0.13692901 -0.27454901 -0.40300351
-0.136704 -0.27452463 -0.40303212
-0.13648887 -0.27450511 -0.40307686
-0.13628332 -0.2745235 -0.40315333
-0.13612975 -0.27449399 -0.40316525
-0.135952 -0.2745105 -0.40315849
-0.15370876 -0.27430248 -0.40318775
-0.1532526 -0.27428761 -0.4031724
-0.153102 -0.27428156 -0.40318286
-0.15285483 -0.27430102 -0.40317598
-0.15267085 -0.27430585 -0.40318283
-0.15249483 -0.27431253 -0.40316486
-0.15231867 -0.27432218 -0.40316263
-0.15210122 -0.27429056 -0.40313613
-0.1519625 -0.27428001 -0.40309981
-0.15162432 -0.27428734 -0.40310434
-0.15148333 -0.27429816 -0.40310419
-0.15130816 -0.27430668 -0.40310833
-0.15111209 -0.27431089 -0.40311626
-0.15088899 -0.27431467 -0.40308902
-0.150672 -0.27429399 -0.40308833
-0.15033467 -0.27429 -0.40307435
-0.15010542 -0.27430072 -0.40304181
-0.149928 -0.27431333 -0.40302935
-0.1496965 -0.27435499 -0.40300351
-0.14927366 -0.27431902 -0.40302166
-0.14916 -0.27430701 -0.40304899
-0.14888255 -0.27430329 -0.40303856
-0.14870584 -0.27429849 -0.40303454
-0.14851771 -0.27431843 -0.40302917
-0.14829512 -0.27431136 -0.40303913
-0.14811912 -0.27431762 -0.40303525
-0.14713161 -0.27432498 -0.40300679
-0.146806 -0.274389 -0.40300101
-0.14671899 -0.27439401 -0.40300301
-0.13674301 -0.27434066 -0.40300834
-0.13647957 -0.27430373 -0.40305257
-0.136274 -0.27430266 -0.40310535
-0.13612117 -0.27430916 -0.40314102
-0.13588484 -0.27432534 -0.40315601
-0.13571133 -0.27428102 -0.40316632
-0.1538953 -0.2740854 -0.40318927
-0.15367617 -0.27410015 -0.40317318
-0.15354234 -0.27410734 -0.40318534
-0.15325034 -0.27412602 -0.40315533
-0.153119 -0.27409488 -0.40315562
-0.15284418 -0.27408001 -0.40315601
-0.15266083 -0.27408534 -0.40314686
-0.15248449 -0.27409133 -0.40314302
-0.15230884 -0.27410099 -0.40313065
-0.15210727 -0.27410993 -0.40311489
-0.15195376 -0.27409625 -0.40307826
-0.1516165 -0.27410349 -0.40307599
-0.151473 -0.27407682 -0.40308416
-0.151298 -0.27408549 -0.40307888
-0.15109535 -0.27409747 -0.40309179
-0.150924 -0.27411532 -0.40306798
-0.15071559 -0.27413681 -0.40306741
-0.15059701 -0.274048 -0.403043
-0.15032649 -0.27410752 -0.40303451
-0.15008844 -0.27408683 -0.40302089
-0.1492825 -0.27419698 -0.40300399
-0.149156 -0.27419701 -0.40301701
-0.14886767 -0.27412131 -0.40301466
-0.14868739 -0.27409282 -0.40300578
-0.14853001 -0.27415851 -0.4030095
-0.14832275 -0.27415451 -0.40300727
-0.14810726 -0.27416176 -0.40300775
-0.13643767 -0.27412298 -0.40301499
-0.13626467 -0.27408183 -0.40305766
-0.13611101 -0.27408767 -0.403106
-0.13587283 -0.27410117 -0.40315819
-0.13568451 -0.27410886 -0.40314865
-0.135538 -0.27407199 -0.40318048
-0.15444851 -0.27387398 -0.403184
-0.1540605 -0.27385551 -0.40319449
-0.15389346 -0.27389625 -0.40316889
-0.15366584 -0.27387902 -0.40314749
-0.15353267 -0.27388868 -0.40314531
-0.153266 -0.27390632 -0.40313467
-0.15311025 -0.27391073 -0.40313527
-0.15284801 -0.27390733 -0.40313664
-0.15268138 -0.2738924 -0.40312439
-0.15247549 -0.27390701 -0.40312275
-0.152298 -0.2738795 -0.40311384
-0.15209033 -0.27389657 -0.40309557
-0.15194534 -0.27391216 -0.40305385
-0.15160866 -0.27392066 -0.40303567
-0.15146525 -0.27389425 -0.40304574
-0.151289 -0.27390176 -0.4030605
-0.15107611 -0.27389297 -0.4030686
-0.15091367 -0.27389434 -0.40303698
-0.15078101 -0.27390099 -0.40304101
-0.15058933 -0.2739 -0.40304565
-0.150318 -0.27392301 -0.40301999
-0.150116 -0.27396649 -0.40300351
-0.13624233 -0.27391031 -0.40303066
-0.13610275 -0.27390349 -0.40307248
-0.13586484 -0.27388215 -0.4030875
-0.13567317 -0.27388534 -0.4031395
-0.1354994 -0.27387279 -0.40317184
-0.15443935 -0.273689 -0.40318164
-0.15409234 -0.27370712 -0.4031752
-0.15392868 -0.27372301 -0.4031482
-0.153704 -0.27369365 -0.40312335
-0.153523 -0.27370301 -0.403144
-0.15325634 -0.27368534 -0.40309897
-0.1531 -0.27369058 -0.40310502
-0.152863 -0.27371201 -0.40310764
-0.15271972 -0.27372715 -0.40310717
-0.15249975 -0.27371138 -0.40310088
-0.15228926 -0.2736955 -0.40309298
-0.1520716 -0.27369201 -0.40306431
-0.15193449 -0.273691 -0.4030365
-0.151601 -0.27377301 -0.403036
-0.151491 -0.27369839 -0.40302649
-0.15128033 -0.27371716 -0.40303716
-0.15108055 -0.27372098 -0.40304291
-0.15090699 -0.27374899 -0.40301099
-0.15077251 -0.27371699 -0.40301698
-0.1505805 -0.27371597 -0.40302002
-0.150307 -0.273702 -0.40300333
-0.13624725 -0.2737115 -0.40301627
-0.13610901 -0.27370629 -0.4030537
-0.135913 -0.27369499 -0.403072
-0.13570882 -0.27369919 -0.40310535
-0.13548325 -0.27370203 -0.403162
-0.135253 -0.27363998 -0.40319401
-0.15443 -0.27350399 -0.40316802
-0.15408157 -0.27348635 -0.40315467
-0.15391833 -0.27350211 -0.40312001
-0.15370774 -0.273518 -0.40310186
-0.15353599 -0.27349925 -0.40310901
-0.15324849 -0.2735025 -0.40305901
-0.15308189 -0.27349511 -0.40308735
-0.15285267 -0.273491 -0.40307868
-0.1527285 -0.27349567 -0.40308604
-0.15250134 -0.27349976 -0.40306869
-0.15228066 -0.27351168 -0.40306985
-0.15209089 -0.27351791 -0.40306032
-0.15194 -0.273498 -0.40302819
-0.15151875 -0.27353877 -0.40301272
-0.15129916 -0.27350816 -0.40301049
-0.15106267 -0.27355701 -0.40301934
-0.15099999 -0.27359501 -0.403007
-0.13628399 -0.27356201 -0.40300301
-0.13611113 -0.27350375 -0.40302688
-0.13590634 -0.27351299 -0.40301868
-0.13572885 -0.2735227 -0.40309
-0.13550512 -0.27350762 -0.40313911
-0.13530421 -0.27351022 -0.40318841
-0.13516301 -0.27349299 -0.403198
-0.15509599 -0.27321199 -0.40319899
-0.15490967 -0.27330023 -0.40318778
-0.154774 -0.27330565 -0.40317968
-0.15450834 -0.27331284 -0.40316901
-0.15407284 -0.27330235 -0.40313601
-0.15390767 -0.27328098 -0.403099
-0.15373133 -0.2732875 -0.40307832
-0.15354818 -0.27329433 -0.40308583
-0.15323932 -0.27331832 -0.40304968
-0.153089 -0.27331427 -0.40306872
-0.15284449 -0.27330703 -0.40305603
-0.1527092 -0.27329141 -0.4030486
-0.15249144 -0.2732996 -0.4030523
-0.15228884 -0.27327985 -0.40304312
-0.15208589 -0.27330402 -0.40303868
-0.151963 -0.2733492 -0.40301743
-0.13606566 -0.27332267 -0.40301731
-0.13589799 -0.27336401 -0.40301299
-0.13573934 -0.273289 -0.40305832
-0.13550699 -0.27329689 -0.40308103
-0.135285 -0.27330416 -0.40315831
-0.13515 -0.27323201 -0.40319401
-0.15568399 -0.27303901 -0.40319899
-0.155451 -0.27306965 -0.40319034
-0.15524051 -0.27309299 -0.403193
-0.155091 -0.27310252 -0.40318549
-0.15490933 -0.2730782 -0.40316501
-0.15476334 -0.27308467 -0.40315667
-0.15449817 -0.27309236 -0.40313867
-0.15406388 -0.27311814 -0.40311748
-0.153899 -0.2730965 -0.4030757
-0.15372224 -0.273103 -0.40306348
-0.15352979 -0.27308899 -0.40306002
-0.153229 -0.27309799 -0.40302566
-0.15309767 -0.27309844 -0.40304378
-0.15291549 -0.27311599 -0.40303648
-0.15272161 -0.27311283 -0.40302381
-0.1525366 -0.27311319 -0.40302318
-0.15230584 -0.27310565 -0.40301999
-0.15207534 -0.273083 -0.40301722
-0.151985 -0.27317101 -0.40300599
-0.13573076 -0.27310425 -0.40303501
-0.1354975 -0.27311116 -0.40307334
-0.13527633 -0.27308452 -0.40310034
-0.13514401 -0.27308467 -0.40315136
-0.15591167 -0.27283567 -0.40319231
-0.15571967 -0.27288952 -0.40318498
-0.15550289 -0.27289465 -0.40317312
-0.15523234 -0.27291036 -0.40316665
-0.15508266 -0.27291933 -0.40315866
-0.15492433 -0.27290452 -0.40314782
-0.15475449 -0.27289897 -0.403146
-0.15451933 -0.27291834 -0.40312698
-0.15439799 -0.27284098 -0.40311101
-0.15408233 -0.27289584 -0.40310085
-0.15391649 -0.27290991 -0.4030647
-0.15371366 -0.27291951 -0.40304232
-0.15353899 -0.2729114 -0.40304065
-0.15321733 -0.27287534 -0.40301767
-0.15307356 -0.27289075 -0.40301386
-0.1529218 -0.27290881 -0.40300861
-0.15272824 -0.2729235 -0.40301204
-0.152476 -0.27298301 -0.403016
-0.15230025 -0.27297628 -0.40300697
-0.1357148 -0.27293342 -0.4030264
-0.13548788 -0.27292421 -0.40307081
-0.13526601 -0.27289599 -0.40311
-0.1350995 -0.27289748 -0.40316099
-0.1558855 -0.272701 -0.40317875
-0.155711 -0.27270499 -0.40315649
-0.15549342 -0.272695 -0.40315172
-0.155267 -0.27266902 -0.40312123
-0.15507233 -0.27269801 -0.403139
-0.15490691 -0.27270919 -0.40312219
-0.154746 -0.272717 -0.40311265
-0.15456866 -0.27271834 -0.40310368
-0.1543905 -0.27269199 -0.40310252
-0.154063 -0.27268898 -0.40308324
-0.15390559 -0.27268842 -0.4030486
-0.15371361 -0.27271321 -0.40301481
-0.15352066 -0.27270582 -0.4030135
-0.15304567 -0.27270833 -0.40300766
-0.152978 -0.27274001 -0.40300101
-0.13569173 -0.27269626 -0.40300849
-0.13550028 -0.27271241 -0.40304416
-0.13529201 -0.27269948 -0.40309173
-0.1350905 -0.27271202 -0.40314898
-0.15623933 -0.27243966 -0.40318632
-0.15610449 -0.27249447 -0.40319017
-0.15587716 -0.27251717 -0.40315402
-0.15570234 -0.27252117 -0.40313685
-0.15553918 -0.27250859 -0.40312982
-0.155304 -0.27250001 -0.4031105
-0.15506268 -0.27247933 -0.40309396
-0.15489709 -0.27248934 -0.4030863
-0.154736 -0.27249601 -0.40308604
-0.15455867 -0.27249932 -0.40306434
-0.15438199 -0.27250865 -0.4030827
-0.1540736 -0.27251202 -0.40305939
-0.15389688 -0.27250448 -0.40302625
-0.15346999 -0.27256301 -0.40300101
-0.153025 -0.27258599 -0.40300101
-0.13550435 -0.27247733 -0.40304217
-0.13532071 -0.27249414 -0.40307787
-0.13510776 -0.2724795 -0.40313464
-0.15646601 -0.27226001 -0.40319201
-0.1562776 -0.27229601 -0.40316921
-0.15608861 -0.27228817 -0.40316421
-0.15586667 -0.2722967 -0.40312216
-0.155692 -0.27230081 -0.40311167
-0.15552066 -0.27230498 -0.40309501
-0.15529583 -0.27231702 -0.40308535
-0.155054 -0.272295 -0.40307498
-0.15488836 -0.27230576 -0.403063
-0.15472601 -0.27227667 -0.40304065
-0.154548 -0.27227736 -0.403047
-0.15437132 -0.27228734 -0.40305567
-0.15405469 -0.27230683 -0.40303198
-0.15394899 -0.2723296 -0.40301579
-0.13549525 -0.27229175 -0.403036
-0.135331 -0.27229649 -0.40306875
-0.13510866 -0.27230182 -0.40312719
-0.1566385 -0.272062 -0.40318501
-0.15649481 -0.27209443 -0.4031828
-0.15633583 -0.27211651 -0.40316764
-0.15613151 -0.27211663 -0.403124
-0.15588725 -0.27209398 -0.40309578
-0.15571025 -0.27207062 -0.403081
-0.15551017 -0.27208364 -0.40307084
-0.155376 -0.27209067 -0.40305266
-0.15512098 -0.27210802 -0.40303898
-0.1548959 -0.27212781 -0.40304908
-0.15475801 -0.27209097 -0.40302202
-0.1545395 -0.27209401 -0.40302601
-0.15436199 -0.27210301 -0.40304798
-0.15409033 -0.27208233 -0.40301999
-0.1539765 -0.27208817 -0.40301302
-0.135637 -0.272026 -0.40300599
-0.1354855 -0.27210602 -0.4030275
-0.135322 -0.27211016 -0.40305948
-0.13509911 -0.27211553 -0.40311891
-0.15670855 -0.27187544 -0.40318069
-0.15649416 -0.27188668 -0.40316465
-0.1563255 -0.2718955 -0.40314436
-0.15611213 -0.27190357 -0.4031201
-0.15590701 -0.271891 -0.4030875
-0.15571201 -0.27189586 -0.40305868
-0.15550199 -0.27190077 -0.40304101
-0.15536651 -0.27190602 -0.40304601
-0.15511 -0.2718865 -0.40302119
-0.15489544 -0.27189934 -0.40302908
-0.15475759 -0.27192038 -0.40301681
-0.15453033 -0.271909 -0.40301403
-0.15435332 -0.27191934 -0.40302536
-0.153989 -0.27193901 -0.403009
-0.13563301 -0.27195001 -0.40300199
-0.13545275 -0.27189949 -0.40302727
-0.13531034 -0.27188668 -0.40305331
-0.13508734 -0.27189168 -0.40311703
-0.134855 -0.271826 -0.4032
-0.15703632 -0.27165768 -0.40318766
-0.1569235 -0.27167797 -0.40319198
-0.15669982 -0.27169168 -0.40316281
-0.15648501 -0.27170274 -0.40314502
-0.1563046 -0.27168882 -0.40313601
-0.15610224 -0.27168432 -0.40308535
-0.15589866 -0.27170634 -0.40306199
-0.15570344 -0.27171281 -0.4030329
-0.1554935 -0.27171698 -0.40302029
-0.15535867 -0.27172366 -0.40301266
-0.15512633 -0.27171269 -0.4030107
-0.15489925 -0.27173126 -0.40301874
-0.154782 -0.27175701 -0.40300599
-0.154347 -0.27177301 -0.40300199
-0.1354205 -0.27169597 -0.40302348
-0.13530074 -0.2717005 -0.40304726
-0.13507783 -0.27170551 -0.40311217
-0.134848 -0.27167666 -0.40318897
-0.15725499 -0.27150202 -0.40319252
-0.157039 -0.27148518 -0.40317747
-0.156939 -0.27148733 -0.40318
-0.15668999 -0.27150634 -0.40316156
-0.15647584 -0.27151832 -0.40313497
-0.15631661 -0.27151218 -0.40311837
-0.15609302 -0.27149931 -0.40307686
-0.15588701 -0.271485 -0.40305433
-0.15569212 -0.27149165 -0.40302145
-0.15549199 -0.27150959 -0.40301099
-0.154929 -0.27159801 -0.403007
-0.13541101 -0.27150834 -0.40301934
-0.13529117 -0.27151367 -0.40304467
-0.13510518 -0.27151984 -0.40309465
-0.1349318 -0.27150661 -0.4031536
-0.15706301 -0.271299 -0.403191
-0.15695117 -0.27130201 -0.40317765
-0.15668949 -0.271294 -0.40314701
-0.15648372 -0.27128473 -0.4031243
-0.15629616 -0.27130547 -0.403101
-0.15608367 -0.27131423 -0.40307233
-0.15587801 -0.27130002 -0.403043
-0.15569961 -0.27131379 -0.40301275
-0.15554534 -0.27129567 -0.40300432
-0.13540401 -0.27136001 -0.40300199
-0.13527933 -0.27129003 -0.40304384
-0.13509333 -0.27129567 -0.40309882
-0.13490599 -0.27129868 -0.40315664
-0.15705334 -0.27111167 -0.40319434
-0.15694167 -0.27111721 -0.40317377
-0.156709 -0.27109924 -0.40314552
-0.1564873 -0.27109441 -0.40310985
-0.15628515 -0.27108383 -0.40308985
-0.15607211 -0.27109244 -0.40306711
-0.15586799 -0.27111533 -0.40304199
-0.15571401 -0.27112034 -0.40301403
-0.155513 -0.27119601 -0.40300101
-0.13527 -0.27110398 -0.40303051
-0.13508326 -0.271108 -0.40310201
-0.13489525 -0.27110976 -0.4031705
-0.157043 -0.27089301 -0.40316299
-0.15693134 -0.27089602 -0.40314621
-0.15670116 -0.27091733 -0.40310815
-0.15651771 -0.27092174 -0.40310845
-0.1563002 -0.2708914 -0.40307981
-0.15609574 -0.27090675 -0.40305451
-0.1559132 -0.2709004 -0.4030374
-0.155743 -0.270971 -0.40300801
-0.13525081 -0.27090359 -0.4030222
-0.13507333 -0.27092168 -0.40309966
-0.13496201 -0.27091733 -0.4031547
-0.15726967 -0.270679 -0.40318799
-0.15703401 -0.27070802 -0.40315199
-0.15691386 -0.27069557 -0.40314904
-0.15668951 -0.27069399 -0.40311253
-0.15652584 -0.27069783 -0.40309763
-0.156308 -0.27071393 -0.40306714
-0.156087 -0.27072302 -0.40303752
-0.1559312 -0.27071819 -0.40304399
-0.13529912 -0.27069899 -0.40303212
-0.13508157 -0.27068657 -0.40307829
-0.13494967 -0.27069166 -0.40315899
-0.1574645 -0.27045602 -0.40319449
-0.157299 -0.27051312 -0.40318713
-0.15706874 -0.27049977 -0.40314624
-0.15691738 -0.27051628 -0.40314108
-0.15668 -0.270509 -0.40310475
-0.15650639 -0.27049059 -0.40308779
-0.15629621 -0.27049133 -0.40307125
-0.15607516 -0.27050015 -0.40304151
-0.1559075 -0.27051434 -0.40302417
-0.1353215 -0.27050102 -0.40302625
-0.1350985 -0.27050969 -0.40307781
-0.13494 -0.27050501 -0.403157
-0.157489 -0.27029499 -0.40318966
-0.15731934 -0.27028233 -0.40318069
-0.15710266 -0.27029082 -0.40314734
-0.15690088 -0.27030367 -0.40312991
-0.15667017 -0.27032402 -0.40310049
-0.15651479 -0.2703118 -0.403092
-0.15633175 -0.27030376 -0.40307972
-0.15609649 -0.27028564 -0.40304315
-0.155964 -0.27028033 -0.40304765
-0.13531117 -0.27031267 -0.40303516
-0.13509925 -0.27033025 -0.40309164
-0.13494651 -0.27030051 -0.40314347
-0.157626 -0.27008802 -0.40319401
-0.15749733 -0.2701225 -0.40317985
-0.15731025 -0.27009797 -0.40316722
-0.15709324 -0.27010575 -0.40314099
-0.15690029 -0.27007353 -0.4031263
-0.15665852 -0.27010098 -0.40310201
-0.15649502 -0.27010432 -0.40308818
-0.15632318 -0.27012017 -0.40305999
-0.15611029 -0.27010557 -0.40304232
-0.1558712 -0.27008519 -0.40302181
-0.135424 -0.2700907 -0.40300432
-0.1352995 -0.27008936 -0.40303349
-0.1351185 -0.2700935 -0.40311232
-0.13495184 -0.27009335 -0.40315935
-0.15766659 -0.2699154 -0.40319681
-0.15748534 -0.26989999 -0.40317717
-0.15730032 -0.26991251 -0.40316448
-0.15717334 -0.26991034 -0.40314531
-0.15690812 -0.26989588 -0.40311837
-0.15664701 -0.26987836 -0.40310037
-0.1564835 -0.26988217 -0.40308583
-0.15631099 -0.26989684 -0.40306553
-0.15608758 -0.26990536 -0.40303817
-0.15591051 -0.26991552 -0.40303251
-0.13548724 -0.26987949 -0.40301174
-0.13528825 -0.26989925 -0.40305552
-0.13510676 -0.26990372 -0.40314251
-0.13495266 -0.26991698 -0.40318099
-0.15764333 -0.26962867 -0.40319368
-0.15747383 -0.26967701 -0.40317354
-0.15728934 -0.2696895 -0.40315685
-0.15716167 -0.26968801 -0.40315032
-0.15689817 -0.26970974 -0.40312174
-0.15664899 -0.2697033 -0.4031167
-0.15649821 -0.26968798 -0.40309563
-0.1562928 -0.26968899 -0.40306401
-0.15611733 -0.26968217 -0.4030275
-0.15596418 -0.26968703 -0.40302801
-0.13585199 -0.26961601 -0.40301299
-0.13553214 -0.26971886 -0.40301457
-0.1352714 -0.26972723 -0.40306664
-0.13509884 -0.26971915 -0.40310717
-0.134966 -0.269719 -0.40316749
-0.157719 -0.26949102 -0.4031885
-0.15750818 -0.26949266 -0.40317234
-0.15727949 -0.26950502 -0.40315801
-0.157152 -0.269503 -0.40314251
-0.15688626 -0.26948702 -0.40312529
-0.156663 -0.26950499 -0.40311936
-0.1565059 -0.26950911 -0.4030968
-0.15629821 -0.26951098 -0.40306038
-0.15610825 -0.26949751 -0.40301499
-0.15595524 -0.269503 -0.40301424
-0.13589066 -0.26948732 -0.40301332
-0.13569301 -0.2694777 -0.40303567
-0.1355395 -0.26951325 -0.40308052
-0.13533084 -0.26947016 -0.40310767
-0.13508549 -0.26942551 -0.40305901
-0.134891 -0.26950201 -0.40307999
-0.15770967 -0.26930597 -0.40317801
-0.15749878 -0.26930797 -0.40316558
-0.15726984 -0.26931897 -0.40315381
-0.157142 -0.26931533 -0.40314734
-0.15687664 -0.26930124 -0.40312004
-0.156652 -0.26928201 -0.40310931
-0.15649411 -0.26928648 -0.40309608
-0.15628017 -0.26930332 -0.40305901
-0.15609799 -0.26931068 -0.40301967
-0.15594549 -0.26931801 -0.40300533
-0.13589001 -0.26931089 -0.4030346
-0.1356795 -0.26928499 -0.40309149
-0.13552716 -0.26932183 -0.40312919
-0.13534567 -0.269301 -0.40316799
-0.135028 -0.26934201 -0.40316999
-0.15769801 -0.26908299 -0.40317667
-0.157533 -0.26908448 -0.40317765
-0.15730311 -0.26909146 -0.40316191
-0.15713 -0.26909268 -0.40314803
-0.15689135 -0.26911277 -0.40312588
-0.1567324 -0.26911241 -0.40311641
-0.15652774 -0.26909852 -0.40310377
-0.15630038 -0.26908588 -0.40307203
-0.15608618 -0.26908833 -0.40302148
-0.15593433 -0.26909468 -0.40300533
-0.136234 -0.26906699 -0.40300101
-0.136078 -0.26909834 -0.40305534
-0.13587463 -0.26908886 -0.40311164
-0.13566799 -0.26909399 -0.40313134
-0.1355212 -0.26910701 -0.40317559
-0.13536599 -0.269173 -0.40319899
-0.15768799 -0.268897 -0.40317601
-0.1575225 -0.2688975 -0.40318924
-0.15727985 -0.26889056 -0.40316626
-0.15711999 -0.2689065 -0.40315998
-0.15687911 -0.2688888 -0.40313411
-0.15670566 -0.26890367 -0.4031305
-0.15651751 -0.26891199 -0.40311003
-0.15631315 -0.26890329 -0.40308383
-0.156075 -0.26889998 -0.40305099
-0.1559235 -0.26890752 -0.40301949
-0.13624349 -0.26889575 -0.4030515
-0.13608067 -0.26891583 -0.40312484
-0.13590081 -0.26892143 -0.40316758
-0.13565549 -0.268902 -0.40318501
-0.15767799 -0.26871035 -0.40318835
-0.15751283 -0.26871184 -0.40318766
-0.15732583 -0.26871452 -0.40317765
-0.1571434 -0.26870719 -0.40317637
-0.1568685 -0.26870164 -0.40315184
-0.1566792 -0.2686958 -0.40314323
-0.15650466 -0.26868734 -0.40313235
-0.15628912 -0.26870093 -0.40310889
-0.15606333 -0.26871049 -0.4030855
-0.15591182 -0.26871884 -0.40305713
-0.15566267 -0.26869434 -0.40301168
-0.155551 -0.26870799 -0.40300798
-0.155332 -0.268639 -0.403005
-0.155195 -0.26860699 -0.403005
-0.136471 -0.26861799 -0.40301499
-0.13629566 -0.26868522 -0.40308899
-0.13608466 -0.26873568 -0.40316567
-0.135934 -0.268765 -0.403193
-0.15766899 -0.26856101 -0.403198
-0.15731749 -0.268565 -0.40319598
-0.15714981 -0.26851398 -0.40318823
-0.15685789 -0.26851365 -0.40316722
-0.1566982 -0.26851261 -0.4031674
-0.15649375 -0.26849926 -0.40315351
-0.15628983 -0.26850051 -0.403126
-0.15609899 -0.26848429 -0.40310788
-0.15591256 -0.26848084 -0.40309802
-0.15567233 -0.268518 -0.403034
-0.1555056 -0.2685082 -0.40301123
-0.15533401 -0.26851019 -0.40301663
-0.155128 -0.26848567 -0.40300664
-0.154856 -0.26847634 -0.40300903
-0.154763 -0.26844299 -0.40300602
-0.154347 -0.268419 -0.40301001
-0.15417251 -0.26846701 -0.40301099
-0.13676199 -0.26844999 -0.40300599
-0.1364615 -0.26850051 -0.40307349
-0.13634068 -0.26850167 -0.40316233
-0.157176 -0.268354 -0.40319499
-0.15687199 -0.2683275 -0.4031865
-0.1567385 -0.26832119 -0.40318784
-0.15651074 -0.26830164 -0.40317887
-0.15631481 -0.26830539 -0.40316296
-0.15613426 -0.26829123 -0.40316674
-0.15592201 -0.26830134 -0.40313414
-0.15568851 -0.26830903 -0.40308225
-0.15551187 -0.26828563 -0.40306199
-0.15531217 -0.26829985 -0.40304616
-0.1551335 -0.2683275 -0.40303475
-0.15492 -0.26828501 -0.40302899
-0.15473075 -0.268296 -0.403016
-0.15454467 -0.26829267 -0.40301535
-0.15434 -0.268307 -0.40302598
-0.154163 -0.26831502 -0.40304399
-0.15388751 -0.26825601 -0.40304899
-0.15378065 -0.26825002 -0.40302232
-0.1522705 -0.26822799 -0.40301049
-0.13686974 -0.26827624 -0.4030135
-0.13674217 -0.26829717 -0.40304765
-0.1365072 -0.2682918 -0.40310758
-0.13635866 -0.26829901 -0.40317833
-0.156432 -0.268159 -0.4032
-0.156297 -0.26816949 -0.403193
-0.15609899 -0.26812276 -0.40319026
-0.15591089 -0.2681129 -0.40315431
-0.155706 -0.26810002 -0.40311599
-0.15551184 -0.26810899 -0.40307185
-0.1553005 -0.26811075 -0.40307799
-0.155164 -0.26808003 -0.40307269
-0.15490817 -0.26809564 -0.40306604
-0.15469532 -0.26811042 -0.40304515
-0.1545475 -0.268116 -0.40305099
-0.15432833 -0.26811701 -0.40306234
-0.15415032 -0.26812366 -0.40309396
-0.1538775 -0.26810199 -0.40309298
-0.1537046 -0.26809481 -0.40305981
-0.15350029 -0.26807114 -0.40302658
-0.15327451 -0.26802802 -0.40300602
-0.15257099 -0.26807499 -0.40300101
-0.15230624 -0.26808763 -0.40302825
-0.15212801 -0.26805049 -0.40301299
-0.137306 -0.268049 -0.403016
-0.137025 -0.268062 -0.40303001
-0.13689449 -0.26810098 -0.4030695
-0.13676149 -0.26809999 -0.40312076
-0.136535 -0.26812467 -0.40316138
-0.15589926 -0.26794273 -0.40318701
-0.15569432 -0.26791033 -0.4031547
-0.15549856 -0.26791582 -0.40313709
-0.15528867 -0.26792017 -0.40312198
-0.1551515 -0.2678875 -0.403128
-0.15489626 -0.26790527 -0.40310502
-0.15467526 -0.26789126 -0.4030979
-0.154532 -0.26788583 -0.40311384
-0.154312 -0.26788533 -0.40314233
-0.154137 -0.26793051 -0.40316701
-0.15386434 -0.26791033 -0.40315199
-0.1537116 -0.26790753 -0.40312117
-0.1535058 -0.26790804 -0.40307379
-0.15328015 -0.26788616 -0.40305534
-0.15287425 -0.26788837 -0.40303102
-0.1527542 -0.26789239 -0.40302721
-0.15252501 -0.26792184 -0.40304533
-0.15229501 -0.26790342 -0.40306562
-0.1520755 -0.26789999 -0.40304452
-0.15185851 -0.26785827 -0.40302575
-0.15172425 -0.26781148 -0.40304926
-0.15159801 -0.26782 -0.40303501
-0.151289 -0.26783001 -0.403009
-0.15110333 -0.26784334 -0.40301368
-0.15049726 -0.26786298 -0.4030205
-0.150273 -0.26788101 -0.40303031
-0.1499175 -0.26782548 -0.403032
-0.1497675 -0.26783499 -0.40302199
-0.14848849 -0.26782501 -0.40300852
-0.14827439 -0.26789239 -0.4030188
-0.14810801 -0.26787877 -0.40303198
-0.147963 -0.26785299 -0.40300599
-0.14628001 -0.26784101 -0.403014
-0.146192 -0.26788402 -0.403009
-0.1378305 -0.26791102 -0.40301749
-0.13770588 -0.26789674 -0.40304527
-0.13753366 -0.267892 -0.403072
-0.137293 -0.26789033 -0.40310001
-0.13701199 -0.26790068 -0.40313467
-0.1368825 -0.26794249 -0.403148
-0.1367525 -0.26798001 -0.40318352
-0.136576 -0.26799601 -0.40318
-0.15568499 -0.26775801 -0.40318301
-0.15548615 -0.26772514 -0.40318617
-0.155274 -0.267692 -0.40317297
-0.155139 -0.26769799 -0.40316999
-0.15488434 -0.26771501 -0.4031488
-0.15467615 -0.26770586 -0.40314859
-0.15452 -0.26769599 -0.40315852
-0.1543005 -0.26769599 -0.40318
-0.153855 -0.267757 -0.40319401
-0.15367034 -0.26771358 -0.40317088
-0.15351851 -0.26770651 -0.4031435
-0.153309 -0.26770765 -0.40311074
-0.15287083 -0.26770568 -0.40308467
-0.15273039 -0.26769441 -0.40307742
-0.15250982 -0.267692 -0.40311399
-0.15232499 -0.26769432 -0.40313184
-0.15210533 -0.26770267 -0.4031218
-0.1518902 -0.26770219 -0.4031066
-0.1517155 -0.26769435 -0.40310287
-0.15158999 -0.2677035 -0.40308201
-0.151281 -0.26771402 -0.40305501
-0.15110487 -0.26769838 -0.40305623
-0.150895 -0.26768899 -0.40304214
-0.15074338 -0.26770198 -0.4030329
-0.15051825 -0.26768726 -0.40307701
-0.15025899 -0.26768452 -0.403119
-0.14990801 -0.26770726 -0.40310052
-0.14972551 -0.26769349 -0.40307063
-0.14957833 -0.26769331 -0.40305734
-0.14934467 -0.26769999 -0.40302733
-0.14911601 -0.26767674 -0.4030275
-0.1488968 -0.26768082 -0.40302563
-0.14861649 -0.26770848 -0.40302899
-0.14848216 -0.26771 -0.40305436
-0.1482705 -0.26771349 -0.403081
-0.14808539 -0.26770082 -0.40310341
-0.14788699 -0.267699 -0.40307131
