# .PCD v0.7 - Point Cloud Data file format
VERSION 0.7
FIELDS x y z
SIZE 4 4 4
TYPE F F F
COUNT 1 1 1
WIDTH 1068
HEIGHT 1
VIEWPOINT 0 0 0 1 0 0 0
POINTS 1068
DATA ascii
0.33579138 0.070784986 0.13540044
0.33244181 0.061098691 0.13422641
0.33660558 0.075183436 0.13570392
0.33496237 0.070830405 0.13536462
0.31834862 0.023972243 0.13024527
0.31313443 0.0096164867 0.12884656
0.33668232 0.078522556 0.13623223
0.33653834 0.07831452 0.13630536
0.33636308 0.077882886 0.13628855
0.33622539 0.077674225 0.13635272
0.33403403 0.070880964 0.13531393
0.31789005 0.024315223 0.12972629
0.35457689 0.13463017 0.14348944
0.33278874 0.070728771 0.13532174
0.31655782 0.024487033 0.13004488
0.31652671 0.024233341 0.12993684
0.31296909 0.01472351 0.12915158
0.3128303 0.014529072 0.1292257
0.31117219 0.01023715 0.128943
0.35373244 0.13392097 0.14288287
0.31162325 0.01419194 0.12933555
0.33860523 0.09513133 0.13789317
0.33661193 0.089327335 0.13717093
0.33045086 0.072433308 0.1355589
0.32682115 0.061402466 0.13396955
0.32243121 0.049722053 0.13303277
0.31842083 0.038818665 0.1320388
0.30839825 0.010124072 0.12869722
0.33621728 0.091975823 0.13797513
0.31248605 0.023279198 0.12961575
0.31118518 0.019903746 0.12938908
0.30934876 0.015175842 0.12909114
0.30921611 0.014977746 0.12915477
0.309172 0.014726058 0.12906563
0.30744335 0.00991451 0.12857094
0.33594871 0.091988035 0.13727714
0.32125047 0.051387999 0.13325554
0.31390595 0.028932363 0.12995937
0.31246424 0.02590958 0.13013428
0.30877399 0.015392184 0.12893233
0.30857995 0.01495257 0.12893641
0.3286773 0.07474108 0.1356442
0.31285781 0.029042952 0.13012856
0.30750683 0.014814697 0.12899229
0.30560008 0.0095526576 0.12847349
0.33310971 0.089513212 0.13700257
0.30671832 0.015061386 0.12885958
0.31755969 0.048640113 0.13277009
0.30862677 0.025675409 0.12997892
0.30561781 0.019270346 0.1290381
0.3232708 0.072364844 0.13517588
0.3010045 0.0095986947 0.12833455
0.33026877 0.095572039 0.13771582
0.30602956 0.026212253 0.12965521
0.3038092 0.020352867 0.12921008
0.30358383 0.019383065 0.12894237
0.3214108 0.072912142 0.13512215
0.32120451 0.072252281 0.1350123
0.3211824 0.072023615 0.1349068
0.31928524 0.067245729 0.13466212
0.31924897 0.067017481 0.13457617
0.31109208 0.043475892 0.13174477
0.30491656 0.026117656 0.129877
0.3029758 0.019833021 0.12879774
0.3028526 0.019628257 0.12884447
0.29897881 0.009715423 0.12825179
0.31862301 0.067261115 0.13447747
0.30209586 0.019661948 0.12879971
0.32132584 0.07734742 0.13543138
0.31971747 0.072998814 0.1350472
0.31969523 0.072770573 0.13494205
0.30103093 0.019514285 0.12882572
0.32469666 0.089735083 0.13667101
0.30223617 0.0259597 0.12949604
0.29799002 0.01465518 0.12858596
0.29792169 0.014138423 0.12837264
0.29746634 0.014881976 0.12850073
0.29743621 0.014621302 0.12838718
0.29740551 0.014360733 0.1282745
0.32310998 0.090036899 0.13669693
0.29637668 0.014741331 0.12852126
0.29610854 0.013788559 0.12832204
0.31571552 0.072077334 0.13454741
0.30433464 0.039930455 0.13101181
0.30419543 0.039730296 0.13108307
0.2948474 0.013389461 0.12821704
0.29888517 0.026083048 0.12914363
0.29692513 0.020344995 0.12841511
0.29674578 0.019897111 0.12839425
0.30882657 0.058364958 0.13323411
0.31561908 0.08009541 0.13555935
0.29465011 0.019550271 0.12826461
0.29371876 0.019702971 0.12855017
0.32165262 0.10211675 0.13774507
0.32161984 0.1019035 0.13766328
0.32159701 0.10169004 0.1375678
0.31872863 0.093775384 0.13678803
0.31764454 0.090767726 0.13648362
0.311248 0.072774403 0.13454098
0.300935 0.043312069 0.13114059
0.29300594 0.020912472 0.12867588
0.29246384 0.019573942 0.12862182
0.2885665 0.011373609 0.1276831
0.2993755 0.044576161 0.13138008
0.29923442 0.044375941 0.13145387
0.29225528 0.023686986 0.12870705
0.29210693 0.023495596 0.12879601
0.29095957 0.02030883 0.1284717
0.29091465 0.020059727 0.12838525
0.29087648 0.019806549 0.12828714
0.31586167 0.093920365 0.13683414
0.31572643 0.093708992 0.13689336
0.31115344 0.080314532 0.1351895
0.29880786 0.045503139 0.13139012
0.29849869 0.044859104 0.13143012
0.29236075 0.026167125 0.12871963
0.28679764 0.01145713 0.12758702
0.31785947 0.10230976 0.13776161
0.31504983 0.093750715 0.13651921
0.31502929 0.093532942 0.136418
0.28891289 0.019707724 0.12827152
0.28588912 0.011509135 0.12753534
0.31315684 0.090344161 0.13576666
0.30148408 0.059013724 0.13311455
0.28868732 0.021294422 0.12820625
0.28804392 0.020012245 0.128324
0.28800657 0.019758575 0.12822443
0.30748433 0.077630617 0.13470447
0.28927425 0.025976934 0.1289182
0.31549695 0.10244049 0.13746594
0.31143233 0.090433858 0.13589132
0.30679128 0.077896379 0.13478875
0.30593988 0.074807227 0.13411823
0.29519567 0.045006059 0.13110504
0.28829032 0.024810806 0.12855014
0.28825235 0.024560019 0.1284532
0.28329152 0.011707753 0.12760049
0.31264061 0.097580045 0.1371413
0.28539723 0.019935936 0.12826791
0.28420767 0.016486727 0.12784547
0.31291634 0.10062901 0.13701938
0.31181717 0.097636834 0.13674466
0.3093994 0.090324104 0.13570657
0.30395865 0.075144537 0.13412789
0.30128434 0.068178773 0.13364592
0.29701921 0.056042466 0.13226792
0.31258753 0.10152251 0.13684244
0.30411339 0.078256771 0.13460773
0.29253989 0.045354135 0.1308865
0.28244266 0.016527526 0.12756822
0.28229615 0.016337559 0.12765554
0.28225005 0.016086832 0.12756971
0.28196305 0.015703835 0.12773433
0.28043637 0.011608496 0.12738878
0.3098495 0.097739846 0.13684045
0.29770368 0.062729672 0.13264975
0.28654003 0.03013419 0.12855083
0.28455704 0.025775619 0.12867212
0.28315908 0.021641776 0.1281279
0.28261298 0.020305097 0.1280804
0.3077634 0.09413635 0.13653104
0.2931658 0.05338084 0.13227871
0.28190562 0.020336948 0.12804553
0.28054732 0.016432516 0.1275833
0.28040704 0.01623898 0.12765998
0.28036928 0.015983179 0.12755975
0.2787022 0.011694208 0.12729099
0.30581665 0.090732522 0.13560124
0.29601356 0.062794678 0.13240826
0.28885093 0.044053834 0.13106737
0.28737694 0.039265476 0.13023859
0.28713247 0.039110571 0.13048047
0.28708941 0.038870331 0.13039672
0.28125194 0.02179537 0.12823504
0.28078073 0.020142019 0.12789735
0.27946168 0.016490057 0.12753132
0.27932152 0.016296446 0.12760782
0.27927938 0.016043335 0.12751517
0.27761236 0.011754386 0.12724623
0.28128245 0.024318829 0.12837604
0.28123224 0.024074439 0.12829959
0.27869406 0.016726159 0.12740487
0.27854046 0.016540505 0.12750447
0.27823108 0.015892364 0.12754226
0.27670315 0.011797518 0.12719873
0.29177481 0.056528538 0.13195297
0.29173982 0.0562938 0.13186142
0.27771029 0.016583383 0.12745383
0.27766678 0.016331106 0.12736353
0.27742946 0.016196676 0.12760779
0.27586049 0.011848256 0.12716979
0.29871783 0.077854827 0.1340256
0.29175022 0.059523009 0.13266152
0.28830421 0.049515367 0.13142842
0.27884251 0.021867115 0.12794167
0.27694297 0.016623564 0.12742388
0.27680418 0.016429141 0.127498
0.2969031 0.075735509 0.13391128
0.27617142 0.016851291 0.12727791
0.27602214 0.016662993 0.12737003
0.27588207 0.016469344 0.12744638
0.27584234 0.016214751 0.12734953
0.30222785 0.093986183 0.13626809
0.28817332 0.053789787 0.13160637
0.27518651 0.016713627 0.12733835
0.2750442 0.016521342 0.12741852
0.27500629 0.016265661 0.12731856
0.27487227 0.016068451 0.12738451
0.29570252 0.078035757 0.13424981
0.28909627 0.059633892 0.13235074
0.27564943 0.020603113 0.12755111
0.27403224 0.016573295 0.127368
0.27389061 0.01638075 0.1274471
0.27385506 0.01612363 0.12734306
0.27381432 0.015869431 0.12724787
0.29412398 0.074972898 0.13337758
0.28751054 0.056724843 0.13157991
0.28410029 0.046899989 0.13040662
0.27838239 0.030397378 0.12842181
0.27485147 0.020902917 0.12760934
0.30076569 0.096907943 0.13599515
0.29871216 0.090662956 0.13509336
0.28648812 0.056805521 0.13169372
0.28504431 0.053806897 0.13188577
0.28197995 0.044103213 0.13031185
0.27433577 0.022096522 0.12769088
0.27209342 0.016224355 0.12726811
0.29998225 0.097159393 0.1362533
0.29995432 0.096943423 0.13616331
0.2945224 0.081182577 0.13422796
0.28972656 0.06881506 0.13343757
0.27497721 0.026576392 0.12851298
0.27364996 0.022135757 0.12769023
0.26991528 0.01214765 0.12686285
0.29916558 0.096983835 0.13594741
0.29688999 0.090756379 0.13535933
0.28353581 0.052619722 0.1309641
0.27368173 0.024660416 0.12782872
0.27260998 0.0219783 0.12770063
0.27217972 0.020575531 0.12745574
0.26900041 0.012193866 0.12682337
0.29721057 0.094470039 0.13576189
0.28647071 0.063529909 0.1320672
0.27357465 0.026710488 0.12782803
0.27176741 0.021979079 0.12748817
0.27159205 0.021529578 0.12746087
0.27123198 0.020635575 0.12742206
0.26805958 0.012250043 0.12677795
0.27420709 0.030820694 0.12814537
0.27089736 0.022021838 0.12744358
0.27058998 0.021372728 0.12747812
0.27035996 0.020679452 0.12738082
0.29539394 0.094563164 0.13569807
0.28602421 0.068781972 0.13319364
0.28062281 0.053318538 0.13139316
0.27638739 0.041761722 0.13031867
0.26983535 0.021868762 0.12746096
0.26960441 0.021176264 0.12736535
0.26946035 0.020983711 0.12744781
0.26809528 0.017083183 0.12699723
0.26805422 0.016829446 0.12690273
0.28390101 0.063635215 0.13173184
0.27076167 0.026905365 0.12787765
0.27053913 0.025127232 0.1271264
0.26892462 0.0219208 0.12742826
0.26888397 0.02166947 0.12733462
0.26874357 0.021474637 0.12741074
0.26869509 0.021227553 0.1273303
0.26865795 0.020973787 0.12723041
0.26843092 0.02082888 0.12745443
0.29495057 0.098516054 0.13594465
0.29466924 0.098092258 0.13607731
0.29338044 0.094449162 0.13567536
0.28416237 0.06887684 0.1330882
0.26916823 0.024849638 0.12743744
0.26809013 0.022168778 0.12731874
0.29555443 0.1019838 0.13584745
0.28611246 0.075390577 0.13295978
0.27795541 0.053428113 0.13106549
0.27615777 0.047034759 0.12972635
0.27569047 0.046954494 0.13031679
0.27563462 0.046722215 0.13025519
0.27344206 0.040689077 0.12966904
0.27294189 0.039608546 0.12971079
0.26903749 0.027192205 0.12767434
0.2685726 0.025543664 0.12733087
0.26834857 0.024848986 0.12722456
0.26810342 0.024709731 0.12747669
0.26350155 0.012750924 0.12666404
0.28800407 0.085324109 0.13508883
0.2750043 0.047207996 0.13022158
0.27482036 0.046770249 0.13021296
0.27477884 0.046532489 0.13012856
0.26268592 0.012799382 0.12662387
0.29212421 0.098888911 0.13606137
0.28653628 0.082044542 0.1336959
0.28018117 0.063842125 0.13157213
0.27610081 0.054283306 0.13147137
0.26656863 0.025200997 0.12722954
0.26348341 0.017335944 0.12677515
0.26344013 0.017083533 0.12668443
0.29015526 0.095722318 0.135629
0.29012007 0.095505834 0.13554861
0.28426871 0.078634508 0.13352692
0.28412703 0.078426756 0.13359711
0.26386207 0.021080062 0.12723833
0.2627379 0.017312907 0.12653792
0.26249468 0.01718162 0.1267921
0.26244852 0.016930938 0.12670636
0.26092249 0.012833655 0.12635878
0.28790176 0.09146028 0.13497637
0.2825776 0.075584635 0.1328257
0.27613702 0.057775378 0.13105211
0.26502022 0.025482975 0.12706947
0.25995123 0.012682036 0.1263949
0.28384462 0.081970774 0.13362786
0.27515236 0.057858221 0.13118842
0.27153215 0.047363654 0.12990421
0.27070901 0.044625826 0.12940353
0.26239094 0.021313973 0.12692824
0.26225701 0.021115571 0.12699339
0.26092276 0.01747261 0.12665355
0.26087958 0.017220132 0.12656268
0.2606456 0.017083637 0.12680113
0.26060534 0.016829364 0.12670523
0.28089166 0.075888053 0.13263124
0.27650598 0.06382253 0.13145995
0.26140893 0.021364257 0.12687945
0.25994354 0.017521113 0.12659982
0.2597993 0.017329976 0.12668338
0.25975478 0.01707831 0.12659481
0.25961918 0.016882069 0.12666351
0.25958353 0.016624779 0.12655953
0.28923166 0.10232135 0.13572103
0.28920671 0.10210705 0.13562794
0.28545439 0.09180934 0.13464093
0.28072566 0.078595959 0.13325706
0.28058755 0.078387611 0.13332203
0.26057887 0.021407284 0.12683108
0.25896975 0.017372526 0.12663403
0.25893033 0.017117754 0.1265367
0.25889638 0.016859412 0.12642977
0.25875586 0.016666129 0.12650692
0.28855932 0.10322379 0.13588911
0.28854483 0.10300992 0.135782
0.28830963 0.10215478 0.13559578
0.27230147 0.057800516 0.1311352
0.26882675 0.048265152 0.13022161
0.28445935 0.095364153 0.13542189
0.2776134 0.075431757 0.13294214
0.26982123 0.054374475 0.13108683
0.26979458 0.054135811 0.13098159
0.26995742 0.053587481 0.13043389
0.26992193 0.053350735 0.13034192
0.26046455 0.027347874 0.12782574
0.25844201 0.021106102 0.12688363
0.2689361 0.053912852 0.13064763
0.26890761 0.053674169 0.1305449
0.26743129 0.050685767 0.13078743
0.25958961 0.027093403 0.12749541
0.25945547 0.026894201 0.12756035
0.25448355 0.013237037 0.12624523
0.26502696 0.045772769 0.12998179
0.25874546 0.026887506 0.12735248
0.25872102 0.026629981 0.12723303
0.25366989 0.013285808 0.12621173
0.25788674 0.027179159 0.12739393
0.25785416 0.02692616 0.12728828
0.280931 0.095332019 0.1349742
0.27531847 0.079556562 0.13327676
0.27455422 0.076220423 0.1323407
0.27425888 0.075807534 0.13249895
0.27167112 0.069523856 0.13230368
0.26756969 0.057830937 0.1309655
0.26424086 0.04773825 0.12952188
0.26337528 0.046542726 0.12999436
0.25356722 0.017602406 0.12621382
0.28305125 0.10329127 0.13551167
0.27423045 0.078941621 0.13310713
0.27305874 0.075440958 0.13262978
0.26321331 0.047578186 0.12953973
0.26306552 0.047379978 0.12962389
0.25403598 0.021274291 0.1264624
0.25091463 0.013414681 0.12606061
0.28015536 0.098641723 0.13528793
0.28012508 0.098425992 0.13520131
0.28010333 0.098209791 0.13510272
0.27908999 0.095859662 0.1350918
0.27537197 0.08597526 0.13430309
0.25159347 0.017753243 0.12628824
0.25155261 0.01749935 0.1261934
0.24993642 0.013460368 0.12600347
0.25074956 0.017540053 0.12614605
0.24912661 0.013505265 0.12596786
0.25016502 0.018024638 0.12610382
0.25012055 0.017772935 0.12601519
0.24998173 0.017578468 0.1260893
0.27539015 0.092115089 0.13439314
0.26070988 0.051451217 0.13030848
0.2591531 0.046729926 0.12963262
0.24759102 0.013530709 0.12571982
0.27356768 0.089348257 0.13381666
0.2517859 0.027950138 0.12712666
0.25164229 0.027755767 0.12720743
0.24652345 0.013633475 0.12581715
0.24647968 0.013379119 0.12572598
0.27348465 0.091994099 0.13422568
0.26400003 0.064472243 0.13084605
0.26157919 0.05784877 0.13022146
0.24890232 0.022013523 0.12626788
0.24563242 0.013688378 0.12579292
0.245593 0.013431244 0.12569416
0.2736589 0.095276505 0.13459952
0.26446313 0.069920033 0.13210991
0.24975802 0.026277252 0.12629241
0.24842101 0.023465298 0.12644947
0.24799809 0.022058077 0.12619191
0.25987899 0.058177926 0.13023892
0.25635833 0.048393421 0.12924036
0.25584871 0.047317348 0.12929767
0.24916907 0.028094891 0.12701219
0.24865149 0.025933538 0.12643641
0.26624858 0.079367243 0.13272047
0.2547437 0.047175281 0.12932783
0.24595004 0.021764435 0.12625694
0.24294207 0.013839647 0.12566176
0.2640312 0.075475805 0.13219446
0.25455499 0.048736159 0.1292668
0.24508283 0.021806747 0.12622097
0.24207667 0.013880856 0.12562257
0.24203333 0.01362627 0.12553069
0.27011353 0.095680423 0.13455361
0.26299849 0.075545006 0.13232079
0.24486059 0.023655474 0.12629676
0.24116412 0.013925046 0.12557018
0.26840603 0.09247762 0.13370192
0.25210977 0.047548741 0.1292946
0.25207943 0.047306769 0.12919244
0.25204965 0.047064375 0.12908927
0.24397546 0.023698371 0.1262497
0.27161252 0.10432555 0.13516927
0.27147612 0.10411263 0.13522914
0.26843521 0.095989838 0.13456151
0.25525817 0.057975844 0.12999746
0.25076967 0.046270862 0.12918088
0.24315684 0.023744062 0.12620896
0.23944822 0.014020927 0.12550339
0.28153166 0.13685593 0.1395354
0.27064234 0.10437398 0.13513052
0.26170936 0.079839513 0.13277012
0.26168072 0.07961446 0.13267568
0.26054618 0.076341771 0.13228294
0.2604872 0.07588803 0.13209423
0.25046021 0.047845252 0.12914595
0.23858136 0.014004141 0.12528574
0.26112032 0.080320165 0.13278288
0.26109368 0.08009503 0.13268566
0.26014641 0.076326855 0.13174322
0.25988004 0.07614179 0.13199711
0.25983968 0.075916633 0.13191858
0.25925708 0.076367326 0.13170493
0.25280085 0.058313593 0.12980777
0.24921945 0.049050961 0.12920168
0.23996031 0.022021532 0.12580574
0.24829757 0.048609503 0.12895599
0.24142514 0.028689608 0.12651995
0.23898661 0.022126615 0.12595531
0.23895642 0.021868542 0.12584341
0.23609647 0.014126122 0.12515435
0.26004875 0.083426505 0.13224298
0.24704854 0.048026226 0.12898767
0.23506354 0.014253244 0.12531179
0.26657486 0.10502502 0.13496472
0.24623193 0.04806922 0.12894517
0.25780869 0.083132155 0.13263172
0.25477949 0.074636318 0.13172656
0.23647696 0.022469044 0.12576187
0.25611517 0.080555439 0.13218936
0.25406495 0.074888274 0.13162598
0.25392908 0.074680597 0.13168827
0.25390327 0.074452005 0.13158786
0.25387681 0.074223362 0.13148832
0.2522307 0.070566699 0.13156614
0.24472791 0.049079031 0.12906015
0.24433447 0.047961093 0.128934
0.23249148 0.014387079 0.12518236
0.26036817 0.095756769 0.1340459
0.23508908 0.023707129 0.12581006
0.23496932 0.022951253 0.12552509
0.23469833 0.022556074 0.1256606
0.23456387 0.022358105 0.1257267
0.23321153 0.018726639 0.12541839
0.23307115 0.018533334 0.1254954
0.25398269 0.07955987 0.13198656
0.25033262 0.070221074 0.13142884
0.24668936 0.058640808 0.12953174
0.23428558 0.023750573 0.1257644
0.23394728 0.023119368 0.12585181
0.23256388 0.018954061 0.12526903
0.23237683 0.018510163 0.12526101
0.23233472 0.018256798 0.12516817
0.24820735 0.065311864 0.13009897
0.24218839 0.049179174 0.12874418
0.23315138 0.023103237 0.12560993
0.23300602 0.0229114 0.1256946
0.23287211 0.022713177 0.12575981
0.2317785 0.019206114 0.12517193
0.22983123 0.014532067 0.12505716
0.24032938 0.046826866 0.12870029
0.23411164 0.028436165 0.12627745
0.2340799 0.028182749 0.12617046
0.23202196 0.022499323 0.12560794
0.24927747 0.074027777 0.13126031
0.22806333 0.014627904 0.12497991
0.27047586 0.13764875 0.13910016
0.24334805 0.058823809 0.1293695
0.23756438 0.043540824 0.1281983
0.2323287 0.028075829 0.1261709
0.23229741 0.027821913 0.12606299
0.23127708 0.024841338 0.1256876
0.23041305 0.022587232 0.12552989
0.22935228 0.019336358 0.12504935
0.22885209 0.018246189 0.12508544
0.22739722 0.014667153 0.12494829
0.25729078 0.10072539 0.13420919
0.25038776 0.0813118 0.13211522
0.23818943 0.046373736 0.12803972
0.22867629 0.019358255 0.12499884
0.22852758 0.019169621 0.12508997
0.22834218 0.018724747 0.12507913
0.22815728 0.018279523 0.12506741
0.22509915 0.0097870305 0.12420383
0.23565362 0.042028993 0.1279456
0.23311587 0.032949604 0.12602326
0.23099586 0.02839366 0.12621456
0.22799069 0.01939889 0.1249806
0.22752607 0.018566072 0.12512085
0.23981018 0.055230569 0.12934837
0.22938617 0.024927139 0.12559995
0.22935331 0.024671916 0.12549335
0.22750576 0.019673608 0.12505013
0.22721609 0.019291848 0.12521908
0.22717199 0.019040138 0.12512997
0.22564788 0.014944039 0.12478045
0.22419724 0.010211416 0.12395293
0.22385725 0.0095826834 0.12404403
0.22381027 0.0093273893 0.12395671
0.22366695 0.0091386959 0.12404045
0.22362028 0.0088830069 0.12395245
0.23913449 0.055298097 0.12948638
0.2268939 0.01945436 0.12493002
0.22673814 0.019270018 0.12503332
0.22660159 0.019074231 0.12510359
0.22507627 0.014979012 0.12475616
0.22494523 0.014780954 0.12481758
0.22362183 0.010249123 0.12393531
0.22357492 0.0099940002 0.12384799
0.22308488 0.0091811195 0.1240347
0.2229359 0.0089965835 0.12412864
0.23883489 0.05501648 0.1290305
0.22645511 0.019731924 0.12499672
0.22316878 0.010541439 0.12403041
0.22313394 0.010278292 0.12392187
0.22298972 0.010089815 0.1240069
0.22294007 0.0098365918 0.12392446
0.22279674 0.0096477121 0.12400809
0.22274922 0.0093928203 0.12392169
0.22260348 0.0092058107 0.12400973
0.22233579 0.0091037974 0.12431473
0.24541223 0.075132743 0.131284
0.22597291 0.019761115 0.1249699
0.22260769 0.010050386 0.12380263
0.2223624 0.0099313483 0.12406692
0.2223147 0.0096767694 0.12398097
0.22217387 0.0094863847 0.12406027
0.22212957 0.0092292577 0.12396818
0.22208329 0.0089733005 0.12387952
0.26692244 0.13830435 0.13865072
0.26690832 0.13810787 0.13855347
0.25378951 0.10090633 0.13439076
0.25215608 0.096413173 0.13395488
0.25214064 0.096195221 0.1338466
0.25155979 0.093150824 0.13283315
0.22706521 0.024647441 0.12562877
0.22541802 0.01953391 0.12484351
0.22220531 0.010861352 0.12408391
0.22217281 0.010596871 0.12397134
0.22208841 0.010080412 0.1237801
0.22161591 0.0092554092 0.1239357
0.22157028 0.0089989901 0.12384588
0.25164762 0.095997646 0.13353424
0.22595789 0.022763841 0.12515622
0.22149526 0.0100995 0.12373486
0.22144003 0.0098498687 0.12366214
0.22119983 0.0097275376 0.12391752
0.2210539 0.0095406473 0.12400588
0.22100897 0.0092839524 0.1239149
0.24204679 0.071308143 0.13096675
0.225183 0.023109227 0.12539285
0.22213897 0.014929995 0.12469587
0.22048718 0.0097617805 0.12388456
0.23726094 0.059157029 0.12925351
0.23340826 0.048739016 0.12833214
0.26394352 0.13822415 0.13858849
0.24973708 0.096966647 0.1335045
0.24923311 0.095680758 0.13342956
0.24871847 0.093290269 0.13271379
0.2433725 0.077854209 0.13085368
0.22615865 0.029448058 0.12563407
0.24872941 0.096805185 0.13353981
0.24859315 0.096593939 0.1336005
0.24857382 0.096376039 0.1334976
0.24647014 0.090791345 0.13305624
0.23560618 0.059245326 0.12917176
0.22686674 0.033264369 0.12568855
0.22347204 0.024778794 0.12528864
0.24696435 0.093394168 0.13295056
0.24235219 0.081315398 0.13208088
0.24232659 0.081090271 0.13198224
0.24052295 0.075386696 0.13106063
0.22368778 0.027053978 0.12536836
0.22290978 0.024753526 0.12506559
0.24161692 0.079989202 0.13147831
0.24013296 0.075844795 0.13104531
0.240072 0.075389624 0.13085848
0.21852121 0.01511731 0.12451947
0.24137235 0.081101716 0.131396
0.2320374 0.056146845 0.12933445
0.22292492 0.029264592 0.12582546
0.21778111 0.015157036 0.1244778
0.24717519 0.10016332 0.13364856
0.22879173 0.048537444 0.12811631
0.22016893 0.023579009 0.12508047
0.21879581 0.01968316 0.12464365
0.21865375 0.019490704 0.1247234
0.21699485 0.015199073 0.12444195
0.24582872 0.098491296 0.13350199
0.24281 0.090327613 0.13277964
0.2179675 0.019531004 0.12469092
0.21776435 0.018818073 0.12454525
0.24490313 0.09831962 0.13355519
0.227891 0.049928855 0.12806991
0.22673815 0.046557762 0.1276437
0.22544153 0.042975973 0.12728879
0.21730071 0.019509047 0.12447968
0.24392653 0.097275861 0.13304596
0.24333614 0.096213832 0.13322186
0.22612734 0.046761218 0.12737465
0.21853931 0.025238819 0.12496442
0.21850409 0.024984676 0.12486169
0.24619815 0.10501742 0.13366988
0.23723389 0.080678947 0.13146839
0.24253945 0.098440707 0.13348174
0.24262196 0.098218642 0.13323733
0.24260819 0.098000959 0.13312694
0.22619985 0.052332044 0.12843233
0.21663052 0.02390857 0.12463275
0.22682467 0.05570215 0.12878644
0.22445416 0.048764516 0.12790665
0.21584088 0.023800083 0.12485424
0.21433374 0.019984923 0.1246483
0.22597837 0.055273697 0.12857768
0.21357621 0.020020925 0.12459338
0.22958967 0.066525429 0.12930804
0.22702584 0.05970272 0.12876028
0.21245027 0.018649139 0.1243017
0.22461259 0.05532106 0.12834191
0.21342444 0.023476824 0.12472257
0.21182559 0.018879764 0.12417784
0.23972557 0.10012728 0.13324817
0.23900943 0.098417528 0.13321149
0.23885603 0.097988717 0.13316651
0.23628475 0.09044826 0.13220313
0.22566751 0.059988938 0.12862664
0.21476482 0.028385311 0.12476087
0.2096533 0.015335962 0.12399721
0.24098301 0.10615328 0.13382047
0.23681992 0.09414807 0.13238104
0.23563227 0.091361322 0.13234906
0.2356011 0.091141343 0.13226107
0.23213607 0.08138939 0.13120556
0.20875658 0.015382178 0.12396014
0.20819759 0.015659802 0.12400714
0.21907273 0.049090005 0.12783456
0.20882662 0.019298501 0.12414652
0.23684017 0.10027839 0.13296384
0.23590413 0.098578341 0.13323317
0.22232175 0.060004715 0.12889001
0.22105302 0.055714585 0.1280767
0.21843666 0.049362347 0.1278798
0.21664886 0.043683615 0.12695125
0.21178216 0.028535679 0.12460789
0.20997676 0.024069756 0.12442303
0.2081829 0.019589931 0.12421417
0.20814475 0.019334167 0.12411448
0.20810446 0.019079462 0.12401837
0.20504273 0.010584332 0.12315804
0.20489857 0.010396227 0.1232433
0.20485534 0.010138363 0.12314931
0.23383075 0.094086237 0.13232729
0.20980479 0.025704183 0.12455636
0.20976478 0.025452744 0.1244618
0.20740405 0.019369334 0.12407541
0.20605795 0.015720345 0.12374818
0.2045958 0.010992453 0.12293917
0.2041598 0.010429926 0.12320071
0.20411795 0.010171093 0.12310427
0.20386401 0.011037812 0.12290657
0.23490982 0.10125407 0.1330857
0.23353264 0.097613752 0.132806
0.22832257 0.082240306 0.13079745
0.21768108 0.053754471 0.12842417
0.21604925 0.047539555 0.12696445
0.20600212 0.019451566 0.12401575
0.20595899 0.019198604 0.12392455
0.20453809 0.015596166 0.12372699
0.2341823 0.10129011 0.13318941
0.22717419 0.081663996 0.13111272
0.20718056 0.02395916 0.1241717
0.20694913 0.023816891 0.1244033
0.23335427 0.1011141 0.13323674
0.23331985 0.10089868 0.13315588
0.2323851 0.098110661 0.13277785
0.23221555 0.097682402 0.13275523
0.23209091 0.097470507 0.13279971
0.23180956 0.097048856 0.13293366
0.22690177 0.082325473 0.1308983
0.22328292 0.072520606 0.13002151
0.20492092 0.020219155 0.12405866
0.20321882 0.015672661 0.12368494
0.20160587 0.010761797 0.12297326
0.23289296 0.10157651 0.13320614
0.23160391 0.097935021 0.13280545
0.22939575 0.091250703 0.13185406
0.21922405 0.063349433 0.12918627
0.20644528 0.025892448 0.12440798
0.20405452 0.019551985 0.12390998
0.20390989 0.019361436 0.12399441
0.20387247 0.019104958 0.12389326
0.20113856 0.011248849 0.12296447
0.20099613 0.011059344 0.12304646
0.20094545 0.010806814 0.12296587
0.231227 0.097951882 0.13245255
0.23067206 0.09710706 0.13270895
0.2052736 0.0243183 0.12419659
0.20361789 0.020033129 0.12391457
0.20348106 0.019837655 0.12398541
0.20344557 0.019580238 0.12388113
0.20340931 0.019323051 0.12377799
0.20336948 0.019067839 0.12368098
0.20195851 0.015739486 0.12363252
0.20068125 0.011460349 0.12283733
0.2006318 0.011206955 0.12275451
0.20039046 0.011085197 0.12301177
0.20033561 0.010835543 0.12293851
0.20019114 0.010647669 0.12302431
0.20014915 0.010388941 0.12292814
0.23294345 0.10484109 0.13321784
0.22797911 0.091326684 0.13197701
0.22499929 0.082649454 0.13089678
0.22508991 0.082406744 0.13062903
0.22471458 0.081315674 0.13049409
0.22456144 0.081109695 0.13058096
0.21430181 0.053720497 0.12833735
0.20520553 0.026203446 0.12442943
0.2050246 0.025757398 0.12441179
0.2046085 0.024346381 0.12414265
0.20300733 0.020584911 0.12409693
0.20283605 0.020131923 0.12406203
0.20279844 0.019876033 0.12396151
0.19998781 0.011506632 0.12283295
0.19985704 0.011308968 0.1228942
0.19981794 0.011048488 0.12279302
0.19977167 0.010792702 0.12270442
0.1995303 0.010671556 0.12296209
0.19948001 0.010418572 0.1228807
0.23100716 0.10145279 0.13288602
0.20564079 0.029981855 0.12510991
0.20216784 0.020162612 0.12402502
0.20213403 0.019904397 0.12391797
0.19952534 0.012257271 0.12294203
0.19939531 0.012059048 0.12300193
0.19932622 0.01153262 0.12278387
0.19928795 0.011271581 0.1226812
0.19914582 0.011081666 0.12276259
0.19900371 0.010891937 0.12284404
0.19885403 0.010707609 0.12293905
0.19880874 0.010451153 0.12284869
0.2320796 0.10661922 0.13357855
0.22917807 0.098279372 0.13259175
0.22486302 0.085295767 0.13077953
0.21135843 0.04758196 0.12684077
0.19840765 0.011196293 0.12293389
0.19835693 0.010943823 0.12285331
0.19817519 0.010493971 0.12283456
0.22856875 0.098747924 0.1326474
0.2280352 0.097026259 0.13235429
0.22256021 0.081443854 0.13058335
0.21101363 0.049759373 0.12754774
0.21074654 0.049353853 0.12767184
0.19781677 0.011425219 0.1228196
0.19777483 0.011166692 0.12272349
0.21309701 0.056131087 0.12771899
0.20250583 0.026135296 0.1243819
0.1999968 0.019033849 0.12359399
0.19728826 0.011441931 0.12278751
0.20818724 0.044828188 0.12667131
0.19973257 0.020752162 0.12392959
0.19928159 0.019074164 0.12354967
0.19800909 0.015939958 0.12342745
0.20450196 0.03449741 0.12483126
0.19920632 0.02078294 0.12392408
0.19907232 0.020585842 0.12399006
0.19903745 0.020328522 0.12388501
0.19875979 0.019102313 0.1235365
0.1974946 0.015963599 0.12340158
0.2262181 0.099082425 0.1324272
0.22608149 0.098870896 0.13248819
0.21634232 0.072009481 0.12984714
0.19846657 0.020817094 0.12387833
0.20574194 0.04336242 0.12644848
0.19994438 0.025714763 0.12389299
0.19954011 0.025120206 0.12409219
0.19787538 0.020844787 0.12382835
0.19772793 0.020655818 0.12391752
0.19603474 0.016108051 0.12353095
0.1948365 0.011778727 0.12259817
0.19469374 0.011589281 0.12268066
0.19455364 0.011398219 0.12275863
0.19450819 0.011142112 0.12266871
0.19437177 0.010948688 0.12274018
0.1943322 0.01068829 0.12263972
0.19542095 0.016069144 0.12331015
0.19419473 0.01232855 0.12276483
0.19406337 0.012131371 0.1228272
0.19402242 0.011872619 0.12272957
0.19397864 0.011615574 0.12263682
0.22671312 0.10625452 0.1330535
0.19844595 0.026100844 0.12408939
0.19830711 0.025905021 0.12416276
0.19827004 0.025651891 0.12406319
0.19330071 0.011923671 0.12270251
0.2369691 0.13879982 0.1372541
0.21401419 0.072996855 0.12955013
0.21398133 0.072767884 0.12945914
0.21217316 0.066994712 0.12850228
0.19285472 0.012596935 0.12260082
0.19271065 0.012408227 0.12268555
0.19257654 0.012212917 0.12275276
0.22259563 0.099492058 0.13250719
0.22131766 0.095841989 0.13208628
0.20541894 0.050912585 0.12713471
0.19467103 0.020046689 0.12349504
0.19420305 0.019217208 0.12364185
0.19320545 0.016192749 0.12320939
0.19198111 0.012451023 0.12266082
0.1918482 0.012254931 0.12272593
0.23579457 0.13951381 0.13714565
0.23564796 0.13929445 0.13721567
0.21953522 0.093086839 0.13179758
0.21520965 0.080270745 0.130099
0.19137838 0.012675419 0.12252885
0.21486115 0.081399068 0.13019538
0.21471281 0.081192628 0.1302754
0.21463501 0.080513485 0.12997866
0.19050033 0.012528412 0.12259227
0.19036777 0.012332067 0.12265676
0.19032486 0.012074664 0.12256265
0.2343352 0.13979334 0.13715504
0.21074297 0.072040707 0.12916631
0.19436657 0.025391348 0.12384683
0.18970409 0.012308516 0.1224502
0.18952154 0.011859342 0.12243292
0.23330547 0.13958965 0.13735248
0.20099092 0.046277881 0.12610561
0.18859066 0.011446171 0.12236851
0.21559678 0.092856228 0.13161205
0.20183295 0.054336891 0.12754878
0.18682063 0.012402631 0.12211603
0.1865859 0.012275763 0.12236124
0.18654317 0.01201801 0.12226668
0.18649742 0.011762112 0.12217727
0.18645333 0.011504859 0.12208483
0.21195793 0.085752338 0.13022888
0.2099513 0.080320053 0.12974533
0.19867828 0.048977867 0.12653956
0.19114769 0.026934676 0.12374178
0.18906616 0.021245047 0.12320775
0.18892878 0.021049738 0.12327942
0.18878305 0.020859689 0.12336564
0.18873698 0.020608939 0.12327975
0.18749936 0.016892418 0.12276429
0.21505091 0.096830994 0.13134637
0.19752958 0.048380077 0.1265206
0.19748835 0.048141211 0.12643516
0.19030762 0.026979495 0.12368298
0.18972671 0.025387958 0.12353176
0.18804008 0.020844929 0.12313902
0.18668693 0.01720117 0.12282449
0.18655778 0.017001726 0.12288249
0.2091307 0.083039381 0.13009134
0.20841913 0.080389038 0.12949026
0.19655158 0.047977023 0.12646154
0.19080877 0.030659556 0.12402695
0.21405351 0.099732496 0.13199885
0.20463884 0.072576016 0.12874019
0.19440642 0.044695992 0.1261687
0.1889652 0.031025738 0.12408128
0.18879697 0.030574236 0.12404308
0.18877152 0.03031728 0.12392536
0.20278974 0.072935894 0.12907818
0.19553256 0.051847495 0.12647426
0.18844023 0.031242229 0.12393188
0.18179707 0.012989208 0.12217194
0.18166342 0.012793601 0.12223834
0.21384495 0.10584483 0.13226095
0.21300316 0.1039251 0.13227126
0.18546534 0.025357239 0.12325102
0.18322843 0.019472718 0.12281355
0.18219356 0.017033122 0.12277895
0.18096805 0.013294525 0.12223387
0.18092951 0.013034381 0.12213209
0.18079394 0.012840092 0.12220195
0.1807503 0.012583196 0.12210912
0.18070742 0.012325533 0.12201476
0.18066551 0.012067012 0.12191859
0.18633761 0.030705072 0.12392694
0.18515329 0.026997235 0.12334383
0.21198794 0.10638274 0.1323569
0.20895517 0.097376794 0.13115387
0.20645985 0.091594622 0.13112994
0.20270512 0.080281667 0.12954372
0.18108113 0.019452646 0.12297422
0.21021742 0.10386089 0.13206193
0.20413303 0.086171806 0.12987316
0.19927859 0.073107041 0.12874904
0.19176303 0.05184523 0.12639442
0.18466811 0.031247944 0.12385979
0.18452449 0.031053592 0.12394056
0.18448932 0.030801993 0.12383926
0.18023373 0.019494422 0.12294015
0.1983057 0.072940268 0.12876073
0.19092605 0.05188375 0.12634227
0.18974857 0.049032595 0.12625811
0.18362597 0.030582488 0.12366989
0.18187925 0.025542758 0.12306434
0.20720261 0.1005237 0.13204291
0.20452709 0.09211681 0.1307075
0.19025771 0.051923491 0.12634057
0.18922178 0.04927234 0.12618184
0.18299009 0.03087851 0.12377584
0.18179655 0.027175914 0.12320843
0.17823166 0.017639324 0.12241697
0.17718777 0.01434841 0.12188953
0.17704043 0.014161535 0.1219798
0.20417424 0.093902573 0.13109717
0.18237664 0.031367522 0.12375212
0.18224101 0.031168956 0.12381947
0.18044256 0.025615595 0.12297979
0.21981922 0.14061637 0.1361566
0.20327041 0.093951985 0.13106294
0.1978384 0.077852279 0.12892666
0.19598195 0.073299006 0.12875965
0.18336558 0.035824057 0.12374943
0.17954813 0.02566348 0.12293279
0.17553507 0.014701635 0.12190774
0.1850104 0.045143384 0.12552759
0.1823338 0.035869524 0.12367934
0.17849889 0.025717944 0.12289178
0.17597005 0.019454069 0.12262782
0.17417064 0.014111355 0.12191451
0.21750267 0.13943435 0.13614829
0.19439593 0.073359586 0.12849146
0.17961197 0.031317092 0.12373075
0.17957903 0.03106435 0.12362576
0.17781982 0.025761142 0.12288103
0.17529519 0.019495241 0.12261012
0.18637681 0.053019539 0.12612826
0.18565893 0.051262975 0.12606612
0.17695458 0.025808997 0.12284726
0.17259252 0.013940938 0.12176102
0.17228444 0.013291001 0.12179604
0.17609017 0.025854349 0.12280628
0.17122272 0.012897685 0.12176406
0.17118171 0.012638755 0.1216664
0.20024247 0.097619116 0.1311765
0.191764 0.073274814 0.12830764
0.18451986 0.052912749 0.12611642
0.17181222 0.01739572 0.12239239
0.2032136 0.10750647 0.13168304
0.20022617 0.10024443 0.13145298
0.19942959 0.097441733 0.13087757
0.19789638 0.09246216 0.13001624
0.1906461 0.073370978 0.12858754
0.18363602 0.053206809 0.12619415
0.19939373 0.10050297 0.13147536
0.19868749 0.097475357 0.13064316
0.17995872 0.045422554 0.12532833
0.19782475 0.097527608 0.1307914
0.19622219 0.093001448 0.13029379
0.18212077 0.053761914 0.12626368
0.17368434 0.031258814 0.12291259
0.17005837 0.022058025 0.12240413
0.169926 0.021859832 0.12246725
0.16687499 0.012798049 0.1212562
0.16673924 0.012603961 0.12132639
0.19446635 0.093311131 0.13029277
0.18330772 0.061318938 0.12654492
0.16765434 0.017810717 0.12210071
0.16599725 0.012646362 0.12129882
0.19592465 0.10002488 0.13106215
0.19383281 0.094220586 0.13047421
0.19381842 0.09399946 0.13036264
0.19372103 0.093339898 0.13010427
0.18078771 0.057686612 0.12660736
0.168571 0.022075102 0.12215686
0.16528468 0.012877747 0.12118641
0.16515008 0.012682863 0.12125456
0.19505689 0.10007208 0.13102718
0.18890625 0.081400201 0.12834615
0.1858132 0.074043728 0.12820438
0.17991525 0.057736468 0.12658143
0.17982009 0.057022329 0.12628761
0.17203176 0.033934399 0.12322238
0.16976109 0.02755617 0.12253824
0.16937439 0.02640231 0.12238157
0.16442825 0.012920119 0.12113529
0.16429184 0.012726471 0.12120664
0.1943495 0.10010777 0.13078676
0.19354649 0.097079039 0.130086
0.19187221 0.093219563 0.13008201
0.18182868 0.064555489 0.12678713
0.16852251 0.026445702 0.12234235
0.1635799 0.01296106 0.12108967
0.16344498 0.012766384 0.12115833
0.18481368 0.075870678 0.12820697
0.16953808 0.031472869 0.12272069
0.16273107 0.013010591 0.12106031
0.1954006 0.10768995 0.13139623
0.19241428 0.10021196 0.13103662
0.16878971 0.03146363 0.12250125
0.16188417 0.013052583 0.12100574
0.19153513 0.10003512 0.13072211
0.19052397 0.10009558 0.13085152
0.18486974 0.083880574 0.12895027
0.1651953 0.027602345 0.1224196
0.1615231 0.018133469 0.12181503
0.18972707 0.10013162 0.13065384
0.18969607 0.099914424 0.1305673
0.18899645 0.097980827 0.13037524
0.18898576 0.097761229 0.13025954
0.18818571 0.09583158 0.13020693
0.18521142 0.086942308 0.12899345
0.17445153 0.057812218 0.1264002
0.17226422 0.050805192 0.12522906
0.16652958 0.033765931 0.12294862
0.16062012 0.018171728 0.12176436
0.18794276 0.098032489 0.13051158
0.18792391 0.097813614 0.13040741
0.1880254 0.09758617 0.13013388
0.16497809 0.031706754 0.12251121
0.16314924 0.026983142 0.12220544
0.18770021 0.10002575 0.13077745
0.16236423 0.027548414 0.12236419
0.16223697 0.027346186 0.12241793
0.18371484 0.091454983 0.129805
0.18136489 0.084732868 0.12902507
0.16374056 0.034216098 0.12311545
