# .PCD v0.7 - Point Cloud Data file format
VERSION 0.7
FIELDS x y z
SIZE 4 4 4
TYPE F F F
COUNT 1 1 1
WIDTH 1446
HEIGHT 1
VIEWPOINT 0 0 0 1 0 0 0
POINTS 1446
DATA ascii
0.388069 0.081870519 0.13622758
0.38804445 0.081623271 0.13611439
0.38771984 0.081500113 0.13648447
0.38790822 0.08116436 0.13602808
0.38777792 0.080960736 0.13608518
0.38773975 0.080718607 0.13599357
0.38769522 0.080478944 0.13591218
0.38745201 0.080323137 0.13615179
0.38751093 0.080039583 0.13590312
0.38726231 0.079886571 0.13615176
0.3870084 0.079736367 0.13640931
0.38675472 0.079586603 0.13666683
0.386812 0.079303257 0.13642049
0.38676932 0.079062685 0.13633603
0.3867318 0.078819692 0.13624305
0.3866978 0.07857497 0.13614425
0.38666952 0.078327529 0.13603607
0.38663727 0.078081608 0.13593414
0.38670507 0.077791288 0.13566932
0.38667381 0.077544324 0.13556546
0.38664526 0.077295944 0.13545704
0.38652056 0.077090301 0.13550526
0.38648677 0.076843984 0.13540524
0.38645363 0.076597154 0.13530403
0.38642141 0.076349698 0.13520116
0.38639146 0.076101005 0.13509452
0.38636047 0.075852558 0.13498941
0.38622499 0.07565169 0.13505518
0.38618162 0.075408652 0.13497019
0.38603461 0.075213209 0.13505492
0.38588721 0.075018153 0.13514045
0.3858375 0.074777901 0.13506576
0.38579011 0.074536413 0.13498718
0.38564461 0.074340671 0.13506967
0.38560575 0.074094996 0.13497692
0.38557369 0.073845953 0.13487297
0.38545147 0.073639333 0.13491723
0.3854259 0.073386922 0.13480234
0.38539472 0.073136918 0.13469657
0.38524932 0.07294137 0.13477907
0.38510719 0.072744444 0.13485625
0.38506609 0.072498962 0.1347667
0.38503063 0.07225056 0.13466772
0.38510743 0.071947411 0.13438299
0.3849746 0.071745858 0.13444474
0.3849465 0.071493201 0.13433322
0.38501105 0.071194783 0.13406801
0.3848705 0.07099691 0.13414249
0.38461202 0.07085754 0.13441268
0.38455647 0.070618004 0.13434643
0.38451502 0.0703713 0.1342566
0.38438475 0.070168808 0.1343143
0.38424766 0.0699699 0.13438347
0.38421735 0.069717333 0.13427499
0.38418621 0.069464952 0.13416776
0.38405359 0.069263853 0.13422948
0.38380748 0.06912066 0.13448057
0.38366279 0.068926208 0.13456273
0.3836211 0.068679109 0.13447303
0.38358304 0.068429947 0.13437715
0.38345101 0.068229109 0.13443825
0.38342178 0.067975141 0.13432747
0.38339019 0.067722142 0.13422045
0.38334519 0.06747593 0.13413581
0.38329262 0.067233495 0.13406375
0.38313973 0.067043625 0.13415977
0.38290605 0.066896603 0.13439164
0.38287574 0.066642433 0.13428217
0.38294807 0.06633351 0.13400012
0.38292304 0.066075847 0.13388142
0.38279751 0.065871708 0.13393167
0.38274989 0.065625869 0.13385084
0.38259494 0.065437645 0.13395068
0.38244763 0.065245531 0.13403785
0.38230982 0.065048441 0.13410905
0.3822729 0.064796641 0.13401005
0.38213497 0.064599752 0.13408154
0.38209695 0.06434831 0.13398427
0.38195884 0.064151667 0.13405612
0.38192263 0.063898966 0.13395563
0.38189021 0.063643955 0.13384858
0.38185745 0.063388899 0.13374192
0.38181472 0.063139156 0.13365209
0.38176975 0.062890485 0.13356593
0.3816261 0.062696993 0.13364726
0.38158503 0.062445939 0.13355437
0.38134846 0.062305085 0.13379377
0.38121557 0.062106036 0.13385713
0.38117599 0.061854087 0.13376164
0.38104299 0.061655194 0.13382521
0.38110429 0.061345235 0.13355759
0.38107145 0.061088741 0.13345027
0.38103104 0.060836382 0.13335568
0.38089049 0.060641713 0.13343212
0.3808445 0.060392365 0.13334689
0.38080162 0.060141027 0.13325632
0.38065797 0.059948318 0.13333806
0.38050807 0.05975946 0.13343069
0.38026658 0.059624635 0.13368046
0.38022718 0.059371226 0.13358387
0.38018763 0.059117697 0.1334874
0.38004619 0.058924414 0.13356587
0.37991136 0.058727369 0.13363302
0.37987483 0.058471791 0.13353124
0.37984002 0.058214918 0.13342631
0.37980399 0.057958573 0.13332343
0.37975737 0.05770836 0.13323855
0.37951443 0.057576783 0.13349226
0.37946886 0.057325959 0.13340563
0.37932748 0.057133272 0.13348427
0.37928662 0.056879371 0.13338944
0.37924612 0.056625053 0.13329384
0.37910989 0.056429371 0.13336372
0.37907642 0.056170449 0.13325575
0.37904334 0.055911072 0.13314703
0.37891552 0.055710264 0.13320243
0.37887612 0.055454507 0.13310444
0.37883377 0.055200376 0.13301146
0.37869853 0.055004254 0.13307974
0.37865195 0.054752551 0.13299397
0.37860116 0.054503307 0.13291541
0.37836 0.05437433 0.13316819
0.37820718 0.054189846 0.13326737
0.37816089 0.0539378 0.13318098
0.37802178 0.053744838 0.13325644
0.37798107 0.053489 0.13316023
0.37794924 0.053227268 0.13304836
0.37781587 0.053030699 0.1331138
0.37777197 0.052776478 0.13302293
0.37762889 0.052586339 0.13310543
0.37758642 0.052330971 0.13301191
0.3775458 0.052074172 0.13291499
0.37740603 0.051882051 0.13299182
0.3773683 0.051623113 0.13288969
0.37733188 0.051363081 0.13278508
0.37720248 0.05116424 0.13284379
0.37716809 0.050902575 0.13273552
0.37712732 0.050644927 0.13263831
0.37698314 0.050455958 0.132723
0.3769404 0.050199397 0.13262913
0.37690282 0.049939148 0.13252601
0.37686726 0.049677305 0.13241917
0.37673289 0.049481906 0.1324867
0.37658957 0.049292691 0.13257009
0.37645683 0.049096517 0.13263494
0.37641665 0.048837461 0.13253608
0.37637866 0.04857669 0.13243321
0.37633944 0.048316531 0.13233241
0.37629899 0.048056997 0.13223362
0.37616518 0.047861546 0.13230032
0.37602302 0.047672033 0.13238198
0.376064 0.047355764 0.13213834
0.37580529 0.047247298 0.13242722
0.4173969 0.19136041 0.15919703
0.41172153 0.18972459 0.16597545
0.41260901 0.18978041 0.16479678
0.41161487 0.18935427 0.16590133
0.4122602 0.18934661 0.16501564
0.41214618 0.18914525 0.16505183
0.41202658 0.18894255 0.16509484
0.41212457 0.18879461 0.16487327
0.41224036 0.18865073 0.1646298
0.41222486 0.18847376 0.16454595
0.41234609 0.18833059 0.16429548
0.41235903 0.18816027 0.16417672
0.41236657 0.1879884 0.16406448
0.41295993 0.18796012 0.16323748
0.41322118 0.18784933 0.16281505
0.41335389 0.18770656 0.16254912
0.41334951 0.18753016 0.16245043
0.41331342 0.18734594 0.16239038
0.413176 0.18713725 0.16245417
0.41316146 0.18695809 0.16236776
0.41303894 0.18675306 0.16241336
0.41384345 0.18676826 0.16132389
0.41385189 0.18659343 0.16120863
0.41373986 0.18639003 0.16124094
0.4141911 0.1863188 0.16058254
0.413849 0.18606123 0.16089679
0.41376546 0.1858643 0.16089399
0.41391948 0.18572238 0.16059949
0.41418272 0.18560515 0.16017053
0.4148843 0.18558788 0.15920229
0.41501638 0.18543886 0.15893355
0.41505489 0.1852681 0.15877964
0.41499123 0.18507397 0.15875134
0.41522568 0.18494703 0.15835591
0.41504651 0.18472655 0.15846972
0.41468689 0.18446593 0.15880609
0.4132334 0.18396239 0.16049188
0.4217276 0.18491483 0.14945917
0.42172521 0.18472615 0.14935046
0.42158604 0.18450782 0.14941092
0.4214392 0.18428794 0.14948095
0.4215486 0.18412289 0.14923361
0.42154095 0.18393257 0.14913115
0.42141035 0.18371607 0.14918098
0.42139488 0.18352389 0.14908808
0.42137307 0.18333025 0.14900294
0.42135704 0.18313766 0.14891057
0.42134067 0.18294486 0.14881849
0.42120436 0.18272714 0.14887545
0.42117733 0.18253198 0.14879653
0.42102936 0.18231198 0.14886801
0.42088103 0.18209201 0.14894004
0.42085731 0.18189737 0.14885689
0.42060679 0.18165696 0.1490563
0.42059767 0.18146521 0.14895496
0.42047018 0.18124972 0.1490012
0.42093417 0.18115155 0.14830941
0.4211587 0.18100505 0.14791588
0.42078561 0.18074062 0.1482684
0.42076886 0.18054634 0.14817598
0.42075226 0.18035194 0.14808327
0.420598 0.18013081 0.14816269
0.42055517 0.17993119 0.1481027
0.42028177 0.17968746 0.1483314
0.42025709 0.17949136 0.14824869
0.42024526 0.17929754 0.14814985
0.42046613 0.1791473 0.14775912
0.42044702 0.17895156 0.14766909
0.42041916 0.17875405 0.14758994
0.42028436 0.17853665 0.14764497
0.42027268 0.17834197 0.14754537
0.42027679 0.17815001 0.14742588
0.42038849 0.17797741 0.14717095
0.42013806 0.17773896 0.14737137
0.42011514 0.17754172 0.14728563
0.42008337 0.17734274 0.14721094
0.41994438 0.17712462 0.14727128
0.41992223 0.17692724 0.14718439
0.4199166 0.17673258 0.14707658
0.41991279 0.17653808 0.14696637
0.41990364 0.17634247 0.14686282
0.41939616 0.17606084 0.14738855
0.41949183 0.17588337 0.14715262
0.41935647 0.17566618 0.14720859
0.41922706 0.1754501 0.14725703
0.41920656 0.17525241 0.14716776
0.41954526 0.17511457 0.14662346
0.41952592 0.1749164 0.14653228
0.41950002 0.17471699 0.14644931
0.41898626 0.17443752 0.14698496
0.41895407 0.17423734 0.14691015
0.41881675 0.17402002 0.14696871
0.41891947 0.17384139 0.14672242
0.41878194 0.17362401 0.14678121
0.41876701 0.17342615 0.14668417
0.41863489 0.17320968 0.14673613
0.4186261 0.17301258 0.14663118
0.41861105 0.17281435 0.14653412
0.41882873 0.17265186 0.14614043
0.41880012 0.17245097 0.1460603
0.4187738 0.1722503 0.14597718
0.41863012 0.17203178 0.14604367
0.41872972 0.17184985 0.14579973
0.41859913 0.17163323 0.14584951
0.41847309 0.17141739 0.1458935
0.4182142 0.1711821 0.14610736
0.41818914 0.17098126 0.14602241
0.41816109 0.17077982 0.14594117
0.4181284 0.17057762 0.14586581
0.41809988 0.17037585 0.14578503
0.41819817 0.17019191 0.14554167
0.41819096 0.16999274 0.14543335
0.41829455 0.16980882 0.14518274
0.41828302 0.16960858 0.14507972
0.41814071 0.16939023 0.14514445
0.41811377 0.16918769 0.14506105
0.41809398 0.16898599 0.14496835
0.41809061 0.16878632 0.14485449
0.41808605 0.1685863 0.14474201
0.41807407 0.16838512 0.14463899
0.41793182 0.16816676 0.14470367
0.41790876 0.16796394 0.14461479
0.41775659 0.1677444 0.14469229
0.41784292 0.16755535 0.14446223
0.41781086 0.16735096 0.1443847
0.41778371 0.16714707 0.1443008
0.41789162 0.16695979 0.1440423
0.41801473 0.16677392 0.14376394
0.41814637 0.16658863 0.14347427
0.41813794 0.16638595 0.14336547
0.41800591 0.1661683 0.14341658
0.41798273 0.16596365 0.1433268
0.41748324 0.16570294 0.14385411
0.41745588 0.16549802 0.1437699
0.41780731 0.16533658 0.14319423
0.41778183 0.16513117 0.14310713
0.41727039 0.16487074 0.1436509
0.41723067 0.16466399 0.14358243
0.41770387 0.16451389 0.14284731
0.41768917 0.16430908 0.14274581
0.41719145 0.16405171 0.1432727
0.417281 0.16385829 0.14303565
0.41713151 0.16363907 0.14310965
0.41709784 0.16343215 0.14303288
0.41708621 0.16322739 0.14292724
0.41734931 0.16305073 0.14246319
0.41759875 0.16287188 0.14201644
0.41747507 0.16265471 0.14205647
0.41746175 0.1624486 0.14195234
0.41745126 0.16224259 0.14184439
0.41743666 0.162036 0.14174175
0.4171721 0.1618052 0.14196604
0.41700551 0.16158409 0.14206229
0.41697398 0.16137584 0.1419818
0.41694134 0.16116735 0.14190261
0.41680402 0.16094913 0.14196061
0.41677028 0.16074039 0.14188285
0.41662431 0.16052149 0.14195223
0.41659126 0.16031268 0.14187348
0.41644084 0.16009352 0.14194877
0.41653401 0.15989541 0.14170404
0.41652051 0.15968785 0.1415993
0.41676089 0.15950134 0.14116037
0.41675538 0.15929379 0.14104477
0.41687387 0.15909612 0.14076567
0.4167273 0.15887672 0.14083564
0.41671228 0.15866783 0.14073217
0.41670811 0.15845963 0.14061433
0.41682637 0.15826061 0.14033473
0.4166916 0.15804198 0.14038903
0.4166823 0.15783279 0.14027756
0.41665626 0.15762217 0.14018819
0.41650766 0.15740256 0.14026076
0.41634098 0.15718178 0.14035735
0.41633144 0.15697218 0.14024597
0.41631481 0.15676188 0.1401439
0.4162935 0.15655111 0.14004788
0.41639319 0.1563482 0.13979137
0.41635704 0.15613598 0.13971481
0.41634709 0.15592532 0.13960341
0.41632608 0.15571375 0.13950658
0.41604415 0.1554859 0.13975626
0.41575176 0.15525784 0.14002019
0.41614962 0.15507133 0.13936627
0.41628766 0.15486851 0.1390574
0.41643327 0.15466559 0.13873821
0.41639653 0.15445191 0.13866156
0.41622353 0.15423061 0.1387665
0.41605127 0.15400955 0.13887051
0.41603008 0.15379658 0.13877308
0.41601133 0.1535836 0.13867226
0.41600206 0.1533709 0.13855872
0.41612673 0.15316458 0.13826606
0.41597211 0.15294439 0.13834652
0.4157902 0.15272306 0.13846359
0.41534716 0.15249008 0.13893023
0.41517359 0.15226984 0.13903654
0.41475299 0.15203916 0.13947394
0.41514793 0.15184344 0.13881853
0.41500428 0.15162462 0.13888484
0.41512057 0.15141621 0.13860238
0.41509277 0.15120178 0.13851309
0.41507965 0.15098773 0.13840398
0.41504768 0.15077281 0.13832012
0.41503182 0.15055832 0.1382145
0.41514966 0.15034813 0.13792887
0.41526005 0.1501372 0.13765299
0.41117588 0.14979467 0.14302623
0.41090837 0.14957643 0.14326195
0.4105103 0.14935482 0.14367399
0.41059479 0.14914729 0.14343545
0.41081867 0.14894304 0.1430086
0.41031045 0.14871953 0.14356984
0.41052616 0.14851445 0.14315365
0.4103775 0.14830031 0.14322954
0.41035196 0.14808896 0.143139
0.41020322 0.14787492 0.14321512
0.40982419 0.1476566 0.14360307
0.4097887 0.14744517 0.14352606
0.4097662 0.14723384 0.14343138
0.4097456 0.14702237 0.14333403
0.40984669 0.14681247 0.14307144
0.4099524 0.14660217 0.14280231
0.41005903 0.14639141 0.14253165
0.40992689 0.14617759 0.14258516
0.40967467 0.14596272 0.14280206
0.40963688 0.14575002 0.14272745
0.40949258 0.14553644 0.14279774
0.41021299 0.14532812 0.14169048
0.41018897 0.1451143 0.14159644
0.41004878 0.14489993 0.14166059
0.40939045 0.14468448 0.14243166
0.40924567 0.14447096 0.14250265
0.40909228 0.14425758 0.14258549
0.40907419 0.14404416 0.14248352
0.4091737 0.14383024 0.14222071
0.40893075 0.14361718 0.14242601
0.40878344 0.14340401 0.14250064
0.40887019 0.14318949 0.14225489
0.40884089 0.1429754 0.14216787
0.40868863 0.14276224 0.14224924
0.40854731 0.14254913 0.14231575
0.4085241 0.14233482 0.1422203
0.40838125 0.14212182 0.14228894
0.40835205 0.14190738 0.14220157
0.40832162 0.14169282 0.14211576
0.40828088 0.14147827 0.14204413
0.40812343 0.14126563 0.14213289
0.40796623 0.14105314 0.14222147
0.40769392 0.14084312 0.14246862
0.40765494 0.14062861 0.14239457
0.40750974 0.14041634 0.14246686
0.40749377 0.14020115 0.14236097
0.40724716 0.13999152 0.1425733
0.40723342 0.13977617 0.14246425
0.40721333 0.13956082 0.14236392
0.40708289 0.13934845 0.142416
0.40693787 0.1391366 0.1424883
0.4067854 0.13892514 0.14257099
0.40674752 0.1387101 0.1424951
0.40670961 0.13849492 0.14241919
0.40667653 0.13827944 0.14233649
0.40652519 0.13806809 0.1424177
0.40649533 0.13785236 0.14233047
0.4064782 0.13763596 0.14222543
0.40633786 0.13742432 0.14229147
0.40630746 0.13720825 0.14220475
0.40627867 0.13699195 0.14211573
0.40612882 0.13678081 0.14219503
0.40597856 0.13656983 0.14227501
0.40581322 0.13635971 0.1423761
0.40578339 0.13614331 0.14228837
0.40565223 0.13593172 0.14234191
0.40575448 0.1357085 0.14206985
0.40573597 0.135491 0.14196609
0.40559721 0.13527967 0.14203013
0.40545261 0.13506876 0.14210241
0.40530729 0.13485804 0.14217576
0.40528172 0.13464068 0.14208172
0.40525621 0.13442314 0.14198743
0.4051162 0.1342122 0.14205347
0.40519026 0.13398844 0.14181955
0.40516639 0.1337703 0.14172272
0.40503806 0.13355859 0.14177231
0.40502778 0.13333936 0.14165625
0.40501583 0.13312003 0.14154242
0.4049933 0.13290121 0.14144331
0.40484914 0.1326905 0.14151514
0.40480846 0.13247274 0.14144143
0.40466303 0.13226226 0.14151515
0.40463251 0.13204363 0.14142706
0.40460172 0.13182487 0.14133929
0.40434411 0.1316229 0.14157115
0.40408522 0.13142145 0.14180513
0.40405983 0.13120238 0.14170979
0.40391883 0.13099223 0.14177763
0.40388891 0.13077332 0.1416886
0.40373674 0.1305642 0.14177226
0.40370503 0.13034527 0.14168563
0.40368617 0.13012512 0.14158075
0.40354684 0.12991503 0.14164631
0.40350908 0.12969628 0.14156808
0.40335757 0.1294874 0.141651
0.40332219 0.1292683 0.14156929
0.40329915 0.12904793 0.14147002
0.403274 0.12882759 0.14137356
0.40324369 0.12860754 0.14128438
0.40309826 0.12839821 0.14135873
0.4030661 0.12817816 0.14127207
0.40303975 0.12795739 0.14117703
0.402899 0.12774771 0.1412448
0.40287432 0.1275266 0.14114726
0.40273076 0.12731731 0.14121911
0.40270117 0.12709647 0.14112845
0.40254799 0.12688832 0.1412141
0.40240413 0.12667933 0.14128655
0.40226665 0.12646981 0.1413499
0.40212527 0.12626083 0.14141895
0.40197828 0.1260526 0.14149608
0.4018262 0.12584507 0.1415806
0.40178344 0.12562549 0.14150862
0.40174711 0.12540504 0.14142747
0.40159944 0.1251972 0.14150576
0.40158159 0.12497446 0.14139797
0.40156254 0.12475165 0.14129172
0.40154433 0.12452856 0.14118421
0.40152854 0.12430497 0.14107308
0.40173224 0.12405454 0.1406464
0.40181929 0.12381762 0.14038691
0.40168756 0.12360736 0.14044204
0.40143427 0.12341245 0.14067221
0.40140343 0.12318978 0.14058214
0.40126005 0.12298135 0.1406543
0.40124068 0.12275701 0.1405476
0.40133345 0.12251779 0.14027897
0.40142775 0.12227787 0.14000782
0.40117744 0.12208348 0.14023429
0.40114295 0.12186038 0.14014897
0.40099585 0.12165249 0.14022648
0.4009667 0.1214285 0.14013335
0.4009361 0.12120454 0.14004225
0.40079436 0.12099602 0.14011204
0.40076631 0.12077151 0.14001709
0.40040594 0.12059441 0.14040405
0.40025607 0.12038763 0.140486
0.40008944 0.12018344 0.14059234
0.40004557 0.11996137 0.14052045
0.40001711 0.11973687 0.14042607
0.40010676 0.11949446 0.14015985
0.40007806 0.11926948 0.14006552
0.40004557 0.11904491 0.13997665
0.39978826 0.11885485 0.14021519
0.39974344 0.11863218 0.14014426
0.39971441 0.11840688 0.14005023
0.3995795 0.1181982 0.14011058
0.39966643 0.11795416 0.13984704
0.3996304 0.11772946 0.13976288
0.39959788 0.11750402 0.13967353
0.3993555 0.11731285 0.13989109
0.39933345 0.11708564 0.1397863
0.39930949 0.11685855 0.13968432
0.3992826 0.11663175 0.13958642
0.3992576 0.11640446 0.13948566
0.3992283 0.1161777 0.13939112
0.39920187 0.11595029 0.1392923
0.39894423 0.11576289 0.13953286
0.39890134 0.11553831 0.13945815
0.39874351 0.11533389 0.13955238
0.39859879 0.11512734 0.13962737
0.39845416 0.11492091 0.13970235
0.39842042 0.11469455 0.13961414
0.39816642 0.11450823 0.13985035
0.39812407 0.11428343 0.13977483
0.39809355 0.1140563 0.13968164
0.39806905 0.11382787 0.13957959
0.39816001 0.11357751 0.13930684
0.39802873 0.11336878 0.13936222
0.39800262 0.11314006 0.13926217
0.39786151 0.11293329 0.13933212
0.39782882 0.11270563 0.13924164
0.39767903 0.11250067 0.13932455
0.39741784 0.1123178 0.13957265
0.39737523 0.11209208 0.13949689
0.39734331 0.11186409 0.13940519
0.39721203 0.11165591 0.13946095
0.39706752 0.11145051 0.13953635
0.39691305 0.11124729 0.13962665
0.39687285 0.11102079 0.13954714
0.39674109 0.11081307 0.13960379
0.39672467 0.11058143 0.13948876
0.39670077 0.11035115 0.13938475
0.39666662 0.11012282 0.13929588
0.39641494 0.1099406 0.13953137
0.39626834 0.10973635 0.13961038
0.39623106 0.10950866 0.13952619
0.39608547 0.10930434 0.13960367
0.39604825 0.10907648 0.13951933
0.39590642 0.10887148 0.13959134
0.39587197 0.10864284 0.13950267
0.39582729 0.1084163 0.13942924
0.39568156 0.10821232 0.13950723
0.39576676 0.1079563 0.13923895
0.3957532 0.10772222 0.13911852
0.39585117 0.10746239 0.1388306
0.3957271 0.10725314 0.13887584
0.39570439 0.10702048 0.13876882
0.39566898 0.10679057 0.1386807
0.39551646 0.10658801 0.13876876
0.39537266 0.10638354 0.1388438
0.39544031 0.10612896 0.13860038
0.39540666 0.10589813 0.13850933
0.39525583 0.10569534 0.13859493
0.39511299 0.1054908 0.13866857
0.39497352 0.10528557 0.13873723
0.39483872 0.10507934 0.13879892
0.39481243 0.10484646 0.13869661
0.39478686 0.1046132 0.13859311
0.39487323 0.10435177 0.13832
0.39484292 0.10411914 0.13822341
0.39480722 0.10388768 0.13813478
0.39476895 0.10365669 0.13804999
0.39461976 0.1034539 0.13813335
0.39447963 0.10324896 0.13820305
0.39434093 0.10304379 0.13827068
0.3942017 0.1028389 0.13833922
0.39405805 0.1026353 0.13841453
0.39402044 0.10240393 0.13832861
0.39398283 0.10217239 0.13824254
0.39372939 0.10199818 0.13848522
0.39368936 0.10176728 0.13840288
0.39364767 0.10153667 0.13832292
0.39339769 0.10136234 0.13856083
0.39325359 0.10115963 0.13863724
0.39322188 0.10092629 0.13854212
0.39319852 0.10069047 0.13843405
0.39328051 0.10042523 0.13816473
0.39314252 0.10022075 0.13823178
0.39310086 0.099989429 0.13815144
0.39296266 0.099785134 0.13821888
0.39293385 0.099549986 0.13811871
0.39301562 0.099283174 0.13784871
0.39298582 0.09904775 0.13774973
0.3929542 0.09881264 0.13765338
0.39281341 0.098608963 0.13772473
0.39266345 0.098408088 0.13781032
0.39251235 0.09820772 0.1378977
0.39237064 0.098004773 0.13797078
0.39234287 0.097768292 0.13786834
0.39242628 0.097498581 0.1375944
0.39240122 0.097260714 0.13748747
0.39237505 0.097022951 0.13738215
0.3922278 0.096821547 0.13746372
0.39219317 0.096586138 0.13737127
0.39194402 0.096415952 0.1376105
0.39190862 0.096180759 0.13751927
0.39176816 0.095977731 0.13759053
0.39172897 0.095743507 0.13750508
0.39158624 0.095541321 0.13757998
0.39133525 0.095373169 0.1378229
0.39119703 0.095170051 0.13789108
0.39105952 0.094966866 0.13795826
0.39102456 0.094731241 0.1378662
0.39098987 0.094495356 0.13777357
0.39095688 0.094258726 0.13767821
0.39102855 0.093988188 0.13741979
0.3909961 0.093750849 0.13732329
0.3909575 0.093515307 0.13723624
0.3909162 0.093280479 0.1371533
0.39077112 0.093079597 0.13723215
0.3905302 0.092910543 0.13746077
0.39050025 0.092671923 0.13736013
0.39036134 0.092469446 0.13742959
0.39031118 0.092237383 0.13736036
0.39016515 0.092037439 0.13744113
0.38993391 0.091866508 0.13765544
0.39000651 0.091592744 0.13739386
0.38986981 0.091389924 0.1374602
0.38971776 0.091192506 0.13755062
0.38967782 0.090956628 0.13746515
0.38954663 0.090752184 0.13752297
0.38952059 0.090511277 0.13741559
0.38949001 0.090271741 0.13731518
0.38945743 0.090032697 0.13721782
0.38942507 0.089793384 0.13711998
0.38949454 0.089517772 0.13686159
0.38924003 0.089356989 0.13711372
0.38898695 0.089196235 0.13736388
0.38873211 0.089036629 0.13761714
0.38880685 0.088758573 0.13735011
0.38888487 0.088478781 0.13707748
0.38896468 0.088197783 0.13680184
0.3889375 0.087955363 0.13669506
0.38890499 0.087714672 0.13659665
0.38875759 0.087516196 0.1366801
0.38871557 0.087278835 0.13659665
0.38835949 0.087158263 0.13701129
0.38822255 0.086956576 0.13707858
0.38839 0.086640671 0.13666248
0.38835338 0.086400904 0.13657022
0.38822544 0.086195566 0.13662308
0.38819379 0.085953698 0.13652277
0.38815725 0.085713468 0.13643008
0.38801509 0.085513622 0.13650563
0.38798457 0.085270882 0.13640323
0.38795686 0.085026845 0.13629624
0.38772377 0.084862486 0.13651699
0.38757172 0.084666915 0.13660851
0.38741732 0.084472485 0.13670397
0.38727733 0.084272563 0.13677651
0.38724574 0.084029905 0.1366756
0.38721663 0.083786055 0.13657069
0.38717338 0.083547637 0.13648826
0.38724226 0.083264112 0.13622597
0.38710341 0.083063617 0.13629657
0.38686424 0.082903832 0.13652831
0.38671818 0.082706757 0.13661081
0.38657922 0.08250697 0.13668203
0.38684943 0.082139887 0.13609523
0.38671592 0.081937462 0.13615736
0.38657972 0.081736282 0.13622397
0.3865504 0.081490971 0.13611841
0.38632369 0.081327543 0.13633099
0.38598612 0.081210896 0.13672268
0.38636231 0.080795705 0.13596269
0.38621867 0.080597833 0.13604137
0.38608029 0.080397896 0.13611168
0.38593993 0.080198959 0.13618532
0.38589591 0.079959109 0.13610306
0.38554513 0.079850376 0.13651749
0.38550165 0.079610467 0.1364345
0.38535547 0.07941471 0.13651794
0.38541487 0.079130098 0.13626799
0.38538185 0.078885131 0.13616768
0.38545585 0.078593254 0.13589343
0.38552892 0.078301176 0.13562036
0.38549444 0.078055874 0.13552189
0.38545677 0.077811763 0.13542843
0.38542885 0.077563122 0.13531905
0.38539863 0.077315286 0.13521326
0.38526586 0.077113055 0.1352745
0.38512462 0.076914772 0.13534969
0.38508859 0.076669246 0.13525319
0.3850615 0.076419488 0.13514197
0.38503632 0.076168627 0.13502753
0.38500109 0.075922102 0.13492933
0.38475683 0.075770982 0.13517314
0.38470802 0.075530648 0.13509718
0.38456136 0.075335249 0.13518146
0.38441518 0.075139821 0.13526514
0.38437715 0.074894331 0.13517138
0.38433883 0.074648805 0.13507801
0.38429061 0.074407697 0.13500077
0.38403863 0.074262127 0.13525841
0.38399988 0.074016601 0.13516563
0.38397089 0.073766246 0.13505664
0.38394669 0.073513396 0.13493967
0.3839176 0.073262602 0.13483056
0.38378668 0.073060349 0.1348893
0.3837522 0.072811879 0.13478896
0.38371423 0.072564885 0.13469425
0.38367847 0.072316602 0.13459575
0.38364774 0.072065666 0.13448879
0.38361776 0.071814165 0.13438046
0.38359281 0.071559951 0.13426366
0.38356048 0.071309119 0.134159
0.38352156 0.071061313 0.13406512
0.38337165 0.070868209 0.13415518
0.38321534 0.070678487 0.13425604
0.38316682 0.070435263 0.13417792
0.3829295 0.070286319 0.13441357
0.38289165 0.070037752 0.13431776
0.38276055 0.069835961 0.13437703
0.38273242 0.069582239 0.13426486
0.38259572 0.069383383 0.13433355
0.38245416 0.06918712 0.13441035
0.38229549 0.068999812 0.13451585
0.38214245 0.06880983 0.13461208
0.38210309 0.068561569 0.1345185
0.3820838 0.068302706 0.13439122
0.38216484 0.067991585 0.13409594
0.38223663 0.067684621 0.13381577
0.38208768 0.067492291 0.13390502
0.38193381 0.067302719 0.13400266
0.38177902 0.067113869 0.1341019
0.3815439 0.066967607 0.13433614
0.38151389 0.066713303 0.13422623
0.3815816 0.066406809 0.13395187
0.38155386 0.066150621 0.13383776
0.38153175 0.065891176 0.13371399
0.38148507 0.065644652 0.13363144
0.38123637 0.065506749 0.13388914
0.38118887 0.065260693 0.13380808
0.38095361 0.065116286 0.13404354
0.38091758 0.064863972 0.13394308
0.38077706 0.064668506 0.13401893
0.38073522 0.06441915 0.13392806
0.38069442 0.064169005 0.13383538
0.38055545 0.063972816 0.13390869
0.38042355 0.063772894 0.13397017
0.38038331 0.06352219 0.13387632
0.38043961 0.063217483 0.13361865
0.38039789 0.062967017 0.13352698
0.38026068 0.062769935 0.1335974
0.38022566 0.062515482 0.13349423
0.38018316 0.062265031 0.13340363
0.3799504 0.062122203 0.13363665
0.37981299 0.061925687 0.13370767
0.37977663 0.061671667 0.13360655
0.37984887 0.061355278 0.13332024
0.37981874 0.061097041 0.13320813
0.37968627 0.060897514 0.13327062
0.37963709 0.060649984 0.13319084
0.37948397 0.060462587 0.13328871
0.37943244 0.060216255 0.13321289
0.37918833 0.060082242 0.13346666
0.37904871 0.059887573 0.13354182
0.3789151 0.059689529 0.13360667
0.37887821 0.059434637 0.13350582
0.37883678 0.059182189 0.1334126
0.37869316 0.05899018 0.13349473
0.37865409 0.058736131 0.13339734
0.37852496 0.058535628 0.13345465
0.3784883 0.058279879 0.13335297
0.37844053 0.058030576 0.13327029
0.37818888 0.05790405 0.13353881
0.37813652 0.057657555 0.13346404
0.37800124 0.05746121 0.1335322
0.37796542 0.057204463 0.13342875
0.37792686 0.056949183 0.13332993
0.3778891 0.056693159 0.13322958
0.37775546 0.056495875 0.13329497
0.37772262 0.056236558 0.13318595
0.37768638 0.05597914 0.13308263
0.37765175 0.055720456 0.13297644
0.3776072 0.055467717 0.13288727
0.37746975 0.055272818 0.13295931
0.37732765 0.05508101 0.13303956
0.37728378 0.054827623 0.13294905
0.37713587 0.05463966 0.1330395
0.37699175 0.054449476 0.1331234
0.37684041 0.054264098 0.13322005
0.37679264 0.054013014 0.13313627
0.3766593 0.053816348 0.13320163
0.37662587 0.053555876 0.13309273
0.37659252 0.053295106 0.13298354
0.37655458 0.053037047 0.13288221
0.37631857 0.052906811 0.13312715
0.37627614 0.052651584 0.1330336
0.3762303 0.052398399 0.13294598
0.37608686 0.052208684 0.13302928
0.37595016 0.052014746 0.13310081
0.37591228 0.051756114 0.13299906
0.37588045 0.051493242 0.13288659
0.37593949 0.051170103 0.13261423
0.37590331 0.050909437 0.1325089
0.37576589 0.050715826 0.13258165
0.37562478 0.050524838 0.13266098
0.37558383 0.050267071 0.13256398
0.3755452 0.050007515 0.13246265
0.37541163 0.049811587 0.13252878
0.37526923 0.049621791 0.13261059
0.37522891 0.049363099 0.13251212
0.37529275 0.049033478 0.13222936
0.3752622 0.048767462 0.13211322
0.37513134 0.048569717 0.13217458
0.37498802 0.048380621 0.13225806
0.37494287 0.048124284 0.13216758
0.3749021 0.047864735 0.13206923
0.37476152 0.047673941 0.13214797
0.37471044 0.047421277 0.1320678
0.37444812 0.0473153 0.13236308
0.41649905 0.19153567 0.15864229
0.41170955 0.19012719 0.16434608
0.41041878 0.18962388 0.16580983
0.41030839 0.18942407 0.16584201
0.41043982 0.18928578 0.16558048
0.41093016 0.18923795 0.16488262
0.41094846 0.18906996 0.16475791
0.410945 0.18889628 0.16465957
0.41092375 0.18871799 0.16458282
0.41088903 0.18853624 0.16452236
0.41088858 0.1883629 0.16442011
0.41090691 0.18819404 0.16429488
0.4109267 0.18802536 0.16416773
0.41166249 0.18803214 0.16316713
0.41215184 0.18797711 0.1624663
0.41215003 0.18780136 0.16236451
0.41200882 0.18759169 0.16243286
0.41184735 0.18737721 0.16252612
0.41183382 0.18719849 0.16243853
0.41172215 0.18699612 0.16247089
0.41184303 0.18684925 0.16221869
0.4118574 0.18667668 0.16209668
0.41279101 0.18672134 0.16084844
0.41291198 0.18657258 0.16059497
0.41280898 0.18637091 0.16061592
0.41245723 0.18611115 0.16094208
0.4124704 0.18593679 0.16082063
0.41237721 0.18573761 0.16082969
0.41252607 0.18559426 0.16054137
0.41347092 0.18563318 0.15927437
0.41361913 0.18548796 0.15898582
0.41366839 0.18531975 0.15881872
0.41372356 0.18515262 0.15864424
0.4138495 0.18500116 0.15838242
0.41376835 0.18480277 0.15837549
0.41336721 0.18453284 0.15876304
0.41060561 0.18373817 0.16206212
0.42015335 0.18492647 0.1497308
0.42041707 0.18479568 0.14929312
0.42040771 0.18460533 0.14919293
0.42026487 0.18438619 0.14925793
0.42024872 0.18419421 0.14916605
0.42011714 0.18397754 0.14921716
0.42010149 0.18378548 0.14912455
0.42009264 0.1835947 0.14902343
0.42006999 0.18340087 0.14893936
0.42005232 0.18320794 0.148849
0.42003554 0.18301505 0.14875744
0.4199011 0.18279773 0.14881206
0.41987136 0.182602 0.14873652
0.41972908 0.18238315 0.14880089
0.4195849 0.18216404 0.14886774
0.41956463 0.18197009 0.14878033
0.41931191 0.18172923 0.14898245
0.4192965 0.1815362 0.14888899
0.41963777 0.1814141 0.14835057
0.41974583 0.18124491 0.1481026
0.41984698 0.18107393 0.14786303
0.41935381 0.18078598 0.14836551
0.41922086 0.18056914 0.1484184
0.4191944 0.18037307 0.14833817
0.41904262 0.18015268 0.14841464
0.41888589 0.17993146 0.14849736
0.41885337 0.17973411 0.14842464
0.41883618 0.17953955 0.1483327
0.41883284 0.17934746 0.14822328
0.41894299 0.17917652 0.14797141
0.4189235 0.17898095 0.14788198
0.41900799 0.17880455 0.14766195
0.41898364 0.17860767 0.14757833
0.41872451 0.1783675 0.14778967
0.4189629 0.17821862 0.14737581
0.41883779 0.17800298 0.14741868
0.41882512 0.17780776 0.14732012
0.41880852 0.17761165 0.14722644
0.4187856 0.17741427 0.14714061
0.41864902 0.17719658 0.14719787
0.41862696 0.17699918 0.14711085
0.41861749 0.17680386 0.14700791
0.41861683 0.17660989 0.14689374
0.41861033 0.17641473 0.14678678
0.41811067 0.17613444 0.14730269
0.41809052 0.1759371 0.14721313
0.41807798 0.17574093 0.14711383
0.41794628 0.17552443 0.14716519
0.41791621 0.17532511 0.14708798
0.41788423 0.17512533 0.14701308
0.41786173 0.17492703 0.14692609
0.41820198 0.17478839 0.14637925
0.41805041 0.17456824 0.14645556
0.41766161 0.17430961 0.14683299
0.41763037 0.17410946 0.14675683
0.41736653 0.17387179 0.14697607
0.41734785 0.17367363 0.14688399
0.41734067 0.17347714 0.14677723
0.4173328 0.17328036 0.14667119
0.41732761 0.17308384 0.14656164
0.41743794 0.17290507 0.14630492
0.41754365 0.17272517 0.14605382
0.41751724 0.1725246 0.14597088
0.417485 0.172323 0.14589527
0.41731793 0.17210093 0.14599162
0.41729137 0.17190008 0.14590867
0.41715413 0.17168263 0.14596704
0.41714588 0.17148432 0.14586067
0.41701144 0.17126733 0.14591548
0.41699696 0.17106792 0.14581688
0.41697982 0.17086795 0.14572161
0.41695738 0.17066708 0.1456331
0.41692621 0.17046481 0.14555559
0.41690868 0.17026433 0.14546056
0.41690236 0.17006528 0.14535107
0.41689679 0.16986614 0.14524052
0.41675872 0.16964853 0.14529991
0.4168478 0.16946214 0.14506766
0.41682208 0.16925976 0.14498268
0.41680011 0.16905773 0.14489281
0.41678843 0.16885693 0.14478962
0.41677323 0.1686555 0.14469083
0.41676018 0.16845419 0.1445892
0.41674665 0.16825265 0.14448807
0.41673526 0.1680512 0.14438409
0.41670531 0.1678472 0.14430392
0.41667444 0.16764297 0.14422488
0.41664883 0.16743925 0.14413895
0.41662666 0.16723582 0.14404851
0.41661155 0.16703312 0.14394884
0.41672957 0.1668466 0.14367704
0.41672528 0.16664474 0.14356314
0.41683891 0.16645691 0.14329652
0.41669834 0.16623825 0.14335868
0.41654491 0.16601816 0.14343755
0.41604027 0.165757 0.14397164
0.41614458 0.16556753 0.14371678
0.41649204 0.16540563 0.14314629
0.41647124 0.16520077 0.14305313
0.41657662 0.16501001 0.14279602
0.41642794 0.16479039 0.1428687
0.41590923 0.16452995 0.14342241
0.41588596 0.16432473 0.14333244
0.41574925 0.16410708 0.14338991
0.41572946 0.16390207 0.14329533
0.4158383 0.16371056 0.14303304
0.41593647 0.1635175 0.14278443
0.4160468 0.16332527 0.14251973
0.41615796 0.16313267 0.14225367
0.41628316 0.16294105 0.14196903
0.41627893 0.16273591 0.14185308
0.41615146 0.16251832 0.14189801
0.41614503 0.16231272 0.14178476
0.41612309 0.16210541 0.14169171
0.41572797 0.16186208 0.14208679
0.41555816 0.16164082 0.14218737
0.41553187 0.16143322 0.14210007
0.41551128 0.161226 0.14200522
0.41550171 0.16101962 0.14189588
0.41535455 0.16080064 0.1419668
0.41533014 0.16059271 0.14187676
0.41516271 0.16037203 0.14197442
0.41501394 0.16015315 0.14204766
0.41497824 0.1599441 0.14197238
0.41507256 0.15974596 0.14172603
0.41517806 0.15954834 0.1414647
0.41528821 0.15935066 0.14119697
0.4154208 0.15915433 0.14089942
0.41540372 0.15894549 0.14079884
0.41540077 0.15873757 0.14067951
0.41537595 0.15852776 0.14058888
0.41549593 0.15832892 0.14030701
0.4153468 0.15810922 0.14038029
0.415194 0.15788938 0.14045846
0.41516665 0.15767889 0.14037091
0.41489103 0.1574503 0.14061165
0.41485727 0.15723935 0.14053255
0.41472059 0.15702105 0.14058959
0.41471046 0.15681155 0.14047915
0.41495812 0.15661931 0.1400269
0.4150652 0.15641694 0.13976064
0.41516984 0.15621394 0.13949728
0.41501391 0.15599377 0.13957953
0.41499609 0.15578245 0.13947847
0.41486579 0.15556398 0.13952675
0.41485876 0.1553531 0.13941118
0.41500098 0.15515089 0.13909701
0.4148674 0.15493205 0.13914958
0.41498396 0.15472761 0.13886908
0.41413784 0.15446873 0.13987079
0.41409308 0.1542556 0.13980544
0.41391915 0.15403539 0.13991222
0.41402504 0.15383008 0.13964579
0.41413236 0.15362439 0.13937724
0.41466373 0.15343949 0.13854197
0.41479671 0.15323362 0.13823822
0.41480291 0.15302116 0.13810369
0.41506243 0.15282026 0.13763013
0.41491759 0.15260015 0.13769728
0.41504139 0.15239206 0.1374048
0.41486973 0.15217073 0.13750783
0.41456628 0.15194404 0.13778767
0.41425797 0.15171766 0.13807428
0.41409203 0.15149742 0.13817012
0.41026056 0.15113664 0.14318755
0.41364738 0.15105326 0.13851368
0.41375458 0.15084352 0.13824287
0.41373569 0.15062889 0.13814127
0.41357952 0.15040949 0.13822433
0.41368902 0.15019885 0.13794982
0.41379076 0.14998747 0.13768548
0.41390628 0.14977606 0.13740233
0.4119643 0.14950472 0.13989288
0.411825 0.14928772 0.1399543
0.41167739 0.14907059 0.14002702
0.41165036 0.14885665 0.13993695
0.41329777 0.14868289 0.13758448
0.41075349 0.14840902 0.14089593
0.41046804 0.14819002 0.14115572
0.40914789 0.14795031 0.14281601
0.40912285 0.1477385 0.14272453
0.4090946 0.14752647 0.14263725
0.40896884 0.14731266 0.14268211
0.40906593 0.14710242 0.14242478
0.40880331 0.14688651 0.14265524
0.40865606 0.14667255 0.1427293
0.40863079 0.14646019 0.1426378
0.40849373 0.14624646 0.14269814
0.40835103 0.1460328 0.14276619
0.40819949 0.14581917 0.14284633
0.40805036 0.14560571 0.14292328
0.40802142 0.14539312 0.14283665
0.4079923 0.14518037 0.14275014
0.4079679 0.14496748 0.14265715
0.40794218 0.14475442 0.14256583
0.40792 0.1445412 0.14246957
0.40776718 0.14432785 0.14255165
0.40763023 0.14411461 0.14261208
0.40760863 0.14390118 0.14251499
0.40747532 0.14368802 0.14257047
0.40745768 0.14347437 0.1424678
0.40731132 0.14326136 0.14254124
0.40728238 0.14304759 0.14245388
0.4071351 0.14283469 0.1425287
0.40712154 0.14262061 0.14242014
0.4071013 0.1424064 0.14232065
0.40708339 0.14219199 0.14221789
0.40716732 0.141976 0.1419751
0.40702406 0.14176297 0.14204431
0.40687135 0.14155023 0.14212658
0.40683109 0.14133568 0.14205426
0.40666899 0.14112327 0.14214951
0.40627342 0.14091569 0.14256646
0.4061211 0.14070372 0.14264868
0.40609914 0.14048898 0.14255121
0.40608925 0.14027378 0.14243698
0.40606949 0.14005861 0.14233635
0.40592915 0.13984643 0.14240202
0.40578136 0.13963458 0.14247811
0.40563807 0.13942273 0.14254804
0.40560189 0.13920781 0.14246993
0.40556386 0.1389928 0.14239426
0.40553176 0.13877746 0.14231026
0.40538874 0.13856572 0.14237992
0.40536118 0.13835007 0.14228959
0.40544844 0.1381301 0.14203992
0.40543061 0.13791361 0.14193581
0.40529269 0.1377016 0.14199831
0.4051545 0.13748972 0.14206128
0.40500575 0.13727839 0.14213896
0.40486392 0.1370669 0.14220712
0.40483546 0.13685058 0.14211759
0.40468729 0.13663949 0.14219466
0.40464434 0.13642366 0.14212526
0.40438619 0.13621798 0.14235568
0.40435898 0.13600141 0.14226428
0.404338 0.13578437 0.14216417
0.4043178 0.1355671 0.14206283
0.40428922 0.13535009 0.14197305
0.40426347 0.13513277 0.14187928
0.40423271 0.13491556 0.14179239
0.40432724 0.1346911 0.1415301
0.40430146 0.13447312 0.14143595
0.40405017 0.13426833 0.14165755
0.40390062 0.13405779 0.14173679
0.40386289 0.13384049 0.14165935
0.40383694 0.13362232 0.14156535
0.40382189 0.13340326 0.14145592
0.40357921 0.13319895 0.14166604
0.40354714 0.13298094 0.14158043
0.40350762 0.13276327 0.14150523
0.40346432 0.13254574 0.14143527
0.40343267 0.13232724 0.14134882
0.40329605 0.13211618 0.14141013
0.40327784 0.13189653 0.14130466
0.4031361 0.13168591 0.14137322
0.40299377 0.13147549 0.14144267
0.40286398 0.13126421 0.14149451
0.4028382 0.13104485 0.14139958
0.40269729 0.13083453 0.14146714
0.40243235 0.13063443 0.14171015
0.40250975 0.13040648 0.14146921
0.40225452 0.13020603 0.14169879
0.40222779 0.12998651 0.14160497
0.40219992 0.12976693 0.14151272
0.40216571 0.12954773 0.14142938
0.40213311 0.12932824 0.14134362
0.40199608 0.12911804 0.14140603
0.40197504 0.12889731 0.14130375
0.40195194 0.12867659 0.14120433
0.4019362 0.12845498 0.14109433
0.40191096 0.12823409 0.14099768
0.40176758 0.12802449 0.14106911
0.40161321 0.12781611 0.14115623
0.40146169 0.12760761 0.14123939
0.40131599 0.1273987 0.14131437
0.40128684 0.12717797 0.14122319
0.4012579 0.12695704 0.14113158
0.40121812 0.1267371 0.14105541
0.40094894 0.12654145 0.14130683
0.40079415 0.12633394 0.14139505
0.40065283 0.12612513 0.1414641
0.40062618 0.12590377 0.14136912
0.4003638 0.12570861 0.14161156
0.40033001 0.12548803 0.14152683
0.40017796 0.12528083 0.14161149
0.40015709 0.12505859 0.14150809
0.40002084 0.1248497 0.14157018
0.40011522 0.12461357 0.14130118
0.40009519 0.12439065 0.14119625
0.40007597 0.12416745 0.14109004
0.4000538 0.12394442 0.14098796
0.40002638 0.12372184 0.14089337
0.39999855 0.12349913 0.14079916
0.39998093 0.12327496 0.14069021
0.39984503 0.12306574 0.14075163
0.39983252 0.12284067 0.14063513
0.40013349 0.12257434 0.14006615
0.40011713 0.12234891 0.13995469
0.39986736 0.12215445 0.14018038
0.39983636 0.1219309 0.14009002
0.39969692 0.12172196 0.14015648
0.39966387 0.1214985 0.14006898
0.39963385 0.12127445 0.13997701
0.39959988 0.12105079 0.1398907
0.39957699 0.12082539 0.13978818
0.3992126 0.12064872 0.14018086
0.39906129 0.12044198 0.14026478
0.39890334 0.12023637 0.14035845
0.39875799 0.12002909 0.14043391
0.39883846 0.11978837 0.14018121
0.39870095 0.1195799 0.14024526
0.39855272 0.11937317 0.14032495
0.39851052 0.11915039 0.14025041
0.39835948 0.11894425 0.14033428
0.39832985 0.11871938 0.1402413
0.39830717 0.11849324 0.14013809
0.39816844 0.1182853 0.1402041
0.39813793 0.11806019 0.14011219
0.39820629 0.11781897 0.13987571
0.39817783 0.11759304 0.13978052
0.39804003 0.11738487 0.13984516
0.39801872 0.11715754 0.13973933
0.39799017 0.11693124 0.13964406
0.39796346 0.11670443 0.13954589
0.39793912 0.11647705 0.13944423
0.3979091 0.11625044 0.13935074
0.39788568 0.11602251 0.13924745
0.39763051 0.11583471 0.13948441
0.39758897 0.1156099 0.13940772
0.39742464 0.11540665 0.13951156
0.39716238 0.11522105 0.13975948
0.39701664 0.11501502 0.13983619
0.39687961 0.11480755 0.13990018
0.39674324 0.11460009 0.13996327
0.39682204 0.11435319 0.13970917
0.39680204 0.1141241 0.13960055
0.39677462 0.1138962 0.13950273
0.39686105 0.11364669 0.13923666
0.3967202 0.11343975 0.13930619
0.39657539 0.11323372 0.13938168
0.39654219 0.11300635 0.13929206
0.39640212 0.11279953 0.13936058
0.39626086 0.11259308 0.13943097
0.39622203 0.11236662 0.13934964
0.39618614 0.11213941 0.13926378
0.39615998 0.11191009 0.1391634
0.39613491 0.11168037 0.13906133
0.39588124 0.11149677 0.13929877
0.39572537 0.11129367 0.13939106
0.3956815 0.11106773 0.13931686
0.3956615 0.11083674 0.13920712
0.39565191 0.11060335 0.13908172
0.39552057 0.11039527 0.1391376
0.3954846 0.11016714 0.13905132
0.39533466 0.1099631 0.13913497
0.3950814 0.10978135 0.13937292
0.3948198 0.10960189 0.13962361
0.39466679 0.10939933 0.1397123
0.39451775 0.10919608 0.13979524
0.39448103 0.10896829 0.13971019
0.39444518 0.10874012 0.13962376
0.39452127 0.10848685 0.13936961
0.39438775 0.10828011 0.13942921
0.3943693 0.10804751 0.13931635
0.39434683 0.10781559 0.13920942
0.39432159 0.1075841 0.13910651
0.39430085 0.10735139 0.13899675
0.39427969 0.10711855 0.13888747
0.39424759 0.10688804 0.13879451
0.39409718 0.10668515 0.13887948
0.39406082 0.10645547 0.13879284
0.39412636 0.1062014 0.13855258
0.3939831 0.10599681 0.13862675
0.39384142 0.105792 0.1386987
0.39370474 0.10558612 0.13876316
0.39367872 0.1053534 0.13866061
0.39354342 0.10514727 0.13872299
0.39351285 0.10491544 0.1386272
0.39358985 0.1046567 0.13836852
0.39356637 0.10442256 0.13826165
0.39353809 0.10418941 0.1381619
0.39329281 0.10401092 0.1383909
0.393255 0.10378014 0.1383056
0.39332309 0.10352209 0.13805947
0.39338824 0.10326432 0.13781756
0.39291567 0.10314523 0.13839215
0.39277059 0.10294205 0.13846967
0.39273971 0.10270911 0.13837361
0.39271024 0.10247561 0.1382753
0.39256826 0.10227174 0.13834816
0.39252877 0.1020407 0.13826501
0.39249074 0.1018091 0.13817948
0.39235243 0.10160436 0.13824683
0.39231294 0.10137299 0.13816342
0.39205864 0.10119997 0.13840804
0.39192122 0.10099542 0.13847426
0.39200151 0.10073103 0.1382077
0.39197907 0.10049458 0.13809806
0.39194703 0.10026056 0.13800299
0.39179823 0.10005908 0.13808656
0.39164427 0.099859208 0.13817814
0.39151177 0.099653475 0.138237
0.39159456 0.099386543 0.13796559
0.3915692 0.099150017 0.13785988
0.39153802 0.098914981 0.1377629
0.39140409 0.098709479 0.13782385
0.39137271 0.098474264 0.13772711
0.39133838 0.09823972 0.13763484
0.39129934 0.098006383 0.13754967
0.39126155 0.097772501 0.13746253
0.39123163 0.097536109 0.13736308
0.3912029 0.097299166 0.13726169
0.39106929 0.097093508 0.13732207
0.39103496 0.096858025 0.13722923
0.39100391 0.096621349 0.13713118
0.39075413 0.096451178 0.13737124
0.39071921 0.09621565 0.13727918
0.39057559 0.096013419 0.13735527
0.39053714 0.095778778 0.13726851
0.39038533 0.095579259 0.13735741
0.3901242 0.09541411 0.13761595
0.3898744 0.095245928 0.13785726
0.38974223 0.095041081 0.13791615
0.38971189 0.094804019 0.13781688
0.38967872 0.094567649 0.13772193
0.38974985 0.094297647 0.13746461
0.38972199 0.094059028 0.13736108
0.38958567 0.093855336 0.13742632
0.38944167 0.09365426 0.13750359
0.3893981 0.09342052 0.13742438
0.38936228 0.093184061 0.13733301
0.38933247 0.092945442 0.1372321
0.38919777 0.092741422 0.13729492
0.38915521 0.092506811 0.13721386
0.38900134 0.092309333 0.13730672
0.38864169 0.092181325 0.13772184
0.38861614 0.091941163 0.13761422
0.38880357 0.091628388 0.13717273
0.38866431 0.091426283 0.13724291
0.38851786 0.091226786 0.13732451
0.38837498 0.091026224 0.13740057
0.38835254 0.090784103 0.13728753
0.38832858 0.090542302 0.13717675
0.38808817 0.090375938 0.13740629
0.38804898 0.090139367 0.13731945
0.38800925 0.089902818 0.13723332
0.38796955 0.089666083 0.13714704
0.38782686 0.089465857 0.13722304
0.38767102 0.08927048 0.13731989
0.38741863 0.089110002 0.13756928
0.38739201 0.088868558 0.13746235
0.38736477 0.088627115 0.13735625
0.38754088 0.088311389 0.13692847
0.38750833 0.08807113 0.13683033
0.38758639 0.08779002 0.13655695
0.38755229 0.087549739 0.13646096
0.38740394 0.087351628 0.13654593
0.38705608 0.087228008 0.13694751
0.38691783 0.08702682 0.13701692
0.38687992 0.086788051 0.13692698
0.38683903 0.086550251 0.13684171
0.38659933 0.086387619 0.13707244
0.38657072 0.086145118 0.13696763
0.38654417 0.085901603 0.13685939
0.38651493 0.085658923 0.13675532
0.38648096 0.085417822 0.13665861
0.38676351 0.085053936 0.1360569
0.38674161 0.084807232 0.13594043
0.38649738 0.084647141 0.13617885
0.38623711 0.084493853 0.13644329
0.38619214 0.084256291 0.13636377
0.386051 0.084056631 0.13643798
0.38590783 0.083857901 0.13651553
0.38575804 0.083662018 0.13660383
0.38571623 0.083423033 0.1365191
0.38546702 0.083267331 0.136767
0.38522717 0.083108373 0.13700014
0.38519281 0.082866527 0.13690352
0.38526726 0.082580134 0.13663197
0.38544428 0.082251213 0.13619506
0.38542119 0.082003593 0.13607964
0.38529602 0.081797846 0.13612846
0.38505784 0.081639022 0.13635942
0.38482523 0.081478372 0.13658169
0.38458294 0.081322253 0.13681993
0.38507307 0.080859452 0.135876
0.38461706 0.08079309 0.13645932
0.38488144 0.080423363 0.13587889
0.38473576 0.080226503 0.13596103
0.38458684 0.080031194 0.13604847
0.38454661 0.079789564 0.13595998
0.38440505 0.079591297 0.13603565
0.38415658 0.079439297 0.13628468
0.38401017 0.07924363 0.13636848
0.38406959 0.078958645 0.13611823
0.38403693 0.078713335 0.13601726
0.38410503 0.078423649 0.13575238
0.38417336 0.078133292 0.13548678
0.38414165 0.077886574 0.1353837
0.38411862 0.077635795 0.1352663
0.38409287 0.077385977 0.13515323
0.38406476 0.077136964 0.13504383
0.38382483 0.076982781 0.13527995
0.38379198 0.076735824 0.13517827
0.38365987 0.076533534 0.13523859
0.38362348 0.076287925 0.13514256
0.38358054 0.076045111 0.13505709
0.38353795 0.075801946 0.13497099
0.38340414 0.075600483 0.13503414
0.38336468 0.075355679 0.13494274
0.38332477 0.07511089 0.13485196
0.38318047 0.074914388 0.1349324
0.38303778 0.074717306 0.13501027
0.38288343 0.074525855 0.1351074
0.38284245 0.07428138 0.13501832
0.38271207 0.07407885 0.13507617
0.38268393 0.073828071 0.13496575
0.38265574 0.073577061 0.13485527
0.38262692 0.073326133 0.13474575
0.38258871 0.073079467 0.13465151
0.38255158 0.072832085 0.13455543
0.38251603 0.072583735 0.1344566
0.38237834 0.072384611 0.13452643
0.38234243 0.072136194 0.13442802
0.38231397 0.071883939 0.13431725
0.38238496 0.071582764 0.13404164
0.38224643 0.071383923 0.13411275
0.38210094 0.071188651 0.13419551
0.38194901 0.070996776 0.13428912
0.38179529 0.070805967 0.13438576
0.38164377 0.070614293 0.13447887
0.38160175 0.070368066 0.13439021
0.38146284 0.070170261 0.13446245
0.38143674 0.069915809 0.13434711
0.38140839 0.069662228 0.13423535
0.3812792 0.06945958 0.1342915
0.38104296 0.069311582 0.13452625
0.38099587 0.069067419 0.13444567
0.38084826 0.06887465 0.13453281
0.38080168 0.068630077 0.13445127
0.38077343 0.068375856 0.134339
0.38074797 0.068119936 0.13422191
0.38081932 0.067813404 0.13394257
0.38077265 0.0675679 0.13386059
0.38062239 0.067376465 0.13395217
0.38047299 0.067184776 0.13404241
0.38043943 0.066932186 0.13393837
0.38031107 0.066729568 0.13399339
0.38038099 0.066421747 0.1337153
0.38025677 0.066216782 0.13376322
0.38022578 0.065962069 0.13365442
0.38018525 0.065712236 0.13356146
0.37994364 0.065570533 0.13380733
0.37989712 0.065323904 0.13372448
0.37975672 0.065128013 0.13379994
0.37971649 0.064877793 0.13370639
0.37967589 0.064627558 0.13361332
0.37953633 0.064431354 0.13368744
0.37949514 0.064181246 0.13359529
0.37935442 0.063985825 0.13367146
0.37921846 0.063787952 0.13373968
0.37917975 0.063536227 0.13364318
0.37903917 0.063341051 0.1337193
0.37899205 0.063093781 0.13363689
0.37884527 0.062902242 0.13372362
0.37881297 0.062646478 0.13361597
0.3786785 0.062448177 0.13368192
0.37854844 0.062247537 0.13374045
0.37861559 0.061934873 0.13346323
0.37858 0.061680198 0.13336068
0.37854421 0.061425462 0.1332584
0.37840796 0.061228156 0.13332736
0.37836233 0.060978808 0.13324168
0.3782177 0.060786486 0.13332504
0.37817225 0.060536861 0.133239
0.37812978 0.060285293 0.13314766
0.37808144 0.060036935 0.13306633
0.37774333 0.059958175 0.1334812
0.37760159 0.059764929 0.13356009
0.37756258 0.059511289 0.13346285
0.37752378 0.059257314 0.13336515
0.37738425 0.059062898 0.13344029
0.37724808 0.058866665 0.13350976
0.37721297 0.058610186 0.13340548
