# .PCD v0.7 - Point Cloud Data file format
VERSION 0.7
FIELDS x y z
SIZE 4 4 4
TYPE F F F
COUNT 1 1 1
WIDTH 1408
HEIGHT 1
VIEWPOINT 0 0 0 1 0 0 0
POINTS 1408
DATA ascii
0.46814716 0.1682488 0.076290712
0.46826097 0.16806526 0.076026395
0.4682546 0.16786519 0.07591638
0.46810666 0.16764614 0.075988397
0.46808338 0.16744363 0.075899988
0.46805865 0.16724078 0.075813398
0.46804634 0.16703941 0.075710714
0.46791202 0.1668222 0.075765222
0.4680109 0.16663474 0.075518966
0.46785453 0.16641468 0.075601876
0.46783191 0.16621149 0.07551223
0.46780336 0.16600743 0.075430095
0.46778983 0.16580506 0.075328499
0.46790567 0.16561827 0.075059474
0.46789637 0.16541593 0.074952081
0.46801138 0.16522828 0.074683681
0.46787539 0.16501042 0.074740127
0.46785808 0.1648066 0.074642792
0.46783555 0.16460203 0.074552134
0.4677037 0.16438469 0.07460323
0.46768716 0.16418061 0.074504703
0.46742648 0.16394879 0.074723065
0.46739268 0.16374272 0.074646935
0.46737275 0.16353804 0.074552685
0.46722603 0.16331932 0.074623242
0.46709102 0.16310199 0.074678585
0.46745369 0.16293818 0.074086204
0.4674494 0.16273439 0.073971108
0.46757525 0.16254407 0.073686317
0.46756321 0.16233893 0.073581025
0.46754909 0.1621334 0.073478371
0.46740246 0.1619142 0.073548526
0.46724463 0.16169399 0.073633358
0.46722579 0.16148779 0.073536679
0.46733952 0.16129445 0.073266685
0.46731916 0.1610876 0.07317175
0.46728963 0.16087973 0.073088691
0.46713516 0.16065983 0.073169127
0.46698433 0.16044043 0.073244855
0.46683499 0.16022128 0.073318735
0.46682048 0.16001463 0.073215932
0.46666873 0.15979539 0.073293015
0.46664396 0.15958762 0.073203549
0.46659663 0.15937771 0.073143587
0.46643981 0.15915817 0.07322745
0.46628141 0.15893863 0.073313475
0.46639502 0.15874232 0.073041871
0.4663865 0.15853533 0.072930664
0.46637785 0.15832815 0.072819501
0.46649715 0.15813117 0.072539732
0.46646684 0.1579217 0.072456837
0.46644774 0.157713 0.072359055
0.46629241 0.15749349 0.072440848
0.4664129 0.15729532 0.072158784
0.46640918 0.15708727 0.072040379
0.46653137 0.1568884 0.071755499
0.46649715 0.15667754 0.071677148
0.4662109 0.15644836 0.071931928
0.46592879 0.15621991 0.072181582
0.46578166 0.15600134 0.07225281
0.46561798 0.15578178 0.072345942
0.46557277 0.15557037 0.072282284
0.46567172 0.15536845 0.072027355
0.46621013 0.15519479 0.071189106
0.46623728 0.15498686 0.07102868
0.46624833 0.15477765 0.070889413
0.46624056 0.15456702 0.070775062
0.46620047 0.15435424 0.070703566
0.4660362 0.15413395 0.070797056
0.46585849 0.15391304 0.070908666
0.46571338 0.15369418 0.070976883
0.4656961 0.15348262 0.070874959
0.46582469 0.15327889 0.070578486
0.465819 0.15306741 0.070460796
0.46594292 0.15286255 0.070169985
0.46606129 0.1526569 0.069886327
0.4660376 0.15244362 0.069792151
0.46602535 0.15223074 0.069682539
0.46587893 0.15201126 0.069752187
0.46597353 0.15180314 0.069499522
0.46594268 0.15158887 0.069414496
0.46603709 0.15138002 0.069161654
0.46588755 0.1511602 0.069235384
0.4661518 0.15095785 0.068754494
0.46612531 0.15074283 0.06866309
0.46596113 0.15052219 0.068756312
0.46563563 0.15029553 0.069066256
0.46534774 0.15007082 0.069325984
0.46506327 0.14984669 0.069581449
0.46505135 0.1496325 0.069470584
0.46505094 0.1494185 0.069344193
0.46503469 0.14920379 0.069238931
0.46528083 0.14899708 0.068780214
0.46526331 0.14878164 0.068676293
0.4642567 0.14853747 0.069905788
0.46423104 0.14832261 0.069813371
0.46283594 0.14807135 0.071569145
0.46279955 0.14785755 0.071491957
0.46485373 0.14769396 0.068590075
0.46469077 0.14747448 0.068682313
0.46312398 0.14722475 0.070673466
0.46283311 0.14700468 0.070940077
0.46283615 0.14679074 0.070808977
0.46282831 0.14657639 0.07069245
0.46283221 0.14636204 0.070559859
0.46476626 0.14617765 0.067809701
0.46448997 0.14595643 0.068055689
0.46434781 0.14573744 0.068119854
0.46392411 0.14551517 0.068566501
0.46389619 0.145298 0.068475723
0.46030515 0.14504649 0.07322973
0.46001711 0.14483114 0.073495224
0.45938191 0.14461377 0.074233577
0.45924681 0.14440072 0.074291602
0.45935297 0.14418891 0.074020922
0.4594636 0.14397663 0.07374391
0.45943618 0.14376354 0.07365492
0.4594177 0.14355031 0.073553637
0.45938104 0.14333689 0.073477
0.45935184 0.14312333 0.073390201
0.45894673 0.1429106 0.073817089
0.45867914 0.14269812 0.074056357
0.45865196 0.14248484 0.07396692
0.45852217 0.14227207 0.074017853
0.45850018 0.14205857 0.073921219
0.45846969 0.14184497 0.073836073
0.45844182 0.1416312 0.073747262
0.45841715 0.14141724 0.073653966
0.45816347 0.14120595 0.073874995
0.45826381 0.14099023 0.073609948
0.4582409 0.14077586 0.073514044
0.45820829 0.14056149 0.073431313
0.45817819 0.14034691 0.07334511
0.4579182 0.1401365 0.073575243
0.4578886 0.1399219 0.073488295
0.45774502 0.13970956 0.07355836
0.45772052 0.13949469 0.073464334
0.45758519 0.13928227 0.073523059
0.45755482 0.13906735 0.073436961
0.45727864 0.13885871 0.073690251
0.45722714 0.13864435 0.073633373
0.45695582 0.13843623 0.073880315
0.45693606 0.138221 0.073779583
0.45692128 0.13800544 0.073671848
0.45689335 0.13779011 0.073582232
0.45685717 0.13757491 0.073503911
0.45682111 0.13735956 0.073425338
0.45679545 0.1371437 0.073332295
0.45676976 0.13692766 0.073239133
0.45674565 0.1367114 0.07314378
0.45660934 0.13649946 0.0732041
0.45633623 0.13629329 0.073454693
0.45619112 0.13608214 0.073527545
0.45603561 0.13587156 0.073614895
0.45601085 0.13565525 0.073520347
0.45596975 0.13543954 0.07344842
0.45594171 0.13522306 0.073358297
0.4559176 0.13500623 0.073262513
0.4556675 0.1348006 0.073481992
0.45551682 0.13459024 0.07356292
0.4554837 0.13437381 0.073479682
0.45545769 0.13415687 0.073386475
0.45544136 0.13393921 0.073279604
0.45542985 0.13372108 0.073165864
0.455405 0.13350353 0.073070705
0.45527285 0.13329215 0.073125735
0.45513481 0.13308124 0.07318905
0.45499983 0.13287026 0.073248133
0.45508912 0.13264525 0.072992682
0.45506155 0.13242728 0.072901011
0.45502478 0.13220975 0.072822094
0.45486629 0.13200024 0.072914213
0.45471588 0.13179034 0.072995022
0.45445794 0.13158809 0.073227212
0.45442781 0.13137011 0.073138967
0.45439592 0.13115209 0.073053151
0.45436728 0.1309337 0.072962672
0.45434669 0.13071454 0.072860718
0.45433652 0.13049439 0.072743937
0.45432878 0.13027383 0.07262364
0.4543075 0.13005413 0.072522327
0.45428485 0.12983435 0.072422802
0.45414415 0.12962399 0.072490141
0.45398983 0.12941489 0.072576761
0.45383137 0.1292063 0.072669357
0.45378482 0.12898833 0.072603524
0.45352399 0.1287888 0.072841302
0.45361206 0.12855905 0.072584689
0.45358193 0.12833937 0.072495461
0.45343953 0.12812969 0.072565466
0.45328531 0.12792124 0.07265237
0.45314473 0.12771167 0.072719932
0.45313272 0.12749007 0.07260485
0.45300397 0.12727946 0.072655663
0.4529857 0.12705822 0.072549343
0.45294785 0.1268387 0.072470725
0.4527961 0.12663043 0.07255435
0.45263726 0.126423 0.072648168
0.45248938 0.12621465 0.072726399
0.45245534 0.12599462 0.072642326
0.45241895 0.12577468 0.072561532
0.45215842 0.12557848 0.0728008
0.45211953 0.12535882 0.072723553
0.45197734 0.12515029 0.072793946
0.45194846 0.12492938 0.072702289
0.45180792 0.12472078 0.072770432
0.45165968 0.12451319 0.072849616
0.45163345 0.12429179 0.072754055
0.45149598 0.12408309 0.072817937
0.45146725 0.12386176 0.072725818
0.45144814 0.12363912 0.072619766
0.45142668 0.12341657 0.072517008
0.4515267 0.12317909 0.072239548
0.45151097 0.12295529 0.072128177
0.45138747 0.12274465 0.072171867
0.4514848 0.1225064 0.071897566
0.45145705 0.1222835 0.071803182
0.45142183 0.12206136 0.071719438
0.45139474 0.12183803 0.071623892
0.45137879 0.12161306 0.071512192
0.45125192 0.12140255 0.071560472
0.45121726 0.12117982 0.071475655
0.45095155 0.12098811 0.071724683
0.45079261 0.12078232 0.071819574
0.45064577 0.12057504 0.071897089
0.45062107 0.12035093 0.071797818
0.45059848 0.12012634 0.071695387
0.45056805 0.11990266 0.071604222
0.45052782 0.11968023 0.071527153
0.45049155 0.11945707 0.071444273
0.45034492 0.11924987 0.071521491
0.45020193 0.11904228 0.071593553
0.44994327 0.11885204 0.071833819
0.449907 0.11862887 0.071750969
0.44976196 0.11842203 0.07182622
0.44973135 0.11819784 0.071734965
0.44970709 0.11797249 0.071634352
0.44955993 0.1177661 0.071712822
0.44953355 0.11754088 0.071615219
0.44950309 0.11731613 0.071523458
0.44948742 0.11708883 0.071409941
0.44934708 0.11688143 0.071478486
0.44932261 0.11665532 0.071377695
0.44939744 0.11641271 0.071131557
0.44947398 0.11616936 0.070882648
0.44934404 0.11596 0.070935845
0.44931057 0.1157345 0.07084775
0.44916162 0.11552843 0.070928842
0.44900221 0.11532432 0.071025342
0.44885147 0.11511891 0.071109325
0.44870579 0.11491276 0.071185887
0.44857234 0.11470464 0.071244597
0.44854295 0.11447822 0.071150333
0.44851989 0.11425051 0.07104674
0.44849607 0.11402273 0.070944101
0.44847846 0.11379363 0.070832163
0.44823116 0.11360623 0.071058661
0.44820172 0.11337921 0.070964128
0.4481661 0.11315314 0.070878595
0.44812825 0.11292735 0.070796281
0.44820544 0.11267974 0.070543975
0.44818211 0.1124507 0.070439875
0.4481574 0.11222174 0.070337772
0.44800451 0.11201724 0.070425183
0.44786084 0.11181115 0.070499092
0.44783688 0.11158179 0.070395678
0.44770059 0.11137436 0.070458651
0.44766635 0.11114682 0.070370376
0.44741163 0.11096314 0.070609182
0.44715157 0.110781 0.070856214
0.44710296 0.1105565 0.070789337
0.44694495 0.11035421 0.070885062
0.44679764 0.1101499 0.070964962
0.44665629 0.10994451 0.071036071
0.44651976 0.10973827 0.071100086
0.44637424 0.10953405 0.071177632
0.44633052 0.10930846 0.071103424
0.44629771 0.10908041 0.071012884
0.44638053 0.10882743 0.07074973
0.44635895 0.10859644 0.070642084
0.44633642 0.10836545 0.070535779
0.44620144 0.10815883 0.07059744
0.44627261 0.10790699 0.070350885
0.4461256 0.10770299 0.070430547
0.4458794 0.10752127 0.070658833
0.44564098 0.10733825 0.070875794
0.44572157 0.10708359 0.070614636
0.44580153 0.10682856 0.070354104
0.44566193 0.10662326 0.070422918
0.44564304 0.10639031 0.070310444
0.44573218 0.10613209 0.070035517
0.44581771 0.10587417 0.069765657
0.44567949 0.10566827 0.069832236
0.44563401 0.10544059 0.06975922
0.4453775 0.10526294 0.070004016
0.44533539 0.10503449 0.069925964
0.44529665 0.10480505 0.069842666
0.44515219 0.10460109 0.069918931
0.44512284 0.10436921 0.069821417
0.44509995 0.10413556 0.06971398
0.44518647 0.10387471 0.06944111
0.44517031 0.10363879 0.069323123
0.44515049 0.10340358 0.069210619
0.44500881 0.10319875 0.069282562
0.44485837 0.10299627 0.069367766
0.44470558 0.1027946 0.069456756
0.44466716 0.10256383 0.069372237
0.44463626 0.10233095 0.069276273
0.44449043 0.10212764 0.069354743
0.44445264 0.10189637 0.069269061
0.44430006 0.10169499 0.069357932
0.44426453 0.10146296 0.069268733
0.4440105 0.10128863 0.069512159
0.44375902 0.1011141 0.069751978
0.44361883 0.10091025 0.069822431
0.44358858 0.10067692 0.069725245
0.44356051 0.1004428 0.069624633
0.44341552 0.10024035 0.069702476
0.44326741 0.10003892 0.069785178
0.44311643 0.099838428 0.06987235
0.4429791 0.099634342 0.069938779
0.44295564 0.099398673 0.069830924
0.44325012 0.099073716 0.06923604
0.44322002 0.098839 0.069137841
0.44319275 0.098603278 0.069035172
0.44316283 0.098368123 0.068936527
0.44313443 0.098132327 0.068835348
0.44289011 0.097958498 0.069065809
0.4428502 0.097725965 0.068982303
0.44270062 0.097525179 0.069067359
0.44266853 0.097290203 0.068971753
0.44264191 0.097053424 0.068867564
0.44250453 0.096849188 0.068933994
0.44237202 0.096643642 0.068992943
0.44232658 0.096412204 0.068917662
0.44218156 0.096210524 0.068995982
0.44203773 0.096008644 0.069072574
0.44200388 0.095773548 0.068979323
0.44196898 0.095538594 0.068887532
0.44182557 0.09533672 0.068963528
0.44168544 0.09513399 0.069034576
0.44164911 0.09489926 0.068944871
0.44150829 0.094696872 0.069017023
0.44147477 0.094461083 0.068922937
0.4414427 0.094224632 0.068826407
0.44131747 0.094017446 0.068874449
0.44129661 0.093777195 0.068760365
0.44116396 0.093572408 0.06881991
0.44112098 0.093338974 0.0687401
0.44096702 0.093141153 0.068832934
0.44081652 0.092942409 0.068920493
0.44077435 0.092708588 0.068839312
0.44073361 0.09247414 0.068755805
0.44070303 0.092236169 0.068656355
0.44056821 0.092032447 0.068719566
0.44054371 0.091792226 0.06861043
0.44051906 0.09155184 0.068501472
0.44039154 0.091345713 0.068553269
0.44025487 0.091142774 0.06861946
0.44020823 0.090909518 0.068544716
0.44005191 0.090713382 0.068641752
0.44000176 0.090481192 0.068572462
0.43986267 0.090279385 0.068642616
0.43982714 0.090042025 0.068550259
0.43958443 0.089876242 0.068783313
0.4395462 0.089639775 0.068695158
0.43940461 0.089439273 0.068769544
0.4393633 0.089203708 0.068686128
0.43922809 0.089001104 0.068750501
0.43919057 0.088764012 0.068661034
0.43895218 0.088598251 0.068888187
0.43892092 0.088358879 0.068788826
0.43889436 0.088117622 0.068681926
0.43896621 0.087840632 0.068419456
0.4389289 0.08760266 0.068329185
0.43888614 0.087366506 0.068247437
0.43885008 0.087127745 0.068154991
0.4387123 0.086926155 0.068223506
0.438683 0.086684667 0.068120182
0.4386552 0.086442426 0.068014383
0.43863028 0.086198896 0.067903936
0.43849561 0.085996188 0.067967474
0.43815041 0.085872717 0.068365574
0.43800396 0.085675076 0.068448275
0.43775299 0.085517235 0.068697274
0.43770739 0.085281715 0.068619788
0.43766698 0.085044079 0.068533927
0.43753481 0.084841497 0.068594187
0.43803081 0.084396735 0.067653
0.43790445 0.084191114 0.067703545
0.43787402 0.083948277 0.067600936
0.43773139 0.083749071 0.067677498
0.4377889 0.083471477 0.067434251
0.43764395 0.083273187 0.067514509
0.43729952 0.083153985 0.067914069
0.43705118 0.082997441 0.068160266
0.43680859 0.082839131 0.068397582
0.43730193 0.082386389 0.067455292
0.43684679 0.082313374 0.068033367
0.43680313 0.08207529 0.067951709
0.43676588 0.081834443 0.06785965
0.43694311 0.081505992 0.067422718
0.43701589 0.081219368 0.067153275
0.43687883 0.081018418 0.067221195
0.43673363 0.080820948 0.067302257
0.43649644 0.080661781 0.067531675
0.43636531 0.080458969 0.067590356
0.43654671 0.080125749 0.06714493
0.43651542 0.079880796 0.067042321
0.43657675 0.079596624 0.066789955
0.43611175 0.079534471 0.067387998
0.43605405 0.079300657 0.067328006
0.43581247 0.079145119 0.06756559
0.43567708 0.078944638 0.067631483
0.4356485 0.078698397 0.067524374
0.4355109 0.07849896 0.067593902
0.43537098 0.0783007 0.067667305
0.43543723 0.078012921 0.067406058
0.4354102 0.077765331 0.067296058
0.43537572 0.07752078 0.067198008
0.43533492 0.077278793 0.067110121
0.43538764 0.076995313 0.066869915
0.43524718 0.076796994 0.066944003
0.43511367 0.076595753 0.067006886
0.43518573 0.076302744 0.066734612
0.43506163 0.076097205 0.066782117
0.43503794 0.07584653 0.066665649
0.43510705 0.075553648 0.066397518
0.43506977 0.075308479 0.066302955
0.43502969 0.075064398 0.066212833
0.43488994 0.074865714 0.066285759
0.43484652 0.074622966 0.066200972
0.43480471 0.074379295 0.066113532
0.4346689 0.074178919 0.066180021
0.43463165 0.073932946 0.066084921
0.43449065 0.073735103 0.066160023
0.43444902 0.073490947 0.066072017
0.43430924 0.073292688 0.066145211
0.43426299 0.073050506 0.066064596
0.43423048 0.072801664 0.065961361
0.4342016 0.072550863 0.065851957
0.43407974 0.072344154 0.065895677
0.43404278 0.072096914 0.065799415
0.43389988 0.071900383 0.065877914
0.43386203 0.071653351 0.065782994
0.43383047 0.071403086 0.065677613
0.43360078 0.071248829 0.06589967
0.43356085 0.071002543 0.065808058
0.43341392 0.070808418 0.065893471
0.43335864 0.070569485 0.065827161
0.43331134 0.070326462 0.065747529
0.43317246 0.07012859 0.06581974
0.43314019 0.069877937 0.065715075
0.43299651 0.069682568 0.065795332
0.43296212 0.069432735 0.065694004
0.43293673 0.069178164 0.065577656
0.43291807 0.068919949 0.065449864
0.43268606 0.068769313 0.065677226
0.43264073 0.068524495 0.065593898
0.43248945 0.068333402 0.065687031
0.43244922 0.068085805 0.065595061
0.43250924 0.067786559 0.065335512
0.43237218 0.067588225 0.065405011
0.43234035 0.067335658 0.065298557
0.43230972 0.067082241 0.065190017
0.43227604 0.066830195 0.065086424
0.43213311 0.066634953 0.065165758
0.43199548 0.066437095 0.065236241
0.43195504 0.066188313 0.065143794
0.43191472 0.065939277 0.065051079
0.43177566 0.065742299 0.065124065
0.431642 0.065542623 0.06518811
0.4316029 0.065292701 0.06509316
0.43156165 0.065043703 0.065001726
0.43141425 0.0648515 0.065088958
0.43137178 0.064602971 0.064999461
0.43123412 0.06440568 0.065070331
0.4311918 0.064156845 0.064980417
0.43114978 0.063907661 0.064889967
0.43110967 0.063657261 0.06479615
0.43077719 0.063566811 0.065196395
0.43074003 0.0633149 0.06509769
0.4307006 0.063064039 0.06500268
0.43065935 0.062813975 0.064910591
0.43051636 0.062620208 0.064990848
0.43047258 0.06237134 0.064902902
0.43023622 0.062229987 0.065141797
0.43020219 0.061975624 0.06503734
0.43016756 0.061721373 0.064933717
0.43003863 0.061520152 0.064990342
0.43000355 0.061265886 0.064887375
0.42997441 0.061008021 0.064774156
0.43003473 0.060698867 0.064508319
0.42979008 0.060563684 0.064762175
0.42974028 0.060317159 0.064683855
0.42960376 0.060120456 0.064753562
0.42957589 0.059861071 0.064637661
0.42954218 0.059604831 0.064531624
0.4293983 0.059412479 0.064613968
0.42924535 0.059225611 0.064711928
0.42909101 0.059039786 0.064812392
0.42895046 0.058846071 0.064889312
0.42891812 0.058588721 0.064780742
0.42888007 0.058334522 0.064681858
0.42873707 0.058142386 0.064763129
0.4286944 0.057890691 0.064672023
0.42865241 0.057638422 0.064579666
0.42861134 0.057385355 0.06448555
0.42837268 0.057250895 0.064731628
0.42832989 0.056998849 0.064640492
0.42818785 0.056806669 0.064720392
0.42813852 0.056558378 0.064640373
0.42799121 0.056369595 0.064729512
0.42795357 0.056114011 0.064629257
0.42782882 0.055911593 0.064679474
0.42779028 0.055656284 0.06458056
0.42774767 0.05540324 0.06448859
0.42771056 0.05514662 0.064386994
0.42768252 0.054884151 0.064269513
0.42755869 0.054681033 0.064318091
0.42751926 0.054425336 0.06422019
0.42737833 0.054233015 0.064298481
0.42733747 0.053977981 0.064202935
0.42709556 0.053849496 0.064457029
0.42704317 0.053601697 0.06438148
0.42689887 0.05341208 0.064466
0.42685923 0.053156026 0.064368188
0.42682284 0.052897684 0.064264566
0.42668244 0.05270572 0.06434232
0.42664182 0.052449837 0.064245939
0.42660576 0.052190788 0.064141452
0.42656752 0.051932916 0.064040661
0.42642412 0.051743031 0.064123809
0.42628086 0.051553242 0.064206749
0.42614257 0.051360376 0.064281136
0.42610443 0.051102169 0.064179987
0.42606997 0.050841294 0.064072222
0.42603874 0.05057808 0.063958734
0.42600831 0.050314054 0.063843578
0.4258675 0.050122894 0.063922375
0.4257279 0.049931139 0.063999176
0.42567924 0.049678937 0.063916028
0.42563346 0.049424618 0.063827574
0.42558581 0.049171343 0.06374234
0.4254483 0.048978351 0.063815564
0.42540884 0.048719347 0.063715756
0.42527932 0.048521072 0.063774943
0.4252401 0.04826165 0.063674539
0.42520499 0.047999211 0.063566774
0.42516968 0.047736652 0.063459188
0.42512909 0.047477446 0.06336078
0.42498964 0.047285959 0.063437551
0.42494923 0.047026381 0.063338667
0.42481232 0.046833307 0.063411087
0.42466637 0.04664664 0.06349954
0.42450446 0.046471298 0.063616574
0.46698716 0.19029658 0.090949014
0.46330854 0.18917456 0.095306158
0.46200836 0.1886687 0.096781313
0.46201259 0.18849802 0.096674234
0.46239725 0.18842389 0.09610498
0.46216184 0.18819183 0.096288681
0.46216011 0.18801899 0.096188515
0.46226218 0.1878721 0.095961973
0.4623737 0.1877272 0.095723718
0.46235695 0.18754995 0.095641389
0.46235374 0.18737592 0.095542505
0.46235907 0.18720385 0.095433086
0.46236208 0.18703105 0.095326453
0.46320841 0.18706501 0.09419097
0.46335569 0.18692628 0.093907565
0.46349278 0.18678463 0.093636319
0.46347916 0.186606 0.093548894
0.46332341 0.18639292 0.093635142
0.46329427 0.18621042 0.093566641
0.46316364 0.18600352 0.093622178
0.46316531 0.18582827 0.093515918
0.46386176 0.18581785 0.092558756
0.46377769 0.18562129 0.092556909
0.46366423 0.1854178 0.092591077
0.46364519 0.18523651 0.092509508
0.46362469 0.18505475 0.092429653
0.4636361 0.18488029 0.092310533
0.46366569 0.18470985 0.092168957
0.46403533 0.18461758 0.091609493
0.46407452 0.18444856 0.091455668
0.46435311 0.18433399 0.091007292
0.46440831 0.18416788 0.090833351
0.46528292 0.18418714 0.089650556
0.4653022 0.18401155 0.089519992
0.46523669 0.18381669 0.089493811
0.46473867 0.18352509 0.090000778
0.46219963 0.18278001 0.09302558
0.47234103 0.18428543 0.08007136
0.47191545 0.18400441 0.080485687
0.47177547 0.18378592 0.080547169
0.47189525 0.18362351 0.080287248
0.47175351 0.18340458 0.080350891
0.47160539 0.1831844 0.080422461
0.4715704 0.18298838 0.080353916
0.47154924 0.18279517 0.080268145
0.4714123 0.18257745 0.080325931
0.47152615 0.18241236 0.080072522
0.47151712 0.18222125 0.079971433
0.47137812 0.18200302 0.080031723
0.47122857 0.18178269 0.080105171
0.4711957 0.18158647 0.0800336
0.4711712 0.18139187 0.079951555
0.47103477 0.18117434 0.080008775
0.47102422 0.18098238 0.079909295
0.47100949 0.18078941 0.079814911
0.47086838 0.18057099 0.079877943
0.47071165 0.18034956 0.07996054
0.47054678 0.18012667 0.080053374
0.47051856 0.17993087 0.079975739
0.47050712 0.17973822 0.079877049
0.47050071 0.17954642 0.079771966
0.47049084 0.17935377 0.079671115
0.47048214 0.17916118 0.079568714
0.47046793 0.17896737 0.079473093
0.47055948 0.17879361 0.079244986
0.4703947 0.17857076 0.079337716
0.47023952 0.17834988 0.07941854
0.47011209 0.17813437 0.079464644
0.47011074 0.17794248 0.079352617
0.47009945 0.17774858 0.079252943
0.46995103 0.17752916 0.079325423
0.47028488 0.1773985 0.07879205
0.47027126 0.17720346 0.078694865
0.47039479 0.17703319 0.078425169
0.47027022 0.17681766 0.078467324
0.47026005 0.17662273 0.078365549
0.47024721 0.17642717 0.078267023
0.47023171 0.17623097 0.078171775
0.47009432 0.17601311 0.078230083
0.46982709 0.17577256 0.078452229
0.46967909 0.17555317 0.078524113
0.46965161 0.17535481 0.078443915
0.46975327 0.17517856 0.078200534
0.46975121 0.17498416 0.078087956
0.46973476 0.1747871 0.077993497
0.46922752 0.1745069 0.078519821
0.46906507 0.17428552 0.078610271
0.46891791 0.17406684 0.078681439
0.4690305 0.17389141 0.078423589
0.46902719 0.17369643 0.078312427
0.46901327 0.17349952 0.078214571
0.46899313 0.17330146 0.078124523
0.4689666 0.1731022 0.078042522
0.46894151 0.17290305 0.077958569
0.46879119 0.17268376 0.078033701
0.46864709 0.17246559 0.078100994
0.4686318 0.17226782 0.078004494
0.46850157 0.17205191 0.078054234
0.4684943 0.17185518 0.077947408
0.46848285 0.17165765 0.077845782
0.46859151 0.17147836 0.077591017
0.46857846 0.1712801 0.077491224
0.46855336 0.17107987 0.07740663
0.46863484 0.17089549 0.077185974
0.46859521 0.17069271 0.077119738
0.46845332 0.17047468 0.077184096
0.46843487 0.17027488 0.077090725
0.46843052 0.17007701 0.07697925
0.46843642 0.16988042 0.076854527
0.46842545 0.16968119 0.076751277
0.46827599 0.16946207 0.076825291
0.46811241 0.16924107 0.076917529
0.46808565 0.16903944 0.07683444
0.46819502 0.16885662 0.076576605
0.46819526 0.16865829 0.076458588
0.46830195 0.16847435 0.076203749
0.46841151 0.16829038 0.07594496
0.46827367 0.1680726 0.076003954
0.46825898 0.1678714 0.075904623
0.46835735 0.16768503 0.075659677
0.46834818 0.1674841 0.075553
0.46832916 0.16728172 0.07545884
0.46819627 0.16706443 0.075511336
0.46806216 0.16684708 0.075565487
0.46804479 0.16664468 0.075469092
0.46801701 0.16644078 0.075386032
0.4679926 0.16623721 0.075298533
0.46797597 0.16603443 0.07520093
0.46807283 0.16584542 0.074956492
0.46806198 0.1656429 0.074851155
0.46804237 0.16543916 0.074756995
0.46802264 0.16523522 0.074662924
0.46788877 0.1650176 0.074716598
0.4678739 0.16481405 0.074616104
0.46798077 0.1646245 0.074357688
0.46783355 0.16440523 0.074428573
0.46720651 0.16413137 0.075122237
0.46717951 0.16392648 0.075037524
0.46702585 0.16370726 0.07511726
0.4670063 0.16350305 0.075022772
0.46699056 0.16329908 0.074923187
0.46735242 0.16313592 0.074332282
0.46746671 0.16294515 0.074062988
0.4675757 0.16275337 0.0738004
0.46754459 0.16254641 0.073720038
0.46726817 0.1623138 0.073959485
0.46725038 0.16210821 0.073861748
0.46724194 0.16190341 0.073751688
0.46722275 0.16169736 0.07365565
0.46708027 0.16147885 0.073720515
0.46707112 0.16127358 0.07361123
0.4670471 0.1610667 0.073521242
0.46702489 0.16085982 0.073428765
0.46700567 0.16065307 0.073332354
0.46725976 0.16047183 0.072877839
0.46712837 0.16025403 0.072928011
0.4669944 0.1600361 0.072981596
0.46682855 0.15981537 0.073077068
0.46654481 0.15958428 0.073327392
0.4665058 0.15937522 0.073256597
0.46647617 0.15916684 0.073173389
0.46632451 0.15894786 0.073250517
0.46642101 0.15875004 0.073001385
0.4665319 0.158553 0.072733015
0.4665083 0.15834442 0.072641447
0.46675944 0.15815803 0.07218793
0.46659997 0.1579379 0.072275013
0.46658343 0.15772924 0.072173774
0.4665572 0.15751964 0.072085202
0.46641123 0.15730068 0.072154641
0.46639097 0.15709138 0.072058082
0.46638471 0.15688294 0.071942925
0.46637094 0.15667377 0.071837604
0.46637255 0.15646553 0.071711808
0.46635738 0.15625587 0.071608126
0.46647367 0.15605524 0.071330249
0.46644622 0.15584423 0.071242511
0.46602955 0.15560673 0.071670532
0.46573564 0.15537816 0.07193619
0.46584988 0.15517671 0.071660697
0.46610096 0.15498358 0.071203232
0.46622318 0.15478152 0.070916444
0.46621421 0.15457085 0.070803642
0.46619862 0.15435959 0.070699573
0.46633247 0.15415704 0.070396632
0.46618882 0.15393777 0.070462644
0.46618518 0.15372662 0.070342273
0.466162 0.15351418 0.070247889
0.46627635 0.15330911 0.069970042
0.46624601 0.1530958 0.069884896
0.46621108 0.15288208 0.069805771
0.46603918 0.1526612 0.069909424
0.46588999 0.15244165 0.069982827
0.465873 0.15222871 0.069879651
0.46586198 0.15201588 0.069768429
0.46584249 0.15180245 0.069668412
0.46580368 0.15158799 0.069594055
0.46590817 0.15137973 0.069327831
0.46560296 0.15115334 0.069610238
0.46557492 0.15093908 0.069521397
0.46458042 0.15068527 0.070728719
0.46455157 0.15047181 0.070641428
0.46438512 0.15025291 0.070738763
0.46437144 0.15003988 0.070631057
0.46435237 0.14982647 0.070530444
0.4650377 0.14963743 0.069482416
0.4657262 0.14944664 0.068429142
0.46571416 0.14923124 0.068317741
0.46400788 0.14896268 0.070488185
0.46409971 0.14875203 0.070237845
0.46154964 0.14846465 0.073549286
0.46152306 0.14825301 0.073460013
0.46161789 0.14804444 0.073206693
0.46277601 0.1478623 0.071517318
0.4654395 0.14771345 0.067792118
0.46526545 0.14749302 0.067898929
0.46511057 0.14727318 0.067979991
0.46495816 0.14705355 0.068057716
0.4645285 0.14682873 0.068510979
0.46007681 0.14653197 0.074413404
0.45980632 0.1463163 0.074654803
0.4597795 0.14610487 0.074565977
0.45977363 0.1458936 0.0744486
0.4644717 0.14574443 0.067945093
0.46445256 0.14552687 0.067842066
0.45972368 0.14525819 0.074139729
0.45957053 0.1450447 0.074222177
0.45952776 0.1448323 0.074154511
0.45961341 0.1446207 0.073911965
0.45959955 0.14440808 0.073804677
0.45982704 0.14419641 0.073368475
0.45993933 0.14398354 0.07308884
0.4597955 0.14376961 0.073158279
0.45978272 0.14355594 0.073048934
0.45963472 0.14334209 0.073124155
0.45947903 0.1431284 0.073209912
0.45907435 0.1429155 0.073636115
0.45879441 0.14270291 0.073892191
0.45864436 0.1424901 0.073970839
0.4585076 0.14227737 0.074031293
0.45848647 0.14206389 0.073933467
0.45834231 0.14185129 0.074004114
0.45831755 0.14163765 0.073911175
0.45829925 0.14142376 0.073809221
0.45828521 0.14120963 0.073701322
0.45825687 0.14099552 0.073612988
0.45834464 0.14077951 0.073364913
0.45818385 0.14056708 0.073458403
0.45815322 0.14035255 0.07337293
0.45800391 0.14014009 0.073450729
0.45797527 0.13992536 0.07336244
0.45783809 0.13971278 0.073423579
0.45757696 0.13950309 0.073655695
0.4574315 0.13929108 0.073728517
0.45750895 0.13907366 0.073493719
0.45723942 0.13886489 0.073737875
0.45720977 0.13864999 0.073650822
0.45718852 0.13843469 0.073552057
0.45705742 0.13822252 0.073605165
0.4570325 0.13800712 0.073511377
0.45665503 0.13780299 0.073905692
0.45685056 0.13758028 0.073506489
0.45693347 0.13736077 0.073263034
0.45678589 0.13714918 0.073339015
0.45663959 0.13693768 0.073413238
0.45650077 0.13672602 0.073477179
0.45648497 0.13650957 0.073370263
0.45633927 0.13629828 0.073443875
0.45619586 0.13608705 0.073514327
0.45593402 0.13588113 0.073749676
0.45579833 0.13566995 0.073809624
0.45576853 0.13545397 0.073722124
0.45562342 0.13524334 0.073795304
0.45582795 0.13501573 0.073380947
0.45580789 0.13479863 0.073279485
0.45566428 0.13458772 0.07335043
0.45562479 0.13437144 0.073275998
0.455475 0.13416101 0.073355675
0.45533252 0.13395031 0.073425144
0.45531332 0.13373275 0.073322251
0.45528084 0.13351579 0.073237881
0.45525745 0.13329813 0.073140651
0.45522001 0.13308115 0.073063016
0.45519099 0.13286351 0.072973505
0.45505247 0.13265261 0.07303749
0.45514253 0.13242713 0.072780654
0.45511714 0.13220873 0.072685793
0.45485261 0.1320062 0.07292676
0.45470464 0.13179615 0.073004156
0.45467836 0.13157779 0.072910458
0.45465675 0.13135892 0.072810113
0.45452201 0.13114803 0.072868899
0.45449108 0.13092963 0.072781548
0.45458609 0.13070166 0.072516516
0.4545714 0.13048154 0.072405964
0.45444536 0.13026983 0.072452426
0.4544273 0.13004972 0.072346449
0.45440316 0.1298299 0.072248966
0.4542492 0.12962046 0.072334915
0.45419994 0.12940253 0.072272867
0.45393828 0.12920232 0.07251133
0.45390567 0.12898302 0.072425708
0.45376655 0.1287728 0.072490886
0.45361814 0.12856351 0.07256937
0.45358744 0.12834387 0.072480917
0.4534407 0.12813456 0.072557122
0.45317602 0.12793624 0.072800845
0.45314327 0.12771678 0.072715327
0.45300353 0.12750725 0.072781786
0.45286745 0.12729752 0.072843105
0.45272437 0.12708856 0.072914496
0.45269233 0.12686883 0.072827816
0.45266938 0.12664801 0.072728157
0.45264396 0.12642728 0.072631881
0.45261431 0.12620679 0.07254149
0.45246232 0.12599884 0.072625622
0.45231929 0.1257901 0.072697043
0.45217836 0.12558128 0.072765604
0.45214579 0.12536091 0.072679266
0.45199707 0.12515305 0.072758973
0.45194957 0.12493417 0.072693974
0.45179948 0.12472664 0.072775722
0.45164955 0.12451925 0.072857395
0.45163321 0.12429671 0.072747648
0.45161632 0.12407404 0.072638571
0.45158941 0.12385233 0.07254377
0.45155621 0.1236312 0.07245785
0.45141956 0.12342232 0.07252045
0.45140567 0.12319866 0.072406679
0.45139617 0.12297426 0.072286546
0.45139652 0.1227484 0.072151989
0.45149538 0.12250996 0.071875542
0.45146972 0.12228677 0.071778119
0.45142925 0.12206529 0.071701944
0.45128623 0.12185696 0.071773618
0.45125085 0.12163468 0.071689993
0.45123133 0.12141014 0.07158342
0.45120704 0.12118604 0.071483552
0.45118466 0.1209615 0.071380883
0.45114559 0.12073905 0.071302235
0.45099497 0.1205318 0.071384907
0.45096892 0.1203074 0.071287304
0.45072222 0.1201138 0.071509302
0.4505741 0.11990664 0.071588576
0.45052859 0.11968495 0.071519166
0.45048866 0.11946232 0.071441561
0.45034057 0.11925533 0.071520954
0.45019332 0.11904837 0.071599215
0.45004958 0.11884104 0.071672469
0.45001644 0.11861726 0.07158488
0.4498789 0.11840912 0.071649194
0.44973764 0.11820168 0.071718961
0.44971263 0.11797644 0.071619421
0.4495734 0.1177688 0.071686327
0.4495447 0.11754392 0.071592093
0.44928581 0.11735535 0.07183367
0.44925541 0.11713071 0.071741879
0.44911408 0.11692379 0.071812034
0.44908765 0.11669832 0.071714342
0.44905406 0.11647384 0.071626961
0.44902787 0.11624797 0.071528703
0.44900465 0.11602141 0.071426004
0.4491891 0.11575971 0.071018815
0.44904098 0.11555368 0.071098834
0.448993 0.11533066 0.071031958
0.44884384 0.11512497 0.071113586
0.448699 0.1149187 0.071188927
0.44867167 0.11469196 0.071091712
0.44864675 0.11446461 0.070990771
0.44872713 0.11421831 0.070734888
0.44858676 0.11401117 0.070803672
0.44833362 0.11382458 0.071038574
0.44819441 0.11361766 0.071105868
0.4481726 0.11338928 0.071000129
0.44814754 0.11316131 0.070899069
0.44822913 0.11291322 0.070640415
0.4482052 0.1126845 0.070537359
0.44817057 0.1124576 0.070450008
0.44791618 0.11227253 0.070687503
0.44787568 0.11204674 0.070608824
0.44773299 0.11184063 0.070681423
0.44770467 0.11161232 0.070584536
0.44756064 0.11140659 0.070659131
0.44753468 0.11117761 0.070558697
0.44750091 0.11094999 0.070469707
0.44746277 0.11072308 0.070387155
0.44720972 0.11053955 0.070623755
0.44695365 0.11035709 0.070865124
0.44693196 0.11012696 0.070758164
0.44680086 0.10991926 0.070813924
0.44676965 0.10969085 0.070721
0.44661674 0.1094878 0.070809305
0.44635129 0.10930871 0.071065485
0.44630867 0.10908271 0.070989549
0.4462769 0.10885426 0.070897341
0.4462488 0.10862482 0.07079953
0.44622317 0.10839467 0.070698023
0.44619915 0.10816397 0.070593894
0.44627857 0.10791029 0.070334911
0.44624406 0.10768136 0.07024616
0.4461062 0.1074753 0.070312113
0.44596195 0.10727081 0.070387721
0.44571027 0.10709074 0.07062453
0.44567987 0.10686082 0.07052961
0.44565076 0.10663043 0.070432663
0.44573614 0.10637346 0.070163548
0.44570833 0.10614221 0.070064276
0.44568473 0.10590979 0.069958627
0.44565263 0.10567916 0.069865555
0.44561526 0.10544959 0.06978035
0.44546223 0.10524736 0.06986928
0.4450984 0.10509576 0.070276141
0.44505984 0.10486664 0.070192814
0.44502696 0.10463598 0.070100844
0.44500002 0.1044037 0.069999754
0.4449735 0.10417113 0.069897979
0.44494894 0.10393786 0.069793075
0.44492978 0.10370306 0.069679916
0.44490725 0.10346887 0.069571674
0.44486973 0.10323824 0.069486052
0.44482601 0.103009 0.069409728
0.44467887 0.10280591 0.069490105
0.4446497 0.10257282 0.069391668
0.44462356 0.10233875 0.069288433
0.44448364 0.10213393 0.069357902
0.44444984 0.10190162 0.0692662
0.44429886 0.10169981 0.069352567
0.44414881 0.10149795 0.069437683
0.44390187 0.10132189 0.069670379
0.44366387 0.10114394 0.069889784
0.44362479 0.10091314 0.069806159
0.44347841 0.10071109 0.069886148
0.44344237 0.10047929 0.069797784
0.44340307 0.10024821 0.069714367
0.4432545 0.10004692 0.069797724
0.44300392 0.099873886 0.070037246
0.44297504 0.099639922 0.069937825
0.4429538 0.099403642 0.069826603
0.44292805 0.099168405 0.069722176
0.44321176 0.09884578 0.069143325
0.4430756 0.098640919 0.069207668
0.44303873 0.098407909 0.069119722
0.44290528 0.098202385 0.069180012
0.44276413 0.097999185 0.069252133
0.44273213 0.097764567 0.069156587
0.44269729 0.097530581 0.069065332
0.44266656 0.09729521 0.068967581
0.4426299 0.097061381 0.068878889
0.44248992 0.096857928 0.068949312
0.44234309 0.09665665 0.069030344
0.44220331 0.096453428 0.069100589
0.44217411 0.096217155 0.069000274
0.442148 0.095979765 0.068895042
0.44212282 0.095741868 0.06878826
0.44208786 0.095506743 0.068696439
0.44193777 0.095306709 0.068782657
0.44179195 0.095105559 0.068862408
0.44163659 0.094907515 0.068957031
0.44128126 0.094771922 0.069361776
0.44124493 0.094537355 0.06927219
0.44101191 0.094364442 0.069487691
0.44109726 0.094091386 0.069209129
0.44118279 0.093817703 0.06892997
0.44115961 0.093578152 0.068819433
0.44111907 0.093343928 0.068735749
0.44086188 0.09317939 0.068989336
0.44080487 0.09295053 0.068931341
0.44055107 0.092785597 0.069180071
0.4405098 0.092551671 0.069097549
0.44058457 0.092279434 0.068833947
0.44056392 0.092038184 0.06871897
0.44054773 0.091795206 0.06859684
0.44052199 0.091555186 0.068489581
0.44039395 0.091349207 0.068542182
0.440357 0.091112696 0.068452269
0.44030851 0.090879887 0.068380326
0.44014856 0.090684824 0.068482965
0.4400979 0.090452649 0.06841436
0.43985617 0.090285905 0.068645477
0.43982285 0.090047792 0.068549693
0.4397873 0.08981026 0.068457305
0.43954366 0.089644924 0.06869182
0.43950635 0.089407966 0.068602175
0.43926319 0.089243129 0.068836361
0.43922687 0.089005791 0.068745106
0.43898848 0.088839889 0.06897217
0.43905592 0.088565566 0.068717301
0.4389244 0.088361889 0.068775982
0.43910027 0.088047877 0.06834951
0.43896395 0.087845683 0.068415701
0.43892097 0.087609775 0.068334341
0.43887895 0.087373354 0.068251431
0.43873769 0.087173089 0.06832546
0.43870401 0.086933427 0.068229258
0.43877983 0.086653158 0.067959368
0.4386467 0.086449802 0.068020493
0.4385123 0.086247049 0.068083704
0.43827364 0.086083427 0.068312496
0.43814081 0.085880533 0.068373442
0.43800437 0.085679129 0.068440229
0.4378626 0.085479885 0.068515569
0.43791988 0.085205011 0.06827423
0.43798321 0.084927335 0.068022996
0.43805212 0.084647 0.067762524
0.43802524 0.084403075 0.067654461
0.43779087 0.084239289 0.067877352
0.43775564 0.083998501 0.067782491
0.43782139 0.083718069 0.067526311
0.43778196 0.083478369 0.067437887
0.4376367 0.083280183 0.067518651
0.43759936 0.083039477 0.067426801
0.43756938 0.082795665 0.067323089
0.43754208 0.082550555 0.067214876
0.4374027 0.082350135 0.067286223
0.43693507 0.082281984 0.067884356
0.43667832 0.082129851 0.068144619
0.43664473 0.081887722 0.068046808
0.43662605 0.081639305 0.067924887
0.43659401 0.081396125 0.067824364
0.43665928 0.081112735 0.06756705
0.43662238 0.080870956 0.067473918
0.43659869 0.080623515 0.067359418
0.4366805 0.080331966 0.067074746
0.43665925 0.080082834 0.066955864
0.43662745 0.079837903 0.06685394
0.43658191 0.079598539 0.06677407
0.43642947 0.079404205 0.066866934
0.43627051 0.079212859 0.066970438
0.43591908 0.079103753 0.067385525
0.43588537 0.078859553 0.067286611
0.43565422 0.078699991 0.067507595
0.43551815 0.078499898 0.06757462
0.43537754 0.078301892 0.067649156
0.4353433 0.078057818 0.067551076
0.43531102 0.077812672 0.067449659
0.43537202 0.077526428 0.067196488
0.4353295 0.077285215 0.067111373
0.43528947 0.077042714 0.067022175
0.43535414 0.076753587 0.066762269
0.43531957 0.076508097 0.066663802
0.43519089 0.076304466 0.066718668
0.43516827 0.076053366 0.066600561
0.43513763 0.075805627 0.066495329
0.43499798 0.075606965 0.066568136
0.43505916 0.075317301 0.06631273
0.43502519 0.075070448 0.066212654
0.43498981 0.07482402 0.066114664
0.43485066 0.074625045 0.066186607
0.4348056 0.074382871 0.066104442
0.43466648 0.074184023 0.066176385
0.43462887 0.073938191 0.066081852
0.43459755 0.073689222 0.065976858
0.4345561 0.073444791 0.065888405
0.4344123 0.073248237 0.065968126
0.43425965 0.07305605 0.06606251
0.43433812 0.072754651 0.065776467
0.43431744 0.072499759 0.065653503
0.43429562 0.072245158 0.065532207
0.43415657 0.072046399 0.065604061
0.43401247 0.071850225 0.065684438
0.43386227 0.071657158 0.065774947
0.43372819 0.071456507 0.065838963
0.43370259 0.071203291 0.065723658
0.43356985 0.071002074 0.065785527
0.433633 0.070705131 0.065523058
0.43347695 0.070515275 0.065623462
0.43333012 0.070321113 0.065708756
0.43329015 0.070074253 0.065616816
0.43325621 0.069824219 0.065514773
0.43311599 0.069626927 0.06558919
0.43306866 0.069383338 0.06550923
0.43292844 0.069186196 0.065583736
0.43290341 0.068931215 0.065466583
0.43266824 0.068782188 0.065699279
0.43252635 0.068586364 0.065776765
0.43248108 0.068341523 0.065693289
0.43244246 0.068093091 0.065598637
0.43241072 0.067840926 0.065492302
0.4324792 0.06753698 0.065218449
0.43244436 0.067285761 0.065116942
0.43240964 0.067034274 0.065015078
0.43227291 0.066835664 0.065083951
0.431817 0.066803768 0.065687537
0.43177554 0.066556141 0.065597177
0.43194038 0.066199839 0.065160662
0.43191034 0.065945402 0.065050721
0.43178025 0.0657437 0.065108627
0.43165162 0.065541312 0.065164179
0.43150669 0.065347761 0.065247178
0.43145907 0.065102376 0.065166622
0.43140846 0.064858384 0.065090925
0.43136466 0.064610571 0.065003663
0.43122375 0.06441506 0.065080047
0.43118373 0.064164996 0.064986289
0.43114692 0.063912988 0.064887017
0.43100911 0.063715912 0.064958215
0.43087453 0.063517228 0.065024078
0.43074557 0.063315608 0.065080523
0.43070385 0.063065991 0.064989388
0.43066218 0.062816143 0.064898014
0.43061996 0.062566414 0.064807475
0.43047708 0.062372558 0.064887494
0.43033475 0.062178619 0.064966768
0.43019477 0.061983503 0.065042108
0.43016076 0.061728906 0.064937443
0.43013233 0.061470944 0.06482324
0.43000168 0.061270654 0.064882725
0.42996174 0.061018921 0.064787865
0.43001896 0.060711548 0.064527363
0.42978746 0.060568862 0.064758748
0.42975357 0.060313202 0.064653337
0.42981365 0.060003169 0.064387321
0.42958489 0.059859544 0.064614475
0.42954129 0.059609018 0.064525306
0.42939332 0.059419028 0.064614594
0.42914495 0.059287898 0.064875931
0.42909294 0.059042297 0.064801157
0.42904842 0.058792137 0.064713508
0.42890972 0.058597319 0.064787298
0.42876533 0.058406025 0.064870924
0.42871937 0.058156528 0.064785659
0.42868298 0.057901137 0.064683795
0.42854682 0.057705112 0.064753354
0.42840338 0.05751361 0.064835578
0.42836019 0.057262018 0.064745247
0.42832306 0.057006605 0.064644396
0.42818215 0.056813717 0.064722329
0.42813331 0.056565143 0.064641505
0.42798722 0.056375623 0.064728469
0.42785668 0.056176789 0.064788729
0.42782065 0.055920154 0.064685643
0.4277795 0.055666484 0.064591318
0.4276467 0.055469111 0.064655542
0.4276163 0.055208519 0.064542353
0.42758793 0.05494643 0.064425617
0.42754924 0.054690465 0.064326465
0.42750847 0.054435626 0.064230949
0.42737022 0.054241635 0.06430462
0.42733303 0.053984299 0.064202696
0.42719406 0.053790905 0.064277649
0.42704386 0.053604804 0.064372301
0.42699319 0.053355753 0.064293712
0.42685241 0.053163886 0.064372063
0.42671511 0.052969992 0.064444482
0.42667848 0.05271177 0.064341277
0.42664456 0.052451588 0.064233214
0.42660716 0.052193403 0.064131081
0.42647249 0.051997878 0.064198911
0.42641971 0.051749393 0.064123541
0.42627305 0.051561795 0.064212412
0.42622593 0.051309474 0.064127028
0.42609379 0.051112615 0.064190656
0.42606243 0.050849721 0.064077467
0.42603412 0.050584584 0.063958794
0.42599982 0.050323114 0.063850462
0.42595977 0.050065234 0.063752085
0.42572555 0.049936175 0.063995332
0.42568022 0.049681723 0.063906193
0.42563313 0.049428284 0.063820124
0.42558843 0.049173035 0.063729703
0.42544803 0.04898195 0.063807994
0.42540404 0.048726015 0.063716203
0.42526385 0.048534974 0.063794225
0.42522269 0.048276879 0.063697249
0.42518988 0.048012897 0.06358546
0.42515919 0.04774721 0.063469708
0.4251239 0.047484405 0.063361913
0.42499 0.047289111 0.063428849
0.42494756 0.047030926 0.063333541
0.42480326 0.04684294 0.063419044
0.42464888 0.046662137 0.063522518
0.42449403 0.046481907 0.063627034
0.46741709 0.19039987 0.090441272
0.4637264 0.1892744 0.094812647
0.4628022 0.18886447 0.095831305
0.46189299 0.18845996 0.096832708
0.46253169 0.18845052 0.095955029
0.46241316 0.18824793 0.095996618
0.46229312 0.18804502 0.09604013
0.46226978 0.18786651 0.095966041
0.46224028 0.18768632 0.095899433
0.46221235 0.18750642 0.095830768
0.46221018 0.18733281 0.095730707
0.4623484 0.18719377 0.095459491
0.46225283 0.1869967 0.095473036
0.46345061 0.187117 0.09390898
0.46369958 0.1870029 0.093501329
0.4637115 0.18683046 0.093382701
0.46358064 0.1866232 0.093438402
0.46343029 0.18641135 0.093517974
0.46330854 0.18620649 0.093562618
0.46320695 0.18600652 0.09358272
0.46321329 0.18583235 0.093470648
0.46332556 0.18568316 0.093228832
0.46389192 0.18564096 0.092430487
0.46379182 0.18544053 0.09244822
0.4639158 0.18529266 0.092191219
0.46391034 0.18511416 0.092092738
0.46393037 0.18494144 0.091962874
0.46384737 0.18474464 0.091959417
0.4639861 0.18459897 0.091683581
0.46504214 0.18466343 0.090279877
0.46508205 0.18449336 0.090124503
0.46525264 0.18435279 0.089808136
0.46531171 0.18418643 0.089628756
0.46542147 0.18403122 0.089386776
0.46510959 0.18378094 0.089664117
0.46462488 0.18349245 0.090154737
0.46343976 0.18304887 0.091509685
0.47192246 0.18399872 0.080491051
0.47177997 0.18377969 0.080555618
0.47189242 0.18361571 0.080304787
0.47175488 0.1833977 0.080363229
0.47161466 0.18317921 0.080425024
0.47158617 0.18298458 0.080348417
0.47156519 0.1827914 0.080262437
0.47143191 0.18257445 0.080315694
0.47154838 0.18240991 0.080059007
0.47153574 0.18221804 0.079962388
0.47139388 0.18199921 0.080026209
0.47136199 0.18180317 0.079953447
0.47122145 0.18158472 0.080015689
0.47107297 0.18136473 0.0800879
0.47105214 0.18117084 0.08000128
0.47103676 0.18097791 0.07990779
0.47101885 0.18078431 0.07981734
0.4708817 0.18056668 0.079875454
0.47072241 0.18034475 0.07996127
0.47044003 0.18009853 0.080200732
0.47040728 0.17990197 0.080128804
0.47039914 0.17971012 0.08002606
0.47039768 0.1795194 0.079914883
0.47050881 0.17935036 0.0796628
0.47050169 0.17915808 0.079558432
0.47048876 0.1789645 0.079461217
0.47034955 0.17874664 0.079521984
0.4704299 0.1785706 0.079307824
0.47028294 0.17835125 0.079378322
0.47027323 0.17815782 0.0792768
0.47014523 0.17794213 0.07932356
0.47012398 0.17774634 0.079236418
0.47009546 0.17754906 0.079158291
0.46995518 0.17733113 0.079220489
0.47017688 0.17717947 0.078827783
0.47028834 0.17700711 0.078573331
0.47015557 0.17679021 0.078625888
0.47013292 0.17659317 0.078539893
0.47000206 0.17637669 0.078590095
0.46974966 0.1761387 0.078793511
0.46960896 0.17592077 0.078856274
0.46957326 0.17572136 0.078786716
0.46954361 0.17552289 0.078709424
0.46939486 0.17530367 0.078782409
0.4693906 0.17510945 0.07867299
0.46939719 0.17491692 0.078549758
0.46938786 0.17472146 0.078446493
0.4692398 0.17450239 0.078518659
0.4692032 0.17430216 0.078449816
0.4690648 0.17408484 0.078509808
0.46904981 0.17388807 0.078413516
0.46903396 0.17369103 0.078318208
0.46901044 0.17349255 0.078232542
0.46886975 0.17327487 0.078295484
0.46883446 0.17307435 0.078224644
0.4689185 0.17289288 0.078002244
0.4686487 0.17265457 0.078229174
0.4686318 0.17245673 0.078134865
0.4686183 0.17225927 0.078036115
0.468366 0.17202429 0.078241169
0.46835169 0.17182665 0.078143418
0.46834427 0.17162989 0.07803677
0.4684605 0.17145191 0.077772483
0.46846223 0.17125607 0.0776539
0.46844512 0.17105718 0.077559218
0.46841192 0.17085573 0.07748498
0.46836081 0.17065147 0.077433601
0.46844298 0.17046684 0.077211872
0.46842688 0.17026743 0.077115506
0.46842676 0.17007017 0.076998591
0.46855563 0.16989139 0.076716527
0.46842325 0.16967463 0.076768652
0.46839607 0.16947295 0.076686084
0.46824118 0.16925307 0.076767087
0.46820301 0.1690497 0.076698512
0.4681907 0.16884983 0.076596722
0.46829534 0.16866595 0.076344714
0.46828812 0.1684663 0.076236099
0.46816778 0.1682511 0.076272726
0.46815744 0.16805078 0.076167986
0.46827966 0.16786805 0.075892672
0.46825284 0.16766506 0.075808853
0.46824062 0.16746385 0.075706095
0.46821362 0.16726054 0.075622335
0.46831524 0.16707376 0.075372726
0.46818489 0.16685677 0.075421944
0.46803492 0.16663738 0.075496525
0.4679985 0.16643243 0.075424612
0.46785513 0.16621399 0.075490788
0.46794975 0.16602518 0.075249523
0.46793991 0.1658231 0.075143039
0.46793786 0.16562182 0.075026393
0.46804523 0.16543353 0.074768052
0.46803516 0.16523077 0.074661508
0.46802253 0.16502753 0.074558094
0.46800792 0.16482387 0.074457198
0.46786204 0.16460478 0.074526399
0.46770731 0.16438481 0.074607119
0.46755713 0.1641655 0.074682027
0.46741411 0.16394711 0.074747711
0.46715194 0.16371553 0.074968234
0.46725133 0.16352434 0.074719071
0.4672285 0.16331935 0.074628606
0.46720749 0.1631144 0.074535668
0.46719363 0.16291004 0.074433297
0.46717843 0.16270539 0.07433264
0.46716303 0.16250053 0.074232131
0.46739584 0.16232133 0.073807865
0.46738946 0.1621168 0.073695228
0.4672595 0.16189949 0.073743701
0.46725455 0.16169485 0.073629037
0.46711904 0.16147703 0.073684797
0.46711034 0.16127178 0.073574916
0.46708947 0.16106516 0.073480755
0.46705744 0.1608573 0.073401168
0.4670189 0.1606487 0.07333
0.46687385 0.16042998 0.073398232
0.46684989 0.1602226 0.073307902
0.46682987 0.16001543 0.073212281
0.46667778 0.15979616 0.073289827
0.46665031 0.15958816 0.073203921
0.46662027 0.15937978 0.073121294
0.46658936 0.15917119 0.073039711
0.46643695 0.15895201 0.073117718
0.46654525 0.15875509 0.072853014
0.4664104 0.15853736 0.072907925
0.46638727 0.15832895 0.072815835
0.46649784 0.15813127 0.072547525
0.46647394 0.15792234 0.072456181
0.46646026 0.15771407 0.072351262
0.46643728 0.15750487 0.072258502
0.46642473 0.15729633 0.07215187
0.46640512 0.15708707 0.072054476
0.46626297 0.15686852 0.072118878
0.46611646 0.15664974 0.072189093
0.46597344 0.15643135 0.072254777
0.46595681 0.15622208 0.0721533
0.46581531 0.15600388 0.072217047
0.46576855 0.15579231 0.072155356
0.46572715 0.155581 0.072086453
0.46582809 0.15537906 0.071828783
0.46583897 0.15517077 0.071690321
0.4661178 0.15497942 0.071196049
