# .PCD v0.7 - Point Cloud Data file format
VERSION 0.7
FIELDS x y z
SIZE 4 4 4
TYPE F F F
COUNT 1 1 1
WIDTH 1495
HEIGHT 1
VIEWPOINT 0 0 0 1 0 0 0
POINTS 1495
DATA ascii
1.2185954 -1.0193464 0.38227695
1.2187139 -1.0195583 0.3821767
1.2188444 -1.0197098 0.38211679
1.2189937 -1.0197659 0.38212073
1.2191952 -1.0195515 0.38230485
1.2222416 -1.004504 0.39237422
1.2223656 -1.0046216 0.39233357
1.2225208 -1.0045767 0.39240131
1.2226603 -1.0046141 0.39241409
1.2228018 -1.0046419 0.39243335
1.2229409 -1.0046818 0.39244461
1.2230608 -1.0048255 0.39238682
1.2231768 -1.004992 0.39231393
1.2233069 -1.0050837 0.39229086
1.223426 -1.0052366 0.39222714
1.2235917 -1.0051358 0.39233211
1.2237321 -1.0051724 0.39234567
1.2239048 -1.0050313 0.39247712
1.2240076 -1.0052774 0.39235181
1.2241592 -1.0052533 0.39240575
1.2242808 -1.0053974 0.39234811
1.2244166 -1.0054625 0.39234295
1.224532 -1.0056444 0.3922604
1.2246761 -1.0056648 0.39228493
1.2248081 -1.0057546 0.39226353
1.2249548 -1.0057604 0.39229771
1.2250983 -1.0057861 0.39231884
1.2252386 -1.0058293 0.39232826
1.2253745 -1.0058988 0.39232042
1.2255099 -1.0059729 0.39230961
1.2256639 -1.0059372 0.39237124
1.2257915 -1.0060579 0.39232963
1.2259357 -1.0060807 0.3923527
1.2260538 -1.0062609 0.392272
1.2261859 -1.0063585 0.3922458
1.2263311 -1.0063781 0.39227107
1.2264851 -1.0063437 0.39233193
1.2266246 -1.0063982 0.39233419
1.2267749 -1.0063864 0.39238021
1.2269138 -1.0064456 0.3923794
1.2270404 -1.0065818 0.39232808
1.2271582 -1.0067753 0.39223897
1.2272899 -1.0068828 0.39220661
1.2274352 -1.0069057 0.39222988
1.2275783 -1.0069424 0.39224407
1.2264874 -1.0159053 0.38643277
1.2266382 -1.0159456 0.38644671
1.2268023 -1.0158991 0.38651776
1.2269676 -1.0158458 0.38659319
1.2271053 -1.0159734 0.38654983
1.227253 -1.0160356 0.38654953
1.2274008 -1.016098 0.38654903
1.2275761 -1.0159765 0.38666922
1.2277384 -1.0159417 0.38673246
1.2279128 -1.015824 0.38685006
1.2280376 -1.0160445 0.38674614
1.2281657 -1.0162448 0.38665554
1.2283359 -1.0161566 0.3867538
1.2284943 -1.0161493 0.38679904
1.228665 -1.0160551 0.38690114
1.2288431 -1.0159081 0.38703769
1.2291114 -1.015117 0.38759488
1.2293169 -1.0147655 0.3878648
1.2295276 -1.0143723 0.3881616
1.2297224 -1.0140889 0.3883867
1.2299391 -1.0136418 0.3887184
1.2301767 -1.0130355 0.38915366
1.2303542 -1.0128661 0.38930389
1.2306201 -1.0120358 0.38988465
1.2306793 -1.0127445 0.38946262
1.2308439 -1.0126672 0.38955277
1.231661 -1.0076289 0.39287192
1.2318264 -1.0075085 0.39298886
1.2320007 -1.0073187 0.39315084
1.2321677 -1.0071821 0.39327812
1.2330533 -1.0014278 0.39705685
1.233258 -1.0009521 0.397403
1.2334083 -1.0008994 0.39747429
1.2335399 -1.0009962 0.39744842
1.2333438 -1.0037302 0.395711
1.2343243 -1.0016515 0.39724609
1.2342287 -1.00367 0.39597607
1.2343665 -1.0037409 0.39596778
1.2347765 -1.0014901 0.39746219
1.2349141 -1.0015484 0.39746162
1.2348099 -1.0037031 0.39610526
1.2349441 -1.0038091 0.39607447
1.2352304 -1.0025768 0.39690852
1.2353717 -1.0026128 0.39692268
1.2355109 -1.0026674 0.39692488
1.23566 -1.0026343 0.39698374
1.2356933 -1.0036528 0.39636388
1.2358438 -1.0036155 0.3964256
1.2362363 -1.0013374 0.39793238
1.2363055 -1.0020372 0.3975184
1.2364553 -1.001991 0.39758545
1.2365965 -1.0020255 0.39760056
1.2367449 -1.0019912 0.39765996
1.2368779 -1.0021057 0.39762354
1.2370182 -1.0021509 0.39763179
1.2371581 -1.0022011 0.39763683
1.2372983 -1.002249 0.39764339
1.2374455 -1.0022278 0.39769438
1.2376679 -1.0014474 0.39823318
1.2378104 -1.0014672 0.39825764
1.2379525 -1.0014912 0.39827943
1.2380935 -1.0015261 0.39829418
1.2382395 -1.00151 0.39834175
1.2383788 -1.0015647 0.39834383
1.238525 -1.0015466 0.39839274
1.2386729 -1.00151 0.39845335
1.238822 -1.0014597 0.39852282
1.2389653 -1.0014722 0.398552
1.2391149 -1.0014155 0.39862552
1.2392575 -1.0014349 0.39865029
1.2393991 -1.0014679 0.39866635
1.2395393 -1.0015162 0.39867273
1.239674 -1.0016292 0.39863768
1.23981 -1.0017303 0.39861032
1.2399521 -1.0017614 0.3986277
1.2400949 -1.0017838 0.39865065
1.2402538 -1.0016134 0.39879677
1.2403961 -1.0016427 0.3988153
1.240538 -1.0016766 0.39883101
1.2406745 -1.0017792 0.39880282
1.2408118 -1.0018731 0.39878023
1.2409546 -1.0018995 0.3988007
1.2411025 -1.0018624 0.39886168
1.2412499 -1.0018284 0.39892063
1.2413934 -1.0018467 0.39894637
1.2415434 -1.0017787 0.3990269
1.2416887 -1.0017729 0.39906788
1.2418329 -1.0017822 0.39909932
1.2419775 -1.001785 0.39913476
1.2421212 -1.0018014 0.3991617
1.2422656 -1.0018077 0.39919505
1.2424104 -1.0018086 0.39923167
1.2425598 -1.0017437 0.39931026
1.2427052 -1.0017344 0.39935344
1.2428503 -1.0017314 0.39939266
1.2429996 -1.0016645 0.39947239
1.2431433 -1.0016801 0.39949974
1.2432871 -1.001696 0.39952698
1.2440007 -0.99266934 0.40528047
1.2441353 -0.9927029 0.40529442
1.2442658 -0.99280357 0.40526596
1.2443967 -0.99290055 0.40523982
1.244524 -0.99306303 0.40517235
1.244655 -0.99316543 0.40514293
1.2447823 -0.99333739 0.40506962
1.2449166 -0.99339139 0.40507084
1.2450477 -0.99350339 0.40503553
1.2451791 -0.99361515 0.40500039
1.2453141 -0.99366093 0.40500695
1.2454431 -0.99382514 0.40493882
1.2455755 -0.99392831 0.40490925
1.245711 -0.99397463 0.40491557
1.2459731 -0.9942528 0.40481144
1.2461067 -0.99434704 0.40478772
1.2462435 -0.99438071 0.40480211
1.2465103 -0.99459535 0.40473843
1.2466414 -0.99475944 0.40467095
1.2467761 -0.99485022 0.40464962
1.2469114 -0.99492908 0.40463585
1.2470467 -0.99501371 0.40461847
1.2471795 -0.99516314 0.40456042
1.2473117 -0.995332 0.40449029
1.2474469 -0.9954344 0.40446192
1.2474891 -0.99795157 0.40291962
1.2476323 -0.99791062 0.40298173
1.2477785 -0.99778134 0.40309921
1.2479228 -0.99770302 0.40318468
1.2480642 -0.99770403 0.40322047
1.2482104 -0.99756026 0.40334684
1.2483543 -0.99748224 0.40343207
1.2484963 -0.99746096 0.40348172
1.2486358 -0.99751669 0.40348327
1.248799 -0.99679619 0.40396988
1.2489415 -0.99672627 0.40404975
1.2490861 -0.996589 0.40417168
1.2492764 -0.99479175 0.40532964
1.2494198 -0.99462116 0.40547186
1.2495649 -0.99437082 0.4056637
1.2497029 -0.99438941 0.40568775
1.2498523 -0.99393678 0.4060055
1.2499944 -0.99376488 0.40614814
1.2501315 -0.99379808 0.40616301
1.2502705 -0.99375296 0.40622661
1.2504094 -0.99370682 0.40629086
1.2505484 -0.99364924 0.40636221
1.2506871 -0.99360007 0.40642825
1.2508353 -0.99301553 0.40682709
1.250973 -0.99298567 0.406881
1.2511117 -0.99289501 0.40697268
1.2512474 -0.99299026 0.40694886
1.2513853 -0.99294806 0.40701041
1.2515231 -0.99290568 0.40707204
1.2516617 -0.99279553 0.40717569
1.2517984 -0.99282539 0.4071925
1.2519351 -0.99286544 0.40720302
1.2520714 -0.99296141 0.40717888
1.2522085 -0.99299073 0.40719604
1.252346 -0.99294496 0.40725976
1.2524859 -0.99257302 0.4075253
1.2526255 -0.99214584 0.40782478
1.2527621 -0.99211997 0.40787593
1.2528991 -0.99202234 0.40797144
1.2530355 -0.9919951 0.40802342
1.253172 -0.99196768 0.40807551
1.2533084 -0.99200881 0.40808526
1.2534449 -0.99203914 0.40810168
1.2535814 -0.99206686 0.40811971
1.2537179 -0.99203396 0.40817514
1.2538542 -0.99193627 0.40827054
1.2539907 -0.99198031 0.40827852
1.2541275 -0.99208105 0.40825164
1.2542644 -0.99212909 0.40825725
1.2544016 -0.99223137 0.40822944
1.2545385 -0.99227679 0.40823668
1.254676 -0.99236792 0.40821585
1.254812 -0.99227297 0.40830949
1.2549491 -0.9923079 0.40832326
1.2550863 -0.99235129 0.40833181
1.2552236 -0.99238837 0.40834427
1.255361 -0.99242717 0.40835571
1.255495 -0.99220389 0.408528
1.2556312 -0.99217045 0.40858373
1.2557675 -0.99214196 0.40863639
1.2559048 -0.99218327 0.40864629
1.256041 -0.99215579 0.40869832
1.2561796 -0.99226058 0.40866932
1.2563171 -0.99229896 0.40868106
1.2564572 -0.99246818 0.40861273
1.2565966 -0.99258101 0.40857902
1.2567358 -0.99268442 0.4085511
1.256874 -0.99272895 0.40855917
1.2570137 -0.99283445 0.40853006
1.2571537 -0.99294555 0.4084976
1.2572924 -0.99299335 0.4085038
1.2574217 -0.99267948 0.4087308
1.2575456 -0.99217474 0.40907413
1.2576839 -0.99222845 0.40907657
1.2578239 -0.99234176 0.40904272
1.2579662 -0.99252486 0.40896642
1.258109 -0.99271131 0.40888813
1.25825 -0.99283195 0.40885004
1.2583933 -0.99301493 0.40877399
1.2585349 -0.99313837 0.40873432
1.2586768 -0.9932611 0.40869513
1.2588211 -0.99345028 0.40861562
1.258966 -0.99364179 0.40853471
1.2591136 -0.99389839 0.40841439
1.2592593 -0.99409544 0.40833035
1.2594054 -0.99429154 0.40824696
1.2595519 -0.99448746 0.40816382
1.2596989 -0.9946872 0.40807846
1.2598491 -0.99495548 0.40795159
1.2599969 -0.9951576 0.40786493
1.2601484 -0.99543381 0.4077335
1.2603002 -0.99570686 0.40760413
1.2604524 -0.99597859 0.40747568
1.2606165 -0.996499 0.40719682
1.2607706 -0.99678326 0.40706113
1.2609208 -0.99697506 0.40698144
1.2685186 -1.0548837 0.37320691
1.2687087 -1.0548292 0.3732895
1.2688882 -1.0546294 0.37345907
1.269076 -1.0545465 0.37355858
1.269264 -1.0544672 0.37365586
1.2694527 -1.054402 0.37374479
1.269641 -1.054332 0.37383646
1.2698096 -1.0540044 0.37408203
1.2700063 -1.0540484 0.37410551
1.2702045 -1.0541122 0.3741172
1.2704031 -1.0541768 0.37412846
1.2706008 -1.0542291 0.37414712
1.2707881 -1.054152 0.37424293
1.2709543 -1.0538192 0.37449107
1.2711406 -1.0537379 0.37458926
1.2713472 -1.0538981 0.37454358
1.2715249 -1.0537144 0.37470266
1.271723 -1.0537736 0.37471715
1.2719207 -1.0538262 0.37473562
1.2721175 -1.0538667 0.37476131
1.2722819 -1.0535412 0.37500459
1.2724681 -1.0534652 0.37509939
1.2726552 -1.0534008 0.37518734
1.2728521 -1.053445 0.37521073
1.2730154 -1.0531229 0.37545156
1.2731764 -1.052783 0.37570274
1.2733256 -1.0523229 0.37602508
1.2735101 -1.0522448 0.37612078
1.2736942 -1.0521637 0.3762182
1.2738897 -1.0522031 0.37624431
1.2740848 -1.0522367 0.37627378
1.2742684 -1.0521528 0.37637287
1.2744652 -1.0522033 0.37639233
1.2746619 -1.0522522 0.37641287
1.2748693 -1.052405 0.37637198
1.2750508 -1.0523014 0.37648264
1.2752454 -1.0523273 0.37651679
1.2753388 -1.0513775 0.37712684
1.2755072 -1.0511608 0.37730399
1.2756755 -1.0509466 0.37747946
1.2758445 -1.0507419 0.37764928
1.2760262 -1.0506611 0.37774596
1.276195 -1.0504605 0.3779133
1.2763628 -1.0502532 0.37808436
1.2765301 -1.0500463 0.37825507
1.2766997 -1.0498623 0.37841231
1.2768825 -1.049801 0.37849724
1.2770789 -1.049859 0.378512
1.2772738 -1.0499039 0.3785345
1.277469 -1.0499511 0.37855566
1.2776489 -1.0498641 0.37865573
1.2778287 -1.0497776 0.37875533
1.2779957 -1.0495838 0.37891793
1.2781204 -1.0490353 0.37928849
1.2783115 -1.0490518 0.37932751
1.2784754 -1.048842 0.37949926
1.2786545 -1.0487607 0.37959549
1.2788196 -1.0485651 0.37975866
1.2789984 -1.0484853 0.37985402
1.2791916 -1.0485219 0.37988117
1.279356 -1.0483267 0.38004389
1.2795202 -1.0481334 0.38020551
1.2796987 -1.0480564 0.38029906
1.2798635 -1.0478714 0.38045561
1.2800581 -1.0479223 0.38047436
1.2802346 -1.0478315 0.38057575
1.2804103 -1.0477359 0.38067997
1.2806026 -1.0477681 0.38070965
1.2807971 -1.0478178 0.38072911
1.2809925 -1.0478723 0.38074577
1.2812027 -1.0480365 0.38069865
1.2813667 -1.0478562 0.38085213
1.2815471 -1.0477986 0.38093409
1.2817442 -1.0478649 0.38094398
1.2819113 -1.0477102 0.38108245
1.2821105 -1.0477905 0.3810842
1.2823069 -1.0478506 0.38109767
1.2824841 -1.0477712 0.3811923
1.2825624 -1.0469937 0.38169226
1.28272 -1.0467831 0.38186276
1.2828954 -1.0467013 0.38195845
1.2830528 -1.0464932 0.38212734
1.2832303 -1.0464277 0.38221344
1.2833872 -1.0462219 0.38238093
1.2835441 -1.0460175 0.38254741
1.2837383 -1.0460691 0.38256556
1.2839143 -1.045998 0.38265482
1.284071 -1.0457971 0.38281912
1.2842263 -1.0455904 0.38298666
1.2844218 -1.0456518 0.38299912
1.2845987 -1.0455896 0.38308308
1.2847737 -1.0455164 0.38317335
1.2849474 -1.0454352 0.38326812
1.2851237 -1.0453714 0.38335288
1.2852583 -1.045041 0.38359141
1.2854538 -1.045103 0.38360357
1.2856289 -1.0450346 0.38369083
1.2858039 -1.0449669 0.38377771
1.2859743 -1.041435 0.38600087
1.2861457 -1.0413667 0.38608709
1.286316 -1.0412929 0.38617656
1.2864877 -1.0412276 0.38626108
1.2866398 -1.0410446 0.38641313
1.2868302 -1.0410936 0.3864319
1.2869824 -1.0409145 0.3865816
1.2871717 -1.0409571 0.38660413
1.2873235 -1.0407778 0.38675383
1.2875143 -1.0408298 0.3867709
1.2876844 -1.04076 0.38685775
1.2878338 -1.0405704 0.38701323
1.2880034 -1.0404999 0.3871004
1.288173 -1.0404292 0.38718769
1.2883446 -1.0403715 0.3872675
1.2885141 -1.0403024 0.38735384
1.2886868 -1.0402515 0.38742968
1.2888764 -1.0402968 0.38745058
1.289023 -1.0401008 0.38760924
1.2891905 -1.0400229 0.3877005
1.28934 -1.0398462 0.38784802
1.2895311 -1.0399003 0.38786384
1.2896991 -1.0398272 0.38795215
1.2898458 -1.0396391 0.38810605
1.2900375 -1.0396966 0.38811997
1.2902048 -1.0396218 0.38820913
1.2903762 -1.0395694 0.38828564
1.2905461 -1.03951 0.38836604
1.290691 -1.039318 0.38852188
1.2908808 -1.0393656 0.38854134
1.2910258 -1.0391756 0.3886959
1.2911927 -1.0391032 0.38878363
1.2913593 -1.0390303 0.38887149
1.2915306 -1.0389818 0.38894555
1.2917224 -1.0390403 0.38895881
1.2918669 -1.038854 0.38911101
1.2920576 -1.0389068 0.38912755
1.292201 -1.0387176 0.38928121
1.2923928 -1.0387759 0.38929462
1.2925373 -1.0385944 0.38944387
1.2927289 -1.038651 0.38945827
1.2928702 -1.0384555 0.38961527
1.293035 -1.0383793 0.38970473
1.2932049 -1.0383289 0.38977963
1.2933693 -1.0382515 0.38986969
1.2935619 -1.0383141 0.38988069
1.2937025 -1.0381205 0.39003631
1.293843 -1.0379287 0.39019087
1.2940354 -1.0379908 0.39020216
1.2941751 -1.0377967 0.39035782
1.2943679 -1.0378605 0.39036816
1.2945611 -1.0379252 0.39037794
1.2947298 -1.037873 0.39045367
1.2948937 -1.037798 0.39054215
1.2950618 -1.0377438 0.39061892
1.2952255 -1.0376687 0.3907074
1.2953935 -1.0376146 0.390784
1.2955314 -1.0374204 0.39093935
1.2956948 -1.0373468 0.39102682
1.2958879 -1.037411 0.39103699
1.2960809 -1.0374742 0.39104772
1.2962188 -1.0372832 0.39120102
1.296386 -1.0372286 0.39127782
1.296523 -1.0370369 0.39143139
1.2967148 -1.0370951 0.39144489
1.2968535 -1.036913 0.39159295
1.2970454 -1.0369711 0.39160651
1.2972078 -1.0368971 0.39169401
1.2973752 -1.036846 0.3917686
1.2975371 -1.0367707 0.39185685
1.2977049 -1.0367219 0.3919301
1.2978655 -1.0366421 0.39202076
1.2980322 -1.036589 0.39209637
1.2981938 -1.0365151 0.39218366
1.2983603 -1.0364627 0.39225891
1.2984946 -1.0362704 0.3924121
1.2986557 -1.036196 0.39249954
1.2988485 -1.0362586 0.39251059
1.2990159 -1.0362114 0.3925828
1.2991813 -1.0361564 0.39265937
1.2993422 -1.0360819 0.39274669
1.2995335 -1.036137 0.39276195
1.2996953 -1.0360675 0.39284652
1.2998288 -1.0358796 0.39299682
1.299994 -1.0358256 0.39307272
1.3001276 -1.0356408 0.39322117
1.3003197 -1.0356998 0.39323422
1.3004798 -1.0356259 0.39332104
1.3006727 -1.0356874 0.39333275
1.3008374 -1.0356336 0.39340842
1.3009691 -1.0354445 0.39355904
1.301088 -1.0352044 0.39373773
1.3014534 -1.0352464 0.39380598
1.3015844 -1.0350586 0.39395553
1.3017497 -1.0350102 0.39402801
1.3019414 -1.0350676 0.39404196
1.3021336 -1.0351262 0.39405531
1.3022648 -1.0349429 0.39420226
1.3023601 -1.0346179 0.3944273
1.3025109 -1.0345142 0.39453009
1.3027036 -1.0345767 0.39454123
1.3028758 -1.0345575 0.39459741
1.3030683 -1.0346179 0.39460969
1.3031976 -1.0344325 0.39475739
1.3034756 -1.0341395 0.39500973
1.3036684 -1.0342017 0.39502099
1.3038399 -1.0341818 0.39507744
1.3040544 -1.0343263 0.39504355
1.3042476 -1.0343887 0.39505485
1.3054614 -1.0336419 0.39582825
1.305632 -1.033621 0.39588511
1.3057941 -1.033569 0.3959589
1.3059509 -1.0334973 0.39604345
1.3060987 -1.0333941 0.39614528
1.3078783 -1.0328386 0.3969464
1.3080481 -1.032818 0.39700282
1.3081712 -1.0326338 0.39714819
1.2111424 -0.97927803 0.4050808
1.210843 -0.98065722 0.40415263
1.2107564 -0.9813478 0.40370423
1.2106113 -0.98223448 0.40311977
1.2104353 -0.98322809 0.40246135
1.2099767 -0.98558611 0.40088829
1.2083567 -0.99274212 0.39605558
1.2084589 -0.99285328 0.39601335
1.2085764 -0.9929136 0.39600635
1.2086868 -0.99299836 0.39598253
1.208753 -0.99323404 0.39585415
1.2088385 -0.99340498 0.39577067
1.2089452 -0.99350476 0.39573658
1.2086152 -0.99509972 0.39466745
1.2087054 -0.99526197 0.39459059
1.2089337 -0.99494958 0.39484215
1.2090249 -0.99510914 0.39476717
1.2091365 -0.99519879 0.39474058
1.2091235 -0.99572223 0.39441425
1.2090149 -0.99658203 0.39385578
1.2092054 -0.99640119 0.39401644
1.209163 -0.99703664 0.39361343
1.2092596 -0.9971866 0.39354575
1.2093316 -0.99742448 0.39341751
1.2094517 -0.99749339 0.39340594
1.2094722 -0.99791712 0.39314973
1.2095499 -0.99813932 0.39303264
1.2096463 -0.99829596 0.39296085
1.2097447 -0.99844646 0.39289331
1.2098631 -0.99852651 0.39287442
1.2100037 -0.99852639 0.39291072
1.2101231 -0.99860346 0.39289388
1.2101632 -0.9989689 0.39267877
1.2102844 -0.99904132 0.39266524
1.210407 -0.99910861 0.39265534
1.2104706 -0.99939358 0.39249587
1.2105875 -0.99948382 0.3924703
1.2105879 -1.0000051 0.39214876
1.2107297 -1.0000055 0.39218503
1.2108984 -0.99990654 0.39228955
1.2111015 -0.99967784 0.392483
1.2113335 -0.9993403 0.39275101
1.2115042 -0.99923015 0.39286292
1.2115952 -0.99941981 0.39276934
1.2117442 -0.99939126 0.39282534
1.2120245 -0.99886495 0.39322224
1.2121395 -0.99896389 0.3931908
1.2123573 -0.99867094 0.3934277
1.2131883 -0.99655795 0.39494547
1.2135482 -0.99570495 0.3955645
1.2138191 -0.9951911 0.39595133
1.2141858 -0.99430114 0.39659488
1.2148392 -0.99281591 0.39767963
1.2206717 -0.97613102 0.40947679
1.2207696 -0.97622442 0.40944439
1.2237968 -0.96894157 0.41471776
1.2238919 -0.96902502 0.41469079
1.2240052 -0.9690299 0.41471696
1.224097 -0.96912813 0.41467997
1.2241973 -0.96919036 0.4146674
1.2535326 -0.84137058 0.50109112
1.2535326 -0.84137046 0.50109118
1.2535326 -0.84137028 0.5010913
1.2535328 -0.84137017 0.50109136
1.2535328 -0.84137005 0.50109148
1.2535328 -0.84137011 0.50109142
1.2154537 -1.0205975 0.38069585
1.2156476 -1.0204419 0.38084176
1.2158442 -1.0202714 0.38099757
1.2160383 -1.0201108 0.3811467
1.2162523 -1.0198544 0.38136005
1.2164108 -1.0198629 0.38139558
1.2166042 -1.0197023 0.38154453
1.2167791 -1.0196307 0.3816337
1.2169709 -1.0194761 0.38177857
1.2171439 -1.0194116 0.38186288
1.2173169 -1.0193473 0.38194707
1.2174529 -1.0194641 0.38191003
1.2175673 -1.0196899 0.38180014
1.2177378 -1.0196381 0.38187611
1.2178713 -1.0197709 0.38182852
1.2180214 -1.0198218 0.38183579
1.2183158 -1.0191441 0.38232982
1.2184542 -1.0192521 0.3822988
1.2185724 -1.0194637 0.38219863
1.2187054 -1.0196016 0.38214776
1.2188219 -1.0198257 0.38203949
1.218991 -1.0197799 0.38211134
1.2192278 -1.0193828 0.38241732
1.2193797 -1.0194243 0.38243079
1.2195323 -1.0194631 0.38244626
1.2225167 -1.0045985 0.39238673
1.2226371 -1.0047374 0.39233205
1.2227784 -1.0047656 0.39235103
1.2229054 -1.0048718 0.39231816
1.2230438 -1.0049174 0.3923257
1.2231655 -1.0050533 0.39227325
1.2233013 -1.0051143 0.39227051
1.2234395 -1.0051632 0.39227593
1.223593 -1.0051281 0.39233708
1.2237192 -1.0052431 0.39229876
1.2239026 -1.005044 0.39246878
1.22404 -1.0050974 0.39247125
1.224174 -1.0051708 0.39246044
1.224293 -1.0053291 0.39239335
1.2244127 -1.0054852 0.39232793
1.2245399 -1.0055999 0.39228994
1.224669 -1.0057057 0.39225787
1.2248018 -1.0057908 0.39223957
1.2249614 -1.005723 0.39232248
1.2251079 -1.0057297 0.39235613
1.2252654 -1.0056736 0.3924312
1.2253934 -1.0057882 0.39239353
1.2255307 -1.0058497 0.392391
1.2256706 -1.0058978 0.39239734
1.2258102 -1.0059472 0.39240277
1.225967 -1.0058942 0.39247587
1.2261108 -1.0059186 0.39249781
1.2262433 -1.0060129 0.39247376
1.2263722 -1.0061283 0.39243573
1.2264969 -1.0062716 0.39237952
1.2266345 -1.0063369 0.3923746
1.2267735 -1.0063946 0.39237478
1.2269162 -1.0064306 0.39238933
1.2270617 -1.0064487 0.39241558
1.2271843 -1.006611 0.39234707
1.2273183 -1.0067035 0.39232451
1.2274504 -1.0068091 0.39229339
1.2275523 -1.0071086 0.39213485
1.226279 -1.0162348 0.38617578
1.2264116 -1.0163947 0.38611123
1.2265613 -1.0164446 0.38611904
1.2267244 -1.0164082 0.3861835
1.2269025 -1.0162728 0.38631296
1.2270805 -1.0161372 0.38644236
1.2272455 -1.016086 0.38651651
1.227411 -1.0160296 0.38659394
1.227574 -1.015991 0.38665971
1.2277361 -1.0159576 0.38672209
1.2280331 -1.0160755 0.38672581
1.2282003 -1.0160067 0.38681135
1.2283947 -1.0157486 0.38702062
1.2285788 -1.0155592 0.38718492
1.2287772 -1.0152671 0.38741621
1.2289691 -1.0150173 0.38761979
1.2291622 -1.014755 0.38783136
1.2293297 -1.0146736 0.38792476
1.2295254 -1.014388 0.38815144
1.2296975 -1.0142702 0.38826841
1.2302365 -1.0137366 0.38873652
1.2303885 -1.0137606 0.38876081
1.2307907 -1.011909 0.39000687
1.2311287 -1.012849 0.38951394
1.2320048 -1.0072873 0.39317131
1.2321604 -1.007239 0.3932412
1.2330123 -1.0017484 0.39684838
1.2331606 -1.0017179 0.39690542
1.2333091 -1.001686 0.39696339
1.2334487 -1.0017246 0.39697552
1.2335895 -1.001754 0.39699361
1.2335113 -1.0035584 0.39586014
1.2336558 -1.0035717 0.39588907
1.2340395 -1.0016184 0.39719325
1.2341883 -1.0015824 0.39725372
1.2343255 -1.0016415 0.39725259
1.2344527 -1.0017864 0.39719599
1.2345886 -1.0018597 0.39718571
1.2347175 -1.0019945 0.39713573
1.234857 -1.0020397 0.39714375
1.2350051 -1.0020108 0.39719972
1.2351475 -1.0020314 0.39722371
1.2352799 -1.0021409 0.39719027
1.2354213 -1.0021719 0.39720762
1.235569 -1.0021473 0.39726073
1.2357099 -1.0021842 0.39727429
1.2356807 -1.0037681 0.39628947
1.2360011 -1.002172 0.39735681
1.2361522 -1.0021158 0.39743039
1.2363926 -1.0012244 0.39804232
1.2365278 -1.0013084 0.3980253
1.2366772 -1.0012603 0.39809346
1.236809 -1.0013775 0.3980552
1.2369462 -1.0014464 0.39804798
1.2370766 -1.0015813 0.39799827
1.2372278 -1.0015167 0.39807704
1.2372975 -1.002257 0.39763826
1.2374434 -1.0022479 0.39768147
1.2376599 -1.001528 0.39818141
1.237802 -1.0015515 0.39820346
1.2379456 -1.0015616 0.39823425
1.2380886 -1.0015767 0.39826182
1.2382307 -1.0016022 0.39828259
1.2383662 -1.0016972 0.39825895
1.2384948 -1.0018688 0.39818609
1.238673 -1.0015087 0.39845419
1.2388138 -1.0015496 0.39846525
1.238961 -1.0015194 0.39852175
1.2391031 -1.0015466 0.39854154
1.2392392 -1.0016398 0.3985191
1.2393814 -1.0016668 0.39853916
1.239524 -1.0016913 0.39856073
1.2396662 -1.0017192 0.39858016
1.2398082 -1.0017519 0.39859655
1.2399492 -1.0017953 0.39860603
1.2400908 -1.0018324 0.39861968
1.2402383 -1.0018005 0.39867729
1.2403859 -1.0017679 0.39873546
1.2405276 -1.0018042 0.39874956
1.2406688 -1.0018506 0.39875722
1.240811 -1.001884 0.39877331
1.2409025 -1.0025642 0.39837712
1.2410502 -1.0025371 0.39843193
1.2412477 -1.0018585 0.39890149
1.2413923 -1.0018626 0.39893615
1.2415434 -1.0017788 0.39902684
1.241689 -1.0017682 0.39907089
1.241833 -1.0017797 0.39910087
1.2419775 -1.0017858 0.39913428
1.2421212 -1.0018015 0.39916161
1.2422649 -1.0018188 0.39918795
1.2424085 -1.0018363 0.39921421
1.2425528 -1.0018455 0.39924568
1.2426984 -1.0018355 0.39928937
1.242844 -1.0018268 0.3993322
1.2429938 -1.0017508 0.39941761
1.2431422 -1.0016962 0.39948958
1.2438664 -0.99263012 0.4052701
1.244005 -0.99260092 0.4053238
1.2441355 -0.99269825 0.40529737
1.2442657 -0.99280548 0.40526471
1.244396 -0.99291235 0.40523237
1.2445263 -0.99302417 0.40519691
1.2446533 -0.99319518 0.4051241
1.2447842 -0.99330318 0.4050912
1.244912 -0.99347198 0.40501994
1.2450435 -0.99357945 0.40498748
1.2451789 -0.99361831 0.40499839
1.245311 -0.99371904 0.40497029
1.2454432 -0.99382257 0.40494046
1.2446918 -1.0108695 0.39422849
1.245711 -0.9939748 0.40491548
1.2449831 -1.0111712 0.3941173
1.245973 -0.99425578 0.40480956
1.2461064 -0.99435544 0.40478241
1.2462398 -0.99445599 0.40475476
1.2463738 -0.99455202 0.40473002
1.2465101 -0.99459678 0.40473753
1.2466447 -0.9946838 0.40471849
1.2467792 -0.99477863 0.40469459
1.246922 -0.99468291 0.40479046
1.2470591 -0.99471897 0.40480351
1.2471914 -0.99487263 0.40474278
1.2473162 -0.99522078 0.40456009
1.2474493 -0.99537414 0.40449971
1.2474884 -0.99796814 0.40290922
1.2476323 -0.99790776 0.40298352
1.2477789 -0.99777097 0.40310574
1.2479275 -0.99757111 0.40326732
1.248071 -0.99751198 0.40334073
1.248215 -0.99742961 0.40342864
1.248359 -0.99734372 0.40351871
1.2485192 -0.99675149 0.40392542
1.2486647 -0.99658984 0.40406263
1.2488079 -0.99649996 0.40415499
1.2489485 -0.99649495 0.40419424
1.2490889 -0.99649221 0.40423211
1.2492788 -0.99470448 0.40538412
1.2494167 -0.99473524 0.40540066
1.2497121 -0.99402374 0.40591574
1.2498511 -0.99398452 0.40597576
1.2499901 -0.99394608 0.40603527
1.2501291 -0.99390525 0.40609628
1.2502698 -0.99378443 0.40620705
1.25041 -0.9936763 0.40630984
1.2505645 -0.99282682 0.40687379
1.2507118 -0.99227524 0.40725207
1.2508491 -0.99223655 0.40731132
1.2509841 -0.99232924 0.40728891
1.2511194 -0.99241281 0.40727216
1.2512548 -0.99250388 0.40725082
1.2513913 -0.99252677 0.40727186
1.2515279 -0.99254847 0.40729368
1.2516636 -0.99264646 0.40726817
1.2517993 -0.99274445 0.40724269
1.251936 -0.99278361 0.40725371
1.252074 -0.99269027 0.40734684
1.2522101 -0.99279135 0.40731952
1.2523476 -0.99275643 0.40737647
1.2524867 -0.99245501 0.40759829
1.2526253 -0.99215257 0.40782061
1.2527621 -0.99212289 0.40787414
1.2528985 -0.99215591 0.40788889
1.2530352 -0.99212635 0.4079423
1.2531718 -0.99209297 0.40799811
1.2533084 -0.99206102 0.40805298
1.2534449 -0.99203098 0.40810671
1.2535814 -0.99206221 0.40812257
1.2537179 -0.99209839 0.40813544
1.2538546 -0.9921329 0.4081493
1.2539907 -0.99197102 0.40828428
1.2541277 -0.99213529 0.4082182
1.2542646 -0.99217927 0.40822631
1.2544011 -0.99215674 0.40827537
1.2545376 -0.99213731 0.40832251
1.2546736 -0.99204564 0.40841407
1.2548094 -0.99195802 0.40850314
1.2549479 -0.99217784 0.40840319
1.255085 -0.9922213 0.40841168
1.2552228 -0.9923209 0.40838569
1.2553594 -0.99229568 0.40843645
1.2554966 -0.99232715 0.40845236
1.255633 -0.99230129 0.40850347
1.2557695 -0.99227798 0.408553
1.2559069 -0.99231446 0.40856588
1.2560434 -0.99229407 0.40861362
1.256182 -0.99239433 0.4085874
1.2563198 -0.99243903 0.40859532
1.25646 -0.99260676 0.40852794
1.2565979 -0.99264961 0.40853706
1.2567359 -0.99269128 0.40854686
1.2568725 -0.99266148 0.40860045
1.2570121 -0.99276567 0.40857211
1.2571503 -0.99280173 0.40858543
1.2572852 -0.992706 0.40867925
1.2574217 -0.99267685 0.40873241
1.2575456 -0.99217272 0.40907535
1.2576839 -0.99222863 0.40907645
1.2578257 -0.99240667 0.40900314
1.2579662 -0.99252427 0.40896678
1.2581068 -0.99264151 0.40893063
1.2582498 -0.99282485 0.40885434
1.2583913 -0.99295169 0.40881252
1.258535 -0.99314094 0.40873277
1.2586768 -0.99325973 0.40869594
1.2588211 -0.99344993 0.40861583
1.258966 -0.99364316 0.40853387
1.2591136 -0.99389976 0.40841356
1.2592593 -0.99409616 0.4083299
1.2594055 -0.99429297 0.4082461
1.259552 -0.99448967 0.40816247
1.2596989 -0.99468791 0.40807801
1.2598492 -0.99495727 0.40795049
1.2599971 -0.99516118 0.40786278
1.2601484 -0.99543303 0.40773401
1.2602972 -0.99563718 0.40764633
1.2604525 -0.99597943 0.40747517
1.2606127 -0.99641407 0.40724826
1.2607702 -0.99677497 0.40706614
1.2685183 -1.0548815 0.37320831
1.2686989 -1.054693 0.37337106
1.2688977 -1.0547603 0.37338072
1.2690768 -1.054558 0.37355167
1.2692642 -1.0544715 0.37365335
1.2694525 -1.0543981 0.37374711
1.269631 -1.0541987 0.37391606
1.2698089 -1.0539958 0.3740871
1.270016 -1.0541743 0.37403035
1.2702149 -1.0542432 0.37403902
1.2704138 -1.0543103 0.37404877
1.2706019 -1.054243 0.37413883
1.270749 -1.0536706 0.3745299
1.2709444 -1.0536991 0.37456262
1.2711512 -1.0538654 0.37451327
1.2713588 -1.0540379 0.37446031
1.2715572 -1.0540963 0.37447536
1.2717454 -1.0540353 0.37456149
1.2719328 -1.0539658 0.37465265
1.2721084 -1.0537639 0.37482247
1.272272 -1.0534279 0.37507182
1.272447 -1.0532281 0.37524024
1.2726337 -1.0531625 0.37532884
1.2728411 -1.0533243 0.37528235
1.2729471 -1.0523803 0.3758921
1.2731293 -1.0522772 0.37600276
1.2733252 -1.0523186 0.37602758
1.2735343 -1.0525002 0.37596941
1.2737199 -1.0524336 0.37605834
1.2739156 -1.0524712 0.37608552
1.274086 -1.0522492 0.37626636
1.2742811 -1.0522817 0.37629655
1.2744771 -1.0523227 0.3763217
1.2746619 -1.0522518 0.37641311
1.2748562 -1.0522761 0.37644815
1.2750512 -1.0523065 0.37647963
1.2752463 -1.0523363 0.37651142
1.2754291 -1.052248 0.37661302
1.2755226 -1.0513079 0.37721714
1.2757044 -1.0512202 0.37731814
1.2758737 -1.051016 0.37748769
1.2760422 -1.0508089 0.37765893
1.2761973 -1.0504807 0.37790132
1.276364 -1.0502645 0.37807769
1.2765305 -1.0500498 0.37825301
1.2767124 -1.049978 0.37834421
1.2768958 -1.0499184 0.37842816
1.2770778 -1.0498493 0.37851772
1.2772448 -1.0496489 0.37868437
1.2773993 -1.0493433 0.37891275
1.2775656 -1.0491432 0.37907901
1.2777591 -1.0491805 0.37910581
1.277939 -1.0491004 0.37920159
1.2781191 -1.0490239 0.3792952
1.2783115 -1.0490522 0.37932724
1.2784749 -1.0488381 0.37950143
1.2786381 -1.0486259 0.3796744
1.2788022 -1.0484232 0.37984174
1.2789813 -1.0483465 0.3799352
1.2791613 -1.0482779 0.38002396
1.2793555 -1.0483236 0.38004574
1.2795198 -1.0481306 0.38020712
1.2796834 -1.0479348 0.38037014
1.2798768 -1.0479758 0.38039461
1.2800714 -1.0480249 0.38041443
1.2802349 -1.0478337 0.38057452
1.2804261 -1.0478573 0.38060915
1.2806177 -1.0478834 0.38064241
1.2807961 -1.0478094 0.38073403
1.2809738 -1.0477309 0.3808282
1.2811527 -1.0476636 0.38091588
1.2813343 -1.0476151 0.3809925
1.2815323 -1.0476892 0.38099778
1.2817612 -1.0479884 0.38087216
1.2819115 -1.0477117 0.38108152
1.2821106 -1.0477916 0.38108358
1.2823075 -1.0478544 0.38109553
1.2825034 -1.0479094 0.38111204
1.2825807 -1.0471236 0.38161683
1.2827195 -1.04678 0.38186455
1.2828768 -1.0465709 0.38203412
1.2830347 -1.0463675 0.38220021
1.2832297 -1.0464237 0.38221586
1.2833871 -1.0462209 0.38238147
1.2835441 -1.0460174 0.38254747
1.2837181 -1.0459327 0.38264459
1.2838928 -1.0458523 0.38273913
1.2840704 -1.0457929 0.3828215
1.2842259 -1.0455881 0.38298795
1.2844213 -1.0456483 0.38300112
1.2845781 -1.0454543 0.38316128
1.2847737 -1.0455164 0.38317332
1.2849474 -1.045435 0.3832683
1.2851013 -1.0452271 0.3834362
1.2852582 -1.0450401 0.38359192
1.2854536 -1.0451015 0.38360435
1.2856287 -1.0450331 0.38369167
1.285804 -1.0449675 0.38377735
1.2860128 -1.0451119 0.38374203
1.2859937 -1.0415548 0.38593188
1.2861451 -1.041363 0.38608924
1.286315 -1.041286 0.38618055
1.2864864 -1.0412192 0.38626584
1.2866372 -1.041029 0.38642207
1.2868284 -1.041083 0.38643798
1.2869817 -1.0409102 0.38658404
1.2871715 -1.0409561 0.38660467
1.2873226 -1.0407724 0.3867569
1.2875135 -1.0408248 0.38677379
1.2876842 -1.0407586 0.38685852
1.2878342 -1.0405723 0.38701218
1.2879823 -1.040378 0.38717023
1.2881728 -1.040429 0.38718784
1.2883224 -1.0402447 0.38734007
1.2885138 -1.0403004 0.387355
1.2886853 -1.0402433 0.38743436
1.2888534 -1.0401673 0.38752449
1.2890224 -1.0400975 0.38761115
1.2891905 -1.040023 0.38770041
1.2893398 -1.0398448 0.38784879
1.289507 -1.039768 0.38793927
1.2896985 -1.0398242 0.38795391
1.2898455 -1.0396367 0.38810739
1.2900374 -1.0396961 0.38812023
1.2902302 -1.0397589 0.38813114
1.2904011 -1.0397034 0.38820937
1.2905686 -1.0396303 0.38829762
1.2907367 -1.0395614 0.38838348
1.290882 -1.039372 0.38853773
1.2910265 -1.0391797 0.3886936
1.2911927 -1.0391035 0.38878345
1.2913593 -1.03903 0.38887167
1.2915522 -1.0390944 0.38888162
1.2917227 -1.0390415 0.38895816
1.2918887 -1.0389662 0.38904738
1.2920575 -1.0389063 0.38912782
1.292201 -1.0387176 0.38928121
1.2923931 -1.0387768 0.38929421
1.2925373 -1.0385942 0.38944396
1.2927288 -1.0386505 0.38945851
1.2928702 -1.0384556 0.38961524
1.2930385 -1.0383966 0.38969496
1.293205 -1.0383296 0.38977921
1.2933694 -1.038252 0.38986942
1.2935621 -1.0383145 0.38988051
1.2937025 -1.0381204 0.3900364
1.2938429 -1.0379285 0.39019105
1.2940353 -1.03799 0.39020258
1.2941753 -1.0377978 0.39035723
1.294368 -1.0378611 0.39036781
1.2945374 -1.0378119 0.39044181
1.2947009 -1.0377349 0.39053145
1.2949117 -1.0378836 0.39049393
1.2950505 -1.0376899 0.3906492
1.2952254 -1.0376682 0.39070767
1.2953932 -1.0376132 0.3907848
1.2955567 -1.0375384 0.39087307
1.2956948 -1.0373467 0.39102691
1.2958877 -1.0374101 0.39103746
1.2960808 -1.0374739 0.39104789
1.2962186 -1.0372828 0.3912012
1.2963861 -1.0372293 0.39127737
1.2965235 -1.037039 0.3914302
1.2967151 -1.0370965 0.39144412
1.2968783 -1.037025 0.39153022
1.2970151 -1.036835 0.39168274
1.2972076 -1.036896 0.39169461
1.2973446 -1.0367091 0.39184523
1.2975371 -1.0367708 0.39185676
1.2977045 -1.0367199 0.39193121
1.2978654 -1.0366416 0.392021
1.2980579 -1.0367023 0.39203316
1.2981938 -1.0365152 0.39218357
1.2983867 -1.0365773 0.39219493
1.2985214 -1.036387 0.3923471
1.2986557 -1.0361964 0.39249927
1.2988486 -1.0362587 0.39251053
1.2990158 -1.0362105 0.39258325
1.299181 -1.0361546 0.39266032
1.2993423 -1.0360821 0.3927466
1.2995341 -1.0361396 0.39276055
1.2996956 -1.0360689 0.39284575
1.2998288 -1.0358799 0.3929967
1.2999614 -1.0356895 0.39314833
1.3001541 -1.0357509 0.39316005
1.3003196 -1.035699 0.39323467
1.3004799 -1.0356261 0.39332095
1.3006727 -1.0356879 0.39333251
1.3008378 -1.0356348 0.39340776
1.3009694 -1.0354455 0.39355844
1.3011289 -1.0353714 0.39364526
1.301281 -1.0352674 0.39374861
1.3014119 -1.0350785 0.39389881
1.3015841 -1.0350579 0.39395595
1.3017497 -1.0350105 0.39402789
1.3019418 -1.0350691 0.39404118
1.3021342 -1.0351287 0.39405388
1.3022938 -1.0350579 0.39413872
1.3023181 -1.0344517 0.39451897
1.3025109 -1.0345142 0.39453009
1.3027036 -1.0345767 0.39454123
1.3028966 -1.0346391 0.39455235
1.3030684 -1.0346184 0.39460939
1.3032186 -1.034514 0.39471254
1.3034756 -1.0341395 0.39500973
1.303647 -1.0341197 0.39506614
1.3038398 -1.0341816 0.39507762
1.3040544 -1.0343263 0.39504355
1.3054392 -1.03356 0.3958731
1.3056018 -1.0335097 0.39594597
1.305758 -1.0334361 0.39603165
1.3059208 -1.0333872 0.39610368
1.3060766 -1.0333133 0.39618948
1.3062918 -1.0334558 0.39615691
1.3076853 -1.0327772 0.39693457
1.3078926 -1.0328887 0.39691916
1.3080479 -1.0328174 0.3970032
1.3081713 -1.0326344 0.39714786
1.2109647 -0.97985631 0.4046782
1.210793 -0.98082 0.40403935
1.2107271 -0.98144376 0.4036375
1.2105274 -0.98250961 0.40292841
1.2100897 -0.98478782 0.40140992
1.2097968 -0.98618186 0.40047434
1.2085614 -0.991606 0.39680934
1.2084676 -0.99237031 0.39631358
1.2084608 -0.99284714 0.39601758
1.2084932 -0.99319398 0.39581195
1.2084348 -0.99385041 0.39539188
1.2085617 -0.99388272 0.39540461
1.2090236 -0.9927752 0.39620695
1.2091272 -0.99288356 0.39616677
1.2092139 -0.99305058 0.39608604
1.2092648 -0.99334157 0.39591959
1.2089309 -0.99495924 0.39483544
1.2090255 -0.99510676 0.3947688
1.2090572 -0.99547333 0.3945508
1.209167 -0.99557066 0.39451903
1.209013 -0.99658871 0.39385119
1.2090229 -0.99703968 0.39357546
1.209139 -0.99712086 0.39355522
1.2092954 -0.9970606 0.39363271
1.2093774 -0.99726284 0.39352906
1.2094356 -0.99755073 0.3933664
1.2095343 -0.99769628 0.39330202
1.2096276 -0.99786204 0.39322379
1.2096784 -0.99818128 0.39303988
1.2096492 -0.99878901 0.39265737
1.2097435 -0.99895668 0.39257818
1.2098823 -0.99896467 0.39260903
1.2099895 -0.9990871 0.39256108
1.2100962 -0.99921215 0.39251143
1.2101483 -0.99953711 0.39232433
1.2102972 -0.99951029 0.39237922
1.2104043 -0.99963677 0.39232874
1.2105633 -0.99957281 0.39240918
1.210604 -0.99994582 0.39218947
1.2107228 -1.0000314 0.3921673
1.210868 -1.0000194 0.39221209
1.2109574 -1.0002159 0.39211389
1.2113912 -0.99912429 0.39289916
1.211537 -0.99910676 0.39294755
1.2116458 -0.99922872 0.39290032
1.211736 -0.99942267 0.39280382
1.2119802 -0.99903286 0.39310727
1.2120941 -0.99913675 0.39307249
1.2122941 -0.99891222 0.39326254
1.2132671 -0.99625456 0.39515299
1.2135261 -0.99579024 0.39550617
1.2139959 -0.99450624 0.39641947
1.2143134 -0.99380553 0.39693359
1.2147043 -0.99281323 0.39764652
1.2206852 -0.97607505 0.40951481
1.2207837 -0.97616678 0.40948358
1.2238969 -0.9690038 0.41470513
1.2535326 -0.84137058 0.50109112
1.2535326 -0.84137058 0.50109112
1.2535326 -0.84137058 0.50109112
1.2535326 -0.8413704 0.50109124
1.2535326 -0.84137028 0.5010913
1.2535328 -0.84137017 0.50109136
1.2535328 -0.84137005 0.50109148
1.2535328 -0.84136999 0.50109148
1.2535326 -0.84137028 0.5010913
1.2154533 -1.0205997 0.38069433
1.2156485 -1.0204371 0.38084498
1.2158449 -1.0202681 0.38099983
1.2160586 -1.0200145 0.38121134
1.2162731 -1.019755 0.38142669
1.2164319 -1.0197618 0.38146335
1.2165879 -1.0197815 0.38149142
1.2167783 -1.0196345 0.38163123
1.2169517 -1.0195692 0.38171619
1.2171061 -1.0195963 0.38173914
1.2172953 -1.0194529 0.38187635
1.2174497 -1.0194802 0.3818993
1.2175852 -1.0196012 0.38185951
1.217719 -1.0197316 0.3818135
1.2178684 -1.0197849 0.38181913
1.21802 -1.0198289 0.38183099
1.2182436 -1.0195085 0.38208631
1.2184175 -1.0194378 0.3821747
1.2185742 -1.0194545 0.38220483
1.2186922 -1.0196692 0.38210267
1.2188435 -1.0197144 0.38211378
1.2190639 -1.0194032 0.38236254
1.2221193 -1.0043782 0.39242029
1.222242 -1.0045018 0.39237568
1.2223787 -1.0045533 0.39237905
1.222502 -1.0046759 0.39233521
1.2226261 -1.0047951 0.3922936
1.2227801 -1.0047573 0.3923566
1.2229029 -1.0048848 0.39230952
1.2230532 -1.004867 0.39235923
1.2231741 -1.0050069 0.392304
1.2233106 -1.0050637 0.39230418
1.2234327 -1.0052001 0.3922514
1.2236289 -1.0049322 0.39246732
1.2237697 -1.0049661 0.39248255
1.2239128 -1.0049875 0.39250627
1.2240372 -1.0051134 0.39246064
1.2241734 -1.005174 0.39245829
1.2242702 -1.0054567 0.39230883
1.2243942 -1.0055889 0.39225921
1.2245479 -1.0055547 0.39231983
1.2246763 -1.0056641 0.39228541
1.2248046 -1.0057741 0.39225057
1.2249467 -1.0058072 0.39226675
1.225101 -1.0057701 0.39232942
1.2252563 -1.005726 0.3923966
1.2253973 -1.0057656 0.39240849
1.2255216 -1.005904 0.39235514
1.2256761 -1.0058651 0.39241889
1.2258074 -1.0059631 0.39239228
1.2259395 -1.0060586 0.39236736
1.2260828 -1.0060867 0.39238694
1.2262286 -1.0061007 0.39241582
1.2263509 -1.0062574 0.39235061
1.2264969 -1.0062712 0.39237973
1.2266399 -1.0063044 0.39239606
1.2267816 -1.0063454 0.39240727
1.2269212 -1.0063994 0.39240992
1.2270714 -1.0063885 0.39245528
1.2271854 -1.0066049 0.39235109
1.2273123 -1.0067416 0.39229944
1.2274543 -1.0067842 0.39230978
1.2275835 -1.0069095 0.39226574
1.2263188 -1.0159793 0.38634372
1.2264225 -1.0163239 0.38615775
1.2265855 -1.0162878 0.38622203
1.2267625 -1.0161592 0.38634697
1.2269299 -1.0160928 0.38643101
1.2270814 -1.0161307 0.38644665
1.2272189 -1.0162622 0.38640097
1.2273681 -1.0163167 0.38640574
1.2274904 -1.016553 0.38629141
1.2276391 -1.0166142 0.38629189
1.2278426 -1.0163025 0.38653666
1.2279799 -1.0164404 0.38648698
1.2281452 -1.0163866 0.38656273
1.2283263 -1.0162227 0.38671049
1.2284981 -1.0161229 0.38681629
1.2286701 -1.0160195 0.38692445
1.228911 -1.0154274 0.38735187
1.229105 -1.0151628 0.38756499
1.2293102 -1.0148139 0.38783315
1.2295073 -1.0145179 0.38806659
1.2297008 -1.0142454 0.38828456
1.229893 -1.0139785 0.38849875
1.2300463 -1.0139942 0.38852856
1.2301896 -1.0140843 0.38850981
1.2303755 -1.0138571 0.38869789
1.2318211 -1.0075494 0.39296222
1.2320061 -1.0072774 0.39317769
1.2321696 -1.0071676 0.3932876
1.2331159 -1.0009385 0.39737481
1.2332652 -1.0008956 0.39743972
1.2334052 -1.0009239 0.39745837
1.2335371 -1.0010191 0.39743355
1.2336758 -1.0010599 0.39744416
1.2337236 -1.0018384 0.39697605
1.2338442 -1.0020343 0.39688626
1.233983 -1.0020826 0.39689225
1.2341239 -1.0021148 0.39690864
1.2342646 -1.0021501 0.39692315
1.2344229 -1.0020368 0.39703375
1.2345545 -1.002148 0.39699903
1.2347888 -1.0013855 0.39752996
1.2348492 -1.002106 0.39710087
1.2349879 -1.0021604 0.39710295
1.2351195 -1.002277 0.39706492
1.2351079 -1.0036557 0.39621133
1.2352481 -1.0037103 0.39621374
1.2354029 -1.0036333 0.39630115
1.2355428 -1.0036922 0.39630082
1.2356768 -1.0038042 0.39626613
1.235822 -1.0038154 0.39629662
1.2359831 -1.0036792 0.39642221
1.2362416 -1.0026335 0.39713401
1.2363992 -1.0025188 0.39724535
1.2366483 -1.0015336 0.39791739
1.2367191 -1.002238 0.39750099
1.2368683 -1.0021991 0.39756346
1.2370229 -1.0021058 0.39766076
1.237169 -1.0020936 0.39770597
1.2373159 -1.0020744 0.39775568
1.2374634 -1.002049 0.39780936
1.2376716 -1.0014105 0.39825696
1.2378126 -1.001444 0.39827254
1.237954 -1.0014745 0.39829013
1.2380952 -1.0015081 0.3983058
1.2382358 -1.0015482 0.39831728
1.2383759 -1.0015948 0.39832461
1.2385291 -1.0015022 0.39842123
1.2386693 -1.0015491 0.39842832
1.2388172 -1.0015119 0.39848936
1.2389656 -1.0014677 0.39855489
1.2391089 -1.0014807 0.39858377
1.2392462 -1.0015619 0.39856905
1.2393892 -1.001579 0.39859527
1.2395389 -1.0015211 0.3986696
1.2396752 -1.0016166 0.39864576
1.2398163 -1.0016564 0.39865756
1.2399572 -1.0017008 0.39866647
1.2400985 -1.0017422 0.39867729
1.2402406 -1.0017734 0.3986946
1.2403874 -1.0017483 0.39874792
1.2405292 -1.001786 0.39876121
1.2406703 -1.0018317 0.39876935
1.2408123 -1.0018667 0.39878428
1.2409544 -1.0019027 0.39879873
1.2411022 -1.0018651 0.39885992
1.2412456 -1.0018843 0.39888504
1.2413957 -1.0018172 0.39896503
1.2415462 -1.0017421 0.39905018
1.2416914 -1.0017375 0.39909041
1.2418349 -1.0017543 0.39911699
1.2419783 -1.0017732 0.39914227
1.2421216 -1.0017952 0.39916563
1.242265 -1.0018171 0.39918905
1.242414 -1.0017564 0.39926484
1.2425588 -1.0017573 0.39930165
1.2427099 -1.0016659 0.39939687
1.2428548 -1.0016623 0.39943647
1.2429996 -1.0016645 0.39947239
1.2431437 -1.0016739 0.39950365
1.2438627 -0.99268848 0.40523314
1.2440009 -0.99266398 0.40528387
1.2441312 -0.99276704 0.40525383
1.2442615 -0.99287343 0.4052217
1.2443923 -0.9929747 0.40519291
1.2445196 -0.99313629 0.40512604
1.2446544 -0.99317569 0.40513644
1.2438465 -1.0095894 0.39480063
1.2449172 -0.99338204 0.40507677
1.2450488 -0.99348533 0.40504691
1.2451802 -0.99359262 0.40501457
1.2444112 -1.0103927 0.39445043
1.2454473 -0.99374712 0.40498805
1.2446873 -1.0109574 0.39417309
1.2457117 -0.99396217 0.40492344
1.2458439 -0.99407405 0.40488848
1.2459768 -0.99417764 0.40485877
1.2461102 -0.99427581 0.40483257
1.2462406 -0.99444067 0.40476441
1.246374 -0.99454582 0.40473387
1.2465073 -0.99465966 0.40469795
1.2466443 -0.99469686 0.40471029
1.2467759 -0.99485409 0.4046472
1.2469113 -0.99493361 0.40463299
1.2470466 -0.99501532 0.40461743
1.2471793 -0.99516714 0.40455794
1.2473141 -0.99527359 0.40452695
1.2474465 -0.99544424 0.40445575
1.2474858 -0.99803698 0.40286607
1.2476274 -0.99804026 0.40290052
1.2477815 -0.99770015 0.40315008
1.2479261 -0.99761152 0.40324199
1.2480695 -0.99755108 0.40331623
1.2482133 -0.99747944 0.40339744
1.2483525 -0.99753833 0.40339696
1.2484968 -0.99744433 0.40349215
1.2486385 -0.99742621 0.40353981
1.2487994 -0.99677765 0.40398145
1.2489424 -0.99669933 0.40406656
1.2490909 -0.99642026 0.40427706
1.2493045 -0.99377829 0.4059622
1.2494438 -0.99372905 0.40602845
1.2495811 -0.99374729 0.40605256
1.2497184 -0.9937681 0.40607512
1.2498543 -0.99385285 0.40605783
1.2499933 -0.99380976 0.40612021
1.2501322 -0.99376816 0.40618163
1.2502826 -0.99318409 0.40658075
1.2504224 -0.99306917 0.40668765
1.2505605 -0.99302602 0.40674987
1.2507142 -0.99214762 0.40733147
1.2508491 -0.99223697 0.40731108
1.2509751 -0.99285823 0.40696019
1.2511128 -0.9928261 0.40701547
1.2512496 -0.99285465 0.40703306
1.2513863 -0.99288058 0.40705225
1.2515241 -0.99283636 0.40711504
1.2516617 -0.99279344 0.40717697
1.2517985 -0.99282289 0.40719405
1.2519352 -0.99285883 0.40720707
1.2520728 -0.9928202 0.40726632
1.2522103 -0.99277669 0.40732861
1.2523539 -0.99194539 0.40787855
1.2524904 -0.99191928 0.40792981
1.2526265 -0.99195588 0.40794227
1.2527628 -0.99199021 0.40795615
1.2528988 -0.99207991 0.40793589
1.2530354 -0.99204522 0.40799245
1.253172 -0.99201339 0.40804726
1.2533091 -0.99154431 0.40837201
1.253445 -0.99170315 0.40830904
1.2535813 -0.99174571 0.40831783
1.253718 -0.99210799 0.40812951
1.2538548 -0.99220955 0.4081021
1.2539914 -0.99218947 0.40814966
1.2541299 -0.99267972 0.40788287
1.2542676 -0.99279147 0.40784934
1.2544004 -0.99202037 0.40835932
1.2545371 -0.99205643 0.40837228
1.254674 -0.99209982 0.40838078
1.2548114 -0.99220026 0.40835419
1.2549485 -0.99223769 0.40836638
1.2550856 -0.99227905 0.40837619
1.2552235 -0.99237967 0.4083496
1.2553601 -0.99235654 0.40839908
1.2554965 -0.9923259 0.40845314
1.2556322 -0.99223685 0.40854299
1.2557687 -0.99221832 0.40858957
1.255906 -0.99225944 0.40859959
1.2560434 -0.99229735 0.4086116
1.2561809 -0.99233556 0.40862343
1.2563184 -0.99237251 0.40863603
1.2564573 -0.99247003 0.40861163
1.2565951 -0.99251312 0.40862057
1.2567344 -0.99261844 0.40859145
1.2568725 -0.99266398 0.40859893
1.2570121 -0.99276769 0.40857089
1.2571521 -0.99287581 0.40854016
1.2572888 -0.99285251 0.40858978
1.2574219 -0.99268097 0.40872988
1.2575456 -0.99217308 0.40907514
1.2576839 -0.99222934 0.40907604
1.2578259 -0.99240988 0.4090012
1.2579664 -0.99252951 0.40896359
1.258109 -0.99271369 0.40888667
1.25825 -0.99283206 0.40884992
1.2583932 -0.99301136 0.40877616
1.2585326 -0.99307048 0.40877566
1.2586766 -0.99325883 0.40869647
1.2588211 -0.99344993 0.4086158
1.258966 -0.99364114 0.40853512
1.2591136 -0.99389935 0.4084138
1.2592593 -0.99409693 0.40832943
1.2594055 -0.99429184 0.40824682
1.2595519 -0.99448693 0.40816411
1.259699 -0.99468917 0.40807724
1.2598491 -0.99495703 0.40795064
1.2599971 -0.99516124 0.40786275
1.2601483 -0.99543226 0.40773445
1.2603 -0.99570465 0.4076055
1.2604524 -0.99597836 0.40747583
1.2607703 -0.9967773 0.40706474
1.2685186 -1.0548848 0.37320626
1.2686994 -1.0546997 0.37336704
1.2688887 -1.0546353 0.37345549
1.269076 -1.0545454 0.37355924
1.2692635 -1.0544606 0.37365979
1.2694522 -1.0543954 0.37374866
1.2696407 -1.0543264 0.37383977
1.269819 -1.0541283 0.37400797
1.2700157 -1.0541701 0.37403277
1.270214 -1.0542316 0.37404594
1.2704126 -1.054296 0.37405738
1.2706015 -1.0542387 0.37414142
1.2707891 -1.0541657 0.37423477
1.2709552 -1.0538319 0.3744835
1.2711513 -1.053866 0.37451294
1.271337 -1.0537767 0.37461585
1.2715243 -1.0537087 0.37470612
1.2717223 -1.0537658 0.37472185
1.2718996 -1.0535823 0.37488073
1.2720865 -1.0535132 0.37497154
1.2722508 -1.0531886 0.37521407
1.2724252 -1.052984 0.37538522
1.2726214 -1.0530261 0.37540981
1.2728068 -1.0529478 0.37550592
1.2729918 -1.0528668 0.37560347
1.2731643 -1.0526522 0.37578028
1.2733253 -1.0523204 0.37602654
1.2735206 -1.0523558 0.376055
1.2736932 -1.0521541 0.37622392
1.2738881 -1.0521868 0.37625387
1.274071 -1.0520952 0.37635753
1.2742672 -1.0521405 0.37638015
1.2744762 -1.0523136 0.37632716
1.2746856 -1.0524883 0.37627327
1.2748685 -1.052397 0.37637666
1.2750517 -1.0523108 0.37647709
1.2752469 -1.0523419 0.37650815
1.2753918 -1.0518885 0.37682524
1.2755226 -1.0513082 0.37721702
1.2756903 -1.051087 0.37739664
1.2758723 -1.0510043 0.3774946
1.276029 -1.0506859 0.37773138
1.2761977 -1.0504849 0.37789884
1.2763646 -1.05027 0.37807444
1.2765304 -1.0500488 0.37825364
1.2766985 -1.0498519 0.37841845
1.2768943 -1.0499063 0.37843537
1.2770756 -1.0498303 0.37852889
1.2772425 -1.0496292 0.37869596
1.2773696 -1.0490839 0.37906507
1.2775639 -1.049129 0.37908733
1.2777436 -1.0490477 0.37918377
1.2779237 -1.0489712 0.37927741
1.278118 -1.0490153 0.37930024
1.2782973 -1.0489327 0.37939733
1.2784745 -1.0488337 0.37950402
1.2786368 -1.0486149 0.37968093
1.2787994 -1.0484003 0.37985519
1.2789934 -1.048444 0.37987816
1.2791595 -1.0482626 0.3800329
1.2793547 -1.0483167 0.38004974
1.2795345 -1.0482473 0.3801389
1.2797278 -1.0482858 0.38016492
1.2799217 -1.0483278 0.38018897
1.2800862 -1.0481402 0.38034707
1.2802347 -1.047832 0.38057551
1.2804109 -1.0477406 0.38067728
1.2806032 -1.047773 0.38070682
1.2807978 -1.0478226 0.38072634
1.280992 -1.0478685 0.380748
1.2811559 -1.0476871 0.3809022
1.2813371 -1.0476366 0.38097998
1.2815492 -1.0478138 0.38092527
1.2817631 -1.0480021 0.38086414
1.2819115 -1.047712 0.3810814
1.2821102 -1.047789 0.38108507
1.2823066 -1.0478476 0.38109943
1.2824833 -1.0477666 0.38119504
1.2825615 -1.0469879 0.38169563
1.2827196 -1.0467807 0.38186416
1.2828773 -1.046574 0.38203231
1.2830528 -1.0464938 0.38212705
1.2832305 -1.0464301 0.38221213
1.2833887 -1.0462319 0.38237515
1.2835627 -1.0461447 0.38247374
1.2837183 -1.0459346 0.38264349
1.2838928 -1.0458525 0.38273904
1.2840894 -1.0459211 0.38274735
1.2842447 -1.0457125 0.38291603
1.2844217 -1.0456507 0.38299972
1.2845784 -1.0454562 0.38316011
1.2847742 -1.0455194 0.38317159
1.2849475 -1.0454359 0.38326776
1.2851013 -1.0452271 0.38343617
1.2852579 -1.0450388 0.38359269
1.2854536 -1.0451013 0.38360453
1.2856084 -1.0449048 0.38376561
1.2858044 -1.04497 0.38377586
1.2859937 -1.041555 0.38593176
1.2861464 -1.0413715 0.38608435
