# .PCD v0.7 - Point Cloud Data file format
VERSION 0.7
FIELDS x y z
SIZE 4 4 4
TYPE F F F
COUNT 1 1 1
WIDTH 1466
HEIGHT 1
VIEWPOINT 0 0 0 1 0 0 0
POINTS 1466
DATA ascii
1.278808 -0.98436379 0.41936976
1.2789109 -0.98420751 0.41949266
1.2790232 -0.98410594 0.41958427
1.2791359 -0.98400813 0.41967365
1.2792479 -0.98390681 0.41976503
1.2793695 -0.98385972 0.4198254
1.2794715 -0.9837057 0.41994673
1.2795833 -0.98360658 0.42003667
1.2797055 -0.98356456 0.42009407
1.2798283 -0.98352581 0.42014959
1.2799506 -0.98348564 0.42020589
1.2800727 -0.98344421 0.4202629
1.2801952 -0.98340559 0.42031828
1.2803177 -0.98336661 0.42037386
1.2804297 -0.98327374 0.42046002
1.2805413 -0.98317909 0.42054716
1.2806531 -0.98308629 0.42063323
1.2807759 -0.9830516 0.42068627
1.2808876 -0.98295963 0.42077175
1.28101 -0.98292398 0.4208253
1.2811224 -0.98283696 0.42090794
1.2812567 -0.98286211 0.42092699
1.2813795 -0.98282945 0.42097878
1.2814915 -0.98274183 0.42106169
1.2816133 -0.98270482 0.42111588
1.2817472 -0.98272884 0.4211356
1.2818704 -0.98269826 0.42118612
1.2820048 -0.98272461 0.42120451
1.2821383 -0.98274601 0.42122573
1.2822499 -0.98265886 0.42130816
1.282384 -0.98268354 0.42132753
1.2825177 -0.98270535 0.42134851
1.2826517 -0.98272824 0.42136887
1.282774 -0.98269486 0.42142096
1.282896 -0.98266059 0.42147353
1.2830298 -0.98268217 0.42149466
1.2831513 -0.98264539 0.42154863
1.2832605 -0.98255038 0.42163536
1.2833816 -0.98251307 0.4216896
1.2835027 -0.98247558 0.42174396
1.2836238 -0.98243856 0.42179799
1.2837323 -0.9823423 0.42188531
1.2838517 -0.98229861 0.42194304
1.2839593 -0.98219949 0.42203188
1.284055 -0.9820472 0.42215052
1.2841746 -0.98200506 0.4222073
1.2842818 -0.98190743 0.42229515
1.284389 -0.98181027 0.42238271
1.2844961 -0.98171306 0.42247027
1.2846158 -0.98167378 0.42252535
1.2847351 -0.98163319 0.42258111
1.2848536 -0.98158926 0.42263874
1.2535372 -0.84135658 0.5011009
1.2535349 -0.84136361 0.50109595
1.2535352 -0.84136277 0.50109649
1.2535354 -0.84136206 0.50109708
1.2535356 -0.84136122 0.50109768
1.2535359 -0.84136033 0.50109822
1.2535361 -0.84135956 0.50109881
1.2535363 -0.84135866 0.50109941
1.2535366 -0.84135783 0.5011
1.2535369 -0.84135699 0.50110054
1.2535372 -0.8413561 0.5011012
1.2535374 -0.84135526 0.50110173
1.2535377 -0.84135431 0.50110245
1.253538 -0.8413533 0.50110316
1.2535383 -0.84135228 0.50110382
1.2535386 -0.84135121 0.50110459
1.2535388 -0.84135026 0.50110519
1.253539 -0.84134966 0.50110567
1.253539 -0.8413496 0.50110567
1.2535391 -0.84134948 0.50110579
1.2535391 -0.8413493 0.50110584
1.2535391 -0.84134924 0.5011059
1.2535391 -0.84134912 0.50110602
1.2535391 -0.84134907 0.50110602
1.2535391 -0.84134907 0.50110602
1.2535391 -0.84134895 0.50110608
1.2535391 -0.84134895 0.50110608
1.2535391 -0.84134883 0.50110614
1.2535391 -0.84134883 0.50110614
1.2535391 -0.84134883 0.50110614
1.2535391 -0.84134877 0.5011062
1.2535391 -0.84134871 0.50110626
1.2535391 -0.84134859 0.50110626
1.253539 -0.84134859 0.50110626
1.253539 -0.84134859 0.50110626
1.253539 -0.84134853 0.50110632
1.253539 -0.84134853 0.50110632
1.253539 -0.84134835 0.50110644
1.253539 -0.84134835 0.50110644
1.253539 -0.84134829 0.50110644
1.253539 -0.84134817 0.5011065
1.253539 -0.84134811 0.50110662
1.253539 -0.84134805 0.50110662
1.253539 -0.84134799 0.50110668
1.253539 -0.84134799 0.50110668
1.253539 -0.84134799 0.50110668
1.253539 -0.84134799 0.50110668
1.253539 -0.84134787 0.50110674
1.253539 -0.84134787 0.50110674
1.253539 -0.84134787 0.50110674
1.253539 -0.84134775 0.5011068
1.253539 -0.84134775 0.5011068
1.253539 -0.84134763 0.50110686
1.2535388 -0.84134763 0.50110686
1.2535388 -0.84134763 0.50110686
1.2535388 -0.84134758 0.50110692
1.2535388 -0.84134752 0.50110692
1.2535388 -0.84134752 0.50110692
1.2535388 -0.8413474 0.50110698
1.2535388 -0.84134746 0.50110698
1.2535388 -0.84134734 0.50110698
1.2535388 -0.84134734 0.50110698
1.2535387 -0.84134734 0.50110698
1.2535387 -0.84134728 0.5011071
1.2535387 -0.84134728 0.5011071
1.2535387 -0.84134722 0.5011071
1.2535387 -0.8413471 0.50110716
1.2535387 -0.84134704 0.50110722
1.2535387 -0.84134704 0.50110722
1.2535387 -0.84134692 0.50110728
1.2535387 -0.84134686 0.50110728
1.2535387 -0.84134674 0.50110734
1.2535387 -0.84134674 0.50110739
1.2535387 -0.84134662 0.50110745
1.2535387 -0.84134662 0.50110745
1.2535387 -0.84134662 0.50110745
1.2535387 -0.84134656 0.50110745
1.2535387 -0.84134656 0.50110745
1.2535386 -0.84134656 0.50110745
1.2535386 -0.84134662 0.50110739
1.2535386 -0.84134662 0.50110739
1.2535386 -0.84134662 0.50110739
1.2535385 -0.84134662 0.50110739
1.2535385 -0.84134656 0.50110745
1.2535385 -0.84134656 0.50110745
1.2535385 -0.8413465 0.50110745
1.2535385 -0.84134644 0.50110751
1.2535385 -0.84134644 0.50110745
1.2535385 -0.84134644 0.50110745
1.2535385 -0.84134638 0.50110751
1.2535385 -0.84134626 0.50110763
1.2535385 -0.8413462 0.50110763
1.2535385 -0.8413462 0.50110763
1.2535384 -0.8413462 0.50110763
1.2535384 -0.84134626 0.50110757
1.2535384 -0.84134644 0.50110745
1.2535384 -0.84134632 0.50110751
1.2535383 -0.84134638 0.50110745
1.2535383 -0.8413462 0.50110757
1.2535384 -0.84134585 0.50110781
1.2535384 -0.84134561 0.50110799
1.2535428 -0.84132648 0.50112092
1.2535428 -0.84132648 0.50112092
1.2535427 -0.84132659 0.50112081
1.2535425 -0.84132677 0.50112069
1.2535424 -0.84132719 0.50112039
1.2535423 -0.84132737 0.50112021
1.2535423 -0.84132743 0.50112021
1.2535423 -0.84132725 0.50112033
1.2535422 -0.84132749 0.50112015
1.2535422 -0.84132737 0.50112021
1.2535423 -0.84132665 0.50112069
1.2535424 -0.841326 0.50112116
1.2535424 -0.84132564 0.50112134
1.2535425 -0.84132504 0.50112176
1.2535427 -0.84132457 0.50112206
1.2535428 -0.84132373 0.50112259
1.2535429 -0.84132272 0.50112331
1.2535431 -0.84132165 0.50112402
1.2535434 -0.8413204 0.5011248
1.2535435 -0.8413195 0.5011254
1.2535439 -0.84131783 0.50112653
1.253544 -0.84131664 0.5011273
1.2535442 -0.84131551 0.50112808
1.2535444 -0.84131378 0.50112921
1.2535448 -0.84131223 0.50113022
1.2264259 -0.97227269 0.41333947
1.2265167 -0.97240168 0.41328329
1.2266164 -0.97248918 0.41325498
1.2267163 -0.97257662 0.41322672
1.2268071 -0.97270894 0.41316849
1.2268977 -0.97284341 0.41310889
1.2270073 -0.97288555 0.41311106
1.2271169 -0.97292721 0.41311362
1.2272272 -0.97296703 0.41311741
1.2273371 -0.97300845 0.41312018
1.2274475 -0.97304767 0.41312441
1.2275578 -0.9730882 0.41312778
1.2276683 -0.97312796 0.41313174
1.227788 -0.97312069 0.41316706
1.2278993 -0.97315669 0.4131735
1.2280108 -0.9731921 0.41318038
1.2281228 -0.97322512 0.41318884
1.2282351 -0.9732573 0.41319788
1.2283478 -0.97328758 0.41320825
1.2284523 -0.97336066 0.41319007
1.2285749 -0.97333997 0.41323441
1.2286884 -0.9733665 0.41324726
1.2288017 -0.97339439 0.41325924
1.228915 -0.97342312 0.41327071
1.2290281 -0.97345304 0.41328138
1.2291501 -0.97343522 0.41332379
1.2292632 -0.97346568 0.41333413
1.2293766 -0.97349465 0.41334543
1.2294903 -0.97352225 0.41335768
1.2296128 -0.97350079 0.4134025
1.2297263 -0.97353041 0.41341347
1.2298399 -0.97355902 0.41342503
1.2299538 -0.97358698 0.41343713
1.2300675 -0.97361529 0.41344899
1.2301817 -0.97364211 0.4134618
1.2303041 -0.97362155 0.41350603
1.2304183 -0.97364855 0.41351876
1.2305325 -0.97367585 0.41353136
1.2306467 -0.97370315 0.41354394
1.2307693 -0.97368211 0.41358846
1.2308761 -0.97375339 0.41357198
1.2309904 -0.97378033 0.4135848
1.231105 -0.97380698 0.41359788
1.2312195 -0.97383356 0.41361097
1.2313424 -0.97381157 0.41365618
1.2314568 -0.97383976 0.41366822
1.2315714 -0.97386682 0.41368106
1.2316864 -0.97389203 0.41369513
1.2318015 -0.97391689 0.4137094
1.2319242 -0.97389561 0.41375414
1.232039 -0.97392237 0.41376725
1.2321539 -0.97394919 0.41378027
1.2322687 -0.97397685 0.41379276
1.2323911 -0.97395742 0.41383627
1.2325058 -0.97398627 0.41384804
1.2326207 -0.9740141 0.41386041
1.2327359 -0.97404027 0.41387394
1.2328511 -0.9740665 0.4138875
1.2329667 -0.97409195 0.41390151
1.2330892 -0.97407126 0.41394585
1.2332044 -0.9740988 0.41395849
1.2333127 -0.9741714 0.41394162
1.2334281 -0.97419846 0.41395462
1.233551 -0.97417593 0.41400018
1.2336668 -0.9742012 0.4140144
1.2337825 -0.97422653 0.41402858
1.2338984 -0.9742521 0.41404265
1.2340209 -0.97423148 0.41408694
1.2341363 -0.97426003 0.41409904
1.234252 -0.97428817 0.41411144
1.2343676 -0.97431517 0.41412461
1.2344837 -0.97434032 0.414139
1.2346065 -0.97431886 0.41418383
1.2347224 -0.97434556 0.41419718
1.2348382 -0.97437263 0.41421035
1.2349542 -0.97439957 0.41422358
1.2350767 -0.97438037 0.41426694
1.2351924 -0.97440934 0.41427889
1.2353085 -0.97443664 0.41429195
1.2354248 -0.97446263 0.41430587
1.2355412 -0.97448772 0.41432038
1.235664 -0.97446567 0.41436559
1.2357802 -0.97449327 0.41437852
1.2358963 -0.97452146 0.41439101
1.2360126 -0.97455001 0.41440329
1.2361231 -0.97462225 0.4143872
1.2362398 -0.9746477 0.41440156
1.2363626 -0.97462618 0.41444647
1.2364794 -0.97465146 0.41446093
1.2365962 -0.97467637 0.41447571
1.236719 -0.97465515 0.41452038
1.2368355 -0.9746843 0.41453239
1.2369521 -0.97471249 0.414545
1.2370688 -0.97474003 0.41455811
1.2371858 -0.97476542 0.4145726
1.2373086 -0.97474426 0.41461727
1.2374256 -0.97477055 0.41463119
1.2375425 -0.97479767 0.41464454
1.2376595 -0.97482508 0.41465777
1.237782 -0.97480625 0.41470093
1.2378989 -0.97483444 0.41471368
1.238016 -0.9748621 0.41472673
1.2381333 -0.97488844 0.41474068
1.2382507 -0.97491372 0.41475534
1.2383735 -0.97489268 0.41479993
1.2384908 -0.97491908 0.41481388
1.238608 -0.97494769 0.41482639
1.2387253 -0.97497571 0.41483933
1.238848 -0.97495592 0.41488314
1.2389655 -0.97498244 0.41489702
1.2390831 -0.97500914 0.41491085
1.2392008 -0.97503448 0.41492552
1.2393188 -0.97505832 0.41494119
1.2394365 -0.97508478 0.41495517
1.2395542 -0.97511327 0.41496789
1.2396719 -0.97514081 0.41498125
1.2397898 -0.9751671 0.4149954
1.2399126 -0.97514546 0.4150404
1.2400306 -0.97517133 0.4150548
1.2401488 -0.97519779 0.41506889
1.2402668 -0.97522473 0.41508266
1.2403893 -0.97520578 0.41512591
1.2405072 -0.97523451 0.41513857
1.2406253 -0.97526246 0.41515172
1.2407436 -0.97528857 0.41516608
1.2408664 -0.97526717 0.4152109
1.2409848 -0.97529358 0.41522509
1.2411031 -0.97532022 0.41523913
1.2412214 -0.97534722 0.41525292
1.241344 -0.97532856 0.41529602
1.2414623 -0.97535712 0.41530889
1.2415807 -0.97538483 0.4153223
1.2416995 -0.97541058 0.41533697
1.2258193 -1.158533 0.29825535
1.2260871 -1.1587458 0.29819295
1.2420596 -0.97544247 0.41541004
1.2421782 -0.97547084 0.41542307
1.2422967 -0.97550011 0.41543555
1.2424154 -0.97552848 0.41544861
1.2425382 -0.97550821 0.41549271
1.2426571 -0.97553504 0.41550678
1.2278724 -1.1614883 0.29696056
1.2281698 -1.1613821 0.29710269
1.2430179 -0.97556758 0.41557965
1.2431333 -0.97564149 0.41556376
1.2432524 -0.97566926 0.41557732
1.2433716 -0.97569603 0.41559148
1.2434911 -0.97572047 0.41560718
1.2436105 -0.97574508 0.4156228
1.2437334 -0.97572362 0.41566765
1.2438529 -0.97575033 0.41568193
1.2439723 -0.97577763 0.41569585
1.244095 -0.97575796 0.4157396
1.2442144 -0.97578579 0.41575319
1.2443341 -0.9758119 0.41576788
1.2444537 -0.97583824 0.41578245
1.2445735 -0.97586322 0.41579786
1.2446964 -0.97584242 0.41584235
1.2448161 -0.97586918 0.41585669
1.2449389 -0.97584951 0.41590044
1.2450585 -0.97587693 0.41591433
1.2451785 -0.97590321 0.41592902
1.2452985 -0.97592783 0.4159447
1.2454185 -0.9759531 0.41596001
1.2455413 -0.9759323 0.41600451
1.2456614 -0.9759593 0.41601872
1.2457813 -0.97598737 0.41603234
1.2459013 -0.97601581 0.41604573
1.2460215 -0.97604251 0.41606018
1.2461418 -0.97606885 0.4160749
1.2462622 -0.97609407 0.41609034
1.246385 -0.97607368 0.41613457
1.2465054 -0.97609967 0.41614956
1.2466283 -0.97607875 0.41619408
1.2467486 -0.97610623 0.41620812
1.2468691 -0.97613323 0.41622251
1.2469896 -0.9761591 0.41623759
1.2471102 -0.97618425 0.41625315
1.2382555 -1.1682618 0.29545528
1.2385288 -1.1687442 0.29522794
1.2388109 -1.1690536 0.29510975
1.2389525 -1.172567 0.29297835
1.23922 -1.1733079 0.29259005
1.239501 -1.1737632 0.29238147
1.2397702 -1.1745211 0.29198316
1.2400526 -1.1749893 0.29176694
1.2403356 -1.1754597 0.29154965
1.2406174 -1.1759889 0.29129571
1.2484401 -0.97647738 0.41641477
1.248565 -0.9764052 0.41649145
1.248688 -0.97638083 0.41653815
1.2488109 -0.9763568 0.41658464
1.2489321 -0.97638345 0.41659945
1.2490534 -0.97641051 0.41661394
1.2491761 -0.97638893 0.41665891
1.2492974 -0.97641706 0.4166728
1.2494187 -0.9764449 0.41668683
1.2495402 -0.97647166 0.41670159
1.2496617 -0.97649741 0.41671699
1.2497845 -0.97647542 0.41676223
1.2499061 -0.9765017 0.41677731
1.2500277 -0.97652781 0.41679248
1.2501504 -0.97650635 0.41683739
1.2502722 -0.97653389 0.41685173
1.2503937 -0.97656065 0.41686654
1.2505156 -0.97658569 0.41688246
1.2506385 -0.97656327 0.41692793
1.2507602 -0.97658998 0.41694283
1.2508821 -0.97661692 0.41695759
1.251004 -0.97664452 0.41697195
1.2511269 -0.97662336 0.41701666
1.2512488 -0.97665155 0.41703063
1.2513708 -0.97667831 0.41704556
1.251493 -0.97670352 0.41706148
1.2516158 -0.97668093 0.41710705
1.251738 -0.97670817 0.41712168
1.2518601 -0.97673583 0.4171361
1.2519823 -0.97676307 0.41715077
1.2521046 -0.97678989 0.41716576
1.2522275 -0.97676814 0.41721079
1.2523499 -0.976794 0.41722631
1.2524723 -0.97681952 0.41724211
1.2525952 -0.97679728 0.41728747
1.2527176 -0.97682399 0.41730255
1.2528402 -0.97685117 0.41731736
1.2529627 -0.97687858 0.41733199
1.2530855 -0.97685707 0.41737688
1.2532082 -0.97688478 0.41739139
1.2533309 -0.97691125 0.41740668
1.2534537 -0.97693628 0.41742283
1.2535765 -0.97691399 0.41746819
1.2536993 -0.97694123 0.41748303
1.2538222 -0.97696936 0.41749731
1.2539451 -0.97699714 0.41751185
1.2540681 -0.97702426 0.41752678
1.2541909 -0.97700095 0.4175728
1.2543139 -0.97702742 0.41758814
1.2544371 -0.97705358 0.41760373
1.2545599 -0.97703224 0.41764849
1.254683 -0.9770602 0.41766298
1.2548063 -0.97708809 0.41767752
1.2549295 -0.97711504 0.41769266
1.2550529 -0.97714162 0.41770801
1.2551757 -0.97711921 0.41775346
1.2552991 -0.97714555 0.41776899
1.2554225 -0.97717142 0.41778478
1.2555453 -0.97714919 0.41783014
1.2556688 -0.97717732 0.41784459
1.2557924 -0.97720426 0.41785979
1.255916 -0.97723103 0.41787514
1.2560387 -0.97720796 0.41792095
1.2561624 -0.97723532 0.41793594
1.2562861 -0.97726244 0.41795105
1.2564099 -0.97728908 0.41796651
1.2565327 -0.97726679 0.4180119
1.2566565 -0.97729456 0.41802666
1.2567805 -0.97732222 0.41804153
1.2569044 -0.97734857 0.41805714
1.2570271 -0.97732592 0.41810274
1.2571511 -0.97735268 0.41811818
1.2572752 -0.97737908 0.41813383
1.2573993 -0.97740579 0.41814932
1.2575221 -0.97738445 0.41819409
1.2576463 -0.9774124 0.41820884
1.2577707 -0.97744 0.41822383
1.2578949 -0.97746551 0.41824007
1.2580175 -0.97744268 0.41828579
1.258142 -0.9774695 0.41830125
1.2582663 -0.97749627 0.41831681
1.258389 -0.97747326 0.41836259
1.2585136 -0.97750163 0.41837716
1.2586381 -0.97752941 0.41839212
1.2587627 -0.97755545 0.4184081
1.2588854 -0.97753167 0.41845435
1.25901 -0.97755867 0.41846979
1.2591347 -0.97758532 0.41848549
1.2592614 -0.97765821 0.41847312
1.2593842 -0.97763622 0.4185183
1.259509 -0.97766376 0.41853347
1.2596339 -0.97769034 0.41854927
1.2597588 -0.97771531 0.41856599
1.2598815 -0.9776929 0.41861144
1.2600065 -0.97771931 0.41862732
1.2601316 -0.97774708 0.41864246
1.2602568 -0.97777426 0.4186579
1.2603796 -0.97775322 0.41870248
1.2605048 -0.97778112 0.41871756
1.26063 -0.97780704 0.41873378
1.2607553 -0.97783196 0.41875064
1.260878 -0.97780901 0.41879642
1.2610033 -0.97783589 0.41881216
1.2611287 -0.9778626 0.41882792
1.2612514 -0.9778409 0.41887295
1.2613744 -0.97782302 0.41891563
1.2614999 -0.9778505 0.41893101
1.2616253 -0.97787559 0.41894782
1.2617508 -0.9779011 0.41896445
1.2618735 -0.97787821 0.41901013
1.2619991 -0.97790563 0.4190256
1.2621249 -0.97793293 0.41904113
1.2622508 -0.97796088 0.4190563
1.2623734 -0.97793913 0.4191013
1.2624993 -0.97796643 0.41911688
1.2626251 -0.97799206 0.41913345
1.2627476 -0.97796786 0.41917992
1.2628735 -0.97799391 0.41919631
1.2629995 -0.97802007 0.41921258
1.2631222 -0.97799832 0.41925761
1.2632483 -0.97802746 0.41927212
1.2633746 -0.97805572 0.4192872
1.2635008 -0.97808242 0.41930321
1.2636269 -0.97810853 0.4193196
1.2637495 -0.97808546 0.41936541
1.2638758 -0.97811282 0.41938105
1.2640022 -0.9781394 0.41939718
1.2641287 -0.97816724 0.41941258
1.2642552 -0.97819442 0.41942841
1.2643892 -0.97831601 0.41938788
1.2645156 -0.9783414 0.4194048
1.2646424 -0.97836804 0.41942102
1.2647691 -0.97839391 0.41943765
1.264884 -0.97827792 0.41953883
1.2650067 -0.97825623 0.41958383
1.2651334 -0.97828287 0.41960001
1.2652559 -0.9782598 0.41964579
1.2653826 -0.97828573 0.41966245
1.2655094 -0.97831142 0.41967925
1.2656319 -0.97828835 0.419725
1.2657589 -0.97831494 0.4197413
1.2658858 -0.97834176 0.41975746
1.2660084 -0.97831953 0.41980276
1.2694285 -1.0141381 0.39858246
1.2662627 -0.9783746 0.41983423
1.2663896 -0.97840035 0.41985109
1.266512 -0.97837687 0.41989708
1.2666394 -0.97840452 0.41991282
1.2667667 -0.97843152 0.41992894
1.266894 -0.97845829 0.41994521
1.2670165 -0.97843599 0.41999051
1.267144 -0.97846341 0.42000642
1.2672713 -0.97848964 0.42002302
1.2673986 -0.97851485 0.42004025
1.2675211 -0.97849226 0.42008576
1.2676487 -0.97851998 0.42010152
1.2677764 -0.97854745 0.42011747
1.2679042 -0.97857475 0.42013347
1.2680267 -0.97855282 0.42017859
1.2681545 -0.9785803 0.42019457
1.2682822 -0.97860605 0.42021155
1.2684044 -0.97858137 0.42025825
1.2685322 -0.97860831 0.42027456
1.2686602 -0.97863543 0.42029077
1.2687881 -0.97866213 0.42030722
1.2689106 -0.97864044 0.42035219
1.2690388 -0.97866845 0.42036793
1.2691669 -0.97869623 0.42038378
1.2692949 -0.97872156 0.42040113
1.2694173 -0.97869861 0.42044675
1.2695454 -0.97872525 0.42046335
1.2696737 -0.97875214 0.42047977
1.2697959 -0.97872794 0.42052621
1.2699244 -0.97875661 0.42054161
1.2700528 -0.97878408 0.42055774
1.2701812 -0.97881085 0.42057428
1.2703035 -0.97878647 0.4206208
1.270432 -0.97881365 0.42063713
1.2705604 -0.97883993 0.420654
1.2706889 -0.97886622 0.42067087
1.2708113 -0.97884327 0.42071655
1.2709401 -0.97887135 0.42073238
1.2710688 -0.97889847 0.42074883
1.274011 -1.0008337 0.40797192
1.2741612 -1.000872 0.40798694
1.2742923 -1.0007622 0.40808845
1.2744414 -1.0007912 0.40810895
1.274581 -1.0007483 0.40817139
1.2747309 -1.0007837 0.4081881
1.2748706 -1.0007432 0.4082492
1.2750107 -1.0007043 0.40830922
1.2751498 -1.0006598 0.40837249
1.2752991 -1.0006894 0.4083927
1.2754382 -1.0006454 0.4084557
1.2726049 -0.97913194 0.42100039
1.2727367 -0.97917587 0.42100722
1.2715756 -0.97000277 0.42636824
1.2738454 -0.98524964 0.41754508
1.2739818 -0.98528624 0.4175576
1.2741094 -0.9852609 0.41760609
1.2742447 -0.98528957 0.41762322
1.2743791 -0.98531234 0.41764385
1.274498 -0.98522705 0.41772708
1.2746323 -0.98524851 0.41774842
1.2747675 -0.98527557 0.41776657
1.2748944 -0.98524642 0.41781723
1.2750212 -0.98521745 0.41786775
1.2751483 -0.98519003 0.4179174
1.2752831 -0.98521388 0.41793743
1.2754095 -0.98518252 0.41798928
1.2755365 -0.98515528 0.41803879
1.2756716 -0.98518074 0.41805789
1.2758068 -0.98520708 0.41807646
1.2759335 -0.98517823 0.41812691
1.2760605 -0.98515153 0.41817608
1.2761954 -0.98517495 0.41819638
1.2763213 -0.98514223 0.41824904
1.2764473 -0.98510957 0.41830158
1.2765824 -0.98513424 0.41832119
1.2767093 -0.98510754 0.41837031
1.276845 -0.98513532 0.41838813
1.2769713 -0.98510635 0.41843855
1.2770982 -0.98507953 0.41848776
1.2772232 -0.98504275 0.41854265
1.2773581 -0.98506522 0.41856354
1.2774745 -0.9849776 0.41864762
1.2776003 -0.98494577 0.41869962
1.2777165 -0.9848578 0.41878384
1.277843 -0.98483133 0.41883275
1.2779498 -0.98468965 0.4189477
1.2780756 -0.98466033 0.41899818
1.278192 -0.98457682 0.41907966
1.2783179 -0.98454905 0.41912925
1.2784423 -0.98451233 0.41918391
1.2785567 -0.98441941 0.41927072
1.2786709 -0.98432636 0.41935754
1.2787845 -0.984231 0.41944569
1.278897 -0.98412955 0.41953719
1.2790092 -0.9840284 0.41962856
1.2791214 -0.98392725 0.41971985
1.2792431 -0.9838804 0.41978008
1.279345 -0.98372477 0.41990238
1.2794565 -0.98362333 0.4199937
1.2795789 -0.98358202 0.42005068
1.2796807 -0.98342967 0.4201709
1.279803 -0.98338926 0.42022732
1.279915 -0.98329377 0.42031509
1.2800368 -0.98325223 0.4203721
1.2801588 -0.9832114 0.42042872
1.2802702 -0.98311508 0.42051682
1.2803921 -0.98307514 0.42057288
1.2805145 -0.98303819 0.42062721
1.2806261 -0.98294497 0.42071345
1.2807484 -0.98290783 0.42076784
1.280871 -0.9828738 0.42082044
1.2809838 -0.98278844 0.42090219
1.2811071 -0.98275805 0.42095268
1.2812408 -0.98278123 0.42097282
1.2813646 -0.98275328 0.42102191
1.2814883 -0.98272604 0.42107064
1.2816122 -0.9826991 0.42111912
1.2817461 -0.98272312 0.42113879
1.2818688 -0.98269069 0.42119041
1.2819909 -0.98265529 0.4212437
1.2821242 -0.98267591 0.4212653
1.2822354 -0.98258758 0.42134845
1.2823694 -0.98261172 0.42136806
1.2824919 -0.98257983 0.42141932
1.2826262 -0.98260427 0.42143878
1.2827595 -0.98262537 0.42146015
1.282881 -0.98258829 0.42151427
1.2829909 -0.98249638 0.4215993
1.2831122 -0.98245895 0.4216536
1.2832323 -0.98241681 0.42171058
1.2833407 -0.98231959 0.42179847
1.283437 -0.98216605 0.42191803
1.2835572 -0.98212606 0.42197365
1.2836772 -0.98208511 0.42202979
1.2837975 -0.98204613 0.42208484
1.2839054 -0.98194993 0.42217201
1.2840255 -0.9819113 0.42222676
1.2841456 -0.98187208 0.42228189
1.2842653 -0.98183215 0.42233735
1.2843723 -0.98173463 0.42242509
1.28448 -0.9816404 0.42251098
1.2845993 -0.98159945 0.42256692
1.2847062 -0.98150367 0.42265362
1.2848256 -0.98146379 0.42270893
1.5229453 -1.9154294 -0.092247665
1.2535372 -0.84135652 0.5011009
1.2535349 -0.84136361 0.50109595
1.2535352 -0.84136277 0.50109649
1.2535354 -0.84136206 0.50109708
1.2535356 -0.84136117 0.50109768
1.2535359 -0.84136033 0.50109828
1.2535361 -0.8413595 0.50109881
1.2535363 -0.84135866 0.50109941
1.2535366 -0.84135789 0.50109994
1.2535369 -0.84135699 0.50110054
1.2535372 -0.8413561 0.5011012
1.2535374 -0.8413552 0.50110185
1.2535377 -0.84135419 0.50110257
1.253538 -0.84135318 0.50110322
1.2535383 -0.84135234 0.50110382
1.2535386 -0.84135121 0.50110459
1.2535388 -0.84135026 0.50110519
1.253539 -0.84134966 0.50110567
1.2535391 -0.84134954 0.50110573
1.2535391 -0.84134948 0.50110573
1.2535391 -0.84134936 0.50110579
1.2535391 -0.8413493 0.50110584
1.2535391 -0.84134918 0.5011059
1.2535391 -0.84134912 0.50110596
1.2535391 -0.84134907 0.50110602
1.2535391 -0.84134895 0.50110608
1.2535391 -0.84134889 0.50110614
1.2535391 -0.84134883 0.5011062
1.2535391 -0.84134877 0.5011062
1.2535391 -0.84134865 0.50110626
1.2535391 -0.84134865 0.50110626
1.2535391 -0.84134865 0.50110626
1.2535391 -0.84134865 0.50110626
1.253539 -0.84134859 0.50110626
1.253539 -0.84134865 0.50110626
1.253539 -0.84134853 0.50110632
1.253539 -0.84134853 0.50110632
1.253539 -0.84134841 0.50110638
1.253539 -0.84134841 0.50110638
1.253539 -0.84134835 0.50110638
1.253539 -0.84134823 0.5011065
1.253539 -0.84134823 0.5011065
1.253539 -0.84134817 0.5011065
1.253539 -0.84134817 0.50110656
1.253539 -0.84134811 0.50110656
1.253539 -0.84134799 0.50110662
1.253539 -0.84134799 0.50110662
1.253539 -0.84134793 0.50110668
1.253539 -0.84134793 0.50110668
1.2535388 -0.84134793 0.50110668
1.2535388 -0.84134787 0.50110674
1.2535388 -0.84134787 0.50110668
1.2535388 -0.84134787 0.50110674
1.2535388 -0.84134775 0.50110674
1.2535388 -0.84134775 0.5011068
1.2535388 -0.84134769 0.5011068
1.2535388 -0.84134769 0.50110686
1.2535388 -0.84134763 0.50110686
1.2535388 -0.84134752 0.50110692
1.2535388 -0.84134752 0.50110692
1.2535388 -0.84134746 0.50110698
1.2535388 -0.8413474 0.50110698
1.2535388 -0.84134734 0.50110704
1.2535388 -0.84134716 0.50110716
1.2535388 -0.84134716 0.5011071
1.2535388 -0.8413471 0.50110722
1.2535388 -0.84134704 0.50110722
1.2535387 -0.8413471 0.50110722
1.2535387 -0.84134698 0.50110722
1.2535387 -0.84134698 0.50110722
1.2535387 -0.84134692 0.50110728
1.2535387 -0.84134686 0.50110734
1.2535387 -0.84134686 0.50110734
1.2535387 -0.8413468 0.50110734
1.2535387 -0.84134668 0.50110739
1.2535387 -0.84134668 0.50110745
1.2535386 -0.84134686 0.50110728
1.2535386 -0.84134686 0.50110728
1.2535386 -0.84134674 0.50110734
1.2535386 -0.84134674 0.50110734
1.2535386 -0.84134674 0.50110734
1.2535385 -0.84134674 0.50110734
1.2535385 -0.8413468 0.50110728
1.2535385 -0.8413468 0.50110728
1.2535385 -0.84134662 0.50110739
1.2535385 -0.8413465 0.50110745
1.2535385 -0.84134644 0.50110751
1.2535385 -0.84134638 0.50110751
1.2535385 -0.84134638 0.50110757
1.2535385 -0.84134632 0.50110757
1.2535385 -0.84134632 0.50110757
1.2535384 -0.84134632 0.50110757
1.2535384 -0.84134632 0.50110757
1.2535384 -0.84134632 0.50110757
1.2535384 -0.84134638 0.50110751
1.2535384 -0.84134632 0.50110751
1.2535383 -0.84134644 0.50110745
1.2535383 -0.84134644 0.50110745
1.2535383 -0.84134638 0.50110745
1.2535383 -0.8413462 0.50110757
1.2535383 -0.84134597 0.50110775
1.2535384 -0.84134579 0.50110781
1.2535425 -0.84132713 0.50112045
1.2535424 -0.84132737 0.50112033
1.2535424 -0.84132749 0.50112021
1.2535423 -0.84132755 0.50112015
1.2535423 -0.84132767 0.50112009
1.2535423 -0.84132767 0.50112009
1.2535422 -0.84132773 0.50111997
1.2535422 -0.84132761 0.50112009
1.2535422 -0.84132755 0.50112009
1.2535422 -0.84132713 0.50112039
1.2535423 -0.84132653 0.50112075
1.2535424 -0.841326 0.5011211
1.2535425 -0.84132516 0.50112164
1.2535427 -0.84132445 0.50112212
1.2535428 -0.84132361 0.50112265
1.2535429 -0.8413226 0.50112331
1.2535431 -0.84132153 0.50112402
1.2535435 -0.84131998 0.5011251
1.2535436 -0.84131914 0.50112563
1.2535439 -0.84131771 0.50112659
1.253544 -0.8413167 0.50112724
1.2535442 -0.84131515 0.50112832
1.2535446 -0.84131366 0.50112927
1.2535448 -0.84131181 0.50113046
1.2264075 -0.97236109 0.41328022
1.2265065 -0.97245121 0.41325012
1.2266157 -0.97249287 0.4132525
1.2267153 -0.97258073 0.41322398
1.2268158 -0.97266608 0.41319716
1.226898 -0.97284245 0.41310948
1.2270072 -0.97288632 0.41311052
1.2271166 -0.9729293 0.41311222
1.2272261 -0.97297192 0.41311413
1.2273362 -0.97301298 0.41311711
1.2274462 -0.97305447 0.41311985
1.2275568 -0.97309321 0.41312444
1.227677 -0.97308367 0.41316128
1.227788 -0.97312045 0.41316718
1.2278994 -0.97315627 0.41317376
1.228011 -0.97319102 0.41318107
1.2281232 -0.97322315 0.41319016
1.2282355 -0.97325498 0.41319945
1.228348 -0.97328603 0.41320926
1.2284524 -0.97336048 0.41319022
1.2285745 -0.97334194 0.41323307
1.2286878 -0.97337019 0.41324478
1.228801 -0.97339869 0.41325641
1.228914 -0.97342843 0.41326717
1.2290273 -0.97345787 0.41327816
1.2291492 -0.97343969 0.41332078
1.2292626 -0.97346878 0.41333205
1.2293761 -0.97349727 0.41334367
1.2294896 -0.97352594 0.41335523
1.2296034 -0.97355342 0.4133676
1.2297258 -0.97353292 0.4134118
1.2298396 -0.97356111 0.41342366
1.2299534 -0.97358888 0.41343585
1.2300671 -0.97361737 0.41344756
1.2301815 -0.97364366 0.41346079
1.230304 -0.97362268 0.41350529
1.2304181 -0.97364986 0.41351789
1.2305324 -0.97367638 0.41353101
1.2306467 -0.97370267 0.41354424
1.2307695 -0.97368068 0.41358939
1.2308762 -0.97375208 0.41357282
1.2309906 -0.97377902 0.41358569
1.2311053 -0.97380525 0.41359901
1.23122 -0.97383112 0.4136126
1.2313428 -0.97380936 0.41365761
1.2314572 -0.97383708 0.41367
1.2315718 -0.9738642 0.41368282
1.2316866 -0.97389084 0.41369593
1.2318016 -0.97391576 0.41371018
1.2319243 -0.97389466 0.41375476
1.2320391 -0.9739219 0.41376752
1.2321539 -0.97394943 0.41378009
1.2322686 -0.97397763 0.41379228
1.2323835 -0.97400492 0.41380501
1.232506 -0.97398496 0.41384891
1.2326212 -0.9740113 0.41386229
1.2327363 -0.97403777 0.41387561
1.2328516 -0.97406358 0.41388941
1.2329744 -0.9740417 0.4139345
1.2330896 -0.97406906 0.41394728
1.2332047 -0.97409642 0.41396004
1.2333132 -0.97416848 0.41394353
1.2334286 -0.9741956 0.41395652
1.2335514 -0.97417361 0.41400173
1.233667 -0.97419983 0.41401529
1.2337828 -0.97422558 0.41402921
1.2338984 -0.97425157 0.41404298
1.2340212 -0.97422981 0.41408801
1.2341367 -0.97425783 0.4141005
1.2342523 -0.97428542 0.41411322
1.234368 -0.9743132 0.41412589
1.2344838 -0.97433966 0.41413942
1.2346066 -0.97431815 0.41418427
1.2347226 -0.97434402 0.41419822
1.2348387 -0.9743697 0.41421226
1.2349548 -0.97439581 0.41422606
1.2350773 -0.97437662 0.41426942
1.235193 -0.97440571 0.41428128
1.235309 -0.97443318 0.41429421
1.2354252 -0.97445935 0.41430801
1.2355416 -0.97448474 0.41432229
1.2356645 -0.97446251 0.41436765
1.2357807 -0.97448993 0.41438067
1.2358969 -0.97451735 0.41439372
1.2360131 -0.97454607 0.41440585
1.2361234 -0.97461891 0.4143894
1.2362401 -0.97464514 0.41440323
1.2363629 -0.9746235 0.4144482
1.2364799 -0.97464794 0.41446325
1.2365968 -0.9746725 0.41447818
1.2367195 -0.9746511 0.41452301
1.236836 -0.97467983 0.41453528
1.2369525 -0.97470826 0.41454777
1.2370694 -0.97473556 0.414561
1.2371864 -0.97476029 0.4145759
1.2373091 -0.97473979 0.41462016
1.237426 -0.97476679 0.4146336
1.2375429 -0.97479475 0.41464645
1.2376598 -0.9748224 0.41465953
1.2377824 -0.97480309 0.41470298
1.2378993 -0.9748317 0.41471544
1.2380164 -0.97485924 0.41472861
1.2381337 -0.9748854 0.41474265
1.2382511 -0.97491026 0.41475758
1.2383739 -0.97488904 0.41480231
1.2384912 -0.97491598 0.4148159
1.2386085 -0.974944 0.41482878
1.2387259 -0.97497112 0.41484228
1.2388486 -0.97495013 0.41488683
1.2389662 -0.97497576 0.41490132
1.2390838 -0.97500265 0.414915
1.2392013 -0.97502971 0.41492862
1.2393142 -0.97510219 0.41491294
1.2394369 -0.97508228 0.41495681
1.2395544 -0.97511053 0.41496965
1.2396722 -0.97513789 0.41498309
1.2397901 -0.97516423 0.41499722
1.2399082 -0.97518885 0.41501242
1.2400311 -0.97516727 0.41505742
1.2401491 -0.97519326 0.41507179
1.2402673 -0.97522008 0.41508567
1.2403898 -0.97520107 0.41512895
1.2405077 -0.97522944 0.41514182
1.2406259 -0.97525722 0.41515508
1.2407441 -0.97528279 0.41516978
1.240867 -0.97526145 0.41521457
1.2409853 -0.97528768 0.41522887
1.2411036 -0.97531474 0.41524261
1.2412219 -0.97534251 0.41525599
1.2413445 -0.9753238 0.41529912
1.2414627 -0.97535288 0.4153116
1.2415812 -0.97538024 0.41532522
1.2416998 -0.97540581 0.41534001
1.2258484 -1.1581995 0.29846856
1.2261155 -1.1584176 0.29840279
1.2263848 -1.1586145 0.29835063
1.2421787 -0.97546482 0.41542694
1.2422973 -0.97549397 0.41543946
1.242416 -0.97552156 0.41545302
1.2425349 -0.97554827 0.4154672
1.2426577 -0.97552776 0.41551146
1.2278973 -1.1611781 0.29715833
1.2428956 -0.97558105 0.41553986
1.2430184 -0.97556061 0.41558409
1.2431338 -0.97563493 0.41556793
1.2432529 -0.97566277 0.41558146
1.2433721 -0.97568947 0.41559565
1.2434915 -0.97571462 0.41561091
1.2436144 -0.97569263 0.41565612
1.2437338 -0.9757185 0.4156709
1.2438531 -0.97574615 0.41568458
1.2439725 -0.97577369 0.41569835
1.2440952 -0.97575486 0.41574156
1.2442147 -0.97578323 0.4157548
1.2443341 -0.97581083 0.41576856
1.2444538 -0.97583711 0.41578314
1.2445767 -0.97581571 0.41582802
1.2446964 -0.975842 0.41584259
1.2448161 -0.97586828 0.41585723
1.2449389 -0.97584826 0.41590124
1.2450587 -0.97587633 0.41591471
1.2451785 -0.97590375 0.41592866
1.2452984 -0.97592926 0.41594383
1.2454184 -0.97595537 0.41595861
1.2455412 -0.97593403 0.41600341
1.2456613 -0.97596097 0.41601771
1.2457813 -0.97598839 0.41603172
1.2459013 -0.97601569 0.41604578
1.2460216 -0.97604203 0.41606051
1.2461418 -0.9760685 0.41607514
1.2462622 -0.97609431 0.41609019
1.2463826 -0.97612017 0.41610524
1.2465054 -0.9761005 0.41614899
1.2466258 -0.97612703 0.41616368
1.2467462 -0.97615474 0.41617757
1.2468667 -0.97618103 0.41619241
1.2469873 -0.97620618 0.41620794
1.2471081 -0.97623032 0.41622412
1.2382847 -1.167637 0.29584828
1.238556 -1.1681527 0.29559994
1.2387149 -1.1711893 0.29376724
1.2389535 -1.1725466 0.29299113
1.2392216 -1.1732723 0.29261249
1.2395023 -1.173731 0.29240173
1.2397841 -1.174185 0.29219407
1.2400538 -1.1749578 0.29178679
1.2403371 -1.1754205 0.29157427
1.2406181 -1.1759685 0.29130846
1.2484419 -0.97642827 0.41644555
1.2485666 -0.97635812 0.41652092
1.2486879 -0.97638285 0.4165369
1.2488109 -0.97635859 0.41658354
1.2489321 -0.97638381 0.41659921
1.2490534 -0.97641015 0.41661417
1.2491761 -0.97638804 0.41665944
1.2492975 -0.97641641 0.41667318
1.2494187 -0.97644442 0.41668713
1.2495402 -0.97647154 0.41670167
1.2496617 -0.97649777 0.41671675
1.2497845 -0.97647595 0.4167619
1.2499061 -0.97650278 0.4167766
1.2500277 -0.97652912 0.41679171
1.2501504 -0.97650707 0.41683692
1.250272 -0.9765355 0.41685069
1.2503937 -0.97656322 0.41686496
1.2505155 -0.97658896 0.41688043
1.2506373 -0.97661418 0.41689625
1.2507602 -0.97659236 0.41694134
1.250882 -0.97661918 0.41695616
1.251004 -0.97664654 0.4169707
1.2511259 -0.97667348 0.41698545
1.2512487 -0.97665256 0.41703001
1.2513708 -0.97667879 0.41704527
1.251493 -0.976704 0.41706115
1.2516158 -0.97668082 0.41710711
1.251738 -0.97670817 0.41712168
1.2518601 -0.97673607 0.41713595
1.2519823 -0.97676373 0.41715038
1.2521046 -0.97679025 0.41716552
1.2522275 -0.97676826 0.4172107
1.2523499 -0.97679424 0.41722617
1.2524723 -0.97682059 0.41724148
1.2525951 -0.97679806 0.41728699
1.2527176 -0.97682446 0.41730225
1.2528402 -0.97685128 0.41731727
1.2529627 -0.97687888 0.41733181
1.2530855 -0.97685719 0.41737682
1.2532082 -0.9768852 0.41739115
1.2533309 -0.97691095 0.41740683
1.2534537 -0.97693628 0.41742283
1.2535765 -0.97691429 0.41746804
1.2536993 -0.97694111 0.41748312
1.2538222 -0.97696912 0.41749746
1.2539451 -0.97699749 0.41751161
1.2540681 -0.97702551 0.41752601
1.2541909 -0.97700244 0.41757187
1.2543139 -0.97702861 0.41758746
1.2544371 -0.97705424 0.41760334
1.2545599 -0.97703224 0.41764849
1.254683 -0.97706079 0.41766259
1.2548063 -0.97708863 0.41767719
1.2549295 -0.97711515 0.41769257
1.2550528 -0.97714019 0.41770887
1.2551757 -0.97711807 0.41775414
1.2552991 -0.97714436 0.4177697
1.2554225 -0.97717083 0.41778517
1.2555453 -0.97714883 0.41783035
1.2556688 -0.97717732 0.41784459
1.2557924 -0.9772048 0.41785946
1.255916 -0.97723162 0.41787475
1.2560387 -0.97720838 0.41792071
1.2561624 -0.97723532 0.41793594
1.2562861 -0.97726196 0.41795138
1.2564099 -0.97728896 0.4179666
1.2565327 -0.97726655 0.41801205
1.2566565 -0.97729403 0.41802695
1.2567804 -0.97731966 0.41804308
1.2569032 -0.97729623 0.41808912
1.257027 -0.97732347 0.41810423
1.2571511 -0.97735131 0.41811901
1.2572752 -0.97737843 0.41813421
1.2573993 -0.97740537 0.41814956
1.2575221 -0.97738409 0.41819432
1.2576463 -0.97741205 0.41820908
1.2577705 -0.97743911 0.41822436
1.2578949 -0.97746503 0.4182404
1.2580175 -0.97744292 0.41828561
1.2581419 -0.97746927 0.4183014
1.2582663 -0.97749561 0.4183172
1.258389 -0.97747242 0.41836306
1.2585136 -0.97750098 0.41837755
1.2586381 -0.97752821 0.41839284
1.2587627 -0.97755468 0.41840857
1.2588853 -0.97753066 0.41845497
1.25901 -0.97755778 0.41847035
1.2591347 -0.9775849 0.4184857
1.2592614 -0.97765797 0.41847327
1.2593842 -0.97763622 0.4185183
1.2595091 -0.97766441 0.41853309
1.259634 -0.97769213 0.41854817
1.2597589 -0.97771788 0.41856444
1.2598839 -0.97774458 0.41858017
1.2600067 -0.97772205 0.41862571
1.2601318 -0.97775 0.41864067
1.2602569 -0.97777671 0.41865641
1.2603822 -0.97780406 0.41867179
1.260505 -0.97778249 0.4187167
1.2606301 -0.97780937 0.41873237
1.2607554 -0.9778347 0.41874903
1.260878 -0.97781068 0.41879541
1.2610034 -0.97783744 0.4188112
1.2630404 -1.0122136 0.39812472
1.2612543 -0.97789145 0.41884249
1.2613744 -0.97782338 0.41891539
1.2614999 -0.97785091 0.41893077
1.2616254 -0.9778766 0.41894722
1.2617509 -0.977902 0.41896388
1.2618735 -0.97787899 0.41900966
1.2619992 -0.97790587 0.41902542
1.2621249 -0.97793227 0.41904151
1.2622508 -0.97796023 0.41905668
1.2623734 -0.97793913 0.4191013
1.2624993 -0.97796619 0.41911703
1.2626251 -0.97799218 0.41913337
1.2627476 -0.97796863 0.41917947
1.2628736 -0.97799557 0.41919529
1.2629997 -0.97802162 0.41921166
1.2631222 -0.97799909 0.41925713
1.2632483 -0.97802746 0.41927212
1.2633746 -0.97805548 0.41928735
1.2635007 -0.97808182 0.4193036
1.2636269 -0.97810805 0.41931993
1.2637495 -0.97808492 0.41936573
1.2638757 -0.97811139 0.41938192
1.2640021 -0.97813797 0.41939801
1.2641286 -0.97816634 0.41941315
1.2642512 -0.97814399 0.41945851
1.2643777 -0.97817099 0.41947439
1.2645041 -0.9781962 0.41949138
1.2646306 -0.97822249 0.41950777
1.2647531 -0.9781999 0.41955328
1.2650065 -0.97825515 0.41958445
1.2651334 -0.97828287 0.41960001
1.2652602 -0.97830957 0.41961619
1.2653828 -0.9782865 0.41966197
1.2655095 -0.9783119 0.41967896
1.2656319 -0.97828835 0.419725
1.2657589 -0.97831547 0.41974097
1.2658858 -0.97834229 0.41975713
1.266013 -0.97837055 0.41977245
1.2694366 -1.0142263 0.39853013
1.2662628 -0.97837591 0.41983345
1.2663897 -0.97840166 0.41985032
1.2665122 -0.97837752 0.41989669
1.2666394 -0.97840452 0.41991282
1.2667665 -0.97843111 0.41992915
1.2668939 -0.97845793 0.41994542
1.2670165 -0.97843623 0.41999036
1.267144 -0.97846407 0.42000604
1.2672714 -0.97849071 0.42002243
1.2673987 -0.97851604 0.42003956
1.2675211 -0.97849292 0.42008537
1.2676488 -0.97852051 0.42010123
1.2677764 -0.97854722 0.42011762
1.2678988 -0.97852409 0.42016339
1.2680266 -0.97855228 0.42017892
1.2681544 -0.97857976 0.42019486
1.2682821 -0.97860539 0.42021191
1.2684044 -0.97858161 0.4202581
1.2685323 -0.97860932 0.42027393
1.2686603 -0.97863674 0.42028999
1.2687882 -0.97866374 0.4203063
1.2689106 -0.97864091 0.42035189
1.2690388 -0.97866833 0.42036799
1.2691668 -0.97869503 0.42038447
1.2692946 -0.97871947 0.42040235
1.269417 -0.97869682 0.42044786
1.2695453 -0.97872394 0.42046413
1.2696736 -0.97875094 0.42048049
1.2697959 -0.97872806 0.42052615
1.2699244 -0.97875679 0.42054152
1.2700528 -0.97878408 0.42055774
1.2701812 -0.97881019 0.42057467
1.2703034 -0.97878605 0.42062104
1.2704319 -0.97881281 0.42063758
1.2705604 -0.9788394 0.4206543
1.2706826 -0.97881526 0.42070067
1.2708112 -0.97884315 0.42071664
1.2709401 -0.97887164 0.42073223
1.2710689 -0.97889924 0.42074835
1.2740012 -1.0007577 0.40801629
1.2741506 -1.0007896 0.40803501
1.2742999 -1.00082 0.40805474
1.2744398 -1.0007796 0.40811568
1.2745806 -1.0007458 0.40817282
1.2747303 -1.0007794 0.40819067
1.2748617 -1.000676 0.40828824
1.2750102 -1.0007007 0.40831131
1.2751492 -1.0006547 0.40837547
1.2752976 -1.0006789 0.40839878
1.2724677 -0.9790473 0.42101729
1.2725961 -0.97906828 0.42103744
1.2727329 -0.97914863 0.42102301
1.271598 -0.97016221 0.42627561
1.2738453 -0.98524857 0.41754568
1.2739733 -0.98522723 0.41759187
1.2741089 -0.98525757 0.41760802
1.2742444 -0.98528767 0.41762435
1.2743795 -0.98531497 0.41764233
1.2744987 -0.98523211 0.4177241
1.2746336 -0.98525804 0.41774291
1.2747688 -0.98528439 0.41776145
1.2748958 -0.9852556 0.41781187
1.2750219 -0.98522216 0.41786504
1.2751569 -0.98524714 0.41788438
1.275283 -0.98521364 0.41793755
1.275409 -0.98517913 0.41799128
1.2755438 -0.98520303 0.41801125
1.2756703 -0.98517221 0.41806281
1.2758057 -0.98519993 0.4180806
1.2759328 -0.98517376 0.4181295
1.2760602 -0.98514944 0.41817728
1.2761953 -0.98517436 0.41819671
1.2763305 -0.98519993 0.41821578
1.2764477 -0.98511195 0.41830021
1.2765828 -0.98513687 0.41831967
1.2767097 -0.98510993 0.41836897
1.276845 -0.98513591 0.41838777
1.2769713 -0.98510599 0.41843879
1.2770975 -0.98507518 0.41849026
1.2772224 -0.98503762 0.4185456
1.277357 -0.98505914 0.41856703
1.2774734 -0.98497063 0.41865158
1.2775996 -0.98494112 0.4187023
1.2777255 -0.9849112 0.41875321
1.2778333 -0.98477423 0.41886547
1.2779499 -0.98469031 0.41894728
1.2780761 -0.98466319 0.41899651
1.2781926 -0.98458064 0.41907746
1.2783085 -0.98449445 0.41916049
1.278423 -0.98440129 0.41924745
1.2785456 -0.98435646 0.4193067
1.2786492 -0.98420268 0.41942826
1.278772 -0.98415983 0.41948634
1.2788843 -0.98405832 0.4195779
1.279007 -0.98401529 0.41963601
1.27911 -0.98386383 0.41975603
1.279232 -0.98381907 0.41981506
1.2793444 -0.98372161 0.41990417
1.2794571 -0.98362637 0.41999197
1.2795696 -0.98353171 0.42007935
1.2796922 -0.9834919 0.42013547
1.2798043 -0.98339641 0.42022324
1.2799271 -0.98335898 0.42027795
1.2800498 -0.98332143 0.42033276
1.2801727 -0.98328549 0.42038658
1.280285 -0.98319346 0.42047226
1.2804067 -0.98315215 0.4205291
1.2805176 -0.98305428 0.42061809
1.2806283 -0.98295677 0.42070675
1.2807499 -0.98291588 0.42076328
1.2808616 -0.98282474 0.42084828
1.2809842 -0.98279029 0.42090112
1.2811183 -0.98281533 0.42092022
1.2812417 -0.98278546 0.42097044
1.2813649 -0.98275536 0.42102072
1.2814871 -0.98271978 0.42107415
1.2815986 -0.98263067 0.42115784
1.2817209 -0.98259652 0.42121044
1.281832 -0.98250711 0.42129421
1.2819541 -0.9824726 0.42134693
1.2820878 -0.98249596 0.42136696
1.2822105 -0.98246479 0.42141777
1.2823445 -0.98248941 0.42143708
1.282467 -0.98245811 0.42148799
1.2826014 -0.98248434 0.4215064
1.2827346 -0.98250496 0.42152801
1.2828555 -0.98246539 0.42158356
1.282977 -0.9824295 0.42163697
1.2830985 -0.98239386 0.42169029
1.2832195 -0.98235571 0.42174494
1.2833281 -0.98225981 0.42183208
1.2834367 -0.98216474 0.42191875
1.2835573 -0.98212665 0.42197329
1.2836779 -0.98208892 0.42202768
1.2838101 -0.9821049 0.42205185
1.2839299 -0.98206401 0.42210793
1.2840381 -0.98196882 0.42219448
1.2841585 -0.98193145 0.4222486
1.2842785 -0.98189247 0.42230353
1.2843739 -0.98174125 0.4224214
1.2844942 -0.98170471 0.42247495
1.2846143 -0.9816674 0.42252889
1.2847338 -0.98162746 0.4225843
1.2848529 -0.98158598 0.42264059
1.2535372 -0.84135652 0.5011009
1.2535349 -0.84136367 0.50109589
1.2535352 -0.84136283 0.50109649
1.2535354 -0.84136206 0.50109702
1.2535356 -0.84136122 0.50109762
1.2535359 -0.84136039 0.50109816
1.2535361 -0.84135956 0.50109875
1.2535363 -0.84135872 0.50109935
1.2535366 -0.84135783 0.50109994
1.2535369 -0.84135693 0.5011006
1.2535372 -0.8413561 0.5011012
1.2535374 -0.8413552 0.50110179
1.2535377 -0.84135419 0.50110251
1.253538 -0.84135318 0.50110322
1.2535383 -0.84135228 0.50110382
1.2535385 -0.84135133 0.50110447
1.2535388 -0.84135026 0.50110519
1.253539 -0.84134966 0.50110561
1.253539 -0.8413496 0.50110567
1.2535391 -0.84134942 0.50110579
1.2535391 -0.8413493 0.50110584
1.2535391 -0.84134924 0.5011059
1.2535391 -0.84134912 0.50110596
1.2535391 -0.84134912 0.50110602
1.2535391 -0.84134912 0.50110602
1.2535391 -0.84134901 0.50110602
1.2535391 -0.84134895 0.50110608
1.2535391 -0.84134889 0.50110614
1.2535391 -0.84134877 0.5011062
1.2535391 -0.84134877 0.5011062
1.2535391 -0.84134865 0.50110626
1.2535391 -0.84134859 0.50110626
1.2535391 -0.84134853 0.50110632
1.2535391 -0.84134847 0.50110638
1.2535391 -0.84134847 0.50110638
1.2535391 -0.84134841 0.50110638
1.253539 -0.84134841 0.50110644
1.253539 -0.84134835 0.50110644
1.253539 -0.84134829 0.5011065
1.253539 -0.84134829 0.5011065
1.253539 -0.84134823 0.5011065
1.253539 -0.84134817 0.5011065
1.253539 -0.84134805 0.50110662
1.253539 -0.84134805 0.50110662
1.253539 -0.84134805 0.50110662
1.253539 -0.84134799 0.50110668
1.253539 -0.84134799 0.50110668
1.253539 -0.84134787 0.50110674
1.253539 -0.84134781 0.50110674
1.253539 -0.84134781 0.50110674
1.253539 -0.84134775 0.5011068
1.2535388 -0.84134775 0.5011068
1.2535388 -0.84134775 0.5011068
1.2535388 -0.84134769 0.5011068
1.2535388 -0.84134769 0.5011068
1.2535388 -0.84134763 0.50110686
1.2535388 -0.84134758 0.50110686
1.2535388 -0.84134752 0.50110692
1.2535388 -0.84134752 0.50110692
1.2535388 -0.8413474 0.50110698
1.2535388 -0.84134734 0.50110704
1.2535388 -0.84134728 0.5011071
1.2535388 -0.84134728 0.50110704
1.2535388 -0.84134716 0.5011071
1.2535388 -0.84134716 0.50110716
1.2535388 -0.84134704 0.50110722
1.2535388 -0.84134698 0.50110728
1.2535387 -0.84134704 0.50110722
1.2535387 -0.84134698 0.50110722
1.2535387 -0.84134692 0.50110728
1.2535387 -0.84134692 0.50110728
1.2535387 -0.84134686 0.50110734
1.2535387 -0.84134686 0.50110734
1.2535387 -0.84134674 0.50110739
1.2535387 -0.84134668 0.50110745
1.2535387 -0.84134668 0.50110745
1.2535387 -0.8413465 0.50110751
1.2535387 -0.8413465 0.50110751
1.2535387 -0.84134644 0.50110757
1.2535387 -0.84134632 0.50110757
1.2535386 -0.84134632 0.50110763
1.2535386 -0.8413465 0.50110751
1.2535386 -0.84134656 0.50110745
1.2535386 -0.84134644 0.50110751
1.2535385 -0.84134644 0.50110751
1.2535385 -0.84134638 0.50110757
1.2535385 -0.84134638 0.50110757
1.2535385 -0.84134638 0.50110757
1.2535385 -0.84134626 0.50110757
1.2535385 -0.84134626 0.50110757
1.2535385 -0.84134626 0.50110763
1.2535385 -0.84134626 0.50110757
1.2535384 -0.8413462 0.50110757
1.2535384 -0.84134632 0.50110751
1.2535384 -0.84134638 0.50110745
1.2535384 -0.84134638 0.50110751
1.2535384 -0.84134632 0.50110751
1.2535383 -0.84134632 0.50110751
1.2535383 -0.8413462 0.50110757
1.2535384 -0.84134603 0.50110769
1.2535384 -0.84134573 0.50110793
1.2535427 -0.84132671 0.50112081
1.2535427 -0.84132671 0.50112081
1.2535427 -0.84132683 0.50112069
1.2535425 -0.84132677 0.50112069
1.2535424 -0.84132713 0.50112045
1.2535424 -0.84132707 0.50112045
1.2535424 -0.84132707 0.50112045
1.2535424 -0.84132683 0.50112057
1.2535424 -0.84132683 0.50112057
1.2535423 -0.84132671 0.50112069
1.2535424 -0.84132624 0.50112098
1.2535425 -0.84132564 0.50112134
1.2535425 -0.8413251 0.5011217
1.2535425 -0.8413251 0.5011217
1.2535425 -0.84132475 0.50112194
1.2535428 -0.84132373 0.50112259
1.253543 -0.8413226 0.50112337
1.2535433 -0.84132123 0.50112426
1.2535435 -0.84131992 0.50112516
1.2535436 -0.84131896 0.50112575
1.2535439 -0.84131753 0.50112671
1.2535441 -0.8413164 0.50112748
1.2535443 -0.84131503 0.50112838
1.2535446 -0.8413136 0.50112927
1.2535447 -0.84131235 0.5011301
1.2264439 -0.97218567 0.41339779
1.2265438 -0.97227067 0.41337109
1.2266258 -0.97244346 0.41328558
1.2267164 -0.97257578 0.41322726
1.2267885 -0.9727999 0.41310757
1.2268964 -0.97284991 0.41310453
1.2270056 -0.97289407 0.41310534
1.2271156 -0.97293401 0.41310906
1.2272257 -0.9729746 0.41311234
1.2273356 -0.9730159 0.41311517
1.2274458 -0.9730562 0.41311872
1.2275567 -0.97309363 0.41312414
1.2276676 -0.97313106 0.41312963
1.227788 -0.97312069 0.41316703
1.2278992 -0.97315693 0.41317335
1.2280109 -0.97319192 0.4131805
1.2281228 -0.97322506 0.41318887
1.2282349 -0.9732582 0.41319728
1.2283475 -0.97328901 0.41320729
1.228452 -0.97336257 0.41318882
1.2285746 -0.97334105 0.41323367
1.2286879 -0.9733696 0.4132452
1.2288013 -0.97339749 0.41325721
1.2289146 -0.97342551 0.41326913
1.2290279 -0.97345459 0.41328031
1.2291499 -0.97343612 0.41332316
1.2292632 -0.97346538 0.41333431
1.2293769 -0.97349274 0.41334671
1.2294905 -0.97352052 0.41335881
1.2296131 -0.97349942 0.41340342
1.2297266 -0.97352898 0.41341436
1.22984 -0.97355843 0.41342545
1.2299536 -0.97358721 0.41343698
1.2300675 -0.97361571 0.41344869
1.2301815 -0.97364306 0.41346118
1.2303041 -0.97362161 0.41350597
1.2304183 -0.97364891 0.41351855
1.2305325 -0.97367543 0.4135316
1.2306467 -0.97370273 0.41354418
1.2307694 -0.97368181 0.41358867
1.2308761 -0.97375274 0.41357243
1.2309906 -0.97377956 0.41358534
1.2311052 -0.97380555 0.41359884
1.2312281 -0.97378314 0.41364428
1.2313426 -0.97381049 0.41365689
1.231457 -0.97383827 0.41366926
1.2315717 -0.97386551 0.41368192
1.2316865 -0.97389191 0.41369522
1.2318014 -0.97391766 0.41370893
1.2319241 -0.97389668 0.41375345
1.2320389 -0.97392339 0.41376656
1.2321539 -0.97394973 0.41377991
1.2322687 -0.97397709 0.41379264
1.2323914 -0.97395623 0.41383708
1.2325062 -0.97398436 0.41384929
1.2326211 -0.97401142 0.41386217
1.2327362 -0.9740386 0.41387507
1.2328514 -0.97406501 0.41388842
1.2329668 -0.9740907 0.41390231
1.2330893 -0.97407025 0.41394651
1.2332045 -0.97409809 0.41395897
1.2333128 -0.9741708 0.41394201
1.2334282 -0.97419816 0.41395485
1.233544 -0.97422308 0.41396928
1.2336669 -0.97420079 0.4140147
1.2337826 -0.9742257 0.41402912
1.2338985 -0.97425091 0.41404343
1.2340211 -0.97423077 0.41408738
1.2341366 -0.97425866 0.41409993
1.2342522 -0.97428644 0.41411257
1.2343678 -0.9743138 0.4141255
1.2344838 -0.97433972 0.41413933
1.2346065 -0.97431856 0.41418403
1.2347224 -0.9743458 0.41419706
1.2348384 -0.97437239 0.4142105
1.2349544 -0.97439927 0.41422379
1.2350768 -0.9743793 0.41426766
1.2351927 -0.97440791 0.41427985
1.2353086 -0.97443557 0.41429266
1.235425 -0.9744615 0.41430661
1.2355412 -0.97448754 0.41432047
1.2356641 -0.97446513 0.41436595
1.2357804 -0.97449273 0.41437888
1.2358966 -0.97452027 0.41439179
