# .PCD v0.7 - Point Cloud Data file format
VERSION 0.7
FIELDS x y z
SIZE 4 4 4
TYPE F F F
COUNT 1 1 1
WIDTH 1466
HEIGHT 1
VIEWPOINT 0 0 0 1 0 0 0
POINTS 1466
DATA ascii
1.2535433 -0.84132069 0.50112462
1.2535434 -0.8413198 0.50112522
1.2535437 -0.84131819 0.50112629
1.2535439 -0.84131718 0.50112695
1.2535441 -0.84131593 0.50112778
1.2535443 -0.84131455 0.50112867
1.2535447 -0.84131289 0.50112975
1.2264798 -0.97201228 0.41351402
1.2265798 -0.97209609 0.41348809
1.2266803 -0.97217822 0.41346326
1.2267807 -0.97226131 0.41343787
1.2268631 -0.97243339 0.41335294
1.2269546 -0.97256273 0.41329667
1.2270647 -0.97260094 0.41330147
1.2271657 -0.97268456 0.4132759
1.2272494 -0.97285575 0.4131918
1.2273591 -0.97289789 0.41319403
1.2274684 -0.97294211 0.41319495
1.2275776 -0.97298789 0.41319478
1.2276874 -0.97303075 0.41319662
1.2277983 -0.97306782 0.41320232
1.2279092 -0.97310591 0.41320741
1.2280211 -0.97313881 0.41321591
1.2281328 -0.97317314 0.41322348
1.2282455 -0.97320312 0.413234
1.2283581 -0.9732334 0.41324434
1.2284721 -0.97325683 0.41325927
1.2285852 -0.97328508 0.41327095
1.2286983 -0.97331393 0.41328228
1.2288114 -0.97334337 0.41329321
1.2289329 -0.97332716 0.41333452
1.2290454 -0.97336012 0.41334316
1.229158 -0.97339201 0.41335249
1.2292705 -0.97342592 0.41336048
1.2293829 -0.97345996 0.41336849
1.2295046 -0.97344333 0.41341007
1.2296172 -0.97347659 0.41341859
1.2297302 -0.9735083 0.4134281
1.2298434 -0.97353989 0.41343775
1.2299566 -0.973571 0.41344768
1.2300782 -0.97355509 0.41348886
1.2301916 -0.97358572 0.41349915
1.2303052 -0.97361571 0.41350991
1.2304187 -0.97364634 0.41352022
1.2305322 -0.97367769 0.41353011
1.2306542 -0.97365981 0.41357255
1.2307606 -0.97373235 0.4135552
1.2308749 -0.97376001 0.41356757
1.230989 -0.9737891 0.41357902
1.2311033 -0.97381699 0.41359127
1.2312258 -0.97379661 0.4136354
1.2313403 -0.97382438 0.41364774
1.2314544 -0.97385395 0.41365886
1.2315687 -0.97388303 0.41367039
1.2316833 -0.97391099 0.41368261
1.2318056 -0.97389221 0.4137257
1.2319201 -0.9739207 0.4137376
1.2320348 -0.97394824 0.41375017
1.2321496 -0.97397619 0.41376248
1.2322718 -0.97395766 0.41380543
1.2323867 -0.97398531 0.41381791
1.2325016 -0.97401226 0.41383091
1.2326167 -0.97404003 0.41384339
1.2327316 -0.97406787 0.41385582
1.2328541 -0.97404772 0.41389981
1.2329692 -0.97407585 0.41391206
1.2330842 -0.97410393 0.4139244
1.2331994 -0.97413194 0.41393673
1.2333078 -0.97420347 0.41392058
1.2334307 -0.97418177 0.41396558
1.2335461 -0.97420895 0.41397852
1.2336618 -0.97423518 0.41399214
1.2337774 -0.9742614 0.41400573
1.2339004 -0.9742384 0.41405162
1.2340158 -0.97426635 0.41406411
1.2341316 -0.97429323 0.41407731
1.2342474 -0.9743194 0.41409102
1.2343634 -0.97434485 0.41410518
1.2344861 -0.97432357 0.41414991
1.234602 -0.97435033 0.41416323
1.2347178 -0.97437739 0.4141764
1.2348408 -0.97435516 0.41422176
1.2349565 -0.97438329 0.41423422
1.2350724 -0.97441185 0.41424644
1.2351884 -0.97443926 0.41425937
1.2353044 -0.97446656 0.4142724
1.2354207 -0.97449279 0.41428617
1.2355436 -0.97446978 0.41433203
1.23566 -0.9744963 0.41434565
1.2357763 -0.97452313 0.41435903
1.2358924 -0.9745515 0.41437146
1.2360088 -0.97457874 0.4143846
1.2361258 -0.97460097 0.41440105
1.2362425 -0.97462618 0.4144156
1.2363594 -0.97465146 0.41443005
1.2364759 -0.97467804 0.4144437
1.2365986 -0.97465765 0.41448787
1.2367152 -0.97468519 0.41450089
1.2368318 -0.97471309 0.41451368
1.2369487 -0.97473919 0.41452768
1.2370718 -0.97471547 0.41457403
1.2371887 -0.97474194 0.4145878
1.2373056 -0.97476828 0.41460165
1.2374227 -0.97479433 0.41461578
1.2375454 -0.97477365 0.4146601
1.2376623 -0.97480154 0.41467303
1.2377793 -0.97482973 0.41468573
1.2378963 -0.97485685 0.41469914
1.2380136 -0.97488219 0.41471374
1.2381365 -0.97485989 0.41475916
1.238254 -0.97488594 0.41477332
1.2383713 -0.9749127 0.41478699
1.238494 -0.97489041 0.41483238
1.2386111 -0.97492015 0.41484416
1.2387285 -0.97494721 0.41485772
1.2388459 -0.97497392 0.41487148
1.2389637 -0.97499907 0.4148863
1.2390866 -0.97497654 0.41493183
1.2392042 -0.97500342 0.41494554
1.2393171 -0.97507507 0.41493037
1.2394347 -0.97510219 0.41494396
1.2395524 -0.97512984 0.41495723
1.2396753 -0.97510862 0.41500196
1.2397931 -0.97513521 0.41501588
1.2399112 -0.97516024 0.41503084
1.2400292 -0.97518569 0.41504556
1.2401521 -0.97516394 0.41509065
1.24027 -0.97519195 0.41510373
1.2403879 -0.97521991 0.41511688
1.2405061 -0.97524744 0.41513026
1.2406242 -0.97527415 0.41514421
1.2407471 -0.97525233 0.41518933
1.2408653 -0.97527921 0.41520321
1.2409837 -0.97530448 0.41521806
1.2411066 -0.97528219 0.41526347
1.2412248 -0.97531068 0.41527638
1.241343 -0.97533941 0.4152891
1.2414615 -0.97536653 0.41530287
1.2415801 -0.97539192 0.41531774
1.241703 -0.97536886 0.41536367
1.2240866 -1.1783619 0.28557411
1.224342 -1.1789265 0.28529146
1.2246271 -1.1791534 0.28522488
1.2249368 -1.1790963 0.28533983
1.2255094 -1.1795441 0.28521103
1.225772 -1.1800641 0.28495783
1.2260616 -1.1802621 0.28491023
1.2263755 -1.1801636 0.28505179
1.2266663 -1.1803523 0.28501025
1.2269328 -1.1808567 0.28476772
1.2272464 -1.1807643 0.28490546
1.2275391 -1.1809443 0.28486976
1.2278317 -1.181128 0.28483179
1.2281469 -1.1810149 0.2849828
1.2284169 -1.1815113 0.28474605
1.2287108 -1.1816941 0.28470889
1.229026 -1.1815844 0.28485775
1.2293202 -1.1817672 0.28482077
1.2298865 -1.182467 0.28453481
1.230201 -1.1823716 0.28467464
1.2304956 -1.182572 0.2846269
1.2307906 -1.1827691 0.28458127
1.2310661 -1.183268 0.28434443
1.231362 -1.1834691 0.28429651
1.2316372 -1.1839972 0.28404152
1.2319528 -1.183902 0.28418157
1.2322503 -1.1840928 0.28414047
1.232549 -1.1842729 0.28410622
1.2328478 -1.1844541 0.28407139
1.233165 -1.1843314 0.28422877
1.2456642 -0.97590947 0.41605026
1.2457842 -0.97593784 0.41606364
1.2459042 -0.97596538 0.41607755
1.2460245 -0.97599065 0.41609293
1.2461447 -0.97601658 0.41610789
1.235446 -1.1822304 0.28611267
1.2357641 -1.1820357 0.2863147
1.2360648 -1.1821768 0.2863051
1.236364 -1.182353 0.28627342
1.2366338 -1.1831309 0.28586292
1.2369181 -1.183638 0.28562325
1.2372051 -1.184105 0.28540903
1.2375088 -1.1842377 0.28540534
1.2378262 -1.1840751 0.28558737
1.2381291 -1.1842283 0.28557092
1.2384318 -1.184395 0.285546
1.2387341 -1.1845784 0.28551069
1.2390215 -1.1851208 0.28525001
1.2479619 -0.97622418 0.41644782
1.2481999 -0.976372 0.4164179
1.2483227 -0.9763518 0.416462
1.2484456 -0.97632998 0.41650712
1.2485667 -0.9763549 0.41652295
1.2486898 -0.97633034 0.41656977
1.2488109 -0.97635615 0.41658509
1.2489321 -0.97638196 0.41660035
1.249055 -0.97636026 0.41664538
1.2491761 -0.97638863 0.41665909
1.2492974 -0.97641724 0.41667268
1.2494187 -0.97644484 0.41668689
1.2495416 -0.97642142 0.416733
1.2496631 -0.97644788 0.41674793
1.2497846 -0.97647363 0.41676334
1.2499061 -0.97650063 0.41677797
1.250029 -0.97647852 0.41682324
1.2501504 -0.9765079 0.41683638
1.250272 -0.97653621 0.41685027
1.2503937 -0.97656262 0.41686532
1.2505167 -0.97653788 0.41691226
1.2506384 -0.97656417 0.4169274
1.2507602 -0.97659028 0.41694263
1.2508831 -0.97656703 0.41698861
1.2510049 -0.97659445 0.41700307
1.2511269 -0.97662342 0.4170166
1.2512488 -0.97665167 0.41703057
1.2513708 -0.97667748 0.41704607
1.2514937 -0.97665346 0.41709256
1.2516158 -0.97668004 0.41710761
1.251738 -0.97670609 0.41712296
1.2518607 -0.97668368 0.41716844
1.2519829 -0.97671294 0.41718185
1.2521051 -0.97674119 0.41719589
1.2522275 -0.97676772 0.41721103
1.2523499 -0.97679198 0.41722763
1.2524726 -0.97676986 0.41727287
1.2525952 -0.97679651 0.41728795
1.2527176 -0.97682339 0.41730291
1.2528404 -0.97680211 0.41734767
1.2529629 -0.97683114 0.41736129
1.2530855 -0.97685862 0.41737595
1.2532082 -0.97688466 0.41739148
1.2533309 -0.97691053 0.4174071
1.2534537 -0.97688782 0.41745272
1.2535765 -0.976915 0.41746756
1.2536993 -0.97694248 0.41748226
1.2538222 -0.97697139 0.41749609
1.253945 -0.97694975 0.41754106
1.2540679 -0.97697699 0.41755593
1.2541909 -0.9770022 0.41757202
1.2543139 -0.97702754 0.41758808
1.2544367 -0.97700435 0.41763401
1.2545599 -0.97703111 0.41764921
1.254683 -0.97705823 0.4176642
1.2548058 -0.97703671 0.41770908
1.2549291 -0.97706491 0.41772345
1.2550523 -0.97709191 0.41773853
1.2551756 -0.9771173 0.41775462
1.2552984 -0.97709394 0.41780064
1.2554218 -0.97712153 0.41781542
1.2555453 -0.97714841 0.41783059
1.2556688 -0.97717756 0.41784444
1.2557924 -0.97720498 0.41785935
1.2559152 -0.97718227 0.41790497
1.2560387 -0.9772082 0.4179208
1.2561624 -0.97723466 0.41793633
1.2562851 -0.97721118 0.41798243
1.2564088 -0.97723866 0.41799736
1.2565327 -0.97726679 0.4180119
1.2566565 -0.97729492 0.41802642
1.2567792 -0.97727102 0.41807279
1.2569032 -0.97729748 0.41808835
1.2570271 -0.97732389 0.41810399
1.2571511 -0.97735125 0.41811904
1.2572738 -0.97732794 0.418165
1.2573979 -0.97735602 0.41817966
1.2575221 -0.97738498 0.41819379
1.2576463 -0.97741354 0.41820815
1.2577705 -0.97743958 0.41822407
1.2578932 -0.9774155 0.41827053
1.2580175 -0.97744155 0.41828647
1.2581402 -0.97741717 0.41833308
1.2582645 -0.97744441 0.41834834
1.258389 -0.97747326 0.41836259
1.2585136 -0.97750139 0.41837731
1.2586381 -0.97752857 0.4183926
1.2587607 -0.97750437 0.41843912
1.2588853 -0.97753054 0.41845503
1.25901 -0.977557 0.41847083
1.2591345 -0.97758043 0.41848841
1.2592593 -0.9776094 0.41850272
1.2593842 -0.97763795 0.41851726
1.2595091 -0.97766513 0.41853267
1.2596339 -0.97768945 0.41854978
1.2597566 -0.97766542 0.41859621
1.2614369 -1.0110908 0.39840457
1.2600064 -0.97771823 0.41862801
1.2601292 -0.9776957 0.41867349
1.2602544 -0.97772419 0.41868815
1.2603796 -0.9777534 0.41870236
1.2605048 -0.97778064 0.41871783
1.2606274 -0.97775567 0.4187648
1.2607527 -0.97778249 0.41878051
1.260878 -0.97780919 0.4187963
1.2610033 -0.97783566 0.41881227
1.2612514 -0.97784138 0.41887265
1.2614998 -0.97784829 0.41893232
1.2616223 -0.97782469 0.41897845
1.2617478 -0.97785145 0.41899428
1.2618735 -0.97787845 0.41900998
1.261996 -0.97785407 0.41905656
1.2621218 -0.97788262 0.41907135
1.2622476 -0.97791052 0.41908652
1.2623733 -0.97793704 0.41910255
1.2624958 -0.97791171 0.4191497
1.2626216 -0.97793955 0.41916496
1.2627475 -0.97796583 0.41918117
1.26287 -0.97794139 0.41922778
1.2629961 -0.97796994 0.41924262
1.2631222 -0.97799909 0.41925713
1.2632483 -0.97802722 0.41927227
1.2633744 -0.97805429 0.41928807
1.263497 -0.97802997 0.41933459
1.2636232 -0.97805756 0.41935009
1.2637494 -0.97808403 0.41936627
1.2638756 -0.97811019 0.41938263
1.2639982 -0.97808719 0.41942841
1.2641248 -0.97811663 0.41944283
1.2642512 -0.97814435 0.41945827
1.2643776 -0.97816968 0.4194752
1.2644999 -0.97814506 0.4195219
1.2646265 -0.97817206 0.41953781
1.2647531 -0.97819948 0.41955352
1.2648755 -0.97817588 0.41959962
1.2650024 -0.97820407 0.41961488
1.2651291 -0.97823226 0.41963014
1.2652559 -0.97825933 0.41964611
1.2653826 -0.97828543 0.41966262
1.2655051 -0.97826159 0.41970888
1.2685411 -1.0112088 0.40016142
1.2686843 -1.0110821 0.40027645
1.2688153 -1.0108243 0.40046927
1.2689363 -1.0104605 0.40072492
1.2661356 -0.97834802 0.41981792
1.2662624 -0.97837281 0.41983533
1.2663848 -0.97834951 0.41988122
1.2665119 -0.97837555 0.41989785
1.2666391 -0.97840255 0.41991398
1.2667615 -0.97837847 0.41996035
1.266889 -0.97840756 0.41997525
1.2670165 -0.97843593 0.41999054
1.267144 -0.97846335 0.42000645
1.267266 -0.97843772 0.42005372
1.2673935 -0.97846448 0.42007005
1.267521 -0.97849149 0.42008621
1.2676433 -0.97846687 0.42013288
1.267771 -0.97849548 0.42014816
1.2678988 -0.97852403 0.42016342
1.2680266 -0.97855222 0.42017895
1.2681541 -0.97857773 0.42019606
1.2682765 -0.97855377 0.42024237
1.2684044 -0.97858095 0.42025849
1.2685322 -0.97860813 0.42027467
1.2686545 -0.97858405 0.42032102
1.2687826 -0.97861266 0.42033637
1.2689106 -0.97864103 0.42035183
1.2690387 -0.9786672 0.42036864
1.2691606 -0.97864139 0.420416
1.2692888 -0.97866821 0.42043245
1.269417 -0.97869611 0.42044824
1.2695453 -0.978724 0.42046407
1.2696676 -0.97870064 0.42051002
1.269796 -0.97872865 0.42052579
1.2699244 -0.97875684 0.4205415
1.2700527 -0.97878283 0.42055848
1.2701749 -0.97875839 0.42060503
1.2703034 -0.97878563 0.42062131
1.2704318 -0.97881252 0.42063779
1.2705541 -0.97878873 0.42068395
1.2706827 -0.97881639 0.42070001
1.2708114 -0.9788444 0.4207159
1.2709401 -0.97887105 0.42073256
1.271062 -0.97884578 0.42077959
1.2711908 -0.9788723 0.42079636
1.2742829 -1.0018128 0.4074378
1.2744111 -1.0016744 0.40755618
1.2715704 -0.97890222 0.42087573
1.2716995 -0.97893047 0.42089152
1.2718284 -0.97895724 0.42090818
1.2719494 -0.97892416 0.42095977
1.272077 -0.97894096 0.42098224
1.2722057 -0.97896528 0.42100042
1.2723368 -0.97900701 0.42100841
1.2724642 -0.97902071 0.42103273
1.2726008 -0.9791013 0.42101818
1.2727422 -0.97921515 0.42098442
1.2737019 -0.98516178 0.41756234
1.2738378 -0.98519564 0.41757643
1.2739809 -0.98528028 0.41756108
1.2741084 -0.98525453 0.41760978
1.2742356 -0.98522687 0.41765961
1.2743709 -0.985255 0.41767707
1.2745066 -0.98528594 0.41769296
1.2746338 -0.98525876 0.41774246
1.2747601 -0.98522544 0.41779557
1.2748948 -0.98524982 0.41781527
1.2750218 -0.98522121 0.4178656
1.275148 -0.98518836 0.41791835
1.2752832 -0.98521495 0.41793677
1.2754099 -0.98518527 0.4179877
1.2755363 -0.98515409 0.4180395
1.2756717 -0.98518181 0.41805726
1.2757986 -0.98515368 0.4181073
1.2759249 -0.98512292 0.4181588
1.2760605 -0.98515141 0.41817614
1.2761786 -0.98506904 0.41825745
1.2763137 -0.98509383 0.41827691
1.2764395 -0.98506063 0.41832978
1.2765563 -0.98497146 0.41841489
1.2766908 -0.9849931 0.4184362
1.276816 -0.98495716 0.41849062
1.2769332 -0.98487234 0.41857311
1.2770599 -0.98484677 0.41862154
1.2771777 -0.98476696 0.41870108
1.2772944 -0.98468161 0.41878387
1.2774205 -0.98465306 0.41883391
1.2775379 -0.98457354 0.41891322
1.2776642 -0.98454744 0.41896188
1.2777916 -0.98452818 0.41900656
1.2779194 -0.98451138 0.41904983
1.2780482 -0.98449999 0.41909
1.2781762 -0.98448503 0.41913223
1.2783223 -0.98457468 0.41911459
1.2784573 -0.98459882 0.41913444
1.2785722 -0.98450804 0.41922003
1.278697 -0.98447472 0.41927272
1.278821 -0.98443735 0.41932774
1.2789447 -0.98439789 0.41938388
1.279058 -0.98430127 0.41947272
1.2791717 -0.98420793 0.41955963
1.2792953 -0.9841699 0.41961491
1.2794187 -0.98413104 0.41967064
1.2795419 -0.98409164 0.4197267
1.2796652 -0.98405313 0.41978222
1.2797778 -0.98395717 0.41987044
1.2799014 -0.98392141 0.41992432
1.2800139 -0.9838258 0.4200123
1.2801373 -0.98378974 0.4200663
1.2802601 -0.98375076 0.420122
1.2803833 -0.98371482 0.42017591
1.2804962 -0.98362488 0.42026052
1.2806304 -0.98364657 0.42028165
1.2807543 -0.98361522 0.42033291
1.2808899 -0.98364395 0.4203501
1.2810152 -0.98361945 0.42039749
1.2811617 -0.98370457 0.42038271
1.2812973 -0.98373348 0.42039979
1.2814336 -0.98376501 0.42041546
1.2815586 -0.9837392 0.42046356
1.2816949 -0.98377019 0.42047954
1.2818191 -0.98374033 0.4205299
1.2819539 -0.98376435 0.42054987
1.2820661 -0.98367476 0.42063403
1.2822012 -0.98369956 0.42065352
1.2823362 -0.9837237 0.42067337
1.2824715 -0.98374939 0.42069238
1.2826072 -0.98377645 0.42071062
1.2827421 -0.9837997 0.42073107
1.2828653 -0.98376554 0.42078385
1.2830003 -0.98378873 0.42080432
1.2831483 -0.98387432 0.4207896
1.2832713 -0.98383969 0.42084265
1.2833939 -0.98380256 0.42089713
1.2835156 -0.9837622 0.42095339
1.283637 -0.9837206 0.42101032
1.2837462 -0.98362225 0.42109913
1.2838684 -0.98358488 0.42115363
1.2839785 -0.98349166 0.42123955
1.2841004 -0.98345423 0.421294
1.2842215 -0.98341346 0.42135039
1.2843306 -0.98331732 0.4214378
1.2844522 -0.98327935 0.42149252
1.2845742 -0.98324388 0.42154583
1.2846959 -0.98320699 0.42159992
1.2848042 -0.98310983 0.42168775
1.2849135 -0.98301816 0.42177251
1.2850353 -0.9829827 0.42182574
1.2851568 -0.98294687 0.42187914
1.2852778 -0.98290896 0.42193374
1.2853988 -0.98287129 0.4219881
1.2855195 -0.98283231 0.42204326
1.2856271 -0.98273623 0.42213026
1.2857481 -0.98269939 0.42218414
1.2858554 -0.98260295 0.42227125
1.2859882 -0.98261869 0.42229581
1.2860949 -0.98252046 0.42238384
1.2862151 -0.98248172 0.42243874
1.2863216 -0.98238474 0.42252603
1.286441 -0.98234284 0.42258257
1.2865605 -0.98230255 0.42263827
1.2866807 -0.98226506 0.42269233
1.2867876 -0.98217136 0.42277765
1.2869078 -0.98213482 0.42283118
1.2870274 -0.98209554 0.42288619
1.2871475 -0.98205936 0.42293948
1.287268 -0.98202503 0.42299172
1.2873741 -0.98193067 0.42307726
1.2875079 -0.98195159 0.4230988
1.2876281 -0.98191619 0.42315158
1.2877334 -0.98182058 0.42323771
1.2878528 -0.98178238 0.42329201
1.2879585 -0.98168921 0.42337671
1.2880644 -0.98159724 0.42346072
1.2881842 -0.98156226 0.42351317
1.2883033 -0.98152506 0.42356682
1.2884222 -0.98148733 0.42362073
1.2885265 -0.98139083 0.4237071
1.2886592 -0.9814086 0.42373034
1.2887633 -0.98131239 0.42381647
1.2888818 -0.98127383 0.4238708
1.2889861 -0.98118013 0.4239555
1.2891046 -0.98114228 0.42400935
1.2892239 -0.98110813 0.42406118
1.2893285 -0.98101652 0.42414463
1.2894619 -0.98103762 0.42416596
1.2895805 -0.98100126 0.42421892
1.2896994 -0.98096669 0.4242709
1.2898033 -0.98087394 0.42435485
1.2899067 -0.98078066 0.4244391
1.2900399 -0.98080146 0.42446056
1.2901571 -0.98076105 0.42451566
1.2902598 -0.98066598 0.42460078
1.2903786 -0.98063254 0.42465204
1.2904978 -0.98060066 0.42470241
1.2906157 -0.980564 0.42475533
1.2907176 -0.9804678 0.42484096
1.2908349 -0.98042977 0.42489463
1.2909367 -0.98033464 0.42497957
1.2910708 -0.98035932 0.42499888
1.2911887 -0.98032415 0.42505094
1.291307 -0.98029077 0.42510203
1.291409 -0.98019785 0.42518562
1.291543 -0.9802224 0.42520499
1.2916446 -0.98012835 0.42528915
1.2917454 -0.9800328 0.42537409
1.2918622 -0.97999513 0.42542741
1.2919625 -0.97989839 0.42551294
1.2920936 -0.97991318 0.42553759
1.2922088 -0.9798705 0.42559358
1.2923259 -0.97983491 0.42564568
1.2924441 -0.97980362 0.42569542
1.2925613 -0.97976899 0.42574698
1.2926779 -0.97973233 0.42579964
1.2927936 -0.979693 0.42585373
1.2928931 -0.97959632 0.42593896
1.2930093 -0.97955954 0.42599159
1.2931083 -0.97946274 0.42607683
1.2932247 -0.97942656 0.4261291
1.2933246 -0.979334 0.42621198
1.2934412 -0.97929949 0.4262633
1.2935578 -0.97926509 0.42631453
1.293674 -0.97922957 0.42636639
1.2937726 -0.97913384 0.42645085
1.2938707 -0.9790374 0.42653564
1.2939692 -0.97894245 0.42661959
1.2940854 -0.9789083 0.42667061
1.294202 -0.97887582 0.42672065
1.2943016 -0.97878623 0.42680162
1.2944175 -0.97875202 0.42685258
1.2945325 -0.97871459 0.42690524
1.2946484 -0.97868085 0.42695597
1.2947648 -0.97864842 0.42700589
1.2948637 -0.9785583 0.42708698
1.2949955 -0.97857791 0.42710885
1.295092 -0.97848076 0.42719367
1.2952075 -0.97844666 0.42724442
1.2953234 -0.9784137 0.42729458
1.2535369 -0.84135705 0.50110054
1.2535348 -0.84136397 0.50109571
1.2535349 -0.84136331 0.50109619
1.2535353 -0.84136248 0.50109673
1.2535355 -0.84136164 0.50109732
1.2535357 -0.84136081 0.50109792
1.253536 -0.84136003 0.50109845
1.2535362 -0.84135914 0.50109905
1.2535365 -0.8413583 0.50109971
1.2535368 -0.84135735 0.50110036
1.2535371 -0.84135658 0.5011009
1.2535373 -0.84135562 0.50110149
1.2535375 -0.84135473 0.50110215
1.2535378 -0.84135377 0.50110281
1.2535381 -0.84135276 0.50110352
1.2535384 -0.84135175 0.50110418
1.2535387 -0.84135067 0.50110495
1.2535388 -0.84135002 0.50110537
1.2535388 -0.84134996 0.50110543
1.2535388 -0.84134996 0.50110543
1.253539 -0.84134984 0.50110555
1.2072029 -0.99522567 0.39422604
1.207108 -0.99599981 0.39372391
1.2072343 -0.99603987 0.39373171
1.2073606 -0.99607968 0.3937397
1.2075078 -0.9960497 0.39379609
1.2076342 -0.99608988 0.39380383
1.2077603 -0.99613118 0.39381084
1.2078645 -0.99624699 0.39376622
1.2079909 -0.99628842 0.39377323
1.2080951 -0.99640548 0.39372778
1.2535388 -0.84134936 0.50110579
1.2535388 -0.84134948 0.50110573
1.2535388 -0.84134942 0.50110573
1.2535387 -0.84134942 0.50110573
1.2535387 -0.84134936 0.50110579
1.2535387 -0.8413493 0.50110579
1.2535387 -0.84134924 0.50110584
1.2535387 -0.84134918 0.50110584
1.2535387 -0.84134907 0.50110596
1.2535387 -0.84134901 0.50110596
1.2535388 -0.84134883 0.50110608
1.2535388 -0.84134883 0.50110614
1.2535387 -0.84134877 0.50110614
1.2535387 -0.84134871 0.5011062
1.2535387 -0.84134865 0.5011062
1.2535387 -0.84134853 0.50110626
1.2535388 -0.84134841 0.50110638
1.2535388 -0.84134835 0.50110638
1.2535388 -0.84134823 0.50110644
1.2535388 -0.84134823 0.5011065
1.2535387 -0.84134817 0.5011065
1.2535388 -0.84134811 0.50110656
1.2535387 -0.84134805 0.50110656
1.2535388 -0.84134793 0.50110668
1.2535388 -0.84134781 0.50110674
1.2535388 -0.84134775 0.5011068
1.2535388 -0.84134763 0.50110686
1.2535388 -0.84134763 0.50110686
1.2535388 -0.84134746 0.50110698
1.2535388 -0.8413474 0.50110698
1.2535387 -0.84134746 0.50110698
1.2535387 -0.84134758 0.50110686
1.2535387 -0.84134752 0.50110692
1.2535387 -0.84134752 0.50110686
1.2535387 -0.84134752 0.50110686
1.2535386 -0.84134752 0.50110686
1.2535386 -0.84134746 0.50110692
1.2535386 -0.8413474 0.50110692
1.2535386 -0.84134734 0.50110698
1.2535386 -0.84134728 0.50110698
1.2535386 -0.84134716 0.5011071
1.2535386 -0.8413471 0.50110716
1.2535386 -0.84134704 0.50110722
1.2535386 -0.84134698 0.50110722
1.2535386 -0.84134692 0.50110722
1.2535386 -0.84134692 0.50110722
1.2535386 -0.84134692 0.50110722
1.2535385 -0.84134698 0.50110722
1.2535385 -0.84134698 0.50110722
1.2535385 -0.84134698 0.50110722
1.2535385 -0.84134692 0.50110722
1.2535385 -0.84134692 0.50110722
1.2535385 -0.84134686 0.50110722
1.2535385 -0.8413468 0.50110728
1.2535385 -0.84134662 0.50110739
1.2535385 -0.84134662 0.50110739
1.2535385 -0.84134656 0.50110739
1.2535385 -0.84134644 0.50110745
1.2535384 -0.8413465 0.50110745
1.2535384 -0.84134644 0.50110745
1.2535384 -0.84134644 0.50110745
1.2535384 -0.84134644 0.50110745
1.2535384 -0.84134638 0.50110745
1.2535384 -0.84134638 0.50110745
1.2535384 -0.84134644 0.50110745
1.2535383 -0.84134644 0.50110745
1.2535383 -0.84134638 0.50110745
1.2535383 -0.84134638 0.50110745
1.2535383 -0.84134638 0.50110745
1.2535424 -0.84132814 0.50111979
1.2535424 -0.8413282 0.50111973
1.2535423 -0.84132814 0.50111973
1.2535423 -0.84132814 0.50111979
1.2535423 -0.84132802 0.50111985
1.2535423 -0.84132797 0.50111985
1.2535422 -0.84132808 0.50111979
1.2535422 -0.84132802 0.50111979
1.2535422 -0.84132802 0.50111979
1.2535421 -0.84132797 0.50111979
1.2535421 -0.84132785 0.50111991
1.2535422 -0.84132749 0.50112015
1.2535422 -0.84132713 0.50112033
1.2535423 -0.84132648 0.50112081
1.2535424 -0.84132558 0.5011214
1.2535425 -0.84132493 0.50112182
1.2535428 -0.84132373 0.50112259
1.2535429 -0.84132266 0.50112331
1.2535431 -0.84132165 0.50112402
1.2535434 -0.8413204 0.5011248
1.2535435 -0.8413195 0.5011254
1.2535437 -0.84131807 0.50112641
1.253544 -0.84131694 0.50112712
1.2535442 -0.84131563 0.50112796
1.2535444 -0.84131426 0.50112885
1.2535447 -0.84131271 0.50112987
1.2264812 -0.97200513 0.41351882
1.2265722 -0.97213274 0.41346353
1.2266728 -0.9722144 0.41343904
1.2267548 -0.97238803 0.41335303
1.2268552 -0.97247297 0.41332644
1.2269555 -0.9725582 0.41329971
1.2270569 -0.97263962 0.41327557
1.227131 -0.97285736 0.41316035
1.227232 -0.97294307 0.41313344
1.2273419 -0.97298419 0.41313639
1.2274615 -0.97297752 0.41317126
1.2275718 -0.9730165 0.4131757
1.2276826 -0.97305477 0.41318059
1.2277937 -0.9730916 0.41318646
1.2279053 -0.97312617 0.41319382
1.2280172 -0.97315884 0.41320255
1.228129 -0.97319269 0.41321045
1.2282405 -0.97322881 0.41321686
1.2283527 -0.97326219 0.41322514
1.2284657 -0.97329092 0.41323653
1.2285783 -0.97332186 0.41324645
1.2286909 -0.97335345 0.41325596
1.2288036 -0.97338468 0.41326573
1.2289163 -0.97341609 0.41327539
1.2290376 -0.97340155 0.41331559
1.2291503 -0.97343415 0.41332448
1.2292634 -0.97346437 0.41333497
1.2293767 -0.97349417 0.41334572
1.2294899 -0.9735238 0.41335666
1.2296121 -0.97350502 0.41339973
1.2297251 -0.97353661 0.41340932
1.229839 -0.97356415 0.41342166
1.2299527 -0.97359264 0.41343334
1.2300752 -0.97357172 0.41347784
1.230189 -0.97360086 0.41348913
1.2303026 -0.97363031 0.41350022
1.2304165 -0.97365856 0.41351217
1.2305305 -0.97368741 0.41352367
1.2306526 -0.97366893 0.41356653
1.2307589 -0.9737426 0.41354841
1.2308729 -0.97377217 0.41355956
1.2309872 -0.97379935 0.41357225
1.2311019 -0.9738254 0.41358572
1.2312244 -0.97380471 0.41363004
1.2313389 -0.97383237 0.41364244
1.2314532 -0.97386134 0.41365397
1.2315675 -0.97389036 0.41366553
1.2316819 -0.97391927 0.41367716
1.2318044 -0.97389972 0.41372076
1.2319189 -0.97392809 0.41373277
1.2320338 -0.97395462 0.41374597
1.2321488 -0.97398138 0.41375905
1.2322712 -0.97396165 0.41380277
1.2323858 -0.97399098 0.41381419
1.2325007 -0.97401845 0.41382682
1.2326157 -0.97404575 0.41383964
1.2327309 -0.97407234 0.41385287
1.2328537 -0.97405046 0.41389799
1.2329687 -0.97407848 0.41391036
1.233084 -0.97410536 0.41392344
1.2331992 -0.97413278 0.4139362
1.2333077 -0.97420466 0.41391981
1.2334305 -0.97418284 0.41396487
1.233546 -0.97420943 0.41397822
1.2336617 -0.97423553 0.4139919
1.2337775 -0.97426081 0.41400614
1.2339003 -0.97423911 0.41405115
1.2340158 -0.97426659 0.41406396
1.2341313 -0.97429442 0.41407651
1.2342472 -0.97432101 0.41408998
1.2343631 -0.974347 0.41410375
1.2344859 -0.97432542 0.41414872
1.2346017 -0.9743523 0.41416195
1.2347176 -0.97437912 0.41417527
1.2348336 -0.97440565 0.41418877
1.2349565 -0.97438377 0.41423389
1.2350723 -0.97441256 0.41424596
1.2351884 -0.97443938 0.41425928
1.2353044 -0.97446644 0.41427249
1.2354208 -0.97449136 0.41428712
1.2355437 -0.97446948 0.41433227
1.23566 -0.97449642 0.41434556
1.2357762 -0.97452331 0.41435894
1.2358924 -0.97455138 0.41437155
1.2360086 -0.97457945 0.41438413
1.2361256 -0.97460246 0.4144001
1.2362422 -0.97462881 0.41441381
1.236359 -0.97465402 0.41442835
1.2364758 -0.97467935 0.41444281
1.2365988 -0.9746564 0.41448864
1.2367154 -0.97468382 0.41450176
1.2368319 -0.97471285 0.41451386
1.2369486 -0.97473979 0.4145273
1.2370656 -0.97476566 0.41454145
1.2371886 -0.97474295 0.41458717
1.2373055 -0.97476983 0.4146007
1.2374226 -0.97479564 0.41461489
1.2375454 -0.97477388 0.41465995
1.2376622 -0.97480226 0.41467255
1.2377791 -0.97483063 0.41468516
1.2378962 -0.97485733 0.41469881
1.2380136 -0.97488302 0.41471317
1.2381365 -0.97486037 0.41475883
1.2382538 -0.97488678 0.41477275
1.2383711 -0.97491312 0.41478673
1.2384886 -0.97493964 0.41480058
1.2386111 -0.97492003 0.41484424
1.2387284 -0.97494823 0.41485706
1.2388458 -0.97497481 0.41487092
1.2389636 -0.97500014 0.41488558
1.2390813 -0.97502601 0.41489995
1.239204 -0.97500467 0.41494474
1.2393169 -0.97507608 0.41492975
1.2394346 -0.97510338 0.41494325
1.2395523 -0.97513157 0.41495612
1.23967 -0.97515821 0.41497001
1.2397929 -0.97513622 0.41501525
1.2399111 -0.97516102 0.41503036
1.2400291 -0.97518682 0.41504484
1.240152 -0.97516453 0.41509026
1.2402699 -0.97519243 0.41510341
1.2403878 -0.97522151 0.41511583
1.2405058 -0.97524929 0.41512907
1.2406241 -0.97527575 0.41514319
1.2407471 -0.97525245 0.41518924
1.2408652 -0.97527945 0.41520303
1.2409836 -0.97530568 0.41521734
1.241102 -0.97533238 0.41523135
1.2412248 -0.9753114 0.4152759
1.241343 -0.97534013 0.41528863
1.2414614 -0.97536755 0.41530222
1.24158 -0.9753927 0.41531727
1.2417032 -0.9753685 0.41536388
1.2242818 -1.1761285 0.28700238
1.2245636 -1.1763641 0.28692958
1.2248465 -1.1765903 0.28686285
1.2251548 -1.1765232 0.28698367
1.2254406 -1.1767213 0.286935
1.2257011 -1.1772308 0.28668773
1.2260118 -1.1771388 0.28682449
1.2262995 -1.1773278 0.28678209
1.2265879 -1.1775129 0.28674209
1.2268519 -1.1780102 0.28650326
1.2271632 -1.177916 0.28664151
1.2274536 -1.1780897 0.28660914
1.2277443 -1.1782627 0.28657728
1.2280576 -1.1781422 0.28673235
1.2434947 -0.97567081 0.41563874
1.2286382 -1.1785156 0.28665149
1.2289302 -1.1786854 0.2866219
1.2292223 -1.1788582 0.28659055
1.2298048 -1.1792445 0.28650212
1.2300963 -1.1794394 0.28645697
1.2303879 -1.1796407 0.28640789
1.2306795 -1.179846 0.28635627
1.2309718 -1.1800486 0.28630656
1.2446997 -0.97579116 0.41587484
1.2448193 -0.97582024 0.41588768
1.2449389 -0.97584867 0.41590095
1.2321448 -1.1808532 0.28611219
1.2324407 -1.1810261 0.28608173
1.2327368 -1.1812025 0.28604907
1.2330512 -1.1810808 0.28620517
1.2333302 -1.1815488 0.28598833
1.2456644 -0.97590852 0.41605088
1.2457842 -0.97593838 0.41606331
1.2459042 -0.97596639 0.41607693
1.2460243 -0.97599316 0.41609132
1.2461445 -0.9760192 0.41610622
1.2353131 -1.1789838 0.28808165
1.235647 -1.1784422 0.2885018
1.2359442 -1.1785848 0.28849038
1.23624 -1.1787593 0.28845891
1.2365354 -1.1789486 0.28841817
1.2368021 -1.1797247 0.28800797
1.2370682 -1.1805451 0.28757033
1.2373823 -1.180387 0.28774869
1.2376833 -1.1805049 0.28775352
1.2379844 -1.1806247 0.28775713
1.2382857 -1.1807466 0.28775954
1.2391884 -1.1811655 0.28773358
1.2394882 -1.1813473 0.2876986
1.2481979 -0.97642279 0.41638607
1.2483208 -0.97640222 0.41643041
1.2484437 -0.97637999 0.41647577
1.2485667 -0.97635692 0.4165217
1.2486897 -0.97633159 0.41656899
1.2488109 -0.97635728 0.41658434
1.2489321 -0.97638285 0.41659981
1.2490549 -0.97636116 0.41664481
1.2491761 -0.97638911 0.41665879
1.2492974 -0.97641748 0.4166725
1.2494187 -0.9764446 0.41668704
1.2495416 -0.97642136 0.416733
1.249663 -0.97644836 0.41674763
1.2497846 -0.97647488 0.41676256
1.2499061 -0.97650188 0.41677719
1.2500288 -0.97647989 0.41682237
1.2501504 -0.97650868 0.4168359
1.250272 -0.97653699 0.41684979
1.2503937 -0.97656363 0.41686469
1.2505167 -0.9765386 0.41691178
1.2506384 -0.97656512 0.41692674
1.2507602 -0.97659081 0.4169423
1.2508831 -0.97656715 0.41698852
1.2510049 -0.97659546 0.41700244
1.2511268 -0.97662461 0.41701588
1.2512487 -0.97665268 0.41702995
1.2513708 -0.97667789 0.41704583
1.2514937 -0.97665417 0.41709208
1.2516158 -0.97668064 0.41710722
1.251738 -0.97670799 0.4171218
1.2518601 -0.976735 0.41713661
1.2519829 -0.97671425 0.41718104
1.2521051 -0.97674239 0.41719517
1.2522275 -0.97676873 0.4172104
1.2523499 -0.97679293 0.41722697
1.2524726 -0.97677076 0.4172723
1.2525952 -0.97679716 0.41728756
1.2527176 -0.97682405 0.41730249
1.2528404 -0.97680146 0.41734809
1.2529629 -0.97683102 0.41736138
1.2530855 -0.97685897 0.41737571
1.2532082 -0.9768846 0.41739148
1.2533309 -0.97685963 0.41743854
1.2534537 -0.97688639 0.41745359
1.2535765 -0.97691351 0.41746852
1.2536993 -0.97694057 0.41748345
1.2538221 -0.97691911 0.4175283
1.253945 -0.97694761 0.41754237
1.2540679 -0.97697508 0.41755709
1.2541909 -0.97700107 0.41757274
1.2543139 -0.97702754 0.41758808
1.2544367 -0.977005 0.41763359
1.2545599 -0.97703278 0.4176482
1.254683 -0.97706068 0.41766268
1.2548063 -0.97708946 0.41767666
1.2549295 -0.97711551 0.41769236
1.2550523 -0.97709227 0.41773829
1.2551756 -0.97711766 0.41775438
1.255299 -0.9771437 0.41777009
1.2554218 -0.97712123 0.41781557
1.2555453 -0.97714853 0.41783053
1.2556688 -0.97717702 0.41784477
1.2557924 -0.97720438 0.41785973
1.255915 -0.97718167 0.41790536
1.2560387 -0.9772082 0.4179208
1.2561624 -0.97723484 0.41793627
1.2562851 -0.97721142 0.41798228
1.2564088 -0.97723907 0.41799712
1.2565327 -0.97726691 0.41801181
1.2566565 -0.97729492 0.41802645
1.2567805 -0.97732168 0.41804183
1.2569032 -0.97729826 0.41808787
1.2570271 -0.97732514 0.41810322
1.2571511 -0.97735137 0.41811895
1.2572738 -0.97732836 0.41816476
1.257398 -0.97735655 0.41817933
1.2575221 -0.97738498 0.41819379
1.2576463 -0.9774124 0.41820884
1.2577705 -0.97743821 0.41822493
1.2578932 -0.97741497 0.41827083
1.2580175 -0.97744155 0.41828647
1.2581419 -0.97746718 0.41830266
1.2582645 -0.97744441 0.41834834
1.258389 -0.97747326 0.41836259
1.2585136 -0.97750252 0.41837662
1.2586381 -0.97752899 0.41839236
1.2587607 -0.97750407 0.41843927
1.2588853 -0.97753078 0.41845489
1.25901 -0.97755754 0.4184705
1.2591345 -0.97758073 0.41848826
1.2592593 -0.97760886 0.41850305
1.2593842 -0.97763693 0.41851789
1.2595091 -0.97766423 0.41853321
1.2596339 -0.97768956 0.41854972
1.2597566 -0.97766566 0.41859606
1.2598815 -0.97769374 0.41861093
1.2600065 -0.9777205 0.41862661
1.2601292 -0.97769737 0.41867247
1.2602544 -0.97772545 0.41868737
1.2603797 -0.97775406 0.41870198
1.2605048 -0.9777804 0.41871798
1.26063 -0.97780544 0.41873479
1.2607526 -0.97778147 0.41878113
1.2608778 -0.97780806 0.41879702
1.2628804 -1.012125 0.39813823
1.2611259 -0.97781283 0.41885793
1.2612516 -0.97784227 0.41887212
1.2613771 -0.97787082 0.41888684
1.2614999 -0.97785038 0.41893107
1.2616223 -0.97782511 0.41897821
1.2617478 -0.97785091 0.41899458
1.2618735 -0.97787726 0.4190107
1.2619959 -0.97785354 0.41905689
1.2621218 -0.97788286 0.4190712
1.2622477 -0.97791171 0.41908583
1.2623734 -0.97793883 0.41910148
1.2624991 -0.97796357 0.41911858
1.2626216 -0.9779402 0.41916457
1.2627476 -0.97796708 0.41918039
1.2628735 -0.97799349 0.41919655
1.2629961 -0.97797012 0.41924253
1.2631222 -0.97799933 0.41925699
1.2632483 -0.97802746 0.41927212
1.2633746 -0.97805506 0.41928759
1.2635007 -0.97808123 0.41930392
1.2636232 -0.97805798 0.41934985
1.2637495 -0.97808516 0.41936556
1.2638757 -0.97811151 0.41938183
1.2639982 -0.97808766 0.41942808
1.2641248 -0.97811699 0.41944259
1.2642512 -0.97814435 0.41945827
1.2643775 -0.97816944 0.41947532
1.2644999 -0.97814453 0.4195222
1.2646264 -0.97817129 0.41953829
1.264753 -0.97819847 0.41955414
1.2648755 -0.97817498 0.41960016
1.2650023 -0.97820383 0.41961503
1.2651292 -0.97823334 0.41962951
1.2652559 -0.97826034 0.41964549
1.2653826 -0.97828609 0.41966224
1.2683533 -1.0108277 0.40034819
1.2686307 -1.0104834 0.40063211
1.2687559 -1.010166 0.40086019
1.2688843 -1.0098891 0.4010641
1.2661355 -0.97834671 0.4198187
1.2662576 -0.97832072 0.41986617
1.2663848 -0.97834885 0.41988161
1.2665119 -0.97837567 0.41989779
1.2666392 -0.97840345 0.41991344
1.2667615 -0.97837925 0.41995987
1.2668891 -0.97840792 0.41997501
1.2670164 -0.97843558 0.41999078
1.2671437 -0.97846162 0.42000747
1.2672659 -0.97843641 0.4200545
1.2673935 -0.97846383 0.42007044
1.267521 -0.97849125 0.42008635
1.2676486 -0.9785189 0.42010218
1.267771 -0.97849584 0.42014793
1.2678988 -0.97852379 0.42016357
1.2680265 -0.97855109 0.42017961
1.2681541 -0.97857708 0.42019644
1.2682765 -0.9785533 0.42024267
1.2684042 -0.97858006 0.42025903
1.268532 -0.97860658 0.42027557
1.2686543 -0.97858274 0.42032179
1.2687824 -0.97861099 0.42033735
1.2689106 -0.97864038 0.42035222
1.2690387 -0.97866762 0.4203684
1.2691666 -0.97869331 0.42038551
1.2692888 -0.97866893 0.42043203
1.2694169 -0.97869575 0.42044848
1.2695453 -0.97872388 0.42046416
1.2696675 -0.9787001 0.42051032
1.269796 -0.97872919 0.42052549
1.2699245 -0.97875762 0.42054102
1.2700528 -0.97878397 0.4205578
1.270175 -0.97875905 0.42060465
1.2703034 -0.97878575 0.42062122
1.2704319 -0.97881317 0.4206374
1.2705541 -0.97878838 0.42068419
1.2706828 -0.97881734 0.42069948
1.2708114 -0.978845 0.42071551
1.2709403 -0.97887301 0.42073143
1.2710624 -0.97884774 0.42077845
1.271191 -0.97887468 0.42079496
1.2713196 -0.97890067 0.42081207
1.2714417 -0.9788754 0.4208591
1.2715704 -0.97890234 0.42087564
1.2716994 -0.97893012 0.42089176
1.2718285 -0.97895753 0.42090803
1.2719563 -0.97897613 0.42092949
1.2720771 -0.9789415 0.42098194
1.2722057 -0.97896564 0.42100018
1.2723297 -0.97895515 0.42103857
1.2724642 -0.97902077 0.42103273
1.2726007 -0.97910047 0.42101872
1.2727424 -0.97921646 0.42098361
1.2737011 -0.98515594 0.4175657
1.2738373 -0.98519278 0.41757807
1.2739812 -0.98528212 0.41755998
1.274109 -0.98525822 0.41760767
1.2742361 -0.98523009 0.41765776
1.2743711 -0.98525727 0.41767576
1.2744979 -0.98522615 0.41772759
1.2746241 -0.98519301 0.41778058
1.2747494 -0.9851532 0.41783741
1.2748749 -0.98511541 0.41789302
1.274992 -0.98502123 0.41798127
1.2751262 -0.98504317 0.41800234
1.2752521 -0.98500896 0.41805583
1.2753785 -0.98497838 0.41810727
1.2755044 -0.98494542 0.41816005
1.2756389 -0.98496902 0.41818014
1.2757562 -0.98488057 0.4182649
1.2758813 -0.98484325 0.41832015
1.276016 -0.98486745 0.41833991
1.2761329 -0.98477876 0.41842476
1.2762668 -0.98479795 0.41844741
1.2763921 -0.98476362 0.41850087
1.2765087 -0.98467433 0.41858596
1.2766339 -0.98464012 0.4186393
1.276751 -0.98455608 0.41872135
1.2768863 -0.98458499 0.41873837
1.2770129 -0.98455989 0.41878647
1.2771297 -0.98447549 0.4188686
1.2772548 -0.98444283 0.41892096
1.2773805 -0.98441339 0.41897151
1.277506 -0.9843834 0.41902232
1.2776226 -0.98430037 0.41910356
1.2777489 -0.98427659 0.41915083
1.2778759 -0.98425597 0.41919625
1.2780036 -0.98423994 0.41923901
1.2781308 -0.98422134 0.41928324
1.2782574 -0.98419881 0.4193297
1.2783828 -0.98417044 0.41937953
1.2785077 -0.98413974 0.41943067
1.2786418 -0.98416114 0.41945201
1.2787662 -0.98412681 0.41950521
1.2788802 -0.98403561 0.41959089
1.2790043 -0.98400056 0.41964445
1.2791187 -0.98391223 0.4197284
1.279243 -0.98387969 0.41978049
1.2793565 -0.98378825 0.41986617
1.2794799 -0.98375142 0.41992065
1.2796034 -0.98371577 0.41997445
1.2797264 -0.98367745 0.42002979
1.2798491 -0.98363799 0.42008573
1.2799715 -0.98359764 0.42014211
1.2800943 -0.98355931 0.4201974
1.2802068 -0.98346698 0.42028335
1.2803295 -0.98342937 0.42033815
1.2804527 -0.98339486 0.4203912
1.2805759 -0.98336059 0.42044407
1.2806998 -0.98333001 0.42049485
1.2808239 -0.98330098 0.42054474
1.2809477 -0.9832707 0.42059529
1.2810938 -0.98335528 0.42058074
1.2812184 -0.98332912 0.42062896
1.281365 -0.98341537 0.42061353
1.2815005 -0.98344404 0.42063072
1.2816256 -0.98342019 0.42067766
1.2817613 -0.98344946 0.42069453
1.2818854 -0.98342085 0.42074415
1.2820201 -0.98344529 0.42076376
1.2821444 -0.98341775 0.42081279
1.282268 -0.98338675 0.42086372
1.282415 -0.98347127 0.42084944
1.2825615 -0.98355281 0.42083687
1.282686 -0.98352611 0.42088541
1.2828209 -0.98355031 0.42090523
1.2829556 -0.98357278 0.42092603
1.2830895 -0.98359156 0.42094895
1.283213 -0.98356003 0.42100018
1.2833356 -0.9835245 0.42105371
1.2834576 -0.98348695 0.42110828
1.2835789 -0.983446 0.42116481
1.2836894 -0.98335451 0.42124972
1.283812 -0.98332089 0.42130205
1.2839344 -0.98328543 0.42135543
1.2840306 -0.98312974 0.42147624
1.284139 -0.98303181 0.42156464
1.2842591 -0.98298776 0.42162272
1.2843794 -0.98294514 0.42167997
1.2844883 -0.98285121 0.42176598
1.2846093 -0.98281288 0.42182079
1.2847176 -0.98271704 0.42190784
1.2848386 -0.98267972 0.42196202
1.2849599 -0.9826442 0.42201522
1.285081 -0.98260778 0.42206889
1.2852142 -0.98262507 0.4220925
1.2853217 -0.98252863 0.4221797
1.2854421 -0.98248982 0.42223465
1.28555 -0.98239654 0.42231998
1.2856834 -0.98241544 0.42234269
1.2858034 -0.9823761 0.42239791
1.2859104 -0.98227954 0.42248496
1.2860307 -0.98224241 0.42253891
1.2861383 -0.98215026 0.42262346
1.2862581 -0.98211128 0.42267835
1.2863648 -0.98201656 0.4227643
1.2864847 -0.98197895 0.42281839
1.2865915 -0.98188567 0.42290345
1.2867111 -0.98184735 0.4229579
1.2868314 -0.98181224 0.42301053
1.2869515 -0.98177707 0.42306319
1.2870853 -0.98179883 0.4230842
1.2872046 -0.98176062 0.42313853
1.2873238 -0.98172158 0.42319331
1.2874295 -0.98162705 0.42327887
1.2875348 -0.98153204 0.42336458
1.2876397 -0.98143578 0.42345101
1.287758 -0.98139459 0.42350689
1.2878624 -0.98129785 0.42359346
1.2879955 -0.98131734 0.42361569
1.2881143 -0.98127991 0.4236694
1.2882333 -0.9812429 0.42372289
1.2883387 -0.9811517 0.42380631
1.2884438 -0.98106021 0.42388985
1.2885629 -0.98102444 0.42394257
1.2886821 -0.98098999 0.42399451
1.2888017 -0.98095691 0.42404574
1.2889349 -0.98097837 0.42406684
1.2890393 -0.98088562 0.42415091
1.2891438 -0.98079425 0.42423421
1.2892623 -0.98075837 0.4242869
1.2893804 -0.98072135 0.42434019
1.2894988 -0.98068511 0.42439297
1.2896014 -0.98058856 0.42447901
1.2897346 -0.98061007 0.42450002
1.2898377 -0.98051625 0.42458448
1.2899555 -0.980479 0.42463779
1.2900581 -0.98038435 0.42472264
1.2901756 -0.9803462 0.42477638
1.290308 -0.98036551 0.42479858
1.2904255 -0.98032868 0.42485163
1.2905432 -0.98029184 0.42490461
1.2906458 -0.98019934 0.42498812
1.2907637 -0.98016465 0.42503992
1.2908816 -0.98012978 0.42509177
1.2909992 -0.98009419 0.42514405
1.2911013 -0.98000193 0.42522728
1.2912188 -0.97996598 0.42527968
1.2913361 -0.97993016 0.42533201
1.2914534 -0.97989488 0.42538399
1.2915711 -0.97986126 0.42543507
1.2917044 -0.97988367 0.42545551
1.291821 -0.97984588 0.42550886
1.2919215 -0.97975069 0.42559353
1.2920381 -0.97971368 0.42564639
1.292155 -0.97967798 0.42569852
1.2922559 -0.97958529 0.4257817
1.2923728 -0.97955012 0.42583352
1.2924895 -0.9795146 0.4258855
1.2925893 -0.97941941 0.4259699
1.2927053 -0.97938174 0.42602301
1.292805 -0.97928721 0.42610702
1.2929211 -0.97925067 0.42615944
1.293038 -0.97921747 0.42621008
1.2931381 -0.97912562 0.42629254
1.2932533 -0.97908688 0.42634609
1.2933527 -0.97899348 0.42642933
1.293666 -0.97876912 0.42664844
1.2937812 -0.97873193 0.42670107
1.2938796 -0.97863775 0.42678452
1.294013 -0.97866327 0.42680317
1.2941308 -0.97863519 0.4268508
1.2942477 -0.97860479 0.4268997
1.2943807 -0.97862798 0.42691958
1.2944788 -0.9785347 0.42700243
1.2945932 -0.97849643 0.42705554
1.294691 -0.97840255 0.42713863
1.2947888 -0.97831005 0.42722088
1.2948856 -0.97821426 0.42730492
1.2949998 -0.97817653 0.42735761
1.2950977 -0.97808528 0.42743912
1.2952119 -0.97804803 0.42749155
1.2535369 -0.84135717 0.50110048
1.2535348 -0.84136397 0.50109571
1.253535 -0.84136319 0.50109625
1.2535353 -0.84136242 0.50109679
1.2535355 -0.84136158 0.50109738
1.2535357 -0.84136081 0.50109792
1.253536 -0.84135997 0.50109851
1.2535362 -0.84135914 0.50109911
1.2535365 -0.8413583 0.50109971
1.2535367 -0.84135735 0.5011003
1.2535371 -0.84135658 0.5011009
1.2535373 -0.84135556 0.50110155
1.2535375 -0.84135461 0.50110221
1.2535379 -0.8413536 0.50110292
1.2535381 -0.84135264 0.50110358
1.2535385 -0.84135163 0.5011043
1.2535387 -0.84135073 0.50110489
1.2535388 -0.84135008 0.50110537
1.253539 -0.84134996 0.50110543
1.2535388 -0.84134996 0.50110543
1.2535388 -0.8413499 0.50110549
1.2071632 -0.99535733 0.39413455
1.2071123 -0.99598527 0.39373401
1.2072377 -0.99602813 0.39373985
1.2073641 -0.99606812 0.39374772
1.2075104 -0.9960413 0.39380193
1.2076344 -0.99608898 0.39380446
1.2077373 -0.99620885 0.39375705
1.2078404 -0.99632865 0.39370966
1.2079439 -0.99644816 0.39366257
1.2080274 -0.99663639 0.39356786
1.2535388 -0.84134936 0.50110579
1.2535388 -0.84134942 0.50110573
1.2535388 -0.84134942 0.50110573
1.2535387 -0.84134948 0.50110573
1.2535387 -0.84134948 0.50110567
1.2535387 -0.84134936 0.50110579
1.2535387 -0.84134936 0.50110579
1.2535387 -0.8413493 0.50110579
1.2535387 -0.84134924 0.50110579
1.2535387 -0.84134924 0.50110584
1.2535387 -0.84134907 0.50110596
1.2535387 -0.84134901 0.50110596
1.2535387 -0.84134895 0.50110602
1.2535387 -0.84134877 0.50110614
1.2535387 -0.84134871 0.50110614
1.2535387 -0.84134865 0.5011062
1.2535386 -0.84134901 0.50110596
1.2535386 -0.84134895 0.50110602
1.2535386 -0.84134883 0.50110608
1.2535387 -0.84134865 0.50110614
1.2535387 -0.84134847 0.50110626
1.2535387 -0.84134841 0.50110638
1.2535388 -0.84134793 0.50110668
1.2535388 -0.84134787 0.50110674
1.2535388 -0.84134781 0.50110674
1.2535388 -0.84134769 0.50110686
1.2535388 -0.84134763 0.50110686
1.2535388 -0.84134758 0.50110686
1.2535387 -0.84134775 0.50110674
1.2535387 -0.84134769 0.5011068
1.2535387 -0.84134758 0.50110686
1.2535387 -0.84134758 0.50110686
1.2535387 -0.84134763 0.5011068
1.2535386 -0.84134775 0.50110674
1.2535386 -0.84134793 0.50110662
1.2535386 -0.84134793 0.50110662
1.2535385 -0.84134787 0.50110662
1.2535385 -0.84134781 0.50110668
1.2535385 -0.84134769 0.50110674
1.2535386 -0.84134758 0.5011068
1.2535386 -0.8413474 0.50110692
1.2535386 -0.84134728 0.50110704
1.2535386 -0.84134716 0.5011071
1.2535386 -0.8413471 0.5011071
1.2535386 -0.84134716 0.5011071
1.2535385 -0.84134722 0.50110704
1.2535385 -0.84134716 0.50110704
1.2535385 -0.8413471 0.5011071
1.2535385 -0.84134698 0.50110716
1.2535385 -0.84134698 0.50110716
1.2535385 -0.84134686 0.50110722
1.2535385 -0.8413468 0.50110728
1.2535385 -0.84134674 0.50110734
1.2535385 -0.84134674 0.50110734
1.2535385 -0.84134662 0.50110734
1.2535385 -0.84134656 0.50110739
1.2535385 -0.8413465 0.50110745
1.2535385 -0.8413465 0.50110745
1.2535385 -0.84134644 0.50110745
1.2535384 -0.8413465 0.50110745
1.2535384 -0.84134656 0.50110739
1.2535384 -0.8413465 0.50110739
1.2535384 -0.8413465 0.50110745
1.2535384 -0.84134644 0.50110745
1.2535384 -0.84134638 0.50110751
1.2535384 -0.84134632 0.50110751
1.2535383 -0.84134632 0.50110751
1.2535383 -0.84134626 0.50110757
1.2535425 -0.84132761 0.50112015
1.2535425 -0.84132773 0.50112009
1.2535424 -0.84132779 0.50112003
1.2535424 -0.84132791 0.50111997
1.2535424 -0.84132785 0.50111997
1.2535423 -0.84132791 0.50111991
1.2535423 -0.84132791 0.50111991
1.2535422 -0.84132797 0.50111985
1.2535422 -0.84132808 0.50111979
1.2535422 -0.84132802 0.50111979
1.2535421 -0.84132797 0.50111979
1.2535421 -0.84132797 0.50111979
1.2535421 -0.84132767 0.50112003
1.2535422 -0.84132725 0.50112027
1.2535423 -0.84132648 0.50112081
1.2535424 -0.8413257 0.50112128
1.2535425 -0.84132493 0.50112182
1.2535428 -0.84132385 0.50112253
1.2535429 -0.84132272 0.50112331
1.2535431 -0.84132165 0.50112396
1.2535433 -0.84132051 0.50112474
1.2535435 -0.8413195 0.5011254
1.2535437 -0.84131807 0.50112641
1.2535439 -0.84131706 0.501127
1.2535442 -0.84131563 0.50112796
1.2535444 -0.84131432 0.50112885
1.2535447 -0.84131289 0.50112975
1.2264829 -0.97199738 0.41352403
1.2265835 -0.97207779 0.41350034
1.2266843 -0.97215813 0.41347674
1.2267667 -0.97232974 0.41339204
1.2268572 -0.97246289 0.41333321
1.226957 -0.97255111 0.41330445
1.2270573 -0.97263741 0.41327706
1.2271316 -0.9728542 0.41316244
1.2272326 -0.97293979 0.41313562
1.2273425 -0.97298133 0.41313827
1.2274525 -0.97302222 0.4131414
1.2275627 -0.97306353 0.41314429
1.2276819 -0.97305858 0.41317803
1.2277924 -0.97309786 0.41318226
1.2279038 -0.9731335 0.41318896
1.228016 -0.97316515 0.41319832
1.2281282 -0.97319734 0.41320738
1.2282404 -0.97322989 0.41321617
1.2283524 -0.97326326 0.4132244
1.2284658 -0.97329026 0.41323698
1.2285782 -0.97332245 0.41324607
1.2286912 -0.97335166 0.41325715
1.2288042 -0.97338146 0.41326788
1.2289261 -0.97336376 0.4133102
1.2290385 -0.97339702 0.4133186
1.2291511 -0.97342956 0.41332757
1.2292641 -0.97346008 0.41333783
1.2293775 -0.97348922 0.413349
1.229491 -0.97351807 0.41336048
1.2296129 -0.97350037 0.4134028
1.2297263 -0.97353005 0.41341367
1.2298398 -0.97355956 0.4134247
1.2299534 -0.97358912 0.4134357
1.2300668 -0.97361928 0.41344631
1.230189 -0.97360092 0.4134891
1.2303026 -0.97363079 0.41349992
1.2304164 -0.97365957 0.41351146
1.2305304 -0.97368765 0.41352352
1.2306445 -0.97371602 0.41353536
1.230759 -0.97374165 0.4135491
1.230873 -0.97377127 0.41356015
1.2309872 -0.97379982 0.41357195
1.2311016 -0.97382694 0.41358471
1.2312242 -0.97380602 0.41362917
1.2313385 -0.97383511 0.41364065
1.2314528 -0.97386342 0.41365263
1.2315671 -0.97389263 0.41366404
1.2316818 -0.97391999 0.41367668
1.2318044 -0.9738996 0.41372082
1.2319189 -0.97392803 0.4137328
1.2320337 -0.97395521 0.41374561
1.2321486 -0.9739815 0.41375896
1.2322711 -0.97396195 0.41380256
1.232386 -0.97398978 0.41381496
1.2325008 -0.97401774 0.4138273
1.2326158 -0.97404522 0.41383997
1.2327306 -0.97407371 0.41385198
1.2328458 -0.97410095 0.41386482
1.2329686 -0.97407943 0.4139097
1.2330837 -0.97410655 0.41392264
1.2331991 -0.97413361 0.41393566
1.2333076 -0.97420537 0.41391933
1.2334305 -0.97418332 0.41396457
1.233546 -0.9742099 0.41397789
1.2336615 -0.97423613 0.41399148
1.2337774 -0.9742614 0.41400573
1.2339003 -0.97423863 0.41405147
1.2340158 -0.97426683 0.41406378
1.2341313 -0.97429454 0.41407645
1.2342471 -0.97432148 0.41408965
1.2343631 -0.974347 0.41410375
1.234486 -0.97432446 0.41414934
1.2346019 -0.97435135 0.41416258
1.2347177 -0.97437823 0.41417584
1.234834 -0.97440368 0.41419005
1.2349565 -0.97438329 0.41423422
1.2350723 -0.9744122 0.4142462
1.2351882 -0.97443974 0.41425905
1.2353044 -0.97446734 0.41427192
1.2354207 -0.97449279 0.41428617
1.2355436 -0.97447002 0.41433188
1.2356598 -0.97449702 0.41434518
1.2357762 -0.97452343 0.41435888
1.2358924 -0.97455102 0.41437179
1.2360089 -0.97457826 0.41438493
1.2361258 -0.97460097 0.41440105
1.2362424 -0.97462726 0.41441488
1.2363592 -0.97465229 0.41442949
1.2364762 -0.97467679 0.41444451
1.236599 -0.97465515 0.41448945
