# .PCD v0.7 - Point Cloud Data file format
VERSION 0.7
FIELDS x y z
SIZE 4 4 4
TYPE F F F
COUNT 1 1 1
WIDTH 1509
HEIGHT 1
VIEWPOINT 0 0 0 1 0 0 0
POINTS 1509
DATA ascii
1.257302 -1.0562421 0.36947998
1.2571229 -1.0359719 0.38194117
1.2573029 -1.0361599 0.38187155
1.2574834 -1.0363482 0.38180178
1.2582678 -1.0650531 0.36429209
1.2578369 -1.0363488 0.3818925
1.2584852 -1.056862 0.36940223
1.2586862 -1.0570917 0.3693122
1.2589459 -1.0596813 0.36778131
1.2584959 -1.0344679 0.38322276
1.259342 -1.0596793 0.36788455
1.259529 -1.0592834 0.36817697
1.2591311 -1.0383282 0.38100442
1.2593154 -1.0385205 0.38093328
1.2595 -1.038715 0.38086081
1.2596852 -1.038909 0.38078877
1.2598665 -1.0389755 0.38079444
1.260065 -1.0395592 0.38048539
1.2602428 -1.0395013 0.3805669
1.2604296 -1.039703 0.38049057
1.2606212 -1.04003 0.38033816
1.2608039 -1.0400969 0.38034394
1.2609769 -1.039901 0.38050932
1.2610945 -1.0382721 0.38154471
1.2614737 -1.0433723 0.37849542
1.2613795 -1.0364734 0.38272798
1.2615591 -1.0365361 0.38273555
1.2617443 -1.0367262 0.38266596
1.2619298 -1.0369166 0.38259625
1.2621101 -1.0369827 0.38260192
1.2621003 -1.0327967 0.38518226
1.2622824 -1.0329796 0.38511631
1.2625636 -1.0352811 0.38376868
1.2627307 -1.035094 0.38392708
1.2629033 -1.035028 0.38401231
1.2630759 -1.0349622 0.3840974
1.2632422 -1.0347736 0.38425654
1.2634209 -1.0348343 0.38426515
1.2635999 -1.0348971 0.38427246
1.2637792 -1.0349646 0.38427705
1.2643132 -1.0416183 0.38030896
1.2645133 -1.0419524 0.38015437
1.2641796 -1.0326828 0.38578805
1.2643777 -1.0331136 0.38557327
1.2645555 -1.0331776 0.38557956
1.2647333 -1.0332398 0.38558698
1.2649841 -1.0345304 0.38485518
1.2651708 -1.034718 0.38478759
1.2653655 -1.0350288 0.38464588
1.2655762 -1.0355898 0.38435403
1.2657647 -1.0357819 0.38428411
1.2660588 -1.0376219 0.38322449
1.2662495 -1.0378144 0.38315484
1.2664323 -1.0378793 0.38316181
1.2665982 -1.0376899 0.38332143
1.2667723 -1.0376257 0.38340586
1.266946 -1.0375582 0.38349226
1.2671196 -1.0374922 0.38357776
1.2664014 -1.0247194 0.39127395
1.267449 -1.0371118 0.3838973
1.2676406 -1.0373025 0.38382897
1.2692854 -1.0574176 0.37184095
1.2684155 -1.0429734 0.3805294
1.2686244 -1.0433176 0.38037086
1.2690533 -1.0465618 0.37847948
1.2692344 -1.0464914 0.37856963
1.2689613 -1.0405574 0.38216066
1.2691066 -1.0401013 0.38247958
1.2692924 -1.0401657 0.38248765
1.2694992 -1.0404916 0.38233989
1.2684741 -1.0256178 0.39125335
1.2686737 -1.0260093 0.39106318
1.2688462 -1.0260639 0.39107391
1.2689718 -1.0255603 0.39141712
1.2692301 -1.0266325 0.39082199
1.2694137 -1.026809 0.39076042
1.2696471 -1.0275575 0.39035869
1.2698321 -1.0277365 0.3902958
1.2710764 -1.039899 0.38311169
1.2701608 -1.0276208 0.39045188
1.2703354 -1.027679 0.39046097
1.2705103 -1.0277385 0.39046928
1.2706852 -1.0277973 0.39047801
1.2708815 -1.0280848 0.39035124
1.2710675 -1.0282573 0.39029273
1.2726518 -1.0431852 0.38148975
1.2730787 -1.0457284 0.38003045
1.2732708 -1.0457933 0.38003993
1.2734232 -1.0454489 0.38029164
1.2720622 -1.0297264 0.38964236
1.2729605 -1.0370485 0.3853558
1.273158 -1.0372419 0.38528731
1.2733815 -1.0376898 0.38506848
1.2735537 -1.0376272 0.38515148
1.2736995 -1.0373082 0.38538587
1.2725867 -1.0248733 0.39277196
1.2727712 -1.0250413 0.39271581
1.2751602 -1.0460693 0.38035622
1.2754741 -1.0472671 0.37969798
1.2756693 -1.04734 0.37970325
1.2749226 -1.0387205 0.38482943
1.2761065 -1.0479084 0.3794651
1.2763335 -1.0482615 0.37930569
1.2765297 -1.0483326 0.37931237
1.2758027 -1.0401622 0.38416654
1.2759914 -1.04023 0.38417324
1.2761949 -1.0404272 0.38410404
1.2773988 -1.0493388 0.3789154
1.2774642 -1.0482663 0.37959397
1.2775618 -1.047488 0.38009939
1.2778074 -1.0479805 0.37985867
1.2780038 -1.0480511 0.3798658
1.2782009 -1.0481251 0.3798708
1.2772352 -1.0385255 0.38554534
1.2774385 -1.0387226 0.38547611
1.2760098 -1.0255433 0.39324018
1.2780076 -1.0404274 0.38457078
1.2782137 -1.0406275 0.38450038
1.2793312 -1.0481284 0.38015991
1.2795105 -1.0480561 0.38025063
1.2796184 -1.0474211 0.38067028
1.2797971 -1.0473502 0.38076013
1.2799939 -1.0474215 0.38076675
1.280264 -1.0480592 0.38044283
1.2804801 -1.0482719 0.38036728
1.2806967 -1.0484865 0.38029069
1.2799797 -1.0416275 0.38433811
1.280189 -1.0418295 0.38426745
1.2803986 -1.0420307 0.38419726
1.2805908 -1.0420994 0.38420436
1.2808557 -1.0427039 0.38389969
1.2810858 -1.0430449 0.38374844
1.2813352 -1.0435219 0.38351834
1.2815856 -1.0439992 0.38328832
1.281895 -1.0448949 0.38281533
1.2821296 -1.0452445 0.38266015
1.2825229 -1.0467136 0.38185486
1.2826402 -1.0462224 0.38218814
1.2830797 -1.0479897 0.38121092
1.283278 -1.0480586 0.38121948
1.283456 -1.0479861 0.38131002
1.2836548 -1.048058 0.3813169
1.2839382 -1.0487047 0.3809908
1.2842216 -1.0493447 0.38066894
1.2845525 -1.0502959 0.38016719
1.2847544 -1.050372 0.38017225
1.284978 -1.0505919 0.38009417
1.2852023 -1.050813 0.38001549
1.285427 -1.0510346 0.37993667
1.2857419 -1.0518429 0.37951899
1.2860137 -1.0523618 0.37926883
1.2868582 -1.055312 0.37766594
1.2872701 -1.056695 0.37691873
1.2874022 -1.0562866 0.37720475
1.2871445 -1.0522112 0.37965301
1.2873495 -1.0522897 0.37965736
1.2875671 -1.0524457 0.37961721
1.1769481 -1.0972168 0.32350254
1.1772708 -1.096902 0.32377985
1.1775234 -1.0968208 0.3238951
1.1777201 -1.0969274 0.3238799
1.1779166 -1.0970354 0.32386386
1.1781148 -1.0971386 0.32385129
1.1783139 -1.0972395 0.32384026
1.178628 -1.0969481 0.32410097
1.1788245 -1.0970576 0.3240841
1.1789637 -1.0973647 0.32393041
1.1791612 -1.097473 0.32391444
1.1793606 -1.0975751 0.32390285
1.1795599 -1.0976784 0.32389039
1.1798176 -1.0975796 0.3240177
1.1800168 -1.0976844 0.32400435
1.1802163 -1.0977882 0.32399169
1.1804729 -1.0976925 0.3241168
1.1806724 -1.0977972 0.32410368
1.1808716 -1.0979038 0.32408908
1.1810712 -1.0980099 0.32407504
1.1813295 -1.0979077 0.32420468
1.1815289 -1.0980151 0.32418978
1.1817281 -1.0981237 0.32417405
1.1819272 -1.0982335 0.32415754
1.182127 -1.0983416 0.32414231
1.1823266 -1.0984511 0.32412606
1.1825275 -1.0985563 0.32411304
1.1827869 -1.0984503 0.32424518
1.1830436 -1.098353 0.32437131
1.1832436 -1.0984626 0.32435524
1.1833875 -1.098779 0.32419708
1.1836452 -1.0986781 0.32432571
1.1838472 -1.098783 0.32431301
1.1841069 -1.0986744 0.32444692
1.1843082 -1.0987825 0.32443196
1.1845089 -1.0988929 0.32441556
1.1846532 -1.0992163 0.32425317
1.1848539 -1.099329 0.32423535
1.1850579 -1.0994306 0.32422531
1.1853162 -1.0993276 0.32435527
1.1855187 -1.0994351 0.32434112
1.1857209 -1.099545 0.32432538
1.185923 -1.0996566 0.32430851
1.1861252 -1.0997679 0.32429194
1.1863849 -1.099659 0.32442611
1.1865869 -1.099772 0.32440838
1.1867889 -1.0998857 0.32439026
1.1869379 -1.1002066 0.32423055
1.1871408 -1.1003193 0.32421333
1.1873442 -1.100431 0.32419682
1.1876081 -1.1003058 0.32434195
1.1878114 -1.1004186 0.32432473
1.1880149 -1.1005315 0.3243075
1.1882187 -1.1006439 0.32429063
1.1884227 -1.1007568 0.32427353
1.188627 -1.1008692 0.32425681
1.1888824 -1.1007771 0.32437935
1.189036 -1.1010945 0.32422313
1.189314 -1.1009113 0.32440776
1.1895186 -1.1010246 0.32439053
1.1897234 -1.101138 0.32437328
1.1899284 -1.1012516 0.32435602
1.1904476 -1.1010313 0.32462564
1.1906528 -1.1011448 0.32460847
1.1908582 -1.1012583 0.32459134
1.2511417 -1.050182 0.3716327
1.2513263 -1.0506043 0.37141961
1.251515 -1.0506775 0.37142304
1.2532307 -1.0442432 0.37583509
1.2534144 -1.0444574 0.37575021
1.2535983 -1.0443926 0.37583759
1.2537825 -1.0445983 0.37575811
1.253967 -1.0448053 0.37567794
1.2541778 -1.0534999 0.37036735
1.254339 -1.0456376 0.37526017
1.2545623 -1.0535024 0.37046477
1.2547541 -1.053431 0.37055826
1.2548938 -1.0455668 0.37544671
1.2551417 -1.0538805 0.37038085
1.2552698 -1.0462646 0.37511298
1.2554049 -1.0408767 0.37847224
1.2556528 -1.0473897 0.37451741
1.2559172 -1.0543367 0.37029907
1.2560296 -1.0476772 0.37443712
1.256225 -1.0483167 0.37409282
1.2563998 -1.0473976 0.3747049
1.2565875 -1.0474651 0.37471166
1.2567755 -1.0475365 0.37471601
1.256966 -1.0477498 0.37463346
1.2571592 -1.0481039 0.37446472
1.2573507 -1.0483217 0.37437966
1.2575816 -1.0505564 0.37306023
1.2577727 -1.0506297 0.37306419
1.2579671 -1.0508476 0.37297982
1.2581619 -1.0510663 0.37289503
1.2583638 -1.0515796 0.37263033
1.2585561 -1.0516521 0.37263516
1.2589266 -1.0589017 0.36825737
1.258499 -1.0345899 0.38314831
1.258666 -1.0342807 0.38338214
1.2588427 -1.0343421 0.38338977
1.2590266 -1.0346556 0.38324368
1.2592112 -1.0349692 0.38309765
1.2593925 -1.0351582 0.38302779
1.2596093 -1.0364747 0.38227129
1.259732 -1.0347804 0.38334832
1.2599013 -1.0345924 0.38350791
1.2600703 -1.0344074 0.38366556
1.2602476 -1.0344706 0.38367227
1.2604338 -1.034779 0.38352993
1.2606162 -1.0349665 0.38346121
1.2608036 -1.0352788 0.38331676
1.261006 -1.0359688 0.38294318
1.2612807 -1.0384637 0.38147447
1.2614987 -1.0394366 0.38093033
1.2616973 -1.0398957 0.3806982
1.2618803 -1.0399635 0.38070351
1.2620691 -1.0401621 0.3806296
1.2622753 -1.0407519 0.38031876
1.2624536 -1.040688 0.38040403
1.2626375 -1.0407562 0.38040933
1.26284 -1.0412183 0.38017642
1.2630248 -1.0412875 0.38018125
1.2632095 -1.0413544 0.38018757
1.2633944 -1.0414213 0.38019389
1.2635727 -1.041355 0.38028073
1.2637577 -1.0414221 0.38028699
1.2639358 -1.0413544 0.38037458
1.2635403 -1.0304501 0.38700101
1.2637279 -1.0307466 0.38686642
1.2639227 -1.0311632 0.3866595
1.2641317 -1.0318226 0.38630649
1.2643491 -1.0326087 0.3858774
1.2645195 -1.03255 0.38595754
1.2646968 -1.0326147 0.38596332
1.2648886 -1.0329206 0.38582391
1.2650522 -1.0327458 0.38597384
1.2648531 -1.026643 0.38968819
1.2655606 -1.0353396 0.38450441
1.2658204 -1.0366669 0.38375232
1.2660998 -1.0382659 0.38283759
1.2663168 -1.0388527 0.38253143
1.2665009 -1.0389256 0.38253391
1.2667456 -1.0399044 0.381993
1.2669655 -1.040491 0.38168764
1.267151 -1.0405571 0.38169464
1.2673274 -1.0404921 0.38178024
1.267513 -1.0405587 0.38178688
1.2677361 -1.0411491 0.38148004
1.2679228 -1.0412202 0.38148424
1.2681285 -1.0415514 0.38133293
1.2683156 -1.04162 0.38133872
1.2675645 -1.0291358 0.38884842
1.2686599 -1.0413605 0.38158756
1.2688466 -1.0414245 0.38159612
1.2690538 -1.0417527 0.38144702
1.2690854 -1.039831 0.38264087
1.2708933 -1.0603601 0.3704395
1.2711114 -1.0605973 0.37034929
1.2690457 -1.0326672 0.38705099
1.2692348 -1.0328512 0.38698605
1.2694343 -1.0331588 0.38684767
1.2696244 -1.0333455 0.38678142
1.2698146 -1.0335308 0.38671607
1.2699947 -1.0335929 0.38672414
1.2701641 -1.033531 0.38680604
1.2703227 -1.0333461 0.38696092
1.2704918 -1.0332843 0.38704258
1.2706608 -1.0332211 0.38712507
1.2733845 -1.0614864 0.37038609
1.2717203 -1.0410208 0.38258538
1.2719201 -1.0412183 0.38251489
1.2720959 -1.0411545 0.38259956
1.2723216 -1.0416228 0.38236877
1.2724724 -1.0412911 0.38261226
1.2725472 -1.0401722 0.38332191
1.2727852 -1.0407639 0.38301817
1.2729986 -1.0410917 0.38287082
1.2731738 -1.0410262 0.38295636
1.2725867 -1.0332836 0.38758257
1.2727923 -1.0335932 0.38744456
1.2729986 -1.0339019 0.38730708
1.2732178 -1.0343344 0.38709673
1.2742829 -1.0429763 0.38203877
1.2735952 -1.0345863 0.38703847
1.2737906 -1.0347724 0.38697395
1.2739863 -1.0349591 0.38690919
1.2741557 -1.0348953 0.38699216
1.274298 -1.0345801 0.38722327
1.2743732 -1.0336511 0.38781589
1.2745414 -1.0335884 0.38789791
1.2747095 -1.0335259 0.38797969
1.2748914 -1.0335886 0.38798785
1.2750871 -1.0337746 0.3879236
1.2752832 -1.0339596 0.38785991
1.2754375 -1.0337743 0.38801402
1.2756054 -1.0337114 0.388096
1.2765568 -1.0404229 0.38419995
1.2766389 -1.0395712 0.38474658
1.2767963 -1.0393753 0.38490799
1.2769535 -1.0391791 0.38506946
1.2764746 -1.033656 0.38835406
1.2772824 -1.0389189 0.38531479
1.2769296 -1.034521 0.38793758
1.2776581 -1.0390486 0.38533154
1.277312 -1.0347699 0.3878825
1.2759732 -1.0225387 0.39508471
1.2761312 -1.0224825 0.39516005
1.2763028 -1.022535 0.39517182
1.2785488 -1.0389726 0.38560778
1.2787881 -1.0394371 0.38538286
1.2790276 -1.0398973 0.38516054
1.2792513 -1.0402291 0.38501349
1.2788829 -1.0360082 0.38752291
1.2806767 -1.0483333 0.38038
1.2808946 -1.0485561 0.38029867
1.2811124 -1.0487734 0.38022065
1.2813689 -1.0492773 0.37997577
1.2818244 -1.0512509 0.37887532
1.282106 -1.0519167 0.37853703
1.2824093 -1.0527321 0.37811202
1.2826535 -1.0531071 0.37794352
1.2828569 -1.0531825 0.37794942
1.283102 -1.0535564 0.37778184
1.2833064 -1.0536337 0.37778682
1.2834468 -1.0532578 0.37805483
1.2834593 -1.0519863 0.37884265
1.2835566 -1.0513239 0.37927639
1.2837374 -1.0512511 0.37936798
1.2839609 -1.0514728 0.3792887
1.2842714 -1.0522882 0.37886554
1.2845184 -1.0526617 0.37869871
1.2847662 -1.053035 0.37853211
1.2851045 -1.054014 0.37801528
1.2854236 -1.054852 0.37758034
1.2856067 -1.0547751 0.37767491
1.2853577 -1.0518413 0.37942109
1.2855823 -1.0520558 0.37934652
1.2858071 -1.0522691 0.37927285
1.2859652 -1.0520465 0.37945086
1.2861252 -1.0518386 0.37962034
1.2863512 -1.0520571 0.37954375
1.144996 -1.1996797 0.25205085
1.1456276 -1.1986488 0.25284958
1.145883 -1.1988615 0.2527841
1.1462613 -1.1986655 0.25300252
1.1768863 -1.0974233 0.32335919
1.1772695 -1.0969064 0.32377684
1.1774666 -1.0970113 0.32376286
1.1776628 -1.0971204 0.32374614
1.1778586 -1.0972316 0.32372794
1.1781152 -1.097137 0.32385236
1.1783124 -1.0972443 0.32383701
1.1785107 -1.0973485 0.32382372
1.1787091 -1.0974526 0.32381058
1.1789074 -1.0975579 0.32379669
1.1791062 -1.0976622 0.32378358
1.1794229 -1.0973601 0.32405144
1.1796213 -1.0974658 0.3240374
1.1798191 -1.0975746 0.32402119
1.1800169 -1.0976838 0.32400474
1.1802741 -1.0975858 0.32413149
1.180475 -1.0976853 0.32412177
1.1806755 -1.0977864 0.32411101
1.1808754 -1.0978904 0.32409838
1.1810737 -1.098001 0.32408124
1.1813297 -1.0979068 0.32420522
1.1814697 -1.0982258 0.32404444
1.181667 -1.0983423 0.3240234
1.1818662 -1.0984527 0.32400659
1.1820675 -1.0985558 0.32399482
1.1822695 -1.0986576 0.32398403
1.1825291 -1.0985508 0.32411677
1.1827286 -1.0986623 0.32409942
1.1829284 -1.098773 0.32408255
1.1831858 -1.0986741 0.32420981
1.1833869 -1.0987811 0.32419559
1.1835874 -1.098891 0.32417941
1.1837883 -1.0990008 0.32416341
1.1840483 -1.0988916 0.32429776
1.1842496 -1.0990002 0.32428259
1.1843946 -1.0993199 0.3241227
1.1845961 -1.0994301 0.32410657
1.1848545 -1.0993271 0.32423675
1.1851149 -1.099216 0.32437229
1.1853167 -1.0993257 0.32435659
1.1855174 -1.0994401 0.32433769
1.1856638 -1.0997628 0.32417625
1.1858656 -1.0998755 0.32415873
1.1861222 -1.0997794 0.32428414
1.1863252 -1.0998884 0.32426909
1.1865282 -1.0999987 0.32425338
1.1867347 -1.100096 0.32424644
1.1869376 -1.1002079 0.32422966
1.1871409 -1.1003189 0.32421362
1.1873444 -1.1004298 0.32419756
1.1876081 -1.1003056 0.32434216
1.1877742 -1.1005652 0.32422474
1.1880151 -1.100531 0.32430789
1.1882188 -1.1006436 0.32429081
1.1884228 -1.1007564 0.32427374
1.188627 -1.1008688 0.32425699
1.1888313 -1.1009818 0.32423988
1.1891096 -1.100798 0.32442498
1.189314 -1.1009113 0.32440776
1.1895186 -1.1010246 0.32439053
1.1897234 -1.101138 0.32437328
1.1901336 -1.1013652 0.32433873
1.1903752 -1.1013294 0.32442304
1.1905808 -1.1014426 0.32440618
1.1908362 -1.1013501 0.32452899
1.1910994 -1.1012244 0.32467431
1.1913052 -1.1013376 0.32465753
1.1914757 -1.1015997 0.32453975
1.1917175 -1.1015638 0.32462412
1.1919945 -1.1013788 0.32480961
1.1922008 -1.1014925 0.32479253
1.1924071 -1.1016065 0.32477543
1.1926138 -1.1017205 0.32475832
1.2502115 -1.0492409 0.37197375
1.2503986 -1.0493132 0.37197739
1.2526459 -1.0522377 0.37075156
1.2528359 -1.0525099 0.37063262
1.253027 -1.0525992 0.37062675
1.2532179 -1.0528282 0.37053466
1.2534093 -1.0532033 0.37035239
1.2536012 -1.053429 0.37026262
1.2537936 -1.0536546 0.37017301
1.2539865 -1.0538796 0.37008375
1.2541797 -1.054106 0.3699939
1.2543733 -1.0543325 0.36990401
1.2545667 -1.0544071 0.36990771
1.2547592 -1.0543305 0.37000465
1.2549537 -1.0545584 0.36991405
1.2551039 -1.0488806 0.37345615
1.2551723 -1.0347658 0.38218296
1.2553517 -1.0352066 0.38195726
1.2558241 -1.0640465 0.3642838
1.2560288 -1.0642979 0.36418143
1.2562379 -1.0648818 0.363875
1.2560724 -1.0365902 0.38128909
1.2562519 -1.036772 0.38122308
1.2564275 -1.0366662 0.38133365
1.2560831 -1.0035186 0.40169799
1.2562294 -1.0034758 0.40176207
1.2563756 -1.0034299 0.40182799
1.2565233 -1.0034728 0.40183955
1.2575535 -1.0491035 0.3739495
1.2580298 -1.063315 0.36530322
1.2582363 -1.0635636 0.36520308
1.2584542 -1.0643069 0.36480054
1.2586659 -1.0647256 0.36459666
1.2588785 -1.0651431 0.36439386
1.2590919 -1.0655626 0.36418992
1.2577957 -1.0072242 0.39985257
1.2595118 -1.0660644 0.36398852
1.2581091 -1.0076829 0.39965025
1.2582616 -1.0077376 0.3996557
1.2584138 -1.0077856 0.39966539
1.2585607 -1.0076472 0.39978859
1.2587072 -1.0075096 0.39991125
1.2588564 -1.0074637 0.39997798
1.2590085 -1.0075091 0.39998913
1.2591578 -1.0074625 0.40005633
1.2592777 -1.0065795 0.40063205
1.2594492 -1.0071863 0.40030184
1.259608 -1.0074145 0.40020198
1.260865 -1.0369153 0.38232276
1.2599093 -1.007412 0.40028104
1.2612199 -1.0369177 0.38241276
1.261405 -1.0371077 0.38234314
1.2615906 -1.0373012 0.38227159
1.2617764 -1.037493 0.38220114
1.2619628 -1.0376865 0.3821297
1.2621439 -1.0377522 0.38213584
1.2623249 -1.0378155 0.38214338
1.2625004 -1.0377531 0.38222706
1.2626698 -1.0375628 0.38238809
1.262857 -1.0377522 0.38231945
1.2630137 -1.0373087 0.38263345
1.263182 -1.0371149 0.38279647
1.2633438 -1.0367957 0.38303497
1.263518 -1.0367316 0.3831194
1.2637117 -1.0370476 0.38297436
1.2638925 -1.0371073 0.38298407
1.2640669 -1.0370439 0.38306811
1.2642483 -1.037111 0.38307339
1.2644228 -1.0370517 0.38315493
1.2646042 -1.037119 0.38316014
1.2647636 -1.0367991 0.38339859
1.2646261 -1.0314037 0.38669232
1.2649685 -1.0342678 0.38501325
1.2650661 -1.0329773 0.38583463
1.2651918 -1.0321871 0.3863546
1.2653466 -1.0318877 0.38657925
1.2655311 -1.0320681 0.38651541
1.2657158 -1.0322496 0.38645101
1.2659011 -1.0324318 0.38638625
1.2673759 -1.0522555 0.37453437
1.2675925 -1.0526304 0.37435874
1.2677892 -1.0527017 0.37436548
1.2673066 -1.0428333 0.38033026
1.2674203 -1.0418324 0.38097712
1.2675884 -1.0416318 0.38114414
1.2668154 -1.0281991 0.38923347
1.2669811 -1.0281427 0.38931096
1.2679745 -1.0394387 0.38259679
1.2681689 -1.0396343 0.38252619
1.2683638 -1.039831 0.38245505
1.2685492 -1.0398973 0.38246188
1.2677282 -1.0268141 0.39032313
1.2679812 -1.0279043 0.38971567
1.2681193 -1.0275034 0.38999856
1.2683023 -1.0276765 0.38993889
1.2684669 -1.0276182 0.3900173
1.268641 -1.027676 0.39002639
1.2688152 -1.0277343 0.3900353
1.2689798 -1.0276757 0.3901138
1.269154 -1.0277333 0.39012313
1.2714336 -1.0526381 0.37534335
1.2716449 -1.052862 0.37525955
1.2710993 -1.0443361 0.38037977
1.2712901 -1.044407 0.38038516
1.2714447 -1.0440671 0.38063467
1.2716351 -1.0441343 0.38064229
1.2718011 -1.0439302 0.38081101
1.2702087 -1.0244278 0.39243445
1.2721318 -1.04352 0.38114929
1.2722965 -1.0433141 0.38131872
1.2724739 -1.0432464 0.38140619
1.2727023 -1.0437191 0.38117337
1.272687 -1.0416329 0.3824566
1.2725574 -1.0384049 0.38441503
1.2726926 -1.0379522 0.38472918
1.2728518 -1.0377532 0.38489297
1.2729607 -1.0370494 0.38535523
1.2731066 -1.0367287 0.38559067
1.2732905 -1.0367895 0.38560051
1.2734879 -1.0369819 0.38553271
1.2737123 -1.0374324 0.38531253
1.2739109 -1.0376263 0.38524407
1.2741231 -1.0379469 0.38510081
1.2761828 -1.0557486 0.3746472
1.2747034 -1.0400345 0.38396218
1.2745835 -1.0372362 0.38565791
1.2754283 -1.0433859 0.38208103
1.2766324 -1.0527209 0.37663117
1.2772858 -1.0569038 0.3742184
1.2751698 -1.0360957 0.3865127
1.2753402 -1.0360333 0.3865951
1.2767308 -1.0467768 0.38032418
1.2769254 -1.0468445 0.38033253
1.2771047 -1.0467765 0.38042063
1.2772839 -1.0467077 0.3805092
1.2775776 -1.0476243 0.38001931
1.2779754 -1.0494115 0.37901899
1.2781574 -1.0493476 0.3791053
1.2783388 -1.0492805 0.3791934
1.2785541 -1.0494969 0.37911534
1.2787355 -1.0494295 0.37920368
1.2789694 -1.0497931 0.37903953
1.2791681 -1.0498657 0.37904596
1.2793847 -1.0500814 0.37896869
1.2796195 -1.0504389 0.3788085
1.2798193 -1.0505123 0.37881461
1.2800376 -1.0507332 0.37873465
1.2797245 -1.0467808 0.38109267
1.2799211 -1.0468544 0.38109791
1.2801358 -1.0470669 0.38102207
1.2803323 -1.0471374 0.38102925
1.2790205 -1.0357062 0.38774475
1.2808955 -1.0485624 0.38029498
1.2810748 -1.0484905 0.38038549
1.2813113 -1.0488478 0.38022602
1.2818434 -1.0513928 0.37879276
1.2820853 -1.0517641 0.3786259
1.282267 -1.0516903 0.3787182
1.2823478 -1.0508845 0.37923625
1.2825489 -1.0509573 0.37924308
1.2827296 -1.050884 0.3793349
1.2829316 -1.0509615 0.37933904
1.2832156 -1.0516206 0.37900552
1.2832927 -1.050814 0.37952304
1.2834728 -1.0507386 0.37961602
1.283759 -1.0514003 0.3792814
1.2837279 -1.0498636 0.38022164
1.2838228 -1.0492108 0.38064888
1.2839594 -1.0488497 0.38090682
1.2851236 -1.0554576 0.37712944
1.2853303 -1.0555348 0.37713498
1.2854452 -1.0549968 0.37749651
1.286011 -1.0523438 0.37927926
1.2862396 -1.0525775 0.37919393
1.2864192 -1.0524933 0.3792921
1.1432073 -1.2002902 0.25121349
1.1433396 -1.2009048 0.25086826
1.145507 -1.1990482 0.25257212
1.1458805 -1.1988696 0.25277847
1.146135 -1.1990862 0.2527104
1.1769471 -1.0972204 0.32350007
1.1773261 -1.0967165 0.32390857
1.1775243 -1.0968174 0.32389742
1.1777232 -1.0969173 0.32388696
1.1779785 -1.0968264 0.32400879
1.1781756 -1.0969325 0.32399407
1.1783711 -1.0970446 0.32397527
1.1785692 -1.0971487 0.32396209
1.1787671 -1.0972544 0.32394779
1.1789656 -1.0973582 0.32393488
1.1791637 -1.0974646 0.32392028
1.1793611 -1.0975734 0.32390401
1.1795595 -1.0976802 0.32388914
1.1798167 -1.0975829 0.32401544
1.1800147 -1.0976914 0.32399946
1.1802132 -1.0977991 0.32398421
1.1804127 -1.0979037 0.32397097
1.1806123 -1.0980089 0.32395756
1.1808125 -1.0981125 0.32394513
1.1810119 -1.0982196 0.32393038
1.1812705 -1.0981172 0.3240602
1.1815271 -1.0980214 0.32418537
1.181726 -1.0981315 0.32416865
1.1819246 -1.0982429 0.3241511
1.1821232 -1.0983553 0.32413292
1.1823233 -1.0984631 0.3241179
1.1825264 -1.0985606 0.32411003
1.1827276 -1.0986658 0.32409692
1.1829284 -1.098773 0.32408249
1.1831863 -1.0986726 0.32421088
1.183387 -1.0987806 0.32419595
1.183588 -1.0988888 0.32418099
1.183848 -1.0987798 0.32431519
1.183992 -1.0991002 0.32415456
1.1841935 -1.0992091 0.32413933
1.1843951 -1.099318 0.32412395
1.1845964 -1.0994284 0.32410777
1.1848567 -1.099319 0.32424229
1.185058 -1.0994302 0.32422549
1.1852598 -1.0995407 0.32420924
1.1854615 -1.0996525 0.32419223
1.1856636 -1.0997634 0.32417589
1.1859208 -1.0996648 0.32430294
1.1861234 -1.0997747 0.32428727
1.1862711 -1.1000969 0.32412651
1.1865319 -1.0999844 0.3242631
1.1867346 -1.1000962 0.32424635
1.1869377 -1.1002073 0.32423007
1.1871409 -1.1003189 0.32421359
1.1873443 -1.1004305 0.32419711
1.1875478 -1.1005425 0.32418033
1.1878114 -1.1004188 0.32432461
1.1880151 -1.1005309 0.32430789
1.1882188 -1.1006434 0.32429099
1.1884229 -1.1007557 0.3242743
1.1886271 -1.1008682 0.32425737
1.1889054 -1.1006849 0.32444221
1.1891096 -1.100798 0.32442498
1.189314 -1.1009113 0.32440776
1.1895186 -1.1010246 0.32439053
1.1897234 -1.101138 0.32437328
1.1899284 -1.1012516 0.32435602
1.1901699 -1.1012161 0.32444009
1.1904476 -1.1010313 0.32462564
1.1906528 -1.1011448 0.32460847
1.2477788 -1.0557672 0.36732033
1.2479708 -1.0558442 0.3673223
1.2481629 -1.0559212 0.36732426
1.2508227 -1.0606966 0.36506268
1.2510583 -1.0574629 0.36711863
1.2512515 -1.0576991 0.36702269
1.2514518 -1.0572395 0.36735785
1.2525944 -1.0644618 0.36319575
1.2534184 -1.0373678 0.38012576
1.2537353 -1.0061905 0.39944464
1.2538856 -1.006701 0.39916837
1.2540373 -1.0072889 0.39884466
1.2541771 -1.0046314 0.40052044
1.2543261 -1.0048542 0.40042138
1.254475 -1.0049874 0.40037754
1.2549804 -1.0585691 0.36744627
1.2551802 -1.0589637 0.36725426
1.2553768 -1.0588875 0.36735189
1.2555776 -1.0592808 0.36716092
1.255771 -1.0588858 0.36745447
1.255969 -1.0589646 0.36745682
1.2561616 -1.0585754 0.36774653
1.2563574 -1.0584958 0.36784616
1.2565532 -1.0584184 0.3679443
1.2567464 -1.0581846 0.36813828
1.2569442 -1.0582604 0.36814243
1.2571343 -1.0578723 0.36843094
1.2573239 -1.0574855 0.36871839
1.2575212 -1.0575626 0.3687216
1.2577187 -1.0576406 0.36872441
1.2579163 -1.0577189 0.36872697
1.2580363 -1.0541126 0.37098306
1.2582308 -1.0541885 0.37098631
1.2573436 -1.0071918 0.39975616
1.2575017 -1.0075121 0.39959925
1.2589265 -1.058897 0.3682602
1.2591218 -1.0588195 0.36835837
1.2593211 -1.0588969 0.36836189
1.2590154 -1.040619 0.37956119
1.2591943 -1.0405533 0.37964779
1.2593729 -1.0404868 0.37973484
1.2595596 -1.0406847 0.37966079
1.2597841 -1.0420862 0.37885377
1.2599726 -1.0422866 0.3787787
1.2601659 -1.0426233 0.37862074
1.2603555 -1.0428277 0.37854344
1.26055 -1.0431657 0.37838498
1.2607355 -1.0432354 0.37838978
1.2609212 -1.0433042 0.37839514
1.261107 -1.0433705 0.37840208
1.2610843 -1.0380074 0.38170543
1.2612704 -1.0382011 0.38163385
1.261462 -1.0385255 0.38148305
1.2616597 -1.0389838 0.38125116
1.2613862 -1.0282061 0.38783082
1.2620802 -1.0404202 0.38047317
1.2624475 -1.0446752 0.37794223
1.2626473 -1.045017 0.37778282
1.2628417 -1.0452266 0.37770364
1.2627664 -1.0396349 0.38113445
1.2629557 -1.0398322 0.38106143
1.2637621 -1.052774 0.37328365
1.2639432 -1.0525557 0.373465
1.2641387 -1.0526301 0.37346947
1.2643418 -1.052851 0.37338549
1.2638943 -1.0405576 0.38085556
1.264058 -1.0402317 0.38109887
1.2642279 -1.0400342 0.38126448
1.2644045 -1.0399663 0.3813518
1.2645525 -1.0393827 0.38175005
1.2647504 -1.0397018 0.38160411
1.2649267 -1.0396365 0.38168982
1.2651104 -1.0396988 0.3816987
1.2649249 -1.033531 0.38545668
1.2650884 -1.0333481 0.38561159
1.265259 -1.033286 0.38569385
1.2654221 -1.0331053 0.38584739
1.2655925 -1.033044 0.38592908
1.2657702 -1.0331014 0.38593939
1.2659247 -1.0327969 0.38616708
1.2665344 -1.0394367 0.38222718
1.2667277 -1.039636 0.38215396
1.26781 -1.0530083 0.37418163
1.2679671 -1.0524933 0.37453982
1.2681539 -1.0524207 0.37463272
1.2685088 -1.054745 0.37328997
1.2672516 -1.0343353 0.38555962
1.2674406 -1.0345232 0.38549232
1.2676296 -1.0347095 0.38542604
1.2678283 -1.0350211 0.38528499
1.2679996 -1.0349585 0.38536775
1.2681714 -1.0349026 0.38544643
1.2683424 -1.0348378 0.38553044
1.2685424 -1.0351496 0.38538963
1.2686841 -1.0347108 0.38569689
1.2688549 -1.0346475 0.38577995
1.2690157 -1.0344609 0.38593641
1.2701266 -1.0459954 0.37910548
1.2702844 -1.0456514 0.37935829
1.270476 -1.0457222 0.37936392
1.270691 -1.0460703 0.37920451
1.2709424 -1.0468409 0.37879387
1.2711476 -1.0470555 0.37871432
1.2696172 -1.0272112 0.39056465
1.2697914 -1.0272702 0.39057305
1.2699757 -1.0274427 0.39051414
1.2730336 -1.0597993 0.3713367
1.2721535 -1.0478382 0.37849039
1.2723482 -1.0479128 0.37849444
1.2724518 -1.0469971 0.37908617
1.2726322 -1.0469261 0.37917644
1.2728255 -1.0469934 0.37918472
1.272953 -1.046365 0.37960532
1.2731988 -1.0469855 0.37928575
1.2733654 -1.0467732 0.37945962
1.2735316 -1.0465598 0.37963405
1.2737252 -1.0466309 0.37964016
1.2731911 -1.039371 0.38398215
1.2733779 -1.0394373 0.38398933
1.273578 -1.0396338 0.38391966
1.2748524 -1.0503571 0.37763128
1.2751106 -1.051018 0.37728992
1.2753397 -1.0513874 0.37712103
1.2755539 -1.0516069 0.37704074
1.2768501 -1.0620646 0.37092188
1.2764182 -1.0561265 0.37447467
1.2766556 -1.0565155 0.37429571
1.2771826 -1.0595719 0.3725456
1.2766488 -1.0528704 0.37654313
1.2768494 -1.0529437 0.37654954
1.2770338 -1.0528694 0.37664288
1.2776955 -1.0570585 0.37422854
1.2776055 -1.0545219 0.37577051
1.2776531 -1.0532355 0.37657651
1.2767857 -1.0439967 0.3820537
1.2777817 -1.0510124 0.37798136
1.2778955 -1.05035 0.37841937
1.2778244 -1.0481254 0.37977368
1.2778364 -1.0466375 0.38069484
1.2778322 -1.0450343 0.38168302
1.2780092 -1.0449642 0.3817718
1.278203 -1.0450335 0.38177902
1.2784137 -1.0452394 0.38170618
1.2786249 -1.0454476 0.38163212
1.2788715 -1.0459378 0.38139322
1.2790838 -1.0461459 0.38131943
1.2793671 -1.0469154 0.38091761
1.2795814 -1.047129 0.38084099
1.2798146 -1.0474877 0.3806797
1.2800306 -1.0477076 0.38059974
1.2804313 -1.0493524 0.37968799
1.2807814 -1.050585 0.37901756
1.2810197 -1.0509484 0.37885481
1.2812983 -1.051612 0.37851703
1.2810555 -1.0483454 0.38047004
1.2812347 -1.0482758 0.38055921
1.281433 -1.0483479 0.38056579
1.2816707 -1.0487095 0.38040388
1.2819285 -1.0492134 0.38015932
1.2823473 -1.0508811 0.37923819
1.2822665 -1.0489179 0.38042873
1.2814021 -1.0413574 0.38487116
1.2816491 -1.0418191 0.3846499
1.2843983 -1.0572101 0.37586129
1.2846063 -1.0572884 0.37586653
1.2852926 -1.057941 0.37564066
1.2845021 -1.0512456 0.37956828
1.2847272 -1.0514728 0.37948605
1.2849518 -1.0516932 0.37940788
1.2833223 -1.0395756 0.38646516
1.2853352 -1.0516918 0.37950748
1.2854713 -1.0513264 0.37976807
1.2855065 -1.0503049 0.38040739
1.1456347 -1.1965234 0.25416279
1.1460096 -1.1963338 0.25437644
1.1460091 -1.1973858 0.2537272
1.1460099 -1.1984396 0.25307715
1.1463943 -1.1982228 0.25330988
1.1769475 -1.0972189 0.32350111
1.1772674 -1.0969131 0.32377213
1.1774627 -1.0970249 0.32375348
1.1776596 -1.0971314 0.32373849
1.177858 -1.0972339 0.32372633
1.1781142 -1.0971409 0.32384968
1.1783129 -1.0972427 0.32383806
1.17857 -1.0971457 0.32396418
1.1787684 -1.0972496 0.3239511
1.1789659 -1.0973572 0.32393563
1.179165 -1.0974599 0.3239235
1.1793641 -1.0975631 0.32391107
1.1796227 -1.0974612 0.3240405
1.1798199 -1.0975717 0.32402319
1.1800172 -1.0976827 0.32400548
1.1802156 -1.0977906 0.32399005
1.1804152 -1.0978949 0.32397705
1.1806153 -1.0979984 0.32396477
1.1808156 -1.0981019 0.32395253
1.1810737 -1.0980009 0.32408127
1.1812716 -1.0981137 0.32406262
1.18147 -1.098225 0.32404506
1.1816691 -1.0983346 0.32402879
1.1818689 -1.0984426 0.32401359
1.1820688 -1.0985508 0.32399824
1.1822695 -1.0986573 0.32398427
1.1824704 -1.0987632 0.32397065
1.1827301 -1.0986569 0.32410309
1.1829309 -1.0987639 0.32408881
1.1831882 -1.0986656 0.32421571
1.1833886 -1.0987749 0.32419986
1.1835332 -1.0990908 0.3240422
1.1837924 -1.0989854 0.32417393
1.1839931 -1.0990962 0.3241573
1.184194 -1.0992069 0.32414073
1.1844519 -1.0991056 0.32426971
1.1845967 -1.0994276 0.32410827
1.1848569 -1.0993178 0.3242431
1.1850581 -1.0994297 0.32422584
1.1852595 -1.0995421 0.32420832
1.1854614 -1.0996528 0.32419202
1.1856635 -1.099764 0.32417542
1.1858659 -1.0998747 0.32415926
1.1860683 -1.0999861 0.32414263
1.1863294 -1.0998726 0.3242799
1.186532 -1.0999836 0.32426366
1.1867349 -1.100095 0.32424712
1.1869916 -1.099998 0.3243731
1.1871945 -1.1001099 0.32435632
1.1873981 -1.1002202 0.32434067
1.1876018 -1.1003307 0.32432497
1.1878116 -1.1004181 0.32432514
1.1880151 -1.1005309 0.32430789
1.1882188 -1.1006436 0.32429081
1.1884228 -1.1007564 0.32427374
1.1886778 -1.1006658 0.32439536
1.1888822 -1.1007774 0.32437918
1.1891096 -1.100798 0.32442498
1.189314 -1.1009113 0.32440776
1.189555 -1.1008767 0.32449117
1.1897599 -1.1009897 0.32447419
1.1899648 -1.1011026 0.32445735
1.19017 -1.1012155 0.32444048
1.1904476 -1.1010313 0.32462564
1.1906528 -1.1011448 0.32460847
1.1908582 -1.1012583 0.32459134
1.1910639 -1.101372 0.32457414
1.1912698 -1.1014857 0.32455695
1.2511979 -1.0452658 0.37468061
1.2513838 -1.0451505 0.37479955
1.2517589 -1.0444616 0.37532127
1.2519423 -1.0445305 0.37532601
1.2545623 -1.0534971 0.37046811
1.2547539 -1.0534253 0.37056181
1.2549477 -1.0536524 0.37047157
1.2551429 -1.0540292 0.37028936
1.2553388 -1.0544026 0.37010938
1.2555326 -1.0544828 0.37010983
1.2557266 -1.0545604 0.37011188
1.2559223 -1.0547874 0.37002227
1.2561166 -1.0548648 0.37002453
1.2563112 -1.0549423 0.37002686
1.2564416 -1.0504025 0.37286153
1.2566694 -1.052984 0.37132737
1.2568647 -1.0532086 0.37123913
1.2570506 -1.0528409 0.37151384
1.2572463 -1.053064 0.37142664
1.2574395 -1.0531369 0.37143138
1.25763 -1.0530592 0.37152839
1.2578205 -1.0529847 0.37162343
1.2570605 -1.0080223 0.39917076
1.2572126 -1.008069 0.3991811
1.2586354 -1.0633981 0.36540797
1.258835 -1.0633193 0.36550793
1.2588419 -1.0554812 0.37034607
1.259038 -1.0555598 0.37034813
1.2592385 -1.0557907 0.37025729
1.2594351 -1.0558703 0.37025875
1.2596406 -1.0562558 0.37007383
1.2598603 -1.0571014 0.36960864
1.2595556 -1.0405519 0.37974173
1.2597383 -1.0406188 0.37974748
1.2599213 -1.0406867 0.37975267
1.2601043 -1.0407522 0.3797594
1.2602874 -1.0408176 0.3797662
1.260466 -1.040751 0.37985334
1.2606446 -1.0406839 0.37994069
1.2608134 -1.0403554 0.38018689
1.2617432 -1.0603391 0.36809582
1.2611796 -1.0404869 0.3802
1.2613628 -1.0405531 0.38020638
1.2612736 -1.0338418 0.38432449
1.2614865 -1.0347705 0.38380632
1.2616649 -1.0348381 0.38381055
1.2618488 -1.0350312 0.3837387
1.2620382 -1.0353444 0.38359427
1.2622451 -1.0360303 0.38322431
1.2624075 -1.0357202 0.38345745
1.262622 -1.0365363 0.38300917
1.2628385 -1.0373632 0.38255471
1.2630197 -1.0374316 0.38255918
1.2631947 -1.0373696 0.38264248
1.2633756 -1.0374318 0.38265073
1.2635635 -1.0376239 0.38258058
1.2637516 -1.0378143 0.38251156
1.2633723 -1.0272777 0.38891527
1.2652271 -1.0585936 0.3700701
1.2636975 -1.0270497 0.38913971
1.2638692 -1.0271052 0.38914961
1.2640475 -1.027276 0.38909012
1.2659622 -1.0576552 0.37083843
1.2661182 -1.0569615 0.37130663
1.2663091 -1.0568796 0.37140638
1.2664999 -1.0567973 0.37150636
1.2666907 -1.0567172 0.37160486
1.2668911 -1.0567942 0.37160897
1.2670823 -1.0567229 0.37170216
1.2672539 -1.0563465 0.37197861
1.2674441 -1.0562679 0.37207615
1.2676241 -1.0560362 0.3722654
1.2664876 -1.0360274 0.38431871
1.2666517 -1.0358399 0.38447672
1.2668157 -1.035653 0.38463429
1.2666394 -1.0305595 0.38773167
1.2668322 -1.0308586 0.38759679
1.2670172 -1.0310394 0.38753295
1.2675126 -1.0355242 0.38489318
1.2692405 -1.0568024 0.37220898
1.2694532 -1.0570313 0.37212253
1.2696549 -1.0571067 0.37212792
1.2698103 -1.0565687 0.37249991
1.2699763 -1.0561823 0.37278116
1.2697144 -1.0502791 0.3763561
1.2698985 -1.0502073 0.37644789
1.270083 -1.0501384 0.37653789
1.2702205 -1.0494875 0.37697488
1.2687449 -1.0289587 0.38926175
1.26893 -1.0291339 0.38920122
1.2691058 -1.0291958 0.38920838
1.2693111 -1.0296073 0.38900733
1.2694874 -1.0296686 0.38901493
1.2696739 -1.0298468 0.38895297
1.2698709 -1.0301423 0.38882139
1.270058 -1.0303196 0.38876021
1.2702352 -1.0303802 0.38876837
1.2704232 -1.0305601 0.38870579
1.2706329 -1.0309764 0.38850293
1.2733738 -1.0591716 0.37181163
1.2729845 -1.052788 0.37565026
1.2730331 -1.0512415 0.37661695
1.2732444 -1.0514584 0.37653759
1.2734563 -1.0516782 0.37645656
1.2736551 -1.0517552 0.37646022
1.2739248 -1.0525672 0.37602863
1.272844 -1.0395051 0.38380995
1.2730309 -1.0395731 0.38381618
1.2725143 -1.0325539 0.3880142
1.2726824 -1.0324956 0.38809344
1.2728497 -1.0324297 0.38817716
1.2730296 -1.0324887 0.38818705
1.2731472 -1.0319415 0.38855499
1.2730668 -1.029497 0.3900426
1.2750555 -1.0468494 0.37984794
1.2732847 -1.0283182 0.39082614
1.2734116 -1.0279132 0.39110872
1.2756999 -1.0476239 0.37953594
1.2759107 -1.0478368 0.3794589
1.2760758 -1.0476283 0.37963009
1.2739121 -1.0262905 0.3922388
1.2763889 -1.0470655 0.38005796
1.2765998 -1.0472765 0.37998205
1.2752976 -1.0340874 0.38778478
1.2755226 -1.0345223 0.3875744
1.2772844 -1.0483421 0.3795009
1.2761359 -1.0367839 0.38633686
1.2763814 -1.0373627 0.38604292
1.2778417 -1.0482727 0.37968725
1.2780049 -1.0480598 0.37986067
1.2781675 -1.0478452 0.38003489
1.2783301 -1.0476331 0.38020775
1.2785089 -1.0475588 0.38029957
1.2775472 -1.0381402 0.38586345
1.2777663 -1.0384647 0.38571966
1.2781646 -1.0402311 0.38473234
1.2785871 -1.0421643 0.38364825
1.2787783 -1.0422313 0.3836562
1.2789699 -1.0422988 0.38366392
1.2791783 -1.0424976 0.3835949
1.2787932 -1.0380723 0.38622624
1.2788478 -1.0371089 0.3868348
1.2790513 -1.037302 0.38676804
1.2794586 -1.0390466 0.38579646
1.2796823 -1.0393754 0.38565114
1.2798889 -1.0395725 0.38558277
1.2798176 -1.0376911 0.38672528
1.2800399 -1.0380127 0.38658407
1.2804754 -1.0399015 0.3855308
1.2806654 -1.0399674 0.38553908
1.2808372 -1.0399005 0.38562459
1.2809907 -1.0397025 0.38578629
1.2836356 -1.0573846 0.37555712
1.283756 -1.0568395 0.37592453
1.2814678 -1.0392402 0.38619447
1.2816948 -1.0395679 0.3860507
1.2818848 -1.0396336 0.38605911
1.2821424 -1.0401679 0.3857958
1.2851386 -1.0582387 0.37541717
1.2838863 -1.0483515 0.38119537
1.2840742 -1.0483453 0.38124758
1.2842954 -1.0485643 0.38116947
1.2856983 -1.0566906 0.37651664
1.2858133 -1.0561497 0.37688002
1.2847834 -1.0480429 0.38161683
1.2852017 -1.0495534 0.38079256
1.2854027 -1.0496261 0.38079944
1.2867632 -1.0572302 0.37645793
1.2862082 -1.0499176 0.38082707
1.1430721 -1.2007301 0.25090721
1.1434606 -1.2005101 0.25114301
1.1437155 -1.2007263 0.25107527
1.1441088 -1.2004896 0.25132257
1.1460668 -1.1971946 0.25386003
1.1464038 -1.1971319 0.25398552
1.1465735 -1.1976256 0.25372449
1.1769493 -1.0972129 0.32350528
1.177269 -1.096908 0.32377577
1.1774652 -1.0970163 0.32375944
1.1776625 -1.0971215 0.32374534
1.1778591 -1.09723 0.3237291
1.1781175 -1.0971292 0.32385775
1.1783738 -1.0970354 0.32398161
1.1785729 -1.097136 0.32397088
1.1787708 -1.0972415 0.3239567
1.178967 -1.0973535 0.32393816
1.1791636 -1.0974648 0.3239201
1.1793616 -1.0975718 0.32390511
1.1796191 -1.0974736 0.32403195
1.1798173 -1.0975804 0.32401708
1.1800159 -1.0976872 0.32400239
1.1802145 -1.0977942 0.32398754
1.1804134 -1.0979012 0.32397273
1.1806133 -1.0980053 0.32395998
1.1808136 -1.0981089 0.32394761
1.1810139 -1.0982124 0.32393542
1.1812721 -1.0981116 0.32406405
1.1815289 -1.0980147 0.32418996
1.1817291 -1.0981201 0.32417649
1.1819285 -1.0982289 0.32416072
1.1821274 -1.0983405 0.32414311
1.1823268 -1.0984505 0.32412654
1.1825857 -1.0983458 0.32425791
1.1827286 -1.0986619 0.32409966
1.1829294 -1.0987694 0.324085
1.18313 -1.0988784 0.32406938
1.1833876 -1.0987785 0.32419741
1.1835885 -1.0988872 0.32418209
1.1838474 -1.0987823 0.32431349
1.1841043 -1.0986841 0.32444021
1.1843053 -1.0987931 0.32442471
1.1845069 -1.0989008 0.32441017
1.1846513 -1.0992234 0.32424834
1.1847969 -1.099543 0.32408863
1.1849989 -1.0996532 0.32407266
1.185259 -1.0995439 0.3242071
1.1854608 -1.0996549 0.32419059
1.1857185 -1.0995543 0.32431909
1.1859208 -1.0996644 0.32430315
1.1861236 -1.0997739 0.32428786
1.186326 -1.0998855 0.32427117
1.1865863 -1.0997742 0.3244068
1.1867888 -1.0998861 0.32438996
1.1869916 -1.0999978 0.32437328
1.1871407 -1.1003196 0.32421309
1.1873441 -1.1004312 0.32419658
1.1876081 -1.1003058 0.32434195
1.1878115 -1.1004183 0.32432494
1.188015 -1.1005312 0.32430768
1.1882188 -1.1006434 0.32429099
1.1884229 -1.1007559 0.32427409
1.1886781 -1.1006644 0.32439631
1.1888825 -1.1007767 0.32437962
1.189146 -1.1006509 0.32452515
1.189314 -1.1009113 0.32440776
1.1895186 -1.1010246 0.32439053
1.1908582 -1.1012583 0.32459134
1.1910639 -1.101372 0.32457414
1.2535963 -1.038255 0.37962416
1.2537749 -1.0384402 0.37955582
1.2539538 -1.0385914 0.37950867
1.254048 -1.010811 0.39667422
1.2543621 -1.0514945 0.37165222
1.2545493 -1.0508405 0.37210396
1.2547463 -1.052083 0.37138802
1.2547837 -1.0066013 0.39946124
1.254933 -1.0065492 0.39953181
1.2550832 -1.0066028 0.39953741
1.2552335 -1.0066503 0.3995468
1.2553838 -1.0066966 0.39955696
1.2555364 -1.006925 0.39945534
1.2564613 -1.0664784 0.36294734
1.2566547 -1.0657204 0.36346486
1.2568594 -1.0658042 0.36346588
1.2570615 -1.0657214 0.36356902
1.2562634 -1.0055184 0.40051049
1.2571197 -1.0458457 0.37584788
1.2573012 -1.0456423 0.37602019
1.2574878 -1.0457104 0.37602615
1.2576745 -1.0457777 0.37603274
1.2578583 -1.0457079 0.37612313
1.2572415 -1.0093752 0.3983826
1.2573949 -1.0094216 0.39839351
1.2575485 -1.0094684 0.39840412
1.2576973 -1.0093278 0.39852929
1.2578509 -1.0093743 0.39854017
1.2592547 -1.0564032 0.36988357
1.2594519 -1.0564809 0.36988634
1.2596405 -1.0562515 0.37007642
1.2598376 -1.0563277 0.37008023
1.2600443 -1.0567142 0.36989495
1.2602469 -1.0569474 0.36980331
1.260445 -1.0570257 0.36980602
1.2591197 -1.010882 0.39793664
1.2611059 -1.0649869 0.36506382
1.2613195 -1.0652936 0.36492965
1.2592609 -1.0019068 0.40351096
1.259406 -1.0018919 0.40355751
1.2596551 -1.0046502 0.40191969
1.2597983 -1.004522 0.40203568
1.2599376 -1.0042999 0.4022086
1.260098 -1.0046108 0.40205809
1.2602479 -1.0046545 0.40206972
1.2606378 -1.0104038 0.39862269
1.2605252 -1.0042089 0.40241605
1.2606826 -1.0044285 0.40232113
1.2621002 -1.0327941 0.38518381
1.2622769 -1.0328577 0.3851901
1.2624197 -1.032191 0.38563818
1.2625901 -1.0321326 0.38571817
1.2627603 -1.0320711 0.38579991
1.2629304 -1.032009 0.38588208
1.2631005 -1.0319514 0.38596144
1.2632889 -1.03225 0.38582566
1.2634653 -1.0323094 0.38583446
1.2651348 -1.0605778 0.36882207
1.265321 -1.0603398 0.36901689
1.2639954 -1.032492 0.3858583
1.2641724 -1.0325545 0.38586536
1.2643425 -1.0324926 0.38594738
1.2645059 -1.032313 0.38610026
1.2646828 -1.0323738 0.38610831
1.2648599 -1.0324345 0.3861165
1.2650516 -1.0327364 0.38597953
1.265244 -1.033041 0.38584119
1.2654221 -1.0331043 0.38584799
1.2651322 -1.0257289 0.39032412
1.2652962 -1.0256754 0.39039943
1.2654674 -1.0257332 0.39040783
1.266135 -1.03335 0.38587996
1.2663052 -1.0332873 0.38596249
1.2664834 -1.0333445 0.38597307
1.2666203 -1.0327951 0.38634735
1.2667818 -1.0326159 0.38649949
1.2669599 -1.0326769 0.38650769
1.2671468 -1.0328605 0.38644257
1.2673342 -1.0330464 0.38637617
1.2675395 -1.0334735 0.38616547
1.2677459 -1.0339032 0.38595349
1.2679347 -1.0340884 0.38588792
1.2681237 -1.0342729 0.38582271
1.2673434 -1.0217874 0.39332563
1.2684551 -1.0340235 0.38606197
1.2677056 -1.0222234 0.39314991
1.2705207 -1.0556594 0.37324393
1.2680428 -1.022328 0.39317217
1.2709353 -1.0559683 0.37316015
1.2711623 -1.0563564 0.3729791
1.2714025 -1.0568963 0.37270784
1.2715918 -1.0568171 0.37280548
1.2717681 -1.0565848 0.37299421
1.2689648 -1.0215665 0.39387953
1.2691239 -1.0215117 0.39395434
1.2692924 -1.0215654 0.39396453
1.269442 -1.021404 0.39410269
1.2696009 -1.0213499 0.39417699
1.2730831 -1.0581448 0.37237036
1.2699579 -1.0216744 0.39406869
1.270147 -1.0219465 0.39394951
1.2729778 -1.0506456 0.37697044
1.2712444 -1.0301418 0.38917536
1.2714217 -1.0302005 0.38918489
1.2716105 -1.0303791 0.38912335
1.2717999 -1.0305598 0.38906059
1.272083 -1.0316981 0.38843116
1.2722503 -1.0316389 0.38851076
1.2724414 -1.0318197 0.38844842
1.2726449 -1.0321203 0.38831526
1.2728246 -1.0321819 0.38832366
1.2730042 -1.0322396 0.38833424
1.2753704 -1.0535421 0.37579939
1.2755401 -1.0533172 0.37598193
1.2734179 -1.031215 0.38907307
1.2736353 -1.0316362 0.38886908
1.2737894 -1.0314584 0.38901854
1.2740076 -1.0318774 0.38881612
1.2741482 -1.0315757 0.3890385
1.2743143 -1.0315108 0.38912135
1.2744675 -1.0313305 0.38927209
1.2752968 -1.0372379 0.38584062
1.2754964 -1.0374277 0.38577494
1.2756965 -1.0376195 0.38570812
1.275897 -1.0378113 0.38564143
1.2765363 -1.0418233 0.38333055
1.2767423 -1.0420259 0.38325852
1.2769331 -1.0420949 0.38326505
1.277108 -1.0420281 0.38335145
1.2756252 -1.0279611 0.39164925
1.2772354 -1.040033 0.38461527
1.2774404 -1.040233 0.38454461
1.2776772 -1.0406921 0.38432232
1.2778831 -1.0408921 0.38425198
1.2781221 -1.041358 0.38402608
1.2786827 -1.0444133 0.38228518
1.278911 -1.0447602 0.38212991
1.2791218 -1.0449636 0.38205874
1.2793515 -1.0453128 0.38190249
1.2795995 -1.0458013 0.3816649
1.2798665 -1.0464289 0.38134637
1.2799537 -1.0456593 0.38184375
1.2801306 -1.0455885 0.381933
1.2803078 -1.0455205 0.38202053
1.2805398 -1.0458683 0.38186574
1.2814028 -1.0509576 0.37894776
1.2816625 -1.05147 0.37869844
1.2818837 -1.0516911 0.37861907
1.2820654 -1.0516179 0.37871104
1.2820467 -1.0500779 0.37965634
1.2822266 -1.0500034 0.37974867
1.2807561 -1.0380085 0.38677123
1.2809626 -1.0382034 0.38670409
1.2811329 -1.038139 0.38678768
1.2813212 -1.0382016 0.38679755
1.2830442 -1.0490651 0.38053823
1.2832233 -1.0489936 0.38062844
1.2834229 -1.0490659 0.38063526
1.2836021 -1.0489949 0.3807252
1.2837809 -1.0489233 0.38081545
1.2841078 -1.0498619 0.38032046
1.284287 -1.0497873 0.38041267
1.2857409 -1.0556674 0.37715894
1.2859479 -1.0557445 0.37716463
1.1768888 -1.0974147 0.32336515
1.1772088 -1.0971099 0.32363561
1.1774631 -1.0970232 0.32375458
1.1776609 -1.097127 0.32374153
1.1778586 -1.0972316 0.32372788
1.1781149 -1.0971384 0.32385138
1.1783726 -1.0970396 0.32397875
1.1785704 -1.0971446 0.32396489
1.1787686 -1.0972492 0.32395145
1.1789663 -1.0973557 0.32393661
1.1791631 -1.0974665 0.32391891
1.1793607 -1.0975749 0.3239029
1.1795591 -1.0976813 0.32388848
1.1798179 -1.0975786 0.32401842
1.1800163 -1.0976859 0.32400328
1.1802146 -1.0977938 0.32398781
1.1804135 -1.0979011 0.32397285
1.1806123 -1.0980086 0.32395768
1.1808121 -1.0981138 0.32394427
1.1810694 -1.0980164 0.3240706
1.1813284 -1.0979115 0.32420206
1.181527 -1.0980216 0.32418522
1.1816692 -1.0983341 0.32402909
1.1818683 -1.0984448 0.32401201
1.1821249 -1.0983493 0.32413703
1.1823251 -1.0984564 0.32412255
1.1825273 -1.0985575 0.32411224
1.1827273 -1.0986665 0.32409644
1.182928 -1.0987746 0.32408145
1.183129 -1.098882 0.32406694
1.1833862 -1.0987841 0.3241936
1.1835872 -1.0988922 0.32417858
1.1838467 -1.0987849 0.32431167
1.1840481 -1.0988927 0.32429701
1.1842499 -1.0989991 0.32428333
1.1844522 -1.0991049 0.32427019
1.1846534 -1.099215 0.3242541
1.1849134 -1.0991057 0.32438844
1.1850586 -1.0994282 0.32422683
1.1852599 -1.0995401 0.32420966
1.1854615 -1.0996523 0.3241924
1.1856636 -1.0997634 0.32417586
1.185866 -1.099874 0.32415974
1.1860687 -1.0999846 0.32414371
1.1863298 -1.0998707 0.32428122
1.1865321 -1.0999831 0.32426402
1.1867892 -1.0998847 0.32439086
1.186992 -1.0999963 0.32437429
1.1871948 -1.1001087 0.32435712
1.1873978 -1.100221 0.32434011
1.1875478 -1.1005427 0.32418028
1.1877515 -1.1006546 0.32416373
1.1880151 -1.1005309 0.32430789
1.1882188 -1.1006436 0.32429081
1.1884227 -1.1007568 0.32427353
1.188627 -1.1008692 0.32425681
1.1888314 -1.1009816 0.32424006
1.1891096 -1.100798 0.32442498
1.189314 -1.1009113 0.32440776
1.1895186 -1.1010246 0.32439053
1.1897597 -1.1009903 0.3244738
1.1899647 -1.1011031 0.32445696
1.1901699 -1.1012158 0.3244403
1.1904476 -1.1010313 0.32462564
1.1906528 -1.1011448 0.32460847
1.1908582 -1.1012583 0.32459134
1.1910639 -1.101372 0.32457414
1.1912698 -1.1014857 0.32455695
1.2520307 -1.0583222 0.36683896
1.2522277 -1.0582503 0.366934
1.2524245 -1.0581739 0.36703181
1.2526206 -1.058253 0.36703345
1.2528157 -1.0586448 0.36684206
1.2530116 -1.0590389 0.36664927
1.2532082 -1.0594342 0.36645606
1.2534055 -1.0598328 0.36626083
1.2536033 -1.0600696 0.36616576
1.2538015 -1.0599904 0.36626557
1.2539994 -1.0599111 0.36636549
1.2541986 -1.060311 0.36617011
1.2543218 -1.0412815 0.37794361
1.2545033 -1.0413483 0.37794903
1.2546841 -1.0412825 0.3780362
1.2548648 -1.0412164 0.37812358
1.2550454 -1.0411502 0.37821093
1.2552292 -1.0414829 0.37805298
1.255415 -1.0419509 0.37781206
1.2557549 -1.0573205 0.36841613
1.2559497 -1.0572424 0.36851454
1.2559958 -1.0448738 0.37615812
1.2561902 -1.045642 0.37573415
1.2563821 -1.046129 0.37548319
1.2567441 -1.0580285 0.36823404
1.2569442 -1.0582644 0.36814001
1.2571422 -1.0583433 0.36814231
1.2573402 -1.0584211 0.36814529
1.2575328 -1.0581912 0.3683368
1.2577339 -1.0584254 0.36824399
1.2579386 -1.0588175 0.36805484
1.2581409 -1.0590574 0.36795896
1.2583332 -1.0588251 0.36815175
1.2583503 -1.0509895 0.372991
1.2585527 -1.0515049 0.37272507
1.2587452 -1.0515822 0.37272695
1.2589376 -1.0516539 0.37273231
1.259099 -1.0505512 0.37345427
1.2580029 -1.0038221 0.40200511
1.2581564 -1.0040408 0.40190971
1.2808179 -1.771608 -0.065864891
1.2586056 -1.009136 0.39888155
1.2587563 -1.0090885 0.39894962
1.2600956 -1.0461247 0.37644222
1.2599591 -1.0363463 0.38244054
1.2606871 -1.0526191 0.37258732
1.2608916 -1.0529896 0.37241137
1.2605147 -1.0370463 0.38215172
1.2606946 -1.0371103 0.38215858
1.2608271 -1.035907 0.3829352
1.261006 -1.0359675 0.38294393
1.2611802 -1.0359056 0.38302702
1.2613137 -1.0348369 0.38372082
1.2614918 -1.0348978 0.3837291
1.2619307 -1.0411615 0.37997723
1.2619466 -1.0373077 0.38235918
1.262144 -1.0377548 0.38213423
1.2623252 -1.0378193 0.38214111
1.2624947 -1.0376273 0.38230318
1.2626935 -1.0380718 0.3820802
1.2628752 -1.0381368 0.38208681
1.263301 -1.0432457 0.37904415
1.2634611 -1.0427748 0.37937596
1.2637013 -1.0439188 0.37873194
1.2638887 -1.0439873 0.37873799
1.2640762 -1.0440539 0.37874511
1.2642422 -1.0437123 0.37899864
1.2644292 -1.0437746 0.37900841
1.264565 -1.0428975 0.37958455
1.2647519 -1.0429666 0.37959006
1.2649388 -1.0430355 0.37959564
1.2651337 -1.0432386 0.37952048
