# .PCD v0.7 - Point Cloud Data file format
VERSION 0.7
FIELDS x y z
SIZE 4 4 4
TYPE F F F
COUNT 1 1 1
WIDTH 1269
HEIGHT 1
VIEWPOINT 0 0 0 1 0 0 0
POINTS 1269
DATA ascii
-0.04957144 -0.04953862 -0.1772463
-0.049572848 -0.04961222 -0.177264
-0.04957426 -0.049685821 -0.17728169
-0.049576901 -0.04976194 -0.17727546
-0.049579348 -0.049837969 -0.17727324
-0.049581699 -0.049913965 -0.17727301
-0.049583461 -0.049989693 -0.17728475
-0.049585264 -0.050063465 -0.17729446
-0.049587611 -0.050139457 -0.17729422
-0.049589571 -0.050215274 -0.17730197
-0.04959102 -0.050286915 -0.17731762
-0.049592882 -0.050362691 -0.17732738
-0.049595427 -0.050438765 -0.17732313
-0.049598224 -0.050516926 -0.17731497
-0.049600966 -0.050593093 -0.17730674
-0.049604606 -0.0506736 -0.17728263
-0.049607702 -0.050751891 -0.17726848
-0.049609601 -0.050825708 -0.17727616
-0.049611948 -0.050901696 -0.17727594
-0.049615979 -0.050982378 -0.17724383
-0.049619623 -0.051062889 -0.17721973
-0.049622167 -0.051138967 -0.1772155
-0.049624223 -0.051214822 -0.17722127
-0.04962628 -0.051290683 -0.17722702
-0.049628571 -0.051364675 -0.17722674
-0.049631856 -0.051443055 -0.17720857
-0.049634464 -0.05152113 -0.17720439
-0.049636167 -0.051594861 -0.17721608
-0.049638223 -0.051670719 -0.17722185
-0.049640767 -0.051746793 -0.17721762
-0.049642861 -0.051820699 -0.17722133
-0.049644236 -0.051896252 -0.17724106
-0.049645584 -0.051967859 -0.17725872
-0.049648091 -0.052045885 -0.17725652
-0.049652904 -0.052126918 -0.17720845
-0.049656097 -0.05220525 -0.1771923
-0.049658798 -0.052283369 -0.1771861
-0.049661733 -0.052359618 -0.17717388
-0.049664535 -0.052437782 -0.17716572
-0.049667276 -0.052513946 -0.17715749
-0.049669527 -0.052589893 -0.17715925
-0.049671233 -0.052663624 -0.17717096
-0.049673386 -0.052739523 -0.17717472
-0.049675833 -0.052815557 -0.17717248
-0.049678281 -0.05289159 -0.17717025
-0.04968112 -0.052967798 -0.17716002
-0.049684562 -0.05304822 -0.17713991
-0.049688146 -0.05312673 -0.17711577
-0.049691532 -0.053205155 -0.17709559
-0.049693979 -0.053281184 -0.17709337
-0.049695779 -0.05335496 -0.17710307
-0.049697544 -0.053430688 -0.17711481
-0.049699735 -0.053504635 -0.17711654
-0.049703475 -0.053585187 -0.17709044
-0.049706664 -0.053663522 -0.17707427
-0.049709309 -0.053739645 -0.17706804
-0.049712498 -0.05381798 -0.17705187
-0.049715336 -0.053894185 -0.17704165
-0.049717039 -0.053967915 -0.17705336
-0.049719293 -0.054043859 -0.17705512
-0.049723618 -0.054124676 -0.17701703
-0.049727298 -0.054203227 -0.17699088
-0.049729001 -0.054276958 -0.17700258
-0.049730569 -0.054352596 -0.17701831
-0.049732663 -0.054426506 -0.17702204
-0.049735308 -0.054502621 -0.17701581
-0.049737655 -0.054578613 -0.17701557
-0.049739908 -0.054654561 -0.17701733
-0.049742807 -0.054732766 -0.17700717
-0.049744997 -0.054806717 -0.17700888
-0.04974715 -0.054882616 -0.17701262
-0.049749404 -0.05495856 -0.1770144
-0.049751107 -0.055032291 -0.17702609
-0.049753066 -0.055108108 -0.17703386
-0.049755611 -0.055184186 -0.17702961
-0.049757805 -0.055258133 -0.17703134
-0.049759861 -0.055333994 -0.17703709
-0.049761467 -0.055407681 -0.1770508
-0.049763072 -0.055481367 -0.17706449
-0.049765225 -0.055557266 -0.17706826
-0.049767222 -0.055631131 -0.17707396
-0.049769081 -0.0557069 -0.17708372
-0.049771179 -0.055780806 -0.17708743
-0.049773332 -0.055856708 -0.17709118
-0.049775779 -0.055932742 -0.17708895
-0.049778324 -0.056008816 -0.17708473
-0.049780577 -0.056084763 -0.17708649
-0.049782477 -0.05615858 -0.17709419
-0.049784534 -0.056234442 -0.17709994
-0.049786881 -0.05631043 -0.1770997
-0.049789719 -0.056386635 -0.17708948
-0.049792264 -0.056462713 -0.17708525
-0.049794517 -0.05653866 -0.17708702
-0.049797062 -0.056614734 -0.17708281
-0.049799412 -0.056690723 -0.17708257
-0.049801309 -0.056764543 -0.17709027
-0.049803659 -0.056840532 -0.17709003
-0.049806401 -0.056916695 -0.17708181
-0.049809396 -0.056994945 -0.17706963
-0.049812526 -0.057071283 -0.17705342
-0.049815815 -0.05714966 -0.17703527
-0.049818851 -0.057225958 -0.17702106
-0.049821004 -0.057301857 -0.17702481
-0.049822513 -0.057375502 -0.17704052
-0.049824215 -0.057449233 -0.1770522
-0.049827054 -0.057525437 -0.17704198
-0.049830537 -0.057603903 -0.17701983
-0.049832594 -0.057679765 -0.17702559
-0.04983465 -0.057755623 -0.17703134
-0.049837235 -0.057829745 -0.17702506
-0.049839389 -0.057905648 -0.17702883
-0.049841445 -0.057981506 -0.17703459
-0.04984428 -0.058057714 -0.17702436
-0.049847219 -0.058133963 -0.17701215
-0.049849764 -0.058210041 -0.17700791
-0.049851857 -0.058283944 -0.17701164
-0.049854659 -0.058362104 -0.17700346
-0.049858082 -0.058438577 -0.17698124
-0.04986186 -0.058517173 -0.17695311
-0.049865246 -0.05859559 -0.17693293
-0.049867243 -0.058669455 -0.17693865
-0.049869396 -0.058745354 -0.17694241
-0.049872234 -0.058821563 -0.17693219
-0.049874879 -0.058897682 -0.17692596
-0.04987707 -0.058971629 -0.17692769
-0.049879324 -0.05904758 -0.17692944
-0.049881771 -0.059123609 -0.17692721
-0.049885195 -0.059200078 -0.17690501
-0.049889714 -0.059280977 -0.17686293
-0.049892943 -0.059357356 -0.17684472
-0.04989465 -0.059431087 -0.17685641
-0.049896706 -0.059506945 -0.17686218
-0.049899288 -0.059581067 -0.17685589
-0.049901638 -0.05965706 -0.17685567
-0.049904086 -0.059733093 -0.17685343
-0.049906377 -0.059807085 -0.17685315
-0.049908724 -0.059883073 -0.17685291
-0.049911465 -0.059959237 -0.17684469
-0.049914852 -0.060037658 -0.17682454
-0.049917594 -0.060113821 -0.17681631
-0.049920272 -0.060187988 -0.17680803
-0.049923074 -0.060266148 -0.17679986
-0.049925264 -0.060340095 -0.17680158
-0.049927711 -0.060416128 -0.17679936
-0.049929809 -0.060490035 -0.17680305
-0.049931511 -0.060563765 -0.17681476
-0.049934212 -0.060641885 -0.17680858
-0.049936797 -0.060716003 -0.17680231
-0.049939439 -0.060792126 -0.17679608
-0.049943022 -0.060870633 -0.17677192
-0.049945898 -0.060944885 -0.17675966
-0.049947955 -0.061020743 -0.17676541
-0.049950205 -0.061096691 -0.17676717
-0.049953241 -0.061172985 -0.17675295
-0.049956273 -0.061249278 -0.17673874
-0.049958564 -0.06132327 -0.17673847
-0.049960621 -0.061399128 -0.17674422
-0.049963105 -0.061473206 -0.17673996
-0.049966689 -0.061551712 -0.17671579
-0.049970698 -0.061628446 -0.17668161
-0.049973734 -0.061704736 -0.17666739
-0.049976863 -0.061781071 -0.17665118
-0.049980581 -0.061857671 -0.17662299
-0.049984261 -0.061936226 -0.17659684
-0.049987979 -0.062012821 -0.17656864
-0.049991503 -0.062089331 -0.17654444
-0.049994536 -0.062165625 -0.17653023
-0.049996532 -0.062239487 -0.17653593
-0.049998492 -0.062315304 -0.1765437
-0.050001428 -0.062391553 -0.17653146
-0.050005145 -0.062468152 -0.17650327
-0.050009608 -0.06254705 -0.17646115
-0.050013073 -0.062621564 -0.1764369
-0.050015714 -0.062697686 -0.17643067
-0.050017964 -0.06277363 -0.17643243
-0.050020449 -0.062847711 -0.17642817
-0.050023288 -0.062923916 -0.17641795
-0.050026126 -0.06300012 -0.17640772
-0.050028417 -0.063074112 -0.17640743
-0.050031159 -0.063150279 -0.17639922
-0.050039686 -0.063232958 -0.17627525
-0.050044443 -0.063311987 -0.17622712
-0.050047867 -0.063388452 -0.17620492
-0.050050803 -0.063464701 -0.1761927
-0.05005417 -0.063539177 -0.17617047
-0.050059117 -0.063618295 -0.17611834
-0.050062642 -0.063694805 -0.17609414
-0.050065126 -0.063768879 -0.17608985
-0.050067768 -0.063845001 -0.17608365
-0.050070547 -0.063919209 -0.17607337
-0.050077163 -0.063999064 -0.1759873
-0.050082013 -0.064078137 -0.17593719
-0.050084598 -0.064152263 -0.17593092
-0.050087336 -0.064228423 -0.17592269
-0.050090019 -0.064302593 -0.17591444
-0.050092503 -0.064376667 -0.17591015
-0.050095834 -0.064453095 -0.17588994
-0.050099354 -0.064529598 -0.17586574
-0.050101995 -0.06460572 -0.17585951
-0.050104383 -0.064679757 -0.17585725
-0.050107554 -0.064754136 -0.17583898
-0.050112311 -0.064833172 -0.17579088
-0.050116457 -0.064907983 -0.17575264
-0.050119784 -0.064984411 -0.17573243
-0.05012276 -0.065058708 -0.17571817
-0.050125696 -0.065134957 -0.17570594
-0.050128475 -0.065209165 -0.17569569
-0.050130375 -0.065282978 -0.17570339
-0.050132331 -0.065358795 -0.17571115
-0.050135013 -0.065432958 -0.17570287
-0.050136913 -0.065506779 -0.17571059
-0.050138127 -0.065580294 -0.17573225
-0.050139148 -0.065653719 -0.17575794
-0.050139423 -0.065724842 -0.17579757
-0.050139759 -0.065797962 -0.17583722
-0.050139934 -0.065869041 -0.17587884
-0.050139979 -0.065942034 -0.17592448
-0.050139043 -0.066014595 -0.17599012
-0.050137363 -0.066084847 -0.17606968
-0.05013328 -0.066152059 -0.17619711
-0.049652066 -0.045851763 -0.17739508
-0.049655262 -0.045930099 -0.17737892
-0.049659453 -0.046012823 -0.17734486
-0.049663197 -0.046093374 -0.17731875
-0.049664613 -0.046166971 -0.17733645
-0.049665127 -0.046236224 -0.17737004
-0.049667932 -0.046314389 -0.17736185
-0.049671222 -0.046392769 -0.1773437
-0.049673378 -0.046468671 -0.17734745
-0.049675733 -0.04654466 -0.17734721
-0.049678832 -0.046622954 -0.17733306
-0.049681537 -0.046701074 -0.17732686
-0.049684085 -0.046777148 -0.17732264
-0.049686283 -0.046851099 -0.17732435
-0.049688596 -0.046929039 -0.17732617
-0.049691342 -0.047005203 -0.17731793
-0.049693853 -0.047083236 -0.17731574
-0.049695756 -0.047157049 -0.17732346
-0.049697269 -0.047230698 -0.17733914
-0.049698975 -0.047304425 -0.17735085
-0.049702466 -0.047382891 -0.17732869
-0.049707752 -0.047470048 -0.17727476
-0.0497103 -0.047546122 -0.17727053
-0.049711812 -0.047619767 -0.17728622
-0.049713716 -0.047693584 -0.17729393
-0.04971607 -0.047769573 -0.1772937
-0.049718775 -0.047847688 -0.17728752
-0.049720287 -0.047921337 -0.17730321
-0.049721353 -0.047992807 -0.17732686
-0.049723256 -0.048066624 -0.17733456
-0.049725864 -0.048144698 -0.17733037
-0.049730349 -0.048227552 -0.17729034
-0.049733445 -0.048305843 -0.17727616
-0.049734704 -0.048377402 -0.1772958
-0.04973612 -0.048450999 -0.17731351
-0.04973818 -0.048526861 -0.17731926
-0.049740434 -0.048602808 -0.17732102
-0.049742047 -0.048676495 -0.17733473
-0.04974395 -0.048750311 -0.17734243
-0.049746107 -0.048826214 -0.17734617
-0.049748752 -0.048902333 -0.17733996
-0.049752008 -0.048982669 -0.17732383
-0.049755495 -0.049061134 -0.17730168
-0.049758043 -0.049137212 -0.17729744
-0.0497602 -0.049213111 -0.17730121
-0.049762849 -0.049289234 -0.17729497
-0.049765456 -0.049367309 -0.1772908
-0.04976707 -0.049440995 -0.17730449
-0.049768131 -0.049512468 -0.17732814
-0.049769543 -0.049586065 -0.17734581
-0.049770959 -0.049659666 -0.17736351
-0.049773023 -0.049735524 -0.17736927
-0.049775474 -0.049811561 -0.17736703
-0.049778022 -0.049887635 -0.17736281
-0.04978057 -0.049963713 -0.17735857
-0.049783178 -0.050041787 -0.1773544
-0.049785629 -0.050117821 -0.17735216
-0.049787886 -0.050193764 -0.17735392
-0.049789689 -0.05026754 -0.17736363
-0.049791653 -0.050343357 -0.17737138
-0.049793556 -0.05041717 -0.17737907
-0.049796458 -0.050495379 -0.17736891
-0.049799945 -0.050573841 -0.17734677
-0.049803238 -0.050652221 -0.17732859
-0.049807526 -0.050734989 -0.17729254
-0.049810626 -0.05081328 -0.17727837
-0.04981298 -0.050889272 -0.17727815
-0.049815234 -0.050965216 -0.1772799
-0.049818076 -0.051041424 -0.17726967
-0.049820978 -0.051119626 -0.1772595
-0.049823135 -0.051195532 -0.17726326
-0.049824942 -0.051269308 -0.17727298
-0.049827099 -0.051345207 -0.17727673
-0.049830038 -0.051421456 -0.1772645
-0.049833138 -0.051499747 -0.17725034
-0.049835294 -0.051575653 -0.1772541
-0.049837649 -0.051651642 -0.17725387
-0.0498401 -0.051727675 -0.17725162
-0.049841516 -0.051801272 -0.17726931
-0.04984244 -0.051874656 -0.177297
-0.049843892 -0.051946305 -0.17731264
-0.049846504 -0.052024379 -0.17730847
-0.049850538 -0.052105062 -0.17727636
-0.049854867 -0.052185871 -0.17723829
-0.049857866 -0.05226412 -0.17722611
-0.049860414 -0.052340195 -0.17722186
-0.049862962 -0.052416272 -0.17721765
-0.04986522 -0.05249222 -0.17721941
-0.049867123 -0.052566037 -0.17722711
-0.049868636 -0.052639678 -0.1772428
-0.049870148 -0.05271332 -0.17725851
-0.049872305 -0.052789226 -0.17726226
-0.049875304 -0.052867472 -0.17725009
-0.049880024 -0.05294846 -0.17720401
-0.049883023 -0.053026706 -0.17719184
-0.049885768 -0.05310287 -0.17718363
-0.049888767 -0.053181119 -0.17717144
-0.049891766 -0.053259369 -0.17715928
-0.049894314 -0.053335443 -0.17715505
-0.049896568 -0.053411391 -0.17715681
-0.049898669 -0.053485297 -0.17716052
-0.049900729 -0.053561155 -0.17716627
-0.049902987 -0.053637102 -0.17716804
-0.049907312 -0.053717911 -0.17712995
-0.049911737 -0.053798765 -0.17708987
-0.049914289 -0.053874843 -0.17708564
-0.049916837 -0.053950921 -0.17708141
-0.049918897 -0.054026779 -0.17708716
-0.049920607 -0.054100506 -0.17709886
-0.049923703 -0.0541788 -0.17708468
-0.049926545 -0.054255009 -0.17707446
-0.049928155 -0.054328695 -0.17708816
-0.049929276 -0.054402165 -0.17711183
-0.049932316 -0.054478459 -0.17709763
-0.049935117 -0.054556619 -0.17708945
-0.049937472 -0.054632608 -0.17708921
-0.049940117 -0.05470873 -0.17708299
-0.049942765 -0.054784849 -0.17707676
-0.049945019 -0.054860793 -0.17707852
-0.049947083 -0.054936655 -0.17708428
-0.049949277 -0.055010602 -0.177086
-0.049951434 -0.055086505 -0.17708975
-0.049953498 -0.055162363 -0.17709552
-0.049955498 -0.055236224 -0.17710122
-0.049957462 -0.055312037 -0.17710897
-0.049959462 -0.055385903 -0.1771147
-0.049961329 -0.055461675 -0.17712443
-0.049963132 -0.055535447 -0.17713413
-0.049966071 -0.0556117 -0.17712192
-0.04996917 -0.055689991 -0.17710775
-0.049970038 -0.055761375 -0.17713538
-0.049970377 -0.055834495 -0.17717505
-0.049972281 -0.055908315 -0.17718275
-0.049975123 -0.055984519 -0.17717251
-0.04997861 -0.056062985 -0.17715037
-0.049981646 -0.056139279 -0.17713615
-0.049983706 -0.056215137 -0.1771419
-0.049985416 -0.056288868 -0.17715362
-0.049987573 -0.056364771 -0.17715737
-0.049990319 -0.056440935 -0.17714915
-0.049992964 -0.056517053 -0.17714292
-0.049995769 -0.056595214 -0.17713474
-0.049998123 -0.056671206 -0.1771345
-0.049999282 -0.05674272 -0.17715615
-0.050000951 -0.056818403 -0.17716989
-0.050004479 -0.056894917 -0.17714569
-0.050007768 -0.056973293 -0.17712751
-0.05001032 -0.057049371 -0.17712329
-0.050012477 -0.057125274 -0.17712705
-0.050014928 -0.057201307 -0.17712483
-0.050016928 -0.057275169 -0.17713052
-0.050018989 -0.057351027 -0.17713627
-0.050021831 -0.057427235 -0.17712606
-0.050024576 -0.057503395 -0.17711784
-0.050026931 -0.057579387 -0.1771176
-0.050029185 -0.057655334 -0.17711936
-0.050031833 -0.057731453 -0.17711313
-0.05003532 -0.057809919 -0.17709097
-0.050038651 -0.05788634 -0.17707077
-0.050041452 -0.057964504 -0.17706259
-0.050042868 -0.058038104 -0.17708027
-0.050044674 -0.058111876 -0.17708999
-0.050047517 -0.058188085 -0.17707977
-0.050050553 -0.058264378 -0.17706555
-0.050053649 -0.058342669 -0.17705138
-0.050056688 -0.058418963 -0.17703715
-0.050059628 -0.058495212 -0.17702495
-0.050062567 -0.058571465 -0.17701273
-0.050065212 -0.05864758 -0.17700651
-0.050067764 -0.058723658 -0.17700227
-0.050070312 -0.058799736 -0.17699805
-0.050073057 -0.058875896 -0.17698982
-0.050075896 -0.058952104 -0.1769796
-0.050078154 -0.059028052 -0.17698136
-0.050080311 -0.059103955 -0.17698511
-0.050083641 -0.059180379 -0.17696491
-0.05008629 -0.059256498 -0.17695868
-0.050088838 -0.059332576 -0.17695445
-0.050092559 -0.059409171 -0.17692626
-0.050096046 -0.059487637 -0.17690411
-0.050098401 -0.059563626 -0.17690387
-0.050100401 -0.059637487 -0.17690957
-0.050102558 -0.05971339 -0.17691334
-0.050104659 -0.059787296 -0.17691705
-0.050106913 -0.05986324 -0.1769188
-0.050108917 -0.059937101 -0.17692451
-0.050111368 -0.060013134 -0.17692228
-0.050114404 -0.060089428 -0.17690808
-0.05011715 -0.060165592 -0.17689985
-0.050119892 -0.060241751 -0.17689162
-0.050123028 -0.06031809 -0.17687541
-0.050125185 -0.060393993 -0.17687917
-0.050127342 -0.060469896 -0.17688292
-0.05012954 -0.060543843 -0.17688464
-0.050131798 -0.06061979 -0.17688639
-0.05013454 -0.060695954 -0.17687817
-0.050137579 -0.060772244 -0.17686397
-0.050141104 -0.060848758 -0.17683975
-0.050144628 -0.060925268 -0.17681555
-0.050147433 -0.061003428 -0.17680737
-0.050149824 -0.061077464 -0.17680511
-0.050151981 -0.061153367 -0.17680886
-0.050154276 -0.061227359 -0.17680857
-0.050157119 -0.061303563 -0.17679836
-0.05015957 -0.061379597 -0.17679612
-0.050161961 -0.061453629 -0.17679384
-0.050164863 -0.061531834 -0.17678367
-0.050168682 -0.061608478 -0.17675348
-0.05017221 -0.061684988 -0.17672928
-0.050175343 -0.061761323 -0.17671305
-0.050178871 -0.061837833 -0.17668885
-0.050182648 -0.06191643 -0.17666072
-0.050185882 -0.061992809 -0.17664251
-0.050188761 -0.062067062 -0.17663023
-0.050191604 -0.06214327 -0.17662001
-0.050194152 -0.062219344 -0.17661577
-0.050197776 -0.062295899 -0.17658958
-0.050201751 -0.062374581 -0.17655745
-0.050204437 -0.062448747 -0.17654917
-0.050206792 -0.062524736 -0.17654893
-0.050209478 -0.062598899 -0.17654067
-0.050212573 -0.06267719 -0.17652649
-0.050215747 -0.062751576 -0.17650823
-0.050219078 -0.062827997 -0.17648803
-0.050222211 -0.062904336 -0.17647183
-0.050224662 -0.062980369 -0.17646959
-0.050227053 -0.063054405 -0.1764673
-0.05023019 -0.063130736 -0.17645109
-0.050233424 -0.06320712 -0.17643289
-0.050242793 -0.063292146 -0.17629299
-0.050246414 -0.0633687 -0.17626679
-0.050249942 -0.06344521 -0.17624259
-0.050253857 -0.063521892 -0.1762104
-0.05025699 -0.06359823 -0.17619419
-0.050259676 -0.063672394 -0.17618591
-0.050262813 -0.063748732 -0.17616969
-0.050266825 -0.063825458 -0.17613553
-0.050269667 -0.063901663 -0.17612529
-0.050273292 -0.063978218 -0.17609909
-0.050277989 -0.064055249 -0.17605093
-0.050280929 -0.064131498 -0.17603871
-0.050283909 -0.064205796 -0.17602444
-0.050287727 -0.064282432 -0.17599426
-0.050291251 -0.06435895 -0.17597005
-0.050294876 -0.064435497 -0.17594385
-0.050297659 -0.064509712 -0.17593358
-0.05030001 -0.064585701 -0.17593336
-0.050302893 -0.064659953 -0.17592108
-0.050306905 -0.064736679 -0.1758869
-0.050311312 -0.064813577 -0.17584473
-0.050314091 -0.064887784 -0.17583446
-0.050316837 -0.064963952 -0.17582622
-0.050319817 -0.065038249 -0.17581198
-0.050323144 -0.06511467 -0.17579177
-0.050326478 -0.06519109 -0.17577156
-0.05032916 -0.065265253 -0.17576328
-0.050331358 -0.065339208 -0.17576499
-0.050333455 -0.06541311 -0.17576872
-0.050335359 -0.065486923 -0.17577642
-0.050337166 -0.065560699 -0.17578612
-0.050338678 -0.06563434 -0.17580181
-0.0503399 -0.065707855 -0.17582351
-0.050340142 -0.065780938 -0.17586517
-0.050338272 -0.065851107 -0.17594871
-0.05033832 -0.065924093 -0.17599437
-0.050338309 -0.06599509 -0.17603998
-0.050336599 -0.066067301 -0.17612156
-0.050334729 -0.06613747 -0.17620513
-0.049869157 -0.045838229 -0.17740324
-0.049870573 -0.045911826 -0.17742094
-0.049871836 -0.045983389 -0.17744058
-0.049874738 -0.04606159 -0.17743041
-0.049879029 -0.046144359 -0.17739436
-0.049881291 -0.046220303 -0.17739612
-0.049883548 -0.04629625 -0.17739788
-0.049885649 -0.046370156 -0.1774016
-0.049888007 -0.046446145 -0.17740136
-0.049890362 -0.046522133 -0.17740113
-0.049893267 -0.046600334 -0.17739095
-0.049896169 -0.046678543 -0.17738077
-0.049898524 -0.046754532 -0.17738053
-0.049901269 -0.046830695 -0.17737231
-0.049904078 -0.046908855 -0.17736414
-0.049906787 -0.046986975 -0.17735794
-0.049909044 -0.047062922 -0.1773597
-0.049911302 -0.04713887 -0.17736147
-0.049913015 -0.047212597 -0.17737317
-0.049914628 -0.047286283 -0.17738688
-0.049917277 -0.047362402 -0.17738064
-0.049920924 -0.047442913 -0.17735654
-0.049923826 -0.047521114 -0.17734636
-0.049925633 -0.04759489 -0.17735606
-0.049928147 -0.04767292 -0.17735387
-0.049931187 -0.047749214 -0.17733966
-0.049933251 -0.047825076 -0.17734541
-0.049934864 -0.047898762 -0.1773591
-0.049936771 -0.047972579 -0.17736682
-0.049941063 -0.048055343 -0.17733078
-0.049944062 -0.048133597 -0.1773186
-0.049945772 -0.048207324 -0.1773303
-0.049946997 -0.048280835 -0.17735198
-0.049948454 -0.04835248 -0.17736763
-0.049950615 -0.048428386 -0.1773714
-0.04995342 -0.048506543 -0.17736322
-0.049955677 -0.048582491 -0.17736498
-0.04995729 -0.048656181 -0.17737868
-0.04995871 -0.048729777 -0.17739636
-0.049960714 -0.048803642 -0.17740208
-0.049963519 -0.048881803 -0.17739391
-0.049966812 -0.048960179 -0.17737573
-0.049969424 -0.049038254 -0.17737156
-0.049971879 -0.049114287 -0.17736931
-0.049974136 -0.049190234 -0.17737108
-0.049976688 -0.049266309 -0.17736685
-0.049979493 -0.049344473 -0.17735866
-0.0499814 -0.049418289 -0.17736638
-0.049982913 -0.049491934 -0.17738208
-0.049984783 -0.049567707 -0.17739183
-0.049986981 -0.049641654 -0.17739353
-0.049989238 -0.049717598 -0.1773953
-0.049991302 -0.049793459 -0.17740105
-0.049993016 -0.049867187 -0.17741275
-0.04999508 -0.049943049 -0.1774185
-0.049997337 -0.050018996 -0.17742027
-0.050000142 -0.050097156 -0.17741209
-0.050003182 -0.050173447 -0.17739788
-0.050005734 -0.050249524 -0.17739365
-0.0500076 -0.050325297 -0.17740339
-0.050009213 -0.050398983 -0.1774171
-0.050011277 -0.050474845 -0.17742285
-0.050014473 -0.05055318 -0.17740668
-0.050018061 -0.050631687 -0.17738253
-0.050021902 -0.05071228 -0.17735443
-0.050025098 -0.050790615 -0.17733826
-0.050027259 -0.050866522 -0.177342
-0.050029419 -0.050942421 -0.17734577
-0.050032616 -0.051020756 -0.1773296
-0.050035618 -0.051099006 -0.17731743
-0.050037429 -0.051172778 -0.17732713
-0.050039586 -0.051248685 -0.17733088
-0.050042335 -0.051324844 -0.17732266
-0.050044592 -0.051400792 -0.17732443
-0.050047204 -0.051478866 -0.17732024
-0.050050244 -0.05155516 -0.17730603
-0.050053146 -0.051633365 -0.17729585
-0.050055794 -0.051709484 -0.17728963
-0.050058153 -0.051785473 -0.1772894
-0.050059728 -0.051861115 -0.17730513
-0.050060891 -0.051932633 -0.17732677
-0.050062854 -0.052008446 -0.17733452
-0.050066248 -0.052086867 -0.17731436
-0.050070673 -0.052167725 -0.17727427
-0.050073579 -0.05224593 -0.17726409
-0.05007603 -0.052321963 -0.17726186
-0.050078291 -0.052397907 -0.17726362
-0.050080393 -0.052471813 -0.17726734
-0.050082747 -0.052547801 -0.1772671
-0.050085261 -0.052625835 -0.17726491
-0.050087713 -0.052701864 -0.17726269
-0.050090365 -0.052777983 -0.17725645
-0.050093208 -0.052854192 -0.17724623
-0.05009611 -0.052932397 -0.17723605
-0.050099406 -0.053010773 -0.1772179
-0.050101858 -0.053086806 -0.17721567
-0.050104409 -0.053162888 -0.17721143
-0.050107412 -0.053241134 -0.17719924
-0.050110061 -0.053317253 -0.17719302
-0.050112318 -0.0533932 -0.17719479
-0.050114579 -0.053469144 -0.17719655
-0.05011658 -0.053543005 -0.17720225
-0.050118741 -0.053618908 -0.17720602
-0.05012149 -0.053695071 -0.17719778
-0.050125722 -0.05377584 -0.17716169
-0.050129954 -0.053856604 -0.1771256
-0.050132662 -0.053934723 -0.17711943
-0.050134469 -0.054008499 -0.17712912
-0.05013673 -0.054084443 -0.17713089
-0.050139181 -0.054160476 -0.17712866
-0.050141282 -0.054234382 -0.17713237
-0.050143052 -0.054310113 -0.17714411
-0.050145313 -0.054386057 -0.17714588
-0.050148252 -0.054462306 -0.17713365
-0.05015184 -0.054540813 -0.17710951
-0.050154392 -0.054616891 -0.17710528
-0.050156455 -0.054692749 -0.17711103
-0.050159104 -0.054768868 -0.1771048
-0.050161559 -0.054844901 -0.17710257
-0.050163329 -0.054920632 -0.17711431
-0.050165236 -0.054994449 -0.17712203
-0.050167296 -0.055070307 -0.17712778
-0.050169203 -0.055144124 -0.17713548
-0.050171014 -0.055217899 -0.17714518
-0.050173175 -0.055293802 -0.17714894
-0.050175432 -0.05536975 -0.1771507
-0.050177336 -0.055443563 -0.17715842
-0.050179694 -0.055519555 -0.17715818
-0.050182246 -0.055595629 -0.17715394
-0.050184697 -0.055671662 -0.17715171
-0.050186507 -0.055745438 -0.17716141
-0.050187983 -0.055821039 -0.17717916
-0.050189793 -0.055894811 -0.17718884
-0.050192051 -0.055970758 -0.1771906
-0.050194897 -0.056046963 -0.17718039
-0.050197348 -0.056122996 -0.17717816
-0.050199412 -0.056198854 -0.17718391
-0.050201319 -0.056272671 -0.17719162
-0.05020348 -0.056348573 -0.17719539
-0.050205484 -0.056422435 -0.17720109
-0.050207838 -0.056498423 -0.17720085
-0.05021039 -0.056574501 -0.17719662
-0.050212454 -0.056650359 -0.17720237
-0.05021397 -0.056724004 -0.17721808
-0.050216034 -0.056799863 -0.17722383
-0.050219912 -0.0568785 -0.17719369
-0.050223108 -0.056956839 -0.17717752
-0.050225407 -0.057030827 -0.17717722
-0.050227568 -0.05710673 -0.17718099
-0.050229825 -0.057182677 -0.17718276
-0.050231926 -0.057256579 -0.17718646
-0.050234284 -0.057332568 -0.17718622
-0.05023738 -0.057410859 -0.17717206
-0.050239872 -0.05748494 -0.17716777
-0.050241936 -0.057560798 -0.17717354
-0.050244197 -0.057636745 -0.17717531
-0.050247293 -0.057715036 -0.17716113
-0.050250333 -0.05779133 -0.17714691
-0.050253469 -0.057867669 -0.1771307
-0.050256021 -0.057943743 -0.17712647
-0.050258376 -0.058019731 -0.17712623
-0.050261028 -0.05809585 -0.17712
-0.050264224 -0.058174185 -0.17710385
-0.050267458 -0.058250569 -0.17708562
-0.050270401 -0.058326818 -0.1770734
-0.05027305 -0.058402937 -0.17706719
-0.050275698 -0.058479056 -0.17706095
-0.050278641 -0.058555305 -0.17704873
-0.050281581 -0.058631554 -0.17703652
-0.050284777 -0.05870989 -0.17702034
-0.05028772 -0.058786139 -0.17700812
-0.050290175 -0.058862172 -0.17700589
-0.050292335 -0.058938079 -0.17700964
-0.05029463 -0.059012067 -0.17700937
-0.050297279 -0.059088185 -0.17700315
-0.050299928 -0.059164308 -0.17699692
-0.050302871 -0.059240557 -0.1769847
-0.05030591 -0.059316851 -0.17697048
-0.050308265 -0.05939284 -0.17697024
-0.050311111 -0.059469044 -0.17696002
-0.050314795 -0.059547596 -0.17693385
-0.050317444 -0.059623718 -0.17692766
-0.050319351 -0.059697535 -0.17693534
-0.050321158 -0.059771307 -0.17694506
-0.050323416 -0.059847254 -0.17694682
-0.050325673 -0.059923202 -0.17694858
-0.050328225 -0.059999276 -0.17694435
-0.050330874 -0.060075395 -0.17693812
-0.050333366 -0.060149476 -0.17693384
-0.05033676 -0.060227897 -0.17691368
-0.050340191 -0.060304366 -0.17689148
-0.05034196 -0.060380094 -0.17690322
-0.050343864 -0.06045391 -0.17691094
-0.050346613 -0.060530074 -0.17690271
-0.050349552 -0.060606323 -0.17689049
-0.050352104 -0.060682401 -0.17688625
-0.050353818 -0.060756128 -0.17689794
-0.050356172 -0.060832117 -0.17689772
-0.050359502 -0.060908541 -0.1768775
-0.050362252 -0.060984705 -0.17686927
-0.050365191 -0.061060954 -0.17685707
-0.05036784 -0.061137073 -0.17685083
-0.050370138 -0.061211064 -0.17685056
-0.050372884 -0.061287228 -0.17684233
-0.050375339 -0.061363261 -0.1768401
-0.05037744 -0.061437167 -0.17684381
-0.050380282 -0.061513372 -0.17683358
-0.050384164 -0.061592013 -0.17680344
-0.050388373 -0.061668824 -0.17676526
-0.050392937 -0.061747767 -0.17672113
-0.050397012 -0.061826494 -0.176687
-0.050399758 -0.061902657 -0.17667878
-0.050401021 -0.061974216 -0.17669842
-0.050402984 -0.06205003 -0.17670617
-0.050405733 -0.062126193 -0.17669794
-0.050409064 -0.062202618 -0.17667773
-0.05041308 -0.062279344 -0.17664354
-0.050416607 -0.062355854 -0.17661935
-0.050419744 -0.062432192 -0.17660314
-0.050422687 -0.062508442 -0.1765909
-0.050425529 -0.062584646 -0.1765807
-0.050428472 -0.062660895 -0.17656846
-0.050431453 -0.062735192 -0.1765542
-0.050434198 -0.06281136 -0.17654598
-0.050437238 -0.062887646 -0.17653176
-0.050440669 -0.062964119 -0.17650956
-0.050443221 -0.063040189 -0.17650533
-0.050445322 -0.063114099 -0.17650905
-0.050448067 -0.063190259 -0.17650083
-0.050456889 -0.063273065 -0.17637086
-0.05046444 -0.063355312 -0.17626686
-0.05046748 -0.063431606 -0.17625263
-0.05046948 -0.063505463 -0.17625836
-0.050471779 -0.063579455 -0.17625807
-0.05047521 -0.06365592 -0.17623587
-0.050478444 -0.063732304 -0.17621765
-0.050480798 -0.063808292 -0.17621744
-0.050483096 -0.063882284 -0.17621714
-0.050487209 -0.063959055 -0.17618096
-0.050492749 -0.064038433 -0.17611685
-0.050496276 -0.064114943 -0.17609265
-0.050499998 -0.064191535 -0.17606446
-0.050503563 -0.064266093 -0.17603821
-0.0505068 -0.064342476 -0.17602
-0.050509546 -0.064418636 -0.17601177
-0.05051272 -0.064493015 -0.17599352
-0.050516248 -0.064569525 -0.17596933
-0.050518934 -0.064643696 -0.17596105
-0.05052178 -0.0647199 -0.17595083
-0.050525501 -0.064796492 -0.17592263
-0.050529812 -0.064873353 -0.17588246
-0.050534021 -0.064950168 -0.17584427
-0.050536808 -0.065024376 -0.175834
-0.0505393 -0.06509845 -0.17582974
-0.050542142 -0.065174662 -0.1758195
-0.050545219 -0.065248996 -0.17580324
-0.050547868 -0.065325119 -0.17579702
-0.050549775 -0.065398932 -0.17580473
-0.050551388 -0.065472625 -0.17581841
-0.050552905 -0.065546267 -0.17583412
-0.050554223 -0.065619826 -0.17585379
-0.050555546 -0.065693378 -0.17587349
-0.050556865 -0.065766938 -0.17589319
-0.050556954 -0.065837972 -0.17593679
-0.050556228 -0.065910622 -0.17599842
-0.050555632 -0.065981351 -0.176056
-0.050554708 -0.066053912 -0.17612162
-0.050550345 -0.066120997 -0.17625506
-0.050548483 -0.066191167 -0.17633861
-0.050153632 -0.045826837 -0.1774323
-0.050157279 -0.045907348 -0.17740819
-0.050160475 -0.045985684 -0.17739202
-0.050163474 -0.04606393 -0.17737985
-0.050166827 -0.046144307 -0.17736173
-0.050169673 -0.046220519 -0.1773515
-0.050172281 -0.046298593 -0.17734732
-0.050175026 -0.046374753 -0.17733911
-0.050178379 -0.04645513 -0.17732097
-0.050181028 -0.046531249 -0.17731476
-0.050182447 -0.046604849 -0.17733245
-0.050183766 -0.046678405 -0.17735213
-0.050185964 -0.046752356 -0.17735383
-0.050189219 -0.046832688 -0.17733774
-0.050191868 -0.046908807 -0.17733149
-0.050193578 -0.046982538 -0.17734319
-0.050195541 -0.047058351 -0.17735094
-0.050197702 -0.047134258 -0.17735471
-0.050199706 -0.047208115 -0.17736042
-0.05020345 -0.047288671 -0.17733431
-0.050207742 -0.047371432 -0.17729826
-0.050209645 -0.047445253 -0.17730597
-0.050211903 -0.047521196 -0.17730772
-0.050214551 -0.047597319 -0.1773015
-0.050216515 -0.047673132 -0.17730924
-0.050218578 -0.04774899 -0.177315
-0.050220583 -0.047822855 -0.17732072
-0.050221901 -0.047896408 -0.17734042
-0.050223161 -0.04796797 -0.17736006
-0.050225224 -0.048043825 -0.17736581
-0.050229065 -0.048124421 -0.17733771
-0.050232809 -0.048204973 -0.1773116
-0.050234713 -0.04827879 -0.1773193
-0.050236482 -0.048354518 -0.17733105
-0.050238192 -0.048428252 -0.17734274
-0.050239805 -0.048501939 -0.17735645
-0.050241418 -0.048575625 -0.17737013
-0.050243482 -0.048651487 -0.17737591
-0.050245192 -0.04872521 -0.1773876
-0.050246902 -0.048798945 -0.17739931
-0.050248805 -0.048872761 -0.177407
-0.050252061 -0.048953094 -0.17739087
-0.050256293 -0.049033862 -0.17735478
-0.050258845 -0.049109939 -0.17735057
-0.050261103 -0.049185887 -0.17735232
-0.050262969 -0.049261659 -0.17736207
-0.050264582 -0.049335346 -0.17737576
-0.050267231 -0.049411464 -0.17736953
-0.050270975 -0.049492016 -0.17734343
-0.050272841 -0.049567789 -0.17735317
-0.050273553 -0.049637131 -0.17738277
-0.050275419 -0.049712904 -0.17739251
-0.050277874 -0.049788937 -0.17739028
-0.050280873 -0.049867183 -0.17737812
-0.050283678 -0.049945347 -0.17736994
-0.050285779 -0.050019249 -0.17737365
-0.050287548 -0.050094977 -0.17738539
-0.05028965 -0.050168883 -0.1773891
-0.050291713 -0.050244741 -0.17739485
-0.050293773 -0.050320603 -0.17740062
-0.050295971 -0.05039455 -0.17740232
-0.050298974 -0.050472796 -0.17739016
-0.050302815 -0.050553389 -0.17736205
-0.050306011 -0.050631724 -0.17734587
-0.05030901 -0.050709974 -0.17733371
-0.050311659 -0.050786093 -0.17732748
-0.050313622 -0.05086191 -0.17733523
-0.050315529 -0.05093573 -0.17734294
-0.050318141 -0.051013801 -0.17733875
-0.050320592 -0.051089834 -0.17733651
-0.05032295 -0.051165823 -0.17733628
-0.050325852 -0.051244028 -0.17732611
-0.050329436 -0.051322538 -0.17730196
-0.050333023 -0.051401049 -0.1772778
-0.050335634 -0.051479124 -0.17727362
-0.050337635 -0.051552981 -0.17727932
-0.05034015 -0.051631015 -0.17727713
-0.050342504 -0.051707003 -0.17727691
-0.050344959 -0.05178304 -0.17727467
-0.050347313 -0.051859029 -0.17727442
-0.05034912 -0.051932801 -0.17728412
-0.050350986 -0.052008573 -0.17729388
-0.050353732 -0.052084737 -0.17728566
-0.050357964 -0.052165501 -0.17724955
-0.050360769 -0.052243665 -0.17724138
-0.050363712 -0.052319914 -0.17722917
-0.050366711 -0.052398164 -0.17721699
-0.05036936 -0.052474283 -0.17721076
-0.050371617 -0.05255023 -0.17721252
-0.050373778 -0.052626133 -0.17721629
-0.050376523 -0.052702293 -0.17720807
-0.050379232 -0.052780412 -0.17720187
-0.050381783 -0.05285649 -0.17719766
-0.050383881 -0.052930392 -0.17720136
-0.050386589 -0.053008512 -0.17719518
-0.050389823 -0.053084891 -0.17717697
-0.050392434 -0.053162966 -0.17717278
-0.050394788 -0.053238954 -0.17717254
-0.050397731 -0.053315207 -0.17716032
-0.050400827 -0.053393498 -0.17714617
-0.050403379 -0.053469576 -0.17714193
-0.050406281 -0.053547777 -0.17713174
-0.050409224 -0.053624026 -0.17711954
-0.050411873 -0.053700149 -0.17711329
-0.05041448 -0.053778224 -0.17710912
-0.050416876 -0.053852256 -0.17710684
-0.050419487 -0.053930331 -0.17710266
-0.050422132 -0.054006454 -0.17709643
-0.05042449 -0.054082442 -0.17709619
-0.050426845 -0.054158431 -0.17709595
-0.050429396 -0.054234508 -0.17709172
-0.050431751 -0.054310497 -0.17709148
-0.050433364 -0.054384183 -0.17710519
-0.050435815 -0.054460213 -0.17710295
-0.050438818 -0.054538466 -0.17709078
-0.050441209 -0.054612502 -0.1770885
-0.050443076 -0.054688275 -0.17709824
-0.050445333 -0.054764219 -0.17710002
-0.050447728 -0.054838255 -0.17709774
-0.050450437 -0.054916371 -0.17709154
-0.050452985 -0.054992445 -0.17708732
-0.050454699 -0.055066176 -0.17709902
-0.050456565 -0.055141948 -0.17710876
-0.050458565 -0.055215813 -0.17711447
-0.050460532 -0.055291627 -0.17712224
-0.050462436 -0.055365443 -0.17712994
-0.050464988 -0.055441521 -0.17712571
-0.050468378 -0.055519942 -0.17710555
-0.050469991 -0.055593628 -0.17711926
-0.050470922 -0.055667013 -0.17714691
-0.050471984 -0.055738483 -0.17717056
-0.050473657 -0.055814169 -0.1771843
-0.050476402 -0.055890329 -0.17717609
-0.050479736 -0.055966757 -0.17715587
-0.050482541 -0.056044918 -0.17714769
-0.050485089 -0.056120992 -0.17714345
-0.050487544 -0.056197025 -0.17714122
-0.050489351 -0.056270801 -0.17715093
-0.050491162 -0.056344576 -0.17716062
-0.050493419 -0.05642052 -0.17716239
-0.050495967 -0.056496598 -0.17715816
-0.050498031 -0.056572452 -0.17716391
-0.050499644 -0.056646142 -0.17717761
-0.050501354 -0.056719873 -0.17718932
-0.050503414 -0.056795731 -0.17719507
-0.05050626 -0.056871939 -0.17718485
-0.050509553 -0.056950316 -0.17716669
-0.050512396 -0.057026524 -0.17715645
-0.050514847 -0.057102554 -0.17715424
-0.050517205 -0.057178546 -0.17715399
-0.050520048 -0.057254754 -0.17714377
-0.050522853 -0.057332914 -0.17713559
-0.050525405 -0.057408988 -0.17713135
-0.05052815 -0.057485156 -0.17712313
-0.050530896 -0.057561316 -0.1771149
-0.050534226 -0.05763774 -0.1770947
-0.050537229 -0.05771599 -0.17708254
-0.050539132 -0.057789803 -0.17709023
-0.050541196 -0.057865664 -0.17709598
-0.050543748 -0.057941742 -0.17709176
-0.050546493 -0.058017902 -0.17708354
-0.050549041 -0.05809398 -0.17707929
-0.0505514 -0.058169968 -0.17707908
-0.0505534 -0.05824383 -0.17708477
-0.050555758 -0.058319818 -0.17708454
-0.050559185 -0.058396287 -0.17706233
-0.050563417 -0.058477055 -0.17702624
-0.050566945 -0.058553565 -0.17700204
-0.050570432 -0.058632031 -0.17697988
-0.050572887 -0.058708064 -0.17697765
-0.050574888 -0.058781926 -0.17698336
-0.050577439 -0.058858 -0.17697912
-0.050580479 -0.058934294 -0.17696491
-0.050582539 -0.059010152 -0.17697066
-0.050584346 -0.059083927 -0.17698038
-0.050587386 -0.059160221 -0.17696616
-0.050590582 -0.059238553 -0.17694998
-0.050592877 -0.059312545 -0.17694971
-0.050595235 -0.059388533 -0.17694947
-0.050598528 -0.059466913 -0.17693131
-0.050602056 -0.059543423 -0.17690709
-0.050604802 -0.059619587 -0.17689887
-0.05060735 -0.059695665 -0.17689465
-0.050608866 -0.059769306 -0.17691034
-0.050610576 -0.059843037 -0.17692204
-0.050613418 -0.059919246 -0.17691183
-0.050616067 -0.059995364 -0.17690559
-0.050618421 -0.060071353 -0.17690536
-0.050620973 -0.060147427 -0.17690113
-0.050624304 -0.060223855 -0.17688091
-0.050627735 -0.06030032 -0.17685872
-0.050629698 -0.060376137 -0.17686646
-0.050631508 -0.060449909 -0.17687616
-0.050633959 -0.060525943 -0.17687394
-0.050635766 -0.060599715 -0.17688364
-0.050637089 -0.060673274 -0.17690334
-0.050639346 -0.060749218 -0.1769051
-0.050642483 -0.060825557 -0.17688888
-0.05064562 -0.060901891 -0.17687267
-0.050648913 -0.060980272 -0.17685449
-0.050652049 -0.061056606 -0.17683828
-0.050654598 -0.061132684 -0.17683405
-0.050656892 -0.061206676 -0.17683376
-0.050660029 -0.061283015 -0.17681757
-0.050662678 -0.06135913 -0.17681132
-0.050664488 -0.061432905 -0.17682102
-0.050666746 -0.061508849 -0.17682278
-0.050670858 -0.06158562 -0.1767866
-0.050674833 -0.061664306 -0.17675446
-0.050677676 -0.06174051 -0.17674425
-0.050681107 -0.061816975 -0.17672205
-0.050685767 -0.061895967 -0.17667592
-0.050689779 -0.061972693 -0.17664173
-0.050692234 -0.062048726 -0.17663948
-0.050693944 -0.062122457 -0.17665119
-0.050695948 -0.062196314 -0.1766569
-0.050698303 -0.062272303 -0.17665666
-0.050701343 -0.062348597 -0.17664245
-0.050705358 -0.062425327 -0.17660826
-0.050709821 -0.062504224 -0.17656612
-0.050712861 -0.062580518 -0.17655191
-0.050716192 -0.062656939 -0.1765317
-0.050718877 -0.062731102 -0.17652345
-0.050721623 -0.062807269 -0.17651522
-0.050724272 -0.062883392 -0.17650898
-0.050727054 -0.0629576 -0.17649871
-0.050731033 -0.063036278 -0.17646657
-0.05073534 -0.063113138 -0.1764264
-0.050739162 -0.063189775 -0.17639619
-0.050742883 -0.063266374 -0.176368
-0.050747346 -0.063345276 -0.17632587
-0.050751656 -0.063422129 -0.17628568
-0.05075489 -0.063498512 -0.17626747
-0.050758515 -0.063575067 -0.17624128
-0.050762821 -0.063651919 -0.17620111
-0.050766155 -0.063728347 -0.1761809
-0.050768998 -0.063804552 -0.17617068
-0.05077149 -0.063878633 -0.17616639
-0.050774135 -0.063954748 -0.17616016
-0.050778542 -0.064031653 -0.17611799
-0.050784372 -0.064111158 -0.17604789
-0.050788291 -0.06418784 -0.1760157
-0.050791562 -0.064262263 -0.17599547
-0.050794408 -0.064338475 -0.17598523
-0.050796993 -0.064412594 -0.17597896
-0.050799642 -0.064488716 -0.17597273
-0.050802428 -0.064562924 -0.17596246
-0.050805271 -0.064639129 -0.17595226
-0.05080815 -0.064713381 -0.17593998
-0.05081246 -0.064790234 -0.1758998
-0.050817061 -0.064867228 -0.17585364
-0.050820589 -0.064943738 -0.17582943
-0.050823372 -0.065017946 -0.17581916
-0.050826214 -0.065094151 -0.17580894
-0.050829001 -0.065168358 -0.17579867
-0.050831687 -0.065242521 -0.1757904
-0.050833747 -0.065318383 -0.17579615
-0.05083546 -0.065392114 -0.17580785
-0.050837267 -0.065465882 -0.17581755
-0.050838683 -0.065539487 -0.17583525
-0.050839514 -0.065612823 -0.17586493
-0.050840933 -0.065686427 -0.17588261
-0.050842155 -0.065759942 -0.1759043
-0.050843123 -0.065831363 -0.17592993
-0.050842881 -0.06590423 -0.17598158
-0.05084293 -0.065977223 -0.17602722
-0.05084214 -0.06604787 -0.17608881
-0.050839595 -0.066117734 -0.17618634
-0.05083435 -0.066184431 -0.17633775
-0.050504733 -0.04583583 -0.17733878
-0.05050822 -0.045914296 -0.17731664
-0.050509926 -0.045988023 -0.17732832
-0.050511889 -0.04606384 -0.17733608
-0.050515085 -0.046142176 -0.17731991
-0.050518729 -0.046222683 -0.1772958
-0.050521825 -0.046300977 -0.17728163
-0.050524175 -0.046376966 -0.17728141
-0.050526723 -0.046453044 -0.17727716
-0.050529432 -0.046531159 -0.17727098
-0.050532077 -0.046607278 -0.17726475
-0.050534878 -0.046685442 -0.17725658
-0.050537232 -0.046761431 -0.17725635
-0.050539292 -0.046837293 -0.1772621
-0.05054155 -0.046913236 -0.17726386
-0.050543647 -0.046987139 -0.17726757
-0.050545413 -0.04706287 -0.17727932
-0.05054722 -0.047136642 -0.17728902
-0.050549317 -0.047210548 -0.17729273
-0.050550986 -0.047286235 -0.17730647
-0.050554376 -0.047364656 -0.17728633
-0.050559506 -0.047449768 -0.17723434
-0.050562505 -0.047528017 -0.17722216
-0.050564505 -0.047601879 -0.17722788
-0.05056582 -0.047675434 -0.17724757
-0.05056753 -0.047749165 -0.17725927
-0.050569139 -0.047822852 -0.17727296
-0.050570946 -0.047896624 -0.17728266
-0.050573554 -0.047974702 -0.17727849
-0.050576199 -0.048050821 -0.17727226
-0.050579391 -0.048129156 -0.17725608
-0.05058239 -0.048207402 -0.17724392
-0.0505841 -0.048281133 -0.17725562
-0.050585512 -0.048354737 -0.1772733
-0.050587866 -0.048430726 -0.17727306
-0.05058977 -0.048504539 -0.17728078
-0.050591186 -0.048578143 -0.17729847
-0.050592698 -0.048651785 -0.17731416
-0.05059411 -0.048725385 -0.17733186
-0.050595429 -0.048798941 -0.17735155
-0.050596684 -0.048870504 -0.17737119
-0.050600134 -0.048950922 -0.17735109
-0.050604265 -0.049031645 -0.17731699
-0.050606813 -0.049107723 -0.17731276
-0.050609421 -0.049185798 -0.17730856
-0.050612617 -0.049264133 -0.17729239
-0.050615065 -0.049340166 -0.17729017
-0.05061648 -0.049413767 -0.17730786
-0.050618384 -0.049487583 -0.17731556
-0.050620094 -0.049561314 -0.17732726
-0.050621312 -0.049634829 -0.17734894
-0.050624214 -0.04971303 -0.17733878
-0.050626859 -0.049789153 -0.17733255
-0.050629504 -0.049865272 -0.17732632
-0.050632406 -0.049943477 -0.17731614
-0.050635111 -0.050021596 -0.17730996
-0.050637562 -0.050097629 -0.17730772
-0.050639816 -0.050173573 -0.1773095
-0.05064217 -0.050249562 -0.17730926
-0.050643977 -0.050323337 -0.17731896
-0.050645486 -0.050396983 -0.17733465
-0.050647549 -0.050472841 -0.17734042
-0.050650388 -0.050549045 -0.1773302
-0.050653838 -0.050629467 -0.17731008
-0.050657131 -0.050707847 -0.1772919
-0.050659481 -0.050783835 -0.17729168
-0.050662775 -0.050862215 -0.17727351
-0.050666809 -0.050942898 -0.17724141
-0.050668515 -0.051016629 -0.17725311
-0.050670281 -0.051092356 -0.17726487
-0.050673418 -0.051168695 -0.17724864
-0.050677255 -0.051249288 -0.17722055
-0.050679959 -0.051327407 -0.17721437
-0.05068206 -0.05140131 -0.17721808
-0.050684217 -0.051477212 -0.17722183
-0.050686765 -0.051553287 -0.1772176
-0.050689667 -0.051631495 -0.17720743
-0.050692216 -0.051707573 -0.17720319
-0.050693922 -0.051781304 -0.17721489
-0.050695885 -0.051857118 -0.17722264
-0.050698042 -0.05193302 -0.17722641
-0.050699752 -0.052006751 -0.17723811
-0.050701909 -0.052082654 -0.17724186
-0.050705884 -0.052161336 -0.17720973
-0.050710369 -0.05224419 -0.17716968
-0.050713502 -0.052320525 -0.17715347
-0.050716206 -0.052398644 -0.1771473
-0.050718561 -0.052474633 -0.17714706
-0.050721109 -0.052550711 -0.17714283
-0.050723463 -0.052626699 -0.17714259
-0.050725363 -0.052700516 -0.17715029
-0.050728071 -0.052778639 -0.17714411
-0.050731204 -0.05285497 -0.1771279
-0.050734401 -0.052933306 -0.17711172
-0.050737593 -0.053011641 -0.17709556
-0.050740238 -0.053087763 -0.17708933
-0.050742298 -0.053163622 -0.1770951
-0.050744262 -0.053239439 -0.17710283
-0.050746456 -0.053313386 -0.17710456
-0.05074881 -0.053389374 -0.17710432
-0.05075087 -0.053465232 -0.17711008
-0.050753225 -0.053541224 -0.17710984
-0.050755575 -0.053617217 -0.17710961
-0.05075822 -0.053693332 -0.17710337
-0.050761513 -0.053771712 -0.17708522
-0.050764356 -0.053847916 -0.177075
-0.05076706 -0.053926036 -0.17706881
-0.050770294 -0.054002415 -0.17705061
-0.05077339 -0.05408071 -0.17703643
-0.050775193 -0.054154482 -0.17704614
-0.050777059 -0.054230258 -0.1770559
-0.05077906 -0.054304115 -0.17706159
-0.050781023 -0.054379933 -0.17706935
-0.050783865 -0.054456141 -0.17705911
-0.050787546 -0.054534692 -0.17703298
-0.050791129 -0.054613203 -0.17700882
-0.050793737 -0.054691274 -0.17700464
-0.050795544 -0.054765049 -0.17701434
-0.050797347 -0.054838821 -0.17702404
-0.050799213 -0.054914594 -0.17703378
-0.050801117 -0.054988414 -0.1770415
-0.050803371 -0.055064358 -0.17704326
-0.050805822 -0.055140391 -0.17704102
-0.05080802 -0.055214338 -0.17704275
-0.050811309 -0.055292718 -0.17702457
-0.050814502 -0.055371054 -0.17700842
-0.050816309 -0.055444829 -0.17701811
-0.050817236 -0.05551821 -0.17704579
-0.050818395 -0.055589728 -0.17706743
-0.050820358 -0.055665541 -0.17707519
-0.050823297 -0.055741791 -0.17706296
-0.050826199 -0.055819996 -0.1770528
-0.050827064 -0.05589138 -0.17708042
-0.050828967 -0.055965196 -0.17708813
-0.050831322 -0.056041189 -0.1770879
-0.050833087 -0.056116916 -0.17709965
-0.050835442 -0.056192905 -0.17709941
-0.050838184 -0.056269072 -0.17709118
-0.050841026 -0.056345277 -0.17708096
-0.05084338 -0.056421265 -0.17708072
-0.050845381 -0.056495126 -0.17708643
-0.050847888 -0.05657316 -0.17708424
-0.050849989 -0.056647062 -0.17708796
-0.050851304 -0.056720618 -0.17710763
-0.05085272 -0.056794219 -0.17712533
-0.050855268 -0.056870297 -0.1771211
-0.05085846 -0.056948632 -0.17710495
-0.050861303 -0.057024837 -0.17709471
-0.050863851 -0.057100914 -0.1770905
-0.050866008 -0.057176817 -0.17709425
-0.050867911 -0.057250634 -0.17710194
-0.050869718 -0.057324409 -0.17711166
-0.050872717 -0.057402655 -0.17709948
-0.050876047 -0.05747908 -0.17707926
-0.050878108 -0.057554938 -0.17708503
-0.050880007 -0.057628758 -0.17709273
-0.050884336 -0.057709567 -0.17705464
-0.050888214 -0.057788208 -0.1770245
-0.050890215 -0.057862066 -0.17703021
-0.050892763 -0.057938144 -0.17702597
-0.050895408 -0.058014266 -0.17701975
-0.050897665 -0.05809021 -0.17702152
-0.050899666 -0.058164071 -0.17702723
-0.05090192 -0.058240015 -0.17702898
-0.05090531 -0.05831844 -0.17700882
-0.050909285 -0.058397122 -0.17697668
-0.050912321 -0.058473416 -0.17696247
-0.050915066 -0.058549579 -0.17695424
-0.050917808 -0.058625743 -0.17694601
-0.05092065 -0.058701947 -0.17693579
-0.050923783 -0.058778286 -0.17691958
-0.050926138 -0.058854274 -0.17691934
-0.050927944 -0.05892805 -0.17692904
-0.050930295 -0.059004039 -0.17692882
-0.050933138 -0.059080243 -0.1769186
-0.050935782 -0.059156366 -0.17691237
-0.050938431 -0.059232485 -0.17690614
-0.05094137 -0.059308734 -0.17689392
-0.050944407 -0.059385028 -0.1768797
-0.050947346 -0.059461277 -0.17686749
-0.050950736 -0.059539698 -0.17684731
-0.050953478 -0.059615865 -0.17683908
-0.050955184 -0.059689593 -0.1768508
-0.050957087 -0.059763409 -0.1768585
-0.050959244 -0.059839312 -0.17686225
-0.050961696 -0.059915345 -0.17686003
-0.050964732 -0.059991639 -0.17684582
-0.050967768 -0.060067933 -0.17683159
-0.050970417 -0.060144052 -0.17682537
-0.050972417 -0.060217913 -0.17683107
-0.050974671 -0.060293861 -0.17683282
-0.050976831 -0.06036976 -0.17683659
-0.050979026 -0.060443707 -0.17683831
-0.050981477 -0.060519744 -0.17683607
-0.050983772 -0.060593732 -0.17683579
-0.050986122 -0.060669724 -0.17683557
-0.050988965 -0.060745928 -0.17682534
-0.050992098 -0.060822267 -0.17680913
-0.050995134 -0.060898557 -0.17679492
-0.050997879 -0.060974725 -0.17678669
-0.051000915 -0.061051019 -0.17677248
-0.051003076 -0.061126918 -0.17677623
-0.051004976 -0.061200738 -0.17678392
-0.051007722 -0.061276902 -0.17677569
-0.051010758 -0.061353192 -0.17676149
-0.051013246 -0.061427273 -0.17675722
-0.051015697 -0.061503306 -0.17675498
-0.051019769 -0.061582029 -0.17672084
-0.051023297 -0.061658539 -0.17669663
-0.051026136 -0.061734747 -0.17668641
-0.051030442 -0.061811604 -0.17664623
-0.05103432 -0.061890244 -0.17661609
-0.051036417 -0.061964147 -0.1766198
-0.051038422 -0.062038008 -0.17662551
-0.051040772 -0.062114 -0.17662528
-0.05104332 -0.062190074 -0.17662105
-0.051045712 -0.062264111 -0.17661877
-0.051048651 -0.06234036 -0.17660654
-0.051053409 -0.062419388 -0.17655843
-0.051057715 -0.062496245 -0.17651825
-0.051061496 -0.062574841 -0.1764901
-0.051064726 -0.062651224 -0.17647189
-0.051067509 -0.062725432 -0.17646161
-0.051070057 -0.06280151 -0.17645739
-0.051072605 -0.062877581 -0.17645316
-0.05107519 -0.062951706 -0.17644688
-0.051077936 -0.063027866 -0.17643866
-0.051080972 -0.06310416 -0.17642444
-0.051085863 -0.063181281 -0.17637229
-0.051091891 -0.063260876 -0.1762982
-0.051098954 -0.063342899 -0.17620419
-0.051102575 -0.063419454 -0.17617798
-0.051105905 -0.063495874 -0.17615779
-0.051109429 -0.063572392 -0.17613359
-0.051112115 -0.063646555 -0.1761253
-0.05111447 -0.063722543 -0.17612508
-0.051117603 -0.063798882 -0.17610887
-0.051121812 -0.063875698 -0.17607068
-0.051125571 -0.063950337 -0.17604044
-0.051128998 -0.064026803 -0.17601824
-0.051132329 -0.064103231 -0.17599803
-0.051135559 -0.064179607 -0.17597982
-0.051139086 -0.064256117 -0.17595562
