# .PCD v0.7 - Point Cloud Data file format
VERSION 0.7
FIELDS x y z
SIZE 4 4 4
TYPE F F F
COUNT 1 1 1
WIDTH 1268
HEIGHT 1
VIEWPOINT 0 0 0 1 0 0 0
POINTS 1268
DATA ascii
-0.039880715 -0.087692462 -0.18729904
-0.039883722 -0.087770715 -0.18728687
-0.039886881 -0.087851003 -0.18727274
-0.039890081 -0.087929338 -0.18725657
-0.039892852 -0.088009454 -0.18725044
-0.039895199 -0.088091351 -0.18725431
-0.039897382 -0.088171206 -0.18726017
-0.039899435 -0.088252977 -0.18727005
-0.039901581 -0.088334784 -0.18727794
-0.039903767 -0.088414647 -0.18728378
-0.039906207 -0.088496588 -0.18728566
-0.039908491 -0.088576488 -0.18728954
-0.03991054 -0.088658251 -0.1872994
-0.03991263 -0.088738069 -0.18730724
-0.039914679 -0.088819839 -0.18731713
-0.039916631 -0.088901564 -0.18732902
-0.039918587 -0.088983282 -0.1873409
-0.039920732 -0.089065105 -0.18734878
-0.039922588 -0.089146778 -0.18736266
-0.039924674 -0.089226596 -0.18737051
-0.039926823 -0.089308411 -0.18737838
-0.039928973 -0.089390218 -0.18738627
-0.039931118 -0.089472026 -0.18739417
-0.039932877 -0.089553669 -0.18741003
-0.039934635 -0.089635313 -0.18742591
-0.039935961 -0.089718729 -0.18745181
-0.039936997 -0.089802019 -0.18748373
-0.039938658 -0.089883611 -0.18750158
-0.039939653 -0.08996886 -0.18753552
-0.039941315 -0.090050459 -0.18755341
-0.039943032 -0.090134054 -0.18757132
-0.03994479 -0.09021569 -0.1875872
-0.039946645 -0.090297371 -0.18760109
-0.039948598 -0.090379097 -0.18761295
-0.039950255 -0.090460688 -0.18763083
-0.039951742 -0.090546153 -0.18765479
-0.039953403 -0.090627752 -0.18767266
-0.039955746 -0.090709649 -0.18767655
-0.03995803 -0.090789549 -0.18768041
-0.039960273 -0.090871409 -0.18768629
-0.039962325 -0.090953171 -0.18769616
-0.039964471 -0.091034979 -0.18770406
-0.039966755 -0.091114886 -0.1877079
-0.039969429 -0.091194957 -0.18770376
-0.039971869 -0.091276899 -0.18770567
-0.039974019 -0.091358714 -0.18771355
-0.039975874 -0.091440395 -0.18772742
-0.039977591 -0.09152399 -0.18774533
-0.039978627 -0.091607273 -0.18777725
-0.039980385 -0.091688916 -0.18779312
-0.03998312 -0.091770992 -0.18778902
-0.039985597 -0.091850974 -0.18778887
-0.039987646 -0.091932744 -0.18779877
-0.039989989 -0.092014641 -0.18780264
-0.039992567 -0.092094667 -0.1878005
-0.039994948 -0.092174612 -0.18780234
-0.039997388 -0.092256553 -0.18780425
-0.03999944 -0.092338324 -0.18781415
-0.040001784 -0.09242022 -0.18781802
-0.040004067 -0.09250012 -0.18782187
-0.040006701 -0.092582151 -0.18781978
-0.040009178 -0.092662141 -0.18781963
-0.040011328 -0.092743948 -0.18782751
-0.040013574 -0.0928258 -0.1878334
-0.04001566 -0.092905618 -0.18784124
-0.040018007 -0.092987515 -0.18784514
-0.040020544 -0.093069501 -0.18784504
-0.04002269 -0.093151316 -0.18785292
-0.040023923 -0.093234688 -0.18788083
-0.040025678 -0.093316332 -0.1878967
-0.040028315 -0.093398362 -0.18789461
-0.040031184 -0.093478516 -0.18788648
-0.040033761 -0.09355855 -0.18788433
-0.040036008 -0.093640402 -0.1878902
-0.040038057 -0.093722172 -0.1879001
-0.0400404 -0.093804069 -0.18790399
-0.04004278 -0.093884014 -0.18790583
-0.040045515 -0.093966082 -0.18790174
-0.040047701 -0.094045937 -0.18790759
-0.040049847 -0.094127752 -0.18791547
-0.040051959 -0.094211519 -0.1879254
-0.040053912 -0.094293244 -0.18793729
-0.040055726 -0.094376877 -0.1879532
-0.040057484 -0.09445852 -0.18796909
-0.040060353 -0.094538681 -0.18796095
-0.040062793 -0.094620623 -0.18796284
-0.040064123 -0.094704047 -0.18798876
-0.040064692 -0.09479107 -0.18803272
-0.040066116 -0.094874538 -0.18805663
-0.04006879 -0.09495461 -0.18805251
-0.040071562 -0.095034726 -0.18804635
-0.040073905 -0.095116623 -0.18805024
-0.040077165 -0.095196955 -0.18803412
-0.040079646 -0.095276944 -0.18803397
-0.040081888 -0.095358796 -0.18803987
-0.040083844 -0.095440522 -0.18805173
-0.040086322 -0.095520511 -0.1880516
-0.040088862 -0.095602497 -0.18805149
-0.040091202 -0.095684394 -0.18805538
-0.040093448 -0.095766246 -0.18806128
-0.040095791 -0.095848143 -0.18806517
-0.040098369 -0.095928177 -0.18806303
-0.040101141 -0.096008293 -0.18805689
-0.040103719 -0.09608832 -0.18805474
-0.039461456 -0.087179407 -0.18762761
-0.039466396 -0.087254569 -0.1875734
-0.039473027 -0.087328501 -0.18748321
-0.039478451 -0.087403879 -0.18741901
-0.039482765 -0.087480739 -0.18737882
-0.039486494 -0.087557331 -0.18735063
-0.039491195 -0.087634355 -0.18730246
-0.039495178 -0.08771304 -0.18727031
-0.039498184 -0.087791286 -0.18725812
-0.039501149 -0.087871492 -0.18724799
-0.039504252 -0.087949783 -0.18723382
-0.039506927 -0.088029854 -0.18722966
-0.039509177 -0.088111706 -0.18723556
-0.039511558 -0.088191651 -0.18723741
-0.039514035 -0.088271633 -0.18723726
-0.039516479 -0.088353582 -0.18723917
-0.039518666 -0.088433437 -0.18724501
-0.039520815 -0.088515252 -0.18725289
-0.039523099 -0.088595144 -0.18725674
-0.039525736 -0.088677175 -0.18725464
-0.039527826 -0.088756986 -0.18726248
-0.039529778 -0.088838711 -0.18727437
-0.03953173 -0.088920437 -0.18728624
-0.039533097 -0.089001909 -0.1873101
-0.039534625 -0.089085415 -0.18733202
-0.039536674 -0.089167178 -0.1873419
-0.039538667 -0.089246951 -0.18735173
-0.039540678 -0.089330673 -0.18736367
-0.039542574 -0.089410402 -0.1873755
-0.039544724 -0.089492217 -0.18738338
-0.039547067 -0.089574113 -0.18738729
-0.039549157 -0.089653924 -0.18739513
-0.039550971 -0.089737564 -0.18741104
-0.039551813 -0.089820765 -0.18744694
-0.039553143 -0.089904189 -0.18747285
-0.039554279 -0.089987524 -0.18750274
-0.039555315 -0.090070814 -0.18753465
-0.03955723 -0.090154491 -0.18754856
-0.039559126 -0.09023422 -0.18756041
-0.039561138 -0.09031795 -0.18757233
-0.03956309 -0.090399668 -0.18758421
-0.039564848 -0.090481311 -0.18760008
-0.039566707 -0.090562992 -0.18761396
-0.039568853 -0.090644807 -0.18762186
-0.039571002 -0.090726614 -0.18762973
-0.039573345 -0.090808511 -0.18763362
-0.039575301 -0.090890244 -0.18764551
-0.03957735 -0.090972006 -0.18765539
-0.039580163 -0.09105017 -0.18764721
-0.039582897 -0.091132239 -0.18764311
-0.039584752 -0.091213919 -0.187657
-0.039586313 -0.091295473 -0.18767685
-0.039588034 -0.091379069 -0.18769479
-0.039589792 -0.091460705 -0.18771064
-0.039591707 -0.09154439 -0.18772459
-0.039593663 -0.091626115 -0.18773645
-0.039596044 -0.091706052 -0.1877383
-0.039598387 -0.091787957 -0.1877422
-0.039600868 -0.091867939 -0.18774205
-0.039603639 -0.091948055 -0.18773592
-0.039605983 -0.092029959 -0.18773979
-0.03960751 -0.092113465 -0.18776172
-0.03960989 -0.09219341 -0.18776357
-0.039612234 -0.092275307 -0.18776745
-0.039614383 -0.092357114 -0.18777534
-0.039616629 -0.092438973 -0.18778123
-0.039619304 -0.092519045 -0.18777709
-0.039622076 -0.092599161 -0.18777095
-0.039624263 -0.092679016 -0.18777679
-0.039626509 -0.092760876 -0.18778268
-0.039628953 -0.092842817 -0.18778458
-0.039631099 -0.092924625 -0.18779245
-0.039632957 -0.093006313 -0.18780634
-0.039634675 -0.093089901 -0.18782425
-0.03963653 -0.093171582 -0.18783814
-0.039638583 -0.093253352 -0.18784803
-0.039640732 -0.093335167 -0.1878559
-0.039643697 -0.093415365 -0.18784578
-0.039646804 -0.093493655 -0.18783161
-0.039649539 -0.093575731 -0.1878275
-0.03965231 -0.093655847 -0.18782136
-0.039654691 -0.093735784 -0.18782321
-0.039657034 -0.093817689 -0.18782711
-0.039658889 -0.093899369 -0.18784098
-0.039660808 -0.093983054 -0.18785492
-0.039663188 -0.094062991 -0.18785676
-0.039665435 -0.094144851 -0.18786265
-0.039667681 -0.094226703 -0.18786854
-0.039669402 -0.094310299 -0.18788645
-0.039671022 -0.094393849 -0.18790638
-0.039672978 -0.094475575 -0.18791825
-0.039674833 -0.094557256 -0.18793213
-0.039676651 -0.094640896 -0.18794805
-0.0396787 -0.094722658 -0.18795794
-0.039679993 -0.094808042 -0.1879859
-0.03968142 -0.094891503 -0.1880098
-0.039684292 -0.094971664 -0.18800166
-0.039686732 -0.095053606 -0.18800355
-0.039688978 -0.095135458 -0.18800944
-0.039691418 -0.095217399 -0.18801135
-0.039693609 -0.095297262 -0.18801719
-0.039696183 -0.095377289 -0.18801504
-0.039699018 -0.095459402 -0.18800893
-0.039701201 -0.095539257 -0.18801479
-0.039703742 -0.095621243 -0.18801469
-0.039706748 -0.095699489 -0.1880025
-0.03970952 -0.095779613 -0.18799636
-0.039711535 -0.095863327 -0.18800831
-0.039713781 -0.095945187 -0.18801418
-0.039716784 -0.096023433 -0.18800201
-0.038977303 -0.087266825 -0.18746476
-0.03898181 -0.087343767 -0.18742058
-0.038987137 -0.0874191 -0.18735838
-0.038991742 -0.087496087 -0.18731222
-0.03899635 -0.087573066 -0.18726604
-0.039000798 -0.087648012 -0.18722183
-0.039004255 -0.087728433 -0.18720169
-0.039007649 -0.087806851 -0.18718153
-0.039010655 -0.087885097 -0.18716934
-0.039013624 -0.087965302 -0.18715921
-0.039016493 -0.088045463 -0.18715107
-0.039018679 -0.088125318 -0.18715692
-0.039020728 -0.088207088 -0.18716681
-0.039022975 -0.08828894 -0.1871727
-0.039025065 -0.088368759 -0.18718053
-0.039027311 -0.088450611 -0.18718642
-0.039029591 -0.088530511 -0.18719028
-0.039031643 -0.088612281 -0.18720016
-0.039033402 -0.088693917 -0.18721603
-0.03903506 -0.088775516 -0.1872339
-0.039037306 -0.088857368 -0.1872398
-0.039039589 -0.088937268 -0.18724364
-0.039041739 -0.089019075 -0.18725152
-0.039043691 -0.089100808 -0.18726341
-0.039045878 -0.089180663 -0.18726924
-0.039048027 -0.089262471 -0.18727714
-0.039050173 -0.089344285 -0.18728504
-0.039052263 -0.089424103 -0.18729287
-0.039054412 -0.089505911 -0.18730076
-0.039056558 -0.089587726 -0.18730864
-0.039057828 -0.089669146 -0.18733451
-0.039058827 -0.089754388 -0.18736845
-0.039060682 -0.089836076 -0.18738233
-0.039062403 -0.089919664 -0.18740024
-0.039063767 -0.090001136 -0.18742409
-0.039065 -0.090084508 -0.18745202
-0.039066855 -0.090166196 -0.18746588
-0.039069004 -0.090248004 -0.18747377
-0.039070956 -0.090329729 -0.18748567
-0.039072774 -0.090413362 -0.18750158
-0.039074957 -0.090493225 -0.18750742
-0.03907701 -0.090574995 -0.18751732
-0.039079059 -0.090656757 -0.18752718
-0.039081112 -0.090738527 -0.18753707
-0.039082732 -0.090822086 -0.18755698
-0.039084394 -0.090903677 -0.18757486
-0.039086737 -0.090985574 -0.18757877
-0.039089411 -0.091065645 -0.18757463
-0.039091755 -0.091147542 -0.1875785
-0.039093744 -0.091227315 -0.18758833
-0.039095797 -0.091309085 -0.18759823
-0.039098043 -0.091390938 -0.18760411
-0.039099995 -0.091472663 -0.18761601
-0.039102044 -0.091554433 -0.18762589
-0.039104585 -0.091636419 -0.18762578
-0.039106574 -0.091716185 -0.18763563
-0.039107963 -0.091801606 -0.18766157
-0.03911015 -0.091881461 -0.18766743
-0.039112885 -0.091963537 -0.18766332
-0.039115693 -0.092041701 -0.18765514
-0.039118133 -0.092123635 -0.18765703
-0.039119795 -0.092205234 -0.18767491
-0.039121222 -0.092288703 -0.18769881
-0.039123468 -0.092370555 -0.18770471
-0.039125711 -0.092452407 -0.18771058
-0.03912786 -0.092534222 -0.18771848
-0.039130438 -0.092614248 -0.18771634
-0.039133348 -0.092692457 -0.18770616
-0.039136179 -0.09277457 -0.18770006
-0.039138265 -0.092854381 -0.1877079
-0.03914018 -0.092938066 -0.18772182
-0.039142035 -0.093019746 -0.18773571
-0.03914389 -0.093101427 -0.18774959
-0.039146099 -0.093185239 -0.18775752
-0.039147854 -0.093266875 -0.18777341
-0.039150432 -0.093346909 -0.18777126
-0.039153498 -0.093427151 -0.18775912
-0.039155744 -0.093509004 -0.187765
-0.039157268 -0.093592517 -0.18778692
-0.039159514 -0.093674369 -0.18779281
-0.039162092 -0.093754396 -0.18779066
-0.039164435 -0.0938363 -0.18779457
-0.039166912 -0.093916282 -0.18779442
-0.039169353 -0.093998224 -0.18779631
-0.039171539 -0.094078079 -0.18780215
-0.03917408 -0.094160065 -0.18780205
-0.039176423 -0.094241962 -0.18780595
-0.039178707 -0.094321862 -0.18780978
-0.039180852 -0.094403677 -0.18781766
-0.039182905 -0.094485447 -0.18782756
-0.039184917 -0.094569169 -0.18783948
-0.039186638 -0.094652764 -0.1878574
-0.039187968 -0.094736189 -0.18788332
-0.039189685 -0.094819777 -0.18790123
-0.039191835 -0.094901592 -0.18790913
-0.039194312 -0.094981581 -0.18790898
-0.039197084 -0.09506169 -0.18790284
-0.039199624 -0.095143676 -0.18790272
-0.039201245 -0.095227227 -0.18792264
-0.039203394 -0.095309041 -0.18793052
-0.039206106 -0.095387161 -0.18792434
-0.039209075 -0.095467359 -0.18791422
-0.039211318 -0.095549218 -0.18792009
-0.039213039 -0.095632806 -0.18793803
-0.039214466 -0.095716275 -0.18796194
-0.039217763 -0.095794648 -0.18794376
-0.039220497 -0.095876724 -0.18793967
-0.039222877 -0.095956668 -0.18794152
-0.038487386 -0.087365128 -0.18738562
-0.0384917 -0.087441981 -0.18734545
-0.03849617 -0.087520875 -0.1873033
-0.038500715 -0.087595865 -0.18725708
-0.038505517 -0.087672934 -0.18720692
-0.038509108 -0.087751441 -0.18718275
-0.038512114 -0.087829694 -0.18717058
-0.038514789 -0.087909766 -0.18716642
-0.03851746 -0.087989837 -0.18716228
-0.038520038 -0.088069871 -0.18716013
-0.038522284 -0.088151723 -0.18716604
-0.038524374 -0.088231534 -0.18717387
-0.03852652 -0.088313349 -0.18718177
-0.038528804 -0.088393249 -0.18718562
-0.038531244 -0.08847519 -0.18718751
-0.038533822 -0.088555217 -0.18718536
-0.0385364 -0.088635251 -0.1871832
-0.038538545 -0.088717058 -0.1871911
-0.038540304 -0.088798702 -0.18720698
-0.038542196 -0.088878423 -0.18721882
-0.038544111 -0.088962108 -0.18723273
-0.038545769 -0.089043707 -0.18725061
-0.038547821 -0.089125469 -0.18726051
-0.038549773 -0.089207195 -0.18727237
-0.038551569 -0.089286879 -0.1872862
-0.038553715 -0.089368686 -0.1872941
-0.038556196 -0.089448676 -0.18729395
-0.038558636 -0.089530617 -0.18729585
-0.038560394 -0.08961226 -0.18731171
-0.038561955 -0.089693815 -0.18733159
-0.03856387 -0.089777492 -0.1873455
-0.038565762 -0.089857221 -0.18735734
-0.03856758 -0.089940853 -0.18737328
-0.038568713 -0.090024188 -0.18740317
-0.038569748 -0.090107478 -0.18743508
-0.038571466 -0.090191074 -0.18745299
-0.03857303 -0.090272628 -0.18747285
-0.038574982 -0.090354353 -0.18748474
-0.038577519 -0.090436339 -0.18748465
-0.038579609 -0.09051615 -0.18749247
-0.038581327 -0.090599746 -0.1875104
-0.038583085 -0.090681382 -0.18752629
-0.038585328 -0.090763241 -0.18753217
-0.038587477 -0.090845048 -0.18754005
-0.038589858 -0.090924993 -0.1875419
-0.038592201 -0.09100689 -0.18754579
-0.038594387 -0.091086745 -0.18755165
-0.038596828 -0.091168687 -0.18755352
-0.038599309 -0.091248676 -0.18755339
-0.038601652 -0.091330573 -0.18755728
-0.038603604 -0.091412298 -0.18756917
-0.038605165 -0.091493852 -0.18758902
-0.038606983 -0.091577485 -0.18760496
-0.038608838 -0.091659173 -0.18761882
-0.038611084 -0.091741025 -0.18762472
-0.038613562 -0.091821015 -0.18762457
-0.038616002 -0.091902956 -0.18762647
-0.038618248 -0.091984808 -0.18763235
-0.038620628 -0.092064753 -0.1876342
-0.038622875 -0.092146605 -0.1876401
-0.038624398 -0.092230111 -0.18766201
-0.038626157 -0.092311755 -0.18767789
-0.038628399 -0.092393607 -0.18768378
-0.038630683 -0.092473507 -0.18768764
-0.038633224 -0.092555493 -0.18768752
-0.038635604 -0.092635438 -0.18768936
-0.03863867 -0.092715681 -0.18767723
-0.038641442 -0.092795804 -0.1876711
-0.038643196 -0.09287744 -0.18768698
-0.038644917 -0.092961028 -0.18770489
-0.038646869 -0.093042761 -0.18771678
-0.038649544 -0.093122832 -0.18771264
-0.038652182 -0.093204856 -0.18771052
-0.038653743 -0.09328641 -0.1877304
-0.038655695 -0.093368135 -0.18774229
-0.038658332 -0.093450166 -0.18774018
-0.038660809 -0.093530148 -0.18774003
-0.038663484 -0.093610227 -0.1877359
-0.038665827 -0.093692124 -0.18773979
-0.038667485 -0.093773723 -0.18775767
-0.038669068 -0.093859226 -0.18777962
-0.038670689 -0.093942776 -0.18779954
-0.038673561 -0.094022937 -0.18779141
-0.038676761 -0.094101265 -0.18777522
-0.03867957 -0.094179429 -0.18776706
-0.038682014 -0.094261371 -0.18776895
-0.038683966 -0.094343096 -0.18778083
-0.038686406 -0.094425038 -0.18778272
-0.038687736 -0.094508462 -0.18780863
-0.038689159 -0.094591923 -0.18783253
-0.0386917 -0.094673909 -0.18783244
-0.038694568 -0.09475407 -0.18782431
-0.03869652 -0.094835788 -0.18783619
-0.038698044 -0.094919302 -0.1878581
-0.038699899 -0.095000982 -0.18787196
-0.038701717 -0.095084623 -0.18788789
-0.038703531 -0.095168255 -0.18790382
-0.038705777 -0.095250115 -0.18790969
-0.038708549 -0.095330223 -0.18790358
-0.038710795 -0.095412083 -0.18790945
-0.038711697 -0.095497288 -0.1879454
-0.038713649 -0.095579013 -0.18795729
-0.038716614 -0.095659211 -0.18794715
-0.038719915 -0.095737591 -0.18792897
-0.038722783 -0.095817752 -0.18792084
-0.038725652 -0.095897913 -0.1879127
-0.038728423 -0.095978029 -0.18790656
-0.038053937 -0.087398924 -0.18741287
-0.038059555 -0.087474383 -0.18734469
-0.038064394 -0.0875495 -0.18729247
-0.038067985 -0.087628007 -0.18726832
-0.038071673 -0.087706558 -0.18724215
-0.038075265 -0.087785065 -0.187218
-0.038078465 -0.087863401 -0.18720183
-0.03808153 -0.087943643 -0.1871897
-0.038084302 -0.088023759 -0.18718356
-0.038086917 -0.088101834 -0.18717937
-0.038089748 -0.088183954 -0.18717328
-0.038092129 -0.088263892 -0.18717512
-0.038094278 -0.088345706 -0.18718301
-0.038096659 -0.088425651 -0.18718486
-0.038098745 -0.088505462 -0.18719271
-0.038101189 -0.088587403 -0.18719459
-0.038103178 -0.088667177 -0.18720442
-0.038105328 -0.088748984 -0.18721232
-0.038107671 -0.088830888 -0.18721621
-0.03810966 -0.088910654 -0.18722604
-0.038111612 -0.08899238 -0.18723792
-0.038113136 -0.089075886 -0.18725982
-0.038114563 -0.089159355 -0.18728375
-0.038116358 -0.089239031 -0.18729758
-0.038118508 -0.089320846 -0.18730547
-0.038120851 -0.08940275 -0.18730935
-0.038123135 -0.08948265 -0.1873132
-0.038125284 -0.089564458 -0.1873211
-0.03812743 -0.089646272 -0.18732899
-0.038129225 -0.089725956 -0.18734281
-0.038130652 -0.089809418 -0.18736672
-0.038131982 -0.089892842 -0.18739262
-0.038133308 -0.089976259 -0.18741852
-0.038134541 -0.090059638 -0.18744645
-0.038136199 -0.090141229 -0.18746431
-0.038138211 -0.090224952 -0.18747625
-0.038140301 -0.09030477 -0.18748409
-0.038142938 -0.0903868 -0.18748197
-0.038144927 -0.090466566 -0.18749182
-0.03814688 -0.090548292 -0.1875037
-0.038149126 -0.090630144 -0.1875096
-0.038150847 -0.090713739 -0.18752751
-0.038152505 -0.090795338 -0.18754537
-0.038154457 -0.090877064 -0.18755725
-0.038156997 -0.090959042 -0.18755716
-0.038159903 -0.091037251 -0.18754697
-0.038162343 -0.091119193 -0.18754888
-0.038164493 -0.091201007 -0.18755676
-0.03816697 -0.091280997 -0.18755661
-0.038169216 -0.091362849 -0.1875625
-0.038170975 -0.091444485 -0.18757838
-0.038172927 -0.09152621 -0.18759026
-0.038174938 -0.09160994 -0.18760218
-0.038177319 -0.091689877 -0.18760404
-0.038180191 -0.091770038 -0.1875959
-0.038182475 -0.091849938 -0.18759975
-0.03818462 -0.091931753 -0.18760762
-0.03818595 -0.09201517 -0.18763354
-0.038187865 -0.092098854 -0.18764746
-0.038190149 -0.092178755 -0.18765131
-0.038192395 -0.092260607 -0.18765719
-0.038194776 -0.092340551 -0.18765904
-0.03819751 -0.092422619 -0.18765496
-0.038199794 -0.092502519 -0.18765879
-0.038201842 -0.09258429 -0.18766868
-0.038203992 -0.092666104 -0.18767656
-0.038206041 -0.092747867 -0.18768644
-0.038208287 -0.092829727 -0.18769234
-0.038211059 -0.092909843 -0.1876862
-0.038213439 -0.092989787 -0.18768805
-0.038215354 -0.093073465 -0.18770197
-0.038216587 -0.093156844 -0.18772987
-0.038218502 -0.093240529 -0.1877438
-0.038220357 -0.093322203 -0.18775767
-0.038222212 -0.093403891 -0.18777156
-0.038224749 -0.093485877 -0.18777145
-0.038227327 -0.093565904 -0.18776931
-0.038229901 -0.09364593 -0.18776718
-0.038232677 -0.093726054 -0.18776102
-0.038234919 -0.093807906 -0.18776691
-0.038237166 -0.093889758 -0.18777281
-0.038239021 -0.093971446 -0.18778667
-0.03824123 -0.09405525 -0.18779461
-0.038243707 -0.09413524 -0.18779446
-0.038246479 -0.094215356 -0.18778834
-0.038248956 -0.094295338 -0.18778817
-0.038251106 -0.094377153 -0.18779606
-0.038253315 -0.094460964 -0.187804
-0.038254973 -0.094542563 -0.18782187
-0.038257122 -0.09462437 -0.18782976
-0.038258743 -0.094707921 -0.18784967
-0.038260989 -0.094789781 -0.18785556
-0.038263232 -0.094871633 -0.18786144
-0.038264953 -0.094955228 -0.18787937
-0.038266905 -0.095036954 -0.18789124
-0.038269971 -0.095117196 -0.18787912
-0.038272779 -0.09519536 -0.18787093
-0.038275123 -0.095277257 -0.18787482
-0.038277466 -0.095359154 -0.18787873
-0.038279947 -0.095439143 -0.18787858
-0.038282678 -0.095521212 -0.18787447
-0.038284205 -0.095604725 -0.18789639
-0.03828596 -0.095686361 -0.18791226
-0.038288403 -0.095768303 -0.18791416
-0.038290549 -0.09585011 -0.18792206
-0.038293224 -0.095930189 -0.1879179
-0.038296327 -0.09600848 -0.18790373
-0.03762741 -0.087431729 -0.18740255
-0.037633359 -0.08750537 -0.18732631
-0.037637439 -0.087584093 -0.18729217
-0.037640929 -0.087662555 -0.18727002
-0.037644949 -0.087739281 -0.18723583
-0.037648834 -0.087817922 -0.18720567
-0.037652325 -0.087896384 -0.1871835
-0.037655622 -0.087974757 -0.18716532
-0.037658531 -0.088052966 -0.18715516
-0.037661105 -0.088132992 -0.18715301
-0.037663255 -0.088214807 -0.18716089
-0.037665498 -0.088296659 -0.18716678
-0.037667647 -0.088378474 -0.18717466
-0.037669733 -0.088458285 -0.18718252
-0.037672117 -0.088538229 -0.18718436
-0.037674751 -0.08862026 -0.18718226
-0.037676938 -0.088700116 -0.18718809
-0.037678692 -0.088781752 -0.18720397
-0.037680648 -0.088863477 -0.18721586
-0.037682697 -0.088945247 -0.18722573
-0.037684843 -0.089027062 -0.18723363
-0.037687227 -0.089106999 -0.18723547
-0.037689704 -0.089186989 -0.18723533
-0.037691131 -0.08927045 -0.18725923
-0.037692692 -0.089352004 -0.18727911
-0.037694741 -0.089433774 -0.187289
-0.037696928 -0.08951363 -0.18729484
-0.037699174 -0.089595482 -0.18730071
-0.037700929 -0.089677125 -0.1873166
-0.037702553 -0.089760676 -0.1873365
-0.037704114 -0.08984223 -0.18735638
-0.037705734 -0.089925781 -0.18737629
-0.037707493 -0.090007417 -0.18739218
-0.037708819 -0.090090841 -0.18741807
-0.037711203 -0.090170786 -0.18741992
-0.037713446 -0.090252638 -0.18742581
-0.037714969 -0.090336144 -0.18744773
-0.037717022 -0.090417914 -0.18745762
-0.037719205 -0.090497769 -0.18746345
-0.037721157 -0.090579495 -0.18747534
-0.037722684 -0.090663001 -0.18749724
-0.037725024 -0.090744898 -0.18750113
-0.037727699 -0.090824977 -0.18749699
-0.037729748 -0.090906739 -0.18750688
-0.0377317 -0.090988472 -0.18751876
-0.037734181 -0.091068454 -0.18751861
-0.037736658 -0.091148444 -0.18751845
-0.037739098 -0.091230385 -0.18752035
-0.037741344 -0.091312237 -0.18752626
-0.037743099 -0.091393873 -0.18754211
-0.037745345 -0.091475733 -0.18754801
-0.037747532 -0.091555588 -0.18755385
-0.037749544 -0.09163931 -0.18756577
-0.037751496 -0.091721036 -0.18757766
-0.037753448 -0.091802761 -0.18758954
-0.037755206 -0.091884404 -0.18760541
-0.037757024 -0.091968045 -0.18762133
-0.037759501 -0.092048027 -0.18762119
-0.037762038 -0.092130013 -0.18762109
-0.03776399 -0.092211738 -0.18763298
-0.037766274 -0.092291638 -0.18763682
-0.037768714 -0.09237358 -0.1876387
-0.03777096 -0.092455432 -0.1876446
-0.037773538 -0.092535466 -0.18764246
-0.037776306 -0.092615582 -0.18763632
-0.037778493 -0.092695437 -0.18764216
-0.037780505 -0.09277916 -0.18765408
-0.037782557 -0.09286093 -0.18766397
-0.037785035 -0.092940912 -0.18766382
-0.037787415 -0.093020856 -0.18766567
-0.037789427 -0.093104586 -0.18767759
-0.03779095 -0.093188092 -0.1876995
-0.037792046 -0.093273379 -0.18773144
-0.037793607 -0.093354933 -0.18775132
-0.037796184 -0.09343496 -0.18774918
-0.037798721 -0.093516946 -0.18774906
-0.037800577 -0.093598634 -0.18776295
-0.03780292 -0.093680531 -0.18776685
-0.037805788 -0.093760684 -0.1877587
-0.037807938 -0.093842499 -0.1877666
-0.037810512 -0.093922526 -0.18776445
-0.037813477 -0.094002731 -0.1877543
-0.037816018 -0.094084717 -0.18775421
-0.037818495 -0.094164699 -0.18775406
-0.037821073 -0.094244733 -0.1877519
-0.037823219 -0.094326541 -0.1877598
-0.037825171 -0.094408274 -0.18777168
-0.03782738 -0.094492078 -0.18777961
-0.037829563 -0.094571941 -0.18778545
-0.037831578 -0.094655663 -0.18779738
-0.037833296 -0.094739258 -0.18781531
-0.03783476 -0.094820768 -0.18783717
-0.037836868 -0.094904527 -0.18784711
-0.037839212 -0.094986431 -0.18785098
-0.037841301 -0.095066242 -0.18785883
-0.037844032 -0.095148318 -0.18785474
-0.037846942 -0.095226519 -0.18784454
-0.037848856 -0.095310196 -0.18785848
-0.037851002 -0.095392011 -0.18786636
-0.037853383 -0.095471956 -0.18786821
-0.037855592 -0.095555767 -0.18787614
-0.037858497 -0.095633969 -0.18786597
-0.037861366 -0.09571413 -0.18785784
-0.037863281 -0.095797807 -0.18787175
-0.037865758 -0.095877796 -0.18787161
-0.037868202 -0.095959738 -0.1878735
-0.037870385 -0.096039593 -0.18787934
-0.037872925 -0.096121579 -0.18787923
-0.037177365 -0.087368265 -0.18739659
-0.037182264 -0.087445378 -0.18734442
-0.037186772 -0.08752232 -0.18730024
-0.037191182 -0.087599218 -0.18725805
-0.037196022 -0.087674335 -0.18720585
-0.037200138 -0.087751105 -0.18716966
-0.037203729 -0.087829612 -0.1871455
-0.037207026 -0.087907992 -0.18712732
-0.037210483 -0.087988406 -0.18710721
-0.037213158 -0.088068485 -0.18710306
-0.037215732 -0.088148512 -0.18710092
-0.037218407 -0.088228583 -0.18709677
-0.037221082 -0.088308662 -0.18709263
-0.037223365 -0.088388562 -0.18709648
-0.037225418 -0.088470325 -0.18710637
-0.037227407 -0.088550098 -0.18711621
-0.037229322 -0.088633776 -0.18713012
-0.03723108 -0.088715419 -0.18714601
-0.037233166 -0.08879523 -0.18715385
-0.037235744 -0.088875264 -0.1871517
-0.037238222 -0.088955246 -0.18715155
-0.037240565 -0.089037143 -0.18715546
-0.037242517 -0.089118868 -0.18716732
-0.037244666 -0.089200683 -0.18717521
-0.037246756 -0.089280494 -0.18718305
-0.037248708 -0.089362219 -0.18719494
-0.037250564 -0.0894439 -0.18720882
-0.037252322 -0.089525543 -0.18722469
-0.037254237 -0.089609221 -0.18723862
-0.037255798 -0.089690775 -0.18725848
-0.037257262 -0.089772284 -0.18728034
-0.037259407 -0.089854091 -0.18728824
-0.037260935 -0.089937598 -0.18731014
-0.037262358 -0.090021066 -0.18733406
-0.037263725 -0.090102531 -0.18735792
-0.037265446 -0.090186127 -0.18737584
-0.037267596 -0.090267941 -0.18738373
-0.037269875 -0.090347834 -0.18738759
-0.037272416 -0.09042982 -0.18738747
-0.037274405 -0.090509593 -0.1873973
-0.037275501 -0.09059488 -0.18742925
-0.037277259 -0.090676516 -0.18744513
-0.037279505 -0.090758376 -0.18745102
-0.037281554 -0.090840146 -0.1874609
-0.037283607 -0.090921909 -0.18747079
-0.037286084 -0.091001898 -0.18747064
-0.037288759 -0.091081969 -0.1874665
-0.037291236 -0.091161959 -0.18746635
-0.037293777 -0.091243945 -0.18746625
-0.037295301 -0.091327451 -0.18748817
-0.037296958 -0.091409042 -0.18750603
-0.037299108 -0.091490857 -0.18751392
-0.037301254 -0.091572672 -0.18752182
-0.037303306 -0.091654435 -0.18753171
-0.037305161 -0.091736123 -0.18754557
-0.03730692 -0.091817759 -0.18756145
-0.037309457 -0.091899745 -0.18756135
-0.037312031 -0.091979772 -0.1875592
-0.037313987 -0.092061497 -0.18757108
-0.03731551 -0.092145011 -0.18759298
-0.037317656 -0.092226818 -0.18760088
-0.037319902 -0.09230867 -0.18760678
-0.037321895 -0.092388444 -0.18761662
-0.037323907 -0.092472166 -0.18762854
-0.03732609 -0.092552021 -0.18763438
-0.037329156 -0.092632271 -0.18762225
-0.037332457 -0.092710644 -0.18760407
-0.037334934 -0.092790633 -0.18760395
-0.037337042 -0.0928744 -0.18761386
-0.037338801 -0.092956036 -0.18762974
-0.037341047 -0.093037896 -0.18763563
-0.037343428 -0.093117841 -0.18763748
-0.037345674 -0.093199693 -0.18764338
-0.037347198 -0.093283199 -0.18766528
-0.037349343 -0.093365014 -0.18767318
-0.037351787 -0.093446955 -0.18767506
-0.037353933 -0.093528762 -0.18768296
-0.037355497 -0.093610317 -0.18770282
-0.037358034 -0.093692303 -0.18770272
-0.037360806 -0.093772419 -0.18769658
-0.037362956 -0.093854234 -0.18770447
-0.037364811 -0.093935914 -0.18771835
-0.037367053 -0.094017766 -0.18772423
-0.0373693 -0.094099626 -0.18773012
-0.037371781 -0.094179608 -0.18772998
-0.037374943 -0.094259903 -0.18771586
-0.037377287 -0.0943418 -0.18771973
-0.037379764 -0.094421789 -0.1877196
-0.037382632 -0.094501942 -0.18771145
-0.037384685 -0.094583713 -0.18772134
-0.037386343 -0.094665304 -0.18773922
-0.037388787 -0.094747253 -0.1877411
-0.037390798 -0.094830975 -0.18775304
-0.037392847 -0.094912738 -0.18776292
-0.037394993 -0.094994552 -0.18777081
-0.03739652 -0.095078066 -0.18779272
-0.037399095 -0.095158093 -0.18779057
-0.037401438 -0.095239989 -0.18779448
-0.037403062 -0.09532354 -0.18781438
-0.037404917 -0.095405221 -0.18782826
-0.03740716 -0.095487081 -0.18783416
-0.037409272 -0.095570847 -0.18784408
-0.037411027 -0.095652483 -0.18785995
-0.037413374 -0.09573438 -0.18786386
-0.037417099 -0.09581098 -0.18783566
-0.037420493 -0.095889397 -0.18781549
-0.037422642 -0.095971212 -0.18782337
-0.037424594 -0.096052937 -0.18783525
-0.037426803 -0.096136749 -0.18784319
-0.037429184 -0.096216694 -0.18784504
-0.036748793 -0.087315716 -0.18743756
-0.036753301 -0.087392658 -0.18739337
-0.036758296 -0.087469816 -0.18733922
-0.036763135 -0.087544933 -0.187287
-0.036767602 -0.087623827 -0.18724486
-0.036772441 -0.087698944 -0.18719265
-0.036776558 -0.087775715 -0.18715645
-0.036779914 -0.087856084 -0.18713835
-0.036783211 -0.087934464 -0.18712017
-0.036786512 -0.088012844 -0.18710199
-0.036789417 -0.088091046 -0.18709183
-0.036792479 -0.088171296 -0.1870797
-0.036795348 -0.088251457 -0.18707156
-0.036797829 -0.088331439 -0.18707141
-0.036800209 -0.088411383 -0.18707326
-0.036802746 -0.08849337 -0.18707316
-0.036804929 -0.088573225 -0.18707901
-0.036806881 -0.08865495 -0.18709087
-0.036808833 -0.088736676 -0.18710276
-0.036810983 -0.088818491 -0.18711065
-0.036812875 -0.088898212 -0.18712248
-0.03681463 -0.088979855 -0.18713835
-0.036816545 -0.089063533 -0.18715228
-0.03681834 -0.089143217 -0.18716612
-0.036820251 -0.089226894 -0.18718004
-0.036822535 -0.089306802 -0.18718389
-0.036825012 -0.089386784 -0.18718374
-0.036827065 -0.089468554 -0.18719362
-0.036829211 -0.089550368 -0.1872015
-0.036831494 -0.089630261 -0.18720534
-0.036833543 -0.089712039 -0.18721524
-0.036835104 -0.089793585 -0.1872351
-0.036836334 -0.089876965 -0.18726301
-0.036838189 -0.089958645 -0.1872769
-0.036839381 -0.090043977 -0.18730684
-0.036840845 -0.090125486 -0.1873287
-0.036843188 -0.090207383 -0.1873326
-0.036845237 -0.090289153 -0.18734248
-0.036846995 -0.090370789 -0.18735835
-0.036849044 -0.090452559 -0.18736824
-0.036851522 -0.090532549 -0.18736809
-0.036853999 -0.090612531 -0.18736795
-0.036856107 -0.090696305 -0.18737787
-0.036858197 -0.090776116 -0.18738571
-0.036860343 -0.090857923 -0.18739361
-0.036862589 -0.090939783 -0.18739948
-0.036864676 -0.091019593 -0.18740733
-0.036866881 -0.091103405 -0.18741527
-0.036868971 -0.091183215 -0.1874231
-0.036871117 -0.09126503 -0.18743098
-0.03687346 -0.091346934 -0.18743488
-0.03687584 -0.091426872 -0.18743673
-0.036877695 -0.091508552 -0.18745062
-0.036879119 -0.091592021 -0.18747452
-0.036881268 -0.091673836 -0.1874824
-0.036884136 -0.091753989 -0.18747427
-0.036885601 -0.091835499 -0.18749613
-0.036886889 -0.091920875 -0.18752408
-0.03688927 -0.09200082 -0.18752593
-0.03689171 -0.092082761 -0.18752784
-0.036893856 -0.092164576 -0.18753572
-0.036896236 -0.092244521 -0.18753757
-0.036898911 -0.092324585 -0.18753342
-0.036901351 -0.092406534 -0.18753532
-0.036903635 -0.092486426 -0.18753916
-0.036905974 -0.09256833 -0.18754306
-0.036907829 -0.092650011 -0.18755692
-0.036909878 -0.092731781 -0.18756682
-0.036911927 -0.092813551 -0.18757671
-0.036914274 -0.092895448 -0.18758059
-0.036917143 -0.092975609 -0.18757245
-0.036919095 -0.093057334 -0.18758434
-0.036920711 -0.093140885 -0.18760425
-0.036922898 -0.093220741 -0.1876101
-0.036925338 -0.093302682 -0.187612
-0.036927681 -0.093384579 -0.18761587
-0.03692973 -0.093466349 -0.18762577
-0.036931489 -0.093547985 -0.18764165
-0.036933012 -0.093631491 -0.18766356
-0.036935646 -0.093713522 -0.18766147
-0.036938027 -0.093793467 -0.18766332
-0.036940269 -0.093875319 -0.18766919
-0.036942847 -0.093955353 -0.18766706
-0.036945384 -0.094037339 -0.18766695
-0.03694763 -0.094119191 -0.18767285
-0.036950342 -0.094197311 -0.18766665
-0.036953308 -0.094277509 -0.18765652
-0.036955453 -0.094359323 -0.1876644
-0.036956783 -0.09444274 -0.18769032
-0.036959127 -0.094524644 -0.18769421
-0.036962092 -0.09460485 -0.18768407
-0.036964666 -0.094684877 -0.18768191
-0.036967203 -0.094766863 -0.18768182
-0.036969781 -0.094846889 -0.18767968
-0.036971536 -0.094928533 -0.18769556
-0.036972631 -0.09501382 -0.1877275
-0.036974683 -0.09509559 -0.18773738
-0.036976829 -0.095177397 -0.18774527
-0.036978938 -0.095261164 -0.1877552
-0.036981318 -0.095341109 -0.18775705
-0.036983993 -0.09542118 -0.1877529
-0.036986139 -0.095502995 -0.1877608
-0.036988247 -0.095586762 -0.18777072
-0.036990725 -0.095666751 -0.18777058
-0.036993496 -0.09574686 -0.18776444
-0.036996171 -0.095826939 -0.18776029
-0.036997791 -0.09591049 -0.1877802
-0.037000038 -0.095992342 -0.1877861
-0.037002183 -0.096074156 -0.18779399
-0.037004523 -0.096156053 -0.18779787
-0.037006769 -0.096237913 -0.18780378
-0.036420211 -0.087335616 -0.18750578
-0.036427081 -0.087407693 -0.18740955
-0.036431883 -0.087484762 -0.18735936
-0.036437247 -0.087558135 -0.18729512
-0.036441855 -0.087635122 -0.18724895
-0.036446068 -0.08771193 -0.18721077
-0.036450479 -0.087788835 -0.18716858
-0.036454991 -0.087865777 -0.1871244
-0.036458582 -0.087944284 -0.18710025
-0.036461744 -0.088024572 -0.18708612
-0.03646446 -0.088102691 -0.18707994
-0.036467038 -0.088182718 -0.18707779
-0.036469676 -0.088264748 -0.18707569
-0.036471862 -0.088344604 -0.18708152
-0.036473718 -0.088426284 -0.1870954
-0.03647577 -0.088508055 -0.1871053
-0.036478154 -0.088587992 -0.18710715
-0.036480594 -0.088669941 -0.18710902
-0.036482882 -0.088749841 -0.18711287
-0.036484934 -0.088831604 -0.18712276
-0.036486693 -0.088913247 -0.18713863
-0.036488451 -0.088994883 -0.1871545
-0.036490601 -0.089076698 -0.1871624
-0.036492985 -0.089156643 -0.18716425
-0.036495328 -0.089238539 -0.18716814
-0.036497224 -0.089318261 -0.18717997
-0.036499176 -0.089399986 -0.18719184
-0.036501229 -0.089481756 -0.18720174
-0.036502987 -0.0895634 -0.18721761
-0.036504611 -0.08964695 -0.18723753
-0.036506467 -0.089728631 -0.18725139
-0.036508325 -0.089810312 -0.18726528
-0.036510512 -0.089890167 -0.18727112
-0.036512367 -0.089971848 -0.18728501
-0.036513563 -0.090057179 -0.18731496
-0.036514409 -0.090140387 -0.18735084
-0.036516655 -0.090222239 -0.18735673
-0.036519624 -0.090302445 -0.18734661
-0.036521908 -0.090382345 -0.18735045
-0.036523435 -0.090465851 -0.18737236
-0.036524668 -0.090549231 -0.18740027
-0.036526427 -0.090630874 -0.18741614
-0.03652877 -0.090712771 -0.18742001
-0.036531251 -0.090792753 -0.18741988
-0.036533732 -0.090872742 -0.18741973
-0.03653631 -0.090952769 -0.1874176
-0.036538556 -0.091034628 -0.18742347
-0.036540706 -0.091116436 -0.18743137
-0.036542952 -0.091198295 -0.18743725
-0.036545102 -0.091280103 -0.18744513
-0.036547389 -0.091360003 -0.18744898
-0.036549538 -0.091441818 -0.18745688
-0.036551394 -0.091523498 -0.18747073
-0.036553018 -0.091607049 -0.18749066
-0.036554642 -0.0916906 -0.18751058
-0.036555678 -0.09177389 -0.18754247
-0.036557108 -0.091857359 -0.18756638
-0.036559589 -0.091937341 -0.18756624
-0.03656213 -0.092019327 -0.18756613
-0.036564708 -0.092099354 -0.18756399
-0.036567479 -0.092179477 -0.18755785
-0.036570057 -0.092259504 -0.1875557
-0.03657211 -0.092341274 -0.18756559
-0.036573771 -0.092422865 -0.18758345
-0.036576115 -0.092504762 -0.18758735
-0.036578692 -0.092584796 -0.1875852
-0.03658133 -0.09266682 -0.1875831
-0.036583714 -0.092746764 -0.18758495
-0.036586292 -0.092826799 -0.18758281
-0.036588442 -0.092908606 -0.18759069
-0.036590397 -0.092990339 -0.18760258
-0.036592349 -0.093072057 -0.18761446
-0.036594365 -0.093155779 -0.18762639
-0.03659622 -0.093237467 -0.18764025
-0.036597941 -0.093321055 -0.18765816
-0.036600091 -0.09340287 -0.18766606
-0.036602866 -0.093482986 -0.18765992
-0.036605638 -0.093563102 -0.18765378
-0.036608312 -0.093643174 -0.18764964
-0.036611088 -0.09372329 -0.1876435
-0.036613666 -0.093803324 -0.18764135
-0.03661634 -0.093883395 -0.18763721
-0.036618356 -0.093967117 -0.18764913
-0.036619294 -0.094050363 -0.18768305
-0.036621638 -0.094132267 -0.18768692
-0.036624316 -0.094212338 -0.18768278
-0.036626954 -0.094294369 -0.18768068
-0.036629863 -0.094372571 -0.1876705
-0.036632635 -0.094452687 -0.18766436
-0.036634356 -0.094536282 -0.18768227
-0.036636308 -0.094618008 -0.18769416
-0.036639083 -0.094698124 -0.18768802
-0.036641099 -0.094781846 -0.18769994
-0.036642037 -0.094865099 -0.18773384
-0.036644049 -0.094948813 -0.18774578
-0.036646396 -0.095030718 -0.18774965
-0.036648877 -0.0951107 -0.18774951
-0.036651552 -0.095190778 -0.18774536
-0.036654092 -0.095272765 -0.18774527
-0.03665667 -0.095352791 -0.18774313
-0.036659248 -0.095432818 -0.18774098
-0.0366612 -0.095514543 -0.18775286
-0.036663644 -0.095596485 -0.18775475
-0.03666665 -0.095674738 -0.18774259
-0.036668468 -0.095758371 -0.18775851
-0.036669567 -0.095843665 -0.18779044
-0.03667191 -0.095925562 -0.18779433
-0.036674783 -0.096005723 -0.18778619
-0.036677167 -0.096085668 -0.18778804
-0.036679082 -0.096169345 -0.18780196
-0.03668166 -0.096249372 -0.18779981
-0.036158144 -0.087423898 -0.18746471
-0.036165439 -0.087494187 -0.18735844
-0.036170963 -0.087569602 -0.18729225
-0.036174946 -0.087648287 -0.18726009
-0.036179163 -0.087725095 -0.18722191
-0.036183476 -0.087801948 -0.18718173
-0.036187071 -0.087880455 -0.18715757
-0.036190372 -0.087958835 -0.18713939
-0.036193632 -0.088039167 -0.18712327
-0.036196448 -0.088117324 -0.18711509
-0.036199026 -0.088197358 -0.18711294
-0.036201663 -0.088279381 -0.18711084
-0.036203951 -0.088359281 -0.18711469
-0.03620591 -0.088441007 -0.18712658
-0.036207963 -0.088522777 -0.18713646
-0.036210347 -0.088602722 -0.1871383
-0.036213219 -0.088682882 -0.18713015
-0.036216132 -0.088761084 -0.18711999
-0.036218282 -0.088842899 -0.18712786
-0.036219615 -0.088926315 -0.18715377
-0.036222525 -0.089004524 -0.18714359
-0.036226511 -0.089083202 -0.18711144
-0.036228895 -0.089163139 -0.18711329
-0.036229115 -0.089248046 -0.1871632
-0.036229338 -0.089332946 -0.18721312
-0.036231488 -0.08941476 -0.18722102
-0.036233447 -0.089496478 -0.1872329
-0.036235012 -0.089578032 -0.18725276
-0.036236834 -0.089661673 -0.18726867
-0.036239121 -0.089741573 -0.18727252
-0.03624098 -0.089823253 -0.18728641
-0.036242839 -0.089904934 -0.18730029
-0.036244795 -0.089986667 -0.18731217
-0.036246322 -0.090070173 -0.18733408
-0.036247559 -0.090153545 -0.18736199
-0.036249418 -0.090235226 -0.18737586
-0.036251765 -0.09031713 -0.18737975
-0.036253721 -0.090398856 -0.18739164
-0.036255676 -0.090480581 -0.1874035
-0.03625806 -0.090560526 -0.18740535
-0.036260411 -0.090642422 -0.18740925
-0.036262657 -0.090724275 -0.18741514
-0.036264516 -0.090805955 -0.18742901
-0.036266375 -0.090887636 -0.1874429
-0.036268234 -0.090969324 -0.18745676
-0.036270387 -0.091051131 -0.18746465
-0.036272734 -0.091133028 -0.18746856
-0.03627469 -0.091214761 -0.18748042
-0.036276549 -0.091296434 -0.18749431
-0.036278896 -0.091378339 -0.1874982
-0.036280986 -0.091458149 -0.18750603
-0.036282904 -0.091541827 -0.18751997
-0.036284335 -0.091625296 -0.18754387
-0.036285866 -0.091708802 -0.18756577
-0.036287859 -0.091788575 -0.18757561
-0.036289915 -0.091870338 -0.1875855
-0.036292162 -0.091952197 -0.1875914
-0.036294606 -0.092034139 -0.18759328
-0.036296759 -0.092115954 -0.18760118
-0.036298715 -0.092197672 -0.18761306
-0.036301196 -0.092277661 -0.18761291
-0.036304597 -0.092356086 -0.18759274
-0.036309242 -0.092431113 -0.18754452
-0.036312405 -0.092511401 -0.18753038
-0.036312629 -0.0925963 -0.18758032
-0.036314059 -0.092679769 -0.18760422
-0.036316406 -0.092761666 -0.18760811
-0.036318656 -0.092843518 -0.18761399
-0.036320806 -0.092925332 -0.18762188
-0.036322664 -0.093007013 -0.18763575
-0.036324717 -0.093088783 -0.18764564
-0.036326442 -0.093172371 -0.18766356
-0.036328398 -0.093254104 -0.18767545
-0.036330648 -0.093335956 -0.18768133
-0.036332898 -0.093417808 -0.18768722
-0.036335185 -0.093497708 -0.18769106
-0.036338154 -0.093577914 -0.18768093
-0.036341026 -0.093658075 -0.18767279
-0.036343277 -0.093739927 -0.18767869
-0.036344998 -0.093823522 -0.18769661
-0.036346957 -0.093905248 -0.18770847
-0.036349304 -0.093987145 -0.18771237
-0.036351591 -0.094067045 -0.18771622
-0.036354132 -0.094149031 -0.18771613
-0.036356516 -0.094228975 -0.18771797
-0.036359094 -0.094309002 -0.18771581
-0.036361735 -0.094391033 -0.18771371
-0.036363788 -0.094472803 -0.18772361
-0.036365844 -0.094554573 -0.18773347
-0.036368094 -0.094636425 -0.18773937
-0.036370147 -0.094718188 -0.18774925
-0.036372259 -0.094801962 -0.18775919
-0.036374021 -0.094883598 -0.18777506
-0.036375649 -0.094967149 -0.18779498
-0.036377702 -0.095048919 -0.18780485
-0.036380049 -0.095130816 -0.18780875
-0.036383018 -0.095211022 -0.18779862
-0.036386125 -0.095289312 -0.18778443
-0.036388375 -0.095371164 -0.18779033
-0.036389902 -0.09545467 -0.18781224
-0.036392346 -0.095536619 -0.18781413
-0.036394924 -0.095616646 -0.18781199
-0.036397174 -0.095698498 -0.18781787
-0.036399756 -0.095778525 -0.18781573
-0.036402531 -0.095858648 -0.18780959
-0.036405206 -0.09593872 -0.18780544
-0.036407553 -0.096020617 -0.18780935
-0.036409512 -0.096102342 -0.18782121
-0.036411956 -0.096184283 -0.18782312
-0.036414534 -0.09626431 -0.18782097
-0.035957973 -0.08744067 -0.18750121
-0.035963729 -0.087514222 -0.18742898
-0.035971083 -0.087586507 -0.18732274
-0.035975982 -0.087663621 -0.18727058
-0.035980392 -0.087740518 -0.1872284
-0.035984412 -0.087817244 -0.1871942
-0.035988297 -0.087895878 -0.18716405
-0.035991892 -0.087974384 -0.1871399
-0.035995092 -0.08805272 -0.18712372
-0.035997674 -0.088132754 -0.18712157
-0.036000445 -0.088212863 -0.18711543
-0.036003318 -0.088293023 -0.18710729
-0.036005508 -0.088372886 -0.18711314
-0.036007464 -0.088454604 -0.18712503
-0.036009811 -0.088536508 -0.1871289
-0.036012195 -0.088616446 -0.18713075
-0.036014441 -0.088698305 -0.18713665
-0.036016826 -0.08877825 -0.1871385
-0.036019076 -0.088860102 -0.18714438
-0.03602064 -0.088941656 -0.18716425
-0.03602273 -0.089021467 -0.18717209
-0.036025174 -0.089103408 -0.18717399
-0.036027461 -0.089183308 -0.18717784
-0.03602932 -0.089264989 -0.18719171
-0.036031082 -0.089346632 -0.18720758
-0.036033232 -0.08942844 -0.18721548
-0.036034759 -0.089511953 -0.18723738
-0.036036424 -0.089593545 -0.18725525
-0.036038477 -0.089675315 -0.18726514
-0.036040764 -0.089755215 -0.18726899
-0.036042817 -0.089836985 -0.18727887
-0.036044676 -0.089918666 -0.18729275
-0.036046926 -0.090000518 -0.18729864
-0.036048979 -0.090082288 -0.18730852
-0.036050312 -0.090165712 -0.18733442
-0.036051448 -0.090249047 -0.18736432
-0.036053833 -0.090328991 -0.18736617
-0.036055982 -0.090410799 -0.18737406
-0.036058135 -0.090492614 -0.18738194
-0.036060188 -0.090574384 -0.18739182
-0.036062144 -0.090656102 -0.18740371
-0.036064196 -0.090737872 -0.18741359
-0.036065862 -0.090819471 -0.18743147
-0.036067583 -0.090903059 -0.18744938
-0.036069538 -0.090984792 -0.18746126
-0.036072023 -0.091064773 -0.18746111
-0.036074467 -0.091146715 -0.18746302
-0.036076557 -0.091226533 -0.18747085
-0.036078475 -0.091310211 -0.18748477
-0.036080722 -0.09139207 -0.18749067
-0.036083341 -0.091470137 -0.18748647
-0.036085688 -0.091552034 -0.18749037
-0.036087118 -0.091635503 -0.18751428
-0.036089033 -0.09171918 -0.18752819
-0.036090504 -0.09180069 -0.18755007
-0.036091834 -0.091884114 -0.18757597
-0.03609385 -0.091967836 -0.18758789
-0.03609604 -0.092047691 -0.18759373
-0.036098778 -0.092129767 -0.18758963
-0.036101785 -0.092208013 -0.18757746
-0.036104362 -0.09228804 -0.18757531
-0.036106903 -0.092370033 -0.18757522
-0.036109909 -0.092448279 -0.18756303
-0.036113407 -0.092526734 -0.18754087
-0.036115363 -0.092608467 -0.18755275
-0.036116891 -0.092691973 -0.18757465
-0.036119238 -0.09277387 -0.18757856
-0.036120996 -0.092855513 -0.18759444
-0.036122624 -0.092939064 -0.18761435
-0.036124907 -0.093018964 -0.1876182
-0.036127254 -0.093100861 -0.18762209
-0.03612921 -0.093182586 -0.18763396
-0.036130741 -0.093266092 -0.18765587
-0.036132988 -0.093347944 -0.18766177
-0.036135137 -0.093429759 -0.18766965
-0.036136996 -0.09351144 -0.18768352
-0.036139734 -0.093593508 -0.18767944
-0.036142938 -0.093671843 -0.18766326
-0.036145709 -0.09375196 -0.18765712
-0.036148153 -0.093833901 -0.18765903
-0.036150441 -0.093913801 -0.18766285
-0.036152456 -0.093997523 -0.18767479
-0.036154315 -0.094079211 -0.18768865
-0.036156662 -0.094161108 -0.18769255
-0.036159433 -0.094241224 -0.18768641
-0.036161918 -0.094321206 -0.18768626
-0.036164261 -0.09440311 -0.18769015
-0.036165986 -0.094486699 -0.18770808
-0.036167808 -0.094570339 -0.18772399
-0.03616976 -0.094652064 -0.18773589
-0.036171623 -0.094733745 -0.18774974
-0.036173537 -0.09481743 -0.18776368
-0.036175594 -0.094899192 -0.18777356
-0.036177315 -0.094982788 -0.18779147
-0.036178842 -0.095066302 -0.18781339
-0.036181226 -0.095146239 -0.18781523
-0.036184624 -0.095224664 -0.18779507
-0.036187496 -0.095304817 -0.18778694
-0.036190368 -0.095384985 -0.1877788
-0.036193572 -0.095463313 -0.18776262
-0.036195625 -0.095545083 -0.18777251
-0.036197543 -0.095628761 -0.18778643
-0.036200024 -0.09570875 -0.18778628
-0.036200792 -0.09579587 -0.18782626
-0.036202319 -0.095879376 -0.18784818
-0.03620562 -0.095957749 -0.18783
-0.036208395 -0.096037865 -0.18782386
-0.036210973 -0.096117899 -0.18782172
-0.036213942 -0.096198097 -0.18781158
-0.036216423 -0.096278086 -0.18781143
-0.035847373 -0.087439835 -0.18735337
-0.035852958 -0.087517254 -0.18728721
-0.03585678 -0.087593891 -0.18725702
-0.035861775 -0.087671049 -0.18720286
-0.035866808 -0.087746255 -0.18714663
-0.035871122 -0.087823108 -0.18710646
-0.035874944 -0.087899745 -0.18707627
-0.035878342 -0.087978169 -0.18705609
-0.035881795 -0.088058583 -0.18703598
-0.035884608 -0.088136747 -0.18702778
-0.035887048 -0.088218689 -0.18702969
-0.035889432 -0.088298634 -0.18703154
-0.035891481 -0.088380404 -0.18704142
-0.035893437 -0.088462129 -0.18705329
-0.03589572 -0.088542029 -0.18705715
-0.035898298 -0.088622056 -0.18705499
-0.035900738 -0.088703997 -0.1870569
-0.035903022 -0.088783897 -0.18706074
-0.035905074 -0.088865668 -0.18707062
-0.035907026 -0.088947393 -0.1870825
-0.035909019 -0.089027159 -0.18709233
-0.035911266 -0.089109018 -0.18709823
-0.035913218 -0.089190744 -0.18711011
-0.035914976 -0.08927238 -0.18712598
-0.035916638 -0.089353979 -0.18714386
-0.035918593 -0.089435704 -0.18715575
-0.035920449 -0.089517385 -0.18716961
-0.035922401 -0.08959911 -0.1871815
-0.035924256 -0.089680791 -0.18719538
-0.035926212 -0.089762516 -0.18720725
-0.035928592 -0.089842461 -0.1872091
-0.035930939 -0.089924358 -0.187213
-0.035932697 -0.090005994 -0.18722887
-0.035934221 -0.0900895 -0.18725079
-0.035935745 -0.090173014 -0.1872727
-0.035937212 -0.090254523 -0.18729457
-0.035939459 -0.090336375 -0.18730046
-0.035941839 -0.09041632 -0.18730231
-0.035943754 -0.090499997 -0.18731622
-0.035945512 -0.090581641 -0.18733209
-0.035947371 -0.090663321 -0.18734598
-0.03594942 -0.090745091 -0.18735586
-0.035951607 -0.090824947 -0.18736172
-0.035953622 -0.090908669 -0.18737364
-0.035956003 -0.090988614 -0.18737549
-0.035958152 -0.091070428 -0.18738337
-0.035959676 -0.091153935 -0.18740527
-0.035961632 -0.09123566 -0.18741716
-0.035964306 -0.091315731 -0.18741302
-0.035966687 -0.091395676 -0.18741487
-0.035969131 -0.091477618 -0.18741676
-0.035970889 -0.091559254 -0.18743263
-0.03597251 -0.091642804 -0.18745255
-0.035974037 -0.091726318 -0.18747446
-0.035975598 -0.091807865 -0.18749434
-0.035978079 -0.091887854 -0.18749419
-0.035980947 -0.091968015 -0.18748605
-0.035983294 -0.092049912 -0.18748993
-0.035985149 -0.092131592 -0.18750381
-0.035987396 -0.092213452 -0.18750972
-0.035989679 -0.092293344 -0.18751356
-0.035991926 -0.092375204 -0.18751945
-0.035994269 -0.092457101 -0.18752334
-0.03599675 -0.09253709 -0.18752319
-0.035999522 -0.092617199 -0.18751705
-0.036002003 -0.092697188 -0.1875169
-0.036004636 -0.092779219 -0.18751481
-0.036006924 -0.092859119 -0.18751864
-0.036008544 -0.09294267 -0.18753856
-0.036010362 -0.093026303 -0.18755448
-0.036012452 -0.093106121 -0.18756232
-0.036014367 -0.093189798 -0.18757623
