# .PCD v0.7 - Point Cloud Data file format
VERSION 0.7
FIELDS x y z
SIZE 4 4 4
TYPE F F F
COUNT 1 1 1
WIDTH 1269
HEIGHT 1
VIEWPOINT 0 0 0 1 0 0 0
POINTS 1269
DATA ascii
-0.053817324 -0.086616129 -0.1882043
-0.053823274 -0.08668977 -0.18812808
-0.05382869 -0.086765155 -0.18806389
-0.053833622 -0.086840309 -0.18800968
-0.053837791 -0.086919084 -0.18797353
-0.053842291 -0.086996026 -0.18792936
-0.053846404 -0.087072797 -0.18789318
-0.053850085 -0.087151349 -0.18786702
-0.053853706 -0.087227896 -0.18784082
-0.053856902 -0.087306239 -0.18782465
-0.053859625 -0.087388307 -0.18782055
-0.053862095 -0.087468296 -0.18782042
-0.053864468 -0.087548234 -0.18782227
-0.053866841 -0.087628178 -0.18782413
-0.053869173 -0.087710083 -0.187828
-0.053871021 -0.087791763 -0.18784189
-0.053872671 -0.087873355 -0.18785977
-0.053874712 -0.087955125 -0.18786967
-0.053876556 -0.088036805 -0.18788354
-0.053878244 -0.088116445 -0.18789938
-0.053880386 -0.088198259 -0.18790726
-0.053882621 -0.088280112 -0.18791315
-0.05388476 -0.088361926 -0.18792105
-0.053887133 -0.088441864 -0.18792289
-0.053889506 -0.088521808 -0.18792474
-0.053891644 -0.088603623 -0.18793264
-0.053893197 -0.088685177 -0.1879525
-0.053895041 -0.088766858 -0.18796638
-0.053897709 -0.088846929 -0.18796225
-0.053900275 -0.088926964 -0.18796012
-0.05390222 -0.089008681 -0.18797198
-0.053903636 -0.08909215 -0.18799591
-0.053904563 -0.089175396 -0.1880298
-0.053906076 -0.089258902 -0.18805172
-0.053907923 -0.089340582 -0.18806559
-0.053909473 -0.089422137 -0.18808547
-0.053911321 -0.089503817 -0.18809935
-0.053913947 -0.089585848 -0.18809725
-0.053916417 -0.08966583 -0.18809712
-0.053918555 -0.089747645 -0.18810499
-0.053920694 -0.08982946 -0.18811288
-0.053922776 -0.08990927 -0.18812072
-0.053924583 -0.089992911 -0.18813667
-0.053926758 -0.090072766 -0.18814251
-0.053929191 -0.090154707 -0.1881444
-0.05393137 -0.090234563 -0.18815026
-0.053933606 -0.090316415 -0.18815613
-0.053936467 -0.090396576 -0.18814799
-0.053939328 -0.090476736 -0.18813986
-0.053941701 -0.090556681 -0.18814172
-0.053943545 -0.090638362 -0.18815561
-0.053945296 -0.090719998 -0.18817148
-0.053947099 -0.090803638 -0.18818741
-0.053948946 -0.090885319 -0.18820128
-0.053950891 -0.090967044 -0.18821317
-0.053953223 -0.091048941 -0.18821707
-0.053955302 -0.091128759 -0.18822491
-0.053957112 -0.091212392 -0.18824083
-0.053959347 -0.091294251 -0.18824673
-0.05396172 -0.091374189 -0.18824857
-0.053964052 -0.091456093 -0.18825248
-0.053966623 -0.09153612 -0.18825033
-0.053968996 -0.091616064 -0.18825218
-0.053971563 -0.091696098 -0.18825004
-0.053974718 -0.091776386 -0.18823591
-0.053976856 -0.091858193 -0.18824381
-0.053978838 -0.091937967 -0.18825364
-0.053981464 -0.092019998 -0.18825155
-0.053983934 -0.09209998 -0.18825141
-0.05398611 -0.092179835 -0.18825725
-0.05398874 -0.092261866 -0.18825515
-0.053991012 -0.092341766 -0.18825901
-0.053992294 -0.092427142 -0.18828696
-0.053993087 -0.092512302 -0.1883249
-0.0539946 -0.092595808 -0.1883468
-0.05399707 -0.092675798 -0.18834665
-0.054000165 -0.092754088 -0.1883325
-0.054003123 -0.092834294 -0.18832237
-0.054005791 -0.092914365 -0.18831822
-0.054008357 -0.092994392 -0.18831608
-0.054010987 -0.093076423 -0.18831398
-0.054013457 -0.093156412 -0.18831384
-0.054015692 -0.093238264 -0.18831973
-0.054017536 -0.093319945 -0.1883336
-0.054019246 -0.093403541 -0.18835153
-0.054021914 -0.093483612 -0.1883474
-0.05402448 -0.093563646 -0.18834525
-0.054026425 -0.093645371 -0.18835713
-0.054028135 -0.09372896 -0.18837506
-0.054030467 -0.093810856 -0.18837894
-0.054033134 -0.093890935 -0.1883748
-0.05403541 -0.093970835 -0.18837866
-0.054037645 -0.094052687 -0.18838455
-0.054039784 -0.094134502 -0.18839243
-0.054041103 -0.094217926 -0.18841834
-0.054042384 -0.094303295 -0.1884463
-0.054045871 -0.094381765 -0.18842414
-0.054049391 -0.094458275 -0.18839994
-0.054051727 -0.094540171 -0.18840384
-0.054053672 -0.094621897 -0.18841571
-0.054056104 -0.094703838 -0.18841761
-0.054058339 -0.09478569 -0.18842351
-0.054060381 -0.09486746 -0.18843339
-0.054063279 -0.094945669 -0.18842322
-0.054066766 -0.095024131 -0.18840104
-0.054069959 -0.095102467 -0.18838489
-0.054072194 -0.095184326 -0.18839078
-0.054074332 -0.095266134 -0.18839866
-0.054077428 -0.095344424 -0.1883845
-0.054067992 -0.086598523 -0.18816584
-0.054074075 -0.08667025 -0.18808559
-0.05408008 -0.086745895 -0.18800941
-0.054084621 -0.086820878 -0.1879632
-0.05408873 -0.086897649 -0.18792702
-0.054093193 -0.086976551 -0.18788488
-0.054097109 -0.087053232 -0.1878527
-0.054100495 -0.087131649 -0.18783253
-0.054103591 -0.087209947 -0.18781836
-0.05410688 -0.08728832 -0.1878002
-0.054110229 -0.087368704 -0.18778208
-0.054112699 -0.087448686 -0.18778193
-0.05411464 -0.087530412 -0.18779382
-0.054117013 -0.087610357 -0.18779567
-0.054118954 -0.087692082 -0.18780755
-0.05412031 -0.087773547 -0.18783142
-0.054122057 -0.087855183 -0.18784729
-0.054124586 -0.087937169 -0.1878472
-0.054127056 -0.088017158 -0.18784705
-0.054129329 -0.088097058 -0.18785089
-0.05413137 -0.088178828 -0.18786079
-0.054133449 -0.088258639 -0.18786862
-0.05413539 -0.088340364 -0.18788052
-0.054137431 -0.088422135 -0.1878904
-0.05413951 -0.088501945 -0.18789823
-0.054141842 -0.088583842 -0.18790214
-0.05414369 -0.08866553 -0.18791601
-0.054145433 -0.088747166 -0.1879319
-0.054147474 -0.088828936 -0.18794179
-0.054149419 -0.088910654 -0.18795365
-0.054151163 -0.088992298 -0.18796954
-0.054152675 -0.089075804 -0.18799147
-0.054154422 -0.08915744 -0.18800734
-0.054156169 -0.089239083 -0.18802322
-0.054157682 -0.089322589 -0.18804514
-0.054159723 -0.089404359 -0.18805501
-0.054161705 -0.089484125 -0.18806487
-0.05416394 -0.089565977 -0.18807076
-0.054166507 -0.089646012 -0.18806861
-0.054168448 -0.089727737 -0.18808049
-0.054170255 -0.089811377 -0.18809642
-0.054172434 -0.089891225 -0.18810228
-0.054174863 -0.089973174 -0.18810415
-0.054177333 -0.090053156 -0.18810402
-0.054179605 -0.090133056 -0.18810788
-0.054181512 -0.090216741 -0.1881218
-0.054183785 -0.090296641 -0.18812564
-0.054186352 -0.090376675 -0.18812349
-0.054189116 -0.090456784 -0.18811736
-0.054191682 -0.090536818 -0.18811522
-0.054193821 -0.090618625 -0.18812311
-0.054195762 -0.090700358 -0.188135
-0.054197568 -0.090783991 -0.18815091
-0.054199412 -0.090865672 -0.1881648
-0.054201491 -0.090945482 -0.18817264
-0.054203629 -0.091027297 -0.18818054
-0.054205865 -0.091109157 -0.18818642
-0.054208003 -0.091190964 -0.1881943
-0.054210044 -0.091272734 -0.1882042
-0.05421222 -0.091352589 -0.18821004
-0.054214552 -0.091434494 -0.18821394
-0.054217119 -0.09151452 -0.1882118
-0.05421916 -0.09159629 -0.18822169
-0.054221101 -0.091678008 -0.18823357
-0.054223534 -0.09175995 -0.18823546
-0.054226197 -0.091840029 -0.18823133
-0.054228865 -0.0919201 -0.18822719
-0.054231722 -0.092000261 -0.18821907
-0.05423433 -0.092078336 -0.18821487
-0.054236468 -0.09216015 -0.18822277
-0.054238178 -0.092243738 -0.18824068
-0.054240018 -0.092325427 -0.18825457
-0.054242156 -0.092407234 -0.18826246
-0.054244295 -0.092489049 -0.18827035
-0.054246336 -0.092570819 -0.18828022
-0.054248475 -0.092652626 -0.18828812
-0.054251336 -0.092732787 -0.18827999
-0.054254197 -0.092812948 -0.18827185
-0.054256372 -0.092892803 -0.18827769
-0.054257981 -0.092976354 -0.18829761
-0.054260023 -0.093058124 -0.18830751
-0.054262493 -0.093138114 -0.18830736
-0.054264825 -0.09322001 -0.18831125
-0.054266632 -0.093303651 -0.18832718
-0.054269198 -0.093383677 -0.18832505
-0.054272156 -0.093463883 -0.18831491
-0.054274626 -0.093543865 -0.18831477
-0.054277193 -0.093623899 -0.18831262
-0.054279856 -0.09370397 -0.18830848
-0.054281995 -0.093785785 -0.18831638
-0.054283801 -0.093869418 -0.18833229
-0.054285314 -0.093952924 -0.18835421
-0.054287259 -0.094034657 -0.18836609
-0.054289591 -0.094116554 -0.18836999
-0.054291241 -0.094198145 -0.18838787
-0.054292422 -0.094283476 -0.18841782
-0.054295518 -0.094361767 -0.18840364
-0.054298706 -0.094440103 -0.18838748
-0.054301664 -0.094520308 -0.18837735
-0.054304332 -0.094600379 -0.18837321
-0.054306567 -0.094682239 -0.18837909
-0.054308608 -0.094764002 -0.18838899
-0.054312326 -0.094840601 -0.18836078
-0.054315418 -0.094918892 -0.18834662
-0.054317754 -0.095000789 -0.1883505
-0.054320615 -0.095080949 -0.18834238
-0.054323707 -0.095159248 -0.18832821
-0.054326471 -0.095239356 -0.18832207
-0.054329231 -0.09531948 -0.18831593
-0.054287165 -0.086500101 -0.18820605
-0.05429104 -0.086578734 -0.18817592
-0.054295972 -0.086653896 -0.18812171
-0.054302115 -0.086727627 -0.18804148
-0.054307047 -0.086802788 -0.18798727
-0.054310828 -0.086881384 -0.18795913
-0.054315425 -0.086958371 -0.18791297
-0.054319635 -0.087035179 -0.18787476
-0.054323219 -0.087113693 -0.18785061
-0.054326609 -0.087192111 -0.18783045
-0.054329608 -0.087270364 -0.18781827
-0.054332137 -0.08735235 -0.18781817
-0.054334313 -0.087432206 -0.18782403
-0.054336648 -0.087514102 -0.18782791
-0.054339062 -0.087592095 -0.18782774
-0.054341726 -0.087672159 -0.18782359
-0.054343671 -0.087753892 -0.18783547
-0.054345224 -0.087835439 -0.18785535
-0.054347131 -0.087919116 -0.18786927
-0.054349307 -0.087998979 -0.18787512
-0.054351583 -0.088078879 -0.18787897
-0.054353721 -0.088160686 -0.18788686
-0.054355863 -0.088242501 -0.18789475
-0.054357804 -0.088324226 -0.18790662
-0.054359362 -0.088405773 -0.1879265
-0.054361206 -0.088487461 -0.18794039
-0.054363579 -0.088567406 -0.18794224
-0.054366246 -0.088647477 -0.18793809
-0.054368384 -0.088729292 -0.18794599
-0.054370034 -0.088810883 -0.18796386
-0.054371685 -0.088892475 -0.18798174
-0.054373533 -0.088974163 -0.18799561
-0.05437528 -0.089055799 -0.1880115
-0.054377187 -0.089139476 -0.18802541
-0.05437874 -0.08922103 -0.18804529
-0.054380354 -0.089304581 -0.18806522
-0.054381907 -0.089386135 -0.18808509
-0.054384045 -0.089467943 -0.18809298
-0.054386515 -0.089547932 -0.18809283
-0.05438846 -0.089629658 -0.18810472
-0.054390073 -0.089713208 -0.18812463
-0.054392446 -0.089793146 -0.18812647
-0.054395307 -0.089873306 -0.18811835
-0.054397546 -0.089955166 -0.18812424
-0.054399487 -0.090036884 -0.18813613
-0.054401569 -0.090116702 -0.18814397
-0.054404624 -0.090196952 -0.18813184
-0.054407291 -0.090277024 -0.1881277
-0.054409429 -0.090358838 -0.18813559
-0.054411903 -0.09043882 -0.18813545
-0.054414079 -0.090518676 -0.18814129
-0.054415692 -0.090602227 -0.18816121
-0.054417539 -0.090683907 -0.1881751
-0.054419875 -0.090765812 -0.18817899
-0.054421816 -0.090847537 -0.18819088
-0.054423567 -0.090929173 -0.18820675
-0.054425508 -0.091010898 -0.18821864
-0.054427844 -0.091092795 -0.18822253
-0.054430511 -0.091172874 -0.18821838
-0.054433081 -0.091252901 -0.18821625
-0.054435022 -0.091334626 -0.18822813
-0.05443693 -0.091418304 -0.18824205
-0.054439303 -0.091498248 -0.18824391
-0.054442164 -0.091578409 -0.18823577
-0.054444246 -0.09165822 -0.18824363
-0.054446287 -0.09173999 -0.18825352
-0.054448817 -0.091821976 -0.1882534
-0.054451093 -0.091901876 -0.18825726
-0.054453719 -0.091983899 -0.18825516
-0.054456189 -0.092063889 -0.18825501
-0.054458566 -0.092143834 -0.18825686
-0.054460898 -0.09222573 -0.18826076
-0.05446294 -0.092307501 -0.18827064
-0.054465178 -0.09238936 -0.18827653
-0.05446722 -0.092471123 -0.18828642
-0.054468773 -0.092552677 -0.1883063
-0.054470677 -0.092636354 -0.18832023
-0.054473773 -0.092714652 -0.18830606
-0.054476734 -0.09279485 -0.18829593
-0.054478873 -0.092876665 -0.18830381
-0.054480951 -0.092956476 -0.18831167
-0.054483287 -0.093038373 -0.18831556
-0.054485526 -0.093120232 -0.18832144
-0.054487862 -0.093202129 -0.18832535
-0.054490332 -0.093282118 -0.1883252
-0.054492898 -0.093362145 -0.18832305
-0.054495469 -0.093442179 -0.1883209
-0.054497901 -0.093524121 -0.18832281
-0.054500371 -0.093604103 -0.18832266
-0.054502707 -0.093686 -0.18832657
-0.054504026 -0.093769424 -0.18835247
-0.054505639 -0.093852974 -0.18837239
-0.05450768 -0.093934745 -0.18838228
-0.054510113 -0.094016686 -0.18838418
-0.054512288 -0.094096541 -0.18839002
-0.054513805 -0.094180048 -0.18841194
-0.054515809 -0.094263777 -0.18842387
-0.05451861 -0.094341934 -0.18841568
-0.05452114 -0.09442392 -0.18841559
-0.054523513 -0.094503865 -0.18841743
-0.054527096 -0.094582371 -0.18839328
-0.054530095 -0.094660617 -0.18838111
-0.054532859 -0.094740734 -0.18837497
-0.054535724 -0.094820894 -0.18836685
-0.054538388 -0.094900966 -0.18836269
-0.054540664 -0.094980866 -0.18836655
-0.054543428 -0.095060989 -0.18836041
-0.054545999 -0.095141016 -0.18835828
-0.054548234 -0.095222868 -0.18836416
-0.054550763 -0.095304854 -0.18836406
-0.054480776 -0.086480208 -0.18822864
-0.054483835 -0.08656045 -0.18821652
-0.054488145 -0.086637311 -0.18817633
-0.054493468 -0.086712644 -0.18811414
-0.054498203 -0.086787716 -0.18806392
-0.054502513 -0.086864576 -0.18802375
-0.054506686 -0.086943343 -0.18798761
-0.054510701 -0.087020069 -0.18795341
-0.054514676 -0.087098755 -0.18792127
-0.054518204 -0.087175265 -0.18789706
-0.054521266 -0.087255508 -0.18788494
-0.054523837 -0.087335542 -0.1878828
-0.054526411 -0.087415569 -0.18788067
-0.054528885 -0.087495551 -0.18788052
-0.054531123 -0.08757741 -0.1878864
-0.054533109 -0.087657183 -0.18789624
-0.054535352 -0.087739035 -0.18790214
-0.054537632 -0.087818936 -0.18790598
-0.054539677 -0.087900698 -0.18791586
-0.054541234 -0.087982252 -0.18793574
-0.054543182 -0.088063978 -0.18794763
-0.054545227 -0.088145748 -0.18795751
-0.054546881 -0.088227347 -0.18797538
-0.054549221 -0.088309243 -0.18797928
-0.054551929 -0.088387355 -0.1879731
-0.054554265 -0.088469252 -0.18797699
-0.05455602 -0.088550895 -0.18799287
-0.05455777 -0.088632539 -0.18800874
-0.054559622 -0.08871422 -0.18802263
-0.054561764 -0.088796027 -0.18803051
-0.054563653 -0.088875756 -0.18804234
-0.054565467 -0.088959396 -0.18805827
-0.054567121 -0.089040987 -0.18807615
-0.054568931 -0.089124627 -0.18809208
-0.054570392 -0.089206129 -0.18811393
-0.054571521 -0.089289464 -0.18814385
-0.054573469 -0.089371189 -0.18815574
-0.054575942 -0.089451179 -0.18815559
-0.054578282 -0.089533076 -0.18815948
-0.054580327 -0.089614846 -0.18816936
-0.054582603 -0.089694746 -0.1881732
-0.054585237 -0.089776769 -0.18817112
-0.054587282 -0.089858539 -0.18818101
-0.054588936 -0.089940138 -0.18819886
-0.054591313 -0.090020083 -0.18820073
-0.054594178 -0.090100236 -0.18819259
-0.054596711 -0.09018223 -0.1881925
-0.054598894 -0.090262085 -0.18819834
-0.054601233 -0.090343982 -0.18820223
-0.054603804 -0.090424009 -0.18820009
-0.054606084 -0.090503909 -0.18820393
-0.054608129 -0.090585679 -0.18821383
-0.054610077 -0.090667404 -0.18822572
-0.054611985 -0.090751082 -0.18823963
-0.054613546 -0.090832636 -0.18825951
-0.0546152 -0.090914227 -0.18827739
-0.054617401 -0.090998039 -0.18828532
-0.054619778 -0.091077983 -0.18828717
-0.054622214 -0.091159925 -0.18828908
-0.054624494 -0.091239825 -0.18829292
-0.054626968 -0.091319814 -0.18829277
-0.054629501 -0.091401801 -0.18829268
-0.054631449 -0.091483518 -0.18830454
-0.054633398 -0.091565251 -0.18831643
-0.054635674 -0.091645151 -0.18832029
-0.054638248 -0.091725178 -0.18831815
-0.054641306 -0.091805428 -0.18830602
-0.054643586 -0.091885321 -0.18830988
-0.054645594 -0.091969043 -0.1883218
-0.054648068 -0.092049032 -0.18832165
-0.054650445 -0.092128977 -0.1883235
-0.054652687 -0.092210829 -0.1883294
-0.054654535 -0.092292517 -0.18834327
-0.054656252 -0.092376105 -0.1883612
-0.054658063 -0.092459746 -0.18837711
-0.054659814 -0.092541382 -0.188393
-0.054661628 -0.092625022 -0.18840891
-0.054664005 -0.092704967 -0.18841076
-0.054667201 -0.092783302 -0.18839461
-0.054670259 -0.092863545 -0.18838248
-0.05467283 -0.092943579 -0.18838033
-0.054675169 -0.093025476 -0.18838423
-0.05467784 -0.093105547 -0.18838009
-0.054680314 -0.093185529 -0.18837994
-0.054682456 -0.093267344 -0.18838784
-0.054684933 -0.093347333 -0.18838769
-0.054687269 -0.09342923 -0.18839158
-0.054689415 -0.093511045 -0.18839946
-0.054691751 -0.093592942 -0.18840337
-0.054693893 -0.093674749 -0.18841125
-0.054696269 -0.093754694 -0.18841311
-0.054699037 -0.093834817 -0.18840697
-0.054700986 -0.093916535 -0.18841885
-0.054702371 -0.094001956 -0.18844479
-0.054703888 -0.094085462 -0.18846673
-0.054705545 -0.094167054 -0.18848459
-0.054708175 -0.094249085 -0.18848249
-0.054711174 -0.094327338 -0.18847033
-0.05471414 -0.094407536 -0.1884602
-0.05471671 -0.09448757 -0.18845806
-0.054719284 -0.094567597 -0.18845591
-0.054722149 -0.094647758 -0.18844777
-0.054725341 -0.094726093 -0.18843161
-0.05472821 -0.094806254 -0.18842348
-0.054730587 -0.094886199 -0.18842533
-0.054732729 -0.094968006 -0.18843322
-0.05473569 -0.095048212 -0.18842307
-0.054738887 -0.095126547 -0.18840691
-0.054741029 -0.095208362 -0.1884148
-0.054742977 -0.09529008 -0.18842669
-0.054726508 -0.086547889 -0.18828203
-0.054730624 -0.08662466 -0.18824583
-0.054736435 -0.086700208 -0.18817367
-0.054741763 -0.086775541 -0.18811145
-0.054746073 -0.086852401 -0.18807128
-0.054750089 -0.086929128 -0.1880371
-0.054754399 -0.08700598 -0.18799691
-0.054758284 -0.087084621 -0.18796676
-0.054761484 -0.087162957 -0.18795058
-0.054764353 -0.08724311 -0.18794245
-0.054767355 -0.087321363 -0.18793029
-0.054770224 -0.087401524 -0.18792215
-0.054772802 -0.087481551 -0.18792
-0.054774947 -0.087563366 -0.1879279
-0.05477684 -0.087643087 -0.18793973
-0.054778889 -0.087724857 -0.18794961
-0.054781232 -0.087806754 -0.1879535
-0.054783322 -0.087886572 -0.18796135
-0.05478498 -0.087968163 -0.18797922
-0.054786835 -0.088049844 -0.18799311
-0.054788984 -0.088131659 -0.18800099
-0.054791268 -0.088211559 -0.18800484
-0.054793414 -0.088293374 -0.18801272
-0.054795269 -0.088375047 -0.18802661
-0.054797318 -0.088456817 -0.1880365
-0.054799795 -0.088536806 -0.18803635
-0.054802179 -0.088616744 -0.1880382
-0.054803897 -0.088700339 -0.18805611
-0.054805558 -0.088781938 -0.18807399
-0.05480751 -0.088863663 -0.18808588
-0.054809656 -0.088945471 -0.18809377
-0.054811317 -0.08902707 -0.18811163
-0.05481245 -0.089110404 -0.18814154
-0.054814208 -0.08919204 -0.18815742
-0.054816026 -0.08927568 -0.18817334
-0.054817878 -0.089357361 -0.18818721
-0.054819733 -0.089439042 -0.1882011
-0.054821882 -0.089520857 -0.18820898
-0.054824069 -0.089600712 -0.18821484
-0.054826509 -0.089682654 -0.18821673
-0.054829609 -0.089760944 -0.18820256
-0.054832675 -0.089841187 -0.18819043
-0.054834921 -0.089923047 -0.18819633
-0.054836579 -0.090004638 -0.18821418
-0.054838434 -0.090086326 -0.18822807
-0.054840874 -0.090168267 -0.18822998
-0.054843158 -0.090248168 -0.18823382
-0.054845404 -0.09033002 -0.18823972
-0.054847587 -0.090409875 -0.18824556
-0.054850128 -0.090491861 -0.18824546
-0.054852411 -0.090571761 -0.1882493
-0.054854263 -0.090653442 -0.18826318
-0.054856278 -0.090737164 -0.1882751
-0.054858129 -0.090818845 -0.18828899
-0.054859363 -0.090902224 -0.18831691
-0.054861121 -0.09098386 -0.18833277
-0.054863792 -0.091063932 -0.18832864
-0.054866467 -0.09114401 -0.18832448
-0.054868713 -0.091225863 -0.18833038
-0.054871053 -0.091307759 -0.18833429
-0.054873824 -0.091387875 -0.18832815
-0.054876536 -0.091465995 -0.18832195
-0.054878686 -0.09154781 -0.18832985
-0.054880541 -0.09162949 -0.18834373
-0.054882783 -0.091711342 -0.18834962
-0.054885849 -0.091791593 -0.18833749
-0.054888524 -0.091871664 -0.18833335
-0.054890767 -0.091953516 -0.18833923
-0.054892857 -0.092033334 -0.18834709
-0.054894906 -0.092115104 -0.18835697
-0.05489682 -0.092198782 -0.18837088
-0.054898579 -0.092280418 -0.18838677
-0.054900628 -0.092362188 -0.18839666
-0.054902874 -0.092444047 -0.18840255
-0.054904494 -0.092527598 -0.18842247
-0.054905627 -0.092610925 -0.18845236
-0.054908302 -0.092691004 -0.18844822
-0.054911364 -0.092771247 -0.18843609
-0.054914333 -0.092851445 -0.18842597
-0.054917045 -0.092929564 -0.18841979
-0.054919776 -0.09301164 -0.18841569
-0.054922353 -0.093091667 -0.18841355
-0.054924499 -0.093173482 -0.18842143
-0.054926548 -0.093255252 -0.18843132
-0.05492932 -0.093335368 -0.18842518
-0.054932229 -0.093413569 -0.18841499
-0.054934803 -0.093493596 -0.18841287
-0.054937243 -0.093575545 -0.18841475
-0.054939389 -0.093657352 -0.18842265
-0.054941148 -0.093738988 -0.18843852
-0.054942731 -0.093824498 -0.18846048
-0.054944392 -0.09390609 -0.18847835
-0.054946538 -0.093987904 -0.18848625
-0.054949176 -0.094069928 -0.18848415
-0.054951128 -0.094151661 -0.18849602
-0.054952651 -0.094235167 -0.18851796
-0.054955326 -0.094315238 -0.1885138
-0.054959148 -0.094391875 -0.1884836
-0.054962348 -0.09447021 -0.18846744
-0.054964494 -0.094552025 -0.18847534
-0.05496674 -0.094633877 -0.18848123
-0.054969314 -0.094713911 -0.18847908
-0.054971755 -0.094795853 -0.18848097
-0.054974526 -0.094875969 -0.18847483
-0.054977432 -0.09495417 -0.18846466
-0.054979876 -0.095036112 -0.18846655
-0.054982059 -0.095115967 -0.18847239
-0.054985028 -0.095196173 -0.18846227
-0.054987699 -0.095276244 -0.18845811
-0.054960325 -0.086459719 -0.18830097
-0.054964203 -0.08653836 -0.18827081
-0.05497025 -0.086612038 -0.18819261
-0.054975767 -0.086687461 -0.18812642
-0.054980699 -0.086762622 -0.1880722
-0.054985203 -0.086839564 -0.18802804
-0.054989316 -0.086916335 -0.18799183
-0.05499392 -0.086993322 -0.18794566
-0.054997936 -0.087070048 -0.18791148
-0.055001095 -0.087150335 -0.18789735
-0.055004001 -0.087228537 -0.18788716
-0.055006769 -0.087308653 -0.18788102
-0.055009343 -0.087388687 -0.18787888
-0.055011917 -0.087468714 -0.18787675
-0.055014394 -0.087548703 -0.1878766
-0.055016734 -0.0876306 -0.18788049
-0.055018783 -0.08771237 -0.18789038
-0.055020478 -0.087792009 -0.18790621
-0.055022623 -0.087873816 -0.1879141
-0.055024866 -0.087955676 -0.18791999
-0.055026855 -0.088035449 -0.18792982
-0.055029098 -0.088117301 -0.18793571
-0.055031147 -0.088199072 -0.1879456
-0.055032901 -0.088280708 -0.18796149
-0.055034854 -0.088362433 -0.18797337
-0.05503694 -0.088442244 -0.1879812
-0.055038754 -0.088525884 -0.18799713
-0.05504084 -0.088605694 -0.18800497
-0.055043511 -0.088685766 -0.18800083
-0.055045851 -0.088767663 -0.18800473
-0.055047508 -0.088849261 -0.1880226
-0.055049069 -0.088930815 -0.18804246
-0.055050787 -0.089014411 -0.1880604
-0.055052835 -0.089096174 -0.18807027
-0.055054687 -0.089177862 -0.18808416
-0.055056542 -0.089259543 -0.18809804
-0.055058196 -0.089341134 -0.18811591
-0.055060148 -0.089422859 -0.18812779
-0.055062197 -0.089504629 -0.18813768
-0.055064049 -0.08958631 -0.18815157
-0.055065904 -0.089667991 -0.18816544
-0.055067949 -0.089749761 -0.18817532
-0.055070292 -0.089831665 -0.18817922
-0.055072572 -0.089911558 -0.18818307
-0.055074915 -0.089993462 -0.18818696
-0.055077292 -0.090073399 -0.18818881
-0.055079963 -0.090153471 -0.18818468
-0.055082731 -0.090233594 -0.18817854
-0.055085305 -0.090313621 -0.18817639
-0.055087648 -0.090395518 -0.18818028
-0.055090025 -0.090475462 -0.18818215
-0.055092562 -0.090557449 -0.18818204
-0.055094514 -0.090639174 -0.18819392
-0.055096172 -0.090720765 -0.1882118
-0.055097498 -0.090804189 -0.1882377
-0.055098824 -0.090887606 -0.18826361
-0.055101067 -0.090969458 -0.1882695
-0.055103738 -0.091049537 -0.18826535
-0.055106312 -0.091129571 -0.18826322
-0.055108987 -0.091209635 -0.18825908
-0.055111229 -0.091291495 -0.18826497
-0.055113412 -0.09137135 -0.18827081
-0.055115655 -0.09145321 -0.18827671
-0.055117898 -0.091535062 -0.18828261
-0.055120278 -0.091615006 -0.18828446
-0.055122521 -0.091696858 -0.18829034
-0.055125095 -0.091776893 -0.1882882
-0.055127863 -0.091857009 -0.18828206
-0.055130105 -0.091938861 -0.18828794
-0.055132486 -0.092018805 -0.18828981
-0.05513506 -0.092098832 -0.18828766
-0.055137206 -0.092180647 -0.18829554
-0.055139251 -0.092262417 -0.18830544
-0.055141166 -0.092346095 -0.18831936
-0.055142626 -0.092427604 -0.18834123
-0.055143915 -0.09251298 -0.18836918
-0.05514577 -0.092594661 -0.18838306
-0.055148538 -0.092674777 -0.18837693
-0.055151835 -0.092753157 -0.18835875
-0.055154897 -0.0928334 -0.18834662
-0.055157371 -0.092913389 -0.18834648
-0.055159517 -0.092995197 -0.18835437
-0.055161759 -0.093077056 -0.18836027
-0.055163614 -0.093158737 -0.18837413
-0.05516576 -0.093240544 -0.18838203
-0.055168234 -0.093320534 -0.18838188
-0.055170871 -0.093402565 -0.18837978
-0.055173676 -0.093480721 -0.1883716
-0.05517631 -0.093562752 -0.18836951
-0.05517859 -0.093642652 -0.18837336
-0.055180933 -0.093724549 -0.18837725
-0.055183273 -0.093806453 -0.18838115
-0.055185262 -0.093886219 -0.18839097
-0.055187076 -0.093969859 -0.18840691
-0.055188891 -0.094053492 -0.18842283
-0.055190939 -0.094135262 -0.18843272
-0.055193085 -0.094217077 -0.18844059
-0.055195853 -0.094297186 -0.18843448
-0.055199247 -0.09437561 -0.18841431
-0.055202052 -0.094453774 -0.18840612
-0.055204529 -0.094533756 -0.18840598
-0.055207592 -0.094614007 -0.18839385
-0.055210363 -0.094694123 -0.18838769
-0.055212408 -0.094775893 -0.18839759
-0.055214457 -0.094857663 -0.18840748
-0.055216935 -0.094937645 -0.18840733
-0.055219371 -0.095019586 -0.18840924
-0.055222239 -0.095099747 -0.1884011
-0.055225104 -0.095179908 -0.18839297
-0.055227816 -0.095258027 -0.18838677
-0.055294663 -0.086517058 -0.18816555
-0.05529936 -0.08659409 -0.18811738
-0.055305209 -0.086667687 -0.18804316
-0.055311643 -0.086741537 -0.18795696
-0.055315264 -0.086818092 -0.18793075
-0.055318948 -0.086896643 -0.1879046
-0.055322923 -0.086975329 -0.18787244
-0.055326607 -0.08705388 -0.18784629
-0.055330135 -0.087130383 -0.18782207
-0.055333193 -0.087210633 -0.18780996
-0.055335958 -0.087290749 -0.18780382
-0.055338237 -0.087370649 -0.18780768
-0.055340379 -0.087452464 -0.18781555
-0.055342756 -0.087532401 -0.18781741
-0.05534523 -0.087612391 -0.18781726
-0.055347409 -0.087692246 -0.18782312
-0.055349164 -0.087773889 -0.18783899
-0.055351205 -0.087855652 -0.18784887
-0.055353347 -0.087937467 -0.18785676
-0.055355199 -0.088019148 -0.18787064
-0.055357281 -0.088098958 -0.18787849
-0.055359621 -0.088180862 -0.18788238
-0.055361763 -0.088262677 -0.18789026
-0.055363648 -0.088342398 -0.18790211
-0.055365596 -0.088424124 -0.18791398
-0.055367544 -0.088505849 -0.18792588
-0.05536982 -0.088585749 -0.18792972
-0.055372454 -0.08866778 -0.18792763
-0.05537473 -0.08874768 -0.18793148
-0.055377107 -0.088827625 -0.18793333
-0.055379055 -0.088909343 -0.1879452
-0.055380572 -0.088992849 -0.18796712
-0.055381797 -0.089076228 -0.18799503
-0.055383548 -0.089157872 -0.1880109
-0.055385731 -0.08923772 -0.18801674
-0.05538715 -0.089321189 -0.18804067
-0.05538857 -0.08940465 -0.18806458
-0.055390619 -0.08948642 -0.18807447
-0.055392798 -0.089566275 -0.18808031
-0.055395037 -0.089648135 -0.18808621
-0.055397511 -0.089728117 -0.18808606
-0.055400178 -0.089808196 -0.18808192
-0.05540242 -0.089890048 -0.18808779
-0.055404563 -0.089971855 -0.18809569
-0.055406742 -0.090051718 -0.18810153
-0.055409607 -0.090131879 -0.18809339
-0.055412177 -0.090211906 -0.18809126
-0.055414516 -0.09029381 -0.18809515
-0.05541699 -0.090373792 -0.188095
-0.055419035 -0.090455562 -0.1881049
-0.05542098 -0.090537287 -0.18811679
-0.05542326 -0.09061718 -0.18812063
-0.055425402 -0.090698995 -0.18812852
-0.055427019 -0.090782546 -0.18814844
-0.055428576 -0.0908641 -0.18816832
-0.055430718 -0.090945914 -0.1881762
-0.055433191 -0.091025896 -0.18817607
-0.055435725 -0.091107883 -0.18817595
-0.055437904 -0.091187738 -0.18818179
-0.055439949 -0.091269508 -0.18819168
-0.055441897 -0.091351233 -0.18820357
-0.055444136 -0.091433086 -0.18820946
-0.055446573 -0.091515034 -0.18821135
-0.055448949 -0.091594972 -0.1882132
-0.05545152 -0.091674998 -0.18821107
-0.05545409 -0.091755033 -0.18820891
-0.055456329 -0.091836885 -0.18821481
-0.055458471 -0.091918699 -0.18822271
-0.055460654 -0.091998555 -0.18822855
-0.055463027 -0.092078499 -0.1882304
-0.055465657 -0.092160523 -0.18822831
-0.055467799 -0.092242345 -0.18823619
-0.055469945 -0.092324153 -0.18824407
-0.05547189 -0.092405878 -0.18825597
-0.055473313 -0.092489339 -0.18827987
-0.055474732 -0.092572801 -0.1883038
-0.055476874 -0.092654616 -0.18831168
-0.055479877 -0.092732862 -0.18829951
-0.055483166 -0.092811242 -0.18828134
-0.055485506 -0.092893139 -0.18828523
-0.055487122 -0.092976689 -0.18830514
-0.055489495 -0.093056634 -0.188307
-0.055492461 -0.09313684 -0.18829687
-0.0554947 -0.093218692 -0.18830276
-0.055496547 -0.093300372 -0.18831664
-0.055499315 -0.093380496 -0.1883105
-0.055502512 -0.093458831 -0.18829434
-0.055505607 -0.093537122 -0.18828017
-0.055508178 -0.093617149 -0.18827802
-0.055510417 -0.093699008 -0.18828392
-0.055512659 -0.09378086 -0.18828981
-0.055514801 -0.093862668 -0.18829769
-0.055516552 -0.093944311 -0.18831357
-0.055517934 -0.094029725 -0.18833953
-0.055519685 -0.094111368 -0.18835542
-0.055522259 -0.094191395 -0.18835327
-0.055525221 -0.0942716 -0.18834314
-0.055528611 -0.094350025 -0.18832296
-0.055531412 -0.094428182 -0.1883148
-0.055533655 -0.094510034 -0.18832068
-0.055536225 -0.094590068 -0.18831854
-0.055539187 -0.094670266 -0.1883084
-0.055540998 -0.094753906 -0.18832433
-0.055542555 -0.09483546 -0.1883442
-0.055544563 -0.094919182 -0.18835613
-0.055547561 -0.094997436 -0.18834396
-0.055550463 -0.095075637 -0.18833378
-0.055552803 -0.095157534 -0.18833768
-0.055555277 -0.095237523 -0.18833753
-0.055680946 -0.086495191 -0.18815258
-0.055685155 -0.086572006 -0.1881144
-0.055690866 -0.086647511 -0.18804422
-0.055695564 -0.086724542 -0.18799606
-0.055699483 -0.086801223 -0.18796384
-0.055703886 -0.086878121 -0.18792167
-0.055709247 -0.086951502 -0.18785745
-0.055713516 -0.087030314 -0.1878193
-0.055716906 -0.087108739 -0.18779914
-0.055720001 -0.087187029 -0.18778497
-0.055722866 -0.08726719 -0.18777683
-0.055725571 -0.08734531 -0.18777065
-0.055728298 -0.087427378 -0.18776655
-0.055730674 -0.087507322 -0.1877684
-0.05573266 -0.087587096 -0.18777825
-0.055734508 -0.087668777 -0.18779212
-0.055736162 -0.087750368 -0.18781
-0.055738106 -0.087832093 -0.18782189
-0.055740442 -0.08791399 -0.18782578
-0.055742621 -0.087993845 -0.18783163
-0.055744763 -0.08807566 -0.18783952
-0.055746846 -0.088155478 -0.18784736
-0.055749085 -0.08823733 -0.18785325
-0.055751655 -0.088317357 -0.1878511
-0.055753544 -0.088397086 -0.18786295
-0.055755451 -0.088480771 -0.18787688
-0.055757534 -0.088560581 -0.18788472
-0.055759575 -0.088642344 -0.18789461
-0.05576162 -0.088724121 -0.18790449
-0.055763897 -0.088804021 -0.18790834
-0.055766135 -0.088885874 -0.18791422
-0.055768121 -0.088965639 -0.18792407
-0.055769932 -0.08904928 -0.18794
-0.055771586 -0.089130878 -0.18795787
-0.055773042 -0.08921238 -0.18797974
-0.055774659 -0.089295931 -0.18799967
-0.05577641 -0.089377567 -0.18801554
-0.055778354 -0.089459293 -0.18802741
-0.055780496 -0.089541107 -0.18803531
-0.055782773 -0.089621007 -0.18803915
-0.055785112 -0.089702904 -0.18804306
-0.055787291 -0.08978276 -0.1880489
-0.055789433 -0.089864574 -0.18805678
-0.055791184 -0.08994621 -0.18807267
-0.055793423 -0.09002807 -0.18807855
-0.055796284 -0.090108231 -0.18807042
-0.055799089 -0.090186387 -0.18806225
-0.055801913 -0.090268508 -0.18805614
-0.055804424 -0.090346538 -0.18805397
-0.055806994 -0.090426564 -0.18805182
-0.055809334 -0.090508468 -0.18805572
-0.055811375 -0.090590231 -0.18806559
-0.05581332 -0.090671957 -0.18807748
-0.055815171 -0.090753645 -0.18809137
-0.055817019 -0.090835325 -0.18810524
-0.055818927 -0.090919003 -0.18811917
-0.055820912 -0.090998769 -0.18812901
-0.055823345 -0.09108071 -0.18813092
-0.055825625 -0.09116061 -0.18813476
-0.05582767 -0.091242388 -0.18814465
-0.055829808 -0.091324195 -0.18815252
-0.055831853 -0.091405965 -0.18816242
-0.055833898 -0.091487736 -0.18817231
-0.055835746 -0.091569416 -0.1881862
-0.055837788 -0.091651186 -0.18819606
-0.055840652 -0.09173134 -0.18818793
-0.055843554 -0.091809548 -0.18817776
-0.055846222 -0.09188962 -0.18817362
-0.055848755 -0.091971606 -0.18817352
-0.055851031 -0.092051506 -0.18817738
-0.055853173 -0.092133313 -0.18818527
-0.055855315 -0.092215128 -0.18819314
-0.05585736 -0.092296898 -0.18820304
-0.055858973 -0.092380449 -0.18822296
-0.055860527 -0.092462003 -0.18824282
-0.055862438 -0.092545681 -0.18825676
-0.055865105 -0.092625752 -0.18825261
-0.055868007 -0.092703961 -0.18824244
-0.055870149 -0.092785768 -0.18825033
-0.055872191 -0.092867538 -0.18826021
-0.055874724 -0.092949525 -0.18826011
-0.055877198 -0.093029514 -0.18825996
-0.055879533 -0.093111411 -0.18826386
-0.055881284 -0.093193047 -0.18827973
-0.055883229 -0.093274772 -0.18829161
-0.055886619 -0.093353197 -0.18827146
-0.055890009 -0.093431614 -0.18825129
-0.055892874 -0.093511775 -0.18824315
-0.05589515 -0.093591675 -0.18824701
-0.055897526 -0.09367162 -0.18824886
-0.055900194 -0.093751691 -0.18824472
-0.055903155 -0.093831897 -0.1882346
-0.055904966 -0.09391553 -0.18825051
-0.055906191 -0.093998909 -0.18827842
-0.055907942 -0.094080545 -0.18829429
-0.055910181 -0.094162405 -0.18830019
-0.055913374 -0.09424074 -0.18828402
-0.055916533 -0.094321027 -0.18826988
-0.055919103 -0.094401062 -0.18826775
-0.055921145 -0.094482824 -0.18827763
-0.055922762 -0.094566375 -0.18829755
-0.055925563 -0.094644539 -0.18828937
-0.055928819 -0.094724871 -0.18827325
-0.055931427 -0.094802946 -0.18826905
-0.055933997 -0.09488298 -0.18826693
-0.055937152 -0.094963267 -0.18825279
-0.055940349 -0.095041603 -0.18823662
-0.055943113 -0.095121719 -0.18823048
-0.055945393 -0.095201619 -0.18823434
-0.056154415 -0.086398043 -0.18821019
-0.056159012 -0.08647503 -0.188164
-0.056164142 -0.086550273 -0.18810581
-0.056169171 -0.086625479 -0.1880496
-0.056173965 -0.086702555 -0.18799943
-0.056178801 -0.086777672 -0.18794721
-0.056183595 -0.086854748 -0.18789706
-0.056187939 -0.086929649 -0.18785483
-0.056192208 -0.087008461 -0.18781668
-0.056195736 -0.087084964 -0.18779248
-0.056198929 -0.087163299 -0.18777633
-0.05620189 -0.087243505 -0.18776619
-0.056204267 -0.08732345 -0.18776804
-0.056206405 -0.087405257 -0.18777592
-0.056208976 -0.087485291 -0.18777378
-0.056211352 -0.087565236 -0.18777563
-0.056213591 -0.087647088 -0.18778153
-0.056215968 -0.087727033 -0.18778338
-0.056218341 -0.087806977 -0.18778524
-0.056220092 -0.087888613 -0.18780111
-0.056221552 -0.087970123 -0.18782297
-0.0562234 -0.088051803 -0.18783686
-0.056225151 -0.088133439 -0.18785274
-0.056226961 -0.08821708 -0.18786865
-0.056229237 -0.08829698 -0.1878725
-0.05623132 -0.08837679 -0.18788035
-0.056233268 -0.088458516 -0.18789223
-0.056236032 -0.088538632 -0.18788609
-0.056238897 -0.0886188 -0.18787795
-0.056241468 -0.088698827 -0.18787581
-0.056243744 -0.088778727 -0.18787967
-0.056245886 -0.088860542 -0.18788755
-0.056247968 -0.088940352 -0.18789539
-0.056249876 -0.08902403 -0.18790932
-0.056251433 -0.089105584 -0.1879292
-0.056252792 -0.089187048 -0.18795307
-0.056254406 -0.089270599 -0.18797298
-0.056256257 -0.08935228 -0.18798685
-0.056258399 -0.089434087 -0.18799475
-0.05626044 -0.089515857 -0.18800463
-0.056262523 -0.089595675 -0.18801248
-0.056264333 -0.089679308 -0.1880284
-0.056266084 -0.089760944 -0.18804428
-0.056268033 -0.08984267 -0.18805617
-0.056270503 -0.089922659 -0.18805602
-0.056273505 -0.090000905 -0.18804383
-0.056276366 -0.090081066 -0.1880357
-0.05627884 -0.090161055 -0.18803556
-0.056281373 -0.090243042 -0.18803546
-0.056284234 -0.090323202 -0.18802732
-0.056286942 -0.090401322 -0.18802114
-0.056289084 -0.090483129 -0.18802904
-0.056291126 -0.090564899 -0.18803892
-0.056293268 -0.090646714 -0.18804681
-0.056295447 -0.090726569 -0.18805265
-0.056297161 -0.090810157 -0.18807057
-0.05629858 -0.090893626 -0.1880945
-0.056300528 -0.090975352 -0.18810636
-0.056302708 -0.091055207 -0.18811221
-0.056304555 -0.091136888 -0.18812609
-0.056305975 -0.091220349 -0.18815
-0.056307882 -0.091304034 -0.18816394
-0.056310356 -0.091384023 -0.18816379
-0.056313884 -0.091460526 -0.18813959
-0.056317564 -0.091539077 -0.18811342
-0.056320235 -0.091619156 -0.18810928
-0.056321789 -0.091700703 -0.18812916
-0.056323931 -0.091782518 -0.18813705
-0.056326695 -0.091862634 -0.18813092
-0.056329168 -0.091942623 -0.18813077
-0.056331214 -0.092024386 -0.18814066
-0.056333259 -0.092106156 -0.18815054
-0.056334969 -0.092189752 -0.18816847
-0.05633682 -0.092271432 -0.18818234
-0.056338668 -0.092353113 -0.18819623
-0.056340516 -0.092434794 -0.1882101
-0.056342326 -0.092518434 -0.18822601
-0.05634404 -0.092602029 -0.18824396
-0.056346279 -0.092683882 -0.18824984
-0.056349277 -0.092762128 -0.18823767
-0.056351982 -0.092840247 -0.18823147
-0.056354847 -0.092920408 -0.18822335
-0.056358043 -0.092998743 -0.18820718
-0.056361005 -0.093078949 -0.18819705
-0.056364294 -0.093157321 -0.18817888
-0.056367293 -0.093235575 -0.18816671
-0.056369536 -0.093317427 -0.18817261
-0.056371775 -0.093399286 -0.18817848
-0.056374677 -0.093477488 -0.18816832
-0.056377012 -0.093559384 -0.18817219
-0.056378566 -0.093640938 -0.18819207
-0.056380868 -0.093724795 -0.18819802
-0.056383241 -0.093804732 -0.18819986
-0.056385286 -0.093886502 -0.18820974
-0.056387231 -0.093968228 -0.18822163
-0.056388751 -0.094051734 -0.18824354
-0.056390364 -0.094135284 -0.18826346
-0.056392603 -0.094217144 -0.18826935
-0.056394979 -0.094297081 -0.18827121
-0.056397647 -0.09437716 -0.18826707
-0.05640094 -0.09445554 -0.1882489
-0.056404132 -0.094533876 -0.18823275
-0.056406703 -0.094613902 -0.18823059
-0.056409139 -0.094695844 -0.18823248
-0.056411222 -0.094775654 -0.18824032
-0.056413755 -0.094857641 -0.18824023
-0.056416851 -0.094935931 -0.18822606
-0.056419753 -0.09501414 -0.18821588
-0.056422383 -0.095096171 -0.1882138
-0.05642499 -0.095174238 -0.18820959
-0.056678057 -0.08643695 -0.18801562
-0.056682266 -0.086513765 -0.18797743
-0.05668677 -0.086590707 -0.18793327
-0.056690976 -0.086667523 -0.18789509
-0.056695577 -0.08674451 -0.1878489
-0.056700081 -0.086821452 -0.18780473
-0.05670337 -0.086899832 -0.18778658
-0.05670647 -0.086978123 -0.18777239
-0.056709565 -0.087056413 -0.18775822
-0.056711938 -0.087136358 -0.18776008
-0.05671408 -0.087218165 -0.18776795
-0.056716848 -0.087298281 -0.18776181
-0.056719907 -0.087378532 -0.18774968
-0.056722086 -0.087458387 -0.18775554
-0.056724072 -0.08753816 -0.18776539
-0.056725919 -0.087619841 -0.18777926
-0.056727864 -0.087701567 -0.18779114
-0.056730203 -0.087783463 -0.18779504
-0.056732673 -0.087863445 -0.18779489
-0.056734852 -0.087943308 -0.18780074
-0.056737132 -0.088023208 -0.18780458
-0.056739993 -0.088103369 -0.18779644
-0.05674348 -0.088181831 -0.1877743
-0.056746285 -0.088259995 -0.1877661
-0.056748524 -0.088341847 -0.18777201
-0.056750473 -0.088423572 -0.1877839
-0.056752417 -0.088505298 -0.18779576
-0.056754269 -0.088586979 -0.18780965
-0.056756154 -0.088666707 -0.18782149
-0.056758098 -0.088748433 -0.18783337
-0.056760341 -0.088830292 -0.18783927
-0.056762286 -0.08891201 -0.18785113
-0.05676394 -0.088993609 -0.18786901
-0.056765787 -0.08907529 -0.1878829
-0.056767248 -0.089156799 -0.18790476
-0.056768861 -0.089240342 -0.18792468
-0.056770515 -0.089321941 -0.18794256
-0.056772031 -0.089405447 -0.18796447
-0.056773685 -0.089487046 -0.18798235
-0.056775633 -0.089568771 -0.18799424
-0.056777678 -0.089650542 -0.18800411
-0.056780051 -0.089730486 -0.18800595
-0.056782488 -0.089812428 -0.18800786
-0.056784861 -0.089892365 -0.18800971
-0.056787528 -0.089972444 -0.18800557
-0.056790393 -0.090052597 -0.18799743
-0.056792963 -0.090132631 -0.1879953
-0.056795202 -0.090214483 -0.18800119
-0.056797579 -0.090294428 -0.18800303
-0.056800149 -0.090374455 -0.18800089
-0.056802191 -0.090456225 -0.18801078
-0.056804273 -0.090536043 -0.18801862
-0.056806512 -0.090617895 -0.18802452
-0.05680836 -0.090699583 -0.18803841
-0.056809977 -0.090783127 -0.18805832
-0.056811631 -0.090864725 -0.1880762
-0.056813344 -0.090948313 -0.18809411
-0.056815386 -0.091030091 -0.188104
-0.056817371 -0.091109857 -0.18811384
-0.056819513 -0.091191664 -0.18812172
-0.056821655 -0.091273479 -0.18812962
-0.056824226 -0.091353506 -0.18812747
-0.0568267 -0.091433495 -0.18812732
-0.056829367 -0.091513567 -0.1881232
-0.056832131 -0.091593683 -0.18811704
-0.056834605 -0.091673672 -0.18811691
-0.056837078 -0.091753662 -0.18811676
-0.056839708 -0.091835693 -0.18811466
-0.056842279 -0.091915719 -0.18811253
-0.056844749 -0.091995701 -0.18811238
-0.056846794 -0.092077479 -0.18812226
-0.056848641 -0.092159152 -0.18813613
-0.056850784 -0.092240967 -0.18814403
-0.056852631 -0.092322648 -0.18815792
-0.056854151 -0.092406154 -0.18817982
-0.056856293 -0.092487969 -0.18818772
-0.056858569 -0.092567869 -0.18819156
-0.056860771 -0.09265168 -0.18819949
-0.056863282 -0.09272971 -0.18819731
-0.05686605 -0.092809826 -0.18819116
-0.056868676 -0.092891857 -0.18818906
-0.056871384 -0.092969969 -0.18818289
-0.056874149 -0.093050092 -0.18817675
-0.056877013 -0.093130246 -0.18816862
-0.056880109 -0.093208537 -0.18815443
-0.056883108 -0.09328679 -0.18814227
-0.056885775 -0.093366861 -0.18813813
-0.056887917 -0.093448669 -0.18814602
-0.056889962 -0.093530446 -0.18815589
-0.056892104 -0.093612254 -0.18816379
-0.056894146 -0.093694024 -0.18817368
-0.056895956 -0.093777657 -0.1881896
-0.056897808 -0.093859345 -0.18820348
-0.056899849 -0.093941107 -0.18821336
-0.056901798 -0.09402284 -0.18822524
-0.056904331 -0.094104826 -0.18822515
-0.056906939 -0.094182894 -0.18822096
-0.056908943 -0.094266623 -0.1882329
-0.056911122 -0.094346479 -0.18823874
-0.05691389 -0.094426595 -0.1882326
-0.056916323 -0.094508536 -0.18823451
-0.056918699 -0.094588473 -0.18823636
-0.056921758 -0.094668724 -0.18822423
-0.056924365 -0.094746798 -0.18822002
-0.056926802 -0.09482874 -0.18822193
-0.056929272 -0.094908729 -0.18822178
-0.056931648 -0.094988674 -0.18822363
-0.056934278 -0.095070697 -0.18822154
-0.056936983 -0.095148817 -0.18821535
-0.057104439 -0.08633326 -0.18814644
-0.057109334 -0.086410381 -0.18809429
-0.057114068 -0.086485453 -0.18804407
-0.05712017 -0.086561136 -0.18796588
-0.057123892 -0.086637735 -0.18793769
-0.057128392 -0.086714678 -0.18789351
-0.05713303 -0.086789705 -0.18784529
-0.057137005 -0.08686839 -0.18781316
-0.057140727 -0.086944982 -0.18778495
-0.05714402 -0.087023363 -0.18776679
-0.057147078 -0.087103613 -0.18775466
-0.057149939 -0.087183766 -0.18774652
-0.057152316 -0.087263711 -0.18774837
-0.057154592 -0.087343611 -0.18775222
-0.057156734 -0.087425426 -0.18776011
-0.057158817 -0.087505236 -0.18776795
-0.057160959 -0.087587051 -0.18777585
-0.057163432 -0.087667033 -0.1877757
-0.057165612 -0.087746896 -0.18778154
-0.057168044 -0.087828837 -0.18778345
-0.057170849 -0.087906994 -0.18777527
-0.057173714 -0.087987155 -0.18776712
-0.057176284 -0.088067189 -0.18776499
-0.057178561 -0.088147089 -0.18776883
-0.0571808 -0.088228941 -0.18777472
-0.057183273 -0.08830893 -0.18777457
-0.05718565 -0.088388875 -0.18777643
-0.057187926 -0.088468768 -0.18778028
-0.057190165 -0.088550627 -0.18778616
-0.057192445 -0.088630527 -0.18779001
-0.057194721 -0.088710427 -0.18779388
-0.057196666 -0.088792153 -0.18780576
-0.057198282 -0.088875704 -0.18782566
-0.05720013 -0.088957384 -0.18783955
-0.057201881 -0.08903902 -0.18785542
-0.057203341 -0.08912053 -0.1878773
-0.057204429 -0.089205816 -0.18790925
-0.057205886 -0.089287326 -0.18793112
-0.057207834 -0.089369051 -0.187943
-0.057209779 -0.089450777 -0.18795487
-0.05721163 -0.089532465 -0.18796876
-0.057213768 -0.089614272 -0.18797664
-0.057216242 -0.089694262 -0.18797651
-0.057218619 -0.089774199 -0.18797836
-0.057221189 -0.089854233 -0.18797621
-0.057223663 -0.089934215 -0.18797606
-0.057226427 -0.090014331 -0.18796992
-0.057229389 -0.090094537 -0.18795979
-0.057231627 -0.090176389 -0.18796569
-0.057233613 -0.090256162 -0.18797553
-0.057235658 -0.090337932 -0.18798542
-0.057237994 -0.090419829 -0.18798932
-0.057240076 -0.09049964 -0.18799715
-0.057241689 -0.09058319 -0.18801707
-0.057243247 -0.090664744 -0.18803695
-0.057244569 -0.090748161 -0.18806285
-0.057245988 -0.09083163 -0.18808676
-0.057248324 -0.090913527 -0.18809065
-0.057250798 -0.090993516 -0.18809052
-0.057252977 -0.091073371 -0.18809636
-0.057255413 -0.091155313 -0.18809825
-0.057257887 -0.091235295 -0.1880981
-0.057260163 -0.091315195 -0.18810196
-0.057262499 -0.091397099 -0.18810585
-0.057264838 -0.091478996 -0.18810976
-0.057266723 -0.091558725 -0.18812159
-0.057269059 -0.091640621 -0.18812548
-0.05727163 -0.091720656 -0.18812335
-0.057274301 -0.091800727 -0.1881192
-0.057276871 -0.091880754 -0.18811706
-0.057279442 -0.091960788 -0.18811491
-0.057281874 -0.092042729 -0.1881168
-0.057284251 -0.092122674 -0.18811865
-0.057285864 -0.092206225 -0.18813857
-0.057286993 -0.092289552 -0.18816848
-0.057289232 -0.092371404 -0.18817437
-0.057291705 -0.092451394 -0.18817422
-0.05729365 -0.092533126 -0.18818611
-0.057295792 -0.092614934 -0.18819401
-0.057298459 -0.092695005 -0.18818986
-0.057301227 -0.092775121 -0.18818372
-0.057303697 -0.092855111 -0.18818358
-0.057305843 -0.092936918 -0.18819147
-0.05730851 -0.093016997 -0.18818733
-0.057311371 -0.09309715 -0.18817919
-0.057313748 -0.093177095 -0.18818104
-0.057315789 -0.093258873 -0.18819094
-0.057317931 -0.09334068 -0.18819882
-0.057320271 -0.093422577 -0.18820271
-0.057322938 -0.093502648 -0.18819857
-0.057326034 -0.093580939 -0.1881844
-0.057327785 -0.093662582 -0.18820028
-0.057328776 -0.093747824 -0.18823421
-0.057330392 -0.093831375 -0.18825415
-0.057331908 -0.093914881 -0.18827605
-0.057333428 -0.093998387 -0.18829797
-0.057335861 -0.094080329 -0.18829986
-0.057337847 -0.094160102 -0.18830971
-0.057339951 -0.094243869 -0.18831964
-0.057342228 -0.094323769 -0.1883235
-0.05734542 -0.094402105 -0.18830732
-0.057348188 -0.094482221 -0.18830118
-0.057350662 -0.094562203 -0.18830103
-0.057352997 -0.094644107 -0.18830493
-0.057355665 -0.094724178 -0.18830079
-0.057358433 -0.094804294 -0.18829465
-0.05736028 -0.094885975 -0.18830854
-0.0573617 -0.094969437 -0.18833245
-0.057552617 -0.086548798 -0.18816245
-0.057557747 -0.086624041 -0.18810424
-0.057561763 -0.086700775 -0.18807006
-0.057565875 -0.086777538 -0.18803388
-0.05757264 -0.08684957 -0.18793961
-0.057577047 -0.086926475 -0.18789744
-0.057580143 -0.087004766 -0.18788329
-0.05758334 -0.087083101 -0.18786711
-0.057586301 -0.087163299 -0.18785697
-0.057588678 -0.087243244 -0.18785882
-0.057591211 -0.08732523 -0.18785873
-0.057593681 -0.087405212 -0.18785858
-0.057595961 -0.08748512 -0.18786243
-0.057598729 -0.087565236 -0.18785629
-0.057601534 -0.087643392 -0.18784812
-0.057604298 -0.087723508 -0.18784198
-0.057607066 -0.087803632 -0.18783584
-0.05760983 -0.087883741 -0.1878297
-0.057612736 -0.087961949 -0.18781951
-0.057615306 -0.088041976 -0.18781738
-0.057617642 -0.08812388 -0.18782127
-0.057620019 -0.088203818 -0.18782313
-0.057621967 -0.08828555 -0.18783501
-0.057623617 -0.088367142 -0.18785289
-0.057627648 -0.088528678 -0.18787262
-0.057630219 -0.088608712 -0.18787047
-0.057632558 -0.088690609 -0.18787438
-0.057634115 -0.088772163 -0.18789423
-0.05763606 -0.088853881 -0.18790612
-0.057638202 -0.088935696 -0.18791401
-0.057640053 -0.089017376 -0.1879279
-0.057641488 -0.089185655 -0.18800572
-0.057642907 -0.089269117 -0.18802962
-0.057645284 -0.089349061 -0.18803148
-0.057647854 -0.089429088 -0.18802935
-0.057649899 -0.089510858 -0.18803921
-0.057651944 -0.089592628 -0.18804911
-0.057654418 -0.089672618 -0.18804896
-0.05765656 -0.089754425 -0.18805686
-0.057658408 -0.089836106 -0.18807074
-0.057659864 -0.089917615 -0.1880926
-0.05766109 -0.090000995 -0.18812051
-0.05766939 -0.090241343 -0.1881021
-0.057670422 -0.090324633 -0.18813401
-0.057672758 -0.09040653 -0.18813789
-0.057675034 -0.090486437 -0.18814175
-0.057677705 -0.090566501 -0.18813761
-0.057679418 -0.090650097 -0.18815553
-0.057681073 -0.090731695 -0.1881734
-0.057682492 -0.090815157 -0.18819731
-0.057683952 -0.090896666 -0.18821919
-0.057685956 -0.090980388 -0.18823111
-0.057688724 -0.091060504 -0.18822497
-0.057691198 -0.091140494 -0.18822484
-0.057693142 -0.091222219 -0.18823671
-0.057694994 -0.0913039 -0.1882506
-0.057697233 -0.091385752 -0.18825649
-0.057699278 -0.091467522 -0.18826637
-0.057701163 -0.091547251 -0.1882782
-0.057702973 -0.091630891 -0.18829414
-0.057722099 -0.092365153 -0.18836708
-0.057722464 -0.092452094 -0.18841505
-0.057725232 -0.09253221 -0.18840893
-0.057728037 -0.092610374 -0.18840075
-0.057730276 -0.092692226 -0.18840663
-0.057745602 -0.093263082 -0.18845382
-0.057747021 -0.093346544 -0.18847772
