# .PCD v0.7 - Point Cloud Data file format
VERSION 0.7
FIELDS x y z
SIZE 4 4 4
TYPE F F F
COUNT 1 1 1
WIDTH 1269
HEIGHT 1
VIEWPOINT 0 0 0 1 0 0 0
POINTS 1269
DATA ascii
-0.0387263 -0.061815456 -0.18676931
-0.03873083 -0.06189635 -0.1867272
-0.038735107 -0.061975159 -0.18668906
-0.038740322 -0.062056355 -0.18663299
-0.038743585 -0.062136687 -0.18661687
-0.038746461 -0.062216848 -0.18660873
-0.038749628 -0.062297136 -0.18659459
-0.038752634 -0.062375382 -0.18658242
-0.038755078 -0.062457323 -0.18658431
-0.038757171 -0.062537134 -0.18659215
-0.038759556 -0.062617078 -0.18659399
-0.038761552 -0.062696852 -0.18660381
-0.038763605 -0.062778622 -0.18661371
-0.038765796 -0.062858477 -0.18661955
-0.038767986 -0.062938333 -0.18662539
-0.038769491 -0.06301789 -0.18664521
-0.038771253 -0.063099526 -0.18666108
-0.038773444 -0.063179381 -0.18666692
-0.038775694 -0.063261241 -0.18667281
-0.038777884 -0.063341096 -0.18667865
-0.038779877 -0.063420862 -0.18668848
-0.038782164 -0.063500762 -0.18669233
-0.038784452 -0.063580662 -0.18669617
-0.038786311 -0.06366235 -0.18671004
-0.038787916 -0.063741945 -0.18672787
-0.038789716 -0.063821629 -0.18674171
-0.038791869 -0.063903444 -0.18674958
-0.038793862 -0.063983209 -0.18675941
-0.038795624 -0.064064853 -0.1867753
-0.038796704 -0.064146191 -0.18680514
-0.038797624 -0.06422548 -0.18683694
-0.038798213 -0.064306602 -0.18687677
-0.03879939 -0.064387985 -0.18690464
-0.038802557 -0.064468272 -0.18689051
-0.038805235 -0.064548343 -0.18688637
-0.038806312 -0.064629681 -0.18691622
-0.03880778 -0.064711191 -0.18693808
-0.038810167 -0.064791135 -0.18693992
-0.038812123 -0.064872861 -0.1869518
-0.038813632 -0.064952411 -0.18697163
-0.038815625 -0.065032184 -0.18698145
-0.038816899 -0.065113604 -0.18700731
-0.038818564 -0.065195203 -0.18702519
-0.03882134 -0.065275319 -0.18701905
-0.038824115 -0.065355435 -0.18701291
-0.038826596 -0.065435424 -0.18701276
-0.03882914 -0.065517403 -0.18701264
-0.038831133 -0.065597177 -0.18702248
-0.038833283 -0.065678984 -0.18703038
-0.038835473 -0.065758847 -0.18703622
-0.038837079 -0.065838441 -0.18705404
-0.038838647 -0.065919995 -0.1870739
-0.038840797 -0.06600181 -0.18708178
-0.038843572 -0.066081926 -0.18707564
-0.038845569 -0.066161692 -0.18708548
-0.038847622 -0.066243462 -0.18709536
-0.0388503 -0.066323534 -0.18709122
-0.038852394 -0.066403344 -0.18709905
-0.038854349 -0.066485077 -0.18711093
-0.038856931 -0.066565104 -0.18710878
-0.038859509 -0.066645131 -0.18710662
-0.038861174 -0.066726729 -0.18712449
-0.038862839 -0.066808328 -0.18714237
-0.038864404 -0.066889875 -0.18716224
-0.038866203 -0.066969559 -0.18717608
-0.038869895 -0.06704811 -0.18714991
-0.038872536 -0.067130141 -0.18714781
-0.038874824 -0.067210041 -0.18715164
-0.038877267 -0.067291982 -0.18715355
-0.038879067 -0.067371666 -0.18716738
-0.038880829 -0.067453302 -0.18718323
-0.038883116 -0.067533202 -0.18718708
-0.038885169 -0.067614973 -0.18719697
-0.038887031 -0.067696653 -0.18721084
-0.038889218 -0.067776509 -0.18721668
-0.038891505 -0.067856409 -0.18722053
-0.038893756 -0.067938268 -0.18722641
-0.038896143 -0.068018213 -0.18722826
-0.03889849 -0.06810011 -0.18723215
-0.038900681 -0.068179965 -0.18723799
-0.038902968 -0.068259865 -0.18724184
-0.038906034 -0.068340108 -0.18722969
-0.038908906 -0.068420269 -0.18722156
-0.038911253 -0.068502165 -0.18722546
-0.038913347 -0.068581983 -0.1872333
-0.038915303 -0.068663709 -0.18724516
-0.038917493 -0.068743564 -0.187251
-0.038919646 -0.068825379 -0.1872589
-0.038921408 -0.068907015 -0.18727477
-0.038922876 -0.068988524 -0.18729663
-0.038924441 -0.069070078 -0.18731651
-0.038926203 -0.069151714 -0.18733236
-0.038927771 -0.069233268 -0.18735224
-0.038929667 -0.069312997 -0.18736407
-0.038932443 -0.069393113 -0.18735793
-0.038935415 -0.069473311 -0.1873478
-0.038938053 -0.069555342 -0.18734568
-0.038939852 -0.069635026 -0.18735951
-0.038942199 -0.069716923 -0.18736342
-0.038945306 -0.069795214 -0.18734923
-0.03894775 -0.069877155 -0.18735112
-0.038950138 -0.0699571 -0.18735296
-0.038952619 -0.070037089 -0.18735281
-0.038954478 -0.07011877 -0.18736669
-0.038956728 -0.070200622 -0.18737257
-0.038959697 -0.070280828 -0.18736245
-0.038962182 -0.07036081 -0.18736228
-0.038964234 -0.07044258 -0.18737218
-0.038966425 -0.070522442 -0.18737802
-0.038968772 -0.070604339 -0.18738189
-0.038971059 -0.070684239 -0.18738575
-0.038973115 -0.070766002 -0.18739563
-0.038975205 -0.07084582 -0.18740347
-0.038977455 -0.070927672 -0.18740934
-0.038979609 -0.071009487 -0.18741724
-0.038981896 -0.071089387 -0.18742108
-0.038984962 -0.07116963 -0.18740895
-0.038987935 -0.071249835 -0.18739882
-0.038990378 -0.071331777 -0.1874007
-0.038992044 -0.071413375 -0.18741858
-0.038993746 -0.071493015 -0.18743441
-0.03899648 -0.071575083 -0.18743029
-0.038999259 -0.071655199 -0.18742415
-0.039001741 -0.071735188 -0.187424
-0.039004419 -0.07181526 -0.18741986
-0.039006997 -0.071895286 -0.18741772
-0.039009541 -0.071977273 -0.18741761
-0.039011829 -0.072057173 -0.18742146
-0.039014079 -0.072139032 -0.18742734
-0.039016657 -0.072219059 -0.1874252
-0.039019141 -0.072299048 -0.18742505
-0.039021 -0.072380729 -0.18743891
-0.039022662 -0.07246232 -0.18745679
-0.039024912 -0.07254418 -0.18746266
-0.039027259 -0.072626077 -0.18746656
-0.039030075 -0.072704241 -0.18745837
-0.039032128 -0.072786003 -0.18746826
-0.039033987 -0.072867692 -0.18748213
-0.03903614 -0.072949499 -0.18749002
-0.039038621 -0.073029488 -0.18748987
-0.039041359 -0.073111556 -0.18748577
-0.039044369 -0.073189802 -0.1874736
-0.039047338 -0.073270008 -0.18746345
-0.039049819 -0.073349997 -0.1874633
-0.039052363 -0.073431976 -0.18746319
-0.039054945 -0.07351201 -0.18746105
-0.039057329 -0.073591955 -0.1874629
-0.039059579 -0.073673807 -0.18746878
-0.03906206 -0.073753797 -0.18746863
-0.03906431 -0.073835649 -0.18747452
-0.039066073 -0.073917285 -0.18749039
-0.039068323 -0.073999144 -0.18749627
-0.039070804 -0.074079126 -0.18749613
-0.039072856 -0.074160896 -0.18750601
-0.039074816 -0.074242622 -0.18751788
-0.039077356 -0.074324608 -0.18751779
-0.039080132 -0.074404724 -0.18751162
-0.03908252 -0.074484669 -0.18751347
-0.039084669 -0.074566483 -0.18752137
-0.039086625 -0.074648201 -0.18753324
-0.039088972 -0.074730106 -0.18753713
-0.039091066 -0.074809916 -0.18754497
-0.03909345 -0.074889861 -0.18754682
-0.039096616 -0.074970149 -0.18753269
-0.03909988 -0.075050481 -0.18751656
-0.039102461 -0.075130507 -0.18751441
-0.039104808 -0.075212412 -0.1875183
-0.039106704 -0.07529214 -0.18753013
-0.039108954 -0.075373992 -0.18753603
-0.039111204 -0.075455844 -0.1875419
-0.039113063 -0.075537533 -0.18755579
-0.039115116 -0.075619295 -0.18756565
-0.039117172 -0.075701065 -0.18757555
-0.03911975 -0.075781099 -0.1875734
-0.039122723 -0.075861298 -0.18756327
-0.039125595 -0.075941458 -0.18755513
-0.039127942 -0.076023355 -0.18755901
-0.03913023 -0.076103255 -0.18756285
-0.039132185 -0.076184981 -0.18757473
-0.039134145 -0.076266706 -0.18758661
-0.039135963 -0.076350346 -0.18760253
-0.039138019 -0.076432116 -0.18761241
-0.0391405 -0.076512098 -0.18761227
-0.039143179 -0.076592177 -0.18760812
-0.03914576 -0.076672204 -0.18760598
-0.039148107 -0.076754101 -0.18760985
-0.039150491 -0.076834045 -0.1876117
-0.039152935 -0.076915987 -0.18761361
-0.039154697 -0.076997623 -0.18762946
-0.03915685 -0.077079438 -0.18763736
-0.039159101 -0.077161297 -0.18764323
-0.039160825 -0.077244885 -0.18766116
-0.039163113 -0.077324793 -0.187665
-0.039165888 -0.077404901 -0.18765885
-0.039168626 -0.077486977 -0.18765476
-0.039170872 -0.077568829 -0.18766065
-0.039172869 -0.077648602 -0.18767048
-0.03917541 -0.077730581 -0.18767038
-0.039177757 -0.077812485 -0.18767427
-0.039179813 -0.077894256 -0.18768415
-0.039182059 -0.077976108 -0.18769003
-0.039184738 -0.078056179 -0.18768588
-0.039187651 -0.078134388 -0.1876757
-0.039190192 -0.078216366 -0.1876756
-0.039192773 -0.078296401 -0.18767345
-0.039195608 -0.078378513 -0.18766735
-0.03919737 -0.078460157 -0.18768322
-0.039198607 -0.078543529 -0.18771112
-0.039201051 -0.07862547 -0.18771303
-0.039203104 -0.078707241 -0.18772291
-0.039204828 -0.078790836 -0.18774082
-0.039206821 -0.078870609 -0.18775065
-0.039209597 -0.078950718 -0.18774451
-0.03921257 -0.079030924 -0.18773438
-0.039215636 -0.079111174 -0.18772225
-0.03921818 -0.07919316 -0.18772215
-0.039220233 -0.079274923 -0.18773203
-0.039222229 -0.079354696 -0.18774185
-0.039224576 -0.079436593 -0.18774575
-0.039227352 -0.079516709 -0.1877396
-0.039230518 -0.079596996 -0.18772547
-0.03923339 -0.079677157 -0.18771733
-0.039235774 -0.079757102 -0.18771918
-0.039238025 -0.079838954 -0.18772507
-0.039240565 -0.07992094 -0.18772496
-0.039243437 -0.080001101 -0.18771683
-0.039246116 -0.080081172 -0.18771267
-0.039248697 -0.080161199 -0.18771052
-0.039250519 -0.080244839 -0.18772644
-0.039252046 -0.080328345 -0.18774836
-0.039254393 -0.080410242 -0.18775225
-0.039256584 -0.080490105 -0.18775809
-0.039259322 -0.080572173 -0.18775398
-0.039262526 -0.080650508 -0.18773782
-0.039265398 -0.080730669 -0.18772969
-0.039267648 -0.080812521 -0.18773556
-0.039269798 -0.080894336 -0.18774346
-0.039271951 -0.080976143 -0.18775132
-0.039274495 -0.08105813 -0.18775123
-0.039277174 -0.081138209 -0.18774709
-0.039280239 -0.081218451 -0.18773496
-0.039282955 -0.081296571 -0.18772876
-0.039285302 -0.081378467 -0.18773265
-0.039287649 -0.081460364 -0.18773654
-0.039289899 -0.081542224 -0.18774243
-0.039292481 -0.081622243 -0.18774027
-0.039295256 -0.081702366 -0.18773413
-0.0392977 -0.081784308 -0.18773603
-0.039299034 -0.081867732 -0.18776193
-0.039301477 -0.081949666 -0.18776381
-0.039303534 -0.082031444 -0.1877737
-0.039306074 -0.082113422 -0.1877736
-0.039309472 -0.08219184 -0.18775344
-0.039312579 -0.082270131 -0.18773925
-0.039315451 -0.082350291 -0.18773112
-0.039318092 -0.082432322 -0.187729
-0.039320048 -0.082514048 -0.18774089
-0.039321907 -0.082595728 -0.18775477
-0.039324157 -0.082677588 -0.18776065
-0.03932631 -0.082759395 -0.18776853
-0.039329048 -0.082841471 -0.18776444
-0.039332252 -0.082919806 -0.18774827
-0.039335258 -0.082998052 -0.18773608
-0.039338231 -0.08307825 -0.18772596
-0.0393412 -0.083158448 -0.18771581
-0.039343059 -0.083240137 -0.18772969
-0.039344549 -0.083325595 -0.18775363
-0.038120002 -0.033639953 -0.17605942
-0.038122755 -0.033716116 -0.1760512
-0.038124472 -0.033789847 -0.1760629
-0.038125895 -0.033863448 -0.17608058
-0.038127802 -0.033937268 -0.17608829
-0.038131457 -0.034017771 -0.17606416
-0.038135011 -0.034098234 -0.17604205
-0.038137469 -0.034174267 -0.17603981
-0.038140573 -0.034252558 -0.17602563
-0.038143583 -0.034330804 -0.17601345
-0.038145844 -0.034406751 -0.1760152
-0.038147658 -0.034480527 -0.1760249
-0.038149823 -0.034556426 -0.17602865
-0.038152926 -0.034634717 -0.17601448
-0.038155679 -0.03471088 -0.17600626
-0.038157649 -0.034786694 -0.17601401
-0.038162436 -0.034869678 -0.17596796
-0.038168866 -0.034959301 -0.1758921
-0.038170874 -0.035033159 -0.17589781
-0.03817388 -0.035111409 -0.17588562
-0.038176533 -0.035187528 -0.17587939
-0.038178504 -0.035263345 -0.17588714
-0.038180515 -0.035337202 -0.17589284
-0.03818268 -0.035413109 -0.17589658
-0.038185138 -0.035489142 -0.17589435
-0.038188338 -0.035567474 -0.17587818
-0.038191248 -0.035645679 -0.175868
-0.038194645 -0.035724096 -0.17584783
-0.038198397 -0.035804644 -0.17582172
-0.038201049 -0.035880767 -0.17581549
-0.038203862 -0.035958927 -0.1758073
-0.038207062 -0.036037259 -0.17579111
-0.038209874 -0.036115423 -0.17578295
-0.038212176 -0.036189411 -0.17578265
-0.038214792 -0.036267489 -0.17577846
-0.038218934 -0.036348205 -0.17574435
-0.038222976 -0.036428884 -0.17571226
-0.038226724 -0.036509432 -0.17568615
-0.038229674 -0.036585681 -0.17567392
-0.038232192 -0.036663711 -0.17567173
-0.038235687 -0.036742177 -0.17564955
-0.038239338 -0.036822684 -0.17562544
-0.038242541 -0.036901012 -0.17560926
-0.038245387 -0.03697722 -0.17559904
-0.038247459 -0.037053078 -0.17560479
-0.03824966 -0.037127025 -0.17560649
-0.038253218 -0.037207492 -0.17558438
-0.03825894 -0.037292857 -0.17552042
-0.038262047 -0.037371147 -0.17550623
-0.038264502 -0.037447181 -0.175504
-0.038267255 -0.037523344 -0.17549577
-0.038270906 -0.037603848 -0.17547165
-0.038274206 -0.037682224 -0.17545348
-0.038276412 -0.037756171 -0.17545518
-0.038281746 -0.037841365 -0.17539921
-0.038290735 -0.037936069 -0.17527352
-0.038295329 -0.038018961 -0.17523147
-0.038298823 -0.038097423 -0.17520931
-0.03830222 -0.038175844 -0.17518914
-0.038305968 -0.038256392 -0.17516303
-0.038309854 -0.038335029 -0.17513287
-0.038313605 -0.038415577 -0.17510676
-0.038316358 -0.038491741 -0.17509854
-0.038319461 -0.038570032 -0.17508435
-0.03832325 -0.03864862 -0.1750562
-0.038327098 -0.038729213 -0.17502809
-0.038330398 -0.038807593 -0.17500992
-0.038333636 -0.038883969 -0.1749917
-0.03833897 -0.038969163 -0.17493573
-0.038342953 -0.039047845 -0.17490357
-0.038346607 -0.039128348 -0.17487946
-0.038349748 -0.039204687 -0.17486325
-0.038352404 -0.039280802 -0.17485701
-0.038355153 -0.039356966 -0.17484878
-0.038357772 -0.039435036 -0.17484459
-0.038361657 -0.039513677 -0.17481443
-0.038367283 -0.039598998 -0.17475246
-0.038371269 -0.03967768 -0.17472032
-0.038373921 -0.039753802 -0.17471409
-0.038376771 -0.039830007 -0.17470384
-0.038379777 -0.039908253 -0.17469168
-0.038381785 -0.03998211 -0.17469737
-0.038383499 -0.040055845 -0.17470907
-0.038385607 -0.040129747 -0.17471278
-0.038387321 -0.040203482 -0.17472446
-0.038388491 -0.040274996 -0.1747461
-0.038390107 -0.040348683 -0.17475981
-0.038391724 -0.040422373 -0.17477348
-0.038391758 -0.040491417 -0.17481704
-0.038391598 -0.040560372 -0.17486459
-0.038391475 -0.040627368 -0.1749101
-0.03839092 -0.040696152 -0.17496565
-0.038389623 -0.040762633 -0.17503512
-0.038387977 -0.040826987 -0.17511053
-0.038385585 -0.04088904 -0.17519988
-0.038210325 -0.040580712 -0.17863557
-0.0382111 -0.040652059 -0.17866519
-0.038211193 -0.040723097 -0.17870879
-0.038212579 -0.040798653 -0.17872852
-0.038216133 -0.040879115 -0.17870641
-0.038220078 -0.040959753 -0.17867629
-0.038223535 -0.041040175 -0.17865616
-0.038225248 -0.041113902 -0.17866787
-0.038225502 -0.041186985 -0.17870951
-0.038225144 -0.041255854 -0.17876107
-0.038224846 -0.041326724 -0.17881265
-0.038224354 -0.041397505 -0.17886823
-0.038222179 -0.041463599 -0.17895567
-0.038220394 -0.041529864 -0.17903516
-0.03822 -0.041600686 -0.17908874
-0.037715323 -0.040821128 -0.18905145
-0.03771751 -0.040900987 -0.18905729
-0.037606072 -0.040709659 -0.19124484
-0.037609961 -0.040798157 -0.19122091
-0.037613638 -0.040882617 -0.19119889
-0.037616335 -0.040966645 -0.19119683
-0.037617799 -0.041048154 -0.19121867
-0.037618812 -0.041127492 -0.19124849
-0.037620023 -0.041206919 -0.1912743
-0.038303144 -0.061030276 -0.18981811
-0.038384743 -0.061190642 -0.18822931
-0.038389564 -0.061271667 -0.18818122
-0.038393706 -0.061352391 -0.18814711
-0.038396578 -0.061432548 -0.18813898
-0.038398728 -0.061514363 -0.18814686
-0.038465831 -0.061589427 -0.18680385
-0.038470559 -0.061670408 -0.18675777
-0.038475715 -0.061749604 -0.18670166
-0.038480535 -0.061830629 -0.18665358
-0.03848419 -0.061911136 -0.18662946
-0.038488563 -0.061989985 -0.18658932
-0.038492996 -0.062070839 -0.18654922
-0.03849626 -0.062151171 -0.18653309
-0.038499169 -0.062229373 -0.18652292
-0.038502194 -0.062311575 -0.18651283
-0.038505007 -0.062389735 -0.18650463
-0.038508035 -0.062471937 -0.18649456
-0.038510416 -0.062551878 -0.18649641
-0.038511824 -0.062631391 -0.18651822
-0.038513191 -0.062712856 -0.18654208
-0.038515378 -0.062792711 -0.18654792
-0.038518053 -0.06287279 -0.18654376
-0.038519949 -0.062952511 -0.18655559
-0.038521353 -0.063032024 -0.18657742
-0.038523111 -0.063113667 -0.18659329
-0.038525395 -0.063193567 -0.18659714
-0.03852725 -0.063275248 -0.18661103
-0.038529441 -0.063355103 -0.18661687
-0.038531821 -0.063435048 -0.18661872
-0.038533814 -0.063514814 -0.18662855
-0.038535904 -0.063594632 -0.18663639
-0.038538054 -0.063676439 -0.18664426
-0.038540043 -0.063756213 -0.18665409
-0.038541742 -0.063835852 -0.18666992
-0.038543597 -0.063917533 -0.1866838
-0.03854559 -0.063997306 -0.18669364
-0.038547546 -0.064079031 -0.18670553
-0.038549148 -0.064158626 -0.18672335
-0.03855022 -0.064239964 -0.18675318
-0.038551293 -0.064321302 -0.18678305
-0.038552992 -0.064400941 -0.18679887
-0.038555045 -0.064482711 -0.18680876
-0.038556647 -0.064562306 -0.18682659
-0.038558345 -0.064641945 -0.18684241
-0.038559616 -0.064723372 -0.18686828
-0.038561374 -0.064805008 -0.18688415
-0.038563658 -0.064884908 -0.18688798
-0.03856571 -0.064966679 -0.18689787
-0.038567897 -0.065046534 -0.18690372
-0.038570277 -0.065126479 -0.18690556
-0.038572367 -0.065206289 -0.1869134
-0.038574811 -0.065288231 -0.18691529
-0.038577486 -0.06536831 -0.18691114
-0.038579769 -0.06544821 -0.18691498
-0.038581725 -0.065529935 -0.18692687
-0.038583912 -0.06560979 -0.18693271
-0.038586061 -0.065691605 -0.18694061
-0.038588151 -0.065771416 -0.18694843
-0.038590435 -0.065851316 -0.18695226
-0.038592387 -0.065933041 -0.18696415
-0.038594186 -0.066012725 -0.18697798
-0.038596861 -0.066092797 -0.18697384
-0.038599107 -0.066174656 -0.18697973
-0.038600806 -0.066254295 -0.18699557
-0.038603052 -0.066336147 -0.18700145
-0.03860563 -0.066416174 -0.18699929
-0.038607195 -0.066497728 -0.18701917
-0.038608696 -0.066577286 -0.18703899
-0.038610786 -0.066657096 -0.18704683
-0.038612641 -0.066738784 -0.18706071
-0.038614497 -0.066820465 -0.18707457
-0.038617369 -0.066900618 -0.18706644
-0.038620532 -0.066980913 -0.18705231
-0.038623307 -0.067061029 -0.18704617
-0.038625885 -0.067141056 -0.18704402
-0.038627874 -0.067220829 -0.18705386
-0.038630024 -0.067302637 -0.18706174
-0.038632214 -0.0673825 -0.18706758
-0.038634166 -0.067464218 -0.18707946
-0.03863563 -0.067545727 -0.18710133
-0.038637429 -0.067625418 -0.18711516
-0.038640358 -0.067707568 -0.18710707
-0.03864317 -0.067785732 -0.18709889
-0.038645122 -0.067867458 -0.18711075
-0.038646981 -0.067949139 -0.18712464
-0.038649265 -0.068029039 -0.18712848
-0.038651511 -0.068110898 -0.18713437
-0.03865321 -0.068190537 -0.1871502
-0.038654968 -0.068272173 -0.18716606
-0.038657408 -0.068354115 -0.18716797
-0.038659986 -0.068434149 -0.18716583
-0.038662761 -0.068514265 -0.18715967
-0.038665339 -0.068594292 -0.18715751
-0.038667429 -0.06867411 -0.18716536
-0.038669966 -0.068756089 -0.18716526
-0.03867235 -0.068836033 -0.18716711
-0.038674302 -0.068917759 -0.18717898
-0.038676102 -0.068997443 -0.18719281
-0.038677469 -0.069078907 -0.18721668
-0.038678795 -0.069162332 -0.18724258
-0.038680691 -0.06924206 -0.18725441
-0.038684148 -0.069322482 -0.1872343
-0.038687021 -0.069402635 -0.18722615
-0.038689107 -0.069482446 -0.187234
-0.038690768 -0.069564044 -0.18725187
-0.038692333 -0.069645599 -0.18727174
-0.038694482 -0.069727413 -0.18727961
-0.038696669 -0.069807269 -0.18728545
-0.038698915 -0.069889121 -0.18729135
-0.038701981 -0.069969371 -0.18727922
-0.03870495 -0.070049569 -0.18726908
-0.03870704 -0.070129387 -0.18727693
-0.038709383 -0.070211284 -0.1872808
-0.038712058 -0.070291355 -0.18727666
-0.038714442 -0.0703713 -0.18727851
-0.038716823 -0.070451245 -0.18728036
-0.038719267 -0.070533186 -0.18728226
-0.038721453 -0.070613042 -0.18728811
-0.038723309 -0.070694722 -0.18730196
-0.038725067 -0.070776366 -0.18731785
-0.038727742 -0.070856437 -0.18731371
-0.038730811 -0.07093668 -0.18730158
-0.038732961 -0.071018495 -0.18730944
-0.038735244 -0.071098395 -0.18731329
-0.038737588 -0.071180291 -0.18731719
-0.038739678 -0.07126011 -0.18732503
-0.038742118 -0.071342051 -0.18732691
-0.038744502 -0.071421988 -0.18732876
-0.038746983 -0.071501978 -0.18732861
-0.038748935 -0.071583703 -0.1873405
-0.038751181 -0.071665555 -0.18734637
-0.038754482 -0.071743935 -0.18732822
-0.038757645 -0.071824223 -0.18731408
-0.038759932 -0.071904123 -0.18731794
-0.038762275 -0.07198602 -0.18732181
-0.038764656 -0.072065964 -0.18732366
-0.038767099 -0.072147906 -0.18732557
-0.038769387 -0.072227806 -0.1873294
-0.038771339 -0.072309531 -0.18734127
-0.0387729 -0.072391085 -0.18736115
-0.038775478 -0.072471112 -0.18735901
-0.038778313 -0.072553232 -0.1873529
-0.038780205 -0.072632954 -0.18736473
-0.038782451 -0.072714813 -0.18737063
-0.038784932 -0.072794795 -0.18737048
-0.038787317 -0.07287474 -0.18737233
-0.03878966 -0.072956637 -0.1873762
-0.038791943 -0.073036537 -0.18738005
-0.038794681 -0.073118612 -0.18737596
-0.038797062 -0.073198557 -0.18737781
-0.03879964 -0.073278584 -0.18737566
-0.038802899 -0.073358916 -0.18735953
-0.038806103 -0.073437251 -0.18734336
-0.038808547 -0.073519193 -0.18734525
-0.038810734 -0.073599048 -0.18735108
-0.03881298 -0.073680907 -0.18735698
-0.03881513 -0.073762715 -0.18736486
-0.038816787 -0.073844314 -0.18738273
-0.038818352 -0.073925868 -0.18740261
-0.038820304 -0.074007593 -0.18741448
-0.038822591 -0.074087486 -0.18741833
-0.038825423 -0.074169606 -0.18741223
-0.038828 -0.074249633 -0.18741009
-0.038830541 -0.074331619 -0.18740997
-0.038832631 -0.074411437 -0.18741782
-0.038834684 -0.0744932 -0.1874277
-0.038836829 -0.074575014 -0.18743558
-0.038839214 -0.074654959 -0.18743743
-0.03884146 -0.074736811 -0.18744332
-0.038843647 -0.074816667 -0.18744916
-0.038846187 -0.074898653 -0.18744905
-0.038848765 -0.074978679 -0.18744691
-0.038851734 -0.075058885 -0.18743677
-0.0388548 -0.075139135 -0.18742464
-0.038857378 -0.075219162 -0.1874225
-0.038859427 -0.075300932 -0.18743238
-0.038861286 -0.075382613 -0.18744625
-0.038863335 -0.075464383 -0.18745613
-0.038865484 -0.075546198 -0.18746403
-0.038867671 -0.075626053 -0.18746985
-0.038870446 -0.075706169 -0.18746372
-0.038873218 -0.075786285 -0.18745758
-0.038875759 -0.075868264 -0.18745747
-0.038877808 -0.075950034 -0.18746737
-0.038879566 -0.076031677 -0.18748324
-0.038881522 -0.076113403 -0.18749511
-0.03888328 -0.076195046 -0.18751098
-0.038884941 -0.076276638 -0.18752885
-0.038887382 -0.076358579 -0.18753076
-0.038890056 -0.07643865 -0.1875266
-0.038892735 -0.076518722 -0.18752246
-0.03889541 -0.076598801 -0.18751831
-0.038897987 -0.076678827 -0.18751617
-0.038900234 -0.076760679 -0.18752205
-0.038902286 -0.07684245 -0.18753193
-0.038904436 -0.076924264 -0.18753982
-0.038906194 -0.0770059 -0.1875557
-0.038907912 -0.077089496 -0.18757361
-0.038909964 -0.077171266 -0.18758349
-0.038912542 -0.077251293 -0.18758135
-0.038915217 -0.077331364 -0.1875772
-0.038917661 -0.077413306 -0.1875791
-0.038920727 -0.077493556 -0.18756697
-0.038923305 -0.077573583 -0.18756482
-0.038925454 -0.077655397 -0.1875727
-0.038927406 -0.077737123 -0.18758458
-0.038929127 -0.077820718 -0.18760249
-0.038931079 -0.077902444 -0.18761438
-0.038933657 -0.07798247 -0.18761222
-0.038936235 -0.078062505 -0.18761007
-0.038939007 -0.078142613 -0.18760395
-0.038941979 -0.078222826 -0.1875938
-0.038944028 -0.078304589 -0.18760368
-0.038946275 -0.078386441 -0.18760958
-0.038948949 -0.07846652 -0.18760543
-0.038951099 -0.078548327 -0.18761331
-0.038952626 -0.078631833 -0.18763521
-0.038954344 -0.078715429 -0.18765314
-0.038956203 -0.078797117 -0.18766701
-0.038958974 -0.078877226 -0.18766087
-0.038962565 -0.07895574 -0.18763672
-0.038965341 -0.079035856 -0.18763056
-0.038967393 -0.079117626 -0.18764046
-0.038969833 -0.079199567 -0.18764235
-0.038972706 -0.079279721 -0.1876342
-0.038975187 -0.07935971 -0.18763405
-0.038977236 -0.079441473 -0.18764395
-0.038979053 -0.079525113 -0.18765986
-0.038981006 -0.079606846 -0.18767174
-0.038983487 -0.079686828 -0.1876716
-0.03898669 -0.079765163 -0.18765542
-0.038990244 -0.079845622 -0.18763331
-0.038992822 -0.079925656 -0.18763115
-0.0389954 -0.080005683 -0.18762901
-0.038997646 -0.080087543 -0.18763489
-0.038999502 -0.080169223 -0.18764877
-0.03900142 -0.080252901 -0.18766269
-0.039003372 -0.080334626 -0.18767457
-0.039005287 -0.080418304 -0.1876885
-0.039007533 -0.080500163 -0.18769437
-0.039010774 -0.080576539 -0.18767616
-0.039014466 -0.080655091 -0.18765
-0.039017238 -0.080735207 -0.18764386
-0.039019153 -0.080818892 -0.18765777
-0.039021108 -0.080900617 -0.18766966
-0.039023548 -0.080982551 -0.18767154
-0.039025601 -0.081064329 -0.18768144
-0.039028276 -0.0811444 -0.18767729
-0.039031439 -0.081224687 -0.18766317
-0.039034016 -0.081304714 -0.18766102
-0.039036363 -0.081386611 -0.1876649
-0.039039135 -0.081466734 -0.18765876
-0.039041907 -0.081546843 -0.18765262
-0.039044254 -0.081628747 -0.18765651
-0.039046403 -0.081710562 -0.18766439
-0.03904888 -0.081790544 -0.18766424
-0.039051559 -0.081870615 -0.1876601
-0.039053999 -0.081952557 -0.18766201
-0.039056346 -0.082034454 -0.18766588
-0.03905892 -0.082114488 -0.18766373
-0.039061598 -0.082194559 -0.18765959
-0.039063942 -0.082276456 -0.1876635
-0.039066322 -0.082356401 -0.18766534
-0.03906896 -0.082438432 -0.18766323
-0.039071012 -0.082520202 -0.18767312
-0.039073355 -0.082602099 -0.18767701
-0.03907574 -0.082682043 -0.18767886
-0.039078183 -0.082763985 -0.18768075
-0.039081346 -0.082844272 -0.18766662
-0.039084449 -0.082922563 -0.18765244
-0.039086502 -0.083004326 -0.18766233
-0.039088551 -0.083086103 -0.18767221
-0.039091229 -0.083166175 -0.18766806
-0.039093964 -0.083248243 -0.18766397
-0.039096773 -0.083326407 -0.18765578
-0.037848022 -0.03364687 -0.17605317
-0.037849441 -0.033720475 -0.17607085
-0.037850805 -0.033792075 -0.1760885
-0.03785307 -0.033868022 -0.17609024
-0.037857719 -0.033952914 -0.17604825
-0.037862211 -0.034035765 -0.17600821
-0.037864476 -0.034111708 -0.17600995
-0.037866291 -0.034185484 -0.17601967
-0.037868004 -0.034259215 -0.17603135
-0.037870269 -0.034335159 -0.17603311
-0.037872825 -0.034411237 -0.17602888
-0.037875187 -0.034487225 -0.17602864
-0.037877448 -0.034563169 -0.1760304
-0.037879556 -0.034637075 -0.17603409
-0.037882075 -0.034715105 -0.1760319
-0.0378877 -0.034800433 -0.17596993
-0.037893586 -0.034887843 -0.17590401
-0.037896786 -0.034966175 -0.17588784
-0.037899442 -0.035042293 -0.17588161
-0.037902348 -0.035120495 -0.17587143
-0.037905063 -0.035198614 -0.17586523
-0.037907168 -0.035272516 -0.17586896
-0.037909627 -0.035348549 -0.17586671
-0.03791244 -0.035426714 -0.17585853
-0.037914898 -0.035502743 -0.17585629
-0.037917163 -0.03557869 -0.17585804
-0.037920658 -0.035657153 -0.17583588
-0.037925795 -0.035742261 -0.1757839
-0.037928451 -0.035818383 -0.17577766
-0.037930518 -0.035894241 -0.17578341
-0.037932429 -0.035968058 -0.17579111
-0.037934046 -0.036041744 -0.17580479
-0.037936311 -0.036117692 -0.17580655
-0.037938867 -0.036193766 -0.17580232
-0.037942167 -0.036272146 -0.17578414
-0.037946757 -0.036355037 -0.17574212
-0.037950605 -0.03643563 -0.175714
-0.037953712 -0.036513921 -0.17569983
-0.037956912 -0.036592253 -0.17568365
-0.03796047 -0.036672719 -0.17566153
-0.037963416 -0.036748968 -0.17564932
-0.037965775 -0.036824957 -0.17564906
-0.037968334 -0.036901031 -0.17564483
-0.037971731 -0.036979452 -0.17562467
-0.037975091 -0.037059825 -0.17560653
-0.037977841 -0.037135988 -0.17559829
-0.037982628 -0.037218966 -0.17555226
-0.03798677 -0.037299689 -0.17551816
-0.037989326 -0.037375763 -0.17551392
-0.03799253 -0.037454098 -0.17549777
-0.037996378 -0.037534691 -0.17546964
-0.037999284 -0.037612896 -0.17545947
-0.038002037 -0.03768906 -0.17545123
-0.03800524 -0.037767392 -0.17543507
-0.038011417 -0.037854932 -0.17536315
-0.038020153 -0.037947547 -0.17524141
-0.038024452 -0.038030311 -0.17520535
-0.038027301 -0.038106516 -0.17519513
-0.038029663 -0.038182504 -0.17519489
-0.038032413 -0.038258668 -0.17518666
-0.038035907 -0.03833713 -0.17516449
-0.038039856 -0.038417764 -0.17513439
-0.038043994 -0.038498487 -0.1751003
-0.038047101 -0.038576778 -0.17508611
-0.038050048 -0.038653027 -0.17507388
-0.038053542 -0.038731493 -0.17505172
-0.03805878 -0.038816642 -0.17499775
-0.038063407 -0.038897581 -0.17495364
-0.038067002 -0.038976084 -0.17492948
-0.038070496 -0.03905455 -0.17490733
-0.0380737 -0.039132886 -0.17489116
-0.038077097 -0.039211303 -0.174871
-0.03807985 -0.039287467 -0.17486276
-0.038082208 -0.039363455 -0.17486252
-0.038085155 -0.039439704 -0.17485029
-0.038089689 -0.039520599 -0.1748082
-0.038094282 -0.039603494 -0.17476615
-0.038098264 -0.039682172 -0.174734
-0.038101465 -0.039760508 -0.17471784
-0.038103729 -0.039836451 -0.1747196
-0.038106225 -0.039910525 -0.17471531
-0.038109429 -0.03998886 -0.17469913
-0.038111534 -0.040062767 -0.17470284
-0.038112957 -0.040136367 -0.17472053
-0.038115062 -0.040210273 -0.17472422
-0.038117424 -0.040286262 -0.17472398
-0.038118787 -0.040357862 -0.17474163
-0.038119368 -0.040429123 -0.17477524
-0.038119499 -0.040498205 -0.17481682
-0.038119923 -0.04056742 -0.17485237
-0.038119271 -0.040636159 -0.17490992
-0.038117073 -0.040698297 -0.17499527
-0.038115878 -0.040764824 -0.17506275
-0.038115166 -0.040831566 -0.17512023
-0.038112931 -0.040895656 -0.17520764
-0.038072985 -0.040862203 -0.17601413
-0.038074214 -0.040935714 -0.17603579
-0.037934944 -0.040720232 -0.17878425
-0.037936073 -0.040793706 -0.17880794
-0.0379382 -0.040871564 -0.17881373
-0.037933148 -0.040928494 -0.17895493
-0.037936218 -0.041008741 -0.1789428
-0.037791461 -0.040715888 -0.18175539
-0.037794136 -0.04079596 -0.18175125
-0.037796557 -0.040873948 -0.18175104
-0.037798196 -0.040951587 -0.18176684
-0.037798349 -0.041024629 -0.1818105
-0.037485424 -0.040704668 -0.18809125
-0.037488163 -0.040786743 -0.18808717
-0.037490506 -0.04086864 -0.18809104
-0.037441529 -0.040823292 -0.18907708
-0.037443485 -0.040905021 -0.18908896
-0.037443206 -0.04097984 -0.18914264
-0.037441503 -0.041052058 -0.18922424
-0.038070556 -0.061198588 -0.18909639
-0.038073976 -0.061280962 -0.1890783
-0.038075536 -0.061362516 -0.18909818
-0.038105834 -0.061441008 -0.18852054
-0.038188502 -0.061517045 -0.18685585
-0.038193561 -0.0615962 -0.18680173
-0.038198873 -0.061677441 -0.18674365
-0.038203347 -0.061756339 -0.18670151
-0.038207196 -0.061836928 -0.1866734
-0.038211532 -0.061917737 -0.18663532
-0.038216099 -0.061996676 -0.18659118
-0.038220145 -0.062077355 -0.18655908
-0.038223699 -0.062157817 -0.18653697
-0.038226608 -0.062236022 -0.18652678
-0.038229246 -0.062318049 -0.18652469
-0.038232118 -0.06239821 -0.18651654
-0.038234498 -0.062478151 -0.18651839
-0.038236294 -0.062557839 -0.18653221
-0.038238384 -0.062637649 -0.18654005
-0.038240533 -0.062719464 -0.18654794
-0.038242623 -0.062799275 -0.18655577
-0.038245395 -0.062879391 -0.18654963
-0.038247973 -0.062959418 -0.18654749
-0.038249966 -0.063039191 -0.18655732
-0.038252544 -0.063119218 -0.18655518
-0.038254928 -0.063199162 -0.18655702
-0.038256489 -0.063280717 -0.1865769
-0.038257796 -0.063360184 -0.18660071
-0.038259361 -0.063441738 -0.18662058
-0.038260959 -0.063521333 -0.1866384
-0.038262855 -0.063601062 -0.18665025
-0.038265198 -0.063682958 -0.18665412
-0.038267288 -0.063762769 -0.18666196
-0.038269084 -0.063842453 -0.1866758
-0.038270745 -0.063924052 -0.18669367
-0.038272642 -0.06400378 -0.1867055
-0.038274594 -0.064085506 -0.18671739
-0.038275901 -0.064164974 -0.1867412
-0.038277268 -0.064246438 -0.18676506
-0.038278732 -0.064327948 -0.18678692
-0.038280141 -0.06440746 -0.18680875
-0.038281996 -0.064489141 -0.18682262
-0.038284279 -0.064569041 -0.18682647
-0.038286075 -0.064648725 -0.1868403
-0.038287833 -0.064730361 -0.18685618
-0.038289923 -0.064810179 -0.18686402
-0.038291682 -0.064891815 -0.18687987
-0.038293049 -0.06497328 -0.18690374
-0.038295627 -0.065053314 -0.1869016
-0.038298696 -0.065133557 -0.18688947
-0.03830098 -0.065213457 -0.18689331
-0.038303029 -0.065295227 -0.18690319
-0.038305119 -0.065375037 -0.18691103
-0.038307503 -0.065454982 -0.18691288
-0.038309652 -0.065536797 -0.18692076
-0.03831213 -0.065616779 -0.18692061
-0.038314611 -0.065696768 -0.18692046
-0.038316406 -0.065776452 -0.18693429
-0.038317777 -0.065857917 -0.18695816
-0.038319923 -0.065939732 -0.18696605
-0.038322601 -0.066019803 -0.18696189
-0.038325079 -0.066099785 -0.18696176
-0.038326778 -0.066179432 -0.18697758
-0.038328342 -0.066260979 -0.18699744
-0.038330294 -0.066342704 -0.18700933
-0.038332287 -0.066422477 -0.18701917
-0.03833434 -0.066504247 -0.18702903
-0.038337208 -0.066584408 -0.1870209
-0.038339883 -0.06666448 -0.18701676
-0.038341876 -0.066744246 -0.18702659
-0.038343929 -0.066826016 -0.18703648
-0.038345918 -0.066905789 -0.18704632
-0.038348362 -0.066987731 -0.18704821
-0.038351074 -0.06706585 -0.18704203
-0.038353711 -0.067147873 -0.18703993
-0.038355801 -0.067227691 -0.18704776
-0.03835756 -0.067309327 -0.18706363
-0.038359318 -0.067390963 -0.18707952
-0.03836092 -0.067470565 -0.18709734
-0.038362775 -0.067552246 -0.1871112
-0.038364828 -0.067634016 -0.18712109
-0.038366918 -0.067713827 -0.18712893
-0.038369983 -0.067794077 -0.1871168
-0.038372561 -0.067874104 -0.18711466
-0.038374711 -0.067955919 -0.18712254
-0.038376994 -0.068035811 -0.18712638
-0.038379867 -0.068115979 -0.18711825
-0.038382445 -0.068196006 -0.18711609
-0.038384493 -0.068277776 -0.18712598
-0.038386352 -0.068359457 -0.18713987
-0.038388539 -0.068439312 -0.18714571
-0.038390689 -0.068521127 -0.18715358
-0.038392875 -0.068600982 -0.18715942
-0.038395453 -0.068681009 -0.18715727
-0.038398031 -0.068761043 -0.18715513
-0.038400374 -0.06884294 -0.18715903
-0.038402133 -0.068924576 -0.18717489
-0.038403306 -0.069005959 -0.18720275
-0.038405005 -0.069085598 -0.18721858
-0.03840686 -0.069167279 -0.18723245
-0.038409241 -0.069247223 -0.1872343
-0.038412075 -0.069329336 -0.18722822
-0.038414653 -0.06940937 -0.18722607
-0.038416743 -0.069489181 -0.18723391
-0.038419086 -0.069571078 -0.1872378
-0.038421176 -0.069650896 -0.18724564
-0.038422838 -0.069732487 -0.1872635
-0.038425416 -0.069812521 -0.18726136
-0.038428091 -0.069892593 -0.18725722
-0.038429946 -0.069974273 -0.18727109
-0.038432289 -0.07005617 -0.18727498
-0.038435258 -0.070136376 -0.18726484
-0.03843813 -0.070216537 -0.18725669
-0.038440842 -0.070294648 -0.18725052
-0.03844358 -0.070376724 -0.18724641
-0.038445767 -0.070456579 -0.18725225
-0.038448013 -0.070538431 -0.18725815
-0.038450103 -0.070618249 -0.18726599
-0.038452253 -0.070700057 -0.18727387
-0.038454633 -0.070780002 -0.18727572
-0.038457174 -0.070861988 -0.18727562
-0.038458932 -0.070943624 -0.1872915
-0.038461607 -0.071023703 -0.18728736
-0.03846442 -0.071101859 -0.18727916
-0.038466431 -0.071185589 -0.18729109
-0.038467798 -0.071267053 -0.18731496
-0.038469657 -0.071348734 -0.18732883
-0.038471743 -0.071428545 -0.18733667
-0.038473893 -0.07151036 -0.18734455
-0.038476668 -0.071590476 -0.18733841
-0.038479868 -0.071668811 -0.18732223
-0.038482603 -0.071750879 -0.18731815
-0.03848489 -0.071830779 -0.18732199
-0.038487367 -0.071910769 -0.18732184
-0.038490005 -0.071992792 -0.18731973
-0.038492486 -0.072072782 -0.18731959
-0.038494967 -0.072152764 -0.18731943
-0.038497116 -0.072234578 -0.18732733
-0.038499109 -0.072314352 -0.18733716
-0.038502369 -0.072394684 -0.18732104
-0.038505532 -0.072474971 -0.18730691
-0.038507916 -0.072554916 -0.18730876
-0.038509969 -0.072636686 -0.18731864
-0.038511727 -0.072718322 -0.18733451
-0.038513288 -0.072799876 -0.18735439
-0.038514853 -0.07288143 -0.18737425
-0.03851667 -0.072965063 -0.18739016
-0.038518954 -0.073044963 -0.18739401
-0.038521923 -0.073125169 -0.18738386
-0.038524501 -0.073205195 -0.18738173
-0.038526885 -0.07328514 -0.18738358
-0.038529754 -0.073365301 -0.18737543
-0.03853292 -0.073445588 -0.1873613
-0.038535692 -0.073525704 -0.18735516
-0.038537975 -0.073605604 -0.18735901
-0.038540516 -0.073687591 -0.1873589
-0.038542762 -0.073769443 -0.18736479
-0.038544327 -0.073850997 -0.18738467
-0.038545989 -0.073932596 -0.18740253
-0.038548663 -0.074012667 -0.18739839
-0.038551923 -0.074092999 -0.18738225
-0.038555223 -0.074171379 -0.1873641
-0.038557664 -0.074253321 -0.18736598
-0.038559422 -0.074334957 -0.18738186
-0.03856089 -0.074416466 -0.18740372
-0.038562551 -0.074498065 -0.18742159
-0.0385646 -0.074579827 -0.18743148
-0.038567141 -0.074661814 -0.18743138
-0.038570013 -0.074741974 -0.18742323
-0.03857249 -0.074821964 -0.18742308
-0.038574778 -0.074901864 -0.18742692
-0.038577415 -0.074983887 -0.18742484
-0.038580421 -0.075062141 -0.18741265
-0.038583353 -0.075144298 -0.18740457
-0.038585342 -0.075224064 -0.18741441
-0.038587298 -0.07530579 -0.18742627
-0.038589448 -0.075387605 -0.18743417
-0.038591594 -0.075469412 -0.18744203
-0.038593352 -0.075551055 -0.18745792
-0.038595404 -0.075632825 -0.18746781
-0.038597785 -0.07571277 -0.18746966
-0.038600657 -0.075792924 -0.18746153
-0.038603529 -0.075873084 -0.18745339
-0.038605679 -0.075954899 -0.18746126
-0.038607731 -0.076036662 -0.18747115
-0.03860978 -0.076118439 -0.18748103
-0.038611345 -0.076199986 -0.18750089
-0.0386132 -0.076281667 -0.18751477
-0.038615741 -0.076363653 -0.18751466
-0.038617983 -0.076445505 -0.18752056
-0.038619976 -0.076525278 -0.1875304
-0.03862242 -0.07660722 -0.18753228
-0.038625292 -0.076687381 -0.18752414
-0.038628258 -0.076767586 -0.18751401
-0.038630836 -0.076847613 -0.18751186
-0.038632594 -0.076929256 -0.18752775
-0.038634412 -0.077012889 -0.18754366
-0.038636502 -0.077092707 -0.1875515
-0.038638223 -0.077176303 -0.18756941
-0.038640469 -0.077258155 -0.1875753
-0.038642522 -0.077339917 -0.18758518
-0.038645491 -0.077420123 -0.18757504
-0.038648397 -0.077498332 -0.18756488
-0.038651135 -0.0775804 -0.18756077
-0.038653713 -0.077660426 -0.18755862
-0.038655862 -0.077742241 -0.1875665
-0.038657386 -0.077825747 -0.18758842
-0.038659241 -0.077907428 -0.1876023
-0.038661197 -0.077989161 -0.18761417
-0.038663968 -0.07806927 -0.18760803
-0.038667463 -0.078147739 -0.18758586
-0.038670335 -0.078227893 -0.18757772
-0.038672678 -0.078309789 -0.18758163
-0.03867463 -0.078391522 -0.1875935
-0.038676489 -0.078473203 -0.18760738
-0.038678735 -0.078555055 -0.18761326
-0.038680982 -0.078636914 -0.18761915
-0.038682602 -0.078720465 -0.18763907
-0.038684227 -0.078804016 -0.18765898
-0.038686708 -0.078883998 -0.18765883
-0.038689382 -0.078964077 -0.18765469
-0.038691826 -0.079046018 -0.18765658
-0.03869411 -0.079125918 -0.18766043
-0.038696747 -0.079207942 -0.18765834
-0.03869985 -0.079286233 -0.18764415
-0.038702525 -0.079366311 -0.18764001
-0.038704578 -0.079448074 -0.18764991
-0.038706534 -0.079529807 -0.18766177
-0.03870989 -0.079610176 -0.18764365
-0.038713094 -0.079688512 -0.18762746
-0.03871616 -0.079768755 -0.18761533
-0.038718641 -0.079848744 -0.18761519
-0.038720984 -0.079930641 -0.18761909
-0.038723368 -0.080010585 -0.18762094
-0.03872538 -0.080094308 -0.18763286
-0.038727332 -0.080176033 -0.18764473
-0.038729288 -0.080257758 -0.18765661
-0.038731009 -0.080341354 -0.18767452
-0.038733058 -0.080423124 -0.18768442
-0.038736224 -0.080503412 -0.18767029
-0.038739756 -0.080579922 -0.18764608
-0.03874249 -0.08066199 -0.18764198
-0.038744677 -0.080741853 -0.18764782
-0.038747024 -0.080823749 -0.18765172
-0.038749035 -0.080907471 -0.18766364
-0.03875171 -0.080987543 -0.1876595
-0.038754679 -0.081067748 -0.18764935
-0.038756829 -0.081149556 -0.18765724
-0.038759172 -0.08123146 -0.18766114
-0.03876185 -0.081311531 -0.187657
-0.038764954 -0.081389822 -0.18764281
-0.038767826 -0.081469983 -0.18763468
-0.038770206 -0.081549928 -0.18763652
-0.03877265 -0.081631862 -0.18763842
-0.038774993 -0.081713766 -0.18764231
-0.038777046 -0.081795529 -0.1876522
-0.038778767 -0.081879124 -0.18767011
-0.038780816 -0.081960894 -0.18767998
-0.038783163 -0.082042791 -0.18768388
-0.038785741 -0.082122825 -0.18768173
-0.038789038 -0.082201198 -0.18766356
-0.038792301 -0.08228153 -0.18764743
-0.038794585 -0.08236143 -0.18765128
-0.038796306 -0.082445025 -0.18766919
-0.038798455 -0.08252684 -0.18767709
-0.038800605 -0.082608655 -0.18768497
-0.038803045 -0.082690597 -0.18768686
-0.038805526 -0.082770579 -0.18768671
-0.038808301 -0.082850695 -0.18768057
-0.038811266 -0.0829309 -0.18767044
-0.038813844 -0.083010927 -0.18766829
-0.038816482 -0.083092958 -0.18766619
-0.038819391 -0.083171159 -0.18765602
-0.038822457 -0.083251402 -0.18764389
-0.038825467 -0.083329655 -0.1876317
-0.037527084 -0.033639368 -0.17615169
-0.037529543 -0.033715397 -0.17614946
-0.037532259 -0.033793516 -0.17614327
-0.037534818 -0.033869594 -0.17613903
-0.03753718 -0.033945583 -0.17613879
-0.037539992 -0.034023739 -0.17613059
-0.037543099 -0.03410203 -0.17611642
-0.037546106 -0.034180276 -0.17610425
-0.037548568 -0.034256309 -0.176102
-0.037551675 -0.0343346 -0.17608783
-0.037554681 -0.03441285 -0.17607565
-0.03755714 -0.034488879 -0.1760734
-0.037560344 -0.034567215 -0.17605723
-0.03756316 -0.034645375 -0.17604905
-0.03756433 -0.034716893 -0.17607069
-0.0375663 -0.03479271 -0.17607842
-0.037572671 -0.034880333 -0.17600253
-0.037578162 -0.034967571 -0.1759446
-0.037580818 -0.035043687 -0.17593837
-0.037583183 -0.035119675 -0.17593813
-0.037585095 -0.035193495 -0.17594583
-0.037586968 -0.035269268 -0.17595556
-0.03758898 -0.035343129 -0.17596127
-0.037591048 -0.035418987 -0.17596702
-0.037593704 -0.03549511 -0.17596078
-0.037598394 -0.035578042 -0.17591675
-0.037602145 -0.03565859 -0.17589062
-0.037603959 -0.035732366 -0.17590034
-0.037606325 -0.035808355 -0.17590009
-0.037609428 -0.035886645 -0.17588592
-0.037612729 -0.035965022 -0.17586774
-0.037615739 -0.036043271 -0.17585558
-0.037617259 -0.036116913 -0.17587125
-0.037618686 -0.036190517 -0.17588893
-0.037621047 -0.036266506 -0.17588869
-0.0376238 -0.036342666 -0.17588046
-0.037629236 -0.036427904 -0.1758225
-0.037633922 -0.03651084 -0.17577845
-0.037637126 -0.036589175 -0.17576228
-0.037639841 -0.036667295 -0.17575608
-0.037643045 -0.036745626 -0.17573991
-0.037646249 -0.036823958 -0.17572373
-0.037649199 -0.036900207 -0.17571151
-0.037652303 -0.036978498 -0.17569733
-0.037655603 -0.037056878 -0.17567918
-0.037658907 -0.037135251 -0.175661
-0.037662167 -0.037215583 -0.17564487
-0.037666954 -0.037298564 -0.17559883
-0.03767065 -0.037377112 -0.17557266
-0.037673302 -0.037453234 -0.17556643
-0.037675861 -0.037529308 -0.1755622
-0.037679221 -0.037609685 -0.17554408
-0.037683658 -0.037690535 -0.17550398
-0.037686761 -0.037768826 -0.17548981
-0.037689026 -0.03784477 -0.17549156
-0.03769524 -0.037930354 -0.17541762
-0.037702512 -0.038022324 -0.17532583
-0.037706301 -0.038100913 -0.17529768
-0.037709702 -0.038179334 -0.1752775
-0.037713256 -0.038259797 -0.17525539
-0.037716947 -0.038338348 -0.17522922
-0.037720151 -0.03841668 -0.17521304
-0.037723355 -0.038495012 -0.17519689
-0.037726011 -0.03857113 -0.17519064
-0.03772812 -0.038645037 -0.17519435
-0.037731968 -0.038725629 -0.17516625
-0.037739374 -0.038815685 -0.17507041
-0.037743263 -0.038894318 -0.17504025
-0.037747111 -0.038974911 -0.17501214
-0.037750803 -0.039053462 -0.17498599
-0.037754007 -0.039131798 -0.17496982
-0.037757013 -0.039210044 -0.17495763
-0.037760355 -0.039286464 -0.17493743
-0.037763204 -0.039362669 -0.17492719
-0.037766017 -0.039440833 -0.17491901
-0.037770003 -0.039519511 -0.17488685
-0.037774045 -0.039600186 -0.17485476
-0.037777346 -0.039678566 -0.17483658
-0.03778049 -0.039754901 -0.17482036
-0.037783597 -0.039833192 -0.17480618
-0.037786994 -0.039911613 -0.17478602
-0.03778965 -0.039987728 -0.17477977
-0.037791561 -0.040061548 -0.17478749
-0.037794024 -0.040137582 -0.17478526
-0.037796482 -0.040213615 -0.17478301
-0.037797946 -0.040285259 -0.17479865
-0.03779937 -0.04035886 -0.17481634
-0.03780064 -0.040430419 -0.17483597
-0.037801221 -0.040501676 -0.17486958
-0.037801258 -0.040570721 -0.17491314
-0.037801683 -0.040639937 -0.17494872
-0.03780178 -0.040710978 -0.17499232
-0.037799392 -0.040773027 -0.17508167
-0.03779804 -0.040837511 -0.17515109
-0.037796162 -0.040903732 -0.17523256
-0.037791055 -0.040958665 -0.17537369
-0.037613429 -0.040714346 -0.17890078
-0.037615363 -0.040792119 -0.17891055
-0.037616979 -0.040865809 -0.17892425
-0.037567053 -0.040810168 -0.17992404
-0.037567012 -0.040883124 -0.17997167
-0.037495814 -0.040776655 -0.18137991
-0.037410956 -0.040638499 -0.18305117
-0.037414122 -0.040718786 -0.18303703
-0.037416212 -0.040798601 -0.18304487
-0.037418053 -0.040876329 -0.18305665
-0.037259948 -0.040630795 -0.18617809
-0.037258539 -0.04070314 -0.18625368
-0.037258752 -0.040778179 -0.18629739
-0.037750944 -0.061295804 -0.18925515
-0.037753817 -0.061375961 -0.18924701
-0.03775626 -0.061457902 -0.1892489
-0.037863754 -0.061531141 -0.18706661
-0.037871584 -0.061609551 -0.18695454
-0.03788035 -0.061690349 -0.18682453
-0.0378858 -0.061769675 -0.18676242
-0.037890822 -0.061850786 -0.18671036
-0.037894376 -0.061931249 -0.18668824
-0.037898164 -0.062009841 -0.18666007
-0.037902113 -0.062090475 -0.18662997
-0.037905667 -0.062170938 -0.18660784
-0.037908833 -0.062251229 -0.18659371
-0.037911512 -0.0623313 -0.18658957
-0.03791409 -0.062411331 -0.18658742
-0.037916668 -0.062491361 -0.18658528
-0.037919153 -0.062571347 -0.18658513
-0.037921242 -0.062651157 -0.18659297
-0.037923589 -0.062733054 -0.18659687
-0.037925683 -0.062812872 -0.18660471
-0.03792787 -0.062892728 -0.18661055
-0.037930157 -0.062972628 -0.18661439
-0.037931956 -0.063052312 -0.18662822
-0.037933715 -0.063133948 -0.18664408
-0.037936199 -0.063213937 -0.18664394
-0.037938975 -0.063294053 -0.18663779
-0.037941258 -0.063373953 -0.18664165
-0.037942827 -0.063455507 -0.18666151
-0.037944 -0.063536882 -0.18668936
-0.0379458 -0.063616566 -0.18670321
-0.037947595 -0.06369625 -0.18671703
-0.037949845 -0.06377811 -0.1867229
-0.037952229 -0.063858047 -0.18672475
-0.037954126 -0.063937776 -0.18673658
-0.03795569 -0.06401933 -0.18675646
-0.037957683 -0.064099103 -0.1867663
-0.037959777 -0.064178914 -0.18677413
-0.037961047 -0.064260334 -0.1868
-0.037961736 -0.0643415 -0.18683784
-0.037962813 -0.064422838 -0.18686768
-0.037964281 -0.064504348 -0.18688956
-0.037966568 -0.064584248 -0.1868934
-0.037968852 -0.064664148 -0.18689725
-0.037971005 -0.064745955 -0.18690513
-0.037972413 -0.064825468 -0.18692695
-0.037974074 -0.064907067 -0.18694481
-0.037976265 -0.064986922 -0.18695065
-0.037979331 -0.065067165 -0.18693852
-0.037982106 -0.065147281 -0.18693238
-0.037984062 -0.065229006 -0.18694426
-0.037985567 -0.065308563 -0.18696409
-0.037988011 -0.065390505 -0.18696597
-0.037990592 -0.065470532 -0.18696383
-0.037993073 -0.065550521 -0.18696368
-0.037995458 -0.065630466 -0.18696553
-0.03799751 -0.065712228 -0.18697542
-0.037999019 -0.065791786 -0.18699524
-0.038000971 -0.065873511 -0.18700711
-0.038002733 -0.065955147 -0.18702298
-0.038004629 -0.066034876 -0.18703482
-0.038006783 -0.066116691 -0.1870427
-0.038008872 -0.066196501 -0.18705054
-0.038010865 -0.066276275 -0.18706039
-0.038012821 -0.066358 -0.18707225
-0.038014621 -0.066437684 -0.18708608
-0.038016871 -0.066519536 -0.18709198
-0.03801984 -0.066599742 -0.18708184
-0.038022224 -0.066679686 -0.18708369
-0.038023986 -0.066761322 -0.18709955
-0.038026564 -0.066841349 -0.1870974
-0.03802973 -0.066921644 -0.18708327
-0.038032115 -0.067001581 -0.18708512
-0.038034499 -0.067081526 -0.18708697
-0.038037039 -0.067163512 -0.18708688
-0.038038936 -0.067243241 -0.18709871
-0.038040698 -0.067324877 -0.18711458
-0.038042691 -0.06740465 -0.18712442
-0.038044449 -0.067486286 -0.18714029
-0.038046114 -0.067567885 -0.18715817
-0.038047582 -0.067649394 -0.18718001
-0.038049828 -0.067731246 -0.18718591
-0.038052641 -0.06780941 -0.18717772
-0.038055185 -0.067891397 -0.18717763
-0.038057469 -0.067971289 -0.18718147
-0.03806005 -0.068051323 -0.18717933
-0.038062692 -0.068133354 -0.18717721
-0.038065173 -0.068213336 -0.18717706
-0.03806746 -0.068293236 -0.18718091
-0.038069904 -0.068375178 -0.1871828
-0.038071994 -0.068454996 -0.18719065
-0.038074341 -0.068536893 -0.18719453
-0.038077153 -0.068615049 -0.18718636
-0.038079537 -0.068694994 -0.18718821
-0.038081456 -0.068778679 -0.18720213
-0.038082864 -0.068858184 -0.18722394
-0.038084526 -0.068939783 -0.18724181
-0.038086191 -0.069021374 -0.18725967
-0.038088046 -0.069103062 -0.18727355
-0.038090296 -0.069184914 -0.18727943
-0.038092487 -0.06926477 -0.18728527
-0.038095064 -0.069344804 -0.18728313
-0.03809784 -0.06942492 -0.18727699
-0.038100518 -0.069504991 -0.18727285
-0.038102962 -0.069586933 -0.18727474
-0.038104955 -0.069666706 -0.18728459
-0.038106814 -0.069748387 -0.18729845
-0.038108572 -0.069830023 -0.18731433
-0.038111053 -0.069910012 -0.18731418
-0.038113009 -0.069991738 -0.18732604
