# .PCD v0.7 - Point Cloud Data file format
VERSION 0.7
FIELDS x y z
SIZE 4 4 4
TYPE F F F
COUNT 1 1 1
WIDTH 1269
HEIGHT 1
VIEWPOINT 0 0 0 1 0 0 0
POINTS 1269
DATA ascii
-0.0548511 -0.020533668 -0.186189
-0.054848582 -0.02045168 -0.18618907
-0.054846119 -0.020371696 -0.1861892
-0.054843564 -0.020291664 -0.18619135
-0.054841395 -0.020211807 -0.18618548
-0.054839876 -0.020134212 -0.18616769
-0.054837707 -0.020054357 -0.18616183
-0.054834992 -0.019972283 -0.1861659
-0.054832339 -0.01989221 -0.18617004
-0.054828979 -0.019807875 -0.18618605
-0.054825481 -0.019725453 -0.18620612
-0.054822281 -0.019643161 -0.18622017
-0.054818273 -0.019556567 -0.18624812
-0.054812647 -0.019467276 -0.186308
-0.054808054 -0.019380419 -0.18634793
-0.054804657 -0.019298039 -0.18636599
-0.05479987 -0.019211097 -0.18640992
-0.054794181 -0.019119805 -0.18646973
-0.054785836 -0.019023383 -0.18658137
-0.054780796 -0.018934352 -0.18662927
-0.054777045 -0.018849844 -0.18665326
-0.056039758 -0.053733829 -0.18721505
-0.056038175 -0.053654235 -0.18719721
-0.056036767 -0.053570773 -0.18717328
-0.056037117 -0.053488102 -0.1871134
-0.056037113 -0.053403296 -0.18705948
-0.056035277 -0.053321615 -0.18704559
-0.056033205 -0.053241804 -0.18703774
-0.056031659 -0.053160258 -0.18701784
-0.056030408 -0.053078838 -0.18699197
-0.056028433 -0.052999068 -0.18698213
-0.056025911 -0.052917086 -0.1869822
-0.056023642 -0.052837186 -0.18697834
-0.056021083 -0.052757151 -0.18698049
-0.056018524 -0.052677125 -0.1869826
-0.056016061 -0.052597135 -0.18698275
-0.056013498 -0.052517105 -0.18698487
-0.056010313 -0.052438766 -0.18700102
-0.056006972 -0.052358389 -0.18701914
-0.056004412 -0.052278355 -0.18702126
-0.05600195 -0.052198369 -0.1870214
-0.055999096 -0.052118208 -0.18702951
-0.055996008 -0.052039914 -0.18704367
-0.055993158 -0.051959753 -0.1870518
-0.055990793 -0.051879808 -0.18704993
-0.055988193 -0.051801734 -0.18705411
-0.055985339 -0.051721573 -0.18706223
-0.055982292 -0.051641323 -0.18707436
-0.055979144 -0.051561031 -0.18708846
-0.055976838 -0.051483087 -0.18708664
-0.05597461 -0.051401231 -0.18708074
-0.055971522 -0.051322937 -0.1870949
-0.055968374 -0.051242642 -0.18710902
-0.055965386 -0.051164392 -0.18712118
-0.05596181 -0.051085882 -0.18714532
-0.055958763 -0.051005632 -0.18715745
-0.055956203 -0.050925601 -0.18715957
-0.05595335 -0.05084544 -0.18716769
-0.05595069 -0.050765365 -0.18717182
-0.055948228 -0.050685376 -0.18717197
-0.055945531 -0.05060726 -0.18717813
-0.055942718 -0.050525144 -0.18718421
-0.055940315 -0.050447155 -0.18718439
-0.055937987 -0.050365254 -0.18718049
-0.055936109 -0.050285533 -0.18716863
-0.055933744 -0.050205588 -0.18716675
-0.055931184 -0.050125554 -0.1871689
-0.055928957 -0.050043702 -0.187163
-0.055927079 -0.049963977 -0.18715113
-0.055924814 -0.049884081 -0.18714729
-0.055921961 -0.049803916 -0.1871554
-0.055918813 -0.049723625 -0.18716952
-0.055915628 -0.049645286 -0.18718567
-0.055912286 -0.049564905 -0.18720378
-0.055909239 -0.049484655 -0.18721589
-0.055906542 -0.049406536 -0.18722206
-0.055903882 -0.049326465 -0.18722621
-0.055901032 -0.0492463 -0.18723431
-0.055898469 -0.04916627 -0.18723646
-0.055896439 -0.049084503 -0.18722655
-0.055894464 -0.049004734 -0.1872167
-0.055891901 -0.048924703 -0.18721883
-0.055889439 -0.048844717 -0.18721896
-0.055887405 -0.048762951 -0.18720907
-0.055884808 -0.048684873 -0.18721324
-0.055881757 -0.048604626 -0.18722536
-0.055879921 -0.048522945 -0.18721145
-0.055878632 -0.048443481 -0.18718764
-0.055875972 -0.04836341 -0.18719175
-0.055873021 -0.048283204 -0.18720189
-0.055870753 -0.048203304 -0.18719801
-0.055868194 -0.04812327 -0.18720016
-0.055865437 -0.048043154 -0.18720627
-0.05586239 -0.047962904 -0.18721838
-0.055859301 -0.04788461 -0.18723255
-0.055856351 -0.047804408 -0.18724266
-0.055853106 -0.047724068 -0.18725878
-0.05585045 -0.047643997 -0.18726291
-0.055848766 -0.047564358 -0.18724707
-0.055846736 -0.047482591 -0.18723717
-0.055844136 -0.047404513 -0.18724135
-0.055841517 -0.047322486 -0.18724343
-0.055839345 -0.04724263 -0.18723756
-0.055836882 -0.047162645 -0.18723769
-0.055833835 -0.047082394 -0.18724981
-0.055831764 -0.04700258 -0.18724197
-0.055830315 -0.046921074 -0.18722007
-0.05582805 -0.046841178 -0.18721622
-0.055825487 -0.046761148 -0.18721834
-0.055823512 -0.046681374 -0.1872085
-0.055821344 -0.046601519 -0.18720263
-0.055818588 -0.046521403 -0.18720877
-0.055815835 -0.046441287 -0.18721488
-0.055812784 -0.046361037 -0.18722701
-0.055809248 -0.04628057 -0.18724909
-0.055806551 -0.046202451 -0.18725529
-0.055804323 -0.046120595 -0.18724936
-0.055802248 -0.046040781 -0.18724152
-0.055800412 -0.0459591 -0.18722764
-0.055798732 -0.045879465 -0.18721178
-0.055796854 -0.04579974 -0.18719992
-0.055794917 -0.045718014 -0.18718803
-0.055792749 -0.045638159 -0.18718219
-0.055790383 -0.045558218 -0.18718031
-0.055787396 -0.045479968 -0.18719247
-0.055784054 -0.045399588 -0.18721059
-0.055781592 -0.045319598 -0.18721072
-0.055780239 -0.045238137 -0.18718684
-0.055779047 -0.045158718 -0.18716101
-0.055776488 -0.045078687 -0.18716314
-0.055773243 -0.044998351 -0.18717927
-0.055770684 -0.044918321 -0.18718138
-0.055768222 -0.044838335 -0.18718153
-0.055765759 -0.044758346 -0.18718165
-0.055763099 -0.044678271 -0.18718578
-0.055760149 -0.044598065 -0.1871959
-0.055757198 -0.044517864 -0.18720601
-0.055755127 -0.044438049 -0.18719816
-0.05575325 -0.044358324 -0.18718632
-0.055750884 -0.044278383 -0.18718445
-0.055748716 -0.044198524 -0.1871786
-0.055746488 -0.044116672 -0.18717268
-0.055744022 -0.044036683 -0.18717283
-0.055741269 -0.043956567 -0.18717894
-0.055739686 -0.043876972 -0.1871611
-0.055738393 -0.043797508 -0.18713728
-0.055736028 -0.043717567 -0.1871354
-0.055733565 -0.043637577 -0.18713555
-0.055731632 -0.043555856 -0.18712366
-0.055729657 -0.043476086 -0.18711379
-0.055727094 -0.043396056 -0.18711594
-0.055724632 -0.04331607 -0.18711606
-0.055721879 -0.04323595 -0.18712218
-0.055718731 -0.043155659 -0.18713629
-0.055715486 -0.043075323 -0.18715242
-0.055712692 -0.042997159 -0.18716058
-0.055710465 -0.042915303 -0.18715468
-0.055708684 -0.042835623 -0.18714082
-0.05570681 -0.042755898 -0.18712898
-0.055704638 -0.042676043 -0.18712312
-0.055701882 -0.042595923 -0.18712924
-0.055699617 -0.042516023 -0.18712538
-0.055697642 -0.042436257 -0.18711552
-0.055695318 -0.042354356 -0.18711162
-0.055693049 -0.042274456 -0.18710777
-0.055691268 -0.042194776 -0.18709391
-0.0556891 -0.042114921 -0.18708804
-0.055687126 -0.042035151 -0.18707821
-0.055685639 -0.041955601 -0.18705836
-0.055683274 -0.041875657 -0.18705651
-0.055680715 -0.041795626 -0.18705864
-0.055678055 -0.041715551 -0.18706277
-0.055675302 -0.041635435 -0.18706889
-0.055672642 -0.04155536 -0.18707302
-0.055670083 -0.04147533 -0.18707514
-0.055667523 -0.041395299 -0.18707728
-0.055664863 -0.041315224 -0.1870814
-0.055662695 -0.041235369 -0.18707556
-0.055661149 -0.041153818 -0.18705566
-0.055659566 -0.041074228 -0.18703783
-0.055657886 -0.040994588 -0.18702197
-0.05565552 -0.040914644 -0.18702012
-0.055653058 -0.040834658 -0.18702024
-0.055650398 -0.040754583 -0.18702437
-0.055647545 -0.040674422 -0.18703251
-0.055644792 -0.040594306 -0.18703863
-0.05564262 -0.040514447 -0.18703276
-0.055641234 -0.040434942 -0.18701093
-0.05563955 -0.040355302 -0.18699509
-0.055637479 -0.040275492 -0.18698722
-0.05563492 -0.040195461 -0.18698937
-0.055632848 -0.040115647 -0.1869815
-0.055630971 -0.040035922 -0.18696967
-0.055628255 -0.03995385 -0.18697374
-0.055625107 -0.039873559 -0.18698785
-0.055621922 -0.03979522 -0.187004
-0.055619009 -0.039713059 -0.18701208
-0.055616647 -0.039633118 -0.18701023
-0.055614281 -0.039553173 -0.18700835
-0.055611819 -0.039473187 -0.1870085
-0.055609353 -0.039393198 -0.18700862
-0.055606894 -0.039313212 -0.18700875
-0.055603843 -0.039232962 -0.18702087
-0.05560099 -0.039152801 -0.187029
-0.055598527 -0.039072815 -0.18702912
-0.055596847 -0.038993176 -0.1870133
-0.055595849 -0.038913846 -0.18698347
-0.05559485 -0.038834512 -0.18695363
-0.055593561 -0.038755052 -0.18692981
-0.055591684 -0.038675323 -0.18691796
-0.055588927 -0.038595207 -0.18692409
-0.055585489 -0.038514782 -0.18694419
-0.055582929 -0.038434751 -0.18694632
-0.055580955 -0.038354985 -0.18693647
-0.055577807 -0.038274691 -0.18695059
-0.055574074 -0.038194135 -0.18697667
-0.055570871 -0.038111847 -0.18699074
-0.055568114 -0.038031727 -0.18699688
-0.05556614 -0.037951957 -0.18698701
-0.055564556 -0.037872367 -0.18696918
-0.055562485 -0.037792552 -0.18696132
-0.055559337 -0.037712261 -0.18697542
-0.055555996 -0.03763188 -0.18699354
-0.05555363 -0.037551936 -0.18699168
-0.055551365 -0.037472036 -0.18698782
-0.055549487 -0.037392311 -0.18697597
-0.055549469 -0.037313417 -0.18692617
-0.055549152 -0.037234392 -0.18688238
-0.055546887 -0.037154492 -0.1868785
-0.055543348 -0.037074022 -0.18690062
-0.055540495 -0.036993861 -0.18690872
-0.055538032 -0.036913875 -0.18690887
-0.05553557 -0.03683389 -0.18690899
-0.055533204 -0.036753945 -0.18690714
-0.055530351 -0.036673784 -0.18691525
-0.055526521 -0.036593184 -0.18694335
-0.05552312 -0.036510807 -0.18696141
-0.055520758 -0.036430862 -0.18695955
-0.055518683 -0.036351051 -0.1869517
-0.055516515 -0.036271192 -0.18694583
-0.055514149 -0.036191251 -0.18694398
-0.055511687 -0.036111265 -0.1869441
-0.055509128 -0.036031231 -0.18694623
-0.055506762 -0.03595129 -0.18694437
-0.055505373 -0.035871781 -0.18692254
-0.055505607 -0.035794973 -0.18686879
-0.055505294 -0.035715949 -0.18682499
-0.055503123 -0.03563609 -0.18681914
-0.055500172 -0.035555884 -0.18682925
-0.055497319 -0.035475723 -0.18683738
-0.05549515 -0.035395868 -0.18683153
-0.055492628 -0.035313882 -0.18683159
-0.05548948 -0.035233591 -0.18684572
-0.055486921 -0.03515356 -0.18684784
-0.055484653 -0.03507366 -0.18684399
-0.055481315 -0.03499328 -0.1868621
-0.055477813 -0.034910858 -0.18688215
-0.055475254 -0.034830827 -0.18688428
-0.055473279 -0.034751058 -0.18687442
-0.055471011 -0.034671158 -0.18687057
-0.055468451 -0.034591127 -0.18687271
-0.055466577 -0.034511402 -0.18686086
-0.055465735 -0.034434114 -0.18682909
-0.055464543 -0.034354694 -0.18680325
-0.055462468 -0.034274884 -0.18679538
-0.055460885 -0.034195289 -0.18677756
-0.055458911 -0.034115519 -0.1867677
-0.055456743 -0.034035664 -0.18676184
-0.055454377 -0.033955719 -0.18675998
-0.055452012 -0.033875778 -0.18675812
-0.055449452 -0.033795744 -0.18676025
-0.055446599 -0.033715583 -0.18676837
-0.055444039 -0.033635553 -0.1867705
-0.055441771 -0.033555653 -0.18676664
-0.05543882 -0.033475451 -0.18677676
-0.055435322 -0.033393025 -0.18679681
-0.055432174 -0.033312734 -0.18681094
-0.055429712 -0.033232749 -0.18681106
-0.05542719 -0.033150762 -0.18681115
-0.055425275 -0.033072993 -0.18680134
-0.055423595 -0.032993354 -0.1867855
-0.055422205 -0.032913849 -0.18676366
-0.055420231 -0.032834079 -0.18675381
-0.05541816 -0.032754265 -0.18674596
-0.055416442 -0.032676585 -0.18673216
-0.055414855 -0.03259699 -0.18671432
-0.055412982 -0.032517262 -0.18670246
-0.055410616 -0.032437321 -0.18670061
-0.055408347 -0.032357421 -0.18669674
-0.055405982 -0.03227748 -0.18669489
-0.055403717 -0.03219758 -0.18669102
-0.055401254 -0.03211759 -0.18669116
-0.055398792 -0.032037605 -0.18669128
-0.055395879 -0.031955443 -0.18669936
-0.05539234 -0.031874977 -0.18672146
-0.05538943 -0.031792816 -0.18672955
-0.055386968 -0.03171283 -0.18672967
-0.055384211 -0.03163271 -0.18673581
-0.055382043 -0.031552855 -0.18672994
-0.055380262 -0.031473175 -0.18671609
-0.055378288 -0.031393405 -0.18670624
-0.05537612 -0.03131355 -0.18670037
-0.055374205 -0.031235781 -0.18669057
-0.055372424 -0.031156097 -0.18667673
-0.055370156 -0.031076198 -0.18667287
-0.055368282 -0.030996474 -0.18666103
-0.055366501 -0.030916791 -0.18664718
-0.055364136 -0.030836849 -0.18664531
-0.055361968 -0.030756993 -0.18663946
-0.05536009 -0.030677268 -0.1866276
-0.055357628 -0.030597281 -0.18662775
-0.055354968 -0.030517206 -0.18663186
-0.055352215 -0.030437088 -0.186638
-0.055349398 -0.030354973 -0.18664408
-0.055346839 -0.030274943 -0.18664619
-0.055343594 -0.030194605 -0.18666232
-0.055340584 -0.030112401 -0.18667239
-0.055338416 -0.030032545 -0.18666652
-0.055336244 -0.02995269 -0.18666068
-0.055334076 -0.029872833 -0.18665481
-0.055331964 -0.029794976 -0.18664899
-0.055329893 -0.029715164 -0.18664116
-0.055328116 -0.029635482 -0.1866273
-0.055325944 -0.029555626 -0.18662143
-0.055323191 -0.029475506 -0.18662757
-0.055321313 -0.029395783 -0.18661571
-0.055319339 -0.029316016 -0.18660587
-0.055317461 -0.029236289 -0.18659401
-0.055315487 -0.029156521 -0.18658416
-0.05531273 -0.029076403 -0.18659028
-0.055309877 -0.02899624 -0.18659841
-0.055306967 -0.028914083 -0.18660648
-0.055304017 -0.028833875 -0.1866166
-0.055301003 -0.028751671 -0.18662667
-0.055297956 -0.028671423 -0.18663879
-0.055295143 -0.028589305 -0.18664487
-0.055292971 -0.028509449 -0.18663901
-0.055291351 -0.02843181 -0.18662322
-0.05528957 -0.02835213 -0.18660937
-0.055286758 -0.028270014 -0.18661545
-0.055284098 -0.028189939 -0.18661958
-0.05528193 -0.028110083 -0.18661371
-0.055279564 -0.028030138 -0.18661186
-0.055277392 -0.027950283 -0.18660599
-0.055275321 -0.027870471 -0.18659815
-0.055273503 -0.027792744 -0.18658635
-0.05527192 -0.02771315 -0.1865685
-0.055270396 -0.027635556 -0.18655071
-0.055268422 -0.027555786 -0.18654084
-0.055266157 -0.027475886 -0.186537
-0.055263594 -0.027395856 -0.18653913
-0.055260293 -0.027313521 -0.18655518
-0.055257183 -0.027231274 -0.18656725
-0.055254623 -0.027151244 -0.18656939
-0.055251908 -0.02706917 -0.18657348
-0.055249151 -0.026989054 -0.18657959
-0.055246238 -0.026906893 -0.18658766
-0.055244323 -0.026829122 -0.18657786
-0.055242348 -0.026749354 -0.18656801
-0.055239789 -0.026669322 -0.18657014
-0.055237073 -0.026587252 -0.18657422
-0.055234611 -0.026507262 -0.18657435
-0.055232439 -0.026427407 -0.1865685
-0.055230465 -0.026347637 -0.18655863
-0.055228844 -0.026269998 -0.18654284
-0.055227514 -0.02619249 -0.18652105
-0.055225637 -0.026112767 -0.18650922
-0.055223566 -0.026032954 -0.18650135
-0.055221688 -0.02595323 -0.18648951
-0.05521952 -0.025873372 -0.18648365
-0.055217154 -0.025793429 -0.18648177
-0.055214338 -0.025711313 -0.18648785
-0.055211194 -0.02563102 -0.18650198
-0.055207986 -0.02554873 -0.18651605
-0.055204585 -0.025466349 -0.18653411
-0.055201478 -0.025384102 -0.18654618
-0.055199116 -0.025304159 -0.18654431
-0.055196848 -0.025224259 -0.18654045
-0.055194873 -0.025144491 -0.18653059
-0.055192899 -0.025064722 -0.18652074
-0.05519063 -0.024984824 -0.18651688
-0.055188913 -0.02490714 -0.18650308
-0.055187229 -0.024827503 -0.18648723
-0.055185061 -0.024747647 -0.18648139
-0.055182207 -0.024667485 -0.18648951
-0.055180136 -0.024587672 -0.18648165
-0.05517865 -0.024508122 -0.18646181
-0.055176735 -0.024430351 -0.186452
-0.05517431 -0.02434841 -0.18645009
-0.055171944 -0.024268467 -0.18644823
-0.055169482 -0.024188481 -0.18644837
-0.055167019 -0.024108492 -0.1864485
-0.055164106 -0.024026332 -0.18645659
-0.055161096 -0.023944128 -0.18646663
-0.055158049 -0.023863878 -0.18647876
-0.055155233 -0.023781763 -0.18648484
-0.05515277 -0.023701776 -0.18648498
-0.055150405 -0.023621833 -0.18648311
-0.05514843 -0.023542065 -0.18647325
-0.055146359 -0.023462251 -0.1864654
-0.055143896 -0.023382265 -0.18646553
-0.055141825 -0.023302453 -0.18645769
-0.055140398 -0.023224901 -0.1864379
-0.055138424 -0.023145132 -0.18642804
-0.055135317 -0.023062885 -0.18644011
-0.055133048 -0.022982985 -0.18643625
-0.055131819 -0.022905521 -0.18641247
-0.055130195 -0.02282788 -0.18639667
-0.055127967 -0.022746027 -0.18639076
-0.055125602 -0.022666084 -0.18638891
-0.055123042 -0.022586051 -0.18639103
-0.055120226 -0.022503939 -0.18639711
-0.055117372 -0.022423774 -0.18640523
-0.055114266 -0.022341525 -0.18641731
-0.055111255 -0.022259323 -0.18642737
-0.055108637 -0.022177296 -0.18642946
-0.055106271 -0.022097351 -0.18642759
-0.055104103 -0.022017496 -0.18642172
-0.055101931 -0.021937639 -0.18641588
-0.055100799 -0.02186022 -0.1863901
-0.055099178 -0.021782579 -0.18637429
-0.055097103 -0.021702766 -0.18636644
-0.055094935 -0.021622909 -0.18636058
-0.055092569 -0.021542968 -0.18635872
-0.055090401 -0.021463111 -0.18635286
-0.055088621 -0.021383429 -0.18633902
-0.055087291 -0.021305921 -0.18631724
-0.055086121 -0.021230455 -0.18629348
-0.055084731 -0.02115095 -0.18627165
-0.055082623 -0.021073092 -0.18626584
-0.055079807 -0.020990975 -0.18627194
-0.055077247 -0.020910947 -0.18627405
-0.055074979 -0.020831045 -0.18627018
-0.055072166 -0.020748926 -0.18627627
-0.05506935 -0.020666813 -0.18628235
-0.055066984 -0.020586869 -0.18628049
-0.055064522 -0.020506881 -0.18628061
-0.055061806 -0.020424809 -0.18628469
-0.055059344 -0.020344822 -0.18628484
-0.055056881 -0.020264834 -0.18628496
-0.05505465 -0.020182982 -0.18627906
-0.055053126 -0.020105384 -0.18626127
-0.055050369 -0.020025268 -0.18626739
-0.055047106 -0.019940978 -0.18628141
-0.055044252 -0.019860815 -0.18628953
-0.055041242 -0.019778611 -0.18629961
-0.055037491 -0.019694103 -0.18632361
-0.055033639 -0.01960955 -0.18634962
-0.055030081 -0.019525129 -0.18636963
-0.055023611 -0.019433491 -0.18644542
-0.055018373 -0.019344375 -0.1864973
-0.055013683 -0.019257475 -0.18653923
-0.055007566 -0.019167965 -0.18660909
-0.055003557 -0.019081373 -0.18663703
-0.055000801 -0.019001253 -0.18664315
-0.056194652 -0.054160126 -0.18893132
-0.056195464 -0.054073714 -0.18885937
-0.056194246 -0.053990342 -0.18883145
-0.056192599 -0.05390875 -0.18881357
-0.056255542 -0.053731803 -0.18739474
-0.056256842 -0.053645611 -0.18731281
-0.05625863 -0.053559639 -0.1872209
-0.056258388 -0.053476702 -0.18717301
-0.056256838 -0.053395152 -0.18715312
-0.056255523 -0.053311735 -0.1871272
-0.056254268 -0.053230319 -0.18710132
-0.056253206 -0.053148985 -0.18707146
-0.056251753 -0.053067483 -0.18704957
-0.056249581 -0.052987628 -0.1870437
-0.056247447 -0.052905813 -0.1870358
-0.056245178 -0.052825917 -0.18703195
-0.056242321 -0.052745756 -0.18704008
-0.056239758 -0.052665725 -0.18704221
-0.056237489 -0.052585825 -0.18703833
-0.056234337 -0.05250553 -0.18705246
-0.056230858 -0.052427065 -0.1870746
-0.056228686 -0.052347206 -0.18706876
-0.056226552 -0.052265398 -0.18706085
-0.056223363 -0.052187059 -0.18707702
-0.056220606 -0.052106939 -0.18708313
-0.056218043 -0.052026913 -0.18708527
-0.056214757 -0.051948529 -0.18710342
-0.056211609 -0.051868238 -0.18711753
-0.056209337 -0.051788338 -0.18711367
-0.056207594 -0.051706702 -0.18709779
-0.056205712 -0.051626977 -0.18708593
-0.056202758 -0.051546771 -0.18709606
-0.056199767 -0.051468521 -0.18710822
-0.056196619 -0.051388226 -0.18712233
-0.056193959 -0.051308155 -0.18712646
-0.056191258 -0.051230036 -0.18713263
-0.056187913 -0.051149655 -0.18715073
-0.056183908 -0.051072925 -0.18718493
-0.056179844 -0.050994195 -0.18721905
-0.056177281 -0.050914161 -0.18722118
-0.056175146 -0.050832354 -0.18721327
-0.056172777 -0.050752409 -0.18721142
-0.056170702 -0.050672598 -0.18720356
-0.056168139 -0.050592564 -0.1872057
-0.056165576 -0.050512534 -0.18720782
-0.056163207 -0.050432593 -0.18720597
-0.056160681 -0.050350606 -0.18720604
-0.056158081 -0.050272532 -0.18721023
-0.056155615 -0.050192542 -0.18721035
-0.056153186 -0.050110601 -0.18720844
-0.056151014 -0.050030746 -0.18720259
-0.056148648 -0.049950801 -0.18720073
-0.056145888 -0.049870685 -0.18720686
-0.056143325 -0.049790654 -0.18720898
-0.056140665 -0.049710579 -0.18721312
-0.056138102 -0.049630549 -0.18721524
-0.056135636 -0.049550563 -0.18721539
-0.056132779 -0.049470402 -0.18722349
-0.056129884 -0.049392194 -0.18723367
-0.056126542 -0.049311817 -0.18725178
-0.056123391 -0.049231522 -0.1872659
-0.056121316 -0.049151711 -0.18725803
-0.056119241 -0.049071897 -0.18725017
-0.056116678 -0.048991866 -0.18725231
-0.056113821 -0.048911706 -0.18726042
-0.056110866 -0.0488315 -0.18727055
-0.056108736 -0.048749689 -0.18726265
-0.056107245 -0.048670139 -0.18724282
-0.056104876 -0.048590194 -0.18724096
-0.056102119 -0.048510078 -0.18724707
-0.056099847 -0.048430178 -0.18724322
-0.05609791 -0.048348457 -0.18723132
-0.056095541 -0.048268512 -0.18722945
-0.056092549 -0.048190262 -0.18724163
-0.056089595 -0.048110057 -0.18725175
-0.056086835 -0.048029937 -0.18725786
-0.056083981 -0.047949776 -0.18726599
-0.056081027 -0.047869571 -0.18727611
-0.056078464 -0.047789544 -0.18727824
-0.056075901 -0.04770951 -0.18728037
-0.056073237 -0.047629438 -0.1872845
-0.056070969 -0.047549538 -0.18728064
-0.056068406 -0.047469508 -0.18728277
-0.056065451 -0.047389302 -0.18729289
-0.056062594 -0.047309142 -0.18730101
-0.056060128 -0.047229156 -0.18730116
-0.056057662 -0.047149166 -0.18730128
-0.05605549 -0.047069311 -0.18729542
-0.056054197 -0.046989847 -0.1872716
-0.056052744 -0.046908341 -0.18724971
-0.056051001 -0.046826705 -0.18723382
-0.056048729 -0.046746805 -0.18722996
-0.056045778 -0.0466666 -0.18724008
-0.056042884 -0.046588395 -0.18725026
-0.056040455 -0.046506453 -0.18724835
-0.05603838 -0.046426639 -0.18724048
-0.05603601 -0.046346698 -0.18723863
-0.056032959 -0.046266448 -0.18725073
-0.056030005 -0.046186242 -0.18726087
-0.056027055 -0.04610604 -0.18727098
-0.056024686 -0.046026096 -0.18726912
-0.056023099 -0.045946501 -0.18725127
-0.056021549 -0.045864951 -0.18723139
-0.056019668 -0.045785226 -0.18721953
-0.056017008 -0.045705155 -0.18722367
-0.056014054 -0.045624949 -0.18723379
-0.056011099 -0.045544744 -0.18724391
-0.056008149 -0.045464538 -0.18725403
-0.056005877 -0.045384638 -0.18725017
-0.056004386 -0.045305088 -0.18723033
-0.056002799 -0.045225494 -0.1872125
-0.056001056 -0.045143858 -0.18719661
-0.055998787 -0.045063958 -0.18719274
-0.05599593 -0.044983797 -0.18720086
-0.055992879 -0.044903547 -0.18721297
-0.055990316 -0.044823516 -0.18721512
-0.055988237 -0.044743706 -0.18720725
-0.055985481 -0.044663586 -0.18721339
-0.055982392 -0.044585291 -0.18722755
-0.05597977 -0.044503264 -0.18722963
-0.055977304 -0.044423278 -0.18722975
-0.055975132 -0.044343419 -0.18722391
-0.055972859 -0.044263519 -0.18722004
-0.05597049 -0.044183578 -0.18721819
-0.055968124 -0.044103634 -0.18721631
-0.055965755 -0.044023693 -0.18721446
-0.055963427 -0.043941792 -0.18721056
-0.055961352 -0.043861981 -0.18720269
-0.055959277 -0.043782167 -0.18719484
-0.055957299 -0.043702401 -0.18718499
-0.055955514 -0.043622717 -0.18717115
-0.055953246 -0.043542817 -0.18716729
-0.055951171 -0.043463007 -0.18715942
-0.055949386 -0.043383326 -0.18714559
-0.055946667 -0.043301251 -0.18714967
-0.055943675 -0.043223001 -0.18716183
-0.055941053 -0.043140974 -0.18716392
-0.055938393 -0.043060899 -0.18716803
-0.055935498 -0.042982694 -0.18717822
-0.055932388 -0.042900447 -0.18719028
-0.055929687 -0.042822327 -0.18719643
-0.05592775 -0.042740602 -0.18718454
-0.055925772 -0.042660832 -0.18717471
-0.055923402 -0.042580891 -0.18717283
-0.05592113 -0.042500991 -0.18716899
-0.055918276 -0.042420831 -0.18717709
-0.055915028 -0.042340495 -0.18719321
-0.055912271 -0.042260375 -0.18719934
-0.05591039 -0.04218065 -0.18718749
-0.055909526 -0.042099409 -0.18715362
-0.05590862 -0.04202012 -0.18712181
-0.055907328 -0.041940656 -0.18709797
-0.055905934 -0.04186115 -0.18707614
-0.055903666 -0.04178125 -0.18707228
-0.055900611 -0.041701 -0.18708441
-0.055897951 -0.041620925 -0.18708852
-0.055895586 -0.041540984 -0.18708667
-0.055892631 -0.041460779 -0.18709677
-0.055889968 -0.041380703 -0.18710092
-0.055887505 -0.041300718 -0.18710104
-0.055884745 -0.041220598 -0.18710718
-0.05588232 -0.041138656 -0.18710525
-0.055880401 -0.041060887 -0.18709546
-0.055878423 -0.040981118 -0.1870856
-0.055875704 -0.040899046 -0.18708968
-0.055873238 -0.04081906 -0.18708982
-0.055871259 -0.04073929 -0.18707997
-0.055869184 -0.04065948 -0.18707211
-0.055867303 -0.040579751 -0.18706027
-0.055866204 -0.040500376 -0.18703243
-0.055864714 -0.040420827 -0.1870126
-0.055862933 -0.040341146 -0.18699875
-0.055860955 -0.040261377 -0.18698891
-0.055858683 -0.040181477 -0.18698505
-0.055855829 -0.040101316 -0.18699317
-0.055853069 -0.0400212 -0.18699929
-0.055850253 -0.039939083 -0.18700537
-0.05584687 -0.039860658 -0.18702552
-0.055843819 -0.039780408 -0.18703763
-0.055840805 -0.039698206 -0.18704772
-0.055838048 -0.039618086 -0.18705383
-0.055835776 -0.039538186 -0.18704998
-0.055833504 -0.039458286 -0.18704611
-0.055831235 -0.039378386 -0.18704227
-0.055828672 -0.039298356 -0.18704438
-0.055826109 -0.039218325 -0.18704653
-0.055823546 -0.039138295 -0.18704864
-0.055821374 -0.039058439 -0.1870428
-0.055820663 -0.03897924 -0.18700698
-0.055820443 -0.038900256 -0.18696117
-0.055818953 -0.038820706 -0.18694134
-0.055816684 -0.038740806 -0.18693748
-0.055814315 -0.038660862 -0.18693562
-0.055811558 -0.038580745 -0.18694174
-0.055808406 -0.038500454 -0.18695585
-0.055805258 -0.038420159 -0.18696997
-0.055802342 -0.038337998 -0.18697804
-0.055799548 -0.038259838 -0.18698621
-0.05579669 -0.038179677 -0.18699434
-0.055793386 -0.038097341 -0.18701041
-0.055790722 -0.038017265 -0.18701454
-0.055788845 -0.037937541 -0.18700269
-0.055786084 -0.037857424 -0.18700881
-0.055783425 -0.037777349 -0.18701294
-0.055781446 -0.03769758 -0.18700308
-0.055780154 -0.037618119 -0.18697925
-0.055779833 -0.037539091 -0.18693545
-0.055778831 -0.037459761 -0.18690562
-0.055776719 -0.037381902 -0.18689981
-0.055773512 -0.037299611 -0.18691388
-0.055770557 -0.037219405 -0.18692401
-0.055767894 -0.03713933 -0.18692812
-0.055765528 -0.037059389 -0.18692628
-0.055763453 -0.036979578 -0.18691841
-0.055760793 -0.036899503 -0.18692255
-0.055757351 -0.036819078 -0.18694265
-0.055754531 -0.036736961 -0.18694872
-0.055752125 -0.036658973 -0.18694891
-0.05574888 -0.036578637 -0.18696502
-0.05574489 -0.036495999 -0.18699506
-0.055742424 -0.036416009 -0.18699519
-0.055740934 -0.036336459 -0.18697536
-0.055738959 -0.036256693 -0.1869655
-0.055737078 -0.036176965 -0.18695366
-0.055736173 -0.036097679 -0.18692183
-0.055735916 -0.036020651 -0.18687809
-0.055733547 -0.035940707 -0.18687622
-0.055730533 -0.035858504 -0.1868863
-0.055728517 -0.035780691 -0.18687849
-0.055726577 -0.035698965 -0.1868666
-0.055724658 -0.035621196 -0.18685678
-0.055722684 -0.035541426 -0.18684694
-0.055720508 -0.035461571 -0.18684107
-0.055717848 -0.035381496 -0.18684521
-0.055714931 -0.035299338 -0.18685329
-0.055711493 -0.035218913 -0.18687338
-0.055708341 -0.035138622 -0.1868875
-0.055705875 -0.035058632 -0.18688762
-0.055703312 -0.034978606 -0.18688977
-0.055700202 -0.034896355 -0.18690184
-0.055697739 -0.034816369 -0.18690197
-0.055695467 -0.034736469 -0.18689811
-0.055693392 -0.034656659 -0.18689026
-0.055691961 -0.034579106 -0.18687046
-0.055690218 -0.03449747 -0.18685457
-0.055688202 -0.034419656 -0.18684676
-0.055685773 -0.034337714 -0.18684486
-0.055683307 -0.034257725 -0.18684499
-0.055681195 -0.03417987 -0.18683918
-0.055679508 -0.034100231 -0.18682334
-0.055678021 -0.034020681 -0.18680349
-0.055675946 -0.03394087 -0.18679565
-0.055673383 -0.03386084 -0.18679777
-0.055671014 -0.033780895 -0.18679592
-0.055668741 -0.033700995 -0.18679205
-0.05566569 -0.033620749 -0.18680418
-0.055662874 -0.033538632 -0.18681026
-0.055660311 -0.033458602 -0.18681237
-0.05565726 -0.033378351 -0.1868245
-0.055654246 -0.033296149 -0.18683457
-0.055651937 -0.033218205 -0.18683276
-0.055649705 -0.033136349 -0.18682685
-0.055647142 -0.033056319 -0.18682897
-0.055644188 -0.032976113 -0.1868391
-0.055641722 -0.032896124 -0.18683924
-0.055640135 -0.032816533 -0.1868214
-0.05563806 -0.032736719 -0.18681353
-0.055636376 -0.032657083 -0.18679769
-0.055635236 -0.03257966 -0.18677191
-0.055633847 -0.032500155 -0.18675008
-0.055632062 -0.032420471 -0.18673623
-0.055630378 -0.032340836 -0.1867204
-0.055628557 -0.032263108 -0.1867086
-0.055626288 -0.032183208 -0.18670473
-0.055623274 -0.032101005 -0.1867148
-0.055619735 -0.032020539 -0.18673691
-0.055616915 -0.031938422 -0.18674299
-0.055614159 -0.031858303 -0.1867491
-0.055611011 -0.031778011 -0.18676323
-0.055608351 -0.031697936 -0.18676734
-0.055606276 -0.031618126 -0.1867595
-0.055603653 -0.031536095 -0.18676159
-0.055601187 -0.031456109 -0.18676171
-0.055599462 -0.031378426 -0.18674791
-0.055597581 -0.031298701 -0.18673608
-0.055594921 -0.031218627 -0.18674019
-0.055592299 -0.031136598 -0.18674228
-0.055590577 -0.031058915 -0.18672848
-0.055589475 -0.03097954 -0.18670066
-0.055587791 -0.030899903 -0.18668482
-0.055585872 -0.030822132 -0.18667501
-0.055583797 -0.030742321 -0.18666714
-0.055581529 -0.030662421 -0.1866633
-0.055578671 -0.030582258 -0.18667141
-0.055576146 -0.030500274 -0.1866715
-0.055573389 -0.030420156 -0.18667763
-0.055569887 -0.030337734 -0.18669769
-0.055566836 -0.030257484 -0.18670981
-0.05556437 -0.030177498 -0.18670994
-0.055561747 -0.030095469 -0.18671203
-0.055558793 -0.030015264 -0.18672214
-0.05555594 -0.029935103 -0.18673027
-0.055553861 -0.029855289 -0.18672241
-0.05555179 -0.029775478 -0.18671456
-0.055549614 -0.029695623 -0.18670869
-0.055547833 -0.029615941 -0.18669486
-0.05554615 -0.029536303 -0.18667901
-0.055544131 -0.029458489 -0.1866712
-0.055541568 -0.029378459 -0.18667334
-0.05553963 -0.029296735 -0.18666144
-0.055537809 -0.029219009 -0.18664964
-0.055535283 -0.029137023 -0.18664972
-0.055532817 -0.029057037 -0.18664986
-0.055530157 -0.028976962 -0.18665399
-0.055527106 -0.028896714 -0.1866661
-0.055524386 -0.02881464 -0.18667018
-0.055521626 -0.028734522 -0.18667631
-0.055518612 -0.02865232 -0.18668638
-0.055515759 -0.028572157 -0.1866945
-0.055513293 -0.028492169 -0.18669465
-0.055511121 -0.028412314 -0.18668878
-0.055508945 -0.028332459 -0.18668292
-0.055506382 -0.028252427 -0.18668506
-0.055503566 -0.028170312 -0.18669114
-0.055501491 -0.028090499 -0.18668327
-0.055500157 -0.028012991 -0.1866615
-0.055498082 -0.027933178 -0.18665364
-0.055495422 -0.027853105 -0.18665777
-0.055492956 -0.027773118 -0.18665789
-0.055490628 -0.027691219 -0.186654
-0.055488806 -0.027613495 -0.1866422
-0.055487022 -0.027533812 -0.18662834
-0.055484653 -0.02745387 -0.18662648
-0.05548219 -0.027373882 -0.18662661
-0.055479567 -0.027291853 -0.1866287
-0.05547671 -0.02721169 -0.18663684
-0.0554736 -0.027129445 -0.18664891
-0.055470843 -0.027049325 -0.18665501
-0.055467829 -0.026967121 -0.18666509
-0.055465069 -0.026887003 -0.18667123
-0.055462252 -0.026804887 -0.18667731
-0.055459883 -0.026724944 -0.18667543
-0.055457518 -0.026645001 -0.18667358
-0.055455793 -0.026567319 -0.18665978
-0.055454206 -0.026487725 -0.18664193
-0.055452228 -0.026407957 -0.18663208
-0.055449959 -0.026328057 -0.18662822
-0.05544759 -0.026248112 -0.18662636
-0.05544522 -0.026168169 -0.1866245
-0.055443831 -0.026088662 -0.18660267
-0.0554424 -0.026011113 -0.18658286
-0.055440325 -0.025931299 -0.18657503
-0.055438053 -0.025851399 -0.18657115
-0.055435881 -0.025771543 -0.18656529
-0.055433415 -0.025691558 -0.18656543
-0.055430107 -0.025609221 -0.18658149
-0.055426903 -0.025526932 -0.18659556
-0.055423692 -0.02544464 -0.18660963
-0.055420641 -0.025364392 -0.18662176
-0.055418119 -0.025282405 -0.18662183
-0.05541575 -0.025202462 -0.18661997
-0.055413477 -0.025122562 -0.18661612
-0.055411499 -0.025042795 -0.18660626
-0.055409424 -0.024962982 -0.18659841
-0.05540745 -0.024883213 -0.18658856
-0.05540508 -0.02480327 -0.18658669
-0.05540232 -0.024723152 -0.18659282
-0.055400245 -0.024643339 -0.18658495
-0.05539817 -0.024563529 -0.18657711
-0.055395998 -0.024483671 -0.18657124
-0.05539402 -0.024403904 -0.18656141
-0.055391457 -0.024323873 -0.18656352
-0.055388641 -0.024241757 -0.1865696
-0.055385977 -0.024161682 -0.18657373
-0.055383354 -0.024079654 -0.18657583
-0.055380598 -0.023999535 -0.18658194
-0.055377878 -0.023917463 -0.18658602
-0.055375315 -0.023837432 -0.18658815
-0.055372205 -0.023755185 -0.18660024
-0.055369191 -0.023672979 -0.18661031
-0.055367369 -0.023595253 -0.18659851
-0.055365391 -0.023515485 -0.18658864
-0.055363122 -0.023435585 -0.1865848
-0.05536085 -0.023355685 -0.18658093
-0.055358775 -0.023275875 -0.18657309
-0.055356797 -0.023196105 -0.18656322
-0.055354528 -0.023116205 -0.18655938
-0.055351965 -0.023036178 -0.1865615
-0.055349149 -0.02295406 -0.18656757
-0.055346586 -0.022874027 -0.18656969
-0.055344313 -0.022794129 -0.18656585
-0.055341985 -0.022712231 -0.18656194
-0.055340163 -0.022634504 -0.18655014
-0.055337831 -0.022552606 -0.18654624
-0.055335172 -0.022472531 -0.18655035
-0.055332158 -0.022390328 -0.18656042
-0.055328853 -0.022307996 -0.18657649
-0.05532584 -0.02222579 -0.18658656
-0.055322438 -0.022143412 -0.18660462
-0.055319816 -0.022061383 -0.18660671
-0.055318091 -0.021983698 -0.18659291
-0.055317149 -0.021906365 -0.18656313
-0.055315074 -0.021826554 -0.18655528
-0.055312708 -0.021746611 -0.18655342
-0.055310339 -0.021666666 -0.18655156
-0.055308167 -0.021586813 -0.1865457
-0.055306189 -0.021507042 -0.18653585
-0.055303916 -0.021427143 -0.18653199
-0.055301744 -0.021347288 -0.18652612
-0.055300254 -0.021267738 -0.18650629
-0.055298433 -0.021190012 -0.18649448
-0.055297099 -0.021112502 -0.1864727
-0.055295415 -0.021032864 -0.18645686
-0.055293437 -0.020953096 -0.18644699
-0.055291325 -0.02087524 -0.1864412
-0.055288214 -0.020792991 -0.18645327
-0.055285592 -0.020710962 -0.18645535
-0.05528342 -0.020631107 -0.1864495
-0.055281147 -0.020551207 -0.18644564
-0.055278879 -0.020471308 -0.18644178
-0.055276316 -0.020391276 -0.18644391
-0.055273592 -0.020309204 -0.18644798
-0.055270873 -0.020227132 -0.18645206
-0.05526796 -0.020144971 -0.18646014
-0.055265006 -0.020064764 -0.18647027
-0.055261992 -0.019982563 -0.18648034
-0.055258825 -0.019898318 -0.18649235
-0.055255711 -0.019816067 -0.18650442
-0.055252604 -0.01973382 -0.18651649
-0.055248749 -0.019649269 -0.18654251
-0.055244703 -0.01956463 -0.18657249
-0.056393009 -0.054228228 -0.18999255
-0.05639087 -0.054146416 -0.18998463
-0.056502331 -0.053722978 -0.18740115
-0.056502476 -0.053640217 -0.18734527
-0.056502275 -0.053555325 -0.18729533
-0.05650242 -0.053472564 -0.18723944
-0.056502998 -0.053388018 -0.18717355
-0.056503806 -0.05330161 -0.18710159
-0.056503952 -0.053218849 -0.18704572
-0.056502402 -0.053137299 -0.18702583
-0.056500364 -0.053055532 -0.18701592
-0.05649858 -0.052975848 -0.18700208
-0.056496248 -0.052893952 -0.18699819
-0.056493647 -0.052815877 -0.18700235
-0.056491122 -0.052733891 -0.18700245
-0.056488559 -0.05265386 -0.18700457
-0.056485467 -0.052575566 -0.18701872
-0.056482416 -0.052495316 -0.18703085
-0.056479909 -0.052417286 -0.18703303
-0.05647758 -0.052335389 -0.18702912
-0.056475013 -0.052255355 -0.18703124
-0.056472216 -0.052177195 -0.18703941
-0.05646969 -0.052095208 -0.18703951
-0.056467906 -0.052015528 -0.18702567
-0.056465968 -0.051933803 -0.18701376
-0.05646278 -0.051855467 -0.18702993
-0.056459494 -0.051777087 -0.18704808
-0.056456733 -0.051696967 -0.1870542
-0.05645417 -0.051616937 -0.18705633
-0.05645141 -0.051536821 -0.18706247
-0.056448415 -0.051458567 -0.18707463
-0.056445658 -0.051378451 -0.18708076
-0.056442801 -0.05129829 -0.18708888
-0.056439515 -0.05121991 -0.18710703
-0.056435741 -0.05114131 -0.18713516
-0.056432161 -0.051062796 -0.1871593
-0.056430027 -0.050980985 -0.18715142
-0.056427367 -0.050900914 -0.18715554
-0.056423984 -0.050822489 -0.18717569
-0.056421418 -0.050742455 -0.18717782
-0.056418855 -0.050662428 -0.18717995
-0.056415901 -0.050582223 -0.18719007
-0.05641314 -0.050502103 -0.1871962
-0.056410771 -0.050422162 -0.18719435
-0.056408696 -0.050342347 -0.18718648
-0.05640623 -0.050262362 -0.18718663
-0.056403469 -0.050182242 -0.18719274
-0.056401491 -0.050102476 -0.1871829
-0.056399941 -0.050020926 -0.18716301
-0.056397278 -0.049940854 -0.18716714
-0.056394715 -0.04986082 -0.18716927
-0.056392539 -0.049780965 -0.18716341
-0.056390211 -0.049699068 -0.18715951
-0.056387741 -0.049619079 -0.18715964
-0.056384884 -0.049538918 -0.18716776
-0.056381695 -0.049460582 -0.18718392
-0.056378644 -0.049380332 -0.18719605
-0.05637569 -0.049300127 -0.18720615
-0.056373186 -0.049222097 -0.18720832
-0.056371048 -0.049140282 -0.18720043
-0.056368195 -0.049060121 -0.18720856
-0.056365494 -0.048982002 -0.18721473
-0.056363065 -0.04890006 -0.18721282
-0.056359876 -0.048821725 -0.18722898
-0.056356825 -0.048741475 -0.18724109
-0.056354161 -0.048661403 -0.18724522
-0.056351792 -0.048581459 -0.18724336
-0.056349851 -0.048499737 -0.18723147
-0.056348071 -0.048420053 -0.18721762
-0.056345701 -0.048340112 -0.18721575
-0.056343038 -0.048260037 -0.18721989
-0.056340668 -0.048180092 -0.18721803
-0.0563384 -0.048100196 -0.18721417
-0.056335345 -0.048019946 -0.18722627
-0.0563321 -0.04793961 -0.18724239
-0.056328814 -0.047861226 -0.18726055
-0.056325566 -0.04778089 -0.18727666
-0.056322806 -0.047700774 -0.18728279
-0.056320339 -0.047620788 -0.18728292
-0.056318164 -0.047540933 -0.18727705
-0.056316186 -0.047461163 -0.18726721
-0.056314304 -0.047381438 -0.18725535
-0.056312267 -0.047299668 -0.18724546
-0.056309506 -0.047219552 -0.1872516
-0.056306358 -0.047139261 -0.18726569
-0.056303795 -0.047059231 -0.18726784
-0.056302011 -0.046979547 -0.18725398
-0.056299932 -0.046899736 -0.18724613
-0.056297995 -0.046818011 -0.18723424
-0.056296114 -0.046738289 -0.18722239
-0.056293938 -0.04665843 -0.18721654
-0.056291569 -0.046578489 -0.18721467
-0.056289434 -0.046496678 -0.18720677
-0.056287259 -0.046416823 -0.1872009
-0.056284696 -0.046336792 -0.18720305
-0.056281839 -0.046256632 -0.18721116
-0.05627875 -0.046178337 -0.18722531
-0.056275502 -0.046098001 -0.18724144
-0.056273036 -0.046018012 -0.18724157
-0.056271583 -0.04593651 -0.18721968
-0.056269895 -0.045856871 -0.18720385
-0.056267429 -0.045776881 -0.18720397
-0.056264669 -0.045696765 -0.18721011
-0.056261521 -0.045616474 -0.18722422
-0.056258954 -0.045536444 -0.18722636
-0.056256585 -0.045456499 -0.18722449
-0.056253828 -0.045376383 -0.18723062
-0.056252375 -0.045294877 -0.18720873
-0.056252055 -0.045215849 -0.18716493
-0.056250408 -0.045134258 -0.18714705
-0.056248039 -0.045054313 -0.18714517
-0.056245472 -0.044974282 -0.18714732
-0.056242716 -0.044894166 -0.18715343
-0.056240052 -0.044814091 -0.18715757
-0.056237683 -0.04473415 -0.18715571
-0.05623541 -0.04465425 -0.18715185
-0.056232359 -0.044574 -0.18716396
-0.056229211 -0.044493709 -0.18717808
-0.056226704 -0.044415675 -0.18718025
-0.056224275 -0.044333734 -0.18717834
-0.056221906 -0.044253789 -0.18717648
-0.056219637 -0.044173893 -0.18717262
-0.056217171 -0.044093903 -0.18717276
-0.056214508 -0.044013832 -0.18717688
-0.056212138 -0.043933887 -0.18717502
-0.056209769 -0.043853942 -0.18717316
-0.056207791 -0.043774176 -0.18716329
-0.056206923 -0.043692932 -0.18712944
-0.056206312 -0.043613773 -0.18709162
-0.056204077 -0.043531921 -0.18708572
-0.056201573 -0.043453887 -0.18708789
-0.056199104 -0.043373901 -0.18708804
-0.056196153 -0.043293696 -0.18709815
-0.056193195 -0.04321349 -0.18710828
-0.056190729 -0.043133505 -0.18710841
-0.056188557 -0.043053649 -0.18710256
-0.0561857 -0.042973489 -0.18711069
-0.056182548 -0.042893194 -0.18712479
-0.056179594 -0.042812988 -0.18713491
-0.056176934 -0.042732917 -0.18713903
-0.056174856 -0.042653102 -0.18713118
-0.056172587 -0.042573202 -0.18712732
-0.056169961 -0.042491175 -0.18712941
-0.05616736 -0.042413097 -0.18713358
-0.056164932 -0.042331155 -0.18713167
-0.056163341 -0.042251561 -0.18711384
-0.056163121 -0.042172581 -0.18706805
-0.056162838 -0.042091597 -0.18702219
-0.05616086 -0.042011831 -0.18701233
-0.056158196 -0.041931756 -0.18701646
-0.056155927 -0.041851856 -0.1870126
-0.05615307 -0.041771695 -0.18702072
-0.056150213 -0.041691534 -0.18702886
-0.056147356 -0.04161137 -0.18703698
-0.056144107 -0.041531034 -0.18705308
-0.056141447 -0.041450962 -0.18705721
-0.056139626 -0.041373234 -0.18704541
-0.056136806 -0.041291118 -0.18705148
-0.056133423 -0.041212693 -0.18707164
-0.056130603 -0.041130576 -0.18707773
-0.056128722 -0.041050851 -0.18706587
-0.056126744 -0.040971085 -0.18705602
-0.056124862 -0.040891357 -0.18704417
-0.056123372 -0.040811807 -0.18702434
-0.05612237 -0.040732477 -0.18699452
-0.056120586 -0.040652797 -0.18698066
-0.056118019 -0.040572762 -0.1869828
-0.056115456 -0.040492732 -0.18698493
-0.05611328 -0.040412877 -0.18697907
-0.056110855 -0.040330935 -0.18697715
-0.056108933 -0.040253166 -0.18696736
-0.056106955 -0.040173396 -0.18695751
-0.056104526 -0.040091455 -0.1869556
-0.056101829 -0.040013336 -0.18696177
-0.056099106 -0.039931264 -0.18696585
-0.056096345 -0.039851148 -0.18697196
-0.056092866 -0.039772678 -0.18699414
-0.056089558 -0.039690342 -0.1870102
-0.056087386 -0.039610486 -0.18700433
-0.056085896 -0.039530937 -0.18698449
-0.056083623 -0.039451037 -0.18698063
-0.056081254 -0.039371096 -0.18697877
-0.056079764 -0.039291542 -0.18695894
-0.056078076 -0.039211906 -0.18694308
-0.056075707 -0.039131962 -0.18694124
-0.056073338 -0.039052021 -0.18693936
-0.05607136 -0.038972251 -0.18692952
-0.056069575 -0.038892571 -0.18691567
-0.056067206 -0.038812626 -0.18691382
-0.056065131 -0.038732816 -0.18690595
-0.056062762 -0.038652871 -0.18690409
-0.056060098 -0.038572796 -0.18690822
-0.056057438 -0.038492724 -0.18691234
-0.056054875 -0.03841269 -0.18691447
-0.056052115 -0.038332574 -0.1869206
-0.056049064 -0.038252324 -0.18693271
-0.056045718 -0.038171947 -0.18695083
-0.05604241 -0.038089611 -0.1869669
-0.056040004 -0.038011622 -0.18696707
-0.056037769 -0.03792977 -0.18696117
-0.056035791 -0.03785 -0.18695131
-0.056034263 -0.037772406 -0.18693352
-0.056032907 -0.037690941 -0.18690965
-0.0560304 -0.037612911 -0.18691182
-0.056027584 -0.037530795 -0.1869179
-0.056025311 -0.037450895 -0.18691406
-0.056023881 -0.037373342 -0.18689425
-0.056022137 -0.037291706 -0.18687835
-0.056020021 -0.037213851 -0.18687256
-0.056017593 -0.037131909 -0.18687063
-0.05601532 -0.037052009 -0.18686679
-0.05601272 -0.036973931 -0.18687096
-0.056009606 -0.036891684 -0.18688303
-0.056006651 -0.036811478 -0.18689315
-0.056003895 -0.036731362 -0.18689927
-0.056001134 -0.036651246 -0.1869054
-0.055997789 -0.036570866 -0.1869235
-0.05599419 -0.036488399 -0.18694556
-0.055991724 -0.036408413 -0.18694571
-0.055990037 -0.036328774 -0.18692985
-0.055988058 -0.036249004 -0.18692
-0.055985942 -0.036171149 -0.18691419
-0.055984002 -0.036089424 -0.1869023
-0.055982083 -0.036011655 -0.18689249
-0.055980045 -0.035929888 -0.18688259
-0.055978809 -0.035852425 -0.1868588
-0.055977415 -0.035772916 -0.18683699
-0.055975728 -0.03569328 -0.18682113
-0.055973556 -0.035613425 -0.18681528
-0.055970989 -0.035533391 -0.18681741
-0.055968136 -0.03545323 -0.18682553
-0.055965569 -0.0353732 -0.18682766
-0.055962909 -0.035293125 -0.18683179
-0.055959955 -0.035212919 -0.18684191
-0.055957135 -0.035130806 -0.18684798
-0.055954181 -0.035050601 -0.18685812
-0.055950932 -0.034970265 -0.18687421
-0.055948075 -0.0348901 -0.18688235
-0.055945806 -0.034810204 -0.18687849
-0.055943865 -0.034728479 -0.18686658
-0.055942044 -0.034650754 -0.18685478
-0.055940159 -0.034571029 -0.18684293
-0.055938281 -0.034491304 -0.18683109
-0.055936009 -0.034411404 -0.18682723
-0.055933736 -0.034331504 -0.18682337
-0.055931952 -0.034251824 -0.18680951
-0.055930268 -0.034172185 -0.18679367
-0.055928774 -0.034092635 -0.18677384
-0.055926759 -0.034014821 -0.18676603
-0.055923842 -0.03393266 -0.1867741
-0.05592167 -0.033852804 -0.18676825
-0.055919748 -0.033775035 -0.18675846
-0.055917028 -0.033692963 -0.18676253
-0.055914171 -0.033612803 -0.18677065
-0.055911314 -0.033532638 -0.18677877
-0.055908553 -0.033452522 -0.18678489
-0.055905599 -0.033372317 -0.18679503
-0.055902682 -0.033290155 -0.1868031
-0.055899631 -0.033209909 -0.18681522
-0.055896617 -0.033127703 -0.18682528
-0.055894248 -0.033047762 -0.18682343
-0.055892427 -0.032970034 -0.18681163
-0.055890739 -0.032890398 -0.18679577
-0.055888861 -0.032810673 -0.18678394
-0.055886686 -0.032730818 -0.18677807
-0.055884998 -0.032651179 -0.18676221
-0.055883471 -0.032573581 -0.18674444
-0.055881139 -0.032491684 -0.18674052
-0.055878866 -0.032411784 -0.18673667
-0.055876985 -0.032332059 -0.18672481
-0.05587497 -0.032254245 -0.186717
-0.055872601 -0.032174304 -0.18671514
-0.055869978 -0.032092273 -0.18671723
-0.055867217 -0.032012157 -0.18672335
-0.055863813 -0.031929776 -0.18674141
-0.05586037 -0.031849355 -0.18676153
-0.055857711 -0.031769279 -0.18676566
-0.05585612 -0.031689689 -0.18674782
-0.055853948 -0.03160983 -0.18674196
-0.055851385 -0.031529799 -0.18674409
-0.055849016 -0.031449854 -0.18674223
-0.055846352 -0.031369783 -0.18674636
-0.055843826 -0.031287797 -0.18674645
-0.055841807 -0.031209983 -0.18673863
-0.055839576 -0.031128129 -0.18673274
-0.055836912 -0.031048056 -0.18673685
-0.055834446 -0.030968068 -0.186737
-0.055832565 -0.030888341 -0.18672514
-0.055831231 -0.030810835 -0.18670335
-0.055829447 -0.030731153 -0.18668951
-0.055827275 -0.030651297 -0.18668365
-0.055825002 -0.030571397 -0.1866798
-0.055822536 -0.030491412 -0.18667993
-0.055819485 -0.030411163 -0.18669204
-0.055815984 -0.030328739 -0.18671212
-0.055812873 -0.030246492 -0.18672417
-0.055809721 -0.030166201 -0.18673828
-0.055807061 -0.030086126 -0.18674242
-0.055804886 -0.030006271 -0.18673655
-0.055802457 -0.029924329 -0.18673465
-0.055799991 -0.029844342 -0.1867348
-0.055797778 -0.02976644 -0.18673097
-0.055795349 -0.029684499 -0.18672906
-0.055793274 -0.029604688 -0.18672121
-0.055791296 -0.029524919 -0.18671136
-0.05578918 -0.029447062 -0.18670554
-0.055786908 -0.029367162 -0.18670169
-0.055784833 -0.029287349 -0.18669382
-0.055782463 -0.029207407 -0.18669197
-0.055779938 -0.029125422 -0.18669206
-0.055777472 -0.029045433 -0.18669218
-0.055774905 -0.028965402 -0.18669432
-0.055772185 -0.028883331 -0.18669841
-0.055769231 -0.028803125 -0.18670851
-0.05576602 -0.028720833 -0.18672259
-0.055763066 -0.02864063 -0.18673271
-0.055760406 -0.028560555 -0.18673684
-0.055758171 -0.028478701 -0.18673094
-0.055755801 -0.028398756 -0.18672907
-0.055753142 -0.028318683 -0.1867332
-0.055750031 -0.028236436 -0.18674527
-0.055747818 -0.028158534 -0.18674146
-0.055746131 -0.028078897 -0.18672562
-0.055744056 -0.027999084 -0.18671775
-0.05574153 -0.0279171 -0.18671785
-0.055738963 -0.02783707 -0.18671998
-0.055736497 -0.027757082 -0.18672012
-0.055734616 -0.027677357 -0.18670827
-0.0557326 -0.027599543 -0.18670046
-0.055730172 -0.027517602 -0.18669856
-0.055727996 -0.027437747 -0.18669268
-0.055725727 -0.027357846 -0.18668884
-0.055723552 -0.027277991 -0.18668297
-0.055721182 -0.027198046 -0.18668111
-0.055717781 -0.027115669 -0.18669918
-0.055713985 -0.027033117 -0.18672523
-0.055710677 -0.02695078 -0.18674129
-0.055708114 -0.026870752 -0.18674341
-0.055705648 -0.026790764 -0.18674356
-0.055703472 -0.026710909 -0.18673769
-0.055701494 -0.026631139 -0.18672784
-0.055699419 -0.026551327 -0.18671998
-0.055697341 -0.026471514 -0.18671213
-0.055695362 -0.026391746 -0.18670228
-0.05569309 -0.026311846 -0.18669842
-0.055690527 -0.026231818 -0.18670055
-0.055687711 -0.026149699 -0.18670663
-0.055685341 -0.026069757 -0.18670477
-0.055683907 -0.025992205 -0.18668497
-0.055682123 -0.025912523 -0.18667114
-0.055679951 -0.025832668 -0.18666527
-0.055677287 -0.025752593 -0.18666941
-0.055673983 -0.025670258 -0.18668547
-0.055671163 -0.025588144 -0.18669155
-0.0556686 -0.025508113 -0.18669368
-0.055665683 -0.025425952 -0.18670176
-0.055661887 -0.025343399 -0.18672781
-0.05565631 -0.025181165 -0.18674001
-0.055653978 -0.025099266 -0.18673611
-0.055651318 -0.025019193 -0.18674022
-0.055648755 -0.024939163 -0.18674237
-0.055646226 -0.024857176 -0.18674245
-0.055643663 -0.024777146 -0.18674457
-0.055641197 -0.024697158 -0.18674472
-0.055638477 -0.024615087 -0.1867488
-0.055635519 -0.024534881 -0.18675892
-0.055632059 -0.024450505 -0.18677694
-0.055615909 -0.023964064 -0.18680157
-0.055612601 -0.02388173 -0.18681762
-0.055609394 -0.023799438 -0.18683168
-0.056802854 -0.053790867 -0.18731499
-0.056801111 -0.053709231 -0.18729909
-0.056800772 -0.05362625 -0.18725319
-0.056801878 -0.053539973 -0.18717524
-0.056801248 -0.053456862 -0.18713537
-0.056801107 -0.05337397 -0.18708546
-0.056802273 -0.053289689 -0.18700758
-0.056801841 -0.053206667 -0.18696368
-0.056799803 -0.053124897 -0.18695378
-0.056797825 -0.053045131 -0.18694392
-0.056795694 -0.05296332 -0.18693602
-0.056793716 -0.052883551 -0.18692617
-0.05679135 -0.052803606 -0.18692431
