# .PCD v0.7 - Point Cloud Data file format
VERSION 0.7
FIELDS x y z
SIZE 4 4 4
TYPE F F F
COUNT 1 1 1
WIDTH 1269
HEIGHT 1
VIEWPOINT 0 0 0 1 0 0 0
POINTS 1269
DATA ascii
-0.047147546 -0.087724254 -0.18763611
-0.04715012 -0.087804288 -0.18763398
-0.0471524 -0.087884188 -0.18763784
-0.047154643 -0.08796604 -0.18764371
-0.047157019 -0.088045985 -0.18764555
-0.047159165 -0.088127792 -0.18765345
-0.04716102 -0.08820948 -0.18766733
-0.047162969 -0.088291198 -0.1876792
-0.047165252 -0.088371098 -0.18768305
-0.047167629 -0.088451043 -0.18768489
-0.047170065 -0.088532984 -0.1876868
-0.047171824 -0.088614628 -0.18770267
-0.047173578 -0.088696264 -0.18771854
-0.047175623 -0.088778034 -0.18772843
-0.047177806 -0.088857889 -0.18773428
-0.047179952 -0.088939704 -0.18774216
-0.047182001 -0.089021474 -0.18775205
-0.047183719 -0.08910507 -0.18776996
-0.047185607 -0.089184791 -0.18778181
-0.047187325 -0.089268386 -0.18779972
-0.047188751 -0.089351848 -0.18782362
-0.047190502 -0.089433491 -0.18783951
-0.047192164 -0.089515083 -0.18785739
-0.047193293 -0.089598417 -0.18788728
-0.047195341 -0.089680187 -0.18789718
-0.047197681 -0.089762084 -0.18790105
-0.047199864 -0.08984194 -0.18790691
-0.047201872 -0.089925669 -0.18791884
-0.047204252 -0.090005606 -0.18792069
-0.04720673 -0.090085596 -0.18792053
-0.047209166 -0.090167537 -0.18792242
-0.047211546 -0.090247482 -0.18792427
-0.047213592 -0.090329245 -0.18793416
-0.047215935 -0.090411149 -0.18793805
-0.047218215 -0.090491049 -0.18794191
-0.047219835 -0.0905746 -0.18796182
-0.047221493 -0.090656191 -0.18797968
-0.047223307 -0.090739831 -0.18799561
-0.047225159 -0.090821519 -0.18800949
-0.04722701 -0.090903193 -0.18802336
-0.047228534 -0.090986706 -0.18804528
-0.047230288 -0.091068342 -0.18806115
-0.047231711 -0.091151804 -0.18808506
-0.047233526 -0.091235444 -0.18810099
-0.047236003 -0.091315433 -0.18810084
-0.047238439 -0.091397375 -0.18810272
-0.047240429 -0.091477141 -0.18811256
-0.047242671 -0.091558993 -0.18811846
-0.047245208 -0.091640979 -0.18811837
-0.047247488 -0.091720879 -0.18812221
-0.047249634 -0.091802694 -0.1881301
-0.04725178 -0.091884509 -0.18813798
-0.047253106 -0.091967925 -0.18816389
-0.047255348 -0.092049785 -0.18816978
-0.04725831 -0.092129983 -0.18815964
-0.047261216 -0.092208192 -0.18814945
-0.047263265 -0.092289954 -0.18815935
-0.047265176 -0.092373639 -0.18817326
-0.04726775 -0.092453673 -0.18817113
-0.04727003 -0.092533566 -0.18817496
-0.047272138 -0.092617333 -0.1881849
-0.047274418 -0.092697233 -0.18818876
-0.047276761 -0.092779137 -0.18819264
-0.047278576 -0.09286277 -0.18820857
-0.047280621 -0.09294454 -0.18821844
-0.047283195 -0.093024567 -0.1882163
-0.047285438 -0.093106426 -0.1882222
-0.047288109 -0.093186498 -0.18821806
-0.047290549 -0.093268439 -0.18821993
-0.047292303 -0.093350083 -0.18823582
-0.047294643 -0.093431979 -0.18823972
-0.047297742 -0.09351027 -0.18822554
-0.047300376 -0.093592294 -0.18822345
-0.047302522 -0.093674108 -0.18823132
-0.047304571 -0.093755879 -0.18824121
-0.047306716 -0.093837693 -0.18824911
-0.047309056 -0.09391959 -0.18825299
-0.047311299 -0.094001442 -0.18825889
-0.047313776 -0.094081432 -0.18825874
-0.047315918 -0.094163239 -0.18826662
-0.047317248 -0.094246663 -0.18829253
-0.047318768 -0.094330169 -0.18831444
-0.047320876 -0.094413936 -0.18832436
-0.047323644 -0.094494052 -0.18831822
-0.047326744 -0.094572343 -0.18830407
-0.047329612 -0.094652504 -0.18829592
-0.047331326 -0.094736099 -0.18831384
-0.047332227 -0.094821304 -0.18834978
-0.04733447 -0.094903156 -0.18835567
-0.04733704 -0.09498319 -0.18835352
-0.047339577 -0.095065176 -0.18835342
-0.04734176 -0.095145032 -0.18835926
-0.047343671 -0.095228709 -0.18837319
-0.047346111 -0.095310651 -0.18837509
-0.047348879 -0.095390767 -0.18836895
-0.047351357 -0.095470756 -0.1883688
-0.047353894 -0.095552742 -0.18836869
-0.047356367 -0.095632724 -0.18836856
-0.047358941 -0.095712759 -0.18836641
-0.046687048 -0.08680819 -0.18800315
-0.046693616 -0.086880133 -0.18791291
-0.04669904 -0.086955503 -0.18784872
-0.046703838 -0.087032579 -0.18779854
-0.046708733 -0.087109692 -0.18774638
-0.046712652 -0.087186374 -0.18771417
-0.046716865 -0.087263182 -0.18767598
-0.046720453 -0.087341696 -0.18765183
-0.046723943 -0.087420158 -0.18762967
-0.046727203 -0.08750049 -0.18761355
-0.046730109 -0.087578692 -0.18760335
-0.04673278 -0.08765877 -0.18759923
-0.04673522 -0.087740712 -0.18760112
-0.046737928 -0.087818831 -0.18759492
-0.046740562 -0.087900855 -0.18759283
-0.046742745 -0.08798071 -0.18759868
-0.046744697 -0.088062435 -0.18761057
-0.046746649 -0.088144168 -0.18762244
-0.046748735 -0.088223979 -0.18763028
-0.046750881 -0.088305786 -0.18763816
-0.046752539 -0.088387385 -0.18765604
-0.046754491 -0.08846911 -0.18766792
-0.046756733 -0.088550963 -0.18767381
-0.046758682 -0.088632688 -0.1876857
-0.046760831 -0.088714503 -0.18769358
-0.046762917 -0.088794313 -0.18770142
-0.046764769 -0.088875994 -0.18771529
-0.046766426 -0.088957593 -0.18773317
-0.046768378 -0.089039318 -0.18774505
-0.04677029 -0.089122996 -0.18775898
-0.046772048 -0.089204639 -0.18777484
-0.046773937 -0.08928436 -0.18778668
-0.046775654 -0.089367956 -0.18780461
-0.046777081 -0.089451425 -0.18782851
-0.046778835 -0.089533061 -0.1878444
-0.046780493 -0.08961466 -0.18786225
-0.046782348 -0.08969634 -0.18787614
-0.046784066 -0.089779928 -0.18789406
-0.046786211 -0.089861743 -0.18790194
-0.046788357 -0.089943558 -0.18790984
-0.046790637 -0.090023458 -0.18791369
-0.046792883 -0.09010531 -0.18791956
-0.046795029 -0.090187125 -0.18792745
-0.046797309 -0.090267025 -0.1879313
-0.046799261 -0.09034875 -0.18794319
-0.046801407 -0.090430558 -0.18795107
-0.046803884 -0.090510547 -0.18795091
-0.046806224 -0.090592444 -0.18795481
-0.046808664 -0.090674385 -0.18795672
-0.046810713 -0.090756156 -0.18796659
-0.046812076 -0.09083762 -0.18799046
-0.046813503 -0.090921089 -0.18801437
-0.046815515 -0.091004811 -0.18802629
-0.046817269 -0.091086447 -0.18804216
-0.046818499 -0.091169827 -0.18807007
-0.04682035 -0.091251507 -0.18808395
-0.046822496 -0.091333322 -0.18809184
-0.046824936 -0.091415264 -0.18809374
-0.046827704 -0.09149538 -0.1880876
-0.046829656 -0.091577105 -0.18809947
-0.046831414 -0.091658741 -0.18811536
-0.046834182 -0.091738857 -0.18810922
-0.046836853 -0.091818929 -0.18810508
-0.046838671 -0.091902569 -0.18812099
-0.046841145 -0.091982558 -0.18812084
-0.046843722 -0.092062585 -0.1881187
-0.046845339 -0.092146136 -0.1881386
-0.046848014 -0.092226207 -0.18813449
-0.046850882 -0.092306368 -0.18812634
-0.046853125 -0.092388228 -0.18813223
-0.046855174 -0.09246999 -0.18814212
-0.046857357 -0.092549846 -0.18814796
-0.046859562 -0.092633665 -0.18815589
-0.046861317 -0.092715301 -0.18817177
-0.046862744 -0.092798762 -0.18819568
-0.046864692 -0.092880487 -0.18820757
-0.046867326 -0.092962518 -0.18820545
-0.046870001 -0.09304259 -0.18820131
-0.046872474 -0.093122579 -0.18820116
-0.046874721 -0.093204431 -0.18820706
-0.04687706 -0.093286328 -0.18821095
-0.046879441 -0.093366273 -0.1882128
-0.046881549 -0.09345004 -0.18822274
-0.046883732 -0.093529895 -0.18822858
-0.046886563 -0.093612015 -0.18822248
-0.046889234 -0.093692087 -0.18821833
-0.046891615 -0.093772024 -0.18822017
-0.046893664 -0.093853801 -0.18823007
-0.046895809 -0.093935609 -0.18823797
-0.046898637 -0.094017729 -0.18823186
-0.046901114 -0.094097711 -0.18823171
-0.046903163 -0.094179481 -0.1882416
-0.046904489 -0.094262898 -0.1882675
-0.04690611 -0.094346449 -0.18828742
-0.046908218 -0.094430223 -0.18829736
-0.046910696 -0.094510205 -0.18829721
-0.04691356 -0.094590366 -0.18828906
-0.046916332 -0.094670482 -0.18828294
-0.046918478 -0.094752297 -0.18829082
-0.046920195 -0.094835892 -0.18830873
-0.046921853 -0.094917484 -0.18832661
-0.046923999 -0.094999298 -0.18833449
-0.04692683 -0.095081411 -0.18832839
-0.046929404 -0.095161438 -0.18832627
-0.046931744 -0.095243335 -0.18833014
-0.046934221 -0.095323324 -0.18832999
-0.04693656 -0.095405221 -0.1883339
-0.046938512 -0.095486946 -0.18834578
-0.046940658 -0.095568761 -0.18835366
-0.04694267 -0.095652483 -0.18836559
-0.046944913 -0.095734343 -0.18837148
-0.046369389 -0.086811118 -0.18792257
-0.046372492 -0.086889409 -0.18790838
-0.046377487 -0.086966567 -0.18785422
-0.046382327 -0.087041683 -0.18780202
-0.046386696 -0.08712054 -0.18776187
-0.046390813 -0.087197304 -0.18772569
-0.046395749 -0.087272465 -0.18767148
-0.04639934 -0.087350972 -0.18764731
-0.046402305 -0.087431177 -0.18763718
-0.046405371 -0.08751142 -0.18762505
-0.046408281 -0.087589629 -0.18761487
-0.046410955 -0.0876697 -0.18761073
-0.046413533 -0.087749727 -0.18760858
-0.046416011 -0.087829717 -0.18760844
-0.046418022 -0.087913439 -0.18762037
-0.046419822 -0.087993123 -0.1876342
-0.046422165 -0.088075027 -0.18763809
-0.046424642 -0.088155009 -0.18763793
-0.046427026 -0.088234954 -0.18763979
-0.046429172 -0.088316768 -0.18764767
-0.04643093 -0.088398404 -0.18766356
-0.046432495 -0.088479951 -0.18768343
-0.04643441 -0.088563636 -0.18769735
-0.046436794 -0.088643581 -0.1876992
-0.046438843 -0.088725343 -0.18770908
-0.046440601 -0.088806987 -0.18772495
-0.04644265 -0.088888757 -0.18773484
-0.046444744 -0.088968568 -0.18774268
-0.046446793 -0.089050338 -0.18775256
-0.046448611 -0.089133978 -0.18776849
-0.0464506 -0.089213744 -0.18777832
-0.046452262 -0.089295343 -0.18779621
-0.046453457 -0.089380674 -0.18782613
-0.046455119 -0.089462265 -0.18784401
-0.046456974 -0.089543954 -0.1878579
-0.046458304 -0.08962737 -0.18788381
-0.046460062 -0.089709006 -0.18789968
-0.046462212 -0.089790821 -0.18790758
-0.046464164 -0.089872546 -0.18791944
-0.046466216 -0.089954317 -0.18792933
-0.046468657 -0.090036258 -0.18793122
-0.04647065 -0.090116024 -0.18794107
-0.04647227 -0.090199575 -0.18796098
-0.046474323 -0.090281345 -0.18797086
-0.046476569 -0.090363204 -0.18797675
-0.046478853 -0.090443105 -0.18798061
-0.046481431 -0.090523131 -0.18797845
-0.046483636 -0.090606943 -0.18798637
-0.046485491 -0.090688623 -0.18800026
-0.046487544 -0.090770394 -0.18801014
-0.046489693 -0.090852201 -0.18801804
-0.046491783 -0.090932019 -0.18802588
-0.046493933 -0.091013826 -0.18803376
-0.04649565 -0.091097422 -0.18805169
-0.046497177 -0.091180928 -0.18807359
-0.046499033 -0.091262609 -0.18808748
-0.046501081 -0.091344379 -0.18809736
-0.046503134 -0.091426149 -0.18810725
-0.04650538 -0.091508001 -0.18811312
-0.046507724 -0.091589905 -0.18811703
-0.046510108 -0.091669843 -0.18811888
-0.046513014 -0.091748051 -0.18810868
-0.046515651 -0.091830075 -0.1881066
-0.046517506 -0.091911763 -0.18812047
-0.046519458 -0.091993481 -0.18813235
-0.046522096 -0.092075512 -0.18813026
-0.046524085 -0.092155285 -0.18814009
-0.046525709 -0.092238836 -0.18816
-0.04652825 -0.092320822 -0.18815991
-0.046530727 -0.092400804 -0.18815976
-0.046532974 -0.092482664 -0.18816565
-0.046535123 -0.092564471 -0.18817353
-0.046537075 -0.092646196 -0.18818542
-0.046539653 -0.092726231 -0.18818328
-0.046542425 -0.092806339 -0.18817712
-0.046544477 -0.092888117 -0.188187
-0.046545669 -0.092973448 -0.18821695
-0.046547916 -0.0930553 -0.18822286
-0.046550494 -0.093135327 -0.18822071
-0.046552509 -0.093219057 -0.18823263
-0.046554595 -0.093298867 -0.18824048
-0.046557136 -0.093380854 -0.18824038
-0.046559613 -0.093460843 -0.18824023
-0.04656186 -0.093542695 -0.18824613
-0.046563875 -0.093626417 -0.18825805
-0.046566159 -0.093706317 -0.18826188
-0.046569027 -0.093786478 -0.18825376
-0.046571568 -0.093868464 -0.18825366
-0.046574045 -0.093948454 -0.18825349
-0.046576388 -0.09403035 -0.1882574
-0.046578538 -0.094112158 -0.18826528
-0.046580687 -0.094193973 -0.18827316
-0.046582736 -0.094275743 -0.18828306
-0.046584886 -0.09435755 -0.18829094
-0.046587329 -0.094439492 -0.18829283
-0.046589807 -0.094519481 -0.18829268
-0.046592481 -0.094599552 -0.18828854
-0.046595119 -0.094681583 -0.18828645
-0.046597403 -0.094761483 -0.18829028
-0.046599027 -0.094845034 -0.18831021
-0.046600942 -0.094928712 -0.18832414
-0.046603225 -0.095008612 -0.18832797
-0.046605568 -0.095090508 -0.18833187
-0.046607718 -0.095172323 -0.18833977
-0.046610061 -0.09525422 -0.18834364
-0.046612307 -0.09533608 -0.18834955
-0.046614982 -0.095416151 -0.1883454
-0.046618182 -0.095494479 -0.18832922
-0.046620525 -0.095576383 -0.18833312
-0.04662139 -0.09566354 -0.18837109
-0.046623148 -0.095745176 -0.18838698
-0.046117511 -0.086900227 -0.18788478
-0.046120811 -0.086978599 -0.1878666
-0.046124987 -0.087057367 -0.18783045
-0.046129007 -0.087134093 -0.18779626
-0.046133518 -0.087211035 -0.1877521
-0.046138123 -0.087288022 -0.18770592
-0.046141908 -0.087366611 -0.18767776
-0.046145111 -0.087444946 -0.18766159
-0.046148077 -0.087525152 -0.18765146
-0.046151087 -0.087603398 -0.18763927
-0.046154249 -0.087683693 -0.18762514
-0.046156634 -0.08776363 -0.18762699
-0.046158489 -0.087845318 -0.18764088
-0.046160933 -0.087927252 -0.18764278
-0.046163216 -0.088007152 -0.18764661
-0.046164881 -0.088088751 -0.18766449
-0.046166737 -0.088170432 -0.18767837
-0.046169218 -0.088250421 -0.18767822
-0.046171565 -0.088332318 -0.18768212
-0.046173323 -0.088413954 -0.18769798
-0.046175279 -0.088495687 -0.18770987
-0.046177566 -0.088575579 -0.18771371
-0.046179619 -0.088657349 -0.18772361
-0.046181377 -0.088738985 -0.18773948
-0.04618343 -0.088820755 -0.18774936
-0.046185579 -0.08890257 -0.18775725
-0.046187144 -0.088984117 -0.18777713
-0.046188772 -0.089067668 -0.18779702
-0.046190627 -0.089149356 -0.18781091
-0.046192717 -0.089229167 -0.18781875
-0.046194769 -0.089310937 -0.18782863
-0.04619702 -0.089392789 -0.18783453
-0.046198972 -0.089474514 -0.18784641
-0.046200305 -0.089557938 -0.18787232
-0.046201441 -0.089641273 -0.18790221
-0.046203103 -0.089722864 -0.18792009
-0.046204828 -0.08980646 -0.187938
-0.046207212 -0.089886405 -0.18793985
-0.046209555 -0.089968301 -0.18794376
-0.046211313 -0.090049937 -0.18795961
-0.046213269 -0.09013167 -0.1879715
-0.046215419 -0.090213478 -0.18797939
-0.046217278 -0.090295158 -0.18799327
-0.046219293 -0.090378881 -0.18800519
-0.046221249 -0.090460613 -0.18801707
-0.046223007 -0.090542242 -0.18803295
-0.046225585 -0.090622276 -0.18803081
-0.046228748 -0.090702564 -0.18801668
-0.046231523 -0.09078268 -0.18801054
-0.046233088 -0.090864234 -0.18803041
-0.046234321 -0.090947613 -0.18805832
-0.046236239 -0.091031291 -0.18807223
-0.04623872 -0.09111128 -0.18807209
-0.04624005 -0.091194704 -0.188098
-0.046241052 -0.091279946 -0.18813194
-0.04624334 -0.091359846 -0.18813579
-0.046245452 -0.091443613 -0.18814573
-0.046247445 -0.091523379 -0.18815556
-0.046249654 -0.091607198 -0.18816349
-0.046251647 -0.091686964 -0.18817332
-0.046254419 -0.09176708 -0.18816718
-0.046256669 -0.091848932 -0.18817309
-0.046259012 -0.091930836 -0.18817697
-0.046263851 -0.092005953 -0.18812475
-0.046264656 -0.092091106 -0.1881627
-0.046265893 -0.092174485 -0.18819061
-0.046268236 -0.092256382 -0.18819448
-0.046270717 -0.092336372 -0.18819435
-0.046273395 -0.092416443 -0.18819019
-0.046275642 -0.092498302 -0.18819609
-0.046277501 -0.092579983 -0.18820998
-0.046279319 -0.092663616 -0.1882259
-0.046281178 -0.092745297 -0.18823977
-0.046282899 -0.092828892 -0.18825769
-0.046285242 -0.092910796 -0.18826157
-0.046288151 -0.092988998 -0.18825141
-0.046290498 -0.093070894 -0.1882553
-0.046292026 -0.093154401 -0.18827721
-0.0462947 -0.093234472 -0.18827307
-0.046297476 -0.093314588 -0.18826693
-0.04630015 -0.093394667 -0.18826279
-0.046302594 -0.093476608 -0.18826467
-0.046304643 -0.093558371 -0.18827456
-0.046306893 -0.093640231 -0.18828046
-0.04630924 -0.093722127 -0.18828435
-0.046311818 -0.093802154 -0.18828219
-0.046314552 -0.09388423 -0.18827811
-0.04631684 -0.09396413 -0.18828195
-0.046319086 -0.094045982 -0.18828784
-0.046321429 -0.094127879 -0.18829173
-0.046323679 -0.094209738 -0.18829763
-0.046325341 -0.094291329 -0.1883155
-0.046327882 -0.094373316 -0.18831539
-0.046330851 -0.094453521 -0.18830526
-0.046333428 -0.094533548 -0.18830311
-0.046336338 -0.094611757 -0.18829295
-0.046339501 -0.094692044 -0.18827881
-0.046341747 -0.094773896 -0.1882847
-0.046343569 -0.094857536 -0.18830061
-0.046345718 -0.094939351 -0.18830851
-0.046347771 -0.095021114 -0.1883184
-0.046349823 -0.095102884 -0.18832827
-0.046351779 -0.095184609 -0.18834016
-0.046353698 -0.095268294 -0.18835407
-0.046355322 -0.095351845 -0.18837401
-0.046358094 -0.095431954 -0.18836786
-0.046360243 -0.095513768 -0.18837574
-0.046362296 -0.095595539 -0.18838564
-0.046364311 -0.095679261 -0.18839756
-0.046366267 -0.095760986 -0.18840945
-0.045857571 -0.086929567 -0.18791425
-0.045862075 -0.087006509 -0.18787007
-0.045866676 -0.087083496 -0.18782389
-0.045871768 -0.087160692 -0.18776773
-0.045876078 -0.087237552 -0.18772754
-0.045880094 -0.087314278 -0.18769336
-0.045884077 -0.087392956 -0.18766122
-0.045887507 -0.087469421 -0.187639
-0.045890864 -0.087549798 -0.18762088
-0.045893732 -0.087629959 -0.18761274
-0.045896444 -0.087708078 -0.18760654
-0.045898885 -0.08779002 -0.18760845
-0.045900837 -0.087871745 -0.18762034
-0.04590302 -0.087951601 -0.18762618
-0.045905169 -0.088033415 -0.18763405
-0.045907218 -0.088115178 -0.18764395
-0.045909598 -0.088195123 -0.18764579
-0.045911979 -0.088275068 -0.18764764
-0.045913931 -0.088356793 -0.18765953
-0.045915648 -0.088440388 -0.18767744
-0.045917545 -0.08852011 -0.18768927
-0.045919787 -0.088601969 -0.18769518
-0.045921739 -0.088683695 -0.18770705
-0.045923695 -0.08876542 -0.18771893
-0.045925975 -0.088845313 -0.18772277
-0.045927696 -0.088928908 -0.18774068
-0.045929022 -0.089012332 -0.18776661
-0.045930915 -0.089092061 -0.18777844
-0.045933358 -0.089174002 -0.18778035
-0.045935638 -0.089253902 -0.18778418
-0.045937691 -0.089335673 -0.18779406
-0.045939837 -0.08941748 -0.18780196
-0.045941595 -0.089499116 -0.18781783
-0.045942925 -0.08958254 -0.18784373
-0.045943961 -0.08966583 -0.18787563
-0.045945775 -0.08974947 -0.18789156
-0.045948155 -0.089829415 -0.18789341
-0.045950498 -0.089911312 -0.18789729
-0.045952547 -0.089993082 -0.18790719
-0.0459546 -0.090074852 -0.18791707
-0.045956552 -0.09015657 -0.18792894
-0.045958407 -0.090238258 -0.18794283
-0.045960162 -0.090319894 -0.1879587
-0.045962077 -0.090403572 -0.18797262
-0.045964167 -0.09048339 -0.18798047
-0.045965981 -0.090567023 -0.18799639
-0.045968227 -0.090648882 -0.18800227
-0.045970511 -0.090728782 -0.18800612
-0.045972753 -0.090810634 -0.18801202
-0.045975134 -0.090890579 -0.18801387
-0.045977283 -0.090972394 -0.18802175
-0.045979235 -0.091054112 -0.18803363
-0.045981478 -0.091135971 -0.18803951
-0.045983005 -0.091219477 -0.18806142
-0.045984235 -0.091302857 -0.18808934
-0.045985896 -0.091384456 -0.18810721
-0.045988102 -0.09146826 -0.18811515
-0.045990191 -0.09154807 -0.18812299
-0.0459923 -0.091631845 -0.18813291
-0.045994386 -0.091711655 -0.18814075
-0.045996729 -0.091793552 -0.18814465
-0.045998875 -0.091875367 -0.18815252
-0.046001025 -0.091957182 -0.18816042
-0.046003696 -0.092037253 -0.18815628
-0.046007618 -0.092113934 -0.18812409
-0.046009433 -0.092197567 -0.18814
-0.046010762 -0.092280991 -0.1881659
-0.046012908 -0.092362806 -0.1881738
-0.046015486 -0.092442833 -0.18817165
-0.046017535 -0.092524603 -0.18818153
-0.046019975 -0.092606544 -0.18818343
-0.046022221 -0.092688397 -0.18818933
-0.046024077 -0.092770085 -0.18820322
-0.046025991 -0.092853762 -0.18821712
-0.046028078 -0.092933573 -0.18822496
-0.046030421 -0.093015477 -0.18822886
-0.046032995 -0.093095504 -0.18822671
-0.046035532 -0.09317749 -0.18822661
-0.046037972 -0.093259431 -0.18822852
-0.046040159 -0.093339287 -0.18823434
-0.046042792 -0.09342131 -0.18823224
-0.04604537 -0.093501344 -0.1882301
-0.04604781 -0.093583286 -0.188232
-0.046050094 -0.093663186 -0.18823585
-0.046052631 -0.093745172 -0.18823574
-0.046054192 -0.093826726 -0.18825561
-0.046056494 -0.093910575 -0.18826155
-0.046058878 -0.09399052 -0.18826342
-0.046061549 -0.094070591 -0.18825926
-0.046064712 -0.094150886 -0.18824513
-0.046067093 -0.094230831 -0.18824698
-0.046069104 -0.094314553 -0.18825892
-0.046071153 -0.094396323 -0.18826878
-0.046073399 -0.094478175 -0.18827468
-0.046075642 -0.094560027 -0.18828057
-0.046078414 -0.094640151 -0.18827443
-0.046081282 -0.094720304 -0.18826628
-0.046083994 -0.094798423 -0.18826011
-0.046086296 -0.09488228 -0.18826604
-0.046088055 -0.094963916 -0.18828192
-0.046090532 -0.095043905 -0.18828177
-0.046092544 -0.095127627 -0.1882937
-0.046094924 -0.095207572 -0.18829554
-0.046097133 -0.095291376 -0.18830349
-0.046099182 -0.095373146 -0.18831336
-0.046101332 -0.095454961 -0.18832126
-0.046103284 -0.095536686 -0.18833312
-0.046105392 -0.095620453 -0.18834308
-0.046108164 -0.095700569 -0.18833692
-0.046111166 -0.095778815 -0.18832475
-0.045619797 -0.086789295 -0.18786976
-0.045622408 -0.08686737 -0.18786556
-0.045626484 -0.086946093 -0.18783142
-0.045633249 -0.087018117 -0.18773717
-0.045638572 -0.08709345 -0.18767497
-0.045642257 -0.087172002 -0.18764882
-0.045646038 -0.087250598 -0.18762067
-0.045650154 -0.087327369 -0.18758446
-0.045654032 -0.087406002 -0.18755431
-0.045657326 -0.087484382 -0.18753615
-0.045660485 -0.08756467 -0.18752202
-0.04566358 -0.08764296 -0.18750784
-0.045666058 -0.08772295 -0.18750769
-0.045668628 -0.087802976 -0.18750554
-0.045671102 -0.087882966 -0.18750539
-0.045673247 -0.087964773 -0.18751329
-0.045675293 -0.088046551 -0.18752319
-0.045677043 -0.088128187 -0.18753904
-0.045679189 -0.088209994 -0.18754694
-0.045681663 -0.088289984 -0.18754679
-0.045683943 -0.088369884 -0.18755063
-0.045685891 -0.088451609 -0.18756253
-0.045687646 -0.088533252 -0.18757838
-0.045689788 -0.08861506 -0.18758628
-0.045691967 -0.088694915 -0.18759212
-0.04569421 -0.088776767 -0.18759802
-0.045696549 -0.088858671 -0.18760191
-0.045698535 -0.088938445 -0.18761176
-0.045700349 -0.089022078 -0.18762767
-0.045702137 -0.089101762 -0.1876415
-0.045704048 -0.089185439 -0.18765542
-0.045706131 -0.089265257 -0.18766326
-0.045708373 -0.089347109 -0.18766916
-0.045709696 -0.089430533 -0.18769506
-0.045711156 -0.089512035 -0.18771693
-0.045712676 -0.089595549 -0.18773884
-0.045714196 -0.089679055 -0.18776074
-0.045716144 -0.08976078 -0.18777263
-0.045718189 -0.08984255 -0.18778253
-0.045720138 -0.089924276 -0.18779439
-0.045721989 -0.090005957 -0.18780828
-0.045723937 -0.090087682 -0.18782017
-0.045726176 -0.090169534 -0.18782605
-0.045728125 -0.090251267 -0.18783793
-0.045729976 -0.090332948 -0.18785182
-0.045732647 -0.090413019 -0.18784767
-0.045734596 -0.090494744 -0.18785955
-0.04573625 -0.090576336 -0.18787742
-0.045738257 -0.090660065 -0.18788934
-0.04574044 -0.090739921 -0.18789518
-0.045742445 -0.090823643 -0.18790711
-0.04574617 -0.090900242 -0.18787892
-0.045750711 -0.090975225 -0.18783268
-0.045751411 -0.09106034 -0.18787263
-0.04575057 -0.091148719 -0.1879466
-0.045752283 -0.091232315 -0.18796453
-0.045753706 -0.091315776 -0.18798843
-0.045755226 -0.09139929 -0.18801035
-0.045757506 -0.091479182 -0.18801419
-0.045760177 -0.091559261 -0.18801007
-0.045762278 -0.091643028 -0.18801999
-0.045764267 -0.091722801 -0.18802983
-0.045766801 -0.09180478 -0.18802972
-0.045770522 -0.091881379 -0.18800153
-0.045774013 -0.091959842 -0.18797937
-0.045775201 -0.092045173 -0.18800931
-0.045776036 -0.092128381 -0.1880452
-0.045778178 -0.092210189 -0.18805309
-0.045780614 -0.09229213 -0.18805498
-0.045782566 -0.092373863 -0.18806687
-0.04578504 -0.092453845 -0.18806672
-0.04578761 -0.092533872 -0.18806458
-0.045789853 -0.092615731 -0.18807046
-0.045791566 -0.092699327 -0.18808839
-0.04579328 -0.092782915 -0.1881063
-0.045795523 -0.092864774 -0.1881122
-0.045797706 -0.092944629 -0.18811804
-0.045799945 -0.093026489 -0.18812393
-0.045802478 -0.093108475 -0.18812382
-0.045804854 -0.093188412 -0.18812567
-0.045807622 -0.093268529 -0.18811953
-0.045810156 -0.093350515 -0.18811944
-0.045812532 -0.093430459 -0.18812129
-0.045814872 -0.093512356 -0.18812516
-0.045816626 -0.093594 -0.18814105
-0.045819357 -0.093676068 -0.18813695
-0.045822453 -0.093754359 -0.18812278
-0.045824733 -0.093834259 -0.18812662
-0.045826837 -0.093918025 -0.18813655
-0.04582908 -0.093999878 -0.18814245
-0.045831945 -0.094080038 -0.18813431
-0.045834225 -0.094159946 -0.18813816
-0.04583627 -0.094241709 -0.18814804
-0.045838997 -0.094323784 -0.18814394
-0.045841277 -0.094403684 -0.18814778
-0.045843381 -0.094487451 -0.18815772
-0.045845956 -0.094567478 -0.18815558
-0.045848526 -0.094647512 -0.18815343
-0.045850866 -0.094729409 -0.18815732
-0.045853108 -0.094811261 -0.18816322
-0.045855384 -0.094891161 -0.18816707
-0.045857921 -0.094973147 -0.18816695
-0.045860101 -0.095053002 -0.18817279
-0.045862637 -0.095134988 -0.1881727
-0.045865498 -0.095215149 -0.18816456
-0.04586817 -0.095295221 -0.18816042
-0.045870215 -0.095376991 -0.18817031
-0.045870878 -0.095464066 -0.18821229
-0.045872923 -0.095545836 -0.18822217
-0.045877602 -0.095709629 -0.18822995
-0.045880076 -0.095789611 -0.1882298
-0.045376513 -0.086871393 -0.18777332
-0.04538174 -0.086946681 -0.1877131
-0.045386244 -0.087023631 -0.18766892
-0.045390517 -0.087102436 -0.18763079
-0.045395155 -0.08717747 -0.18758258
-0.045399953 -0.087254539 -0.18753241
-0.045403771 -0.087331183 -0.18750221
-0.04540693 -0.087411471 -0.18748808
-0.045410026 -0.087489761 -0.18747391
-0.045413282 -0.087570094 -0.18745779
-0.045416083 -0.087648258 -0.1874496
-0.045418654 -0.087728284 -0.18744746
-0.045421325 -0.087808356 -0.18744332
-0.045423463 -0.087890171 -0.18745121
-0.045425605 -0.087971985 -0.18745911
-0.045427881 -0.088051885 -0.18746294
-0.045430023 -0.088133693 -0.18747082
-0.045431972 -0.088215426 -0.18748271
-0.045433857 -0.088295147 -0.18749455
-0.045436095 -0.088376999 -0.18750045
-0.045438569 -0.088456988 -0.1875003
-0.045440711 -0.088538803 -0.18750818
-0.045442887 -0.088618658 -0.18751402
-0.045445129 -0.088700518 -0.18751991
-0.045446683 -0.088782065 -0.18753979
-0.045448627 -0.08886379 -0.18755168
-0.045450576 -0.088945515 -0.18756355
-0.045452226 -0.089027107 -0.18758142
-0.045453977 -0.08910875 -0.1875973
-0.045455884 -0.089192428 -0.18761122
-0.045458063 -0.08927229 -0.18761706
-0.045460008 -0.089354008 -0.18762895
-0.045461956 -0.089435741 -0.18764085
-0.045463473 -0.089519247 -0.18766275
-0.045464694 -0.089602619 -0.18769066
-0.045466017 -0.089686044 -0.18771657
-0.045467377 -0.089767508 -0.18774045
-0.045469418 -0.089849278 -0.18775031
-0.045471758 -0.089931175 -0.18775421
-0.045474034 -0.090011075 -0.18775806
-0.045476273 -0.090092927 -0.18776396
-0.045478512 -0.090174787 -0.18776983
-0.045480359 -0.090256467 -0.18778372
-0.045481816 -0.090337977 -0.18780559
-0.045484152 -0.090419874 -0.18780948
-0.045486823 -0.090499952 -0.18780534
-0.045488961 -0.09058176 -0.18781322
-0.045491301 -0.090663657 -0.18781713
-0.04549348 -0.090743512 -0.18782297
-0.045495618 -0.090825327 -0.18783085
-0.045497566 -0.090907052 -0.18784273
-0.045499276 -0.090990648 -0.18786067
-0.045501027 -0.091072291 -0.18787652
-0.045502681 -0.091153875 -0.1878944
-0.045504294 -0.091237433 -0.18791433
-0.045506142 -0.091319114 -0.1879282
-0.045508187 -0.091400877 -0.18793809
-0.0455098 -0.091484427 -0.18795802
-0.045511454 -0.091566026 -0.18797588
-0.045514084 -0.091648057 -0.18797378
-0.045516457 -0.091728002 -0.18797563
-0.045518503 -0.091809765 -0.18798552
-0.045520544 -0.091891542 -0.1879954
-0.045522686 -0.091973349 -0.1880033
-0.045524925 -0.092055202 -0.18800917
-0.045527592 -0.09213528 -0.18800505
-0.045530066 -0.092215262 -0.1880049
-0.045532696 -0.092297293 -0.18800279
-0.045539014 -0.09236715 -0.18791649
-0.045541488 -0.092447132 -0.18791635
-0.045539781 -0.092539079 -0.18801039
-0.045541104 -0.092622504 -0.18803631
-0.045543246 -0.092704311 -0.18804419
-0.045545485 -0.092786163 -0.18805009
-0.045547526 -0.092867933 -0.18805996
-0.045549668 -0.092949748 -0.18806785
-0.045552004 -0.093031645 -0.18807176
-0.045555104 -0.093109936 -0.18805757
-0.045557965 -0.093190096 -0.18804944
-0.045560595 -0.09327212 -0.18804733
-0.045562774 -0.093351983 -0.18805319
-0.045565013 -0.093433835 -0.18805908
-0.045567155 -0.093515649 -0.18806696
-0.045569196 -0.093597412 -0.18807685
-0.045571338 -0.093679227 -0.18808474
-0.04557348 -0.093761042 -0.18809262
-0.045575816 -0.093842939 -0.18809652
-0.045578815 -0.093921185 -0.18808433
-0.045581974 -0.094001479 -0.18807021
-0.045584448 -0.094081461 -0.18807007
-0.045586489 -0.094163232 -0.18807995
-0.045588631 -0.094245046 -0.18808785
-0.045591358 -0.094327115 -0.18808375
-0.045593929 -0.094407149 -0.18808161
-0.045596499 -0.094487175 -0.18807946
-0.045598835 -0.094569072 -0.18808335
-0.045600682 -0.09465076 -0.18809724
-0.045603119 -0.094732702 -0.18809913
-0.045605689 -0.094812728 -0.18809699
-0.045607302 -0.094896279 -0.18811691
-0.045609251 -0.094978005 -0.18812878
-0.045612015 -0.095058121 -0.18812265
-0.045615073 -0.095138371 -0.18811052
-0.04561745 -0.095218308 -0.18811238
-0.045619786 -0.095300213 -0.18811625
-0.045622259 -0.095380194 -0.18811612
-0.045624301 -0.095461965 -0.188126
-0.045625877 -0.095547467 -0.18814796
-0.045627922 -0.095629245 -0.18815786
-0.045630064 -0.095711052 -0.18816572
-0.045632008 -0.095792778 -0.18817762
-0.045095153 -0.086887389 -0.18781021
-0.045100048 -0.086964503 -0.18775806
-0.045104261 -0.087041318 -0.18771988
-0.045109682 -0.087116696 -0.18765567
-0.045113996 -0.087193549 -0.18761548
-0.045117386 -0.087271966 -0.18759534
-0.045121562 -0.087350734 -0.18755919
-0.045125384 -0.087427378 -0.187529
-0.045128774 -0.087505795 -0.18750882
-0.045131739 -0.087586001 -0.18749869
-0.045134798 -0.087666243 -0.18748656
-0.045137703 -0.087744452 -0.18747638
-0.045140471 -0.087824568 -0.18747026
-0.045142654 -0.087904423 -0.1874761
-0.045144662 -0.087988146 -0.18748802
-0.045146648 -0.088067919 -0.18749785
-0.045148928 -0.088147819 -0.1875017
-0.045151461 -0.088229805 -0.18750161
-0.045153409 -0.088311531 -0.18751349
-0.045155164 -0.088393167 -0.18752936
-0.045157541 -0.088473111 -0.1875312
-0.045159683 -0.088554919 -0.1875391
-0.04516134 -0.088636518 -0.18755698
-0.045163188 -0.088718198 -0.18757086
-0.045165136 -0.088799924 -0.18758273
-0.045166891 -0.088881567 -0.18759862
-0.045168839 -0.088963285 -0.18761049
-0.045171216 -0.08904323 -0.18761234
-0.045173459 -0.089125089 -0.18761823
-0.045175403 -0.089206815 -0.18763012
-0.045177158 -0.089288451 -0.18764599
-0.045178715 -0.089370005 -0.18766585
-0.045180332 -0.089453556 -0.18768579
-0.045181889 -0.089535102 -0.18770565
-0.045183312 -0.089618571 -0.18772957
-0.045184206 -0.089703768 -0.18776549
-0.045185667 -0.089785278 -0.18778738
-0.045188338 -0.089865357 -0.18778323
-0.045191396 -0.089945599 -0.18777108
-0.045194361 -0.090025805 -0.18776098
-0.04519631 -0.09010753 -0.18777284
-0.045197535 -0.090190902 -0.18780077
-0.045198761 -0.090274289 -0.18782866
-0.045200709 -0.090356007 -0.18784054
-0.045202754 -0.090437777 -0.18785042
-0.045205228 -0.090517767 -0.18785028
-0.045207705 -0.090597749 -0.18785012
-0.045210045 -0.090679646 -0.18785402
-0.045211896 -0.090761334 -0.18786789
-0.045213804 -0.090845011 -0.18788183
-0.045215987 -0.090924866 -0.18788767
-0.045218129 -0.091006681 -0.18789557
-0.045220274 -0.091088489 -0.18790343
-0.045222126 -0.091170177 -0.18791732
-0.045224071 -0.091251902 -0.18792921
-0.0452253 -0.091335282 -0.18795711
-0.045226485 -0.091420606 -0.18798706
-0.045228727 -0.091502465 -0.18799296
-0.045231435 -0.091580585 -0.18798676
-0.045233969 -0.091662571 -0.18798667
-0.045235917 -0.091744296 -0.18799856
-0.045237966 -0.091826066 -0.18800843
-0.045240108 -0.091907874 -0.18801633
-0.045242388 -0.091987774 -0.18802017
-0.045244493 -0.092071541 -0.18803009
-0.045246441 -0.092153266 -0.18804199
-0.045248523 -0.092233077 -0.18804982
-0.04525106 -0.092315063 -0.18804972
-0.0452534 -0.092396967 -0.18805362
-0.045255776 -0.092476904 -0.18805547
-0.04525825 -0.092556894 -0.18805531
-0.045260686 -0.092638835 -0.18805721
-0.045263652 -0.092719033 -0.18804708
-0.045265269 -0.092802584 -0.18806699
-0.045266397 -0.092885926 -0.18809691
-0.045268871 -0.092965908 -0.18809676
-0.045272361 -0.09304437 -0.18807459
-0.045275424 -0.093124621 -0.18806246
-0.045277897 -0.09320461 -0.18806231
-0.045280531 -0.093286633 -0.18806022
-0.045282714 -0.093366489 -0.18806607
-0.04528423 -0.093449995 -0.18808797
-0.045285948 -0.09353359 -0.1881059
-0.045289766 -0.093610227 -0.18807569
-0.045293551 -0.093688831 -0.18804756
-0.045295205 -0.093770422 -0.18806541
-0.045296922 -0.093854018 -0.18808335
-0.045299456 -0.093935996 -0.18808323
-0.045301206 -0.09401764 -0.18809912
-0.045303352 -0.094099455 -0.188107
-0.045305494 -0.094181262 -0.18811488
-0.045307539 -0.094263032 -0.18812478
-0.045309547 -0.094346762 -0.1881367
-0.045311593 -0.094428524 -0.18814659
-0.04531407 -0.094508514 -0.18814644
-0.045317031 -0.094588712 -0.18813631
-0.045319311 -0.094668612 -0.18814015
-0.045321319 -0.094752342 -0.18815207
-0.045323465 -0.094834149 -0.18815997
-0.045326523 -0.094914399 -0.18814784
-0.045329098 -0.094994426 -0.1881457
-0.045330852 -0.095076069 -0.18816158
-0.045332566 -0.095159665 -0.18817949
-0.045335002 -0.095241599 -0.18818139
-0.045337673 -0.095321678 -0.18817726
-0.04534087 -0.095400006 -0.18816108
-0.045343444 -0.09548004 -0.18815893
-0.045344826 -0.095565453 -0.18818489
-0.045346443 -0.095649011 -0.1882048
-0.045348253 -0.095732644 -0.18822072
-0.045350533 -0.095812544 -0.18822458
-0.044762135 -0.086911999 -0.18793315
-0.044769723 -0.086982414 -0.18782088
-0.044775106 -0.087059751 -0.18775874
-0.044779323 -0.087136559 -0.18772054
-0.044783633 -0.087213419 -0.18768036
-0.044787321 -0.087291971 -0.18765421
-0.044791337 -0.087368689 -0.18762001
-0.044795513 -0.087447464 -0.18758386
-0.044798907 -0.087525882 -0.1875637
-0.044802301 -0.087604299 -0.18754354
-0.044805598 -0.087682679 -0.18752536
-0.044808466 -0.08776284 -0.18751724
-0.04481075 -0.08784274 -0.18752109
-0.044813089 -0.087924637 -0.18752497
-0.044815373 -0.088004537 -0.18752882
-0.044817224 -0.088086218 -0.18754271
-0.044818688 -0.088167727 -0.18756457
-0.044820834 -0.088249542 -0.18757245
-0.044823311 -0.088329524 -0.1875723
-0.044825945 -0.088411555 -0.18757021
-0.044828128 -0.08849141 -0.18757606
-0.044829983 -0.088573098 -0.18758993
-0.044831738 -0.088654734 -0.1876058
-0.044833492 -0.08873637 -0.18762168
-0.044835541 -0.08881814 -0.18763156
-0.044837784 -0.0889 -0.18763745
-0.044839971 -0.088979855 -0.18764329
-0.044842117 -0.089061663 -0.18765119
-0.044843968 -0.089143343 -0.18766508
-0.044846017 -0.089225113 -0.18767494
-0.044847772 -0.089306757 -0.18769082
-0.044849098 -0.089390174 -0.18771672
-0.044850856 -0.089471817 -0.18773261
-0.044852808 -0.089553535 -0.18774448
-0.044854134 -0.089636959 -0.1877704
-0.044855267 -0.089720294 -0.18780029
-0.044857215 -0.089802019 -0.18781218
-0.044859558 -0.089883916 -0.18781607
-0.044861838 -0.089963816 -0.18781991
-0.044863984 -0.090045631 -0.18782781
-0.044866227 -0.090127483 -0.1878337
-0.044868082 -0.090209164 -0.18784758
-0.044869937 -0.090290844 -0.18786144
-0.044871848 -0.090374529 -0.18787538
-0.0448737 -0.09045621 -0.18788925
-0.04487608 -0.090536155 -0.1878911
-0.044878423 -0.090618052 -0.187895
-0.044880275 -0.090699732 -0.18790887
-0.044882324 -0.090781502 -0.18791877
-0.044884764 -0.090863444 -0.18792066
-0.044886947 -0.090943299 -0.1879265
-0.044888996 -0.091025069 -0.18793638
-0.04489091 -0.091108754 -0.18795031
-0.044892564 -0.091190346 -0.18796819
-0.044894908 -0.09127225 -0.18797207
-0.044896565 -0.091353841 -0.18798995
-0.04489838 -0.091437474 -0.18800586
-0.044901248 -0.091517635 -0.18799773
-0.044903532 -0.091597535 -0.18800157
-0.044905581 -0.091679305 -0.18801147
-0.044907726 -0.091761112 -0.18801935
-0.044909675 -0.091842845 -0.18803123
-0.044911921 -0.091924697 -0.18803713
-0.044914298 -0.092004642 -0.18803898
-0.044916503 -0.092088453 -0.1880469
-0.044918261 -0.092170089 -0.18806279
-0.044919685 -0.092253558 -0.18808669
-0.044922028 -0.092335448 -0.18809058
-0.044924699 -0.092415527 -0.18808645
-0.044927176 -0.092495508 -0.1880863
-0.044929519 -0.092577413 -0.18809018
-0.044931702 -0.092657268 -0.18809603
-0.044933613 -0.092740953 -0.18810996
-0.044935759 -0.09282276 -0.18811783
-0.044938337 -0.092902794 -0.18811569
-0.044941302 -0.092982993 -0.18810555
-0.04494296 -0.093064591 -0.18812343
-0.044946022 -0.093144834 -0.18811131
-0.044949319 -0.093223214 -0.18809314
-0.044952087 -0.09330333 -0.18808699
-0.044953905 -0.093386963 -0.18810293
-0.044955853 -0.093468696 -0.18811479
-0.044958197 -0.093550593 -0.18811868
-0.044960536 -0.093632489 -0.18812259
-0.044962779 -0.093714342 -0.18812847
-0.044964731 -0.093796067 -0.18814036
-0.044967111 -0.093876012 -0.18814221
-0.044970077 -0.093956217 -0.18813208
-0.044972457 -0.094036162 -0.18813393
-0.044974368 -0.094119839 -0.18814784
-0.044975892 -0.094203345 -0.18816976
-0.044977609 -0.094286941 -0.18818769
-0.044979326 -0.094370537 -0.1882056
-0.044981278 -0.094452262 -0.18821748
-0.044983618 -0.094534159 -0.18822137
-0.044986818 -0.094612494 -0.18820521
-0.044989821 -0.09469074 -0.18819302
-0.044992164 -0.094772637 -0.18819691
-0.04499431 -0.094854452 -0.18820481
-0.044997077 -0.094934568 -0.18819866
-0.044999518 -0.095016509 -0.18820056
-0.045001272 -0.095098145 -0.18821645
-0.045003477 -0.095181957 -0.18822436
-0.045006383 -0.095260158 -0.18821418
-0.045008689 -0.095344014 -0.18822013
-0.045010872 -0.095423877 -0.18822595
-0.045013741 -0.095504031 -0.18821782
-0.04501608 -0.095585927 -0.18822172
-0.045017507 -0.095669396 -0.18824562
-0.045019418 -0.095753074 -0.18825956
-0.045022227 -0.095831238 -0.18825138
-0.044347011 -0.086999834 -0.1877892
-0.04435325 -0.087073602 -0.18770698
-0.044357233 -0.08715228 -0.18767485
-0.044361115 -0.087230921 -0.18764469
-0.044364937 -0.087307557 -0.1876145
-0.044369444 -0.0873845 -0.18757032
-0.04437346 -0.087461226 -0.18753612
-0.044376854 -0.087539643 -0.18751594
-0.044379588 -0.087621719 -0.18751186
-0.0443822 -0.087699786 -0.18750766
-0.044385068 -0.087779947 -0.18749952
-0.044387743 -0.087860025 -0.18749538
-0.044390086 -0.087941922 -0.18749928
-0.044392269 -0.088021778 -0.18750513
-0.044394612 -0.088103674 -0.18750903
-0.044396602 -0.088183448 -0.18751885
-0.044398747 -0.088265255 -0.18752675
-0.044400994 -0.088347115 -0.18753263
-0.044403177 -0.08842697 -0.18753847
-0.044405423 -0.088508822 -0.18754438
-0.044407606 -0.088588685 -0.18755022
-0.044409852 -0.088670537 -0.18755609
-0.044411704 -0.088752218 -0.18756998
-0.044413269 -0.088833772 -0.18758985
-0.044414986 -0.088917367 -0.18760777
-0.044416878 -0.088997096 -0.1876196
-0.044418927 -0.089078858 -0.18762949
-0.044420879 -0.089160584 -0.18764137
-0.04442279 -0.089244269 -0.1876553
-0.044424683 -0.08932399 -0.18766713
-0.044426441 -0.089405634 -0.187683
-0.044427767 -0.08948905 -0.18770891
-0.044429488 -0.089572646 -0.18772683
-0.044431146 -0.089654237 -0.18774471
-0.04443267 -0.089737751 -0.18776661
-0.044434853 -0.089817606 -0.18777245
-0.044437487 -0.089899637 -0.18777037
-0.044439867 -0.089979574 -0.18777221
-0.044442113 -0.090061434 -0.1877781
-0.044443771 -0.090143025 -0.18779597
-0.044445489 -0.09022662 -0.18781388
-0.04444715 -0.090308219 -0.18783176
-0.044448867 -0.090391815 -0.18784967
-0.044451151 -0.090471715 -0.18785353
-0.044453591 -0.090553656 -0.18785542
-0.044455871 -0.090633556 -0.18785927
-0.044458117 -0.090715408 -0.18786517
-0.044460263 -0.090797223 -0.18787305
-0.044462215 -0.090878949 -0.18788493
-0.044464692 -0.090958931 -0.18788478
-0.044467133 -0.091040872 -0.18788667
-0.044468559 -0.091124341 -0.18791059
-0.044469591 -0.091207631 -0.18794248
-0.044471312 -0.091291219 -0.1879604
-0.044473164 -0.091372907 -0.18797427
-0.044474922 -0.091454543 -0.18799016
-0.044476837 -0.091538221 -0.18800408
-0.044479314 -0.09161821 -0.18800393
-0.044482376 -0.091698453 -0.1879918
-0.044485088 -0.09177658 -0.18798563
-0.044487625 -0.091858558 -0.18798551
-0.044489969 -0.091940463 -0.18798941
-0.044492152 -0.092020318 -0.18799525
-0.044493578 -0.092103779 -0.18801916
-0.044495627 -0.092185549 -0.18802905
-0.044497967 -0.092267446 -0.18803294
-0.044500738 -0.092347562 -0.18802679
-0.04450351 -0.092427678 -0.18802065
-0.044505559 -0.092509449 -0.18803054
-0.044507317 -0.092591085 -0.18804643
-0.044509657 -0.092672989 -0.18805031
-0.044511378 -0.092756577 -0.18806823
-0.044513036 -0.092838176 -0.18808611
-0.044515964 -0.092920333 -0.18807802
-0.044518773 -0.09299849 -0.18806982
-0.04452125 -0.093078479 -0.18806967
-0.044523455 -0.093162291 -0.18807761
-0.044525504 -0.093244061 -0.18808749
-0.04452775 -0.093325913 -0.18809339
-0.044530518 -0.093406029 -0.18808725
-0.044533327 -0.093484193 -0.18807906
-0.044536062 -0.093566261 -0.18807498
-0.04453811 -0.093648031 -0.18808486
-0.044540256 -0.093729839 -0.18809274
-0.044542305 -0.093811616 -0.18810262
-0.044544552 -0.093893468 -0.1881085
-0.044546895 -0.093975365 -0.18811241
-0.044549175 -0.094055265 -0.18811625
-0.044551421 -0.094137125 -0.18812215
-0.044553764 -0.094219021 -0.18812603
-0.044556141 -0.094298966 -0.18812788
-0.044558387 -0.094380818 -0.18813378
-0.044560298 -0.094464496 -0.18814769
-0.044562347 -0.094546266 -0.18815759
-0.044565119 -0.094626382 -0.18815145
-0.044568025 -0.094704583 -0.18814126
-0.044570368 -0.094786488 -0.18814516
-0.044571988 -0.094870038 -0.18816507
-0.044574626 -0.094952062 -0.18816298
-0.044577334 -0.095030181 -0.18815678
-0.044579346 -0.095113903 -0.1881687
-0.04458202 -0.095193982 -0.18816456
-0.044584461 -0.095275924 -0.18816647
-0.044585552 -0.09536121 -0.18819842
-0.044587836 -0.09544111 -0.18820226
-0.044590898 -0.095521361 -0.18819013
-0.044592947 -0.095603123 -0.18820001
-0.044595096 -0.095684938 -0.18820789
-0.044597633 -0.095766924 -0.18820781
-0.044599488 -0.095848605 -0.18822166
-0.043852158 -0.086866103 -0.18781874
-0.043855943 -0.086944699 -0.18779057
-0.043861698 -0.087018251 -0.18771833
-0.043867081 -0.087095581 -0.18765619
-0.043871492 -0.087172478 -0.18761402
-0.043875273 -0.087251075 -0.18758586
-0.04387939 -0.087327845 -0.18754968
-0.0438837 -0.087404698 -0.18750948
-0.043887623 -0.08748138 -0.18747729
-0.043890916 -0.08755976 -0.18745911
-0.043893881 -0.087639958 -0.18744898
-0.043896459 -0.087719992 -0.18744683
-0.043898702 -0.087801844 -0.18745273
-0.043901473 -0.087881967 -0.18744659
-0.043904282 -0.087960124 -0.1874384
-0.043906815 -0.08804211 -0.18743831
-0.043908574 -0.088123746 -0.18745418
-0.043910135 -0.0882053 -0.18747406
-0.043912377 -0.08828716 -0.18747994
-0.043914758 -0.088367097 -0.18748179
-0.043916903 -0.088448912 -0.18748969
-0.043919086 -0.088528767 -0.18749553
-0.043921955 -0.088608928 -0.18748739
-0.043924432 -0.08868891 -0.18748724
-0.043926287 -0.088770598 -0.18750112
-0.043927614 -0.088854015 -0.18752703
-0.043929465 -0.088935703 -0.1875409
-0.043931652 -0.089015558 -0.18754676
-0.043933604 -0.089097276 -0.18755864
-0.043935224 -0.089180827 -0.18757856
-0.043935865 -0.089263946 -0.18761843
-0.043937914 -0.089345723 -0.18762833
-0.04394016 -0.089427575 -0.18763421
-0.043941818 -0.089509167 -0.18765208
-0.043943342 -0.08959268 -0.18767399
-0.043944765 -0.089676142 -0.18769792
-0.043946616 -0.089757822 -0.18771178
-0.043948375 -0.089839458 -0.18772766
-0.043950617 -0.089921311 -0.18773356
-0.0439528 -0.090001173 -0.1877394
-0.043954849 -0.090082943 -0.18774928
-0.043956801 -0.090164661 -0.18776116
-0.04395885 -0.090246439 -0.18777105
-0.043960705 -0.090328112 -0.18778493
-0.043962657 -0.090409845 -0.1877968
-0.043964997 -0.090491742 -0.18780071
-0.043967571 -0.090571769 -0.18779856
-0.043970048 -0.090651751 -0.18779841
-0.043972254 -0.09073557 -0.18780634
-0.043974109 -0.09081725 -0.18782023
-0.043976352 -0.090899102 -0.1878261
-0.043978207 -0.090980783 -0.18783998
-0.043979768 -0.091062337 -0.18785986
-0.043981485 -0.091145933 -0.18787777
-0.043983046 -0.091227487 -0.18789765
-0.04398457 -0.091310993 -0.18791956
-0.043986384 -0.091394633 -0.18793547
-0.043988664 -0.091474533 -0.18793933
-0.043991201 -0.091556512 -0.18793923
-0.043993779 -0.091636546 -0.18793708
-0.043996546 -0.091716662 -0.18793094
-0.043998498 -0.091798387 -0.18794283
-0.044000156 -0.091879979 -0.18796068
-0.044002399 -0.091961838 -0.18796659
-0.04400517 -0.092041954 -0.18796045
-0.044007316 -0.092123762 -0.18796834
-0.044009462 -0.092205577 -0.18797621
-0.044011939 -0.092285559 -0.18797608
-0.044014085 -0.092367373 -0.18798396
-0.044016037 -0.092449099 -0.18799585
-0.044018146 -0.092532866 -0.18800578
-0.044020329 -0.092612728 -0.18801162
-0.044022672 -0.092694625 -0.18801552
-0.044024915 -0.092776477 -0.18802139
-0.04402677 -0.092858158 -0.18803528
-0.044029012 -0.092940018 -0.18804118
-0.04403149 -0.09302 -0.18804103
-0.044034161 -0.093100071 -0.18803689
-0.044037089 -0.093182236 -0.1880288
-0.044039801 -0.093260348 -0.18802261
-0.044042531 -0.093342423 -0.1880185
-0.044044483 -0.093424149 -0.18803039
-0.044046532 -0.093505919 -0.18804029
-0.044049304 -0.093586035 -0.18803415
-0.044051547 -0.093667887 -0.18804003
-0.044054024 -0.093747869 -0.18803987
-0.044056796 -0.093827993 -0.18803373
-0.044059038 -0.093909845 -0.18803963
-0.044060852 -0.093993485 -0.18805555
-0.044063233 -0.09407343 -0.18805739
-0.044065867 -0.094155453 -0.18805531
-0.044068247 -0.094235398 -0.18805715
-0.04407049 -0.09431725 -0.18806304
-0.044072308 -0.09440089 -0.18807897
-0.044074256 -0.094482616 -0.18809086
-0.04407683 -0.09456265 -0.1880887
-0.04407898 -0.094644457 -0.18809658
-0.044081554 -0.094724491 -0.18809444
-0.044084091 -0.09480647 -0.18809435
-0.044086333 -0.09488833 -0.18810025
-0.044088811 -0.094968311 -0.18810008
-0.044091154 -0.095050216 -0.18810397
-0.044093825 -0.095130287 -0.18809983
-0.044096597 -0.095210403 -0.18809369
-0.044098645 -0.095292166 -0.18810359
-0.044100363 -0.095375761 -0.1881215
-0.044102706 -0.095457666 -0.18812539
-0.044104986 -0.095537558 -0.18812925
-0.044107426 -0.0956195 -0.18813114
-0.044109669 -0.095701359 -0.18813702
-0.044111583 -0.095785037 -0.18815094
-0.044113629 -0.095866807 -0.18816084
-0.04340839 -0.087048061 -0.18775998
-0.043414302 -0.087123655 -0.1876858
-0.043419432 -0.087198906 -0.1876276
-0.043423511 -0.087277628 -0.18759346
-0.043427236 -0.08735422 -0.18756525
-0.043431643 -0.087431118 -0.18752307
-0.043436151 -0.08750806 -0.1874789
-0.043439645 -0.087586522 -0.18745673
-0.043442804 -0.087666817 -0.1874426
-0.043445673 -0.087746978 -0.18743446
-0.043448187 -0.087825008 -0.18743229
-0.043450724 -0.087906994 -0.18743217
-0.043452911 -0.087986849 -0.18743801
-0.043455251 -0.088068746 -0.18744192
-0.043457337 -0.088148564 -0.18744975
-0.043459289 -0.08823029 -0.18746164
-0.043461535 -0.088312142 -0.18746753
-0.043463815 -0.088392042 -0.18747137
-0.043466255 -0.088473983 -0.18747327
-0.043468539 -0.088553883 -0.18747711
-0.04347039 -0.088635564 -0.187491
-0.043472245 -0.088717245 -0.18750487
-0.043474391 -0.088799059 -0.18751276
-0.043476246 -0.08888074 -0.18752664
-0.043478195 -0.088962466 -0.18753852
-0.043480478 -0.089042366 -0.18754238
-0.043481901 -0.089125827 -0.18756628
-0.043483563 -0.089207426 -0.18758416
-0.043485709 -0.089289233 -0.18759203
-0.043487757 -0.089371011 -0.18760192
-0.043489415 -0.089452602 -0.18761979
-0.043490838 -0.089536063 -0.18764371
-0.043491971 -0.089619398 -0.1876736
-0.043493923 -0.089701124 -0.18768549
-0.043495875 -0.089782849 -0.18769738
-0.043497298 -0.08986631 -0.18772128
-0.043499347 -0.08994808 -0.18773118
-0.043501534 -0.090027943 -0.18773702
-0.043503873 -0.09010984 -0.18774089
-0.043506019 -0.090191647 -0.18774879
-0.043507971 -0.090273373 -0.18776067
-0.043509629 -0.090354972 -0.18777853
-0.043511484 -0.090436652 -0.18779242
-0.043513495 -0.090520382 -0.18780434
-0.04351525 -0.09060201 -0.18782023
-0.043517336 -0.090681829 -0.18782806
-0.043519873 -0.090763815 -0.18782797
-0.043522019 -0.09084563 -0.18783587
-0.043523639 -0.09092918 -0.18785577
-0.043525688 -0.091010943 -0.18786566
-0.043527678 -0.091090716 -0.18787549
-0.043530021 -0.091172613 -0.18787938
-0.043531872 -0.091254294 -0.18789327
-0.043533493 -0.091337845 -0.18791318
-0.04353492 -0.091421306 -0.1879371
-0.043536577 -0.091502905 -0.18795496
-0.043539349 -0.091583021 -0.18794882
-0.043542411 -0.091663271 -0.18793669
-0.043544948 -0.09174525 -0.1879366
-0.043547131 -0.091825113 -0.18794245
-0.043549377 -0.091906965 -0.18794833
-0.043551229 -0.091988645 -0.1879622
