# .PCD v0.7 - Point Cloud Data file format
VERSION 0.7
FIELDS x y z
SIZE 4 4 4
TYPE F F F
COUNT 1 1 1
WIDTH 1270
HEIGHT 1
VIEWPOINT 0 0 0 1 0 0 0
POINTS 1270
DATA ascii
-0.053769179 -0.0889128 -0.18803512
-0.05377128 -0.088996567 -0.18804505
-0.053773034 -0.089078203 -0.18806092
-0.053774454 -0.089161672 -0.18808484
-0.05377562 -0.089243047 -0.18811271
-0.053777333 -0.089326642 -0.18813062
-0.053779282 -0.089408368 -0.18814251
-0.053781655 -0.089488313 -0.18814436
-0.053784326 -0.089568384 -0.18814021
-0.053786565 -0.089650244 -0.1881461
-0.053788707 -0.089732051 -0.188154
-0.053790946 -0.089813903 -0.18815988
-0.053792931 -0.089893676 -0.18816972
-0.053794976 -0.089975446 -0.18817961
-0.053796925 -0.090057172 -0.1881915
-0.05379897 -0.090138935 -0.18820138
-0.053801734 -0.090219051 -0.18819524
-0.053804796 -0.090299301 -0.18818311
-0.053807463 -0.090379372 -0.18817899
-0.053809743 -0.090459272 -0.18818283
-0.053811785 -0.090541042 -0.18819271
-0.053813402 -0.090624593 -0.18821263
-0.053815253 -0.090706274 -0.18822652
-0.053817589 -0.090788171 -0.18823041
-0.05381934 -0.090869814 -0.18824628
-0.053820763 -0.090953276 -0.1882702
-0.053822707 -0.091035001 -0.18828207
-0.053825282 -0.091115028 -0.18827993
-0.053827424 -0.091196842 -0.18828782
-0.053829174 -0.091278479 -0.18830371
-0.05383151 -0.091360375 -0.18830761
-0.053834181 -0.091440454 -0.18830347
-0.053836849 -0.091520526 -0.18829933
-0.053839188 -0.091602422 -0.18830322
-0.053841367 -0.091682285 -0.18830907
-0.053843938 -0.091762312 -0.18830693
-0.053846277 -0.091844209 -0.1883108
-0.053848613 -0.091926105 -0.18831471
-0.053851381 -0.092006221 -0.18830857
-0.053853661 -0.092086121 -0.18831241
-0.053856034 -0.092166066 -0.18831426
-0.053858764 -0.092248142 -0.18831018
-0.053860612 -0.092329822 -0.18832406
-0.053862423 -0.092413455 -0.18833998
-0.053863648 -0.092496835 -0.18836789
-0.053865068 -0.092580304 -0.1883918
-0.053867407 -0.0926622 -0.18839571
-0.053870074 -0.092742272 -0.18839157
-0.053872745 -0.092822343 -0.18838742
-0.053875122 -0.092902288 -0.18838927
-0.053877458 -0.092984185 -0.18839318
-0.05388042 -0.09306439 -0.18838304
-0.053882893 -0.09314438 -0.18838289
-0.053885426 -0.093226358 -0.18838279
-0.053887997 -0.093306392 -0.18838066
-0.053890079 -0.093386203 -0.18838848
-0.053892322 -0.093468055 -0.18839438
-0.053894892 -0.093548089 -0.18839224
-0.053897426 -0.093630075 -0.18839213
-0.053899374 -0.093711801 -0.18840402
-0.053901222 -0.093793482 -0.18841791
-0.053903461 -0.093875334 -0.1884238
-0.053906091 -0.093957365 -0.1884217
-0.053907845 -0.094039001 -0.18843758
-0.053909361 -0.094122514 -0.18845949
-0.053911269 -0.094206192 -0.18847343
-0.053913645 -0.094286136 -0.18847528
-0.053916708 -0.094366387 -0.18846315
-0.053919472 -0.094446495 -0.18845701
-0.053921945 -0.094526485 -0.18845686
-0.053924322 -0.094606429 -0.18845871
-0.053926427 -0.094690196 -0.18846864
-0.053928901 -0.094770178 -0.1884685
-0.053932291 -0.094848603 -0.18844834
-0.053934764 -0.094928592 -0.18844819
-0.053936675 -0.09501227 -0.18846211
-0.053939149 -0.095092252 -0.18846197
-0.053941581 -0.095174193 -0.18846387
-0.053943332 -0.095255837 -0.18847975
-0.053945147 -0.095339477 -0.18849567
-0.052956112 -0.045675837 -0.17723963
-0.052959211 -0.045754131 -0.17722547
-0.052961662 -0.045830164 -0.17722322
-0.05296357 -0.045903981 -0.17723092
-0.052965339 -0.045979712 -0.17724267
-0.052967537 -0.046053655 -0.17724438
-0.052970536 -0.046131909 -0.17723221
-0.052973732 -0.046210241 -0.17721602
-0.052977379 -0.046290748 -0.17719193
-0.052980378 -0.046368994 -0.17717975
-0.052982088 -0.046442725 -0.17719145
-0.052984055 -0.046518542 -0.1771992
-0.05298641 -0.04659453 -0.17719896
-0.05298841 -0.046668395 -0.17720467
-0.052990023 -0.046742078 -0.17721836
-0.052992478 -0.046818115 -0.17721613
-0.052994736 -0.046894059 -0.17721789
-0.052996248 -0.0469677 -0.17723358
-0.05299741 -0.047039218 -0.17725523
-0.052998632 -0.047112733 -0.17727691
-0.053001281 -0.047188852 -0.17727067
-0.053007253 -0.047276307 -0.17720276
-0.053009864 -0.047354382 -0.17719859
-0.053012162 -0.047428373 -0.17719829
-0.053015415 -0.047508709 -0.17718217
-0.053018514 -0.047587 -0.17716801
-0.053020518 -0.047660861 -0.1771737
-0.053022578 -0.047736719 -0.17717946
-0.053024583 -0.047810577 -0.17718518
-0.053026352 -0.047886312 -0.17719692
-0.053027708 -0.047957912 -0.17721456
-0.053029574 -0.048033684 -0.17722431
-0.053031579 -0.048107542 -0.17723
-0.053033289 -0.048181273 -0.17724171
-0.05303451 -0.048254788 -0.17726338
-0.053035378 -0.048326176 -0.17729101
-0.053037286 -0.048399992 -0.17729872
-0.053038992 -0.048473723 -0.17731042
-0.053039961 -0.048545152 -0.17733607
-0.053042218 -0.048621096 -0.17733783
-0.053046059 -0.048701689 -0.17730971
-0.05305 -0.04878233 -0.17727961
-0.053052805 -0.04886049 -0.17727143
-0.053055063 -0.048936434 -0.17727318
-0.053057611 -0.049012512 -0.17726895
-0.053060517 -0.049090717 -0.17725877
-0.053063262 -0.049166881 -0.17725055
-0.053065423 -0.049242783 -0.1772543
-0.05306723 -0.049316559 -0.177264
-0.053069096 -0.049392328 -0.17727375
-0.0530711 -0.049466189 -0.17727947
-0.053073358 -0.049542136 -0.17728123
-0.053075809 -0.04961817 -0.177279
-0.053078264 -0.049694203 -0.17727675
-0.053080421 -0.049770106 -0.17728052
-0.053082388 -0.049845919 -0.17728826
-0.053084645 -0.049921867 -0.17729002
-0.053087294 -0.049997985 -0.17728378
-0.053089552 -0.050073933 -0.17728554
-0.053091712 -0.050149836 -0.17728931
-0.053093519 -0.050223608 -0.17729899
-0.05309597 -0.050299644 -0.17729676
-0.053101689 -0.050385013 -0.1772328
-0.053105727 -0.050465692 -0.1772007
-0.053108726 -0.050543942 -0.17718853
-0.053111572 -0.050620146 -0.17717829
-0.053113986 -0.050698135 -0.17717811
-0.053115793 -0.050771911 -0.1771878
-0.053117599 -0.050845683 -0.17719752
-0.053120151 -0.05092176 -0.17719328
-0.053122859 -0.05099988 -0.1771871
-0.053124666 -0.051073652 -0.1771968
-0.053127218 -0.051149726 -0.17719257
-0.053129926 -0.051227845 -0.17718638
-0.053132378 -0.051303878 -0.17718415
-0.053134382 -0.05137774 -0.17718986
-0.053136442 -0.051453598 -0.17719561
-0.053138152 -0.051527329 -0.17720732
-0.053140059 -0.051601149 -0.17721501
-0.053142667 -0.051679224 -0.17721084
-0.053143635 -0.051750652 -0.17723645
-0.053145405 -0.05182638 -0.17724821
-0.053148892 -0.051904846 -0.17722604
-0.053152774 -0.051983483 -0.17719589
-0.05315597 -0.052061819 -0.17717972
-0.053159617 -0.052142322 -0.17715561
-0.053162068 -0.052218355 -0.17715338
-0.053164072 -0.05229222 -0.17715907
-0.053167168 -0.052370511 -0.17714491
-0.053170171 -0.052448757 -0.17713273
-0.053170588 -0.052517973 -0.17716831
-0.053172652 -0.052593831 -0.17717406
-0.053175945 -0.052672207 -0.1771559
-0.053178884 -0.052748457 -0.17714366
-0.053181302 -0.052826449 -0.17714348
-0.053183302 -0.052900307 -0.17714918
-0.053185269 -0.052976124 -0.17715694
-0.05318737 -0.053050026 -0.17716065
-0.053189237 -0.053125799 -0.1771704
-0.053190749 -0.053199444 -0.17718609
-0.053192168 -0.053273045 -0.17720377
-0.053193778 -0.053346731 -0.17721748
-0.053195391 -0.053420421 -0.17723116
-0.053197745 -0.053496409 -0.17723092
-0.05320188 -0.053577133 -0.17719683
-0.053206056 -0.0536559 -0.1771607
-0.053209055 -0.05373415 -0.17714852
-0.053211313 -0.053810097 -0.17715028
-0.053214155 -0.053886302 -0.17714006
-0.053217646 -0.053964764 -0.1771179
-0.053220294 -0.054040886 -0.17711166
-0.053222805 -0.054118916 -0.17710948
-0.0532251 -0.054192908 -0.17710918
-0.053227555 -0.054268941 -0.17710695
-0.053230751 -0.054347277 -0.17709079
-0.053233653 -0.054425482 -0.1770806
-0.053236008 -0.05450147 -0.17708036
-0.053237718 -0.054575201 -0.17709206
-0.053239137 -0.054648802 -0.17710975
-0.053240746 -0.054722488 -0.17712346
-0.053243104 -0.054798476 -0.17712322
-0.053245652 -0.054874554 -0.17711899
-0.05324791 -0.054950498 -0.17712075
-0.053250011 -0.055024404 -0.17712444
-0.053253207 -0.055102739 -0.17710829
-0.05325783 -0.055183679 -0.1770642
-0.053261321 -0.055262145 -0.17704204
-0.053263869 -0.055338223 -0.17703781
-0.053266264 -0.055412255 -0.17703553
-0.053268973 -0.055490375 -0.17702934
-0.053271171 -0.055564322 -0.17703106
-0.053272743 -0.055639964 -0.17704681
-0.053274453 -0.055713695 -0.17705849
-0.053276848 -0.055787727 -0.17705621
-0.053279944 -0.055866018 -0.17704204
-0.05328314 -0.055944353 -0.17702587
-0.053285498 -0.056020342 -0.17702563
-0.05328666 -0.05609186 -0.17704728
-0.053288564 -0.056165677 -0.17705497
-0.053290822 -0.056241624 -0.17705673
-0.053292338 -0.056315266 -0.17707242
-0.053293556 -0.05638878 -0.1770941
-0.053295072 -0.056462426 -0.17710981
-0.053296939 -0.056538198 -0.17711955
-0.053301111 -0.056616966 -0.1770834
-0.053304054 -0.056693219 -0.17707118
-0.053306408 -0.056769207 -0.17707095
-0.053309057 -0.056845322 -0.17706472
-0.053311512 -0.056921355 -0.17706248
-0.053313963 -0.056997389 -0.17706025
-0.053317159 -0.057075724 -0.17704408
-0.05332049 -0.057152148 -0.17702386
-0.053323239 -0.057228312 -0.17701563
-0.053326081 -0.057304516 -0.17700541
-0.053329177 -0.057382807 -0.17699125
-0.053331535 -0.057458796 -0.17699102
-0.053333439 -0.057532616 -0.1769987
-0.053335696 -0.057608563 -0.17700046
-0.053337894 -0.05768251 -0.17700219
-0.053340152 -0.057758458 -0.17700395
-0.053342018 -0.05783423 -0.1770137
-0.053344376 -0.057910219 -0.17701346
-0.053346865 -0.057984296 -0.17700917
-0.053348579 -0.058058023 -0.17702088
-0.053349957 -0.05813358 -0.17704061
-0.053351764 -0.058207355 -0.17705032
-0.053355094 -0.05828378 -0.1770301
-0.053358972 -0.058362417 -0.17699996
-0.053362306 -0.058438841 -0.17697974
-0.053365406 -0.058517132 -0.17696556
-0.053368151 -0.058593296 -0.17695734
-0.0533708 -0.058669414 -0.17695111
-0.053373449 -0.058745533 -0.17694488
-0.053376194 -0.058821697 -0.17693666
-0.053379331 -0.058898032 -0.17692044
-0.053382467 -0.05897437 -0.17690423
-0.053385116 -0.059050489 -0.176898
-0.053387176 -0.059126347 -0.17690375
-0.053389277 -0.05920025 -0.17690745
-0.053391535 -0.059276197 -0.17690921
-0.05339393 -0.05935023 -0.17690694
-0.05339599 -0.059426092 -0.1769127
-0.053397212 -0.059499606 -0.17693438
-0.053398531 -0.059573162 -0.17695406
-0.053400338 -0.059646938 -0.17696376
-0.053402402 -0.059722796 -0.17696951
-0.053405635 -0.059799176 -0.1769513
-0.053410199 -0.059878118 -0.17690717
-0.053413432 -0.059954498 -0.17688896
-0.05341702 -0.060033005 -0.1768648
-0.053419475 -0.060109038 -0.17686257
-0.053421672 -0.060182989 -0.17686427
-0.053424612 -0.060259234 -0.17685205
-0.053427845 -0.060335614 -0.17683384
-0.05343163 -0.06041421 -0.17680569
-0.053435057 -0.060490675 -0.17678349
-0.053437024 -0.060566492 -0.17679124
-0.053437695 -0.060637791 -0.17682286
-0.053439114 -0.060711391 -0.17684054
-0.053441565 -0.060787424 -0.17683831
-0.053444214 -0.060863543 -0.17683208
-0.053446669 -0.060939576 -0.17682984
-0.053449061 -0.061013609 -0.17682756
-0.053451516 -0.061089642 -0.17682533
-0.053453773 -0.06116559 -0.1768271
-0.053455677 -0.061239406 -0.17683479
-0.053457875 -0.061313353 -0.17683651
-0.053461112 -0.061389737 -0.17681828
-0.053465966 -0.061468806 -0.17676818
-0.053470824 -0.061547879 -0.17671806
-0.053474605 -0.061626472 -0.17668989
-0.053477645 -0.061702766 -0.17667568
-0.053480428 -0.061776973 -0.17666541
-0.053482883 -0.061853006 -0.17666318
-0.053484984 -0.061926909 -0.17666689
-0.053487726 -0.062003072 -0.17665866
-0.053490475 -0.062079236 -0.17665043
-0.05349277 -0.062153228 -0.17665015
-0.053496394 -0.062229779 -0.17662394
-0.053501703 -0.062311023 -0.17656589
-0.053505521 -0.062387664 -0.1765357
-0.05350817 -0.062463783 -0.17652947
-0.053509783 -0.062537469 -0.17654315
-0.053512175 -0.062611505 -0.17654088
-0.053515017 -0.06268771 -0.17653066
-0.053517863 -0.062763914 -0.17652044
-0.053521387 -0.062840424 -0.17649624
-0.053527419 -0.062920019 -0.17642213
-0.053534031 -0.062999874 -0.17633606
-0.053537559 -0.063076377 -0.17631187
-0.053540695 -0.063152716 -0.17629564
-0.053543832 -0.063229054 -0.17627943
-0.053546678 -0.063305259 -0.1762692
-0.053549364 -0.063379422 -0.17626095
-0.053552501 -0.06345576 -0.17624474
-0.053555928 -0.063532226 -0.1762225
-0.053559165 -0.063608602 -0.17620429
-0.053562142 -0.063682899 -0.17619005
-0.053565476 -0.063759327 -0.17616983
-0.053569589 -0.06383609 -0.17613365
-0.053574581 -0.063913256 -0.17607948
-0.053578656 -0.063991979 -0.17604533
-0.053581636 -0.064066276 -0.17603107
-0.053584225 -0.064140394 -0.17602479
-0.053587265 -0.064216688 -0.17601058
-0.053590301 -0.064292982 -0.17599636
-0.0535926 -0.064366966 -0.17599607
-0.053595286 -0.064441137 -0.17598781
-0.053599007 -0.064517729 -0.1759596
-0.05360283 -0.064594373 -0.1759294
-0.053606454 -0.06467092 -0.1759032
-0.053609334 -0.064745173 -0.17589094
-0.053611923 -0.064819291 -0.17588466
-0.05361516 -0.064895675 -0.17586645
-0.053618293 -0.064972013 -0.17585024
-0.053620785 -0.065046087 -0.17584595
-0.053622887 -0.065119989 -0.17584968
-0.053624891 -0.065193854 -0.17585537
-0.053626794 -0.065267667 -0.17586307
-0.053627819 -0.0653411 -0.17588875
-0.053628162 -0.06541422 -0.17592841
-0.053628799 -0.065487474 -0.17596209
-0.053629376 -0.065558732 -0.17599571
-0.05362913 -0.065631598 -0.17604735
-0.053627655 -0.065701939 -0.1761229
-0.053627707 -0.065774933 -0.17616855
-0.053627949 -0.065848015 -0.17621021
-0.053446844 -0.06574396 -0.17989838
-0.053451307 -0.065822862 -0.17985624
-0.053457044 -0.065902323 -0.17978814
-0.053460475 -0.065978788 -0.17976594
-0.053462401 -0.066056557 -0.17977573
-0.053463131 -0.066129856 -0.17980741
-0.053463437 -0.066204935 -0.1798491
-0.053024616 -0.065883942 -0.18874142
-0.053028323 -0.06596645 -0.18871735
-0.053030759 -0.066048391 -0.18871924
-0.05303083 -0.066125333 -0.18876699
-0.05303086 -0.066204242 -0.18881679
-0.053031638 -0.066285446 -0.18885264
-0.053031709 -0.066362396 -0.18890037
-0.053030666 -0.066440821 -0.18897212
-0.053026695 -0.066517942 -0.18910378
-0.053437106 -0.086280227 -0.19323209
-0.053439077 -0.086365901 -0.19324605
-0.053441904 -0.086448021 -0.19323996
-0.053515024 -0.086401582 -0.19169432
-0.053517912 -0.086485699 -0.19168827
-0.053677082 -0.086532682 -0.18841839
-0.053691678 -0.086592406 -0.18815401
-0.053695694 -0.086669132 -0.18811983
-0.053701013 -0.086744472 -0.18805763
-0.053705521 -0.086821415 -0.18801346
-0.053709436 -0.086898096 -0.18798128
-0.053713746 -0.086974949 -0.18794109
-0.053717233 -0.087053418 -0.18791893
-0.053720489 -0.08713375 -0.18790281
-0.053723395 -0.087211952 -0.18789263
-0.053725965 -0.087291986 -0.18789048
-0.05372883 -0.087372147 -0.18788236
-0.053731501 -0.087452218 -0.18787822
-0.053733777 -0.087532118 -0.18788207
-0.053736214 -0.087614059 -0.18788394
-0.05373859 -0.087694004 -0.18788581
-0.053740673 -0.087773815 -0.18789366
-0.053742915 -0.087855674 -0.18789956
-0.053745154 -0.087937526 -0.18790543
-0.053746909 -0.088019162 -0.18792132
-0.05374866 -0.088100806 -0.18793719
-0.053750608 -0.088182531 -0.18794908
-0.053752884 -0.088262424 -0.18795292
-0.053755261 -0.088342369 -0.18795478
-0.053757504 -0.088424228 -0.18796067
-0.053759452 -0.088505954 -0.18797255
-0.053761005 -0.088587508 -0.18799242
-0.053762857 -0.088669188 -0.18800631
-0.053764608 -0.088750824 -0.18802218
-0.053766754 -0.088832632 -0.18803006
-0.053768933 -0.088912494 -0.18803592
-0.053770941 -0.088996217 -0.18804786
-0.053772788 -0.089077897 -0.18806173
-0.053774212 -0.089161366 -0.18808565
-0.05377534 -0.089244694 -0.18811554
-0.053777188 -0.089326374 -0.18812943
-0.05377904 -0.089408062 -0.18814331
-0.053781316 -0.089487955 -0.18814716
-0.053784084 -0.089568079 -0.18814102
-0.053786423 -0.089649975 -0.18814491
-0.053788565 -0.089731783 -0.18815279
-0.053790748 -0.089811645 -0.18815865
-0.053792693 -0.089893371 -0.18817052
-0.053794738 -0.089975134 -0.18818042
-0.053796686 -0.090056859 -0.18819231
-0.053798731 -0.090138629 -0.18820219
-0.053801499 -0.090218745 -0.18819605
-0.053804558 -0.090298995 -0.18818392
-0.053807229 -0.090379067 -0.18817979
-0.053809408 -0.090458922 -0.18818563
-0.053811453 -0.090540692 -0.18819551
-0.053813167 -0.090624288 -0.18821344
-0.053815018 -0.090705968 -0.18822733
-0.053817257 -0.090787821 -0.18823321
-0.053819109 -0.090869501 -0.18824708
-0.053820629 -0.090953007 -0.18826899
-0.053822573 -0.091034733 -0.18828088
-0.053825051 -0.091114722 -0.18828073
-0.053827193 -0.091196537 -0.18828863
-0.053828944 -0.091278173 -0.18830451
-0.053831283 -0.09136007 -0.18830842
-0.05383395 -0.091440141 -0.18830428
-0.053836621 -0.09152022 -0.18830013
-0.053838961 -0.091602117 -0.18830402
-0.05384114 -0.091681972 -0.18830988
-0.053843711 -0.091762006 -0.18830773
-0.05384605 -0.091843903 -0.18831161
-0.05384839 -0.0919258 -0.18831551
-0.053851157 -0.092005916 -0.18830937
-0.053853434 -0.092085816 -0.18831322
-0.05385581 -0.092165761 -0.18831506
-0.053858541 -0.092247829 -0.18831098
-0.053860389 -0.09232951 -0.18832487
-0.053862199 -0.09241315 -0.18834078
-0.053863525 -0.092496566 -0.1883667
-0.053864945 -0.092580035 -0.18839061
-0.053867184 -0.092661887 -0.1883965
-0.053869855 -0.092741966 -0.18839237
-0.053872526 -0.09282203 -0.18838823
-0.053874806 -0.092901938 -0.18839207
-0.053877238 -0.092983879 -0.18839395
-0.053880103 -0.09306404 -0.18838583
-0.053882677 -0.093144067 -0.18838368
-0.053885151 -0.093224049 -0.18838355
-0.053887721 -0.093304083 -0.1883814
-0.053889863 -0.09338589 -0.18838929
-0.053892106 -0.09346775 -0.18839517
-0.053894676 -0.093547784 -0.18839303
-0.053897016 -0.093629681 -0.18839693
-0.053899061 -0.093711443 -0.18840683
-0.053901106 -0.093793213 -0.18841672
-0.053903308 -0.093877025 -0.18842465
-0.053905781 -0.093957014 -0.1884245
-0.053907495 -0.094040602 -0.18844242
-0.053909015 -0.094124116 -0.18846434
-0.05391106 -0.094205879 -0.18847422
-0.05391334 -0.094285779 -0.18847807
-0.053916398 -0.094366029 -0.18846595
-0.053919263 -0.09444619 -0.18845782
-0.053921737 -0.094526172 -0.18845767
-0.05392421 -0.094606161 -0.18845752
-0.053926218 -0.094689883 -0.18846944
-0.053928692 -0.094769873 -0.18846929
-0.053931985 -0.094848245 -0.18845114
-0.053934559 -0.09492828 -0.188449
-0.053936467 -0.095011964 -0.18846291
-0.05393894 -0.095091946 -0.18846278
-0.053941377 -0.095173888 -0.18846467
-0.05394309 -0.095257483 -0.18848258
-0.053945038 -0.095339209 -0.18849447
-0.052954443 -0.04567514 -0.17723852
-0.052957542 -0.045753431 -0.17722437
-0.052959997 -0.045829467 -0.17722213
-0.052961901 -0.04590328 -0.17722982
-0.05296367 -0.045979012 -0.17724156
-0.052965868 -0.046052959 -0.17724329
-0.052968871 -0.046131209 -0.1772311
-0.052972067 -0.046209544 -0.17721494
-0.052975714 -0.046290047 -0.17719084
-0.052978713 -0.046368297 -0.17717865
-0.05298052 -0.046442069 -0.17718835
-0.05298239 -0.046517845 -0.1771981
-0.052984744 -0.046593834 -0.17719787
-0.052986749 -0.046667695 -0.17720357
-0.052988358 -0.046741381 -0.17721727
-0.052990813 -0.046817414 -0.17721502
-0.052993167 -0.046893403 -0.1772148
-0.052994587 -0.046967003 -0.17723247
-0.052995749 -0.047038522 -0.17725413
-0.052997068 -0.047112077 -0.17727381
-0.052999716 -0.047188196 -0.17726758
-0.053005591 -0.04727561 -0.17720166
-0.053008199 -0.047353685 -0.17719749
-0.0530104 -0.047427632 -0.17719918
-0.053013656 -0.047507964 -0.17718306
-0.053016853 -0.047586299 -0.17716691
-0.053018853 -0.047660165 -0.1771726
-0.053020917 -0.047736019 -0.17717837
-0.053022921 -0.04780988 -0.17718408
-0.053024687 -0.047885612 -0.17719582
-0.053026047 -0.047957212 -0.17721346
-0.053027913 -0.048032984 -0.17722321
-0.053029917 -0.048106845 -0.1772289
-0.053031627 -0.048180576 -0.17724061
-0.053032849 -0.048254091 -0.17726229
-0.053033717 -0.048325475 -0.17728993
-0.053035624 -0.048399292 -0.17729762
-0.053037334 -0.048473023 -0.17730933
-0.053038299 -0.048544452 -0.17733496
-0.053040557 -0.048620395 -0.17733672
-0.053044401 -0.048700992 -0.17730862
-0.053048339 -0.048781633 -0.1772785
-0.053051047 -0.048859749 -0.17727233
-0.053053401 -0.048935737 -0.17727208
-0.053055953 -0.049011812 -0.17726785
-0.053058855 -0.04909002 -0.17725767
-0.053061601 -0.04916618 -0.17724945
-0.053063761 -0.049242083 -0.1772532
-0.053065568 -0.049315859 -0.1772629
-0.053067438 -0.049391631 -0.17727265
-0.053069439 -0.049465492 -0.17727837
-0.053071696 -0.049541436 -0.17728013
-0.053074151 -0.049617469 -0.17727789
-0.053076603 -0.049693502 -0.17727566
-0.053078763 -0.049769405 -0.17727941
-0.05308073 -0.049845219 -0.17728716
-0.053082988 -0.049921166 -0.17728892
-0.053085636 -0.049997285 -0.17728269
-0.053087894 -0.050073236 -0.17728445
-0.053090051 -0.050149135 -0.1772882
-0.053091861 -0.050222911 -0.17729791
-0.053094216 -0.050298899 -0.17729767
-0.053100035 -0.050384313 -0.1772317
-0.053104069 -0.050464995 -0.1771996
-0.053107068 -0.050543241 -0.17718744
-0.053110011 -0.05061949 -0.17717522
-0.053112425 -0.050697483 -0.17717502
-0.053114139 -0.05077121 -0.17718671
-0.053115945 -0.050844982 -0.17719641
-0.053118497 -0.05092106 -0.17719218
-0.053121202 -0.050999179 -0.17718601
-0.053123012 -0.051072951 -0.1771957
-0.05312556 -0.051149029 -0.17719147
-0.053128365 -0.05122719 -0.17718329
-0.053130724 -0.051303178 -0.17718305
-0.053132724 -0.051377043 -0.17718875
-0.053134788 -0.051452901 -0.17719451
-0.053136498 -0.051526628 -0.17720622
-0.053138405 -0.051600449 -0.17721391
-0.053141013 -0.051678523 -0.17720973
-0.053141981 -0.051749952 -0.17723536
-0.053143751 -0.05182568 -0.17724711
-0.053147238 -0.051904149 -0.17722495
-0.05315112 -0.051982783 -0.1771948
-0.053154413 -0.052061163 -0.17717662
-0.053157963 -0.052141625 -0.17715451
-0.053160414 -0.052217659 -0.17715228
-0.053162418 -0.05229152 -0.177158
-0.053165518 -0.052369811 -0.17714381
-0.053168517 -0.05244806 -0.17713164
-0.053168938 -0.052517273 -0.17716721
-0.053170998 -0.052593134 -0.17717296
-0.053174295 -0.052671511 -0.17715481
-0.05317739 -0.052749801 -0.17714062
-0.053179748 -0.05282579 -0.17714038
-0.053181652 -0.052899607 -0.17714809
-0.053183615 -0.052975424 -0.17715584
-0.053185716 -0.05304933 -0.17715955
-0.053187683 -0.053125143 -0.1771673
-0.053189099 -0.053198747 -0.177185
-0.053190615 -0.053272389 -0.17720069
-0.053192127 -0.05334603 -0.17721638
-0.053193741 -0.05341972 -0.17723008
-0.053196095 -0.053495709 -0.17722984
-0.05320023 -0.053576432 -0.17719573
-0.053204402 -0.053655203 -0.17715961
-0.053207405 -0.053733449 -0.17714742
-0.053209662 -0.053809397 -0.17714918
-0.053212509 -0.053885601 -0.17713895
-0.053215995 -0.053964067 -0.17711681
-0.053218801 -0.054042228 -0.17710862
-0.053221159 -0.054118216 -0.17710838
-0.053223453 -0.054192208 -0.17710811
-0.053225905 -0.054268241 -0.17710586
-0.053229101 -0.054346576 -0.17708969
-0.053232007 -0.054424785 -0.17707951
-0.053234361 -0.054500774 -0.17707929
-0.053236071 -0.054574504 -0.17709097
-0.053237487 -0.054648101 -0.17710868
-0.053239197 -0.054721832 -0.17712036
-0.053241454 -0.054797776 -0.17712212
-0.053244006 -0.054873854 -0.17711788
-0.053246364 -0.054949846 -0.17711765
-0.053248364 -0.055023707 -0.17712335
-0.053251561 -0.055102043 -0.17710719
-0.053256087 -0.055182938 -0.1770651
-0.053259574 -0.055261403 -0.17704293
-0.053262223 -0.055337522 -0.17703673
-0.053264618 -0.055411555 -0.17703444
-0.053267326 -0.055489674 -0.17702825
-0.053269524 -0.055563621 -0.17702997
-0.0532711 -0.055639267 -0.1770457
-0.05327281 -0.055712998 -0.1770574
-0.053275201 -0.055787027 -0.17705512
-0.053278301 -0.055865321 -0.17704095
-0.053281594 -0.055943698 -0.17702278
-0.053283948 -0.05601969 -0.17702255
-0.053285014 -0.05609116 -0.17704618
-0.053286921 -0.05616498 -0.17705388
-0.053289179 -0.056240924 -0.17705564
-0.053290788 -0.05631461 -0.17706934
-0.053291913 -0.05638808 -0.17709301
-0.053293429 -0.056461725 -0.17710871
-0.053295296 -0.056537498 -0.17711845
-0.053299468 -0.056616269 -0.17708232
-0.053302567 -0.05669456 -0.17706814
-0.053304765 -0.056768507 -0.17706987
-0.053307414 -0.056844626 -0.17706363
-0.053309865 -0.056920659 -0.17706139
-0.05331232 -0.056996692 -0.17705916
-0.053315517 -0.057075027 -0.17704299
-0.053318847 -0.057151448 -0.17702278
-0.053321596 -0.057227612 -0.17701456
-0.053324439 -0.057303816 -0.17700434
-0.053327538 -0.057382111 -0.17699015
-0.053329892 -0.057458099 -0.17698991
-0.0533318 -0.057531916 -0.17699763
-0.053334057 -0.057607863 -0.17699939
-0.053336255 -0.05768181 -0.17700109
-0.053338513 -0.057757758 -0.17700285
-0.053340379 -0.05783353 -0.17701259
-0.05334283 -0.057909563 -0.17701036
-0.053345226 -0.057983596 -0.17700809
-0.053346936 -0.058057327 -0.17701977
-0.053348314 -0.058132883 -0.1770395
-0.053350121 -0.058206655 -0.17704922
-0.053353455 -0.058283079 -0.17702901
-0.05335743 -0.058361761 -0.17699686
-0.053360824 -0.058440182 -0.17697671
-0.053363863 -0.058516476 -0.17696248
-0.053366609 -0.05859264 -0.17695425
-0.053369161 -0.058668714 -0.17695002
-0.053371809 -0.058744833 -0.17694378
-0.053374555 -0.058821 -0.17693555
-0.053377692 -0.058897331 -0.17691934
-0.053380925 -0.058973715 -0.17690113
-0.053383477 -0.059049789 -0.1768969
-0.053385541 -0.059125647 -0.17690265
-0.053387638 -0.059199553 -0.17690638
-0.053389896 -0.0592755 -0.17690814
-0.053392291 -0.059349533 -0.17690584
-0.053394355 -0.059425391 -0.17691159
-0.053395577 -0.059498906 -0.17693329
-0.053396896 -0.059572466 -0.17695296
-0.053398702 -0.059646238 -0.17696267
-0.053400762 -0.059722096 -0.17696843
-0.053404 -0.059798479 -0.17695022
-0.053408563 -0.059877418 -0.17690608
-0.053411797 -0.059953798 -0.17688787
-0.053415287 -0.060032263 -0.17686571
-0.053417839 -0.060108341 -0.17686146
-0.053420037 -0.060182288 -0.17686319
-0.053422976 -0.060258538 -0.17685097
-0.05342621 -0.060334913 -0.17683277
-0.053429995 -0.06041351 -0.1768046
-0.053433426 -0.060489979 -0.1767824
-0.053435292 -0.060565751 -0.17679214
-0.053436063 -0.060637094 -0.17682177
-0.053437479 -0.060710691 -0.17683946
-0.05343993 -0.060786724 -0.17683724
-0.053442582 -0.060862847 -0.17683101
-0.053445034 -0.06093888 -0.17682876
-0.053447429 -0.061012913 -0.17682648
-0.053449977 -0.061088987 -0.17682225
-0.053452138 -0.061164893 -0.176826
-0.053454142 -0.061238751 -0.17683171
-0.053456243 -0.061312657 -0.17683542
-0.053459477 -0.061389036 -0.17681721
-0.053464431 -0.06146815 -0.17676508
-0.053469289 -0.061547223 -0.17671497
-0.053472973 -0.061625775 -0.17668882
-0.053476013 -0.061702065 -0.17667459
-0.053478796 -0.061776273 -0.17666432
-0.053481247 -0.061852306 -0.17666209
-0.053483449 -0.061926253 -0.1766638
-0.053486098 -0.062002376 -0.17665757
-0.05348894 -0.06207858 -0.17664735
-0.053491138 -0.062152527 -0.17664906
-0.053494763 -0.062229082 -0.17662287
-0.053500071 -0.062310323 -0.1765648
-0.05350389 -0.062386967 -0.17653461
-0.053506538 -0.062463082 -0.17652838
-0.053508151 -0.062536776 -0.17654207
-0.053510543 -0.062610805 -0.17653979
-0.053513389 -0.06268701 -0.17652956
-0.053516231 -0.062763214 -0.17651933
-0.053519759 -0.062839732 -0.17649513
-0.05352569 -0.062919274 -0.17642304
-0.053532403 -0.062999174 -0.17633498
-0.053535931 -0.063075684 -0.17631078
-0.053539068 -0.063152015 -0.17629457
-0.053542204 -0.063228354 -0.17627835
-0.053544991 -0.063302562 -0.17626807
-0.053547733 -0.063378721 -0.17625985
-0.053550873 -0.06345506 -0.17624363
-0.053554304 -0.063531525 -0.17622143
-0.053557537 -0.063607909 -0.17620322
-0.053560518 -0.063682199 -0.17618895
-0.053563848 -0.063758627 -0.17616874
-0.053567961 -0.063835397 -0.17613256
-0.053572856 -0.063912511 -0.17608039
-0.053577028 -0.063991278 -0.17604426
-0.053580105 -0.06406562 -0.17602798
-0.053582598 -0.064139694 -0.17602371
-0.053585637 -0.064215988 -0.17600949
-0.053588774 -0.064292327 -0.17599328
-0.053590972 -0.064366274 -0.17599499
-0.053593658 -0.064440437 -0.17598671
-0.053597383 -0.064517029 -0.17595851
-0.053601202 -0.064593673 -0.17592832
-0.053604729 -0.064670183 -0.17590412
-0.05360771 -0.064744473 -0.17588985
-0.053610299 -0.064818598 -0.17588358
-0.053613532 -0.064894974 -0.17586537
-0.053616669 -0.064971313 -0.17584914
-0.053619161 -0.065045387 -0.17584488
-0.053621262 -0.065119296 -0.17584857
-0.053623267 -0.065193154 -0.1758543
-0.05362517 -0.065266974 -0.17586198
-0.053626195 -0.0653404 -0.17588767
-0.053626638 -0.065413564 -0.17592534
-0.053627174 -0.065486774 -0.17596099
-0.053627752 -0.065558031 -0.17599462
-0.053627606 -0.065630943 -0.17604426
-0.053626131 -0.065701284 -0.17611983
-0.053626083 -0.065774232 -0.17616747
-0.053626329 -0.065847315 -0.17620912
-0.053445216 -0.06574326 -0.17989729
-0.053449683 -0.065822162 -0.17985517
-0.053455323 -0.065901577 -0.17978907
-0.053458847 -0.065978087 -0.17976487
-0.053460777 -0.066055857 -0.17977466
-0.053461507 -0.066129155 -0.17980632
-0.053461812 -0.066204235 -0.17984802
-0.053022984 -0.065883234 -0.18874034
-0.053026691 -0.065965742 -0.18871626
-0.053029127 -0.066047683 -0.18871817
-0.053029198 -0.066124626 -0.18876591
-0.053029232 -0.066203535 -0.1888157
-0.053030007 -0.066284738 -0.18885154
-0.053030077 -0.066361681 -0.18889928
-0.053028937 -0.066440068 -0.18897304
-0.053025063 -0.066517234 -0.18910271
-0.053435419 -0.086279467 -0.19323301
-0.053437486 -0.086365193 -0.19324499
-0.053440314 -0.086447306 -0.1932389
-0.053513397 -0.086402826 -0.1916953
-0.053516224 -0.086484946 -0.19168921
-0.053675592 -0.086532012 -0.18841535
-0.053690091 -0.086591698 -0.18815295
-0.05369401 -0.08666838 -0.18812077
-0.053699333 -0.08674372 -0.18805857
-0.053703934 -0.086820707 -0.18801239
-0.053707756 -0.086897343 -0.1879822
-0.053712159 -0.086974241 -0.18794003
-0.05371565 -0.08705271 -0.18791786
-0.053718906 -0.087133043 -0.18790174
-0.053721808 -0.087211251 -0.18789157
-0.053724382 -0.087291278 -0.18788943
-0.053727247 -0.087371439 -0.18788129
-0.053729914 -0.08745151 -0.18787715
-0.053732194 -0.08753141 -0.18788099
-0.05373463 -0.087613352 -0.1878829
-0.053737007 -0.087693296 -0.18788475
-0.05373909 -0.087773107 -0.18789259
-0.053741332 -0.087854967 -0.18789849
-0.053743571 -0.087936819 -0.18790437
-0.053745326 -0.088018462 -0.18792024
-0.053747077 -0.088100098 -0.18793613
-0.053748928 -0.088181779 -0.18795002
-0.053751305 -0.088261724 -0.18795186
-0.053753641 -0.08834362 -0.18795577
-0.05375592 -0.08842352 -0.18795961
-0.053757869 -0.088505246 -0.1879715
-0.053759426 -0.088586792 -0.18799135
-0.053761274 -0.088668481 -0.18800524
-0.053763028 -0.088750117 -0.18802112
-0.05376517 -0.088831924 -0.18802902
-0.053767353 -0.088911787 -0.18803486
-0.053769358 -0.088995509 -0.18804678
-0.053771209 -0.08907719 -0.18806067
-0.053772628 -0.089160651 -0.18808457
-0.053773757 -0.089243986 -0.18811449
-0.053775609 -0.089325666 -0.18812835
-0.053777456 -0.089407355 -0.18814224
-0.053779736 -0.089487247 -0.18814608
-0.053782504 -0.089567363 -0.18813995
-0.053784844 -0.089649267 -0.18814385
-0.053786986 -0.089731075 -0.18815175
-0.053789169 -0.089810938 -0.18815759
-0.053791214 -0.0898927 -0.18816748
-0.053793162 -0.089974426 -0.18817934
-0.053795204 -0.090056196 -0.18818924
-0.053797152 -0.090137921 -0.18820113
-0.05379992 -0.090218037 -0.18819499
-0.053802982 -0.09029828 -0.18818286
-0.053805649 -0.090378359 -0.18817872
-0.053807832 -0.090458214 -0.18818456
-0.053809877 -0.090539977 -0.18819445
-0.053811591 -0.090623572 -0.18821238
-0.053813443 -0.090705261 -0.18822625
-0.053815681 -0.090787113 -0.18823215
-0.053817533 -0.090868793 -0.18824603
-0.053819049 -0.0909523 -0.18826795
-0.053820997 -0.091034025 -0.18827984
-0.053823471 -0.091114014 -0.18827969
-0.053825617 -0.091195822 -0.18828757
-0.053827368 -0.091277465 -0.18830344
-0.053829707 -0.091359362 -0.18830734
-0.053832375 -0.091439433 -0.1883032
-0.053835046 -0.091519505 -0.18829906
-0.053837385 -0.091601402 -0.18830296
-0.053839564 -0.091681264 -0.18830881
-0.053842138 -0.091761291 -0.18830666
-0.053844474 -0.091843188 -0.18831056
-0.053846814 -0.091925085 -0.18831445
-0.053849582 -0.092005208 -0.18830831
-0.053851862 -0.092085108 -0.18831216
-0.053854238 -0.092165053 -0.18831402
-0.053856965 -0.092247121 -0.18830992
-0.053858817 -0.092328802 -0.1883238
-0.053860627 -0.092412442 -0.18833973
-0.05386195 -0.092495859 -0.18836564
-0.05386347 -0.092579365 -0.18838754
-0.053865612 -0.09266118 -0.18839544
-0.053868283 -0.092741251 -0.1883913
-0.053870954 -0.09282133 -0.18838716
-0.05387323 -0.09290123 -0.18839101
-0.053875666 -0.092983171 -0.18839291
-0.053878628 -0.093063369 -0.18838277
-0.053881105 -0.093143359 -0.18838263
-0.053883579 -0.093223341 -0.18838249
-0.053886149 -0.093303375 -0.18838033
-0.053888291 -0.09338519 -0.18838823
-0.053890534 -0.093467042 -0.18839413
-0.053893104 -0.093547076 -0.18839198
-0.053895444 -0.093628973 -0.18839589
-0.053897489 -0.093710735 -0.18840575
-0.053899437 -0.093792461 -0.18841764
-0.05390168 -0.09387432 -0.18842354
-0.053904213 -0.093956307 -0.18842344
-0.053906024 -0.094039939 -0.18843937
-0.053907447 -0.094123408 -0.18846327
-0.053909488 -0.094205171 -0.18847317
-0.053911768 -0.094285071 -0.18847701
-0.05391483 -0.094365321 -0.18846488
-0.053917695 -0.094445474 -0.18845674
-0.053920168 -0.094525464 -0.18845659
-0.053922642 -0.094605453 -0.18845646
-0.05392465 -0.094689175 -0.1884684
-0.053927124 -0.094769165 -0.18846825
-0.05393032 -0.094847493 -0.18845208
-0.053932991 -0.094927572 -0.18844794
-0.053934898 -0.095011249 -0.18846186
-0.053937372 -0.095091239 -0.18846172
-0.053939849 -0.095171228 -0.18846157
-0.053941563 -0.095254816 -0.18847948
-0.053943567 -0.095338538 -0.18849142
-0.052957054 -0.045673758 -0.1772338
-0.052960057 -0.045752008 -0.17722163
-0.052962411 -0.045827996 -0.17722139
-0.052964412 -0.045901857 -0.17722709
-0.052966181 -0.045977585 -0.17723884
-0.052968379 -0.046051532 -0.17724055
-0.052971378 -0.046129782 -0.17722838
-0.052974634 -0.046210118 -0.17721225
-0.052978221 -0.046288624 -0.1771881
-0.05298122 -0.04636687 -0.17717591
-0.052983087 -0.046442647 -0.17718567
-0.052984893 -0.046516418 -0.17719537
-0.052987251 -0.046592407 -0.17719513
-0.052989252 -0.046666268 -0.17720084
-0.052990865 -0.046739958 -0.17721453
-0.052993219 -0.046815947 -0.17721429
-0.052995633 -0.046893932 -0.1772141
-0.05299709 -0.046965577 -0.17722976
-0.052998252 -0.047037095 -0.17725138
-0.052999571 -0.047110654 -0.17727107
-0.053002216 -0.04718677 -0.17726484
-0.053007994 -0.047274143 -0.17720091
-0.053010702 -0.047352258 -0.17719474
-0.0530129 -0.047426209 -0.17719644
-0.053016156 -0.047506541 -0.17718033
-0.053019252 -0.047584832 -0.17716616
-0.053021353 -0.047658738 -0.17716986
-0.053023413 -0.047734596 -0.17717561
-0.053025417 -0.047808457 -0.17718133
-0.053027187 -0.047884189 -0.17719308
-0.053028446 -0.047955744 -0.17721272
-0.053030409 -0.048031561 -0.17722046
-0.053032413 -0.048105422 -0.17722617
-0.053034123 -0.04817915 -0.17723787
-0.053035244 -0.048252624 -0.17726155
-0.053036213 -0.048324049 -0.17728719
-0.053038117 -0.048397869 -0.17729488
-0.05303973 -0.048471555 -0.17730859
-0.053040694 -0.048542984 -0.17733422
-0.053042952 -0.048618931 -0.17733598
-0.05304689 -0.048699569 -0.17730588
-0.053050794 -0.048782162 -0.1772778
-0.053053536 -0.048858322 -0.17726958
-0.053055894 -0.048934311 -0.17726935
-0.053058442 -0.049010389 -0.17726511
-0.053061344 -0.049088597 -0.17725495
-0.053064149 -0.049166754 -0.17724675
-0.05306625 -0.04924066 -0.17725047
-0.053068057 -0.049314436 -0.17726016
-0.053069826 -0.049390163 -0.1772719
-0.05307183 -0.049464025 -0.17727762
-0.053074084 -0.049539968 -0.17727938
-0.053076636 -0.049616046 -0.17727515
-0.05307899 -0.049692035 -0.17727491
-0.053081248 -0.049767982 -0.17727667
-0.053083211 -0.049843796 -0.17728442
-0.053085569 -0.049919784 -0.17728418
-0.053088021 -0.049995821 -0.17728195
-0.053090375 -0.050071809 -0.17728171
-0.053092536 -0.050147712 -0.17728546
-0.053094342 -0.050221488 -0.17729515
-0.053096697 -0.050297476 -0.17729491
-0.053102512 -0.05038289 -0.17722896
-0.05310655 -0.050463568 -0.17719686
-0.053109549 -0.050541818 -0.17718469
-0.053112451 -0.050620019 -0.17717451
-0.053114805 -0.050696015 -0.17717427
-0.053116612 -0.050769787 -0.17718397
-0.053118322 -0.050843515 -0.17719567
-0.053120874 -0.050919592 -0.17719144
-0.053123679 -0.050997756 -0.17718326
-0.053125486 -0.051071528 -0.17719296
-0.053127937 -0.051147562 -0.17719072
-0.053130742 -0.051225722 -0.17718254
-0.053133197 -0.051301755 -0.17718029
-0.053135198 -0.051375616 -0.17718601
-0.053137261 -0.051451474 -0.17719176
-0.053138971 -0.051525205 -0.17720346
-0.053140838 -0.051600978 -0.17721321
-0.053143486 -0.0516771 -0.17720698
-0.053144548 -0.05174857 -0.17723063
-0.053146221 -0.051824257 -0.17724437
-0.053149708 -0.051902723 -0.17722219
-0.053153589 -0.05198136 -0.17719205
-0.053156842 -0.052061692 -0.17717594
-0.053160429 -0.052140199 -0.17715177
-0.053162783 -0.052216191 -0.17715153
-0.053164884 -0.052290097 -0.17715523
-0.053167883 -0.052368343 -0.17714307
-0.053170886 -0.052446593 -0.17713089
-0.053171303 -0.052515805 -0.17716646
-0.053173367 -0.052591667 -0.17717221
-0.053176757 -0.052670088 -0.17715205
-0.053179756 -0.052748337 -0.17713988
-0.053182211 -0.052824367 -0.17713764
-0.053184018 -0.052898139 -0.17714734
-0.053186078 -0.052974001 -0.1771531
-0.053188179 -0.053047907 -0.17715681
-0.053190045 -0.053123679 -0.17716655
-0.053191561 -0.053197324 -0.17718224
-0.053192977 -0.053270921 -0.17719993
-0.05319459 -0.053344607 -0.17721362
-0.053196199 -0.053418297 -0.17722732
-0.053198554 -0.053494286 -0.17722708
-0.053202689 -0.053575009 -0.17719299
-0.053206861 -0.05365378 -0.17715684
-0.053209864 -0.053732026 -0.17714468
-0.053212117 -0.053807974 -0.17714643
-0.053214964 -0.053884178 -0.17713621
-0.05321845 -0.053962644 -0.17711404
-0.053221159 -0.05404076 -0.17710787
-0.053223513 -0.054116752 -0.17710763
-0.053225808 -0.05419074 -0.17710733
-0.05322836 -0.054266818 -0.1771031
-0.053231552 -0.054345153 -0.17708695
-0.053234555 -0.054423403 -0.17707476
-0.053236812 -0.05449935 -0.17707652
-0.053238619 -0.054573122 -0.17708622
-0.053239938 -0.054646678 -0.1771059
-0.053241551 -0.054720365 -0.17711961
-0.053243905 -0.054796357 -0.17711937
-0.053246453 -0.054872431 -0.17711514
-0.053248711 -0.054948378 -0.1771169
-0.053250812 -0.055022284 -0.1771206
-0.053254008 -0.05510062 -0.17710444
-0.053258531 -0.055181514 -0.17706235
-0.053262021 -0.05525998 -0.17704019
-0.053264573 -0.055336058 -0.17703596
-0.053267121 -0.055412132 -0.17703173
-0.05326977 -0.055488251 -0.1770255
-0.053271968 -0.055562198 -0.1770272
-0.05327354 -0.055637844 -0.17704295
-0.05327525 -0.055711575 -0.17705464
-0.053277701 -0.055787604 -0.17705241
-0.053280741 -0.055863898 -0.17703819
-0.053283937 -0.05594223 -0.17702201
-0.053286292 -0.056018222 -0.17702177
-0.053287357 -0.056089692 -0.1770454
-0.05328932 -0.056165509 -0.17705315
-0.053291675 -0.056241497 -0.17705293
-0.053293288 -0.056315187 -0.17706662
-0.053294413 -0.056388658 -0.1770903
-0.053295769 -0.056460261 -0.17710796
-0.053297829 -0.056536119 -0.1771137
-0.053301904 -0.056614846 -0.17707956
-0.053304903 -0.056693092 -0.17706738
-0.053307261 -0.05676908 -0.17706713
-0.05330985 -0.056843203 -0.17706087
-0.053312302 -0.056919236 -0.17705864
-0.053314753 -0.056995269 -0.1770564
-0.053318046 -0.057073645 -0.17703822
-0.05332128 -0.057150025 -0.17702001
-0.053324025 -0.057226188 -0.17701179
-0.053326927 -0.057304394 -0.17700161
-0.05332987 -0.057380643 -0.17698939
-0.053332321 -0.057456676 -0.17698716
-0.053334229 -0.057530493 -0.17699486
-0.053336486 -0.05760644 -0.17699662
-0.053338841 -0.057682429 -0.17699638
-0.053340942 -0.057756335 -0.17700009
-0.053342804 -0.057832107 -0.17700984
-0.053345162 -0.057908095 -0.1770096
-0.053347651 -0.057982173 -0.17700532
-0.053349361 -0.058055904 -0.17701703
-0.053350739 -0.05813146 -0.17703676
-0.053352546 -0.058205236 -0.17704645
-0.05335594 -0.058283657 -0.1770263
-0.053359758 -0.058360294 -0.1769961
-0.053363148 -0.058438718 -0.17697594
-0.053366188 -0.058515009 -0.17696171
-0.053368933 -0.058591172 -0.17695348
-0.053371582 -0.058667291 -0.17694725
-0.053374227 -0.05874341 -0.17694102
-0.053376876 -0.058819532 -0.17693479
-0.053380013 -0.058895867 -0.17691857
-0.053383246 -0.058972247 -0.17690037
-0.053385895 -0.059048366 -0.17689414
-0.053387955 -0.059124224 -0.1768999
-0.053389959 -0.059198085 -0.1769056
-0.053392217 -0.059274033 -0.17690736
-0.053394608 -0.059348069 -0.17690507
-0.053396672 -0.059423927 -0.17691082
-0.053397894 -0.059497438 -0.17693251
-0.05339931 -0.059571043 -0.17695019
-0.053401019 -0.059644774 -0.1769619
-0.05340318 -0.059720673 -0.17696565
-0.053406313 -0.059797011 -0.17694944
-0.053410877 -0.059875954 -0.1769053
-0.05341411 -0.059952334 -0.17688709
-0.053417698 -0.06003084 -0.17686294
-0.053420246 -0.060106918 -0.17685871
-0.053422347 -0.060180821 -0.17686242
-0.053425387 -0.060257114 -0.1768482
-0.05342862 -0.06033349 -0.17682999
-0.053432401 -0.060412087 -0.17680183
-0.053435832 -0.060488556 -0.17677963
-0.053437699 -0.060564328 -0.17678937
-0.05343847 -0.060635667 -0.176819
-0.053439885 -0.060709268 -0.1768367
-0.05344224 -0.06078526 -0.17683646
-0.053444888 -0.060861379 -0.17683023
-0.05344744 -0.060937457 -0.176826
-0.053449832 -0.061011489 -0.17682371
-0.053452384 -0.061087564 -0.17681947
-0.053454541 -0.061163466 -0.17682323
-0.053456448 -0.061237283 -0.17683093
-0.053458545 -0.061311189 -0.17683464
-0.053461879 -0.061387613 -0.17681444
-0.053466734 -0.061466683 -0.17676431
-0.053471591 -0.061545756 -0.17671418
-0.053475372 -0.061624352 -0.17668605
-0.053478409 -0.061700642 -0.17667182
-0.053481195 -0.06177485 -0.17666155
-0.05348355 -0.061850842 -0.17666131
-0.053485651 -0.061924744 -0.17666501
-0.053488396 -0.062000908 -0.17665678
-0.053491335 -0.062077157 -0.17664456
-0.05349363 -0.062151149 -0.1766443
-0.053497158 -0.062227659 -0.17662008
-0.053502463 -0.0623089 -0.17656203
-0.053506285 -0.06238554 -0.17653182
-0.05350893 -0.062461659 -0.17652559
-0.053510543 -0.062535346 -0.1765393
-0.053512838 -0.062609337 -0.17653902
-0.05351568 -0.062685549 -0.17652878
-0.053518526 -0.062761754 -0.17651856
-0.05352205 -0.062838264 -0.17649436
-0.053528078 -0.062917851 -0.17642027
-0.053534791 -0.062997751 -0.17633221
-0.053538319 -0.063074261 -0.17630801
-0.053541455 -0.063150592 -0.17629178
-0.053544588 -0.063226931 -0.17627557
-0.053547435 -0.063303135 -0.17626533
-0.05355012 -0.063377298 -0.17625707
-0.053553257 -0.063453637 -0.17624086
-0.053556588 -0.063530058 -0.17622064
-0.053559821 -0.063606441 -0.17620245
-0.053562898 -0.063680775 -0.17618617
-0.053566229 -0.063757204 -0.17616595
-0.053570341 -0.063833967 -0.17612977
-0.053575296 -0.063913085 -0.17607766
-0.053579409 -0.063989855 -0.17604147
-0.053582385 -0.064064145 -0.17602721
-0.053584974 -0.064138271 -0.17602094
-0.053588014 -0.064214565 -0.1760067
-0.053591151 -0.064290896 -0.17599049
-0.053593252 -0.064364806 -0.1759942
-0.053595938 -0.064438969 -0.17598593
-0.053599756 -0.064515606 -0.17595574
-0.053603478 -0.064592205 -0.17592753
-0.053607102 -0.06466876 -0.17590134
-0.053609986 -0.064743005 -0.17588907
-0.053612575 -0.064817131 -0.17588279
-0.053615808 -0.064893506 -0.17586458
-0.053619042 -0.06496989 -0.17584637
-0.053621531 -0.065043963 -0.17584208
-0.053623535 -0.065117829 -0.1758478
-0.053625636 -0.065191731 -0.17585151
-0.053627539 -0.065265551 -0.17585921
-0.053628564 -0.065338977 -0.17588489
-0.053628907 -0.065412097 -0.17592454
-0.053629544 -0.065485351 -0.17595822
-0.053630121 -0.065556608 -0.17599183
-0.053629875 -0.065629475 -0.17604348
-0.053628497 -0.06569986 -0.17611703
-0.053628352 -0.065772772 -0.17616668
-0.053628892 -0.065845981 -0.17620236
-0.053447608 -0.065741844 -0.17989451
-0.053451974 -0.065820701 -0.17985438
-0.053457711 -0.065900162 -0.17978628
-0.053461138 -0.065976627 -0.17976406
-0.053463262 -0.066054486 -0.17976987
-0.053463895 -0.06612774 -0.17980354
-0.053464103 -0.066202775 -0.17984724
-0.053025432 -0.065881841 -0.18873756
-0.053029135 -0.065964341 -0.18871349
-0.053031474 -0.066046245 -0.18871738
-0.053031642 -0.066123232 -0.18876313
-0.053031672 -0.066202134 -0.18881291
-0.05303245 -0.066283338 -0.18884876
-0.053032517 -0.066360287 -0.18889651
-0.053031478 -0.066438712 -0.18896824
-0.053027507 -0.066515841 -0.18909991
-0.053437848 -0.086278126 -0.19322819
-0.053439818 -0.086363807 -0.19324216
-0.053442642 -0.086445928 -0.19323605
-0.053515758 -0.086399488 -0.19169042
-0.053518448 -0.086483516 -0.19168836
-0.0536776 -0.086530492 -0.18841848
-0.053692229 -0.086588264 -0.18815207
-0.053696305 -0.086666986 -0.18811792
-0.053701628 -0.086742327 -0.18805572
-0.053706132 -0.086819269 -0.18801156
-0.053710148 -0.086895995 -0.18797737
-0.053714357 -0.086972803 -0.18793918
-0.053717844 -0.087051272 -0.18791702
-0.0537211 -0.087131605 -0.1879009
-0.053724002 -0.087209813 -0.18789071
-0.053726673 -0.087289885 -0.18788658
-0.053729538 -0.087370045 -0.18787844
-0.053732205 -0.087450117 -0.1878743
-0.053734485 -0.087530017 -0.18787816
-0.053736821 -0.087611914 -0.18788204
-0.053739198 -0.087691858 -0.18788388
-0.053741381 -0.087771714 -0.18788975
-0.053743619 -0.087853573 -0.18789564
-0.053745858 -0.087935425 -0.18790153
-0.053747609 -0.088017061 -0.18791741
-0.053749267 -0.08809866 -0.18793528
-0.053751312 -0.08818043 -0.18794516
-0.053753491 -0.088260286 -0.18795101
-0.053755965 -0.088340268 -0.18795088
-0.053758107 -0.088422082 -0.18795875
-0.053760055 -0.088503808 -0.18797064
-0.053761806 -0.088585444 -0.18798652
-0.05376346 -0.088667043 -0.1880044
-0.053765312 -0.088748723 -0.18801826
-0.053767353 -0.088830486 -0.18802816
-0.053769536 -0.088910349 -0.188034
-0.053771541 -0.088994071 -0.18804593
-0.053773392 -0.089075759 -0.18805982
-0.053774849 -0.089157261 -0.18808168
-0.053775977 -0.089240596 -0.18811159
-0.053777788 -0.089324236 -0.18812752
-0.053779639 -0.089405909 -0.18814141
-0.053781919 -0.089485809 -0.18814524
-0.05378478 -0.089565977 -0.18813711
-0.053787023 -0.08964783 -0.188143
-0.053789105 -0.08972764 -0.18815084
-0.053791441 -0.089809544 -0.18815474
-0.053793486 -0.089891307 -0.18816462
-0.053795435 -0.089973032 -0.18817651
-0.053797383 -0.090054758 -0.1881884
-0.053799428 -0.090136528 -0.18819827
-0.053802095 -0.090216599 -0.18819413
-0.053805195 -0.090294898 -0.18817997
-0.053807922 -0.090376966 -0.18817586
-0.053810105 -0.090456821 -0.18818171
-0.053812049 -0.090538546 -0.18819359
-0.053813763 -0.090622142 -0.18821153
-0.053815614 -0.090703823 -0.1882254
-0.05381795 -0.090785719 -0.18822929
-0.053819802 -0.0908674 -0.18824318
-0.053821258 -0.09094891 -0.18826506
-0.053823169 -0.091032594 -0.18827897
-0.05382574 -0.091112621 -0.18827683
-0.053827882 -0.091194436 -0.18828472
-0.053829633 -0.091276072 -0.18830059
-0.053831972 -0.091357969 -0.18830448
-0.053834639 -0.09143804 -0.18830034
-0.053837214 -0.091518074 -0.1882982
-0.053839549 -0.091599971 -0.1883021
-0.053841732 -0.091679826 -0.18830794
-0.053844303 -0.091759861 -0.18830581
-0.053846642 -0.091841757 -0.1883097
-0.053848978 -0.091923654 -0.1883136
-0.053851746 -0.09200377 -0.18830746
-0.053854123 -0.092083715 -0.18830931
-0.053856496 -0.09216366 -0.18831116
-0.053859226 -0.092245728 -0.18830708
-0.053861074 -0.092327408 -0.18832093
-0.053862788 -0.092411004 -0.18833888
-0.053864211 -0.092494473 -0.18836278
-0.05386563 -0.092577934 -0.18838669
-0.053867772 -0.092659742 -0.18839459
-0.053870481 -0.092737861 -0.18838841
-0.053873207 -0.092819929 -0.18838429
-0.053875487 -0.092899837 -0.18838815
-0.053877823 -0.092981733 -0.18839204
-0.053880785 -0.093061939 -0.18838191
-0.053883359 -0.093141966 -0.18837978
-0.053885832 -0.093221948 -0.18837962
-0.053888403 -0.093301982 -0.1883775
-0.053890642 -0.093383834 -0.18838337
-0.053892687 -0.093465604 -0.18839327
-0.053895257 -0.093545638 -0.18839112
-0.053897694 -0.09362758 -0.18839301
-0.053899642 -0.093709305 -0.18840489
-0.053901687 -0.093791068 -0.18841478
-0.053903926 -0.093872927 -0.18842068
-0.053906363 -0.093954869 -0.18842258
-0.053908173 -0.094038509 -0.1884385
-0.053909633 -0.094120011 -0.18846038
-0.053911678 -0.094201788 -0.18847024
-0.053914014 -0.094283685 -0.18847415
-0.053917073 -0.094363928 -0.18846202
-0.053919841 -0.094444044 -0.18845588
-0.053922415 -0.094524071 -0.18845375
-0.053924788 -0.094604015 -0.1884556
-0.053926796 -0.094687745 -0.18846753
-0.053929269 -0.094767727 -0.18846738
-0.053932562 -0.094846107 -0.1884492
-0.053935133 -0.094926134 -0.18844707
-0.053937081 -0.095007867 -0.18845895
