# .PCD v0.7 - Point Cloud Data file format
VERSION 0.7
FIELDS x y z
SIZE 4 4 4
TYPE F F F
COUNT 1 1 1
WIDTH 1287
HEIGHT 1
VIEWPOINT 0 0 0 1 0 0 0
POINTS 1287
DATA ascii
-0.032961491 -0.081037626 -0.17662454
-0.032959141 -0.08096163 -0.17662477
-0.032956891 -0.080885686 -0.17662302
-0.032954738 -0.080809779 -0.17661923
-0.032952648 -0.080735877 -0.17661554
-0.032949947 -0.080657758 -0.17662171
-0.032947697 -0.080581814 -0.17661992
-0.0329457 -0.080507949 -0.17661421
-0.032944195 -0.080434315 -0.17659852
-0.032944366 -0.08036536 -0.17655095
-0.032944053 -0.080296203 -0.17651337
-0.032944031 -0.080227166 -0.1764698
-0.032943171 -0.080155782 -0.17644218
-0.032941077 -0.08008188 -0.17643845
-0.032939862 -0.080008365 -0.17641675
-0.032939002 -0.079936981 -0.17638911
-0.032937299 -0.07986325 -0.17637742
-0.032935206 -0.079789355 -0.17637369
-0.032933149 -0.079713494 -0.17636794
-0.032931253 -0.079639673 -0.17636022
-0.032931134 -0.079570599 -0.17631865
-0.03292992 -0.079497084 -0.17629695
-0.032928374 -0.079425395 -0.1762833
-0.032927062 -0.079351842 -0.1762636
-0.032925811 -0.079280287 -0.17624396
-0.032924205 -0.079206601 -0.17623024
-0.032922249 -0.079130784 -0.17622247
-0.032920606 -0.079059057 -0.17621082
-0.032919839 -0.078987718 -0.1761812
-0.032920562 -0.078920983 -0.17612368
-0.0329207 -0.078853995 -0.17607817
-0.03292048 -0.078784868 -0.17603859
-0.032921262 -0.078720137 -0.17598113
-0.032920949 -0.078650974 -0.17594357
-0.03291909 -0.078575201 -0.17593381
-0.03291719 -0.078501381 -0.17592609
-0.032915488 -0.078427657 -0.17591438
-0.032913785 -0.078353927 -0.17590266
-0.032912534 -0.078282371 -0.17588302
-0.032911476 -0.078210898 -0.17585939
-0.032910127 -0.078139298 -0.17584172
-0.03290901 -0.078065827 -0.17581803
-0.0329086 -0.077996626 -0.17578247
-0.034716915 -0.12594748 -0.17796259
-0.034715097 -0.12586975 -0.17795078
-0.034712944 -0.12579384 -0.17794701
-0.034710169 -0.12571964 -0.17795728
-0.034707353 -0.12564738 -0.17796957
-0.034704812 -0.12557131 -0.17797381
-0.034702133 -0.12549713 -0.17798206
-0.034699943 -0.12542319 -0.17798035
-0.034697928 -0.12534538 -0.17797254
-0.034695253 -0.1252712 -0.17798081
-0.034691948 -0.12519874 -0.1780031
-0.034688976 -0.12512444 -0.17801736
-0.034686163 -0.12505218 -0.17802966
-0.034683287 -0.12497793 -0.17804192
-0.034680318 -0.12490364 -0.17805618
-0.034679085 -0.12482617 -0.1780324
-0.034677986 -0.1247468 -0.17800456
-0.03467603 -0.12467098 -0.17799681
-0.034673549 -0.1245969 -0.17800108
-0.034670811 -0.12452073 -0.1780093
-0.034669247 -0.1244451 -0.17799354
-0.034667853 -0.12436559 -0.17797172
-0.034664746 -0.12429321 -0.17799002
-0.034659669 -0.12422585 -0.1780524
-0.034656364 -0.12415338 -0.17807467
-0.034654312 -0.12407753 -0.17806891
-0.034651771 -0.12400145 -0.17807314
-0.03464919 -0.12392733 -0.1780794
-0.034647331 -0.12385155 -0.17806965
-0.034644693 -0.12377544 -0.17807585
-0.034642015 -0.12370127 -0.17808414
-0.034639627 -0.12362723 -0.1780864
-0.034637183 -0.1235512 -0.17808864
-0.034634799 -0.12347717 -0.1780909
-0.034632061 -0.123401 -0.17809913
-0.034629248 -0.12332875 -0.17811143
-0.034627426 -0.12325102 -0.17809963
-0.034626819 -0.12317187 -0.17806181
-0.034625914 -0.12309258 -0.17803
-0.034623668 -0.12301663 -0.17802823
-0.034621086 -0.12294251 -0.17803448
-0.034618739 -0.12286651 -0.17803472
-0.034616157 -0.12279239 -0.178041
-0.03461352 -0.12271627 -0.17804721
-0.034611173 -0.12264028 -0.17804745
-0.034609079 -0.12256638 -0.17804372
-0.034606732 -0.12249039 -0.17804396
-0.034604289 -0.12241436 -0.17804618
-0.034601808 -0.12234028 -0.17805044
-0.034599029 -0.12226607 -0.17806071
-0.034596156 -0.12219182 -0.17807296
-0.034593284 -0.12211756 -0.17808522
-0.034590703 -0.12204345 -0.1780915
-0.034588121 -0.12196932 -0.17809775
-0.034585286 -0.12189311 -0.17810798
-0.034582276 -0.12182077 -0.17812428
-0.034579404 -0.12174652 -0.17813653
-0.034578074 -0.12166901 -0.17811474
-0.034576781 -0.12158954 -0.17809093
-0.034575019 -0.12151381 -0.17807916
-0.034572966 -0.12143796 -0.17807341
-0.034570716 -0.12136202 -0.17807163
-0.034568369 -0.12128602 -0.17807186
-0.034565985 -0.12121199 -0.17807412
-0.034563344 -0.12113587 -0.17808035
-0.034560177 -0.12106149 -0.1780986
-0.034557071 -0.1209891 -0.17811689
-0.03455564 -0.12091155 -0.17809711
-0.034553919 -0.12083386 -0.17808332
-0.034551241 -0.1207597 -0.17809159
-0.034548562 -0.12068553 -0.17809984
-0.034545925 -0.12060941 -0.17810607
-0.03454344 -0.12053534 -0.17811033
-0.034541093 -0.12045934 -0.17811057
-0.034538552 -0.12038326 -0.17811479
-0.034535736 -0.12031101 -0.17812708
-0.034532707 -0.12023471 -0.1781413
-0.034530517 -0.12016077 -0.17813957
-0.034529418 -0.12008139 -0.17811176
-0.034527268 -0.12000549 -0.17810798
-0.034525506 -0.11992976 -0.17809623
-0.03452326 -0.11985382 -0.17809446
-0.034520481 -0.1197796 -0.17810473
-0.034517609 -0.11970536 -0.17811698
-0.034514636 -0.11963106 -0.17813124
-0.034512095 -0.11955498 -0.17813545
-0.034510139 -0.11947916 -0.17812771
-0.034508612 -0.11940157 -0.17810991
-0.034506656 -0.11932576 -0.17810215
-0.034504075 -0.11925163 -0.17810842
-0.034501299 -0.11917742 -0.17811868
-0.034498271 -0.11910113 -0.17813289
-0.034494966 -0.11902866 -0.17815518
-0.034492522 -0.11895262 -0.1781574
-0.034490664 -0.11887685 -0.17814764
-0.034488086 -0.11880273 -0.1781539
-0.034484722 -0.11872826 -0.17817616
-0.03448185 -0.11865401 -0.17818841
-0.034479793 -0.11857814 -0.17818266
-0.034479089 -0.11849894 -0.17814684
-0.03447723 -0.11842317 -0.17813709
-0.034475118 -0.11834531 -0.17813128
-0.034473356 -0.11826959 -0.17811953
-0.034470774 -0.11819547 -0.1781258
-0.034467511 -0.11812104 -0.17814603
-0.034464441 -0.1180467 -0.17816229
-0.034461666 -0.11797249 -0.17817256
-0.034458928 -0.11789633 -0.17818077
-0.034456737 -0.11782238 -0.17817906
-0.034455113 -0.11774474 -0.17816326
-0.034453157 -0.11766892 -0.1781555
-0.03445052 -0.1175928 -0.17816171
-0.034447841 -0.11751863 -0.17816997
-0.034445494 -0.11744265 -0.1781702
-0.034442954 -0.11736657 -0.17817444
-0.034440763 -0.11729262 -0.17817271
-0.03443855 -0.11721472 -0.17816889
-0.034436695 -0.11713895 -0.17815915
-0.034434445 -0.117063 -0.17815737
-0.034431864 -0.11698888 -0.17816365
-0.034430534 -0.11691137 -0.17814186
-0.034429297 -0.11683391 -0.17811808
-0.034426622 -0.11675974 -0.17812634
-0.034423258 -0.11668527 -0.17814858
-0.034420289 -0.11661097 -0.17816284
-0.034417745 -0.1165349 -0.17816705
-0.034415789 -0.11645908 -0.1781593
-0.034413442 -0.11638309 -0.17815953
-0.034410864 -0.11630897 -0.17816579
-0.034408417 -0.11623294 -0.17816803
-0.034405738 -0.11615877 -0.17817628
-0.034402907 -0.11608256 -0.17818651
-0.034400519 -0.11600853 -0.17818877
-0.034398075 -0.11593249 -0.17819101
-0.034395926 -0.1158566 -0.17818724
-0.034393538 -0.11578256 -0.17818952
-0.034389883 -0.11570796 -0.17821774
-0.034387205 -0.11563379 -0.17822599
-0.034384664 -0.11555772 -0.17823023
-0.034381986 -0.11548355 -0.1782385
-0.034379542 -0.11540751 -0.17824072
-0.03437772 -0.11532979 -0.17822891
-0.034377072 -0.11525258 -0.17819315
-0.034376424 -0.11517538 -0.17815739
-0.034374565 -0.11509961 -0.17814764
-0.034372024 -0.11502353 -0.17815185
-0.034369249 -0.11494932 -0.17816211
-0.034366414 -0.11487312 -0.17817232
-0.034363247 -0.11479873 -0.17819059
-0.034360472 -0.11472452 -0.17820084
-0.034358419 -0.11464866 -0.17819509
-0.03435646 -0.11457285 -0.17818731
-0.034354117 -0.11449686 -0.17818755
-0.034351438 -0.11442269 -0.17819582
-0.034348603 -0.11434649 -0.17820603
-0.034346256 -0.11427049 -0.17820626
-0.034343284 -0.1141962 -0.17822051
-0.034340605 -0.11412203 -0.17822878
-0.034337871 -0.11404587 -0.17823699
-0.034334995 -0.11397162 -0.17824925
-0.034332022 -0.11389732 -0.17826352
-0.03432909 -0.11382107 -0.1782757
-0.034326743 -0.11374508 -0.17827594
-0.034324985 -0.11366935 -0.1782642
-0.034323126 -0.11359358 -0.17825444
-0.034321561 -0.11351794 -0.17823869
-0.034319118 -0.11344191 -0.17824093
-0.034315851 -0.11336748 -0.17826116
-0.034313172 -0.11329331 -0.17826943
-0.034311257 -0.11321554 -0.17825963
-0.034308869 -0.11314151 -0.17826191
-0.034306426 -0.11306547 -0.17826413
-0.034304373 -0.11298962 -0.17825836
-0.034302026 -0.11291362 -0.1782586
-0.034299776 -0.11283768 -0.17825682
-0.034298018 -0.11276195 -0.17824507
-0.034295768 -0.11268601 -0.17824331
-0.034293287 -0.11261193 -0.17824757
-0.034290742 -0.11253585 -0.1782518
-0.034288593 -0.11245995 -0.17824802
-0.034286633 -0.11238413 -0.17824027
-0.03428458 -0.11230827 -0.17823452
-0.034281805 -0.11223406 -0.17824477
-0.034278873 -0.11215781 -0.17825699
-0.034277406 -0.11208221 -0.17823923
-0.034276173 -0.11200475 -0.17821544
-0.034274213 -0.11192894 -0.1782077
-0.034271926 -0.11185494 -0.17820796
-0.034269679 -0.111779 -0.17820621
-0.034267429 -0.11170305 -0.17820445
-0.034264889 -0.11162698 -0.17820865
-0.034262445 -0.11155094 -0.17821088
-0.034260586 -0.11147517 -0.17820112
-0.034258492 -0.11140127 -0.17819741
-0.034256145 -0.11132528 -0.17819762
-0.034254093 -0.11124942 -0.17819187
-0.034252271 -0.11117169 -0.17818007
-0.034250375 -0.11109787 -0.17817235
-0.034248419 -0.11102206 -0.1781646
-0.034246169 -0.11094611 -0.17816283
-0.034243334 -0.11086991 -0.17817304
-0.034240756 -0.11079578 -0.17817931
-0.034237724 -0.11071949 -0.17819351
-0.034234364 -0.11064502 -0.17821577
-0.034231979 -0.11057098 -0.17821804
-0.03423211 -0.11049413 -0.1781663
-0.034230195 -0.11041636 -0.1781565
-0.034228198 -0.1103425 -0.17815077
-0.034226671 -0.1102649 -0.17813298
-0.034224521 -0.110189 -0.17812923
-0.03422194 -0.11011488 -0.17813548
-0.034219008 -0.11003862 -0.1781477
-0.034215745 -0.1099642 -0.17816794
-0.034213163 -0.10989007 -0.1781742
-0.034210719 -0.10981404 -0.17817643
-0.034207553 -0.10973966 -0.17819469
-0.034205012 -0.10966358 -0.17819892
-0.034202956 -0.10958772 -0.17819315
-0.034200475 -0.10951365 -0.17819741
-0.034198031 -0.10943761 -0.17819965
-0.034195684 -0.10936162 -0.17819987
-0.03419324 -0.10928559 -0.17820209
-0.034191146 -0.10921168 -0.17819838
-0.0341888 -0.10913569 -0.17819861
-0.034186061 -0.10905953 -0.17820683
-0.03418348 -0.10898541 -0.17821309
-0.034181524 -0.10890959 -0.17820534
-0.034180585 -0.10883226 -0.17817557
-0.034178883 -0.10875853 -0.17816386
-0.034175854 -0.10868224 -0.17817806
-0.034173116 -0.10860607 -0.17818627
-0.034170341 -0.10853186 -0.17819655
-0.0341677 -0.10845574 -0.17820276
-0.034166429 -0.10838023 -0.17818102
-0.034164667 -0.1083045 -0.17816927
-0.034161404 -0.10823008 -0.17818952
-0.034158178 -0.10815369 -0.17820773
-0.034155793 -0.10807966 -0.17820999
-0.034153543 -0.10800371 -0.17820822
-0.0341511 -0.10792768 -0.17821045
-0.034148555 -0.1078516 -0.17821467
-0.034146171 -0.10777757 -0.17821695
-0.034144118 -0.10770171 -0.17821118
-0.03414138 -0.10762554 -0.17821941
-0.034138214 -0.10755116 -0.17823765
-0.034135476 -0.107475 -0.17824587
-0.034133326 -0.10739909 -0.1782421
-0.034132347 -0.10732371 -0.17821437
-0.03413156 -0.10724843 -0.17818265
-0.034129411 -0.10717252 -0.17817888
-0.034127027 -0.10709848 -0.17818116
-0.034124777 -0.10702254 -0.17817938
-0.034122724 -0.10694668 -0.17817363
-0.034120046 -0.10687251 -0.17818189
-0.034117308 -0.10679635 -0.1781901
-0.034114961 -0.10672036 -0.17819034
-0.034112811 -0.10664446 -0.17818657
-0.034110423 -0.10657042 -0.17818885
-0.034107979 -0.10649439 -0.17819107
-0.034105338 -0.10641827 -0.17819729
-0.03410276 -0.10634415 -0.17820355
-0.034100413 -0.10626816 -0.17820379
-0.03409797 -0.10619213 -0.17820601
-0.034095582 -0.10611809 -0.17820829
-0.034093235 -0.1060421 -0.17820852
-0.034090791 -0.10596607 -0.17821074
-0.034088347 -0.10589004 -0.17821297
-0.034086782 -0.10581439 -0.17819722
-0.034085665 -0.10574093 -0.17817353
-0.034084141 -0.10566333 -0.17815574
-0.034082633 -0.10558969 -0.17814003
-0.034081008 -0.10551205 -0.17812423
-0.034079209 -0.10543828 -0.17811453
-0.034077156 -0.10536242 -0.17810877
-0.034074809 -0.10528643 -0.17810899
-0.034072131 -0.10521226 -0.17811725
-0.034069493 -0.10513614 -0.17812347
-0.034066655 -0.10505993 -0.1781337
-0.034063783 -0.10498568 -0.17814595
-0.03406202 -0.10490995 -0.1781342
-0.034059968 -0.10483409 -0.17812845
-0.034057721 -0.10475814 -0.17812666
-0.034055628 -0.10468424 -0.17812294
-0.034053087 -0.10460816 -0.17812717
-0.034050349 -0.104532 -0.1781354
-0.034047961 -0.10445797 -0.17813766
-0.034044836 -0.10438163 -0.17815387
-0.03404161 -0.10430524 -0.17817208
-0.034038834 -0.10423104 -0.17818233
-0.03403756 -0.10415553 -0.17816059
-0.034038145 -0.10408084 -0.17810091
-0.034036972 -0.10400537 -0.17807718
-0.034035012 -0.10392956 -0.17806941
-0.03403214 -0.10385531 -0.17808168
-0.034029208 -0.10377906 -0.17809388
-0.034027152 -0.1037032 -0.17808813
-0.034024514 -0.10362708 -0.17809434
-0.034020763 -0.10355243 -0.17812458
-0.034017928 -0.10347623 -0.17813478
-0.03401646 -0.10340063 -0.17811704
-0.034014951 -0.10332698 -0.17810135
-0.034012996 -0.10325117 -0.17809358
-0.034011237 -0.10317544 -0.17808183
-0.034008361 -0.10310119 -0.17809409
-0.034005135 -0.10302481 -0.1781123
-0.034002986 -0.1029489 -0.17810853
-0.034000736 -0.10287296 -0.17810676
-0.03399796 -0.10279875 -0.17811702
-0.03399542 -0.10272267 -0.17812124
-0.033992875 -0.1026466 -0.17812547
-0.033990238 -0.10257047 -0.17813168
-0.033988573 -0.10249479 -0.17811793
-0.033988435 -0.10242176 -0.17807427
-0.033986382 -0.1023459 -0.17806852
-0.033982962 -0.10226943 -0.17809071
-0.033979796 -0.10219505 -0.17810896
-0.033978131 -0.10211936 -0.17809521
-0.033977542 -0.10204416 -0.17805949
-0.03397584 -0.10197043 -0.17804778
-0.033973299 -0.10189435 -0.17805201
-0.033969779 -0.10181784 -0.17807621
-0.033967335 -0.10174181 -0.17807843
-0.033965245 -0.1016679 -0.17807472
-0.033962898 -0.10159191 -0.17807493
-0.033961039 -0.10151614 -0.17806518
-0.033959083 -0.10144033 -0.17805743
-0.033956442 -0.1013642 -0.17806363
-0.033953667 -0.10129 -0.1780739
-0.033951517 -0.10121409 -0.17807013
-0.033949949 -0.10113845 -0.17805439
-0.033948053 -0.10106464 -0.17804667
-0.033946294 -0.10098891 -0.17803492
-0.033945315 -0.10091352 -0.17800719
-0.033944197 -0.10084006 -0.17798349
-0.033941656 -0.10076398 -0.17798772
-0.033939213 -0.10068795 -0.17798996
-0.033936962 -0.100612 -0.17798819
-0.033934284 -0.10053784 -0.17799646
-0.033931449 -0.10046163 -0.17800665
-0.033929493 -0.10038581 -0.1779989
-0.033928182 -0.10031226 -0.1779792
-0.033926424 -0.10023653 -0.17796746
-0.033924662 -0.1001608 -0.1779557
-0.033922765 -0.10008699 -0.177948
-0.033920027 -0.10001082 -0.17795619
-0.033917386 -0.099934697 -0.17796242
-0.033915039 -0.099858709 -0.17796266
-0.033912752 -0.099784717 -0.17796293
-0.033910114 -0.099708602 -0.17796914
-0.033907961 -0.099632695 -0.17796539
-0.033908214 -0.099559836 -0.17791373
-0.033905964 -0.099483892 -0.17791197
-0.033902347 -0.099407338 -0.17793816
-0.033899672 -0.099333167 -0.17794642
-0.033899374 -0.099258095 -0.17790471
-0.033899628 -0.099185243 -0.17785305
-0.033898551 -0.099109814 -0.17782733
-0.033896457 -0.099035911 -0.1778236
-0.033893917 -0.098959833 -0.17782784
-0.033890396 -0.098883323 -0.17785203
-0.033887267 -0.098806985 -0.17786823
-0.033884142 -0.098730646 -0.17788443
-0.033882245 -0.098656826 -0.17787671
-0.033880778 -0.098581232 -0.17785898
-0.03387833 -0.098505199 -0.17786121
-0.033875752 -0.098431073 -0.17786747
-0.033873696 -0.098355219 -0.17786172
-0.033871353 -0.09827923 -0.17786193
-0.033869006 -0.098203242 -0.17786217
-0.033866461 -0.098127164 -0.1778664
-0.033863686 -0.098052949 -0.17787665
-0.033860948 -0.097976789 -0.17788488
-0.033858504 -0.097900756 -0.1778871
-0.033856452 -0.097824894 -0.17788133
-0.033855531 -0.097751513 -0.17785364
-0.033854708 -0.097678177 -0.17782396
-0.033852752 -0.09760236 -0.17781621
-0.033850893 -0.097526588 -0.17780645
-0.033849292 -0.097452901 -0.17779274
-0.033847433 -0.097377136 -0.17778298
-0.033845339 -0.097303227 -0.17777927
-0.033842601 -0.097227067 -0.17778748
-0.033839278 -0.097150639 -0.17780769
-0.033837225 -0.097074777 -0.17780194
-0.033835463 -0.096999049 -0.17779018
-0.033833373 -0.096925147 -0.17778645
-0.033830635 -0.096848987 -0.17779467
-0.0338278 -0.096772775 -0.17780489
-0.033824869 -0.096696526 -0.17781711
-0.033822913 -0.096620709 -0.17780933
-0.033820819 -0.096546806 -0.17780562
-0.03381779 -0.096470512 -0.17781982
-0.033814855 -0.096394256 -0.17783204
-0.033812314 -0.096318185 -0.17783627
-0.033809967 -0.096242189 -0.17783649
-0.033809245 -0.096168898 -0.17780481
-0.033808127 -0.096095428 -0.17778112
-0.033805974 -0.096019529 -0.17777736
-0.033804566 -0.095945932 -0.17775968
-0.033802904 -0.095870242 -0.17774591
-0.033800166 -0.095794082 -0.17775413
-0.03379694 -0.095717698 -0.17777233
-0.033793617 -0.09564127 -0.17779252
-0.033791076 -0.0955652 -0.17779675
-0.033788923 -0.095489293 -0.177793
-0.033786733 -0.095415346 -0.17779127
-0.033784878 -0.095339574 -0.17778151
-0.033784054 -0.095266238 -0.17775182
-0.033781413 -0.095190115 -0.17775805
-0.033778287 -0.095113777 -0.17777425
-0.033775449 -0.095037572 -0.17778447
-0.033772714 -0.094961405 -0.1777927
-0.03377017 -0.094885327 -0.17779692
-0.033767533 -0.094809212 -0.17780313
-0.033764988 -0.094733134 -0.17780736
-0.033763874 -0.094659664 -0.17778367
-0.033764616 -0.094587028 -0.17772204
-0.033763696 -0.09451364 -0.17769435
-0.033761896 -0.094439872 -0.17768463
-0.033759452 -0.094363838 -0.17768687
-0.033757396 -0.094287977 -0.17768109
-0.0337555 -0.094214164 -0.1776734
-0.033752959 -0.094138086 -0.1776776
-0.033750124 -0.094061874 -0.17768782
-0.033747289 -0.093985669 -0.17769805
-0.033744551 -0.093909502 -0.17770626
-0.033742301 -0.093833558 -0.17770448
-0.033739954 -0.09375757 -0.17770472
-0.033738155 -0.093683794 -0.17769501
-0.033737235 -0.093610413 -0.17766732
-0.033736121 -0.093536943 -0.17764363
-0.033734359 -0.093461215 -0.17763188
-0.033732463 -0.093387403 -0.17762417
-0.033729922 -0.093311325 -0.17762838
-0.033727281 -0.093235202 -0.17763461
-0.033724934 -0.093159214 -0.17763484
-0.033724114 -0.093085878 -0.17760515
-0.033724226 -0.093014933 -0.17755754
-0.03372331 -0.092941552 -0.17752987
-0.033720963 -0.092865564 -0.17753009
-0.033718321 -0.092789441 -0.17753631
-0.033716269 -0.09271358 -0.17753056
-0.03371447 -0.092639811 -0.17752084
-0.033712611 -0.092564039 -0.1775111
-0.033710361 -0.092488088 -0.17750931
-0.033707526 -0.092411883 -0.17751953
-0.0337044 -0.092335545 -0.17753574
-0.033701271 -0.092259206 -0.17755194
-0.033698827 -0.092183173 -0.17755416
-0.033697613 -0.092109665 -0.17753246
-0.033696398 -0.09203615 -0.17751078
-0.033694442 -0.091960333 -0.17750302
-0.03369239 -0.091884479 -0.17749727
-0.033690982 -0.091810875 -0.17747957
-0.033689573 -0.091737278 -0.17746186
-0.03368742 -0.091661379 -0.17745811
-0.033685427 -0.091587514 -0.17745239
-0.033683665 -0.091511786 -0.17744061
-0.033681378 -0.091437794 -0.17744091
-0.033679031 -0.091361806 -0.17744112
-0.033677272 -0.091286078 -0.17742938
-0.033675119 -0.091210172 -0.17742562
-0.033673029 -0.091136269 -0.1774219
-0.033671327 -0.091062546 -0.17741019
-0.033669371 -0.090986729 -0.17740244
-0.033666927 -0.090910695 -0.17740466
-0.03366448 -0.090834662 -0.17740688
-0.033662293 -0.090760715 -0.17740516
-0.033659749 -0.090684637 -0.17740938
-0.033657052 -0.090606518 -0.17741555
-0.033654667 -0.090532482 -0.17741781
-0.033652514 -0.090456575 -0.17741406
-0.033650462 -0.090380721 -0.17740831
-0.033648368 -0.090306818 -0.17740458
-0.033646606 -0.090231091 -0.17739284
-0.033645101 -0.090157449 -0.17737713
-0.033643145 -0.090081632 -0.17736936
-0.033641055 -0.090007722 -0.17736566
-0.033638317 -0.089931563 -0.17737387
-0.033637006 -0.08985801 -0.17735417
-0.033635989 -0.089784585 -0.1773285
-0.033634227 -0.089708857 -0.17731673
-0.033632878 -0.089637257 -0.17729908
-0.03363014 -0.08956109 -0.17730729
-0.033626407 -0.089480534 -0.17733338
-0.033623472 -0.089404285 -0.1773456
-0.033621613 -0.089328513 -0.17733586
-0.03361962 -0.089254655 -0.17733014
-0.033615749 -0.089176014 -0.17736027
-0.033611879 -0.089097366 -0.17739041
-0.033609822 -0.089021511 -0.17738464
-0.033608414 -0.088947907 -0.17736694
-0.033606716 -0.088874184 -0.17735524
-0.033604074 -0.088798061 -0.17736146
-0.033601571 -0.088720031 -0.17736363
-0.033599868 -0.0886463 -0.17735194
-0.033597816 -0.088570438 -0.17734617
-0.033595528 -0.088496447 -0.17734645
-0.033592537 -0.088418201 -0.17735861
-0.03359019 -0.088342212 -0.17735885
-0.033588782 -0.088268608 -0.17734115
-0.033587079 -0.088194884 -0.17732945
-0.033586904 -0.088123806 -0.17728782
-0.033584263 -0.088047683 -0.17729405
-0.033581562 -0.087969564 -0.17730021
-0.033579666 -0.087895751 -0.1772925
-0.03357771 -0.087819934 -0.17728475
-0.033574976 -0.087743767 -0.17729296
-0.033572529 -0.087667733 -0.17729518
-0.033570182 -0.087591745 -0.17729542
-0.033567447 -0.087515578 -0.17730364
-0.033565842 -0.087441891 -0.17728993
-0.033564139 -0.08736816 -0.17727822
-0.033561736 -0.087290183 -0.1772784
-0.033559546 -0.087216228 -0.17727669
-0.033557747 -0.087142453 -0.17726699
-0.03355534 -0.087064467 -0.17726716
-0.033552796 -0.086988389 -0.17727138
-0.033550158 -0.086912274 -0.17727759
-0.033547517 -0.086836152 -0.17728382
-0.033545174 -0.086760163 -0.17728405
-0.033544797 -0.086688995 -0.17724642
-0.033544526 -0.08661788 -0.1772068
-0.033543214 -0.08654432 -0.17718711
-0.033540867 -0.086468332 -0.17718734
-0.03353852 -0.086392343 -0.17718756
-0.033536721 -0.086318567 -0.17717785
-0.033534374 -0.086242579 -0.17717808
-0.033531185 -0.086164244 -0.17719425
-0.033529289 -0.086090423 -0.17718655
-0.033528369 -0.086017042 -0.17715885
-0.033526961 -0.085943446 -0.17714114
-0.033524968 -0.085869581 -0.17713544
-0.033522911 -0.085793726 -0.17712967
-0.033520762 -0.085717827 -0.1771259
-0.033518571 -0.085643873 -0.17712419
-0.033516068 -0.085565843 -0.17712636
-0.033513136 -0.085489593 -0.17713857
-0.033510435 -0.085411474 -0.17714475
-0.033508733 -0.085337743 -0.17713305
-0.033507485 -0.085266188 -0.17711338
-0.033505235 -0.085190244 -0.17711163
-0.033503376 -0.085114472 -0.17710188
-0.033501968 -0.085040867 -0.17708418
-0.033500072 -0.084967054 -0.17707646
-0.033497725 -0.084891066 -0.17707668
-0.033495281 -0.084815033 -0.17707892
-0.033492543 -0.084738865 -0.17708713
-0.03349049 -0.084663004 -0.17708138
-0.033488143 -0.084587023 -0.17708158
-0.033485699 -0.084510982 -0.17708382
-0.033483643 -0.084435128 -0.17707805
-0.033481397 -0.084359184 -0.17707628
-0.0334794 -0.084285319 -0.17707059
-0.033477895 -0.084211677 -0.17705488
-0.033476289 -0.084137991 -0.17704117
-0.03347414 -0.084062092 -0.1770374
-0.033471048 -0.083983794 -0.17705157
-0.033468705 -0.083907805 -0.1770518
-0.033466455 -0.083831862 -0.17705002
-0.033463813 -0.083755739 -0.17705625
-0.033461664 -0.08367984 -0.1770525
-0.033460412 -0.083608277 -0.17703283
-0.033459295 -0.083534814 -0.17700914
-0.033457398 -0.083460994 -0.17700145
-0.033455797 -0.083387308 -0.17698774
-0.033454131 -0.083311625 -0.17697397
-0.033451885 -0.083235681 -0.17697221
-0.033449985 -0.083161861 -0.17696449
-0.033448577 -0.083088264 -0.17694679
-0.033447072 -0.083014622 -0.1769311
-0.033445019 -0.082938761 -0.17692533
-0.033443023 -0.082864903 -0.17691962
-0.033442162 -0.082793519 -0.17689198
-0.033443082 -0.082726881 -0.17683047
-0.033439152 -0.082646236 -0.17686057
-0.033434868 -0.082563467 -0.17689662
-0.033432875 -0.082489602 -0.17689089
-0.033430818 -0.082413748 -0.17688513
-0.033428572 -0.082337797 -0.17688337
-0.033426479 -0.082263894 -0.17687964
-0.033424132 -0.082187906 -0.17687988
-0.033421591 -0.082111828 -0.1768841
-0.03341889 -0.082033709 -0.17689028
-0.033418126 -0.081962369 -0.17686065
-0.033418108 -0.081893332 -0.17681706
-0.033416796 -0.08181978 -0.17679736
-0.033415642 -0.081748269 -0.17677572
-0.033414431 -0.081674755 -0.17675403
-0.033412825 -0.081601068 -0.17674032
-0.033411123 -0.081527337 -0.17672862
-0.033409715 -0.081453741 -0.17671092
-0.033407625 -0.081379838 -0.17670721
-0.033405669 -0.081304021 -0.17669946
-0.033404514 -0.081232511 -0.17667779
-0.033402264 -0.081156567 -0.17667603
-0.033400014 -0.081080616 -0.17667426
-0.033397924 -0.081006713 -0.17667055
-0.033396162 -0.080930986 -0.17665879
-0.03339446 -0.080857255 -0.1766471
-0.033392172 -0.080783263 -0.17664737
-0.033389669 -0.080705233 -0.17664954
-0.033387225 -0.0806292 -0.17665178
-0.033385523 -0.080555469 -0.17664006
-0.033384372 -0.080483958 -0.17661841
-0.033383157 -0.080410443 -0.17659673
-0.03338249 -0.080339149 -0.17656508
-0.033381533 -0.080267727 -0.17653945
-0.033380378 -0.080196217 -0.17651781
-0.033378873 -0.080122568 -0.17650211
-0.033377267 -0.080048881 -0.1764884
-0.033375762 -0.07997524 -0.17647269
-0.033374317 -0.079903595 -0.17645703
-0.033373199 -0.079830132 -0.17643335
-0.033372983 -0.079761006 -0.17639378
-0.03337099 -0.079687148 -0.17638806
-0.033369582 -0.079613551 -0.17637037
-0.033368625 -0.079542123 -0.17634472
-0.033367116 -0.079468481 -0.17632902
-0.033365767 -0.079396881 -0.17631137
-0.033364456 -0.079323329 -0.17629167
-0.033363204 -0.079251766 -0.17627202
-0.033361603 -0.07917808 -0.17625831
-0.033359647 -0.079102263 -0.17625055
-0.033357747 -0.07902845 -0.17624286
-0.033356048 -0.078954719 -0.17623115
-0.033354539 -0.078881077 -0.17621544
-0.033355322 -0.078816347 -0.17615798
-0.033356789 -0.078751922 -0.17608654
-0.033356473 -0.07868275 -0.17604896
-0.033355869 -0.07861346 -0.17601737
-0.0333561 -0.078546509 -0.17596987
-0.033355691 -0.078477301 -0.17593428
-0.033353541 -0.078401402 -0.17593053
-0.033351544 -0.078327537 -0.17592481
-0.033349942 -0.07825385 -0.1759111
-0.033348337 -0.078180164 -0.17589739
-0.033346247 -0.078106262 -0.17589368
-0.033345189 -0.078034788 -0.17587003
-0.033344876 -0.077965625 -0.17583245
-0.035015002 -0.12593317 -0.17795023
-0.035012756 -0.12585722 -0.17794847
-0.035009883 -0.12578297 -0.17796074
-0.035006873 -0.12571062 -0.17797703
-0.035004858 -0.12563281 -0.17796922
-0.0350031 -0.12555708 -0.17795748
-0.035000756 -0.1254811 -0.17795771
-0.034998275 -0.12540701 -0.17796198
-0.0349955 -0.1253328 -0.17797223
-0.034992918 -0.12525868 -0.17797849
-0.03499005 -0.12518443 -0.17799075
-0.03498704 -0.12511209 -0.17800705
-0.034984168 -0.12503783 -0.17801932
-0.034981295 -0.12496358 -0.17803156
-0.034978382 -0.12489128 -0.17804587
-0.034976564 -0.12481356 -0.17803407
-0.034976427 -0.12473066 -0.17798418
-0.034974571 -0.12465489 -0.17797443
-0.034971893 -0.12458073 -0.17798269
-0.034968983 -0.12450843 -0.17799699
-0.034965817 -0.12443405 -0.17801525
-0.034962945 -0.12435979 -0.17802751
-0.034960035 -0.12428749 -0.1780418
-0.034957357 -0.12421333 -0.17805007
-0.034955833 -0.12413573 -0.17803228
-0.034953389 -0.1240597 -0.17803451
-0.034950282 -0.12398732 -0.1780528
-0.03494741 -0.12391306 -0.17806506
-0.034945164 -0.12383711 -0.17806327
-0.034943014 -0.12376121 -0.17805952
-0.034940142 -0.12368696 -0.17807178
-0.03493727 -0.12361271 -0.17808405
-0.034934886 -0.12353867 -0.17808631
-0.034932304 -0.12346455 -0.17809257
-0.034929335 -0.12339026 -0.17810683
-0.034927908 -0.1233127 -0.17808704
-0.034927338 -0.12323159 -0.17804718
-0.034925386 -0.12315577 -0.17803943
-0.034923527 -0.12308 -0.17802967
-0.034922432 -0.12300062 -0.17800185
-0.034920048 -0.12292659 -0.17800412
-0.034917314 -0.12285043 -0.17801234
-0.034914538 -0.12277622 -0.17802259
-0.034911431 -0.12270383 -0.17804089
-0.034908269 -0.12262945 -0.17805913
-0.03490559 -0.12255528 -0.17806742
-0.034903634 -0.12247947 -0.17805964
-0.034902405 -0.122402 -0.17803586
-0.034900781 -0.12232436 -0.17802006
-0.03489824 -0.12224828 -0.17802429
-0.034895428 -0.12217604 -0.1780366
-0.034892693 -0.12209987 -0.17804481
-0.034889486 -0.12202744 -0.17806512
-0.034886088 -0.12195493 -0.1780894
-0.034883216 -0.12188067 -0.17810166
-0.034880247 -0.12180637 -0.1781159
-0.034877043 -0.12173394 -0.1781362
-0.034875222 -0.12165622 -0.1781244
-0.034874812 -0.12157714 -0.17808259
-0.034873523 -0.12149768 -0.17805876
-0.034871664 -0.12142191 -0.178049
-0.034869086 -0.12134778 -0.17805527
-0.034865823 -0.12127336 -0.17807552
-0.034863241 -0.12119924 -0.1780818
-0.034860801 -0.12112321 -0.17808402
-0.034857929 -0.12104896 -0.17809626
-0.034855347 -0.12097483 -0.17810254
-0.034852907 -0.1208988 -0.17810476
-0.03485062 -0.12082481 -0.17810506
-0.034848507 -0.12074695 -0.17809923
-0.034846555 -0.12067114 -0.17809147
-0.034844406 -0.12059523 -0.17808771
-0.034842022 -0.1205212 -0.17808998
-0.034839343 -0.12044703 -0.17809823
-0.034836315 -0.12037073 -0.17811245
-0.034833405 -0.12029844 -0.17812675
-0.034830336 -0.1202241 -0.17814301
-0.034827892 -0.12014806 -0.17814523
-0.034826133 -0.12007234 -0.17813349
-0.034825135 -0.119993 -0.17810366
-0.034822792 -0.11991701 -0.17810389
-0.034820113 -0.11984285 -0.17811215
-0.034817535 -0.11976872 -0.17811841
-0.034815289 -0.11969278 -0.17811665
-0.034812413 -0.11961853 -0.1781289
-0.034809347 -0.11954419 -0.17814516
-0.034806807 -0.11946811 -0.17814937
-0.034804754 -0.11939225 -0.17814362
-0.034802176 -0.11931813 -0.17814988
-0.034799304 -0.11924388 -0.17816214
-0.034796432 -0.11916962 -0.17817441
-0.034794517 -0.11909185 -0.17816459
-0.034792326 -0.11901791 -0.17816287
-0.034789357 -0.11894361 -0.17817712
-0.034786914 -0.11886758 -0.17817935
-0.034784764 -0.11879167 -0.17817558
-0.034782223 -0.1187156 -0.17817982
-0.034779448 -0.11864138 -0.17819007
-0.034776673 -0.11856718 -0.17820033
-0.034776457 -0.11848819 -0.17815453
-0.03477513 -0.11841068 -0.17813274
-0.034773115 -0.11833287 -0.17812495
-0.034770828 -0.11825888 -0.17812522
-0.034768093 -0.11818272 -0.17813343
-0.03476489 -0.11811028 -0.17815372
-0.034761921 -0.11803599 -0.17816797
-0.03475938 -0.11795991 -0.1781722
-0.034756936 -0.11788388 -0.17817444
-0.034755077 -0.1178081 -0.17816468
-0.034753125 -0.11773229 -0.17815691
-0.03475035 -0.11765808 -0.17816716
-0.034747712 -0.11758196 -0.17817339
-0.034745131 -0.11750784 -0.17817965
-0.034742258 -0.11743359 -0.17819193
-0.034739621 -0.11735746 -0.17819813
-0.034737043 -0.11728334 -0.17820442
-0.034734208 -0.11720714 -0.17821461
-0.03473163 -0.11713301 -0.1782209
-0.034729186 -0.11705698 -0.1782231
-0.034728248 -0.11697964 -0.17819333
-0.034727935 -0.11690062 -0.17814952
-0.034725394 -0.11682454 -0.17815375
-0.034722619 -0.11675033 -0.17816402
-0.034720272 -0.11667434 -0.17816424
-0.034718025 -0.1165984 -0.17816249
-0.034715641 -0.11652436 -0.17816475
-0.034712479 -0.11644998 -0.178183
-0.034709215 -0.11637555 -0.17820325
-0.034706242 -0.11630125 -0.1782175
-0.034703176 -0.11622691 -0.17823376
-0.034701124 -0.11615106 -0.17822799
-0.034699209 -0.11607329 -0.17821819
-0.034696728 -0.11599921 -0.17822246
-0.034693852 -0.11592495 -0.17823473
-0.034691315 -0.11584888 -0.17823894
-0.03468883 -0.1157748 -0.1782432
-0.034686096 -0.11569864 -0.17825142
-0.034683321 -0.11562443 -0.17826168
-0.034680448 -0.11555018 -0.17827395
-0.034677617 -0.11547396 -0.17828417
-0.034675132 -0.11539988 -0.17828843
-0.034672827 -0.11532194 -0.17828661
-0.034671888 -0.1152446 -0.17825684
-0.034670815 -0.11516918 -0.17823111
-0.034669094 -0.1150915 -0.17821731
-0.034667138 -0.11501569 -0.17820954
-0.034664597 -0.11493961 -0.17821378
-0.034661531 -0.11486527 -0.17823002
-0.034659244 -0.11479127 -0.17823029
-0.034657132 -0.11471342 -0.17822449
-0.034654945 -0.11463948 -0.17822278
-0.034652308 -0.11456335 -0.17822899
-0.034649629 -0.11448918 -0.17823726
-0.034646697 -0.11441293 -0.17824946
-0.034644354 -0.11433695 -0.17824969
-0.034642067 -0.11426295 -0.17824996
-0.034639724 -0.11418696 -0.17825019
-0.03463636 -0.1141125 -0.17827243
-0.0346331 -0.11403807 -0.17829269
-0.034630556 -0.11396199 -0.17829691
-0.034627683 -0.11388773 -0.17830917
-0.034624755 -0.11381149 -0.17832138
-0.034622468 -0.11373749 -0.17832166
-0.03462071 -0.11366177 -0.1783099
-0.03461846 -0.11358582 -0.17830813
-0.034616213 -0.11350987 -0.17830637
-0.034614492 -0.11343219 -0.17829257
-0.034612402 -0.11335829 -0.17828885
-0.034609374 -0.11328199 -0.17830306
-0.034606598 -0.11320778 -0.17831331
-0.034603961 -0.11313166 -0.17831954
-0.034601383 -0.11305754 -0.1783258
-0.034598939 -0.11298151 -0.17832804
-0.034597863 -0.11290608 -0.17830229
-0.034595557 -0.11282814 -0.17830047
-0.034592684 -0.11275388 -0.17831273
-0.034590341 -0.11267789 -0.17831296
-0.034588482 -0.11260212 -0.17830321
-0.034586333 -0.11252622 -0.17829944
-0.034584183 -0.11245032 -0.17829567
-0.034583636 -0.11237316 -0.17825791
-0.034582503 -0.11229574 -0.17823213
-0.034579299 -0.11222331 -0.17825243
-0.034575544 -0.11214866 -0.17828265
-0.034573495 -0.1120728 -0.1782769
-0.034572359 -0.11199538 -0.17825112
-0.034570698 -0.1119197 -0.17823736
-0.03456806 -0.11184358 -0.17824358
-0.034565773 -0.11176959 -0.17824386
-0.034563527 -0.11169364 -0.17824209
-0.034560986 -0.11161757 -0.17824632
-0.03455874 -0.11154161 -0.17824455
-0.034556393 -0.11146563 -0.17824477
-0.034554206 -0.11139168 -0.17824304
-0.034551274 -0.11131543 -0.17825526
-0.034549613 -0.11123975 -0.17824151
-0.034548089 -0.11116215 -0.17822371
-0.034545705 -0.11108811 -0.17822599
-0.034543164 -0.11101203 -0.17823023
-0.034540817 -0.11093605 -0.17823043
-0.03453853 -0.11086205 -0.17823072
-0.034535989 -0.11078598 -0.17823493
-0.034533646 -0.11070999 -0.17823517
-0.034531593 -0.11063413 -0.17822941
-0.034530226 -0.11055858 -0.17820966
-0.034528758 -0.11048298 -0.17819193
-0.034527 -0.11040725 -0.17818016
-0.034525145 -0.11033148 -0.17817041
-0.034522798 -0.11025549 -0.17817064
-0.034519967 -0.11017928 -0.17818084
-0.034517191 -0.11010507 -0.17819111
-0.034514356 -0.11002886 -0.17820132
-0.034511581 -0.10995466 -0.17821158
-0.034508612 -0.10988036 -0.17822585
-0.034506269 -0.10980437 -0.17822608
-0.034504801 -0.10972877 -0.17820832
-0.034503236 -0.10965313 -0.17819259
-0.034500796 -0.1095771 -0.17819479
-0.034497824 -0.1095028 -0.17820907
-0.034494601 -0.10942642 -0.17822726
-0.034491826 -0.10935221 -0.17823753
-0.034489188 -0.10927609 -0.17824374
-0.03448651 -0.10920192 -0.17825201
-0.034484558 -0.10912611 -0.17824423
-0.034482796 -0.10905038 -0.17823249
-0.034481235 -0.10897474 -0.17821674
-0.034479417 -0.10889701 -0.17820495
-0.034477714 -0.10882328 -0.17819324
-0.03447498 -0.10874712 -0.17820145
-0.034471814 -0.10867273 -0.17821971
-0.034469273 -0.10859665 -0.17822392
-0.034466732 -0.10852058 -0.17822814
-0.034463469 -0.10844615 -0.17824841
-0.034461319 -0.10837025 -0.17824462
-0.034459755 -0.10829461 -0.17822888
-0.034457605 -0.10821871 -0.17822511
-0.034455456 -0.10814281 -0.17822134
-0.034453407 -0.10806695 -0.17821559
-0.034450922 -0.10799287 -0.17821985
-0.034448579 -0.10791688 -0.17822009
-0.034446329 -0.10784093 -0.17821832
-0.03444346 -0.10776668 -0.17823058
-0.034440428 -0.10769038 -0.17824478
-0.03443785 -0.10761626 -0.17825104
-0.034435406 -0.10754023 -0.17825328
-0.034432672 -0.10746406 -0.17826149
-0.034430716 -0.10738825 -0.17825374
-0.034429543 -0.10731278 -0.17822999
-0.034427553 -0.10723892 -0.17822428
-0.034425598 -0.10716311 -0.17821652
-0.03442296 -0.10708699 -0.17822275
-0.034419831 -0.10701065 -0.17823896
-0.034417447 -0.10693661 -0.17824122
-0.0344152 -0.10686067 -0.17823945
-0.034412466 -0.1067845 -0.17824766
-0.034409691 -0.10671029 -0.17825793
-0.034406759 -0.10663404 -0.17827013
-0.034404669 -0.10656013 -0.17826642
-0.034403201 -0.10648454 -0.17824867
-0.034401052 -0.10640863 -0.1782449
-0.034398999 -0.10633278 -0.17823914
-0.034396946 -0.10625692 -0.17823339
-0.034395188 -0.10618119 -0.17822163
-0.034393393 -0.10610741 -0.17821193
-0.034390558 -0.10603121 -0.17822213
-0.034387823 -0.10595504 -0.17823035
-0.034385283 -0.10587897 -0.17823458
-0.034382898 -0.10580494 -0.17823684
-0.034381039 -0.10572916 -0.1782271
-0.034383133 -0.10565318 -0.1781354
-0.034381859 -0.10557767 -0.17811367
-0.034378733 -0.10550133 -0.17812987
-0.034376156 -0.10542721 -0.17813614
-0.034374006 -0.10535131 -0.17813237
-0.034371268 -0.10527514 -0.17814058
-0.034367908 -0.10520067 -0.17816281
-0.034364782 -0.10512433 -0.17817903
-0.034363706 -0.10504891 -0.17815331
-0.034362398 -0.10497536 -0.17813361
-0.034359664 -0.10489919 -0.17814182
-0.034356829 -0.10482298 -0.17815204
-0.034354385 -0.10474695 -0.17815426
-0.034352001 -0.10467292 -0.17815652
-0.034349363 -0.10459679 -0.17816275
-0.034346528 -0.10452059 -0.17817298
-0.034344047 -0.10444651 -0.17817724
-0.034341019 -0.10437021 -0.17819145
-0.03433834 -0.10429604 -0.17819971
-0.034336388 -0.10422023 -0.17819196
-0.034334529 -0.10414446 -0.17818218
-0.034332674 -0.10406869 -0.17817244
-0.034331109 -0.10399304 -0.17815669
-0.034329936 -0.10391758 -0.17813295
-0.034328725 -0.10384407 -0.17811126
-0.034327164 -0.10376843 -0.17809552
-0.034324624 -0.10369235 -0.17809972
-0.034321886 -0.10361619 -0.17810795
-0.034319602 -0.10354219 -0.17810823
-0.034316961 -0.10346607 -0.17811444
-0.034314226 -0.10338991 -0.17812267
-0.034311645 -0.10331579 -0.17812893
-0.034309205 -0.10323975 -0.17813116
-0.034307446 -0.10316402 -0.17811939
-0.034305647 -0.10309026 -0.17810969
-0.034303203 -0.10301422 -0.17811191
-0.034300372 -0.10293801 -0.17812213
-0.034297146 -0.10286163 -0.17814033
-0.034294177 -0.10278733 -0.17815459
-0.03429193 -0.10271139 -0.17815283
-0.03428939 -0.10263531 -0.17815703
-0.034287199 -0.10256136 -0.17815532
-0.034286555 -0.10248416 -0.17811957
-0.034284756 -0.10241038 -0.17810985
-0.034283094 -0.1023347 -0.17809609
-0.034281142 -0.10225888 -0.17808834
-0.034278464 -0.10218472 -0.17809659
-0.034274653 -0.10210808 -0.17812678
-0.034272015 -0.10203195 -0.17813301
-0.034270119 -0.10195814 -0.17812529
-0.034267385 -0.10188197 -0.17813352
-0.034264255 -0.10180563 -0.17814972
-0.034262009 -0.10172969 -0.17814794
-0.034260895 -0.10165622 -0.17812425
-0.034260213 -0.10158098 -0.17809053
-0.034258943 -0.10150547 -0.17806879
-0.034257084 -0.10142969 -0.17805904
-0.034255289 -0.10135592 -0.17804933
-0.03425343 -0.10128015 -0.17803957
-0.034251478 -0.10120434 -0.1780318
-0.034249131 -0.10112834 -0.17803204
-0.034246456 -0.10105418 -0.1780403
-0.034243915 -0.1009781 -0.17804453
-0.034242645 -0.10090259 -0.17802279
-0.034241237 -0.10082899 -0.17800508
-0.034239281 -0.10075317 -0.17799732
-0.034237523 -0.10067745 -0.17798558
-0.03423547 -0.10060159 -0.1779798
-0.034234457 -0.10052817 -0.17795412
-0.034233343 -0.1004547 -0.17793043
-0.034231097 -0.10037875 -0.17792866
-0.034227677 -0.10030228 -0.17795086
-0.034224741 -0.10022603 -0.17796308
-0.034222398 -0.10015004 -0.1779633
-0.034219917 -0.10007596 -0.17796758
-0.034217961 -0.10000014 -0.1779598
-0.034215912 -0.099924289 -0.17795405
-0.034213077 -0.099848077 -0.17796427
-0.034210399 -0.099773914 -0.17797253
-0.034207955 -0.09969788 -0.17797475
-0.034205414 -0.099621803 -0.17797898
-0.03420274 -0.099547639 -0.17798725
-0.03420059 -0.099471733 -0.17798346
-0.034199122 -0.099396139 -0.17796573
-0.034198206 -0.099322759 -0.17793804
-0.034197621 -0.099247552 -0.17790233
-0.034195628 -0.099173695 -0.1778966
-0.034193281 -0.099097699 -0.17789683
-0.034192108 -0.099022239 -0.1778731
-0.034190506 -0.098948553 -0.1778594
-0.034187868 -0.098872431 -0.17786561
-0.034184936 -0.098796174 -0.17787783
-0.034181908 -0.09871988 -0.17789203
-0.034179173 -0.09864372 -0.17790025
-0.034177568 -0.098570034 -0.17788655
-0.034175809 -0.098494306 -0.1778748
-0.034174111 -0.098420575 -0.17786309
-0.034171179 -0.098344326 -0.1778753
-0.034168445 -0.098268159 -0.17788351
-0.034166194 -0.098192215 -0.17788175
-0.034163948 -0.098116264 -0.17787997
-0.034161955 -0.098042406 -0.17787427
-0.034159902 -0.097966544 -0.1778685
-0.034157168 -0.097890384 -0.17787671
-0.03415576 -0.097816788 -0.17785901
-0.034154978 -0.097741492 -0.1778273
-0.034153767 -0.097667977 -0.1778056
-0.034152202 -0.097592339 -0.17778984
-0.034150407 -0.097518563 -0.17778014
-0.034148611 -0.097444795 -0.17777042
-0.034146458 -0.097368889 -0.17776667
-0.03414382 -0.097292773 -0.17777288
-0.034141183 -0.097216651 -0.17777911
-0.03413786 -0.097140223 -0.1777993
-0.034133755 -0.097063452 -0.17783546
-0.034131214 -0.096987374 -0.1778397
-0.034129906 -0.096913815 -0.17782
-0.034128245 -0.096838132 -0.17780626
-0.034125902 -0.096762143 -0.17780648
-0.034123164 -0.096685976 -0.17781469
-0.034120232 -0.096609727 -0.17782691
-0.034117848 -0.09653569 -0.17782918
-0.034115113 -0.09645953 -0.1778374
-0.03411267 -0.096383497 -0.17783964
-0.034110814 -0.096307725 -0.17782986
-0.034108821 -0.09623386 -0.17782414
-0.03410716 -0.096158177 -0.1778104
-0.034106143 -0.096084751 -0.17778471
-0.034105029 -0.096011288 -0.17776102
-0.034102879 -0.095935382 -0.17775726
-0.034099557 -0.095858961 -0.17777747
-0.034096431 -0.095782615 -0.17779365
-0.034093343 -0.095704325 -0.17780782
-0.034090176 -0.095629945 -0.17782608
-0.034088224 -0.095554128 -0.17781831
-0.034086466 -0.095478401 -0.17780656
-0.034083985 -0.095404319 -0.17781082
-0.034081187 -0.095326155 -0.177819
-0.034078903 -0.095252164 -0.17781928
-0.034076557 -0.095176175 -0.17781951
-0.034074407 -0.095100276 -0.17781574
-0.034072161 -0.095024325 -0.17781398
-0.034069814 -0.094948336 -0.1778142
-0.034067038 -0.094874129 -0.17782447
-0.034063756 -0.094795749 -0.17784262
-0.034060825 -0.094719499 -0.17785484
-0.034058634 -0.094645545 -0.17785311
-0.0340585 -0.094572514 -0.17780945
-0.034058753 -0.094499663 -0.17775778
-0.03405631 -0.094423622 -0.17776002
-0.034054611 -0.094349898 -0.17774832
-0.034052461 -0.094273992 -0.17774455
-0.034049824 -0.094197869 -0.17775077
-0.034047928 -0.094124056 -0.17774305
-0.034045584 -0.094048068 -0.17774329
-0.034042396 -0.093969733 -0.17775944
-0.034039173 -0.093893349 -0.17777765
-0.034037024 -0.093817443 -0.17777386
-0.034036946 -0.093746409 -0.17773026
-0.034036517 -0.093673244 -0.17769259
-0.034034465 -0.09359739 -0.17768684
-0.034032274 -0.093523443 -0.17768511
-0.034029733 -0.093447365 -0.17768934
-0.03402739 -0.093371376 -0.17768955
-0.03402647 -0.093297996 -0.17766188
-0.034025554 -0.093224615 -0.17763419
-0.034022916 -0.093148492 -0.17764041
-0.034021214 -0.093074761 -0.17762871
-0.034020592 -0.093001515 -0.17759502
-0.034019381 -0.092928 -0.17757332
-0.034017719 -0.092852317 -0.17755958
-0.034015335 -0.09277828 -0.17756185
-0.034013674 -0.092702597 -0.17754811
-0.03401256 -0.092629135 -0.17752442
-0.03401076 -0.092555359 -0.1775147
-0.03400832 -0.092479326 -0.17751694
-0.034005485 -0.092403114 -0.17752714
-0.034003433 -0.092327259 -0.17752138
-0.03400109 -0.092251271 -0.17752162
-0.033998158 -0.092175014 -0.17753381
-0.033995323 -0.09209881 -0.17754403
-0.033992879 -0.092022777 -0.17754626
-0.033991024 -0.091947004 -0.1775365
-0.033990007 -0.091873579 -0.17751081
-0.033988502 -0.091799937 -0.17749512
-0.033985961 -0.091723859 -0.17749934
-0.033983774 -0.091649912 -0.17749763
-0.033981919 -0.09157414 -0.17748785
-0.033979669 -0.091498196 -0.17748609
-0.033977777 -0.091424376 -0.17747837
-0.033976406 -0.091348827 -0.17745864
-0.033975255 -0.091277309 -0.17743699
-0.033973888 -0.09120176 -0.17741725
-0.033972677 -0.091128245 -0.17739555
-0.03397039 -0.091054253 -0.17739582
-0.033967495 -0.090976045 -0.17740598
-0.033963785 -0.090899445 -0.17743418
-0.033960499 -0.090821065 -0.17745234
-0.033957668 -0.09074486 -0.17746255
-0.033954833 -0.090668648 -0.17747277
-0.033952292 -0.090592578 -0.17747699
-0.033950984 -0.090519018 -0.17745729
-0.033950649 -0.090445898 -0.17741764
-0.033949792 -0.090374514 -0.17738998
-0.03394774 -0.09029866 -0.17738423
-0.033944905 -0.090222448 -0.17739445
-0.033942364 -0.090146378 -0.17739865
-0.033939924 -0.090070337 -0.17740089
-0.033937577 -0.089994349 -0.17740113
-0.033936366 -0.089920841 -0.17737943
-0.033935547 -0.089847505 -0.17734975
-0.033934042 -0.089773864 -0.17733404
-0.03393244 -0.089700177 -0.17732033
-0.033930194 -0.089624226 -0.17731857
-0.033927359 -0.089548022 -0.17732878
-0.033924524 -0.08947181 -0.17733899
-0.033921435 -0.089393519 -0.17735314
-0.033919543 -0.089319706 -0.17734545
-0.033918329 -0.089246191 -0.17732376
-0.033915889 -0.089170158 -0.17732598
-0.033912018 -0.089091517 -0.17735611
-0.033909477 -0.089015439 -0.17736034
-0.033907328 -0.088939533 -0.17735657
-0.033905372 -0.088863723 -0.17734882
-0.033903185 -0.088789776 -0.17734709
-0.033900585 -0.088711694 -0.17735127
-0.033898298 -0.088637702 -0.17735153
-0.033895601 -0.088559583 -0.17735772
-0.033892669 -0.088483334 -0.17736992
-0.033889737 -0.088407084 -0.17738214
-0.033886746 -0.088328831 -0.1773943
-0.033884853 -0.088255018 -0.17738658
-0.033884678 -0.088183939 -0.17734498
-0.033884406 -0.088112816 -0.17730536
-0.033882253 -0.088036917 -0.17730159
-0.033880398 -0.087961145 -0.17729184
-0.033879049 -0.087889545 -0.17727418
-0.03387567 -0.08781112 -0.17729433
-0.033872191 -0.08773265 -0.17731649
-0.03386965 -0.087656572 -0.1773207
-0.033867501 -0.087580673 -0.17731693
-0.033865348 -0.087504774 -0.17731318
-0.033863649 -0.087431043 -0.17730147
-0.033862635 -0.087357618 -0.17727578
-0.033861227 -0.087284021 -0.17725807
-0.033859331 -0.087210201 -0.17725036
-0.033856791 -0.087134123 -0.17725459
-0.033853799 -0.087055877 -0.17726675
-0.033850968 -0.086979665 -0.17727697
-0.03384833 -0.086903542 -0.1772832
-0.033846177 -0.086827643 -0.17727941
-0.033845514 -0.086756349 -0.17724779
-0.033844303 -0.086682834 -0.1772261
-0.033842996 -0.086609282 -0.1772064
-0.033841688 -0.086535722 -0.1771867
-0.033840083 -0.086462036 -0.177173
-0.033838972 -0.086388573 -0.17714931
-0.03383727 -0.086314842 -0.17713761
-0.033835024 -0.086238898 -0.17713583
-0.033833422 -0.086165212 -0.17712212
-0.033831175 -0.086089268 -0.17712036
-0.033828244 -0.086013012 -0.17713258
-0.03382574 -0.085934982 -0.17713475
-0.033824433 -0.08586143 -0.17711505
-0.033823024 -0.085787825 -0.17709735
-0.033821423 -0.085714139 -0.17708366
-0.033818979 -0.085638106 -0.17708588
-0.033815503 -0.085559636 -0.17710802
-0.033812217 -0.085481256 -0.1771262
-0.033809483 -0.085405096 -0.17713441
-0.033807136 -0.085329108 -0.17713463
-0.033805437 -0.085255377 -0.17712292
-0.033804126 -0.085181825 -0.17710322
-0.033802722 -0.085108221 -0.17708553
-0.03380112 -0.085034534 -0.17707182
-0.033799164 -0.084958725 -0.17706406
-0.033796526 -0.084882602 -0.17707029
-0.033793788 -0.084806435 -0.17707852
-0.033791348 -0.084730402 -0.17708072
-0.033788454 -0.0846522 -0.1770909
-0.03378601 -0.08457616 -0.17709312
-0.033784408 -0.084502473 -0.17707941
-0.033782806 -0.084428787 -0.1770657
-0.033781108 -0.084355056 -0.177054
-0.033779349 -0.084279329 -0.17704225
-0.033777453 -0.084205516 -0.17703453
-0.033775557 -0.084131703 -0.17702682
-0.03377296 -0.084053621 -0.177031
-0.033769481 -0.083975159 -0.17705315
-0.03376678 -0.083897039 -0.17705932
-0.033764593 -0.083823085 -0.17705759
-0.03376215 -0.083747059 -0.17705983
-0.033759356 -0.083668895 -0.177068
-0.033758301 -0.083597422 -0.17704436
-0.033757832 -0.083526216 -0.17700872
-0.033755291 -0.083450139 -0.17701295
-0.033753142 -0.083374232 -0.1770092
-0.033752285 -0.083302855 -0.17698154
-0.033751365 -0.083229475 -0.17695385
-0.033749469 -0.083155654 -0.17694615
-0.033747319 -0.083079755 -0.17694238
-0.033745132 -0.083005808 -0.17694066
-0.033742532 -0.082927734 -0.17694484
-0.033739444 -0.082849436 -0.17695899
-0.033737198 -0.082773492 -0.17695722
-0.033736043 -0.082701981 -0.17693558
-0.033735186 -0.082630597 -0.17690794
-0.033733681 -0.082556956 -0.17689224
-0.033731826 -0.082481183 -0.17688249
-0.033729929 -0.08240737 -0.17687477
-0.033727586 -0.082331374 -0.176875
-0.033725046 -0.082255296 -0.17687923
-0.033722699 -0.082179308 -0.17687947
-0.033720452 -0.082103364 -0.17687768
-0.0337184 -0.082027502 -0.17687193
-0.033717636 -0.081956163 -0.17684229
-0.033717815 -0.081887215 -0.17679472
-0.033716567 -0.08181566 -0.17677508
-0.033714317 -0.081739716 -0.17677331
-0.033711974 -0.081663728 -0.17677353
-0.033710372 -0.081590042 -0.17675984
-0.033708669 -0.081516311 -0.17674813
-0.033706326 -0.081440322 -0.17674835
-0.033703979 -0.081364334 -0.17674857
-0.033702672 -0.081290774 -0.17672887
-0.033702008 -0.081219479 -0.17669725
-0.033700563 -0.081147835 -0.17668161
-0.03369851 -0.081071973 -0.17667583
-0.033696715 -0.080998205 -0.17666613
-0.033695012 -0.080924474 -0.17665441
-0.033692863 -0.080848575 -0.17665064
-0.03369087 -0.08077471 -0.17664494
-0.033689015 -0.080698937 -0.17663518
-0.033686668 -0.080622956 -0.1766354
-0.033684421 -0.080547005 -0.17663363
