# .PCD v0.7 - Point Cloud Data file format
VERSION 0.7
FIELDS x y z
SIZE 4 4 4
TYPE F F F
COUNT 1 1 1
WIDTH 1269
HEIGHT 1
VIEWPOINT 0 0 0 1 0 0 0
POINTS 1269
DATA ascii
-0.039951045 -0.08838173 -0.17768379
-0.039948657 -0.088307694 -0.17768607
-0.039946117 -0.088231616 -0.1776903
-0.039943669 -0.088155583 -0.17769252
-0.039941087 -0.088081464 -0.17769879
-0.039939031 -0.088005602 -0.17769304
-0.039937504 -0.087928005 -0.17767525
-0.039935838 -0.087852322 -0.17766151
-0.039934311 -0.087774724 -0.17764372
-0.039932057 -0.08769878 -0.17764196
-0.039929517 -0.087622702 -0.17764618
-0.039927363 -0.087546796 -0.17764241
-0.03992527 -0.087472893 -0.17763869
-0.039922629 -0.087396778 -0.17764491
-0.039920475 -0.087320872 -0.17764115
-0.03991852 -0.087245055 -0.1776334
-0.039916072 -0.087169021 -0.17763564
-0.039913394 -0.087094858 -0.1776439
-0.039910946 -0.087018825 -0.17764613
-0.039908461 -0.086944744 -0.17765039
-0.039905917 -0.086868666 -0.17765462
-0.039903767 -0.086792767 -0.17765087
-0.039901417 -0.086716779 -0.17765111
-0.039898932 -0.086642697 -0.17765537
-0.039896291 -0.086566582 -0.1776616
-0.039894432 -0.08649081 -0.17765184
-0.039892904 -0.086413212 -0.17763405
-0.039891239 -0.086337522 -0.17762029
-0.039889809 -0.086259976 -0.17760052
-0.039887849 -0.086184159 -0.17759275
-0.039885171 -0.086109988 -0.17760104
-0.039882433 -0.086033829 -0.17760925
-0.039880142 -0.085959837 -0.17760952
-0.03987832 -0.085882112 -0.17759773
-0.039875738 -0.085807987 -0.17760399
-0.039872378 -0.085733518 -0.17762625
-0.039870027 -0.08565753 -0.17762649
-0.039868459 -0.085581884 -0.17761074
-0.039866835 -0.085504249 -0.17759493
-0.039864447 -0.085430212 -0.17759721
-0.039861612 -0.085354 -0.17760743
-0.039859325 -0.085280016 -0.17760772
-0.039857171 -0.08520411 -0.17760396
-0.039854918 -0.085128166 -0.17760219
-0.039852764 -0.085052259 -0.17759843
-0.039850321 -0.084976226 -0.17760065
-0.039847933 -0.084902197 -0.17760292
-0.039846309 -0.084824555 -0.17758714
-0.039846186 -0.084745616 -0.17753935
-0.039845731 -0.084668495 -0.17749959
-0.039844066 -0.084592804 -0.17748584
-0.039841093 -0.084518515 -0.1775001
-0.039838746 -0.084442526 -0.17750034
-0.03983669 -0.084366664 -0.17749457
-0.039834049 -0.084290542 -0.1775008
-0.039831564 -0.084216468 -0.17750508
-0.039829411 -0.084140562 -0.17750131
-0.039826967 -0.084064528 -0.17750353
-0.039825007 -0.083988711 -0.17749578
-0.039823245 -0.083912984 -0.17748402
-0.039821617 -0.083835348 -0.17746824
-0.03982015 -0.083759747 -0.17745049
-0.039818484 -0.083684064 -0.17743674
-0.039816234 -0.083608121 -0.17743498
-0.039813984 -0.083532169 -0.17743322
-0.039811734 -0.083456226 -0.17743145
-0.039809443 -0.083382234 -0.17743173
-0.039807193 -0.08330629 -0.17742997
-0.039805628 -0.083230644 -0.17741422
-0.039805993 -0.083151922 -0.17735645
-0.039805673 -0.083072893 -0.17731264
-0.039803579 -0.082998991 -0.17730893
-0.039802246 -0.082921475 -0.17728715
-0.039801169 -0.082846053 -0.17726141
-0.039799016 -0.082770154 -0.17725766
-0.039796043 -0.082695857 -0.17727192
-0.039792776 -0.082621425 -0.17729217
-0.039790194 -0.082547307 -0.17729843
-0.039788961 -0.082469843 -0.17727464
-0.039787918 -0.082392462 -0.17724687
-0.039786451 -0.082316861 -0.17722914
-0.039784983 -0.082241267 -0.17721139
-0.039782926 -0.082165405 -0.17720564
-0.039780382 -0.082089327 -0.17720987
-0.039778091 -0.082015336 -0.17721015
-0.039775744 -0.081939347 -0.17721038
-0.03977336 -0.081865318 -0.17721266
-0.039771207 -0.081789412 -0.17720889
-0.039770849 -0.081712335 -0.17716712
-0.039771311 -0.081633657 -0.17710736
-0.039770331 -0.081558272 -0.17707963
-0.039768275 -0.081482418 -0.17707387
-0.039766904 -0.081406862 -0.17705414
-0.039765473 -0.081329308 -0.17703435
-0.03976338 -0.081255406 -0.17703064
-0.039760835 -0.081179328 -0.17703485
-0.039759368 -0.081103727 -0.17701712
-0.039758191 -0.081028268 -0.17699338
-0.039755844 -0.080952272 -0.17699361
-0.039753258 -0.080878153 -0.17699988
-0.039752025 -0.080800682 -0.1769761
-0.039751571 -0.080723569 -0.17693634
-0.039750159 -0.080649972 -0.17691866
-0.039747421 -0.080573805 -0.17692688
-0.039745364 -0.080497943 -0.17692111
-0.039743993 -0.080422394 -0.17690137
-0.039742231 -0.080346659 -0.17688963
-0.03973965 -0.08027254 -0.17689589
-0.039737165 -0.080198459 -0.17690018
-0.039736319 -0.080121174 -0.17686841
-0.038466506 -0.05445721 -0.18683222
-0.038467694 -0.054386739 -0.18676265
-0.038469762 -0.054316662 -0.1866751
-0.038470402 -0.054243974 -0.18661547
-0.038469851 -0.054166816 -0.18657771
-0.038469005 -0.054089524 -0.18654594
-0.038469255 -0.054016665 -0.18649429
-0.038468312 -0.053939328 -0.18646452
-0.038466983 -0.053861819 -0.18644273
-0.038465295 -0.05378218 -0.18642689
-0.038463376 -0.053704407 -0.1864171
-0.038461201 -0.053624555 -0.18641123
-0.038458578 -0.053542525 -0.18641333
-0.038456306 -0.053462621 -0.18640947
-0.038453683 -0.053380594 -0.18641156
-0.038451411 -0.053300694 -0.18640772
-0.038449042 -0.053220749 -0.18640585
-0.038446575 -0.053140763 -0.18640599
-0.03844405 -0.053058781 -0.18640608
-0.038441233 -0.05297666 -0.18641217
-0.038438376 -0.0528965 -0.18642029
-0.038435459 -0.052814342 -0.18642837
-0.038432345 -0.052732095 -0.18644045
-0.038428884 -0.052647717 -0.18645847
-0.038425967 -0.05256556 -0.18646656
-0.038423304 -0.052485488 -0.18647069
-0.038420584 -0.052403413 -0.18647477
-0.038417667 -0.052321255 -0.18648285
-0.03841475 -0.052239094 -0.18649095
-0.03841193 -0.052156977 -0.18649702
-0.038409367 -0.052076951 -0.18649916
-0.038406156 -0.051994659 -0.18651325
-0.038402595 -0.05191024 -0.18653324
-0.038398545 -0.051825602 -0.18656325
-0.038394984 -0.051741183 -0.18658328
-0.038391128 -0.051656634 -0.18660928
-0.038387079 -0.051571999 -0.18663928
-0.038384553 -0.051490009 -0.18663938
-0.038382087 -0.051410027 -0.18663952
-0.038379014 -0.051325824 -0.18664955
-0.038376193 -0.051243708 -0.18665564
-0.038372986 -0.051161416 -0.18666971
-0.038369618 -0.051077086 -0.18668573
-0.038366605 -0.05099488 -0.18669581
-0.038363785 -0.050912768 -0.18670189
-0.038361415 -0.050832823 -0.18670003
-0.038358793 -0.050750796 -0.18670213
-0.038356073 -0.05066872 -0.18670622
-0.038353898 -0.050588865 -0.18670036
-0.038352113 -0.050509185 -0.18668652
-0.038349353 -0.050429065 -0.18669266
-0.038345892 -0.050344691 -0.18671067
-0.038342781 -0.050262444 -0.18672276
-0.038339961 -0.050180323 -0.18672884
-0.038336791 -0.05009608 -0.18674086
-0.038334321 -0.050016094 -0.18674099
-0.038331054 -0.049931806 -0.18675503
-0.038328137 -0.049849648 -0.18676311
-0.038326159 -0.049769878 -0.18675326
-0.038324375 -0.049690194 -0.18673941
-0.038321361 -0.049607992 -0.18674949
-0.038318153 -0.049525701 -0.18676357
-0.038315821 -0.049443804 -0.18675968
-0.038313452 -0.049363863 -0.1867578
-0.038310632 -0.049281746 -0.1867639
-0.038308267 -0.049201801 -0.18676203
-0.038306385 -0.049122076 -0.1867502
-0.038303956 -0.049040131 -0.1867483
-0.038301136 -0.048958018 -0.18675438
-0.038298417 -0.048875943 -0.18675846
-0.03829585 -0.048795916 -0.1867606
-0.038293228 -0.048713885 -0.18676269
-0.038290411 -0.048631769 -0.18676877
-0.038287394 -0.048549566 -0.18677884
-0.038284224 -0.048465323 -0.18679088
-0.038281113 -0.048383072 -0.18680295
-0.038278587 -0.048301093 -0.18680304
-0.038276706 -0.048221365 -0.18679121
-0.038275175 -0.048143767 -0.18677342
-0.0382732 -0.048063997 -0.18676357
-0.038271025 -0.047984142 -0.18675771
-0.03826895 -0.047904328 -0.18674988
-0.038266715 -0.047822475 -0.18674397
-0.038263056 -0.047738012 -0.18676598
-0.038259689 -0.047653679 -0.186782
-0.038257223 -0.047573693 -0.18678215
-0.038254794 -0.047491752 -0.18678024
-0.038252268 -0.047409765 -0.18678033
-0.038249254 -0.047327563 -0.18679041
-0.03824579 -0.047243185 -0.18680844
-0.038242973 -0.047161072 -0.18681452
-0.038240701 -0.047081172 -0.18681067
-0.038237628 -0.046996966 -0.1868207
-0.038234357 -0.046912678 -0.18683472
-0.038230151 -0.046826001 -0.18686669
-0.038227882 -0.046746101 -0.18686283
-0.0382259 -0.046666332 -0.18685298
-0.038223825 -0.046586521 -0.18684512
-0.038221397 -0.046504579 -0.18684322
-0.038218323 -0.046420377 -0.18685326
-0.038215213 -0.04633813 -0.18686533
-0.038213138 -0.046258315 -0.18685749
-0.038211353 -0.046178635 -0.18684363
-0.038208634 -0.046096563 -0.18684773
-0.038206458 -0.046016708 -0.18684188
-0.038204577 -0.045936979 -0.18683004
-0.038202111 -0.045856994 -0.18683016
-0.038199332 -0.045772921 -0.18683422
-0.038196862 -0.045692936 -0.18683437
-0.038194533 -0.045611039 -0.18683046
-0.038192362 -0.04553118 -0.18682459
-0.040067412 -0.092811413 -0.17808743
-0.040066704 -0.092732206 -0.17805162
-0.04006613 -0.092651092 -0.17801178
-0.040064212 -0.092573322 -0.17800197
-0.040062256 -0.092497505 -0.17799421
-0.040060297 -0.092421688 -0.17798644
-0.04005795 -0.0923457 -0.17798668
-0.040054351 -0.092273101 -0.17801496
-0.040052101 -0.09219715 -0.17801321
-0.040050242 -0.092121385 -0.17800346
-0.040048614 -0.092043743 -0.17798766
-0.040046599 -0.091965929 -0.17797986
-0.040044017 -0.09189181 -0.17798613
-0.04004157 -0.09181577 -0.17798835
-0.040039614 -0.091739953 -0.1779806
-0.040037654 -0.091664143 -0.17797285
-0.040035736 -0.091586366 -0.17796305
-0.040033776 -0.091510557 -0.1779553
-0.040031236 -0.091434479 -0.17795952
-0.04002836 -0.091360226 -0.17797178
-0.040025681 -0.091286063 -0.17798005
-0.04002304 -0.091209941 -0.17798626
-0.040024787 -0.09112592 -0.17789641
-0.040023591 -0.091046497 -0.17787057
-0.040021107 -0.090972416 -0.17787485
-0.040018857 -0.090896472 -0.17787308
-0.0400168 -0.090820611 -0.17786732
-0.040014453 -0.090744622 -0.17786756
-0.040012203 -0.090668678 -0.1778658
-0.040009756 -0.090592645 -0.17786802
-0.040006746 -0.0905203 -0.17788433
-0.040004008 -0.090444133 -0.17789255
-0.040001854 -0.090368234 -0.17788878
-0.039999992 -0.090292461 -0.17787904
-0.039998073 -0.090214692 -0.17786923
-0.03999602 -0.090138838 -0.17786348
-0.03999367 -0.090062842 -0.1778637
-0.039991286 -0.089988813 -0.17786598
-0.03998917 -0.089910954 -0.17786017
-0.039986782 -0.089836918 -0.17786245
-0.039984629 -0.089761019 -0.17785868
-0.039985597 -0.089676641 -0.1777848
-0.039984226 -0.089601085 -0.17776506
-0.039982013 -0.089523181 -0.17776126
-0.039979823 -0.089449242 -0.17775953
-0.039977476 -0.089373246 -0.17775977
-0.039975226 -0.089297302 -0.17775799
-0.039973989 -0.089219838 -0.17773423
-0.039972071 -0.089142069 -0.17772442
-0.039969683 -0.089068033 -0.17772669
-0.039967336 -0.088992044 -0.17772692
-0.039965708 -0.088914402 -0.17771113
-0.039964475 -0.088836938 -0.17768735
-0.039962418 -0.088761076 -0.1776816
-0.039959971 -0.088685043 -0.17768383
-0.039957877 -0.088611141 -0.1776801
-0.039955433 -0.088535108 -0.17768234
-0.039952889 -0.08845903 -0.17768657
-0.039950736 -0.088383123 -0.1776828
-0.039948348 -0.088309094 -0.17768508
-0.039945804 -0.088233016 -0.17768931
-0.03994336 -0.088156983 -0.17769153
-0.039940778 -0.088082857 -0.17769781
-0.039938722 -0.088007003 -0.17769204
-0.039937194 -0.087929405 -0.17767426
-0.039935529 -0.087853722 -0.17766052
-0.039934002 -0.087776124 -0.17764273
-0.039931748 -0.087700173 -0.17764097
-0.039929207 -0.087624103 -0.17764519
-0.039926954 -0.087548152 -0.17764342
-0.039924961 -0.087474294 -0.1776377
-0.039922319 -0.087398171 -0.17764392
-0.039920166 -0.087322272 -0.17764017
-0.039918207 -0.087246455 -0.17763242
-0.039915763 -0.087170422 -0.17763466
-0.039913081 -0.087096259 -0.17764291
-0.039910637 -0.087020218 -0.17764515
-0.039908152 -0.086946145 -0.17764941
-0.039905608 -0.086870067 -0.17765364
-0.039903454 -0.086794168 -0.17764989
-0.039901108 -0.086718172 -0.17765012
-0.039898623 -0.086644098 -0.17765439
-0.039895982 -0.086567976 -0.17766061
-0.039894022 -0.086492158 -0.17765285
-0.039892495 -0.086414561 -0.17763507
-0.039890926 -0.086338922 -0.17761932
-0.039889496 -0.086261369 -0.17759953
-0.03988754 -0.086185552 -0.17759177
-0.039884858 -0.086111389 -0.17760006
-0.03988212 -0.086035229 -0.17760827
-0.039879832 -0.085961238 -0.17760855
-0.039878011 -0.085883506 -0.17759675
-0.039875526 -0.085809432 -0.17760101
-0.039872065 -0.085734919 -0.17762527
-0.039869718 -0.085658923 -0.17762551
-0.03986815 -0.085583284 -0.17760976
-0.039866522 -0.085505642 -0.17759396
-0.039864041 -0.085431568 -0.17759824
-0.039861299 -0.085355401 -0.17760646
-0.039859012 -0.085281409 -0.17760673
-0.039856859 -0.08520551 -0.17760298
-0.039854608 -0.085129559 -0.17760122
-0.039852455 -0.08505366 -0.17759745
-0.039850008 -0.084977627 -0.17759967
-0.039847624 -0.08490359 -0.17760195
-0.039845996 -0.084825955 -0.17758615
-0.039845776 -0.084746964 -0.17754036
-0.039845321 -0.084669851 -0.17750061
-0.039843753 -0.084594205 -0.17748487
-0.03984078 -0.084519908 -0.17749912
-0.039838336 -0.084443875 -0.17750135
-0.039836377 -0.084368065 -0.1774936
-0.039833736 -0.084291942 -0.17749983
-0.039831251 -0.084217861 -0.17750409
-0.039829098 -0.084141962 -0.17750034
-0.039826654 -0.084065929 -0.17750256
-0.039824694 -0.083990112 -0.17749479
-0.039822932 -0.083914384 -0.17748305
-0.039821267 -0.083838701 -0.17746931
-0.039819837 -0.083761148 -0.17744952
-0.039818175 -0.083685458 -0.17743577
-0.039816022 -0.083609559 -0.17743202
-0.039813671 -0.08353357 -0.17743224
-0.039811421 -0.083457619 -0.17743048
-0.03980913 -0.083383635 -0.17743076
-0.03980688 -0.083307683 -0.17742899
-0.039805315 -0.083232045 -0.17741325
-0.039805584 -0.083153278 -0.17735747
-0.03980536 -0.083074287 -0.17731166
-0.03980317 -0.08300034 -0.17730996
-0.039801933 -0.082922876 -0.17728618
-0.039800856 -0.082847454 -0.17726044
-0.039798703 -0.082771547 -0.17725669
-0.03979573 -0.08269725 -0.17727093
-0.039792463 -0.082622826 -0.17729118
-0.039789882 -0.082548708 -0.17729747
-0.039788648 -0.082471237 -0.17727369
-0.039787605 -0.082393862 -0.17724591
-0.039786138 -0.082318261 -0.17722817
-0.039784569 -0.082242623 -0.17721242
-0.039782517 -0.082166761 -0.17720667
-0.039780069 -0.082090728 -0.1772089
-0.039777778 -0.082016736 -0.17720917
-0.039775431 -0.081940748 -0.17720941
-0.039773043 -0.081866711 -0.17721167
-0.039770894 -0.081790812 -0.17720792
-0.039770536 -0.081713736 -0.17716616
-0.039770998 -0.08163505 -0.17710638
-0.039770018 -0.081559673 -0.17707866
-0.039767962 -0.081483811 -0.1770729
-0.039766591 -0.081408262 -0.17705315
-0.039765161 -0.081330709 -0.17703336
-0.039763067 -0.081256799 -0.17702967
-0.039760523 -0.081180722 -0.17703389
-0.039759051 -0.081105128 -0.17701614
-0.039757878 -0.081029661 -0.17699242
-0.039755527 -0.080953673 -0.17699264
-0.039752945 -0.080879547 -0.17699891
-0.039751612 -0.080802038 -0.17697713
-0.039751314 -0.080726966 -0.17693542
-0.039749846 -0.080651365 -0.17691769
-0.039747108 -0.080575198 -0.1769259
-0.039745051 -0.080499344 -0.17692015
-0.039743681 -0.080423787 -0.17690042
-0.039741918 -0.08034806 -0.17688864
-0.039739337 -0.080273934 -0.17689493
-0.039736889 -0.080197901 -0.17689715
-0.039736006 -0.080122568 -0.17686743
-0.038466185 -0.054458626 -0.18683131
-0.038467374 -0.054388158 -0.18676174
-0.038469441 -0.054318078 -0.18667418
-0.038470022 -0.054243393 -0.18661451
-0.03846943 -0.054168187 -0.18657878
-0.038468685 -0.054090939 -0.18654501
-0.038468935 -0.05401808 -0.18649337
-0.038467992 -0.053940743 -0.18646359
-0.038466658 -0.053863235 -0.18644182
-0.038464971 -0.053783596 -0.18642598
-0.038463052 -0.053705826 -0.18641618
-0.038460881 -0.053625971 -0.18641034
-0.038458355 -0.053543985 -0.18641043
-0.038455885 -0.053463995 -0.18641056
-0.038453359 -0.053382009 -0.18641067
-0.03845109 -0.053302109 -0.18640679
-0.038448721 -0.053222168 -0.18640494
-0.038446255 -0.053142183 -0.18640509
-0.038443729 -0.053060196 -0.18640518
-0.038441006 -0.052978124 -0.18640926
-0.038438052 -0.052897919 -0.1864194
-0.038435135 -0.052815758 -0.18642747
-0.038432024 -0.052733511 -0.18643954
-0.038428657 -0.052649178 -0.18645558
-0.038425643 -0.052566979 -0.18646565
-0.038422979 -0.052486904 -0.18646979
-0.03842026 -0.052404832 -0.18647388
-0.038417343 -0.052322671 -0.18648195
-0.038414426 -0.052240513 -0.18649003
-0.038411606 -0.052158397 -0.18649611
-0.038409043 -0.052078366 -0.18649825
-0.038405832 -0.051996075 -0.18651232
-0.038402271 -0.05191166 -0.18653235
-0.038398221 -0.051827021 -0.18656234
-0.03839466 -0.051742598 -0.18658237
-0.038390804 -0.051658049 -0.18660837
-0.038386755 -0.051573414 -0.18663839
-0.038384229 -0.051491428 -0.18663847
-0.038381763 -0.051411442 -0.18663861
-0.038378689 -0.051327243 -0.18664864
-0.038375869 -0.051245123 -0.18665475
-0.038372759 -0.05116288 -0.18666682
-0.038369294 -0.051078506 -0.18668482
-0.03836628 -0.0509963 -0.18669492
-0.03836346 -0.050914183 -0.18670098
-0.038361091 -0.050834239 -0.18669912
-0.038358469 -0.050752215 -0.18670122
-0.038355745 -0.050670139 -0.18670531
-0.038353574 -0.050590284 -0.18669945
-0.038351789 -0.0505106 -0.18668562
-0.038349029 -0.050430484 -0.18669176
-0.038345568 -0.050346106 -0.18670976
-0.038342454 -0.050263859 -0.18672183
-0.038339637 -0.050181746 -0.18672794
-0.038336463 -0.050097503 -0.18673995
-0.038333997 -0.050017513 -0.1867401
-0.03833073 -0.049933225 -0.18675414
-0.038327813 -0.049851067 -0.18676221
-0.038325835 -0.049771294 -0.18675235
-0.038324147 -0.049691658 -0.18673652
-0.038321037 -0.049609408 -0.18674859
-0.038317729 -0.049527079 -0.18676467
-0.0383154 -0.049445178 -0.18676077
-0.038313128 -0.049365282 -0.18675691
-0.038310308 -0.049283162 -0.18676299
-0.038307939 -0.049203221 -0.18676114
-0.038306057 -0.049123496 -0.18674929
-0.038303629 -0.049041551 -0.1867474
-0.038300812 -0.048959434 -0.18675348
-0.038298089 -0.048877366 -0.18675756
-0.038295526 -0.048797332 -0.18675971
-0.038292903 -0.048715305 -0.1867618
-0.03829018 -0.048633233 -0.18676588
-0.03828707 -0.048550986 -0.18677795
-0.038283899 -0.048466742 -0.18678999
-0.038280785 -0.048384495 -0.18680206
-0.038278259 -0.048302509 -0.18680215
-0.038276382 -0.04822278 -0.18679032
-0.038274948 -0.048145227 -0.18677053
-0.038272873 -0.048065417 -0.18676268
-0.038270697 -0.047985561 -0.18675682
-0.038268622 -0.047905747 -0.18674898
-0.038266391 -0.047823891 -0.18674308
-0.038262732 -0.047739431 -0.18676509
-0.038259462 -0.047655139 -0.18677911
-0.038256995 -0.047575153 -0.18677926
-0.03825447 -0.047493167 -0.18677935
-0.038252041 -0.047411226 -0.18677744
-0.038249027 -0.047329023 -0.18678752
-0.038245562 -0.047244646 -0.18680555
-0.038242646 -0.047162488 -0.18681362
-0.038240373 -0.047082588 -0.18680978
-0.0382373 -0.046998389 -0.18681981
-0.038234033 -0.046914101 -0.18683383
-0.038229827 -0.046827421 -0.18686578
-0.038227651 -0.046747565 -0.18685994
-0.038225576 -0.046667751 -0.18685208
-0.038223498 -0.046587937 -0.18684423
-0.038221072 -0.046505995 -0.18684232
-0.038217999 -0.046421796 -0.18685237
-0.038214885 -0.046339549 -0.18686444
-0.03821281 -0.046259735 -0.1868566
-0.038211025 -0.046180055 -0.18684274
-0.038208306 -0.046097979 -0.18684684
-0.03820613 -0.046018124 -0.186841
-0.03820435 -0.045938443 -0.18682715
-0.038201783 -0.045858413 -0.18682928
-0.038199004 -0.045774341 -0.18683332
-0.038196538 -0.045694351 -0.18683347
-0.038194206 -0.045612454 -0.18682957
-0.038192034 -0.045532599 -0.18682371
-0.040067531 -0.092810929 -0.1780868
-0.04006682 -0.092731722 -0.17805099
-0.040066246 -0.092650607 -0.17801115
-0.040064327 -0.092572838 -0.17800134
-0.040062368 -0.092497021 -0.1779936
-0.040060412 -0.092421204 -0.17798583
-0.040058065 -0.092345215 -0.17798606
-0.040054467 -0.092272609 -0.17801435
-0.040052217 -0.092196666 -0.17801258
-0.040050358 -0.092120901 -0.17800283
-0.04004873 -0.092043251 -0.17798704
-0.040046614 -0.0919654 -0.17798123
-0.040044129 -0.091891319 -0.17798552
-0.040041685 -0.091815285 -0.17798772
-0.040039726 -0.091739468 -0.17797998
-0.04003777 -0.091663659 -0.17797223
-0.040035851 -0.091585882 -0.17796242
-0.040033892 -0.091510072 -0.17795467
-0.040031347 -0.091433987 -0.17795891
-0.040028475 -0.091359735 -0.17797115
-0.040025793 -0.091285571 -0.17797942
-0.040023152 -0.091209456 -0.17798565
-0.040024903 -0.091125429 -0.17789578
-0.040023707 -0.091046005 -0.17786996
-0.040021222 -0.090971932 -0.17787424
-0.040019065 -0.090896025 -0.17787047
-0.040016916 -0.090820119 -0.1778667
-0.040014565 -0.090744138 -0.17786694
-0.040012315 -0.090668187 -0.17786518
-0.040009871 -0.090592161 -0.17786741
-0.040006857 -0.090519816 -0.1778837
-0.040004119 -0.090443648 -0.17789194
-0.040001966 -0.090367749 -0.17788817
-0.040000107 -0.090291977 -0.17787841
-0.039998285 -0.090214252 -0.17786661
-0.039996132 -0.090138346 -0.17786285
-0.039993785 -0.090062357 -0.17786309
-0.039991397 -0.089988321 -0.17786536
-0.039989185 -0.089910425 -0.17786156
-0.039986797 -0.089836389 -0.17786384
-0.03998474 -0.089760527 -0.17785808
-0.039985709 -0.089676157 -0.17778417
-0.039984338 -0.0896006 -0.17776445
-0.039982028 -0.08952266 -0.17776263
-0.039979838 -0.089448705 -0.1777609
-0.039977588 -0.089372762 -0.17775914
-0.039975338 -0.089296818 -0.17775738
-0.039974004 -0.089219302 -0.1777356
-0.039972182 -0.089141577 -0.1777238
-0.039969794 -0.089067549 -0.17772608
-0.039967544 -0.088991597 -0.1777243
-0.039965916 -0.088913962 -0.17770852
-0.039964583 -0.088836446 -0.17768674
-0.03996253 -0.088760585 -0.17768097
-0.039960042 -0.088686511 -0.17768526
-0.039957989 -0.088610649 -0.17767951
-0.039955541 -0.088534616 -0.17768171
-0.039952997 -0.088458538 -0.17768595
-0.039950848 -0.088382639 -0.17768219
-0.03994846 -0.088308603 -0.17768446
-0.039945915 -0.088232532 -0.17768869
-0.039943468 -0.088156492 -0.17769092
-0.039940886 -0.088082373 -0.17769718
-0.03993883 -0.088006511 -0.17769143
-0.039937206 -0.087928876 -0.17767563
-0.039935637 -0.087853231 -0.1776599
-0.03993411 -0.087775633 -0.17764211
-0.03993186 -0.087699689 -0.17764035
-0.039929219 -0.087623566 -0.17764658
-0.039927162 -0.087547712 -0.1776408
-0.039925069 -0.08747381 -0.1776371
-0.039922427 -0.087397687 -0.17764331
-0.039920274 -0.087321788 -0.17763956
-0.039918315 -0.087245971 -0.1776318
-0.039915871 -0.08716993 -0.17763403
-0.039913192 -0.087095767 -0.17764229
-0.039910745 -0.087019734 -0.17764452
-0.03990826 -0.08694566 -0.1776488
-0.039905716 -0.086869583 -0.17765303
-0.039903466 -0.086793639 -0.17765126
-0.039901216 -0.086717688 -0.1776495
-0.039898731 -0.086643614 -0.17765377
-0.039895993 -0.086567447 -0.17766199
-0.03989413 -0.086491674 -0.17765224
-0.039892603 -0.086414076 -0.17763445
-0.039891034 -0.086338438 -0.17761871
-0.039889604 -0.086260885 -0.17759892
-0.039887648 -0.086185068 -0.17759117
-0.039884966 -0.086110905 -0.17759943
-0.039882228 -0.086034738 -0.17760766
-0.03987994 -0.085960746 -0.17760792
-0.039878119 -0.085883021 -0.17759614
-0.039875537 -0.085808903 -0.17760241
-0.039872173 -0.085734427 -0.17762464
-0.039869823 -0.085658439 -0.17762488
-0.039868258 -0.0855828 -0.17760915
-0.03986663 -0.085505158 -0.17759335
-0.039864145 -0.085431077 -0.17759761
-0.039861407 -0.085354917 -0.17760584
-0.039859116 -0.085280925 -0.17760612
-0.039856963 -0.085205019 -0.17760235
-0.039854616 -0.08512903 -0.17760259
-0.03985256 -0.085053176 -0.17759684
-0.039850116 -0.084977143 -0.17759907
-0.039847728 -0.084903106 -0.17760134
-0.0398461 -0.084825464 -0.17758554
-0.039845977 -0.084746525 -0.17753777
-0.039845426 -0.084669359 -0.17749999
-0.039843857 -0.084593721 -0.17748424
-0.039840885 -0.084519424 -0.17749852
-0.039838441 -0.08444339 -0.17750074
-0.039836481 -0.084367573 -0.17749298
-0.03983384 -0.084291458 -0.1774992
-0.039831258 -0.084217332 -0.17750549
-0.039829202 -0.084141478 -0.17749971
-0.039826758 -0.084065437 -0.17750195
-0.039824702 -0.083989583 -0.17749619
-0.039823037 -0.083913893 -0.17748246
-0.039821371 -0.08383821 -0.1774687
-0.039819844 -0.083760619 -0.17745091
-0.039818179 -0.083684929 -0.17743716
-0.039816026 -0.08360903 -0.1774334
-0.039813776 -0.083533078 -0.17743164
-0.039811525 -0.083457135 -0.17742987
-0.039809234 -0.083383143 -0.17743015
-0.039806984 -0.083307199 -0.17742839
-0.03980542 -0.083231553 -0.17741264
-0.039805785 -0.083152831 -0.17735487
-0.039805427 -0.083075754 -0.17731312
-0.039803274 -0.082999855 -0.17730935
-0.039802037 -0.082922384 -0.17728557
-0.039800957 -0.082846962 -0.17725983
-0.039798707 -0.082771018 -0.17725807
-0.039795835 -0.082696766 -0.17727032
-0.039792567 -0.082622342 -0.17729059
-0.039789986 -0.082548216 -0.17729685
-0.039788749 -0.082470752 -0.17727306
-0.039787613 -0.082393326 -0.1772473
-0.039786141 -0.082317732 -0.17722955
-0.039784674 -0.082242131 -0.17721182
-0.039782714 -0.082166314 -0.17720406
-0.03978017 -0.082090244 -0.17720829
-0.039777882 -0.082016245 -0.17720857
-0.039775532 -0.081940256 -0.1772088
-0.039773148 -0.081866227 -0.17721108
-0.039771091 -0.081790365 -0.17720532
-0.039770637 -0.081713244 -0.17716557
-0.039771002 -0.081634521 -0.17710778
-0.039770022 -0.081559144 -0.17708005
-0.039768063 -0.081483327 -0.1770723
-0.039766692 -0.081407771 -0.17705256
-0.039765261 -0.081330217 -0.17703277
-0.039763071 -0.08125627 -0.17703104
-0.039760623 -0.081180237 -0.17703328
-0.039759152 -0.081104636 -0.17701554
-0.039757978 -0.081029177 -0.17699182
-0.039755628 -0.080953181 -0.17699204
-0.039753046 -0.080879062 -0.17699832
-0.039751809 -0.080801591 -0.17697453
-0.039751355 -0.080724478 -0.17693478
-0.039749946 -0.080650881 -0.17691708
-0.039747208 -0.080574714 -0.1769253
-0.039745152 -0.080498852 -0.17691955
-0.039743781 -0.080423303 -0.17689981
-0.039742015 -0.080347568 -0.17688805
-0.039739434 -0.080273449 -0.17689432
-0.039736949 -0.080199368 -0.1768986
-0.039736107 -0.080122083 -0.17686683
-0.038466163 -0.054458115 -0.18683276
-0.038467549 -0.054387733 -0.18675919
-0.038469516 -0.054317608 -0.18667363
-0.038470156 -0.054244924 -0.18661401
-0.038469605 -0.054167762 -0.18657623
-0.03846876 -0.05409047 -0.18654446
-0.038469009 -0.054017611 -0.18649283
-0.038468067 -0.053940274 -0.18646306
-0.038466733 -0.053862765 -0.18644127
-0.038465049 -0.053783126 -0.18642543
-0.038463131 -0.053705357 -0.18641563
-0.038460955 -0.053625502 -0.18640977
-0.038458332 -0.053543471 -0.18641186
-0.03845606 -0.053463571 -0.18640801
-0.038453437 -0.05338154 -0.18641011
-0.038451165 -0.05330164 -0.18640625
-0.038448796 -0.053221703 -0.18640439
-0.03844633 -0.053141713 -0.18640454
-0.038443804 -0.053059727 -0.18640462
-0.038440984 -0.05297761 -0.18641073
-0.038438126 -0.05289745 -0.18641883
-0.038435113 -0.052815244 -0.18642893
-0.038432099 -0.052733041 -0.18643899
-0.038428634 -0.052648667 -0.18645701
-0.038425718 -0.05256651 -0.1864651
-0.038423054 -0.052486435 -0.18646923
-0.038420334 -0.052404363 -0.18647331
-0.038417418 -0.052322201 -0.18648139
-0.038414501 -0.052240044 -0.18648949
-0.038411681 -0.052157931 -0.18649557
-0.038409118 -0.052077897 -0.1864977
-0.038405906 -0.051995605 -0.18651178
-0.038402345 -0.05191119 -0.18653181
-0.038398296 -0.051826552 -0.18656179
-0.038394734 -0.051742133 -0.18658182
-0.038390879 -0.051657584 -0.18660782
-0.038386829 -0.051572949 -0.18663783
-0.038384303 -0.051490959 -0.18663792
-0.038381837 -0.051410973 -0.18663806
-0.038378764 -0.051326774 -0.1866481
-0.038375944 -0.051244654 -0.18665418
-0.038372733 -0.051162366 -0.18666825
-0.038369369 -0.051078036 -0.18668428
-0.038366254 -0.050995789 -0.18669635
-0.038363535 -0.050913714 -0.18670043
-0.038361166 -0.050833773 -0.18669859
-0.038358539 -0.050751746 -0.18670067
-0.03835582 -0.05066967 -0.18670475
-0.038353644 -0.050589815 -0.18669891
-0.038351864 -0.050510131 -0.18668507
-0.038349103 -0.050430015 -0.18669121
-0.038345639 -0.050345637 -0.18670923
-0.038342528 -0.05026339 -0.1867213
-0.038339708 -0.050181277 -0.18672737
-0.038336538 -0.050097033 -0.18673941
-0.038333971 -0.050016999 -0.18674156
-0.038330801 -0.049932756 -0.18675357
-0.038327981 -0.049850643 -0.18675967
-0.038325906 -0.049770828 -0.18675181
-0.038324222 -0.049691189 -0.18673599
-0.038321108 -0.049608942 -0.18674806
-0.0383179 -0.049526654 -0.18676212
-0.038315471 -0.049444713 -0.18676022
-0.038313199 -0.049364813 -0.18675637
-0.038310379 -0.049282692 -0.18676245
-0.03830801 -0.049202755 -0.1867606
-0.038306128 -0.049123026 -0.18674876
-0.038303703 -0.049041081 -0.18674685
-0.038300883 -0.048958965 -0.18675295
-0.03829816 -0.048876897 -0.18675703
-0.038295597 -0.048796862 -0.18675916
-0.038292974 -0.048714835 -0.18676125
-0.038290154 -0.048632719 -0.18676734
-0.03828714 -0.048550516 -0.18677741
-0.03828387 -0.048466228 -0.18679145
-0.038280856 -0.048384026 -0.18680152
-0.03827833 -0.04830204 -0.18680161
-0.038276449 -0.048222311 -0.18678977
-0.038275018 -0.048144761 -0.18676998
-0.03827304 -0.048064992 -0.18676014
-0.038270768 -0.047985092 -0.18675628
-0.038268693 -0.047905277 -0.18674843
-0.038266458 -0.047823422 -0.18674253
-0.038262799 -0.047738962 -0.18676454
-0.038259432 -0.047654629 -0.18678057
-0.038256966 -0.047574643 -0.18678072
-0.03825444 -0.047492657 -0.18678081
-0.038252011 -0.047410715 -0.1867789
-0.038248997 -0.047328509 -0.18678898
-0.038245533 -0.047244135 -0.18680701
-0.038242713 -0.047162019 -0.18681309
-0.038240444 -0.047082119 -0.18680923
-0.038237371 -0.04699792 -0.18681927
-0.0382341 -0.046913631 -0.18683329
-0.038229894 -0.046826951 -0.18686524
-0.038227621 -0.046747051 -0.1868614
-0.038225643 -0.046667285 -0.18685155
-0.038223568 -0.046587471 -0.18684369
-0.038221139 -0.046505529 -0.18684179
-0.038218066 -0.046421327 -0.18685183
-0.038214855 -0.046339035 -0.1868659
-0.038212877 -0.046259265 -0.18685606
-0.038211092 -0.046179585 -0.1868422
-0.038208373 -0.04609751 -0.18684629
-0.0382061 -0.046017613 -0.18684244
-0.03820432 -0.045937933 -0.1868286
-0.03820185 -0.045857944 -0.18682875
-0.038199071 -0.045773871 -0.18683279
-0.038196605 -0.045693886 -0.18683293
-0.038194273 -0.045611989 -0.18682903
-0.038192101 -0.04553213 -0.18682316
-0.040067405 -0.092808366 -0.17808756
-0.040066633 -0.092727169 -0.17805171
-0.040066119 -0.092648052 -0.17801191
-0.040064201 -0.092570283 -0.17800212
-0.040062245 -0.092494465 -0.17799436
-0.040060189 -0.092418604 -0.17798859
-0.040057939 -0.09234266 -0.17798683
-0.04005434 -0.092270054 -0.17801511
-0.04005209 -0.09219411 -0.17801335
-0.040050231 -0.092118338 -0.17800359
-0.040048603 -0.092040703 -0.17798781
-0.040046487 -0.091962844 -0.177982
-0.040044002 -0.091888763 -0.17798628
-0.040041558 -0.09181273 -0.1779885
-0.040039599 -0.091736913 -0.17798075
-0.040037643 -0.091661096 -0.177973
-0.040035725 -0.091583326 -0.1779632
-0.040033765 -0.091507509 -0.17795545
-0.040031221 -0.091431439 -0.17795967
-0.040028345 -0.091357186 -0.17797193
-0.040025666 -0.091283016 -0.17798018
-0.040023025 -0.091206901 -0.17798641
-0.040024776 -0.091122873 -0.17789654
-0.040023576 -0.09104345 -0.17787072
-0.040021092 -0.090969376 -0.177875
-0.040018842 -0.090893425 -0.17787322
-0.040016785 -0.090817571 -0.17786747
-0.040014341 -0.090741538 -0.17786971
-0.040012091 -0.090665594 -0.17786793
-0.040009741 -0.090589598 -0.17786816
-0.040006731 -0.09051726 -0.17788446
-0.040003993 -0.090441093 -0.17789268
-0.040001839 -0.090365194 -0.17788893
-0.039999977 -0.090289421 -0.17787917
-0.039998058 -0.090211652 -0.17786938
-0.039996002 -0.09013579 -0.17786361
-0.039993655 -0.090059802 -0.17786384
-0.039991267 -0.089985773 -0.17786613
-0.039989054 -0.08990787 -0.17786232
-0.03998667 -0.089833826 -0.17786458
-0.039984614 -0.089757971 -0.17785883
-0.039985582 -0.089673601 -0.17778493
-0.039984211 -0.089598045 -0.17776519
-0.039981999 -0.089520141 -0.17776139
-0.039979707 -0.089446157 -0.17776167
-0.039977457 -0.089370206 -0.1777599
-0.039975207 -0.089294262 -0.17775813
-0.039973874 -0.089216754 -0.17773636
-0.039971955 -0.089138977 -0.17772655
-0.039969668 -0.089064986 -0.17772684
-0.039967414 -0.088989042 -0.17772508
-0.03996579 -0.088911407 -0.17770928
-0.039964456 -0.088833891 -0.1776875
-0.0399624 -0.088758036 -0.17768174
-0.039959915 -0.088683955 -0.17768601
-0.039957859 -0.088608094 -0.17768025
-0.039955415 -0.08853206 -0.17768247
-0.03995287 -0.08845599 -0.17768671
-0.039950717 -0.088380083 -0.17768294
-0.039948329 -0.088306047 -0.17768523
-0.039945785 -0.088229977 -0.17768943
-0.039943241 -0.088153899 -0.17769367
-0.03994076 -0.088079818 -0.17769794
-0.039938703 -0.088003963 -0.17769217
-0.039937075 -0.087926321 -0.17767639
-0.039935507 -0.087850675 -0.17766064
-0.03993398 -0.087773085 -0.17764285
-0.039931729 -0.087697133 -0.17764109
-0.039929185 -0.087621063 -0.17764533
-0.039927032 -0.087545156 -0.17764156
-0.039924938 -0.087471254 -0.17763785
-0.039922297 -0.087395132 -0.17764407
-0.039920144 -0.087319233 -0.1776403
-0.039918188 -0.087243415 -0.17763254
-0.03991574 -0.087167382 -0.17763478
-0.039913062 -0.087093219 -0.17764305
-0.039910614 -0.087017179 -0.17764527
-0.03990813 -0.086943105 -0.17764954
-0.039905585 -0.086867027 -0.17765379
-0.039903432 -0.086791128 -0.17765002
-0.039901085 -0.086715132 -0.17765024
-0.0398986 -0.086641058 -0.17765452
-0.039895959 -0.086564936 -0.17766073
-0.0398941 -0.086489163 -0.17765099
-0.039892472 -0.086411521 -0.17763519
-0.039890904 -0.086335883 -0.17761946
-0.039889473 -0.086258329 -0.17759967
-0.039887518 -0.086182512 -0.17759192
-0.039884835 -0.086108349 -0.17760018
-0.039882097 -0.086032182 -0.1776084
-0.03987981 -0.085958198 -0.17760867
-0.039877988 -0.085880466 -0.17759688
-0.039875403 -0.085806347 -0.17760316
-0.039872043 -0.085731879 -0.1776254
-0.039869692 -0.085655883 -0.17762563
-0.039868124 -0.085580245 -0.17760989
-0.0398665 -0.085502602 -0.1775941
-0.039864015 -0.085428521 -0.17759836
-0.039861277 -0.085352361 -0.17760658
-0.039858986 -0.085278369 -0.17760687
-0.039856832 -0.08520247 -0.1776031
-0.039854486 -0.085126474 -0.17760333
-0.039852429 -0.08505062 -0.17759758
-0.039849982 -0.084974587 -0.1775998
-0.039847597 -0.084900551 -0.17760208
-0.03984597 -0.084822908 -0.17758629
-0.039845847 -0.084743969 -0.1775385
-0.039845392 -0.084666848 -0.17749874
-0.039843727 -0.084591165 -0.17748499
-0.039840754 -0.084516868 -0.17749925
-0.03983831 -0.084440835 -0.1775015
-0.039836351 -0.084365025 -0.17749372
-0.03983371 -0.084288903 -0.17749995
-0.039831128 -0.084214777 -0.17750622
-0.039828975 -0.084138878 -0.17750245
-0.039826624 -0.084062889 -0.17750269
-0.039824668 -0.083987072 -0.17749494
-0.039822906 -0.083911344 -0.17748319
-0.039821241 -0.083835661 -0.17746943
-0.039819811 -0.083758108 -0.17744964
-0.039818048 -0.083682373 -0.1774379
-0.039815895 -0.083606474 -0.17743415
-0.039813645 -0.08353053 -0.17743237
-0.039811395 -0.083454579 -0.1774306
-0.039809007 -0.08338055 -0.17743289
-0.039806757 -0.083304599 -0.17743112
-0.039805286 -0.083229005 -0.17741337
-0.039805651 -0.083150275 -0.17735559
-0.039805293 -0.083073199 -0.17731383
-0.03980314 -0.0829973 -0.17731008
-0.039802004 -0.082919881 -0.1772843
-0.039800826 -0.082844414 -0.17726058
-0.039798576 -0.082768463 -0.17725882
-0.0397957 -0.08269421 -0.17727107
-0.039792433 -0.082619786 -0.17729132
-0.039789852 -0.082545668 -0.17729759
-0.039788619 -0.082468197 -0.17727381
-0.039787576 -0.082390815 -0.17724603
-0.039786011 -0.082315177 -0.17723028
-0.03978464 -0.08223962 -0.17721055
-0.039782487 -0.082163721 -0.17720678
-0.039780039 -0.082087688 -0.17720902
-0.039777748 -0.082013696 -0.17720929
-0.039775401 -0.081937708 -0.17720953
-0.039773013 -0.081863672 -0.17721182
-0.03977086 -0.081787772 -0.17720804
-0.039770506 -0.081710696 -0.17716628
-0.039770871 -0.081631973 -0.1771085
-0.039769985 -0.081556633 -0.17707878
-0.039767932 -0.081480771 -0.17707303
-0.039766558 -0.081405222 -0.17705329
-0.039765127 -0.081327669 -0.17703351
-0.039763033 -0.08125376 -0.17702979
-0.039760489 -0.081177682 -0.17703402
-0.039759021 -0.081102088 -0.17701627
-0.039757844 -0.081026621 -0.17699254
-0.039755497 -0.080950633 -0.17699277
-0.039753012 -0.080876552 -0.17699705
-0.039751582 -0.080798998 -0.17697726
-0.039751224 -0.080721922 -0.17693551
-0.039749812 -0.080648325 -0.17691782
-0.039747074 -0.080572158 -0.17692603
-0.039745018 -0.080496304 -0.17692026
-0.039743744 -0.080420792 -0.17689854
-0.039741885 -0.08034502 -0.17688878
-0.039739303 -0.080270901 -0.17689505
-0.039736819 -0.08019682 -0.17689931
-0.039735973 -0.080119528 -0.17686754
-0.038466081 -0.054455571 -0.18683138
-0.03846737 -0.054385148 -0.18675983
-0.038469434 -0.054315068 -0.18667227
-0.038470075 -0.054242384 -0.18661264
-0.038469426 -0.054165177 -0.18657687
-0.038468581 -0.054087885 -0.1865451
-0.038468927 -0.05401507 -0.18649146
-0.038467888 -0.053937692 -0.18646368
-0.038466554 -0.053860184 -0.1864419
-0.03846487 -0.053780541 -0.18642606
-0.038463049 -0.053702816 -0.18641427
-0.038460776 -0.053622916 -0.18641041
-0.03845825 -0.05354093 -0.1864105
-0.038455881 -0.053460985 -0.18640864
-0.038453259 -0.053378958 -0.18641073
-0.038450986 -0.053299058 -0.18640688
-0.038448617 -0.053219117 -0.18640502
-0.038446151 -0.053139128 -0.18640515
-0.038443625 -0.053057145 -0.18640526
-0.038440805 -0.052975029 -0.18641135
-0.038437948 -0.052894864 -0.18641947
-0.03843493 -0.052812662 -0.18642955
-0.038431916 -0.052730463 -0.18643962
-0.038428552 -0.05264613 -0.18645565
-0.038425535 -0.052563928 -0.18646573
-0.038422875 -0.052483849 -0.18646985
-0.038420152 -0.052401777 -0.18647394
-0.038417235 -0.052319624 -0.18648203
-0.038414419 -0.052237503 -0.18648811
-0.038411599 -0.05215539 -0.1864942
-0.038408935 -0.052075312 -0.18649833
-0.038405728 -0.051993027 -0.18651241
-0.038402066 -0.05190856 -0.18653442
-0.038398113 -0.051823966 -0.18656242
-0.038394552 -0.051739547 -0.18658245
-0.038390696 -0.051654998 -0.18660845
-0.038386647 -0.051570363 -0.18663844
-0.038384121 -0.051488377 -0.18663855
-0.038381655 -0.051408388 -0.18663868
-0.038378581 -0.051324189 -0.18664873
-0.038375761 -0.051242072 -0.18665481
-0.038372554 -0.051159784 -0.18666887
-0.038369186 -0.051075451 -0.18668491
-0.038366169 -0.050993245 -0.18669498
-0.038363352 -0.050911132 -0.18670106
-0.038360983 -0.050831188 -0.18669921
-0.038358361 -0.05074916 -0.1867013
-0.038355637 -0.050667085 -0.18670538
-0.038353462 -0.050587229 -0.18669954
-0.038351681 -0.050507545 -0.18668568
-0.038348921 -0.050427429 -0.18669182
-0.038345456 -0.050343055 -0.18670984
-0.038342346 -0.050260808 -0.18672192
-0.038339525 -0.050178692 -0.186728
-0.038336355 -0.050094448 -0.18674004
-0.038333789 -0.050014414 -0.18674217
-0.038330618 -0.04993017 -0.1867542
-0.038327701 -0.049848013 -0.18676227
-0.038325723 -0.049768243 -0.18675244
-0.038324036 -0.049688604 -0.18673658
-0.038320925 -0.04960636 -0.18674867
-0.038317714 -0.049524069 -0.18676275
-0.038315386 -0.049442168 -0.18675885
-0.038313016 -0.049362227 -0.18675698
-0.038310196 -0.049280111 -0.18676306
-0.038307827 -0.04920017 -0.1867612
-0.038305946 -0.049120441 -0.18674937
-0.038303517 -0.0490385 -0.18674746
-0.038300697 -0.048956383 -0.18675354
-0.038297977 -0.048874311 -0.18675764
-0.038295411 -0.048794277 -0.18675977
-0.038292788 -0.048712254 -0.18676186
-0.038289972 -0.048630133 -0.18676794
-0.038286954 -0.048547931 -0.18677802
-0.038283687 -0.048463643 -0.18679205
-0.038280673 -0.04838144 -0.18680212
-0.038278148 -0.048299454 -0.18680224
-0.038276266 -0.048219729 -0.18679038
-0.038274832 -0.048142176 -0.18677059
-0.038272757 -0.048062362 -0.18676275
-0.038270585 -0.047982506 -0.18675688
-0.038268507 -0.047902696 -0.18674904
-0.038266275 -0.04782084 -0.18674314
-0.038262617 -0.047736377 -0.18676516
-0.038259249 -0.047652043 -0.18678118
-0.038256779 -0.047572058 -0.18678132
-0.038254354 -0.047490112 -0.18677941
-0.038251825 -0.047408134 -0.1867795
-0.038248911 -0.047325969 -0.18678759
-0.038245447 -0.047241595 -0.18680561
-0.03824253 -0.047159437 -0.18681368
-0.038240258 -0.047079533 -0.18680984
-0.038237184 -0.046995334 -0.18681987
-0.038233913 -0.046911046 -0.18683389
-0.038229804 -0.046824411 -0.18686384
-0.038227536 -0.046744511 -0.18686
-0.038225554 -0.046664745 -0.18685016
-0.038223382 -0.046584886 -0.18684429
-0.038220953 -0.046502944 -0.1868424
-0.03821788 -0.046418741 -0.18685243
-0.038214669 -0.046336453 -0.18686649
-0.038212791 -0.046256725 -0.18685466
-0.038210906 -0.046177 -0.18684281
-0.038208187 -0.046094928 -0.1868469
-0.038205914 -0.046015028 -0.18684305
-0.03820423 -0.045935389 -0.18682721
-0.038201664 -0.045855358 -0.18682934
-0.038198885 -0.045771286 -0.18683338
-0.038196418 -0.0456913 -0.18683353
-0.038194086 -0.0456094 -0.18682963
-0.038191915 -0.045529544 -0.18682377
-0.04006787 -0.092808336 -0.17808697
-0.040067099 -0.092727132 -0.17805111
-0.040066686 -0.092648059 -0.17800932
-0.040064767 -0.09257029 -0.17799953
-0.040062711 -0.092494428 -0.17799376
-0.040060751 -0.092418611 -0.177986
-0.040058404 -0.092342623 -0.17798623
-0.040054906 -0.092270061 -0.17801252
-0.040052556 -0.09219408 -0.17801276
-0.040050697 -0.092118308 -0.178003
-0.040049072 -0.092040665 -0.17798722
-0.040047053 -0.091962852 -0.17797941
-0.040044472 -0.091888726 -0.17798568
-0.040042028 -0.0918127 -0.1779879
-0.040040165 -0.091736928 -0.17797816
-0.040038209 -0.091661111 -0.17797039
-0.040036194 -0.091583297 -0.1779626
-0.040034331 -0.091507524 -0.17795283
-0.04003169 -0.091431402 -0.17795907
-0.040028818 -0.091357149 -0.17797133
-0.040026233 -0.091283023 -0.17797759
-0.040023595 -0.091206908 -0.17798382
-0.040025245 -0.091122836 -0.17789593
-0.04002405 -0.091043413 -0.17787012
-0.040021565 -0.090969339 -0.17787439
-0.040019412 -0.090893432 -0.17787063
-0.040017258 -0.090817533 -0.17786688
-0.040015008 -0.09074159 -0.17786512
-0.040012661 -0.090665601 -0.17786534
-0.040010214 -0.090589568 -0.17786756
-0.040007204 -0.090517223 -0.17788386
-0.040004563 -0.090441108 -0.17789009
-0.040002313 -0.090365157 -0.17788833
-0.040000454 -0.090289384 -0.17787857
-0.039998632 -0.09021166 -0.17786679
-0.039996576 -0.090135798 -0.17786102
-0.039994128 -0.090059765 -0.17786324
-0.039991744 -0.089985728 -0.17786554
-0.039989531 -0.089907832 -0.17786172
-0.039987143 -0.089833796 -0.17786399
-0.03998509 -0.089757934 -0.17785823
-0.039986156 -0.089673609 -0.17778234
-0.039984684 -0.089598015 -0.17776459
-0.039982475 -0.089520112 -0.17776079
-0.039980281 -0.089446165 -0.17775908
-0.039977934 -0.089370169 -0.1777593
-0.039975684 -0.089294225 -0.17775755
-0.03997435 -0.089216717 -0.17773578
-0.039972529 -0.089138985 -0.17772396
-0.039970145 -0.089064956 -0.17772624
-0.039967895 -0.088989004 -0.17772448
-0.039966267 -0.088911369 -0.17770869
-0.039964933 -0.088833854 -0.1776869
-0.039962877 -0.088757999 -0.17768115
-0.039960433 -0.088681966 -0.17768337
-0.039958339 -0.088608064 -0.17767966
-0.039955892 -0.088532031 -0.17768188
-0.039953448 -0.088455997 -0.17768411
-0.039951198 -0.088380046 -0.17768234
-0.03994881 -0.088306017 -0.17768462
-0.039946266 -0.088229939 -0.17768884
-0.039943822 -0.088153906 -0.17769107
-0.039941236 -0.08807978 -0.17769736
-0.039939281 -0.088003971 -0.1776896
-0.039937653 -0.087926328 -0.17767382
-0.039935991 -0.087850645 -0.17766005
-0.03993446 -0.087773047 -0.17764227
-0.03993221 -0.087697104 -0.1776405
-0.039929666 -0.087621026 -0.17764473
-0.039927512 -0.087545119 -0.17764096
-0.039925423 -0.087471217 -0.17763725
-0.039922781 -0.087395094 -0.17764348
-0.039920628 -0.087319195 -0.17763972
-0.039918669 -0.087243378 -0.17763196
-0.039916225 -0.087167345 -0.17763418
-0.039913543 -0.087093174 -0.17764245
-0.039911099 -0.087017141 -0.17764468
-0.039908614 -0.086943068 -0.17764896
-0.03990607 -0.08686699 -0.17765319
-0.039903916 -0.086791091 -0.17764941
-0.039901666 -0.086715139 -0.17764765
-0.039899085 -0.086641021 -0.17765394
-0.039896443 -0.086564898 -0.17766015
-0.039894488 -0.086489081 -0.17765239
-0.039892957 -0.086411491 -0.17763461
-0.039891392 -0.086335845 -0.17761886
-0.039889961 -0.086258292 -0.17759907
-0.039888002 -0.086182475 -0.17759132
-0.039885361 -0.08610636 -0.17759754
-0.039882585 -0.086032152 -0.1776078
-0.039880294 -0.08595816 -0.17760809
-0.039878473 -0.085880429 -0.1775963
-0.039875891 -0.08580631 -0.17760256
-0.039872527 -0.085731842 -0.17762481
-0.03987018 -0.085655853 -0.17762505
-0.039868616 -0.085580207 -0.17760929
-0.039866988 -0.085502565 -0.1775935
-0.0398646 -0.085428536 -0.17759578
-0.039861765 -0.085352324 -0.17760599
-0.039859474 -0.085278332 -0.17760628
-0.03985732 -0.085202433 -0.17760251
-0.039854974 -0.085126445 -0.17760274
-0.039852921 -0.085050583 -0.17759699
-0.039850473 -0.08497455 -0.17759922
-0.039848085 -0.084900513 -0.17760149
-0.039846461 -0.084822878 -0.17758569
-0.039846338 -0.084743932 -0.17753792
-0.039845884 -0.084666818 -0.17749816
-0.039844219 -0.084591128 -0.17748439
-0.039841283 -0.084514879 -0.17749661
-0.039838899 -0.084440842 -0.17749891
-0.039836843 -0.084364988 -0.17749314
-0.039834201 -0.084288865 -0.17749935
-0.039831717 -0.084214784 -0.17750363
-0.039829563 -0.084138885 -0.17749986
-0.03982712 -0.084062852 -0.1775021
-0.03982516 -0.083987035 -0.17749435
-0.039823495 -0.083911352 -0.17748061
-0.039821774 -0.083833665 -0.17746681
-0.039820302 -0.083758071 -0.17744906
-0.039818637 -0.083682381 -0.17743531
-0.039816484 -0.083606482 -0.17743155
-0.039814137 -0.083530493 -0.17743179
-0.039811887 -0.083454542 -0.17743002
-0.0398096 -0.08338055 -0.1774303
-0.039807349 -0.083304606 -0.17742854
-0.039805878 -0.083229013 -0.17741078
-0.039806146 -0.083150238 -0.17735502
-0.03980583 -0.083071209 -0.17731121
-0.039803736 -0.082997307 -0.1773075
-0.039802499 -0.082919843 -0.1772837
-0.039801322 -0.082844377 -0.17725998
-0.039799169 -0.08276847 -0.17725623
-0.039796196 -0.082694173 -0.17727047
-0.039792933 -0.082619749 -0.17729074
-0.039790351 -0.082545631 -0.177297
-0.039789114 -0.082468159 -0.17727321
-0.039788075 -0.082390785 -0.17724544
-0.039786603 -0.082315184 -0.17722771
-0.039785136 -0.082239583 -0.17720997
-0.039783079 -0.082163729 -0.17720421
-0.039780635 -0.082087696 -0.17720643
-0.039778247 -0.082013659 -0.17720871
-0.039775901 -0.081937671 -0.17720895
-0.039773609 -0.081863679 -0.17720923
-0.039771456 -0.08178778 -0.17720546
-0.039771002 -0.081710659 -0.1771657
-0.039771467 -0.081631973 -0.17710593
-0.039770484 -0.081556596 -0.1770782
-0.039768528 -0.081480779 -0.17707044
-0.039767057 -0.081405178 -0.17705271
-0.039765626 -0.081327632 -0.17703292
-0.039763533 -0.081253722 -0.17702919
-0.039760992 -0.081177652 -0.17703342
-0.03975952 -0.081102051 -0.17701569
-0.039758343 -0.081026584 -0.17699195
-0.039755996 -0.080950595 -0.17699218
-0.039753512 -0.080876514 -0.17699645
-0.039752178 -0.080799006 -0.17697467
-0.039751723 -0.080721885 -0.17693493
-0.039750315 -0.080648288 -0.17691723
-0.039747674 -0.080572166 -0.17692345
-0.039745618 -0.080496311 -0.1769177
-0.039744247 -0.080420755 -0.17689794
-0.039742388 -0.080344982 -0.1768882
-0.039739802 -0.080270857 -0.17689446
-0.039737321 -0.080196783 -0.17689875
-0.039736476 -0.080119491 -0.17686698
-0.038466714 -0.054455541 -0.18683085
-0.038468 -0.054385114 -0.18675926
-0.03846997 -0.054314993 -0.1866737
-0.038470607 -0.054242305 -0.18661407
-0.038470056 -0.054165147 -0.18657631
-0.038469307 -0.0540879 -0.18654254
-0.03846956 -0.05401504 -0.18649089
-0.038468618 -0.053937703 -0.18646112
-0.038467184 -0.05386015 -0.18644135
-0.0384655 -0.053780511 -0.18642551
-0.038463678 -0.053702783 -0.18641371
-0.03846141 -0.053622887 -0.18640986
-0.03845888 -0.053540897 -0.18640995
-0.038456514 -0.053460952 -0.18640809
-0.038453888 -0.053378925 -0.18641019
-0.038451619 -0.053299025 -0.18640633
-0.038449347 -0.053219125 -0.18640247
-0.038446881 -0.053139139 -0.18640262
-0.038444258 -0.053057112 -0.18640471
-0.038441535 -0.052975036 -0.18640879
-0.038438581 -0.052894831 -0.18641892
-0.038435664 -0.052812673 -0.186427
-0.03843265 -0.052730471 -0.18643707
-0.038429186 -0.052646093 -0.1864551
-0.038426172 -0.052563891 -0.18646517
-0.038423508 -0.052483816 -0.18646932
-0.038420789 -0.052401744 -0.1864734
-0.038417872 -0.052319586 -0.18648148
-0.038414955 -0.052237429 -0.18648955
-0.038412139 -0.052155308 -0.18649563
-0.038409572 -0.052075282 -0.18649778
-0.038406461 -0.051993035 -0.18650985
-0.038402803 -0.051908575 -0.18653187
-0.038398851 -0.051823977 -0.18655989
-0.038395192 -0.051739514 -0.18658188
-0.038391434 -0.051655009 -0.1866059
-0.038387287 -0.051570326 -0.18663791
-0.038384762 -0.051488344 -0.186638
-0.038382296 -0.051408358 -0.18663813
-0.038379319 -0.0513242 -0.18664616
-0.038376402 -0.051242039 -0.18665425
-0.038373291 -0.051159792 -0.18666634
-0.038369827 -0.051075418 -0.18668436
