# .PCD v0.7 - Point Cloud Data file format
VERSION 0.7
FIELDS x y z
SIZE 4 4 4
TYPE F F F
COUNT 1 1 1
WIDTH 1269
HEIGHT 1
VIEWPOINT 0 0 0 1 0 0 0
POINTS 1269
DATA ascii
-0.045232803 -0.09234117 -0.18800595
-0.045235761 -0.092421375 -0.18799585
-0.045238093 -0.092503279 -0.18799973
-0.04523994 -0.09258496 -0.18801361
-0.04524241 -0.092664942 -0.18801346
-0.045245603 -0.092743278 -0.18799731
-0.04524764 -0.092825048 -0.18800719
-0.045248628 -0.09291029 -0.18804115
-0.045250863 -0.092992149 -0.18804704
-0.045253236 -0.093072087 -0.1880489
-0.045256194 -0.0931523 -0.18803877
-0.045259252 -0.093232542 -0.18802664
-0.045261722 -0.093312532 -0.18802649
-0.045264252 -0.093394518 -0.1880264
-0.045266621 -0.093474455 -0.18802825
-0.045269053 -0.093556404 -0.18803015
-0.045271229 -0.093636259 -0.18803599
-0.045274384 -0.093716547 -0.18802187
-0.045278102 -0.093793139 -0.18799368
-0.045279615 -0.093876645 -0.1880156
-0.045280077 -0.09396363 -0.18806157
-0.045282114 -0.094045401 -0.18807146
-0.045284782 -0.094125472 -0.18806732
-0.045287114 -0.094207376 -0.18807122
-0.04528939 -0.094287276 -0.18807507
-0.045291722 -0.094369173 -0.18807897
-0.045293666 -0.094450898 -0.18809086
-0.045295473 -0.094534531 -0.18810678
-0.045298234 -0.094614655 -0.18810064
-0.045300901 -0.094694726 -0.18809651
-0.045302708 -0.094778359 -0.18811244
-0.045304745 -0.094860129 -0.18812232
-0.045307744 -0.094938375 -0.18811014
-0.045310702 -0.095018581 -0.18810001
-0.045313366 -0.095098652 -0.18809587
-0.045315214 -0.095180333 -0.18810976
-0.045316726 -0.095263839 -0.18813168
-0.045319255 -0.095345825 -0.18813157
-0.045322642 -0.09542425 -0.18811142
-0.045325249 -0.095502324 -0.18810724
-0.045327447 -0.095586136 -0.18811518
-0.045329057 -0.095669687 -0.18813509
-0.045329846 -0.095754847 -0.18817303
-0.045331128 -0.095840216 -0.188201
-0.044078108 -0.046095394 -0.17729639
-0.04408101 -0.046173599 -0.17728621
-0.04408326 -0.046249546 -0.17728797
-0.044085514 -0.04632549 -0.17728974
-0.044089153 -0.046406001 -0.17726561
-0.044091702 -0.046482075 -0.1772614
-0.044093013 -0.046555631 -0.17728108
-0.044096008 -0.046633877 -0.17726892
-0.044098165 -0.046709783 -0.17727268
-0.04409977 -0.04678347 -0.17728636
-0.044102024 -0.046859413 -0.17728813
-0.044104274 -0.046935361 -0.17728989
-0.044106275 -0.047009222 -0.1772956
-0.044108134 -0.047084995 -0.17730536
-0.044109449 -0.04715855 -0.17732504
-0.044111252 -0.047232326 -0.17733474
-0.044113308 -0.047308184 -0.17734049
-0.044115756 -0.047384217 -0.17733827
-0.044118751 -0.047462463 -0.17732608
-0.044121552 -0.047540627 -0.17731792
-0.044124644 -0.047618918 -0.17730376
-0.044127837 -0.047697257 -0.17728758
-0.044130091 -0.047773205 -0.17728934
-0.044132244 -0.047849104 -0.17729309
-0.044133656 -0.047922708 -0.17731079
-0.044135459 -0.047996476 -0.1773205
-0.044137709 -0.048072428 -0.17732225
-0.044139415 -0.048146155 -0.17733395
-0.044141568 -0.048222058 -0.17733772
-0.04414437 -0.048300222 -0.17732954
-0.044145525 -0.04837174 -0.17735118
-0.044147484 -0.048447553 -0.17735893
-0.044150028 -0.048523627 -0.17735469
-0.044152573 -0.048599705 -0.17735046
-0.044154927 -0.048675694 -0.17735024
-0.044156983 -0.048751555 -0.17735599
-0.044158842 -0.048827328 -0.17736575
-0.044160448 -0.048901014 -0.17737944
-0.044162545 -0.048974916 -0.17738315
-0.044165697 -0.049055208 -0.17736903
-0.044168048 -0.0491312 -0.17736879
-0.04417124 -0.049209535 -0.17735262
-0.044174884 -0.049290039 -0.17732853
-0.044177428 -0.049366117 -0.1773243
-0.044179972 -0.049442194 -0.17732006
-0.044182032 -0.049518056 -0.17732581
-0.044183344 -0.049591608 -0.17734551
-0.044184949 -0.049665298 -0.17735919
-0.044187009 -0.049741156 -0.17736495
-0.044189163 -0.049817059 -0.17736872
-0.044191904 -0.049893223 -0.17736048
-0.04419535 -0.049973644 -0.17734037
-0.044198543 -0.05005198 -0.17732421
-0.04420099 -0.050128013 -0.17732197
-0.044203341 -0.050204001 -0.17732173
-0.044205591 -0.050279945 -0.17732349
-0.044207647 -0.050355807 -0.17732926
-0.04420945 -0.050429583 -0.17733896
-0.044211056 -0.050503269 -0.17735267
-0.044213369 -0.050581209 -0.17735447
-0.044215817 -0.05065725 -0.17735223
-0.04421936 -0.050737709 -0.17733014
-0.04422304 -0.050816264 -0.17730397
-0.044226877 -0.050896857 -0.17727587
-0.044230815 -0.050977498 -0.17724577
-0.044233359 -0.051053572 -0.17724153
-0.044234928 -0.051129214 -0.17725727
-0.044236924 -0.051203076 -0.17726299
-0.044238884 -0.051278893 -0.17727074
-0.04424059 -0.05135262 -0.17728245
-0.044244073 -0.05143109 -0.17726028
-0.044247814 -0.051511638 -0.17723417
-0.044249967 -0.051587544 -0.17723793
-0.044252124 -0.051663443 -0.1772417
-0.044254277 -0.051739346 -0.17724544
-0.044256628 -0.051815335 -0.17724523
-0.044258881 -0.051891282 -0.17724699
-0.044260878 -0.051965144 -0.17725268
-0.044263132 -0.052041091 -0.17725444
-0.044265479 -0.052117079 -0.1772542
-0.044267438 -0.052192897 -0.17726196
-0.044269495 -0.052268758 -0.17726772
-0.044277385 -0.052359037 -0.17716192
-0.044280969 -0.052437544 -0.17713776
-0.044284157 -0.052515879 -0.17712159
-0.044286862 -0.052593999 -0.17711541
-0.044288918 -0.05266986 -0.17712116
-0.044290368 -0.052741505 -0.17713681
-0.044292327 -0.052817322 -0.17714457
-0.04429448 -0.052893221 -0.17714833
-0.044296831 -0.052969214 -0.1771481
-0.044298436 -0.0530429 -0.17716178
-0.044302177 -0.053123452 -0.17713568
-0.044304918 -0.053199615 -0.17712747
-0.044307075 -0.053275518 -0.17713121
-0.044309229 -0.053351417 -0.17713498
-0.044311874 -0.05342754 -0.17712875
-0.044314321 -0.053503573 -0.17712651
-0.044316474 -0.053579476 -0.17713028
-0.044318277 -0.053653248 -0.17713997
-0.044319883 -0.053726938 -0.17715368
-0.04432239 -0.053804968 -0.1771515
-0.04432746 -0.053888083 -0.17709947
-0.044331729 -0.053966895 -0.17706133
-0.04433443 -0.054045014 -0.17705515
-0.04433772 -0.054123394 -0.177037
-0.044341207 -0.05420186 -0.17701483
-0.044343751 -0.054277934 -0.1770106
-0.044345554 -0.05435171 -0.17702031
-0.044347964 -0.054429699 -0.1770201
-0.044350509 -0.054505773 -0.17701589
-0.04435315 -0.054581895 -0.17700964
-0.044355601 -0.054657929 -0.17700742
-0.044358145 -0.054734003 -0.17700319
-0.044360947 -0.054812163 -0.17699501
-0.044363979 -0.054888457 -0.17698079
-0.044366587 -0.054966532 -0.17697662
-0.044368289 -0.055040263 -0.17698832
-0.044370092 -0.055114038 -0.17699802
-0.044372246 -0.055189941 -0.17700177
-0.044374499 -0.055265889 -0.17700353
-0.044376556 -0.055341747 -0.17700928
-0.044378649 -0.055415649 -0.17701301
-0.04438233 -0.055494204 -0.17698686
-0.044387501 -0.05557736 -0.17693284
-0.044389594 -0.055651266 -0.17693654
-0.044391066 -0.055726863 -0.17695428
-0.044393513 -0.055802897 -0.17695206
-0.044396743 -0.055879276 -0.17693385
-0.044399545 -0.055957437 -0.17692566
-0.044402186 -0.056033559 -0.17691943
-0.044403795 -0.056107245 -0.17693314
-0.044405401 -0.056180932 -0.17694683
-0.044408143 -0.056257099 -0.17693861
-0.044411138 -0.056335345 -0.17692643
-0.044413585 -0.056411378 -0.1769242
-0.044415742 -0.056487281 -0.17692797
-0.044417445 -0.056561012 -0.17693967
-0.04441905 -0.056634698 -0.17695336
-0.044420656 -0.056708388 -0.17696705
-0.044422165 -0.05678203 -0.17698276
-0.044424322 -0.056857932 -0.17698652
-0.044426572 -0.05693388 -0.17698827
-0.044428729 -0.057009779 -0.17699203
-0.04443147 -0.057085946 -0.1769838
-0.04443327 -0.057159718 -0.17699352
-0.044435035 -0.05723545 -0.17700526
-0.044438615 -0.057313956 -0.17698109
-0.044442397 -0.057392552 -0.17695296
-0.044444297 -0.057466369 -0.17696066
-0.044445705 -0.05753997 -0.17697835
-0.04444747 -0.057615697 -0.17699011
-0.04444937 -0.057689518 -0.17699781
-0.044452112 -0.057765681 -0.17698959
-0.044455752 -0.057846189 -0.17696548
-0.044458494 -0.057922348 -0.17695725
-0.044460844 -0.057998341 -0.17695701
-0.044463586 -0.058074504 -0.17694879
-0.04446568 -0.058148406 -0.17695251
-0.044467248 -0.058224052 -0.17696825
-0.044468954 -0.058297779 -0.17697994
-0.04447056 -0.058371469 -0.17699364
-0.044471972 -0.058445066 -0.17701134
-0.04447348 -0.058518711 -0.17702703
-0.04447544 -0.058594529 -0.17703477
-0.044477787 -0.058670517 -0.17703456
-0.044481959 -0.058749288 -0.17699841
-0.044486128 -0.058828056 -0.17696226
-0.044490591 -0.058906958 -0.17692015
-0.044494722 -0.058987681 -0.17688605
-0.044497363 -0.0590638 -0.17687982
-0.044499364 -0.059137661 -0.17688553
-0.044501126 -0.059213392 -0.17689727
-0.044503026 -0.059287209 -0.17690499
-0.044506412 -0.05936563 -0.17688483
-0.044509545 -0.059441969 -0.17686862
-0.044512581 -0.059518263 -0.17685439
-0.044515714 -0.059594598 -0.17683819
-0.044518061 -0.05967059 -0.17683795
-0.04451957 -0.059744231 -0.17685363
-0.044521336 -0.059819959 -0.17686538
-0.044523135 -0.059893735 -0.17687508
-0.044524997 -0.059969507 -0.17688483
-0.044527095 -0.060043409 -0.17688856
-0.044529542 -0.060119446 -0.17688632
-0.044533808 -0.060198255 -0.17684819
-0.044542361 -0.06028489 -0.17672631
-0.044545591 -0.06036127 -0.1767081
-0.044548918 -0.060437694 -0.1766879
-0.044551719 -0.060515858 -0.1766797
-0.044553619 -0.060589671 -0.17668742
-0.044554736 -0.060663141 -0.1767111
-0.04455654 -0.060736917 -0.1767208
-0.044559181 -0.060813036 -0.17671457
-0.044562668 -0.060891502 -0.17669243
-0.044567324 -0.060970493 -0.17664629
-0.044570457 -0.061046828 -0.17663008
-0.044572711 -0.061122775 -0.17663184
-0.044575002 -0.061196767 -0.17663157
-0.044577155 -0.061272666 -0.17663532
-0.044578958 -0.061346442 -0.17664504
-0.044580817 -0.061422214 -0.17665477
-0.044582818 -0.061496075 -0.17666048
-0.044585556 -0.061572239 -0.17665225
-0.044588398 -0.061648443 -0.17664203
-0.044590589 -0.06172239 -0.17664376
-0.044593878 -0.06180077 -0.17662558
-0.044599514 -0.061880194 -0.17655951
-0.04460476 -0.061959438 -0.17650139
-0.04460809 -0.062035862 -0.17648119
-0.044611868 -0.062114459 -0.17645302
-0.044615291 -0.062190928 -0.17643084
-0.044617191 -0.062264744 -0.17643854
-0.044619933 -0.062340908 -0.17643031
-0.044622481 -0.062416982 -0.17642608
-0.044624966 -0.062491059 -0.17642181
-0.044628844 -0.0625697 -0.17639166
-0.044632953 -0.062646471 -0.17635548
-0.044637121 -0.062725246 -0.17631933
-0.04463996 -0.06280145 -0.17630911
-0.044642545 -0.062875569 -0.17630284
-0.044645578 -0.062951863 -0.17628862
-0.044648811 -0.063028246 -0.17627041
-0.044651747 -0.063104495 -0.17625819
-0.044654682 -0.063180745 -0.17624599
-0.044657659 -0.063255042 -0.17623171
-0.044664528 -0.063336983 -0.17614171
-0.044671495 -0.063418962 -0.17604968
-0.044675212 -0.063495561 -0.17602149
-0.044678051 -0.063571766 -0.17601126
-0.044681419 -0.063646235 -0.17598903
-0.044684902 -0.063724704 -0.17596686
-0.044689015 -0.063801475 -0.17593068
-0.044692673 -0.06387607 -0.17590244
-0.04469483 -0.063951977 -0.17590618
-0.044697508 -0.06402614 -0.17589793
-0.044701189 -0.064104691 -0.17587177
-0.044706181 -0.064181857 -0.17581761
-0.044709999 -0.064258493 -0.17578742
-0.04471352 -0.064335003 -0.17576322
-0.044717044 -0.064411514 -0.17573902
-0.044720862 -0.064488158 -0.17570883
-0.044723935 -0.064562492 -0.17569256
-0.044726383 -0.064638525 -0.17569034
-0.044729065 -0.064712688 -0.17568207
-0.044731807 -0.064788856 -0.17567384
-0.044734977 -0.064863235 -0.17565557
-0.044740222 -0.064942487 -0.17559747
-0.044744663 -0.065017432 -0.17555326
-0.044747796 -0.065093771 -0.17553705
-0.044750381 -0.065167889 -0.17553076
-0.044752926 -0.065243967 -0.17552653
-0.044755608 -0.06531813 -0.17551827
-0.044758193 -0.065392256 -0.175512
-0.044760443 -0.0654682 -0.17551376
-0.044761855 -0.065541796 -0.17553145
-0.044763364 -0.065615445 -0.17554715
-0.044764969 -0.065689132 -0.17556083
-0.044766869 -0.065762945 -0.17556855
-0.044768281 -0.065836549 -0.17558624
-0.044767972 -0.065907411 -0.17563784
-0.044767916 -0.06598036 -0.1756855
-0.04476786 -0.066053309 -0.17573313
-0.044767257 -0.066124044 -0.17579073
-0.044766262 -0.066194601 -0.17585629
-0.044764541 -0.066266812 -0.17593791
-0.044763252 -0.066337243 -0.17600948
-0.044193357 -0.066326767 -0.18780425
-0.044193774 -0.066405848 -0.18784606
-0.044192567 -0.066482224 -0.18791977
-0.044192843 -0.066563211 -0.1879656
-0.044781897 -0.086841285 -0.18869166
-0.044792008 -0.086908884 -0.18852539
-0.044829909 -0.086927682 -0.18775254
-0.044834934 -0.087002896 -0.18769634
-0.044840258 -0.087078229 -0.18763414
-0.044844858 -0.087155223 -0.18758798
-0.044849064 -0.087232031 -0.1875498
-0.044852979 -0.08730872 -0.18751761
-0.044857189 -0.087385535 -0.18747942
-0.044861261 -0.087464258 -0.18744528
-0.044865075 -0.087540902 -0.18741509
-0.044868328 -0.087621234 -0.18739897
-0.044871029 -0.087699354 -0.1873928
-0.044873498 -0.087779343 -0.18739265
-0.044875927 -0.087861285 -0.18739454
-0.0448783 -0.087941229 -0.18739641
-0.044880632 -0.088023126 -0.18740031
-0.044882808 -0.088102981 -0.18740615
-0.044884786 -0.088182747 -0.18741599
-0.044886827 -0.088264517 -0.18742588
-0.044888962 -0.088346332 -0.18743376
-0.044890903 -0.08842805 -0.18744567
-0.044893079 -0.088507906 -0.1874515
-0.044895314 -0.088589765 -0.1874574
-0.044897784 -0.088669747 -0.18745726
-0.044900153 -0.088749692 -0.18745911
-0.044901472 -0.088833116 -0.18748501
-0.044902787 -0.088916533 -0.18751094
-0.044905059 -0.088996433 -0.18751478
-0.04490792 -0.089076594 -0.18750665
-0.044909999 -0.089156404 -0.1875145
-0.044911608 -0.089239955 -0.18753442
-0.04491296 -0.08932142 -0.18755829
-0.044914275 -0.089404844 -0.18758421
-0.044916317 -0.089486614 -0.18759409
-0.04491777 -0.089568123 -0.18761596
-0.044919144 -0.089653537 -0.18764192
-0.0449205 -0.089735001 -0.18766579
-0.044921815 -0.089818418 -0.1876917
-0.044923462 -0.089900017 -0.18770958
-0.044925794 -0.089981914 -0.18771347
-0.044928264 -0.090061903 -0.18771334
-0.044930734 -0.090141892 -0.18771319
-0.044933163 -0.090223826 -0.18771508
-0.044935398 -0.090305686 -0.18772098
-0.044937242 -0.090387367 -0.18773487
-0.044939183 -0.090469092 -0.18774676
-0.044941224 -0.090550855 -0.18775666
-0.0449434 -0.09063071 -0.1877625
-0.044945732 -0.090712614 -0.1877664
-0.044947907 -0.09079247 -0.18777224
-0.044949807 -0.090876147 -0.18778616
-0.044951849 -0.090957917 -0.18779606
-0.044954121 -0.091037817 -0.18779992
-0.04495573 -0.091121368 -0.18781982
-0.04495728 -0.091202915 -0.1878397
-0.044959184 -0.0912866 -0.18785363
-0.044961028 -0.09136828 -0.18786752
-0.0449633 -0.09144818 -0.18787137
-0.044965826 -0.091530167 -0.18787128
-0.044968002 -0.091610022 -0.18787712
-0.044970531 -0.091692008 -0.18787703
-0.044973332 -0.091770172 -0.18786885
-0.044975664 -0.091852069 -0.18787274
-0.044976257 -0.09193714 -0.18791467
-0.044977963 -0.092020735 -0.1879326
-0.044980004 -0.092102498 -0.18794249
-0.044982668 -0.092182577 -0.18793836
-0.044985332 -0.092262648 -0.18793422
-0.044987567 -0.092344508 -0.18794011
-0.044989742 -0.092424363 -0.18794596
-0.044992309 -0.09250439 -0.18794382
-0.044994444 -0.092586204 -0.18795171
-0.044996154 -0.092669792 -0.18796962
-0.044998094 -0.092751518 -0.18798152
-0.045000233 -0.092833325 -0.18798941
-0.045003191 -0.092913538 -0.18797928
-0.045006283 -0.092991829 -0.18796512
-0.045008421 -0.093073636 -0.18797301
-0.045011085 -0.093153715 -0.18796888
-0.045013651 -0.093233742 -0.18796673
-0.045015357 -0.093317337 -0.18798465
-0.045017395 -0.093399107 -0.18799454
-0.045020785 -0.093477525 -0.18797438
-0.045023743 -0.09355773 -0.18796426
-0.045025684 -0.093639456 -0.18797614
-0.045027427 -0.093721092 -0.18799202
-0.045029566 -0.093802899 -0.1879999
-0.045031507 -0.093884632 -0.1880118
-0.045034036 -0.093966618 -0.18801171
-0.045036502 -0.094046608 -0.18801156
-0.045039129 -0.094128631 -0.18800947
-0.045041598 -0.094208613 -0.18800932
-0.045042582 -0.094293863 -0.18804327
-0.045044094 -0.094377369 -0.18806517
-0.045046329 -0.094459221 -0.18807107
-0.045048699 -0.094539165 -0.18807293
-0.04505074 -0.094620936 -0.18808281
-0.045053501 -0.094701052 -0.18807669
-0.045056459 -0.094781257 -0.18806657
-0.045058928 -0.094861239 -0.18806642
-0.04506126 -0.094943143 -0.18807033
-0.045064352 -0.095021434 -0.18805614
-0.04506731 -0.09510164 -0.18804601
-0.04506902 -0.095185228 -0.18806395
-0.045070432 -0.095268697 -0.18808785
-0.045072764 -0.095350593 -0.18809175
-0.045075566 -0.09542875 -0.18808359
-0.045077898 -0.095510647 -0.18808748
-0.045079742 -0.095592335 -0.18810135
-0.045081742 -0.095676057 -0.18811329
-0.045083586 -0.095757738 -0.18812717
-0.045085195 -0.095841289 -0.1881471
-0.043801554 -0.046115026 -0.1772418
-0.043803062 -0.046188667 -0.17725751
-0.04380383 -0.04626001 -0.17728713
-0.043804597 -0.04633135 -0.17731676
-0.043805949 -0.046402954 -0.1773344
-0.043808006 -0.046478812 -0.17734016
-0.043810066 -0.04655467 -0.17734592
-0.043812066 -0.046628531 -0.17735162
-0.043814123 -0.046704389 -0.17735739
-0.043816376 -0.046780337 -0.17735915
-0.043819182 -0.046858497 -0.17735097
-0.04382208 -0.046936706 -0.17734079
-0.04382398 -0.047010522 -0.17734849
-0.043825492 -0.047084168 -0.1773642
-0.043827001 -0.047157809 -0.17737989
-0.043828905 -0.047231626 -0.1773876
-0.043830864 -0.047307439 -0.17739534
-0.043832473 -0.047381129 -0.17740905
-0.043835666 -0.047459465 -0.17739287
-0.043839213 -0.047539927 -0.17737077
-0.043841563 -0.047615919 -0.17737053
-0.043843076 -0.047689561 -0.17738622
-0.043845326 -0.047765508 -0.17738798
-0.043848228 -0.04784371 -0.17737782
-0.043850284 -0.047919571 -0.17738357
-0.043851346 -0.047991045 -0.17740721
-0.043852758 -0.048064645 -0.17742491
-0.043854464 -0.048138373 -0.17743659
-0.043856621 -0.048214279 -0.17744035
-0.043860558 -0.048294917 -0.17741026
-0.043864004 -0.048375338 -0.17739016
-0.043865964 -0.048451152 -0.17739791
-0.043867867 -0.048524968 -0.1774056
-0.043869928 -0.04860083 -0.17741136
-0.043872181 -0.048676774 -0.17741312
-0.043874532 -0.048752762 -0.17741288
-0.043876689 -0.048828669 -0.17741665
-0.043878686 -0.048902526 -0.17742234
-0.043880843 -0.048978433 -0.1774261
-0.043883644 -0.049056593 -0.17741793
-0.043887228 -0.0491351 -0.17739378
-0.043890286 -0.049215347 -0.17738165
-0.04389248 -0.049289297 -0.17738336
-0.043894343 -0.04936507 -0.17739311
-0.043896597 -0.049441013 -0.17739487
-0.043898754 -0.049516916 -0.17739864
-0.043901205 -0.049592949 -0.1773964
-0.043903358 -0.049668852 -0.17740017
-0.043905359 -0.049742714 -0.17740586
-0.043907672 -0.049820662 -0.17740768
-0.043910027 -0.04989665 -0.17740744
-0.043911986 -0.049972463 -0.17741519
-0.04391418 -0.050046414 -0.17741691
-0.043917373 -0.05012475 -0.17740074
-0.043920372 -0.050202996 -0.17738858
-0.043922879 -0.050281025 -0.17738637
-0.043924939 -0.050356887 -0.17739214
-0.043926936 -0.050430749 -0.17739785
-0.043928642 -0.05050448 -0.17740956
-0.043930113 -0.050580077 -0.17742729
-0.043931723 -0.050653763 -0.17744097
-0.043935757 -0.050734445 -0.17740889
-0.043941282 -0.050819732 -0.17734893
-0.043943632 -0.050895721 -0.17734869
-0.043945886 -0.050971664 -0.17735045
-0.043948434 -0.051047742 -0.17734623
-0.043951977 -0.051128209 -0.17732412
-0.043954525 -0.051204283 -0.17731988
-0.043956328 -0.051278058 -0.17732957
-0.043958936 -0.051356133 -0.1773254
-0.043961581 -0.051432252 -0.17731917
-0.043963738 -0.051508155 -0.17732292
-0.043965895 -0.051584058 -0.17732668
-0.04396889 -0.051662307 -0.17731452
-0.043971438 -0.051738385 -0.17731029
-0.043973789 -0.051814374 -0.17731005
-0.043975946 -0.051890276 -0.1773138
-0.043978103 -0.051966175 -0.17731756
-0.043980259 -0.052042082 -0.17732131
-0.043982316 -0.05211794 -0.17732708
-0.043985412 -0.052196234 -0.17731291
-0.04399113 -0.052281607 -0.17724895
-0.043995105 -0.052360289 -0.17721681
-0.043997556 -0.052436322 -0.17721458
-0.044000063 -0.052514352 -0.17721239
-0.044003647 -0.052592866 -0.17718822
-0.044006646 -0.052671112 -0.17717606
-0.044008546 -0.052744929 -0.17718378
-0.044010155 -0.052818615 -0.17719746
-0.044011824 -0.052894302 -0.17721121
-0.044013333 -0.052967943 -0.1772269
-0.044015683 -0.053043932 -0.17722666
-0.04401888 -0.053122267 -0.17721051
-0.044021875 -0.053200517 -0.17719832
-0.044024128 -0.053276464 -0.17720008
-0.044026226 -0.053350367 -0.1772038
-0.04402893 -0.053428486 -0.17719762
-0.044032123 -0.053506821 -0.17718145
-0.044034768 -0.053582944 -0.17717522
-0.044036631 -0.053658716 -0.17718497
-0.044038143 -0.053732358 -0.17720068
-0.044040691 -0.053808436 -0.17719644
-0.044045568 -0.053891461 -0.17714842
-0.044048212 -0.05396758 -0.17714217
-0.044050563 -0.054043569 -0.17714195
-0.044052914 -0.054119561 -0.17714171
-0.044055812 -0.054197766 -0.17713153
-0.044058461 -0.054273888 -0.1771253
-0.044060715 -0.054349832 -0.17712706
-0.044063359 -0.054425955 -0.17712085
-0.044065908 -0.054502029 -0.17711662
-0.044069 -0.05458032 -0.17710245
-0.044071745 -0.054656483 -0.17709422
-0.044074193 -0.054732516 -0.17709199
-0.044077288 -0.054810811 -0.17707781
-0.044080578 -0.054889187 -0.17705965
-0.044082835 -0.054965135 -0.17706141
-0.044084892 -0.055040993 -0.17706719
-0.044086989 -0.055114895 -0.17707089
-0.044088949 -0.055190712 -0.17707863
-0.044091105 -0.055266615 -0.17708239
-0.044093359 -0.055342562 -0.17708416
-0.044095553 -0.05541651 -0.17708588
-0.044098943 -0.055494931 -0.17706572
-0.044103272 -0.055575743 -0.17702763
-0.044106856 -0.055654254 -0.17700347
-0.044109307 -0.055730283 -0.17700124
-0.044110719 -0.055803888 -0.17701893
-0.044112425 -0.055877618 -0.17703062
-0.044115324 -0.05595582 -0.17702046
-0.044118166 -0.056032028 -0.17701024
-0.044119831 -0.056107715 -0.17702398
-0.044121537 -0.056181446 -0.17703567
-0.044123888 -0.056257434 -0.17703545
-0.044126242 -0.056333423 -0.1770352
-0.044128045 -0.056407198 -0.1770449
-0.044130005 -0.056483012 -0.17705266
-0.044132296 -0.056557003 -0.17705238
-0.04413455 -0.056632951 -0.17705414
-0.044136707 -0.056708854 -0.17705789
-0.044138413 -0.056782581 -0.1770696
-0.044139884 -0.056858182 -0.17708734
-0.044141494 -0.056931868 -0.17710103
-0.0441432 -0.057005599 -0.17711274
-0.044145748 -0.057081677 -0.1771085
-0.044148941 -0.057160012 -0.17709234
-0.044152327 -0.057238434 -0.17707217
-0.044154875 -0.057314511 -0.17706795
-0.044157326 -0.057390541 -0.1770657
-0.044160362 -0.057466835 -0.1770515
-0.044163652 -0.057545215 -0.17703333
-0.044166103 -0.057621248 -0.1770311
-0.044168003 -0.057695065 -0.17703882
-0.044170257 -0.057771012 -0.17704058
-0.044172119 -0.057846785 -0.17705032
-0.044174023 -0.057920601 -0.17705803
-0.044176824 -0.057998762 -0.17704985
-0.044179566 -0.058074929 -0.17704162
-0.044181664 -0.058148831 -0.17704535
-0.044183232 -0.058224473 -0.17706108
-0.044184744 -0.058298118 -0.17707677
-0.044186354 -0.058371805 -0.17709047
-0.044187862 -0.058445446 -0.17710617
-0.044189822 -0.058521263 -0.17711392
-0.044192567 -0.058597427 -0.1771057
-0.044196442 -0.058676064 -0.17707554
-0.044199929 -0.058754534 -0.17705339
-0.044202574 -0.058830652 -0.17704716
-0.044205122 -0.058906727 -0.17704293
-0.044208158 -0.05898302 -0.17702872
-0.044211291 -0.059059359 -0.1770125
-0.044213995 -0.059137478 -0.17700633
-0.044216387 -0.059211511 -0.17700404
-0.044219777 -0.059289932 -0.17698389
-0.04422291 -0.059366271 -0.17696767
-0.044225555 -0.05944239 -0.17696145
-0.044228103 -0.059518468 -0.17695722
-0.044231296 -0.059596799 -0.17694104
-0.044234134 -0.059673008 -0.17693081
-0.044236291 -0.05974891 -0.17693458
-0.044238195 -0.059822731 -0.17694229
-0.044240545 -0.059898719 -0.17694205
-0.044243384 -0.059974924 -0.17693183
-0.04424613 -0.060051087 -0.1769236
-0.04424848 -0.060127079 -0.17692336
-0.044251125 -0.060203195 -0.17691714
-0.044255394 -0.060282011 -0.176879
-0.044259563 -0.060360778 -0.17684287
-0.044261858 -0.06043477 -0.17684259
-0.044264954 -0.060513064 -0.17682841
-0.044269711 -0.060592093 -0.17678028
-0.044273589 -0.060670733 -0.17675015
-0.044276524 -0.060746983 -0.17673793
-0.044278819 -0.060820974 -0.17673767
-0.044281267 -0.060897008 -0.17673542
-0.044283912 -0.060973126 -0.17672919
-0.044287048 -0.061049461 -0.17671297
-0.044290338 -0.061127841 -0.17669481
-0.044292338 -0.061201703 -0.17670053
-0.044294883 -0.061277777 -0.1766963
-0.044297822 -0.06135403 -0.17668407
-0.044299882 -0.061429888 -0.17668983
-0.044301294 -0.061503489 -0.17670754
-0.044302903 -0.061577179 -0.17672122
-0.0443049 -0.061651036 -0.17672692
-0.044307642 -0.0617272 -0.17671871
-0.044311911 -0.061806012 -0.17668056
-0.04431982 -0.061890386 -0.17657062
-0.044323344 -0.061966896 -0.17654642
-0.044326186 -0.062043101 -0.1765362
-0.04432971 -0.062119614 -0.176512
-0.044333234 -0.062196124 -0.1764878
-0.044335976 -0.062272288 -0.17647958
-0.044338621 -0.062348407 -0.17647335
-0.044341363 -0.06242457 -0.17646512
-0.044344597 -0.062500954 -0.17644691
-0.04434783 -0.06257733 -0.17642871
-0.044350766 -0.062653579 -0.17641649
-0.044354036 -0.062728003 -0.17639625
-0.044357426 -0.062806427 -0.17637607
-0.044361241 -0.062883072 -0.17634588
-0.044364572 -0.062959492 -0.17632568
-0.044367805 -0.063035876 -0.17630747
-0.044370547 -0.063112035 -0.17629924
-0.044373386 -0.06318824 -0.17628902
-0.044378478 -0.06326545 -0.17623287
-0.044383235 -0.063344479 -0.17618474
-0.044386856 -0.063421033 -0.17615855
-0.044391714 -0.063500106 -0.17610842
-0.044396605 -0.063577227 -0.17605627
-0.044400033 -0.063653693 -0.17603406
-0.044402383 -0.063729681 -0.17603382
-0.04440552 -0.06380602 -0.17601761
-0.044409335 -0.063882656 -0.17598742
-0.044412117 -0.063956864 -0.17597714
-0.044415154 -0.064033158 -0.17596292
-0.044418287 -0.064109497 -0.17594671
-0.044421617 -0.064185917 -0.17592652
-0.044427 -0.064263254 -0.17586437
-0.044431169 -0.064342022 -0.17582823
-0.044434048 -0.064416274 -0.17581597
-0.044437282 -0.064492658 -0.17579776
-0.044440355 -0.064567 -0.17578149
-0.044443488 -0.064643331 -0.17576528
-0.044446915 -0.064719796 -0.17574307
-0.044449992 -0.064794138 -0.17572682
-0.044453517 -0.064870648 -0.17570263
-0.044458959 -0.064949982 -0.17564052
-0.044463009 -0.065024756 -0.17560428
-0.044466339 -0.065101177 -0.17558408
-0.044468887 -0.065177254 -0.17557985
-0.044471279 -0.065251291 -0.17557757
-0.044473961 -0.065325454 -0.1755693
-0.0444768 -0.065401658 -0.17555907
-0.044478897 -0.065475568 -0.17556278
-0.044480704 -0.065549336 -0.17557248
-0.044482406 -0.065623067 -0.1755842
-0.044483919 -0.065696716 -0.17559989
-0.044485234 -0.065770268 -0.17561957
-0.044486061 -0.065843612 -0.17564926
-0.04448669 -0.065916866 -0.17568292
-0.044487905 -0.065990373 -0.1757046
-0.044488769 -0.066061758 -0.17573223
-0.044488423 -0.066134579 -0.17578587
-0.044486452 -0.066204704 -0.17587143
-0.044483993 -0.066274613 -0.17596696
-0.044481438 -0.066344477 -0.17606449
-0.044345655 -0.06643407 -0.1789339
-0.044347517 -0.066509843 -0.17894366
-0.044349674 -0.066585742 -0.17894742
-0.043828011 -0.066178553 -0.18949217
-0.043831028 -0.066260755 -0.18948208
-0.043833852 -0.066342868 -0.18947601
-0.043836381 -0.066424854 -0.18947589
-0.043837834 -0.066506363 -0.18949777
-0.043837078 -0.066584915 -0.18956354
-0.044340499 -0.086199559 -0.19164892
-0.044343263 -0.086279675 -0.19164278
-0.044371769 -0.086404748 -0.19113216
-0.044376798 -0.086479954 -0.19107595
-0.04438214 -0.086559244 -0.19101585
-0.044385493 -0.086639628 -0.19099775
-0.044387728 -0.08672148 -0.19100364
-0.044390161 -0.086803421 -0.19100553
-0.044494811 -0.086867645 -0.188879
-0.044496324 -0.086951151 -0.18890092
-0.044553787 -0.087018088 -0.18775353
-0.044558581 -0.087095164 -0.18770337
-0.044562984 -0.087172061 -0.1876612
-0.044567782 -0.087249137 -0.18761104
-0.044571698 -0.087325819 -0.18757883
-0.04457581 -0.08740259 -0.18754266
-0.044580117 -0.08747945 -0.18750247
-0.044584032 -0.087556131 -0.18747029
-0.044587187 -0.087636426 -0.18745616
-0.044590145 -0.087716632 -0.18744603
-0.044592518 -0.087796569 -0.18744789
-0.044595085 -0.087876603 -0.18744574
-0.044597559 -0.087956592 -0.18744561
-0.044599302 -0.088038228 -0.1874615
-0.044601053 -0.088119864 -0.18747737
-0.044602994 -0.08820159 -0.18748924
-0.044605132 -0.088283397 -0.18749714
-0.044607505 -0.088363342 -0.187499
-0.044609547 -0.088445112 -0.18750888
-0.044611491 -0.088526838 -0.18752077
-0.044613667 -0.088606693 -0.18752661
-0.044615902 -0.088688552 -0.18753251
-0.044618178 -0.088768452 -0.18753637
-0.044620316 -0.08885026 -0.18754426
-0.044622261 -0.088931985 -0.18755615
-0.044624045 -0.089011669 -0.18756998
-0.044625755 -0.089095265 -0.1875879
-0.044627797 -0.089177027 -0.1875978
-0.04463017 -0.089256972 -0.18759966
-0.044632211 -0.089338742 -0.18760954
-0.044633664 -0.089420252 -0.1876314
-0.044635177 -0.089503758 -0.18765333
-0.044636827 -0.089585349 -0.18767121
-0.044638343 -0.089668855 -0.18769312
-0.044639759 -0.089752316 -0.18771704
-0.044641506 -0.08983396 -0.18773292
-0.044643644 -0.089915767 -0.1877408
-0.044646114 -0.089995757 -0.18774067
-0.044648156 -0.090077527 -0.18775056
-0.044650096 -0.090159252 -0.18776244
-0.044651944 -0.090240926 -0.18777633
-0.044654083 -0.09032274 -0.18778422
-0.04465583 -0.090404376 -0.18780009
-0.04465754 -0.090487972 -0.18781802
-0.044659812 -0.090567872 -0.18782187
-0.044662051 -0.090649724 -0.18782777
-0.044664286 -0.090731584 -0.18783367
-0.044666171 -0.090811312 -0.1878455
-0.044668272 -0.090895079 -0.18785542
-0.044670641 -0.090975016 -0.18785729
-0.04467278 -0.091056831 -0.18786518
-0.044674627 -0.091138512 -0.18787906
-0.044676043 -0.091221973 -0.18790299
-0.044678181 -0.091303788 -0.18791087
-0.044680458 -0.091383688 -0.18791473
-0.044681873 -0.09146715 -0.18793865
-0.044683482 -0.0915507 -0.18795857
-0.044686347 -0.091630861 -0.18795043
-0.044689108 -0.091710977 -0.18794429
-0.044691384 -0.091790877 -0.18794814
-0.044693619 -0.091872737 -0.18795404
-0.044695757 -0.091954544 -0.18796194
-0.044697937 -0.0920344 -0.18796778
-0.04470066 -0.092116475 -0.18796369
-0.044702508 -0.092198156 -0.18797757
-0.044704158 -0.092279747 -0.18799545
-0.044706821 -0.092359826 -0.18799132
-0.044709392 -0.092439853 -0.18798918
-0.044711724 -0.092521749 -0.18799306
-0.044713862 -0.092603564 -0.18800098
-0.044716001 -0.092685372 -0.18800884
-0.044719391 -0.092763796 -0.1879887
-0.044722877 -0.092842266 -0.18796653
-0.044724721 -0.092923939 -0.18798041
-0.044726335 -0.09300749 -0.18800034
-0.044726208 -0.093094215 -0.1880583
-0.044729166 -0.09317442 -0.18804817
-0.044731833 -0.093254492 -0.18804404
-0.044734165 -0.093336388 -0.18804793
-0.044736635 -0.093416378 -0.1880478
-0.044739302 -0.093496449 -0.18804364
-0.044741735 -0.093578391 -0.18804553
-0.044742953 -0.09366177 -0.18807346
-0.044745095 -0.093743578 -0.18808135
-0.044747759 -0.093823656 -0.18807721
-0.044749897 -0.093905464 -0.18808511
-0.044752426 -0.09398745 -0.18808502
-0.044755094 -0.094067521 -0.18808088
-0.044757467 -0.094147466 -0.18808272
-0.044759899 -0.094229408 -0.18808463
-0.04476184 -0.094311133 -0.18809652
-0.044763744 -0.094394818 -0.18811044
-0.044765592 -0.094476499 -0.18812433
-0.044767302 -0.094560087 -0.18814224
-0.044769868 -0.094640121 -0.18814011
-0.044773258 -0.094718546 -0.18811995
-0.044776354 -0.094796836 -0.18810576
-0.044778492 -0.094878644 -0.18811366
-0.044780493 -0.094962373 -0.18812561
-0.044782672 -0.095042229 -0.18813145
-0.04478481 -0.095124036 -0.18813933
-0.044787046 -0.095205888 -0.18814524
-0.044789478 -0.09528783 -0.18814713
-0.04479152 -0.0953696 -0.18815702
-0.044792797 -0.095454976 -0.18818498
-0.044794977 -0.095534831 -0.18819082
-0.044797935 -0.095615037 -0.18818069
-0.044800699 -0.095695153 -0.18817458
-0.044803131 -0.095777094 -0.18817647
-0.044804681 -0.095858648 -0.18819635
-0.043438241 -0.046090908 -0.17745198
-0.043442432 -0.046173632 -0.17741793
-0.043446723 -0.046256401 -0.17738189
-0.043450564 -0.046336994 -0.1773538
-0.043453269 -0.046415113 -0.17734762
-0.043454431 -0.046486627 -0.17736925
-0.043454457 -0.046555668 -0.17741281
-0.043456711 -0.046631612 -0.17741457
-0.043459162 -0.046707645 -0.17741235
-0.043461576 -0.04678563 -0.17741215
-0.043464322 -0.046861798 -0.17740393
-0.04346738 -0.046942044 -0.1773918
-0.043469734 -0.047018033 -0.17739156
-0.04347099 -0.047089592 -0.1774112
-0.043472409 -0.047163188 -0.1774289
-0.043474309 -0.047237009 -0.17743659
-0.043476079 -0.047312737 -0.17744833
-0.043477591 -0.047386378 -0.17746404
-0.043479204 -0.047460072 -0.17747773
-0.043483295 -0.047542751 -0.17744568
-0.043487977 -0.047625691 -0.17740166
-0.043490037 -0.047701545 -0.17740741
-0.04349149 -0.047773194 -0.17742306
-0.043493357 -0.047848966 -0.17743281
-0.043495417 -0.047924824 -0.17743856
-0.043497518 -0.047998726 -0.17744228
-0.043499835 -0.048076674 -0.17744409
-0.043502577 -0.048152834 -0.17743585
-0.043504931 -0.048228826 -0.17743561
-0.043506797 -0.048304595 -0.17744537
-0.043509249 -0.048380628 -0.17744313
-0.043511797 -0.048456706 -0.1774389
-0.043513663 -0.048532479 -0.17744866
-0.043515664 -0.04860634 -0.17745435
-0.043517981 -0.048684284 -0.17745617
-0.043520175 -0.048758231 -0.17745787
-0.043521944 -0.048833963 -0.17746963
-0.043523554 -0.048907649 -0.17748332
-0.043525361 -0.048981421 -0.17749304
-0.043527421 -0.049057283 -0.17749879
-0.043529872 -0.049133316 -0.17749655
-0.043535002 -0.049218427 -0.17744458
-0.043537907 -0.049296632 -0.17743438
-0.043539613 -0.049370363 -0.1774461
-0.043542124 -0.049448393 -0.17744392
-0.043544576 -0.049524426 -0.17744167
-0.043546285 -0.049598157 -0.17745337
-0.043547697 -0.049671754 -0.17747107
-0.043549504 -0.04974553 -0.17748077
-0.043552212 -0.049823649 -0.17747459
-0.043554664 -0.049899682 -0.17747235
-0.043557368 -0.049977802 -0.17746618
-0.043561306 -0.050058439 -0.17743608
-0.043564111 -0.0501366 -0.17742789
-0.043565623 -0.050210245 -0.17744359
-0.043567136 -0.050283886 -0.17745927
-0.043569393 -0.05035983 -0.17746104
-0.043571845 -0.050435871 -0.17745881
-0.043574296 -0.0505119 -0.17745657
-0.043577 -0.05059002 -0.17745039
-0.043580003 -0.050668269 -0.17743821
-0.043583099 -0.05074656 -0.17742404
-0.043586489 -0.050824981 -0.17740388
-0.043589681 -0.050903317 -0.17738771
-0.043592192 -0.050981347 -0.17738554
-0.043594938 -0.05105751 -0.17737731
-0.043598093 -0.051137801 -0.17736319
-0.043599706 -0.051211491 -0.17737688
-0.043601058 -0.051283088 -0.17739454
-0.043603025 -0.051358905 -0.17740229
-0.043605182 -0.051434807 -0.17740604
-0.04360779 -0.051512882 -0.17740186
-0.043611277 -0.051591352 -0.1773797
-0.043614179 -0.051669553 -0.17736952
-0.043616731 -0.051745631 -0.17736529
-0.043619826 -0.051823922 -0.17735112
-0.043622434 -0.051901996 -0.17734693
-0.043624144 -0.051975727 -0.17735863
-0.04362585 -0.052049458 -0.17737034
-0.043628011 -0.052125361 -0.17737409
-0.04363101 -0.052203611 -0.17736192
-0.043635435 -0.052284464 -0.17732184
-0.043639176 -0.052365012 -0.17729573
-0.043641921 -0.052441176 -0.1772875
-0.043645177 -0.052521512 -0.17727138
-0.043649152 -0.052600194 -0.17723924
-0.043652505 -0.052680574 -0.17722112
-0.043654859 -0.052756563 -0.17722088
-0.043657053 -0.05283051 -0.17722259
-0.043658625 -0.052906148 -0.17723835
-0.043659981 -0.052977752 -0.17725599
-0.043662298 -0.053055696 -0.17725778
-0.043665238 -0.053131945 -0.17724557
-0.043667592 -0.053207934 -0.17724533
-0.043669946 -0.05328393 -0.1772451
-0.043673042 -0.053362217 -0.17723092
-0.043675199 -0.05343812 -0.17723468
-0.043676712 -0.053511765 -0.17725039
-0.043678675 -0.053587578 -0.17725813
-0.043681677 -0.053665828 -0.17724594
-0.043684322 -0.053741947 -0.17723973
-0.043686774 -0.05381798 -0.17723751
-0.043689519 -0.053894144 -0.17722927
-0.04369197 -0.053970177 -0.17722704
-0.043695126 -0.054050468 -0.17721291
-0.043698613 -0.054128934 -0.17719075
-0.043701652 -0.054205224 -0.17717654
-0.043704003 -0.054281216 -0.1771763
-0.043705773 -0.054356944 -0.17718805
-0.043707676 -0.05443076 -0.17719576
-0.043710381 -0.05450888 -0.17718957
-0.043713227 -0.054585084 -0.17717935
-0.043716028 -0.054663248 -0.17717117
-0.043718871 -0.054739457 -0.17716095
-0.043721676 -0.054817617 -0.17715277
-0.043724127 -0.05489365 -0.17715053
-0.043726772 -0.054969769 -0.17714432
-0.043729518 -0.055045933 -0.17713609
-0.043732516 -0.055124179 -0.1771239
-0.043734871 -0.055200171 -0.17712368
-0.043736678 -0.055273943 -0.17713338
-0.043738153 -0.055349544 -0.17715111
-0.043740153 -0.055423405 -0.17715682
-0.043743346 -0.055501737 -0.17714065
-0.043747872 -0.055582635 -0.17709857
-0.04375165 -0.055661231 -0.17707042
-0.043754004 -0.055737223 -0.17707019
-0.043756261 -0.055813167 -0.17707196
-0.043757871 -0.055886857 -0.17708564
-0.043759286 -0.055960454 -0.17710334
-0.043761056 -0.056036185 -0.17711508
-0.04376341 -0.056112178 -0.17711484
-0.043765958 -0.056188252 -0.17711061
-0.04376841 -0.056264281 -0.17710838
-0.043770667 -0.056340232 -0.17711014
-0.043772861 -0.05641418 -0.17711186
-0.043775178 -0.05649212 -0.17711365
-0.043777179 -0.056565985 -0.17711937
-0.043778889 -0.056639716 -0.17713107
-0.043780558 -0.056715399 -0.17714483
-0.043782655 -0.056789301 -0.17714852
-0.043785069 -0.05686729 -0.17714834
-0.043786973 -0.056941107 -0.17715603
-0.043788876 -0.057014927 -0.17716375
-0.043791488 -0.057093002 -0.17715956
-0.043795265 -0.057171598 -0.17713141
-0.043799046 -0.057250194 -0.17710327
-0.043802533 -0.057328656 -0.17708111
-0.043804437 -0.057402473 -0.17708881
-0.043805562 -0.057475947 -0.17711249
-0.043807816 -0.057551891 -0.17711425
-0.043810524 -0.05763001 -0.17710808
-0.043812525 -0.057703868 -0.17711379
-0.043814134 -0.057777558 -0.17712748
-0.043816842 -0.057855673 -0.1771213
-0.043819137 -0.057929665 -0.17712101
-0.043821745 -0.058007739 -0.17711684
-0.043823842 -0.058081646 -0.17712054
-0.043825902 -0.058157504 -0.1771263
-0.043827865 -0.058233321 -0.17713405
-0.043829672 -0.058307096 -0.17714375
-0.043831833 -0.058382995 -0.17714751
-0.043834087 -0.058458943 -0.17714927
-0.043835893 -0.058532715 -0.17715898
-0.043837603 -0.058606446 -0.17717068
-0.04383976 -0.058682352 -0.17717442
-0.043843735 -0.05876103 -0.17714229
-0.043849688 -0.058844537 -0.17707229
-0.043852236 -0.058920614 -0.17706805
-0.043854333 -0.058994517 -0.17707178
-0.043857433 -0.059072807 -0.17705761
-0.043860078 -0.05914893 -0.17705137
-0.043862335 -0.059224874 -0.17705312
-0.043865569 -0.059301257 -0.17703491
-0.043868862 -0.059379634 -0.17701676
-0.043871447 -0.059453756 -0.17701048
-0.043874837 -0.059532177 -0.17699033
-0.043878071 -0.059608556 -0.17697212
-0.043881167 -0.059686847 -0.17695795
-0.043883324 -0.059762754 -0.17696171
-0.043885328 -0.059836611 -0.17696741
-0.043887485 -0.059912514 -0.17697117
-0.043889292 -0.05998629 -0.17698087
-0.043891743 -0.060062323 -0.17697865
-0.043894488 -0.060138486 -0.17697042
-0.043897133 -0.060214605 -0.17696419
-0.04390033 -0.060292941 -0.17694801
-0.043904889 -0.060371883 -0.17690389
-0.043907575 -0.060446046 -0.17689562
-0.043911356 -0.060524642 -0.17686747
-0.043915723 -0.060603499 -0.17682734
-0.043918528 -0.06068166 -0.17681916
-0.043920625 -0.060755566 -0.17682287
-0.043922625 -0.060829423 -0.17682856
-0.043925431 -0.060907587 -0.1768204
-0.043928664 -0.060983967 -0.17680219
-0.043933131 -0.061062865 -0.17676006
-0.043937005 -0.061141506 -0.17672992
-0.043939106 -0.061215408 -0.17673361
-0.043940775 -0.061291095 -0.17674737
-0.043943364 -0.061365217 -0.17674109
-0.043945521 -0.06144112 -0.17674485
-0.04394684 -0.061514676 -0.17676455
-0.043949194 -0.061590664 -0.17676429
-0.043951839 -0.061666787 -0.17675808
-0.043954819 -0.06174108 -0.17674381
-0.043959636 -0.061822109 -0.17669573
-0.043965857 -0.061901789 -0.17661765
-0.043970224 -0.061980642 -0.17657754
-0.043974593 -0.062059499 -0.17653739
-0.043977533 -0.062135749 -0.17652518
-0.043980081 -0.062211826 -0.17652094
-0.043982569 -0.062285908 -0.17651667
-0.043985218 -0.062362023 -0.17651042
-0.043987863 -0.062438145 -0.17650421
-0.043990549 -0.062512308 -0.17649594
-0.043993939 -0.062590733 -0.17647576
-0.043997757 -0.06266737 -0.17644557
-0.044001773 -0.062744096 -0.17641139
-0.044005357 -0.06282261 -0.17638724
-0.044008434 -0.062896945 -0.17637098
-0.044010691 -0.062972888 -0.17637274
-0.044013336 -0.063049011 -0.17636651
-0.044017352 -0.063125737 -0.17633232
-0.044020291 -0.063201986 -0.17632011
-0.044021901 -0.06327568 -0.1763338
-0.044025525 -0.063352227 -0.1763076
-0.0440346 -0.063437119 -0.17617369
-0.044038225 -0.063513674 -0.17614749
-0.044041555 -0.063590102 -0.17612728
-0.044045962 -0.063666999 -0.17608511
-0.044049937 -0.063745685 -0.17605296
-0.044052523 -0.063819803 -0.1760467
-0.044055268 -0.063895971 -0.17603847
-0.044058304 -0.063972265 -0.17602426
-0.044061478 -0.064046644 -0.176006
-0.044064615 -0.064122975 -0.17598978
-0.044068728 -0.064199746 -0.1759536
-0.044072643 -0.064276434 -0.17592141
-0.044076815 -0.064355202 -0.17588526
-0.044080928 -0.064431973 -0.17584908
-0.044084158 -0.064508349 -0.17583087
-0.044087332 -0.064582735 -0.17581262
-0.044090468 -0.064659074 -0.1757964
-0.044093311 -0.064735278 -0.17578617
-0.044095702 -0.064809315 -0.1757839
-0.044098288 -0.064883433 -0.17577763
-0.044101618 -0.064959854 -0.17575741
-0.044106416 -0.06503693 -0.17570725
-0.04411215 -0.065116391 -0.17563915
-0.044116456 -0.065193251 -0.17559898
-0.044119436 -0.065267548 -0.17558472
-0.04412169 -0.065343492 -0.17558648
-0.044124182 -0.065417573 -0.1755822
-0.04412628 -0.065491475 -0.17558593
-0.044127893 -0.065565161 -0.1755996
-0.04412999 -0.065639064 -0.17560333
-0.044131797 -0.065712839 -0.17561303
-0.044133212 -0.065786444 -0.17563072
-0.044134978 -0.065862171 -0.17564246
-0.044135749 -0.065933511 -0.17567208
-0.044135015 -0.066006154 -0.17573372
-0.044134613 -0.066076979 -0.17578731
-0.044134367 -0.066149838 -0.17583895
-0.044133086 -0.066220269 -0.17591053
-0.044132549 -0.066293001 -0.17596816
-0.044130288 -0.066362999 -0.17605969
-0.04399614 -0.066305369 -0.17880382
-0.043996345 -0.066380396 -0.17884752
-0.043996293 -0.066453353 -0.17889518
-0.043996595 -0.066528425 -0.17893687
-0.043996058 -0.066601157 -0.17899451
-0.043905422 -0.066590473 -0.18086652
-0.043907546 -0.066668332 -0.18087232
-0.043908823 -0.066743843 -0.18089405
-0.043908343 -0.066818573 -0.18095173
-0.043311905 -0.066368185 -0.19302809
-0.043314982 -0.066452384 -0.19301805
-0.04397583 -0.086245172 -0.19196633
-0.043980293 -0.086324073 -0.19192418
-0.043990165 -0.086393543 -0.19176395
-0.04401961 -0.086515091 -0.19123127
-0.044022825 -0.086597383 -0.19121718
-0.044026371 -0.086677849 -0.19119507
-0.044028707 -0.086759746 -0.19119897
-0.044030812 -0.086843513 -0.1912089
-0.044105656 -0.086789988 -0.18962315
-0.044106256 -0.086875059 -0.18966508
-0.044107873 -0.08695861 -0.18968499
-0.044203416 -0.087040506 -0.18775669
-0.044207491 -0.087119229 -0.18772253
-0.044211797 -0.087196089 -0.18768236
-0.044216439 -0.087271124 -0.18763414
-0.04422012 -0.087349676 -0.18760799
-0.044224136 -0.087426402 -0.18757379
-0.044228014 -0.087505043 -0.18754366
-0.044231597 -0.087583549 -0.18751949
-0.044234794 -0.087661885 -0.18750334
-0.044237949 -0.087742172 -0.18748921
-0.044240557 -0.087820247 -0.18748502
-0.044242796 -0.087902099 -0.18749091
-0.044245034 -0.087983958 -0.18749681
-0.044247411 -0.088063903 -0.18749866
-0.044249687 -0.088143803 -0.18750252
-0.044251926 -0.088225655 -0.1875084
-0.044253774 -0.088307336 -0.18752229
-0.044255622 -0.088389024 -0.18753618
-0.044257898 -0.088468924 -0.18754002
-0.044260334 -0.088550866 -0.18754193
-0.044262707 -0.088630803 -0.18754378
-0.044264849 -0.088712618 -0.18755168
-0.044266403 -0.088794172 -0.18757154
-0.044267725 -0.088877589 -0.18759745
-0.044269573 -0.088959269 -0.18761134
-0.044271752 -0.089039125 -0.18761718
-0.044274092 -0.089121021 -0.18762109
-0.04427617 -0.089200839 -0.18762892
-0.044278078 -0.089284517 -0.18764286
-0.044279967 -0.089364246 -0.1876547
-0.044282109 -0.089446053 -0.1876626
-0.044283759 -0.089527652 -0.18768047
-0.044284984 -0.089611024 -0.18770838
-0.044286169 -0.089696355 -0.18773833
-0.04428792 -0.089777991 -0.18775421
-0.044289574 -0.08985959 -0.18777208
-0.044291615 -0.089941353 -0.18778196
-0.044293992 -0.090021297 -0.18778382
-0.044296522 -0.090103284 -0.18778372
-0.044298369 -0.090184964 -0.18779761
-0.04430012 -0.090266608 -0.18781349
-0.044301834 -0.090350196 -0.1878314
-0.044303488 -0.090431795 -0.18784928
-0.044305626 -0.090513602 -0.18785718
-0.044308197 -0.090593636 -0.18785504
-0.044310044 -0.090675317 -0.18786892
-0.044312283 -0.090757169 -0.18787482
-0.044315051 -0.090837285 -0.18786867
-0.044317484 -0.090919226 -0.18787056
-0.044319041 -0.09100078 -0.18789044
-0.044321179 -0.091082595 -0.18789834
-0.044323225 -0.091164365 -0.18790823
-0.044324055 -0.091247566 -0.18794413
-0.044325341 -0.091332942 -0.1879721
-0.044327386 -0.091414705 -0.18798196
-0.044329368 -0.091494478 -0.18799183
-0.044331081 -0.091578066 -0.18800974
-0.044333942 -0.091658235 -0.1880016
-0.044337101 -0.091738522 -0.18798748
-0.044339571 -0.091818511 -0.18798733
-0.044341847 -0.091898412 -0.1879912
-0.044343989 -0.091980219 -0.18799907
-0.044345703 -0.092063814 -0.18801701
-0.044347648 -0.09214554 -0.18802889
-0.044350319 -0.092225611 -0.18802476
-0.044353083 -0.092305727 -0.18801862
-0.044355556 -0.092385709 -0.18801847
-0.044357695 -0.092467524 -0.18802637
-0.044359602 -0.092551202 -0.18804029
-0.04436145 -0.09263289 -0.18805417
-0.044363398 -0.092714608 -0.18806607
-0.04436554 -0.092796423 -0.18807395
-0.044367582 -0.092878193 -0.18808383
-0.044369627 -0.092959955 -0.18809372
-0.044372294 -0.093040034 -0.18808958
-0.044375353 -0.093120277 -0.18807745
-0.044377923 -0.093200311 -0.18807533
-0.044380493 -0.093280338 -0.18807319
-0.044382829 -0.093362242 -0.18807708
-0.044385068 -0.093444094 -0.18808296
-0.044387542 -0.093524083 -0.18808283
-0.044391125 -0.09360259 -0.18805867
-0.044394847 -0.09367919 -0.18803048
-0.044395603 -0.093766302 -0.18807048
-0.044396497 -0.093851499 -0.1881064
-0.044398967 -0.093931489 -0.18810627
-0.044400916 -0.094013214 -0.18811816
-0.044403054 -0.094095021 -0.18812603
-0.044405881 -0.094177142 -0.18811995
-0.044408351 -0.094257131 -0.1881198
-0.0444103 -0.094338849 -0.18813169
-0.044412244 -0.094420575 -0.18814358
-0.044414677 -0.094502516 -0.18814547
-0.044416819 -0.094584331 -0.18815336
-0.044418436 -0.094667882 -0.18817329
-0.044420574 -0.094749689 -0.18818118
-0.044423673 -0.09482798 -0.18816701
-0.044426829 -0.094908275 -0.18815288
-0.044429399 -0.094988301 -0.18815073
-0.044431441 -0.095070072 -0.18816063
-0.044433914 -0.095150054 -0.18816048
-0.044436447 -0.09523204 -0.18816039
-0.044438392 -0.095313773 -0.18817228
-0.044440396 -0.095397487 -0.1881842
-0.044442244 -0.095479175 -0.18819809
-0.044444717 -0.095559157 -0.18819794
-0.044447348 -0.095641188 -0.18819585
-0.044449098 -0.095722824 -0.18821174
-0.044451103 -0.095806554 -0.18822366
-0.044453342 -0.095888406 -0.18822956
-0.043044571 -0.046112489 -0.17740875
-0.043048412 -0.046193082 -0.17738065
-0.043051511 -0.046271376 -0.1773665
-0.043053668 -0.046347275 -0.17737024
-0.043055631 -0.046423092 -0.177378
-0.043057341 -0.046496823 -0.17738968
-0.043059051 -0.046570554 -0.17740139
-0.043061759 -0.046648674 -0.17739521
-0.043064758 -0.04672692 -0.17738304
-0.043067209 -0.046802953 -0.1773808
-0.043069661 -0.046878986 -0.17737857
-0.043072175 -0.046957016 -0.17737639
-0.04307482 -0.047033135 -0.17737016
-0.043076981 -0.047109038 -0.17737392
-0.043078497 -0.047182683 -0.17738959
-0.043079816 -0.047256239 -0.17740929
-0.043081425 -0.047329929 -0.177423
-0.043082938 -0.04740357 -0.17743869
-0.043085489 -0.047479648 -0.17743446
-0.043088939 -0.047560066 -0.17741434
-0.043091293 -0.047636054 -0.1774141
-0.043094195 -0.047714263 -0.17740393
-0.043097489 -0.047792643 -0.17738576
-0.043100491 -0.047870889 -0.17737359
-0.043102454 -0.047946706 -0.17738134
-0.043104164 -0.048020437 -0.17739305
-0.043106224 -0.048096295 -0.1773988
-0.043108579 -0.048172284 -0.17739856
-0.043110836 -0.048248231 -0.17740032
-0.043113288 -0.048324265 -0.17739809
-0.043115348 -0.048400123 -0.17740384
-0.043117411 -0.048475981 -0.17740959
-0.04311996 -0.048552059 -0.17740536
-0.043122511 -0.048628133 -0.17740114
-0.043124571 -0.048703995 -0.17740689
-0.043126281 -0.048777722 -0.17741859
-0.043128245 -0.048853539 -0.17742634
-0.043130152 -0.048927359 -0.17743406
-0.043130822 -0.048998654 -0.17746568
-0.043132238 -0.049072258 -0.17748336
-0.043136824 -0.049155153 -0.17744133
-0.043141015 -0.049237877 -0.17740728
-0.043143019 -0.049311735 -0.17741299
-0.04314518 -0.049387641 -0.17741674
-0.04314724 -0.049463496 -0.17742249
-0.0431493 -0.049539357 -0.17742825
