# .PCD v0.7 - Point Cloud Data file format
VERSION 0.7
FIELDS x y z
SIZE 4 4 4
TYPE F F F
COUNT 1 1 1
WIDTH 1269
HEIGHT 1
VIEWPOINT 0 0 0 1 0 0 0
POINTS 1269
DATA ascii
-0.050186355 -0.088201806 -0.17802918
-0.050184492 -0.088126034 -0.17801943
-0.050182298 -0.088052087 -0.17801771
-0.050180279 -0.087974273 -0.1780099
-0.050178707 -0.087898627 -0.17799416
-0.050176553 -0.087822728 -0.17799041
-0.050173908 -0.087746605 -0.17799664
-0.050171323 -0.087672487 -0.17800289
-0.05016835 -0.08759819 -0.17801715
-0.050165862 -0.087524116 -0.17802143
-0.05016486 -0.087444782 -0.1779916
-0.050163914 -0.087367445 -0.17796184
-0.050162282 -0.087289803 -0.17794605
-0.050161667 -0.08721064 -0.17790824
-0.050160389 -0.087135136 -0.1778865
-0.050157942 -0.087059103 -0.17788872
-0.050155688 -0.086983159 -0.17788696
-0.05015412 -0.086907513 -0.17787123
-0.050152097 -0.0868297 -0.17786342
-0.050150234 -0.086753927 -0.17785367
-0.050148275 -0.08667811 -0.17784591
-0.050146218 -0.086602256 -0.17784014
-0.050144255 -0.086526439 -0.17783239
-0.050142102 -0.086450532 -0.17782864
-0.050140042 -0.08637467 -0.17782287
-0.050138179 -0.086298905 -0.17781311
-0.050136123 -0.086223044 -0.17780736
-0.050133441 -0.08614888 -0.17781562
-0.050130893 -0.086072803 -0.17781985
-0.050128639 -0.085996859 -0.17781809
-0.05012586 -0.085922651 -0.17782834
-0.050122984 -0.085848399 -0.17784062
-0.050120596 -0.085774362 -0.17784289
-0.050118342 -0.085698411 -0.17784113
-0.050115895 -0.085622385 -0.17784336
-0.050113931 -0.085546568 -0.1778356
-0.050112266 -0.085470885 -0.17782184
-0.0501105 -0.08539515 -0.1778101
-0.050108247 -0.085319206 -0.17780833
-0.050105993 -0.085243262 -0.17780657
-0.050103642 -0.085167274 -0.17780679
-0.050101489 -0.085091367 -0.17780304
-0.050099723 -0.08501564 -0.1777913
-0.050097764 -0.084939823 -0.17778352
-0.050095469 -0.084865831 -0.17778382
-0.050093021 -0.084789798 -0.17778604
-0.050090671 -0.084713809 -0.17778626
-0.050088085 -0.084639691 -0.17779255
-0.050085638 -0.084563658 -0.17779477
-0.05008354 -0.084489748 -0.17779106
-0.050081521 -0.084411941 -0.17778325
-0.05007923 -0.08433795 -0.17778352
-0.050076451 -0.084263742 -0.1777938
-0.050073907 -0.084187664 -0.17779802
-0.050072141 -0.084111929 -0.17778626
-0.050070412 -0.084034249 -0.17777248
-0.050068218 -0.083960302 -0.17777076
-0.050065733 -0.083886221 -0.17777503
-0.050063711 -0.083808407 -0.17776722
-0.050062045 -0.083732724 -0.17775348
-0.050060473 -0.083657086 -0.17773773
-0.050058845 -0.083579443 -0.17772195
-0.050056748 -0.083505541 -0.17771822
-0.050054826 -0.083427772 -0.17770843
-0.05005306 -0.083352044 -0.17769668
-0.050051004 -0.083276182 -0.17769092
-0.050048515 -0.083202101 -0.17769518
-0.050046165 -0.083126113 -0.17769542
-0.050044302 -0.08305034 -0.17768568
-0.050041914 -0.082976304 -0.17768794
-0.050039466 -0.082900271 -0.17769018
-0.050037213 -0.082824327 -0.1776884
-0.050034627 -0.082750209 -0.17769468
-0.050033059 -0.082674563 -0.17767893
-0.050032306 -0.082597315 -0.17764516
-0.050030969 -0.082519807 -0.17762339
-0.050030082 -0.082444474 -0.17759365
-0.050029527 -0.082367308 -0.17755589
-0.050029889 -0.082288586 -0.17749813
-0.050028026 -0.082212813 -0.17748837
-0.050024368 -0.082138211 -0.17751661
-0.050021257 -0.082065828 -0.17753491
-0.050019003 -0.081989884 -0.17753315
-0.050016947 -0.081914023 -0.17752738
-0.050015181 -0.081838295 -0.17751563
-0.050013319 -0.081762522 -0.17750588
-0.050011259 -0.081686661 -0.17750011
-0.050009787 -0.081611067 -0.17748237
-0.050008021 -0.081535339 -0.17747062
-0.050006025 -0.081461474 -0.17746492
-0.050004102 -0.081383705 -0.1774551
-0.050002199 -0.081309892 -0.17744741
-0.049999848 -0.081233896 -0.17744763
-0.049998179 -0.081158213 -0.17743388
-0.049996808 -0.081082657 -0.17741415
-0.049995042 -0.081006929 -0.17740239
-0.049993176 -0.080931157 -0.17739263
-0.049991317 -0.080855384 -0.17738289
-0.049989451 -0.080779612 -0.17737313
-0.049988076 -0.080704063 -0.1773534
-0.04998631 -0.080628335 -0.17734164
-0.049983826 -0.080554254 -0.17734592
-0.049980946 -0.080480002 -0.17735818
-0.049978599 -0.080404013 -0.17735842
-0.049977124 -0.080328412 -0.17734066
-0.049976569 -0.080251254 -0.1773029
-0.049975876 -0.080176003 -0.17726919
-0.049973622 -0.08010006 -0.17726743
-0.049971078 -0.080023982 -0.17727165
-0.04996898 -0.079950079 -0.17726794
-0.049967118 -0.079874307 -0.17725818
-0.049965255 -0.079798535 -0.17724842
-0.049963161 -0.079724632 -0.17724471
-0.04996071 -0.079648599 -0.17724694
-0.049958713 -0.079574734 -0.17724122
-0.04995884 -0.079497881 -0.1771895
-0.049959589 -0.07941933 -0.17712373
-0.049958508 -0.079343908 -0.17709799
-0.049957134 -0.079268351 -0.17707825
-0.049955562 -0.079192713 -0.17706251
-0.049953993 -0.079117067 -0.17704676
-0.049952287 -0.079043336 -0.17703505
-0.049950521 -0.078967609 -0.17702329
-0.049948562 -0.078891791 -0.17701554
-0.049946658 -0.078817979 -0.17700784
-0.04994509 -0.078742333 -0.17699209
-0.04994512 -0.078665435 -0.17694235
-0.049944818 -0.078590356 -0.17690064
-0.049942955 -0.078514591 -0.17689088
-0.049940798 -0.078438684 -0.17688712
-0.049939133 -0.078363001 -0.17687337
-0.049937718 -0.078289397 -0.17685568
-0.049935855 -0.078213632 -0.17684592
-0.049933761 -0.078139722 -0.17684221
-0.049932092 -0.078064039 -0.17682847
-0.049931109 -0.077988662 -0.17680073
-0.049932834 -0.077910542 -0.176715
-0.049933605 -0.077835947 -0.17665133
-0.04993543 -0.077757873 -0.17656359
-0.049936008 -0.077683188 -0.1765039
-0.049934339 -0.077607505 -0.17649016
-0.049931951 -0.077533469 -0.17649244
-0.049929366 -0.07745935 -0.1764987
-0.049927115 -0.077383406 -0.17649692
-0.049926423 -0.077308156 -0.17646322
-0.049926315 -0.077233166 -0.17641751
-0.049926639 -0.077156395 -0.17636177
-0.049926434 -0.077081367 -0.17631808
-0.049924865 -0.077005722 -0.17630234
-0.049922865 -0.076931864 -0.17629662
-0.049921159 -0.076858133 -0.17628491
-0.04991959 -0.076782487 -0.17626917
-0.049918175 -0.07670889 -0.17625147
-0.049916606 -0.076633252 -0.17623574
-0.049914703 -0.076559432 -0.17622802
-0.049912937 -0.076483704 -0.17621627
-0.049912151 -0.076408409 -0.17618454
-0.049912434 -0.076333597 -0.17613086
-0.049911216 -0.076260082 -0.17610916
-0.049909644 -0.076184444 -0.17609341
-0.049908563 -0.076109022 -0.17606768
-0.049907539 -0.076035596 -0.17604201
-0.049905542 -0.075961731 -0.1760363
-0.049902998 -0.075885653 -0.17604052
-0.049901191 -0.075811885 -0.17603081
-0.049899388 -0.07573811 -0.1760211
-0.049896706 -0.075663947 -0.17602937
-0.049893148 -0.075589389 -0.17605561
-0.049889974 -0.075515002 -0.17607386
-0.049887002 -0.075440712 -0.17608812
-0.049883831 -0.075366326 -0.17610636
-0.049879454 -0.075293377 -0.17615063
-0.04987482 -0.075218342 -0.17619884
-0.049869172 -0.075144827 -0.17626907
-0.049860753 -0.07507205 -0.17639726
-0.049854364 -0.074996226 -0.17648143
-0.050613854 -0.095124498 -0.17856419
-0.050613079 -0.095043302 -0.17852834
-0.050611254 -0.094965577 -0.17851654
-0.050609622 -0.094887935 -0.17850074
-0.05060881 -0.094808683 -0.17846693
-0.050607082 -0.094731003 -0.17845313
-0.050604537 -0.094654925 -0.17845736
-0.050601717 -0.094582669 -0.17846967
-0.05059927 -0.094506636 -0.17847189
-0.050597638 -0.094429001 -0.1784561
-0.050596006 -0.094351359 -0.17844032
-0.050594047 -0.094275542 -0.17843255
-0.050591365 -0.094201379 -0.17844082
-0.050588779 -0.094127253 -0.1784471
-0.050586522 -0.094051309 -0.17844534
-0.050584268 -0.093975365 -0.17844358
-0.050581627 -0.09389925 -0.17844979
-0.050579369 -0.093823299 -0.17844802
-0.050578129 -0.093745828 -0.17842424
-0.050576597 -0.093668237 -0.17840645
-0.050575163 -0.093590684 -0.17838667
-0.05057314 -0.09351287 -0.17837888
-0.050570555 -0.093438745 -0.17838514
-0.050568826 -0.093361065 -0.17837134
-0.050567918 -0.093281776 -0.17833954
-0.050565429 -0.093207695 -0.1783438
-0.050563078 -0.093131706 -0.17834404
-0.050560728 -0.093055718 -0.17834428
-0.050558764 -0.092979901 -0.17833652
-0.050556842 -0.092902131 -0.17832671
-0.050553828 -0.092829786 -0.17834303
-0.050550561 -0.092755362 -0.17836326
-0.050548989 -0.092679724 -0.17834753
-0.050546966 -0.09260191 -0.17833972
-0.050544187 -0.092527702 -0.17834997
-0.050541896 -0.092453703 -0.17835027
-0.050540403 -0.092374161 -0.17833042
-0.050538246 -0.092298254 -0.17832667
-0.050535657 -0.092224136 -0.17833294
-0.050533697 -0.092148319 -0.17832518
-0.050532691 -0.092068985 -0.17829537
-0.050530631 -0.091993123 -0.17828959
-0.050528184 -0.09191709 -0.17829183
-0.050525889 -0.091843098 -0.17829211
-0.050523147 -0.091766939 -0.17830032
-0.050520036 -0.091694549 -0.17831862
-0.050517488 -0.091618478 -0.17832285
-0.050515138 -0.091542482 -0.17832309
-0.050512943 -0.091468543 -0.17832138
-0.050511546 -0.09138903 -0.17829955
-0.050509583 -0.091313213 -0.17829178
-0.050506707 -0.091238961 -0.17830405
-0.050504122 -0.091164842 -0.17831032
-0.050501671 -0.091088809 -0.17831254
-0.050498892 -0.091014594 -0.17832282
-0.050496306 -0.090940475 -0.17832908
-0.050493956 -0.090864494 -0.17832932
-0.050491311 -0.090788372 -0.17833555
-0.050488725 -0.090714246 -0.17834181
-0.050487094 -0.090636611 -0.17832601
-0.050486576 -0.090557486 -0.17828622
-0.050485041 -0.090479895 -0.17826843
-0.050482593 -0.090403862 -0.17827065
-0.050480336 -0.090327919 -0.17826888
-0.050478376 -0.090252101 -0.17826113
-0.050476514 -0.090176329 -0.17825139
-0.050474297 -0.090098426 -0.17824757
-0.050471712 -0.090024307 -0.17825384
-0.050469223 -0.089950226 -0.17825812
-0.05046697 -0.089874282 -0.17825635
-0.050464813 -0.089798376 -0.17825258
-0.050463416 -0.089718871 -0.17823076
-0.050462041 -0.089643314 -0.17821102
-0.050459787 -0.089567371 -0.17820925
-0.050457668 -0.089489512 -0.17820345
-0.050455607 -0.08941365 -0.17819768
-0.050453451 -0.089337751 -0.17819393
-0.050451256 -0.089263804 -0.17819221
-0.050449099 -0.089187905 -0.17818844
-0.050446749 -0.089111909 -0.17818868
-0.050444786 -0.089036092 -0.17818093
-0.050443683 -0.088956714 -0.1781531
-0.05044172 -0.088880897 -0.17814535
-0.050439231 -0.088806823 -0.17814961
-0.050437212 -0.088729009 -0.17814182
-0.050435774 -0.088651456 -0.17812204
-0.050434146 -0.088573813 -0.17810625
-0.05043228 -0.088498048 -0.17809649
-0.050430223 -0.088422187 -0.17809072
-0.05042826 -0.08834637 -0.17808297
-0.050426494 -0.088270642 -0.17807123
-0.05042506 -0.088193089 -0.17805144
-0.050424676 -0.088112056 -0.1780076
-0.05042281 -0.088036291 -0.17799784
-0.050420322 -0.08796221 -0.1780021
-0.050418168 -0.087886304 -0.17799835
-0.050416108 -0.087810449 -0.17799258
-0.050413661 -0.087734416 -0.17799482
-0.050411269 -0.08766038 -0.1779971
-0.050408624 -0.087584265 -0.17800331
-0.050406761 -0.087508492 -0.17799357
-0.050406143 -0.08742933 -0.17795576
-0.050405197 -0.087351993 -0.17792597
-0.05040333 -0.08727622 -0.17791623
-0.050400883 -0.087200187 -0.17791846
-0.05039892 -0.087124377 -0.17791072
-0.050397292 -0.087046735 -0.17789492
-0.050395522 -0.086971007 -0.17788316
-0.050392549 -0.08689671 -0.17789742
-0.050390296 -0.086820766 -0.17789567
-0.050388664 -0.086743124 -0.17787987
-0.050387327 -0.086665615 -0.17785808
-0.050385032 -0.086591624 -0.17785835
-0.050382487 -0.086515546 -0.17786258
-0.050380524 -0.086439729 -0.17785484
-0.05037915 -0.08636418 -0.17783509
-0.050377615 -0.086286582 -0.1778173
-0.050375264 -0.086210594 -0.17781754
-0.050372679 -0.086136468 -0.17782381
-0.050370619 -0.086060613 -0.17781805
-0.050368071 -0.085984536 -0.17782226
-0.0503649 -0.085910149 -0.17784053
-0.050362416 -0.085836075 -0.17784479
-0.050360646 -0.08576034 -0.17783305
-0.050358392 -0.085684396 -0.17783128
-0.050355613 -0.085610189 -0.17784154
-0.050352737 -0.085535936 -0.17785381
-0.050350189 -0.085459858 -0.17785802
-0.050348092 -0.085385956 -0.17785433
-0.050346266 -0.085308231 -0.17784253
-0.050344598 -0.085232548 -0.17782879
-0.050342344 -0.085156597 -0.17782702
-0.050340086 -0.085080653 -0.17782524
-0.050337989 -0.085006751 -0.17782153
-0.050335445 -0.084930673 -0.17782575
-0.050333582 -0.084854901 -0.177816
-0.05033195 -0.084777258 -0.17780021
-0.05032995 -0.084703401 -0.1777945
-0.05032789 -0.084627539 -0.17778875
-0.050325342 -0.084551468 -0.17779297
-0.050322562 -0.084477253 -0.17780322
-0.050319821 -0.084401093 -0.17781144
-0.050317723 -0.084327191 -0.17780775
-0.050316151 -0.084251545 -0.17779198
-0.050314326 -0.084173821 -0.1777802
-0.050311938 -0.084099784 -0.17778248
-0.050309293 -0.084023669 -0.1777887
-0.05030733 -0.083947852 -0.17778093
-0.050305761 -0.083872207 -0.17776519
-0.050304323 -0.083794653 -0.1777454
-0.050302751 -0.083719015 -0.17772967
-0.050299972 -0.083644807 -0.17773993
-0.050297134 -0.083568595 -0.17775014
-0.05029523 -0.083494782 -0.17774242
-0.050293989 -0.083417311 -0.17771865
-0.050292555 -0.083339766 -0.17769888
-0.050290495 -0.083263904 -0.17769311
-0.050288495 -0.083190039 -0.17768741
-0.050285753 -0.083113879 -0.17769563
-0.050282679 -0.083039537 -0.17771187
-0.050280388 -0.082965553 -0.17771214
-0.050278038 -0.082889557 -0.17771238
-0.05027549 -0.082813486 -0.17771661
-0.050274014 -0.082737885 -0.17769888
-0.050274763 -0.082659334 -0.17763311
-0.050273292 -0.082583733 -0.17761536
-0.050271563 -0.082506053 -0.17760158
-0.050270088 -0.082430452 -0.17758381
-0.05026881 -0.082354948 -0.17756209
-0.05026675 -0.082279086 -0.17755634
-0.050264265 -0.082205005 -0.1775606
-0.050262634 -0.082127362 -0.1775448
-0.05026155 -0.08205194 -0.17751908
-0.050259687 -0.081976168 -0.17750932
-0.050257199 -0.081902094 -0.1775136
-0.050254848 -0.081826106 -0.17751384
-0.050253276 -0.08175046 -0.17749809
-0.050251506 -0.081674732 -0.17748633
-0.05024945 -0.081598878 -0.17748058
-0.05024739 -0.081523016 -0.17747483
-0.050245196 -0.081449069 -0.1774731
-0.050243136 -0.081373207 -0.17746735
-0.050240979 -0.081297308 -0.17746359
-0.050238881 -0.081223398 -0.17745987
-0.050237641 -0.081145935 -0.17743608
-0.050236169 -0.081070341 -0.17741835
-0.050234012 -0.080994435 -0.17741457
-0.050232049 -0.080918618 -0.17740682
-0.050230149 -0.080844805 -0.17739911
-0.050228186 -0.080768988 -0.17739137
-0.050226226 -0.08069317 -0.1773836
-0.050224066 -0.080617271 -0.17737985
-0.050222203 -0.080541499 -0.17737009
-0.0502204 -0.080467723 -0.17736037
-0.050218437 -0.080391906 -0.17735262
-0.050216477 -0.080316097 -0.17734486
-0.050215099 -0.08024054 -0.17732513
-0.050213724 -0.080164984 -0.17730539
-0.050211862 -0.080089211 -0.17729563
-0.050209507 -0.080013223 -0.17729586
-0.050207548 -0.079937406 -0.17728812
-0.050205976 -0.079861768 -0.17727235
-0.050203878 -0.079787865 -0.17726865
-0.050201721 -0.079711959 -0.17726488
-0.050200053 -0.079636276 -0.17725113
-0.05019936 -0.079561025 -0.17721742
-0.050200012 -0.079482429 -0.17715365
-0.050198302 -0.079408698 -0.17714193
-0.050196048 -0.079332754 -0.17714018
-0.050195064 -0.079257376 -0.17711245
-0.050194468 -0.07918217 -0.17707673
-0.050192896 -0.079106525 -0.17706099
-0.050191227 -0.079030842 -0.17704725
-0.050189462 -0.078955114 -0.1770355
-0.050187793 -0.078879431 -0.17702174
-0.050186709 -0.078804001 -0.17699602
-0.05018504 -0.078728318 -0.17698227
-0.050182648 -0.078654282 -0.17698455
-0.050181273 -0.078578733 -0.17696482
-0.050180677 -0.078503527 -0.17692909
-0.050179496 -0.07842806 -0.17690535
-0.050178315 -0.078352593 -0.17688163
-0.050176647 -0.078276902 -0.17686787
-0.050174743 -0.07820309 -0.17686015
-0.050173406 -0.078125581 -0.17683837
-0.050171699 -0.07805185 -0.17682669
-0.050169837 -0.077976078 -0.17681691
-0.050171129 -0.077899739 -0.17674121
-0.050173305 -0.077823795 -0.17664754
-0.050173625 -0.077747032 -0.1765918
-0.050175838 -0.077669129 -0.17649607
-0.050171655 -0.07759627 -0.17653635
-0.05016946 -0.077522323 -0.17653462
-0.050167106 -0.077446334 -0.17653486
-0.050166026 -0.077370904 -0.17650913
-0.050165232 -0.077295616 -0.1764774
-0.050164249 -0.077220231 -0.17644969
-0.050163455 -0.077144943 -0.17641796
-0.050162531 -0.077071555 -0.17639028
-0.050161544 -0.076996177 -0.17636254
-0.050161045 -0.076921016 -0.17632484
-0.050160158 -0.076845676 -0.1762951
-0.050158586 -0.076770037 -0.17627937
-0.05015688 -0.076696306 -0.17626765
-0.050154917 -0.076620489 -0.17625991
-0.050153308 -0.076546803 -0.1762462
-0.05015203 -0.076471291 -0.17622447
-0.050151102 -0.076397911 -0.17619678
-0.050150312 -0.076322623 -0.17616507
-0.050149228 -0.076247193 -0.17613932
-0.05014791 -0.076173641 -0.17611964
-0.050146926 -0.076098256 -0.17609191
-0.050145939 -0.076022878 -0.17606419
-0.050144721 -0.075949363 -0.1760425
-0.050142951 -0.075873636 -0.17603076
-0.050141443 -0.075799994 -0.17601505
-0.050139051 -0.075725958 -0.17601733
-0.050135784 -0.075651534 -0.17603756
-0.050132904 -0.075577281 -0.17604983
-0.050130028 -0.075503029 -0.17606209
-0.050126661 -0.07542856 -0.17608434
-0.050122712 -0.075353831 -0.17611858
-0.050119013 -0.075281188 -0.17614886
-0.050114479 -0.07520619 -0.17619507
-0.050109223 -0.075132854 -0.17625731
-0.050104294 -0.075057685 -0.17631149
-0.050091546 -0.074984945 -0.17652962
-0.050882727 -0.095099449 -0.17844841
-0.050881099 -0.095021814 -0.17843261
-0.050878223 -0.094947562 -0.17844486
-0.050875541 -0.094873399 -0.17845315
-0.050873913 -0.094795756 -0.17843735
-0.050872091 -0.094718024 -0.17842555
-0.050870325 -0.094642296 -0.17841379
-0.050868928 -0.094562791 -0.17839196
-0.0508673 -0.094485149 -0.17837618
-0.050865341 -0.094409339 -0.17836842
-0.050863091 -0.094333388 -0.17836666
-0.050860543 -0.09425731 -0.17837089
-0.050858058 -0.094183236 -0.17837515
-0.05085567 -0.0941092 -0.17837742
-0.050853126 -0.094033122 -0.17838165
-0.050851069 -0.093957268 -0.1783759
-0.050849635 -0.093879715 -0.17835611
-0.05084781 -0.093801983 -0.17834431
-0.050847333 -0.093720913 -0.17830247
-0.050846092 -0.093643449 -0.17827868
-0.050843548 -0.093567371 -0.17828292
-0.050841063 -0.09349329 -0.17828718
-0.050839726 -0.093415782 -0.17826539
-0.050837375 -0.093339793 -0.17826563
-0.050834209 -0.093265414 -0.17828389
-0.050831918 -0.093191415 -0.17828417
-0.050829664 -0.093115479 -0.1782824
-0.050826456 -0.093043044 -0.17830271
-0.050823484 -0.092968747 -0.17831695
-0.050822675 -0.092889503 -0.17828314
-0.050820753 -0.092811733 -0.17827334
-0.050818596 -0.092735827 -0.17826957
-0.050816931 -0.092660144 -0.17825583
-0.050815009 -0.092582375 -0.17824602
-0.050812133 -0.092508122 -0.17825828
-0.050808631 -0.092435569 -0.17828457
-0.050806671 -0.092359751 -0.17827682
-0.050805043 -0.092282109 -0.17826103
-0.050802462 -0.092207983 -0.1782673
-0.050800111 -0.092132002 -0.17826752
-0.050798677 -0.092054442 -0.17824775
-0.050796717 -0.091978624 -0.17823999
-0.050793841 -0.091904379 -0.17825225
-0.050790966 -0.091830127 -0.17826451
-0.050788518 -0.091754094 -0.17826673
-0.050786227 -0.091680102 -0.178267
-0.050784931 -0.091600634 -0.17824319
-0.050783262 -0.091524951 -0.17822945
-0.050779469 -0.091452263 -0.17826171
-0.050777547 -0.091374494 -0.17825192
-0.050775979 -0.091298848 -0.17823617
-0.050773434 -0.091222778 -0.1782404
-0.050770655 -0.091148563 -0.17825066
-0.050768498 -0.091072664 -0.1782469
-0.050766148 -0.090996675 -0.17824712
-0.050763898 -0.090920731 -0.17824537
-0.050761741 -0.090844825 -0.17824161
-0.050758865 -0.090770572 -0.17825386
-0.050755952 -0.090698272 -0.17826816
-0.050753698 -0.090622328 -0.17826641
-0.050752167 -0.09054473 -0.17824861
-0.050750732 -0.090467177 -0.17822883
-0.050749205 -0.09038958 -0.17821103
-0.050747145 -0.090313725 -0.17820528
-0.050744504 -0.090237603 -0.17821151
-0.050742447 -0.090161748 -0.17820574
-0.050741345 -0.09008237 -0.17817792
-0.050740205 -0.090004943 -0.17815214
-0.050738342 -0.089929178 -0.1781424
-0.050735991 -0.089853182 -0.17814262
-0.050733604 -0.089779153 -0.1781449
-0.050731778 -0.089701422 -0.1781331
-0.050729956 -0.089623697 -0.1781213
-0.050727956 -0.089549832 -0.17811559
-0.050725937 -0.089472018 -0.1781078
-0.050723881 -0.089396164 -0.17810203
-0.050721336 -0.089320086 -0.17810625
-0.050718654 -0.089245915 -0.17811452
-0.050716072 -0.089171797 -0.17812079
-0.05071339 -0.089097634 -0.17812905
-0.050711662 -0.089019954 -0.17811526
-0.050710756 -0.088940658 -0.17808345
-0.050709188 -0.088865019 -0.1780677
-0.050707657 -0.088787422 -0.17804992
-0.050706416 -0.088709958 -0.17802614
-0.050704457 -0.088634141 -0.17801838
-0.050702207 -0.088558197 -0.1780166
-0.050699856 -0.088482201 -0.17801684
-0.050697897 -0.088406391 -0.17800909
-0.050696172 -0.088328704 -0.17799529
-0.050693881 -0.08825472 -0.17799556
-0.050691042 -0.088178508 -0.17800578
-0.050689571 -0.088102907 -0.17798805
-0.050688431 -0.088025488 -0.17796227
-0.05068719 -0.087948024 -0.17793849
-0.050685465 -0.087870337 -0.17792469
-0.050683506 -0.08779452 -0.17791694
-0.05068092 -0.087720402 -0.1779232
-0.050678242 -0.087646231 -0.17793147
-0.050676025 -0.087568335 -0.17792766
-0.050674789 -0.087490872 -0.17790388
-0.050673746 -0.08741349 -0.17787611
-0.05067198 -0.087337762 -0.17786434
-0.050670937 -0.08726038 -0.17783658
-0.050669506 -0.087182827 -0.17781679
-0.050667059 -0.087106794 -0.17781901
-0.050665196 -0.087031022 -0.17780927
-0.050664678 -0.086951911 -0.17776947
-0.050662097 -0.086877786 -0.17777573
-0.050658301 -0.086805098 -0.17780802
-0.050655719 -0.086730979 -0.17781428
-0.050653797 -0.086653203 -0.17780448
-0.05065174 -0.086577348 -0.17779872
-0.05064974 -0.086503483 -0.177793
-0.050647296 -0.08642745 -0.17779523
-0.050645139 -0.086351551 -0.17779148
-0.050643511 -0.086273909 -0.17777568
-0.05064204 -0.086198315 -0.17775795
-0.05064008 -0.086122498 -0.17775019
-0.050637536 -0.08604642 -0.1777544
-0.050635047 -0.085972339 -0.17775869
-0.050632991 -0.085896485 -0.17775291
-0.050630838 -0.085820578 -0.17774916
-0.050628059 -0.08574637 -0.17775942
-0.050624985 -0.085672036 -0.17777568
-0.050622404 -0.08559791 -0.17778194
-0.050619856 -0.085521832 -0.17778617
-0.050617076 -0.085447624 -0.17779644
-0.050614495 -0.085373506 -0.17780271
-0.050612573 -0.085295737 -0.17779291
-0.050610479 -0.085221827 -0.1777892
-0.050607737 -0.085145667 -0.17779741
-0.050605875 -0.085069895 -0.17778766
-0.0506045 -0.084994338 -0.17776792
-0.050602149 -0.08491835 -0.17776816
-0.050599471 -0.084844187 -0.17777643
-0.050597314 -0.08476828 -0.17777264
-0.050595064 -0.084692337 -0.17777088
-0.05059287 -0.08461839 -0.17776915
-0.050591242 -0.084540747 -0.17775337
-0.050589282 -0.08446493 -0.17774561
-0.050586637 -0.084388815 -0.17775184
-0.050584249 -0.084314778 -0.17775413
-0.050582681 -0.08423914 -0.17773838
-0.050581053 -0.084161498 -0.17772259
-0.050578564 -0.084087417 -0.17772686
-0.050576217 -0.084011428 -0.17772709
-0.050574843 -0.083935872 -0.17770734
-0.050573274 -0.083860233 -0.17769161
-0.050570823 -0.0837842 -0.17769383
-0.050568145 -0.083710037 -0.1777021
-0.050565697 -0.083634004 -0.17770433
-0.050564457 -0.083556533 -0.17768055
-0.050563376 -0.083481111 -0.1776548
-0.050561123 -0.083405167 -0.17765304
-0.050558481 -0.083329044 -0.17765927
-0.050556522 -0.083253235 -0.17765152
-0.050554659 -0.083177462 -0.17764176
-0.050552662 -0.083103597 -0.17763606
-0.05055074 -0.083025828 -0.17762625
-0.050548878 -0.082950056 -0.17761651
-0.050546918 -0.082874238 -0.17760873
-0.050545156 -0.082798511 -0.17759699
-0.050543584 -0.082722872 -0.17758125
-0.050541624 -0.082647055 -0.17757349
-0.050539531 -0.082573153 -0.17756978
-0.050538193 -0.082495645 -0.17754799
-0.050537113 -0.082420215 -0.17752226
-0.050535876 -0.082342751 -0.17749847
-0.050534304 -0.082267106 -0.17748272
-0.050532013 -0.082193121 -0.17748301
-0.050529566 -0.082117088 -0.17748523
-0.050527412 -0.082041182 -0.17748147
-0.050525513 -0.081967369 -0.17747377
-0.050523784 -0.081889682 -0.17745997
-0.050522801 -0.081814304 -0.17743224
-0.050521467 -0.081736796 -0.17741045
-0.050519466 -0.081662931 -0.17740475
-0.050517216 -0.081586987 -0.17740297
-0.050515451 -0.081511259 -0.17739123
-0.050513394 -0.081435397 -0.17738548
-0.050510909 -0.081361324 -0.17738974
-0.050508033 -0.081287071 -0.17740199
-0.05050578 -0.08121112 -0.17740023
-0.05050493 -0.081133828 -0.17736846
-0.050503753 -0.081058361 -0.17734474
-0.050501794 -0.080982551 -0.17733698
-0.050499797 -0.080908686 -0.17733127
-0.05049764 -0.080832787 -0.1773275
-0.050495584 -0.080756925 -0.17732175
-0.050493915 -0.080681242 -0.17730799
-0.050491665 -0.080605298 -0.17730623
-0.050489277 -0.080531262 -0.1773085
-0.050487377 -0.080457442 -0.17730078
-0.050485317 -0.080381587 -0.17729503
-0.050483454 -0.080305815 -0.17728528
-0.05048212 -0.080228306 -0.1772635
-0.050480649 -0.080152705 -0.17724575
-0.050478943 -0.080078974 -0.17723405
-0.050476789 -0.080003075 -0.17723028
-0.050474439 -0.079927087 -0.17723052
-0.050472539 -0.079853266 -0.17722282
-0.050470967 -0.079777628 -0.17720707
-0.050469108 -0.079701856 -0.17719731
-0.050466951 -0.079625949 -0.17719355
-0.050465774 -0.079550482 -0.17716981
-0.050465278 -0.079475321 -0.1771321
-0.05046482 -0.0793982 -0.17709234
-0.050463933 -0.079322867 -0.1770626
-0.050462853 -0.079247445 -0.17703688
-0.050461382 -0.079171844 -0.17701915
-0.050459325 -0.079095989 -0.17701338
-0.050458048 -0.079020478 -0.17699164
-0.050457358 -0.078945227 -0.17695792
-0.050455008 -0.078869238 -0.17695816
-0.050452519 -0.078795157 -0.17696244
-0.05045066 -0.078719385 -0.17695267
-0.050449871 -0.078644089 -0.17692095
-0.05044996 -0.078569189 -0.17687126
-0.050449699 -0.078492165 -0.17682751
-0.050447699 -0.0784183 -0.1768218
-0.050444961 -0.07834214 -0.17683002
-0.050443061 -0.078268319 -0.1768223
-0.050441686 -0.078192763 -0.17680256
-0.050440118 -0.078117125 -0.17678681
-0.050438214 -0.078043304 -0.17677911
-0.050436784 -0.077965751 -0.17675933
-0.050440267 -0.077888422 -0.17663763
-0.050440259 -0.077813476 -0.17658994
-0.050438594 -0.077737793 -0.17657618
-0.050438002 -0.077662587 -0.17654046
-0.050437406 -0.077587381 -0.17650476
-0.05043662 -0.077512085 -0.17647304
-0.050435636 -0.077436708 -0.17644531
-0.050433774 -0.077360936 -0.17643556
-0.050431773 -0.077287078 -0.17642984
-0.050430596 -0.077211604 -0.1764061
-0.050433163 -0.077135839 -0.17630443
-0.05043257 -0.077060632 -0.17626873
-0.050429791 -0.076986425 -0.17627898
-0.050428126 -0.076910742 -0.17626524
-0.050426945 -0.076835275 -0.17624149
-0.050425339 -0.076761588 -0.17622779
-0.050423928 -0.076687984 -0.17621011
-0.050422844 -0.076612562 -0.17618437
-0.050421372 -0.076536968 -0.17616662
-0.05041967 -0.076463237 -0.17615491
-0.050418101 -0.076387592 -0.17613918
-0.050417859 -0.076314516 -0.17609751
-0.050417267 -0.07623931 -0.17606181
-0.050416671 -0.076164104 -0.17602608
-0.050415885 -0.076088808 -0.17599437
-0.050414372 -0.076015167 -0.17597866
-0.050412081 -0.075941175 -0.17597893
-0.05040944 -0.07586506 -0.17598516
-0.050407052 -0.075791024 -0.17598744
-0.050404955 -0.075717121 -0.17598371
-0.05040247 -0.07564304 -0.17598799
-0.050399788 -0.075568877 -0.17599626
-0.050396521 -0.075494446 -0.17601651
-0.050392766 -0.075419806 -0.17604674
-0.050388388 -0.075346857 -0.17609102
-0.050383657 -0.075271778 -0.1761412
-0.050378691 -0.075198561 -0.17619745
-0.050373144 -0.075125091 -0.17626569
-0.050367203 -0.075051442 -0.17634191
-0.050359406 -0.074976973 -0.17645606
-0.050346792 -0.074902318 -0.17667013
-0.0512321 -0.095077455 -0.17839354
-0.051230669 -0.094999902 -0.17837375
-0.05122875 -0.094922125 -0.17836395
-0.051226072 -0.094847962 -0.1783722
-0.05122339 -0.094773799 -0.17838047
-0.051220808 -0.094699673 -0.17838675
-0.051218558 -0.09462373 -0.17838499
-0.051217362 -0.094544306 -0.17835915
-0.0512156 -0.094468579 -0.17834741
-0.051213447 -0.09439268 -0.17834364
-0.051211096 -0.094316691 -0.17834386
-0.051208749 -0.094240695 -0.1783441
-0.051206596 -0.094164796 -0.17834035
-0.051204972 -0.094087154 -0.17832455
-0.051203344 -0.094009519 -0.17830876
-0.051201057 -0.093935519 -0.17830902
-0.051198084 -0.09386123 -0.1783233
-0.051195305 -0.093787022 -0.17833355
-0.051194072 -0.093709551 -0.17830977
-0.051192969 -0.09363018 -0.17828196
-0.051191051 -0.093552411 -0.17827216
-0.051188704 -0.093476415 -0.17827237
-0.051186647 -0.093400553 -0.17826661
-0.051184494 -0.093324654 -0.17826286
-0.051182829 -0.093248971 -0.17824911
-0.051181011 -0.093171246 -0.17823732
-0.0511779 -0.093098857 -0.17825562
-0.051175747 -0.093022957 -0.17825185
-0.051173925 -0.092945233 -0.17824005
-0.051171049 -0.092870981 -0.17825231
-0.051168177 -0.092796728 -0.17826457
-0.051165495 -0.092722557 -0.17827284
-0.051163208 -0.092648566 -0.17827311
-0.051161814 -0.092569061 -0.17825128
-0.051160052 -0.092493333 -0.17823952
-0.051157471 -0.092419207 -0.17824581
-0.051154401 -0.092344873 -0.17826205
-0.051151231 -0.092270486 -0.17828031
-0.051148649 -0.092196368 -0.17828658
-0.051148996 -0.092113689 -0.17822671
-0.051147953 -0.092036307 -0.17819893
-0.051145606 -0.091960318 -0.17819917
-0.051143061 -0.091884241 -0.17820339
-0.051140677 -0.091810212 -0.17820567
-0.05113823 -0.091734178 -0.1782079
-0.051135354 -0.091659918 -0.17822015
-0.051132284 -0.091585584 -0.17823641
-0.051129565 -0.091513373 -0.17824674
-0.051127024 -0.091437295 -0.17825094
-0.05112477 -0.091361351 -0.17824918
-0.051122718 -0.091285489 -0.17824341
-0.051120173 -0.091209412 -0.17824763
-0.051117357 -0.091137163 -0.17825995
-0.051115204 -0.091061257 -0.17825618
-0.05111381 -0.090981752 -0.17823437
-0.05111238 -0.090904199 -0.17821458
-0.05111013 -0.090828255 -0.17821281
-0.051107548 -0.090754129 -0.17821908
-0.05110487 -0.090679966 -0.17822735
-0.051102951 -0.090602197 -0.17821753
-0.051101811 -0.09052477 -0.17819177
-0.051100675 -0.090447351 -0.17816599
-0.051099479 -0.090367928 -0.17814016
-0.051097948 -0.09029033 -0.17812237
-0.051095698 -0.090214387 -0.17812061
-0.051093116 -0.090140268 -0.17812687
-0.051091157 -0.090064451 -0.17811912
-0.051089104 -0.089988589 -0.17811334
-0.051086657 -0.089912556 -0.17811558
-0.0510846 -0.089836702 -0.17810982
-0.051082939 -0.089761011 -0.17809609
-0.051081311 -0.089683376 -0.17808029
-0.051079489 -0.089605644 -0.17806849
-0.051077433 -0.08952979 -0.17806274
-0.05107446 -0.089455493 -0.17807698
-0.051072173 -0.089381501 -0.17807727
-0.051070448 -0.089303821 -0.17806347
-0.051068395 -0.08922796 -0.1780577
-0.05106581 -0.089153834 -0.17806397
-0.051063072 -0.089077674 -0.17807218
-0.051061936 -0.089000247 -0.17804642
-0.051062573 -0.088917702 -0.17798056
-0.051060479 -0.0888438 -0.17797685
-0.051058229 -0.088767856 -0.17797507
-0.051055979 -0.088691905 -0.1779733
-0.051053923 -0.088616043 -0.17796755
-0.051051475 -0.088540018 -0.17796978
-0.051048994 -0.088465936 -0.17797405
-0.05104674 -0.088389993 -0.17797229
-0.051044784 -0.088314176 -0.17796452
-0.051042728 -0.088238314 -0.17795876
-0.051041495 -0.08816085 -0.17793499
-0.051041175 -0.088081822 -0.17789119
-0.051038828 -0.088005833 -0.1778914
-0.051036675 -0.087929927 -0.17788765
-0.051035009 -0.087854244 -0.17787391
-0.051033091 -0.087776475 -0.1778641
-0.051031329 -0.08770074 -0.17785235
-0.051029272 -0.087624885 -0.17784658
-0.051026925 -0.087548897 -0.17784682
-0.051024735 -0.08747495 -0.17784511
-0.051023107 -0.087397307 -0.17782931
-0.051022984 -0.087318368 -0.17778152
-0.051021848 -0.087240942 -0.17775574
-0.051019207 -0.087164827 -0.17776196
-0.051016428 -0.087090611 -0.17777222
-0.051014472 -0.087014802 -0.17776448
-0.051012609 -0.086939029 -0.17775473
-0.051010262 -0.086863041 -0.17775494
-0.051007971 -0.086789049 -0.17775524
-0.051005721 -0.086713098 -0.17775346
-0.051004097 -0.086635455 -0.17773768
-0.051002726 -0.086559907 -0.17771792
-0.051000182 -0.086483829 -0.17772216
-0.050997697 -0.086409748 -0.17772642
-0.050995253 -0.086333714 -0.17772865
-0.050992902 -0.086257726 -0.17772889
-0.050990846 -0.086181872 -0.17772312
-0.050988853 -0.086108007 -0.17771742
-0.050986212 -0.086031884 -0.17772365
-0.050983239 -0.085957594 -0.17773789
-0.050980657 -0.085883468 -0.17774415
-0.05097821 -0.085807435 -0.17774639
-0.050976019 -0.085733488 -0.17774467
-0.050973866 -0.085657589 -0.1777409
-0.05097181 -0.085581727 -0.17773515
-0.050969951 -0.085505955 -0.1777254
-0.050967503 -0.085429922 -0.17772761
-0.050964631 -0.085355669 -0.17773987
-0.050962243 -0.08528164 -0.17774215
-0.050959893 -0.085205644 -0.17774239
-0.05095784 -0.08512979 -0.17773663
-0.050955977 -0.085054018 -0.17772686
-0.050954118 -0.084978245 -0.17771712
-0.050951477 -0.084902123 -0.17772335
-0.050948702 -0.084827915 -0.1777336
-0.050946314 -0.084753878 -0.17773588
-0.050943967 -0.08467789 -0.1777361
-0.050941773 -0.084603943 -0.17773439
-0.050939329 -0.08452791 -0.17773661
-0.050936747 -0.084453791 -0.1777429
-0.050934397 -0.084377795 -0.17774311
-0.05093234 -0.084301941 -0.17773736
-0.050930679 -0.084226251 -0.17772362
-0.050929345 -0.084148742 -0.17770182
-0.050927877 -0.084073149 -0.17768407
-0.050925955 -0.08399538 -0.17767428
-0.050923571 -0.083921343 -0.17767656
-0.05092128 -0.083847351 -0.17767683
-0.050919168 -0.083769493 -0.17767103
-0.050916877 -0.083695501 -0.17767131
-0.050914627 -0.083619557 -0.17766954
-0.050912667 -0.08354374 -0.17766178
-0.050910614 -0.083467886 -0.17765602
-0.050908655 -0.083392069 -0.17764826
-0.050906699 -0.083316252 -0.1776405
-0.050905228 -0.083240651 -0.17762277
-0.050903857 -0.083165094 -0.17760302
-0.050902192 -0.083089411 -0.17758927
-0.05090037 -0.083011687 -0.17757747
-0.050898708 -0.082936004 -0.17756373
-0.050897043 -0.082860313 -0.17754999
-0.050895475 -0.082784675 -0.17753424
-0.050894007 -0.082709074 -0.17751649
-0.05089277 -0.08263161 -0.17749271
-0.050891206 -0.082555972 -0.17747697
-0.050889343 -0.0824802 -0.17746721
-0.050887778 -0.082404554 -0.17745146
-0.050885916 -0.082328781 -0.17744172
-0.050883666 -0.082252838 -0.17743994
-0.050881807 -0.082177065 -0.17743018
-0.050880142 -0.082101382 -0.17741644
-0.050878283 -0.08202561 -0.1774067
-0.050876189 -0.081951708 -0.17740297
-0.050873842 -0.081875719 -0.17740321
-0.050872371 -0.081800118 -0.17738545
-0.050871138 -0.081722654 -0.17736167
-0.050869763 -0.081647098 -0.17734194
-0.050868392 -0.081571549 -0.17732221
-0.050866008 -0.081497513 -0.17732447
-0.050862934 -0.081423171 -0.17734072
-0.050860491 -0.081347138 -0.17734295
-0.050858729 -0.08127141 -0.17733121
-0.050857063 -0.081195727 -0.17731746
-0.050855301 -0.081119999 -0.1773057
-0.050853636 -0.081044309 -0.17729196
-0.050852068 -0.080968671 -0.17727621
-0.050850503 -0.080893025 -0.17726046
-0.050848506 -0.080819167 -0.17725474
-0.050845962 -0.080743089 -0.17725897
-0.050843574 -0.08066906 -0.17726126
-0.050841521 -0.080593199 -0.17725548
-0.050839171 -0.080517203 -0.17725572
-0.050837569 -0.080443524 -0.17724201
-0.050835706 -0.080367751 -0.17723227
-0.050833359 -0.080291755 -0.1772325
-0.050832279 -0.080216333 -0.17720675
-0.050831106 -0.080140866 -0.17718303
-0.050829537 -0.080065228 -0.1771673
-0.050827384 -0.079989329 -0.17716351
-0.050825328 -0.079913467 -0.17715776
-0.050823137 -0.07983952 -0.17715603
-0.050820593 -0.079763442 -0.17716026
-0.050818209 -0.079689406 -0.17716253
-0.050816834 -0.07961385 -0.1771428
-0.050816439 -0.079538733 -0.17710309
-0.05081632 -0.079459794 -0.1770553
-0.050815925 -0.07938467 -0.17701559
-0.05081426 -0.079308987 -0.17700183
-0.050811775 -0.079234913 -0.17700611
-0.050809585 -0.079160966 -0.1770044
-0.050807919 -0.079085276 -0.17699063
-0.050806254 -0.079009593 -0.17697689
-0.05080498 -0.078934081 -0.17695516
-0.050804429 -0.078856923 -0.1769174
-0.050803937 -0.078781754 -0.17687967
-0.050802272 -0.078706071 -0.17686594
-0.050800901 -0.078630522 -0.17684619
-0.050799783 -0.078557052 -0.1768225
-0.050798118 -0.078481369 -0.17680874
-0.050796356 -0.078405634 -0.176797
-0.050794594 -0.078329906 -0.17678526
-0.050792892 -0.078256175 -0.17677355
-0.050791129 -0.078180447 -0.17676179
-0.050789271 -0.078104682 -0.17675203
-0.050787468 -0.078030907 -0.17674232
-0.050786294 -0.07795544 -0.17671859
-0.050790176 -0.077878281 -0.17658892
-0.05079259 -0.077800475 -0.1764892
-0.050790928 -0.077724785 -0.17647545
-0.050788932 -0.077650927 -0.17646974
-0.050786585 -0.077574939 -0.17646997
-0.05078527 -0.077501379 -0.17645028
-0.05078429 -0.077426001 -0.17642255
-0.050782625 -0.077350318 -0.1764088
-0.050780922 -0.077276587 -0.17639709
-0.05078043 -0.077201426 -0.17635939
-0.050780367 -0.077124484 -0.17631164
-0.050779544 -0.07705114 -0.17628196
-0.050778169 -0.076975591 -0.17626221
-0.050777484 -0.076900341 -0.17622849
-0.050776795 -0.07682509 -0.17619477
-0.050775386 -0.076751493 -0.17617708
-0.050774306 -0.076676071 -0.17615134
-0.050773032 -0.076600559 -0.17612961
-0.050770842 -0.076526612 -0.17612788
-0.050769176 -0.076450922 -0.17611414
-0.050768547 -0.076377675 -0.17608047
-0.050768446 -0.076302685 -0.17603476
-0.050767858 -0.076227479 -0.17599905
-0.050766584 -0.076151967 -0.1759773
-0.050764978 -0.076078281 -0.17596361
-0.050763372 -0.076004595 -0.1759499
-0.050761376 -0.075930737 -0.17594419
-0.050758831 -0.075854659 -0.17594841
-0.050756153 -0.075780496 -0.17595667
-0.050753862 -0.075706504 -0.17595696
-0.05075128 -0.075632378 -0.17596324
-0.050747916 -0.07555791 -0.17598549
-0.050744556 -0.075483441 -0.17600772
-0.050741971 -0.075409316 -0.17601399
-0.050738081 -0.075336583 -0.17604828
-0.050733157 -0.075261422 -0.17610246
-0.0507278 -0.075188033 -0.17616668
-0.050721664 -0.075114295 -0.17624691
-0.050713867 -0.075039826 -0.17636105
-0.050708607 -0.074966483 -0.17642331
-0.051729739 -0.095050044 -0.17842506
-0.051728405 -0.094972536 -0.17840329
-0.05172649 -0.094894767 -0.17839348
-0.051724005 -0.094820686 -0.17839774
-0.05172113 -0.094746433 -0.17841001
-0.051718976 -0.094670534 -0.17840624
-0.051717684 -0.094591066 -0.17838243
-0.051716741 -0.094513729 -0.17835264
-0.051714629 -0.094435871 -0.17834684
-0.051712379 -0.094359927 -0.17834507
-0.051710188 -0.09428598 -0.17834336
-0.05170827 -0.094208211 -0.17833355
-0.051705923 -0.094132222 -0.17833379
-0.05170301 -0.094059922 -0.17834809
-0.051700037 -0.093985632 -0.17836234
-0.051697552 -0.093911551 -0.17836662
-0.05169544 -0.093833692 -0.17836082
-0.0516943 -0.093756273 -0.17833504
-0.051693104 -0.09367685 -0.1783092
-0.051691342 -0.093601122 -0.17829746
-0.051689092 -0.093525171 -0.1782957
-0.051687077 -0.093447357 -0.17828789
-0.051685315 -0.09337163 -0.17827614
-0.051683594 -0.09329395 -0.17826235
-0.051681247 -0.093217954 -0.17826258
-0.051678762 -0.09314388 -0.17826685
-0.05167618 -0.093069762 -0.17827311
-0.051673502 -0.092995591 -0.17828137
-0.05167092 -0.092921473 -0.17828766
-0.051668473 -0.09284544 -0.17828989
-0.051666223 -0.092769489 -0.17828812
-0.051663972 -0.092693545 -0.17828634
-0.051661391 -0.092619427 -0.17829263
-0.05165891 -0.092545345 -0.17829689
-0.051656269 -0.092469223 -0.17830312
-0.051653296 -0.092394933 -0.17831737
-0.05165052 -0.092320718 -0.17832762
-0.051648326 -0.092246771 -0.17832592
-0.051645648 -0.092172608 -0.17833418
-0.051643204 -0.092096575 -0.17833641
-0.051641677 -0.092018977 -0.17831862
-0.051639952 -0.091941297 -0.17830482
-0.051637996 -0.09186548 -0.17829706
-0.051636372 -0.091787837 -0.17828128
-0.051634941 -0.091710284 -0.17826149
-0.051632885 -0.091634423 -0.17825574
-0.051629622 -0.091559999 -0.17827597
-0.051626414 -0.091487572 -0.17829627
-0.051623832 -0.091413453 -0.17830254
-0.051621817 -0.091335639 -0.17829475
-0.05162058 -0.091258168 -0.17827097
-0.051618956 -0.091180533 -0.17825517
-0.051616181 -0.091106325 -0.17826542
-0.05161383 -0.091030329 -0.17826566
-0.051612169 -0.090954646 -0.17825191
-0.051609822 -0.090878658 -0.17825215
-0.051607572 -0.090802714 -0.17825037
-0.051605225 -0.090726718 -0.17825061
-0.051602542 -0.090652555 -0.17825887
-0.051600683 -0.090576783 -0.17824912
-0.051600114 -0.090495668 -0.17820928
-0.051598586 -0.090418071 -0.17819148
-0.051597018 -0.090342432 -0.17817573
-0.051594768 -0.090266488 -0.17817396
-0.051592618 -0.090190582 -0.1781702
-0.051590797 -0.090112858 -0.1781584
-0.051588643 -0.090036951 -0.17815465
-0.051586784 -0.089961179 -0.17814489
-0.051584926 -0.089885406 -0.17813513
-0.05158291 -0.0898076 -0.17812733
-0.051581576 -0.089730084 -0.17810555
-0.051579718 -0.089654312 -0.17809579
-0.051577993 -0.089576632 -0.17808199
-0.051576331 -0.089500949 -0.17806825
-0.051573884 -0.089424916 -0.17807047
-0.0515715 -0.089350879 -0.17807275
-0.051569484 -0.089273065 -0.17806494
-0.051567096 -0.089199029 -0.17806724
-0.051564552 -0.089122951 -0.17807144
-0.051562306 -0.089047007 -0.17806968
-0.051560212 -0.088973105 -0.17806597
-0.051559113 -0.088893726 -0.17803815
-0.051558599 -0.088814609 -0.17799833
-0.051556837 -0.088738881 -0.17798659
-0.051554821 -0.088661067 -0.17797878
-0.051552963 -0.088585295 -0.17796904
-0.051550616 -0.088509306 -0.17796926
-0.051548228 -0.08843527 -0.17797154
-0.051545747 -0.088361189 -0.1779758
-0.051543299 -0.088285156 -0.17797804
-0.051541969 -0.088207647 -0.17795625
-0.051540636 -0.088130139 -0.17793447
-0.051538777 -0.088054366 -0.17792472
-0.051536821 -0.087978549 -0.17791694
-0.051534668 -0.08790265 -0.17791319
-0.051532846 -0.087824926 -0.17790139
-0.051531807 -0.087747544 -0.17787361
-0.051530045 -0.087671816 -0.17786187
-0.051527366 -0.087597653 -0.17787012
-0.051524628 -0.087521486 -0.17787835
-0.05152224 -0.08744745 -0.17788063
-0.05152081 -0.087369896 -0.17786084
-0.051519871 -0.087292567 -0.17783107
-0.051517814 -0.087216705 -0.1778253
-0.051516384 -0.087139152 -0.17780553
-0.051514626 -0.087063424 -0.17779377
-0.051512275 -0.086987436 -0.17779401
-0.051510125 -0.086911529 -0.17779025
-0.051507544 -0.086837411 -0.17779651
-0.051504903 -0.086761288 -0.17780274
-0.051502515 -0.086687252 -0.17780501
-0.051500365 -0.086611353 -0.17780125
-0.051499128 -0.086533889 -0.17777747
-0.051497757 -0.086458333 -0.17775773
-0.051495742 -0.086380519 -0.17774993
-0.051493257 -0.086306438 -0.17775419
-0.051490381 -0.086232185 -0.17776644
-0.051488329 -0.086156331 -0.17776069
-0.051486272 -0.086080469 -0.17775494
-0.051483635 -0.086004347 -0.17776115
-0.051481247 -0.08593031 -0.17776343
-0.051478803 -0.085854277 -0.17776567
-0.051476222 -0.085780159 -0.17777193
-0.051474068 -0.085704252 -0.17776816
-0.051471915 -0.085628353 -0.1777644
-0.051469531 -0.085554317 -0.17776668
-0.051467281 -0.085478373 -0.17776492
-0.051465128 -0.085402474 -0.17776114
-0.051462643 -0.085328393 -0.17776543
-0.051460102 -0.085252315 -0.17776965
-0.051457811 -0.085178323 -0.17776993
-0.051455855 -0.085102506 -0.17776217
-0.051454328 -0.085024908 -0.17774439
-0.051452663 -0.084949225 -0.17773062
-0.051450413 -0.084873281 -0.17772886
-0.051448029 -0.084799245 -0.17773114
-0.05144529 -0.084723085 -0.17773935
-0.051442474 -0.084650829 -0.17775166
-0.051440321 -0.084574923 -0.17774791
-0.051438365 -0.084499106 -0.17774013
-0.051436212 -0.084423207 -0.17773637
-0.051433668 -0.084347129 -0.1777406
-0.051431086 -0.08427301 -0.17774688
-0.05142913 -0.084197193 -0.17773911
-0.0514277 -0.08411964 -0.17771932
-0.051426329 -0.084044084 -0.1776996
-0.05142447 -0.083968312 -0.17768984
-0.051422123 -0.083892323 -0.17769006
-0.051419735 -0.083818287 -0.17769235
-0.051417585 -0.083742388 -0.17768858
-0.051415239 -0.083666399 -0.17768881
-0.051413085 -0.083590493 -0.17768505
-0.051411908 -0.083515026 -0.17766131
-0.051410869 -0.083437651 -0.17763352
-0.051409498 -0.083362095 -0.17761379
-0.051407151 -0.083286107 -0.17761403
-0.051404707 -0.083210073 -0.17761627
-0.051402614 -0.083136171 -0.17761254
-0.05140046 -0.083060265 -0.17760879
-0.051398408 -0.082984403 -0.17760302
-0.051396158 -0.082908459 -0.17760125
-0.051393576 -0.082834341 -0.17760754
-0.051391911 -0.08275865 -0.17759377
-0.051391944 -0.082681753 -0.17754403
-0.051390614 -0.082604244 -0.17752224
-0.051388852 -0.082528517 -0.1775105
-0.051388007 -0.082451224 -0.17747873
-0.051386736 -0.082375713 -0.17745697
-0.051385071 -0.08230003 -0.17744324
-0.051383309 -0.082224302 -0.17743149
-0.051381353 -0.082148485 -0.17742373
-0.051378772 -0.082074359 -0.17743
-0.051375702 -0.082000025 -0.17744625
-0.051373355 -0.081924036 -0.17744648
-0.051371593 -0.081848308 -0.17743473
-0.051369928 -0.081772618 -0.17742099
-0.05136928 -0.081695415 -0.17738521
-0.051367614 -0.081619732 -0.17737147
-0.051365718 -0.081545912 -0.17736375
-0.051364191 -0.081468314 -0.17734598
-0.051361904 -0.08139433 -0.17734624
-0.051359262 -0.081318207 -0.17735247
-0.051356778 -0.081244126 -0.17735675
-0.051354196 -0.081170008 -0.17736301
-0.051351748 -0.081093974 -0.17736524
-0.051350184 -0.081018329 -0.17734951
-0.051349401 -0.080943041 -0.17731777
-0.051347736 -0.08086735 -0.17730403
-0.051345583 -0.080791451 -0.17730026
-0.05134343 -0.080715552 -0.1772965
-0.051341631 -0.080641776 -0.17728679
-0.051339772 -0.080566004 -0.17727703
-0.051337719 -0.080490142 -0.17727128
-0.051335625 -0.08041624 -0.17726755
-0.051332787 -0.080340035 -0.17727777
-0.051330011 -0.08026582 -0.17728803
-0.051328544 -0.080190226 -0.17727029
-0.051327895 -0.080113024 -0.17723453
-0.051327206 -0.080037773 -0.17720081
-0.05132525 -0.079961956 -0.17719305
-0.051322863 -0.079887919 -0.17719534
-0.051320419 -0.079811886 -0.17719756
-0.051318754 -0.079736203 -0.17718381
-0.051317248 -0.079662561 -0.17716812
-0.05131539 -0.079586789 -0.17715836
-0.051313333 -0.079510927 -0.1771526
-0.051311865 -0.079435334 -0.17713484
-0.051310398 -0.079359733 -0.17711711
-0.051309712 -0.079284482 -0.17708339
-0.051308963 -0.079207234 -0.17704964
-0.051307887 -0.079131812 -0.17702389
-0.051306613 -0.0790563 -0.17700216
-0.051305145 -0.078980707 -0.17698441
-0.051303148 -0.078906842 -0.17697871
-0.051301289 -0.078831069 -0.17696893
-0.051300015 -0.078755558 -0.17694721
-0.051299233 -0.078680269 -0.17691548
-0.05129835 -0.078604929 -0.17688575
-0.051296785 -0.078529291 -0.17687002
-0.051294923 -0.078453518 -0.17686026
-0.051293027 -0.078379698 -0.17685255
-0.051291361 -0.078304015 -0.1768388
-0.051290091 -0.078228503 -0.17681706
-0.051289011 -0.078153081 -0.17679134
-0.051287934 -0.078077659 -0.17676559
-0.051286135 -0.078003883 -0.17675591
-0.051284276 -0.077928111 -0.17674613
-0.051285289 -0.077851646 -0.17667642
-0.051287606 -0.077773795 -0.1765787
-0.051287606 -0.077698849 -0.176531
-0.051286623 -0.077623472 -0.17650327
-0.051285058 -0.077547826 -0.17648754
-0.051283747 -0.077474274 -0.17646784
-0.051282376 -0.077398717 -0.17644809
-0.051280517 -0.077322945 -0.17643833
-0.051278621 -0.077249132 -0.17643063
-0.051277738 -0.077173792 -0.1764009
-0.05127826 -0.07709711 -0.17634118
-0.051277768 -0.077021949 -0.17630345
-0.05127636 -0.076948352 -0.17628576
-0.051274989 -0.076872796 -0.17626601
-0.051273618 -0.076797239 -0.17624629
-0.051272403 -0.076723732 -0.17622459
-0.051271424 -0.076648347 -0.17619687
-0.05127025 -0.07657288 -0.17617312
-0.051268838 -0.076499283 -0.17615542
-0.051267665 -0.076423816 -0.1761317
-0.051266644 -0.076350391 -0.17610601
-0.051266056 -0.076275185 -0.1760703
-0.05126527 -0.076199889 -0.17603856
-0.051263765 -0.076126248 -0.17602287
-0.051262099 -0.076050565 -0.17600912
-0.051260691 -0.075976968 -0.17599142
-0.051258598 -0.075903058 -0.17598772
-0.051256444 -0.075827159 -0.17598395
-0.051253766 -0.075752988 -0.17599222
-0.05125089 -0.075678736 -0.17600447
-0.051248312 -0.075604618 -0.17601074
-0.05124481 -0.075532056 -0.17603704
-0.051240765 -0.075457282 -0.17607325
-0.051237598 -0.075382903 -0.17609151
-0.051234722 -0.075308651 -0.17610377
-0.051230736 -0.075235873 -0.17614004
-0.051225223 -0.075160444 -0.17620623
-0.051220551 -0.075087361 -0.17625648
-0.051214416 -0.07501363 -0.17633669
-0.051204957 -0.074938416 -0.17648479
-0.052158896 -0.09503451 -0.17846155
-0.052157603 -0.094955042 -0.17843774
-0.052155938 -0.094879359 -0.17842399
-0.052154507 -0.094801806 -0.1784042
-0.052153017 -0.094722256 -0.17838436
-0.052150965 -0.094646394 -0.17837861
-0.052148715 -0.09457045 -0.17837684
-0.052146364 -0.094494462 -0.17837706
-0.052145325 -0.09441708 -0.17834929
-0.05214341 -0.094339311 -0.1783395
-0.052140925 -0.09426523 -0.17834377
-0.052138187 -0.094189063 -0.178352
-0.052136131 -0.094113208 -0.17834623
-0.052134469 -0.094037525 -0.17833248
-0.052132118 -0.093961537 -0.17833272
-0.052129108 -0.093889192 -0.17834902
-0.052125845 -0.093814768 -0.17836925
-0.052123595 -0.093738817 -0.1783675
-0.052121736 -0.093663044 -0.17835775
-0.052121066 -0.093581885 -0.17831989
-0.052119926 -0.093504466 -0.17829412
-0.052117813 -0.093426608 -0.17828831
-0.052115526 -0.093352616 -0.17828858
-0.052113276 -0.093276672 -0.17828682
