# .PCD v0.7 - Point Cloud Data file format
VERSION 0.7
FIELDS x y z
SIZE 4 4 4
TYPE F F F
COUNT 1 1 1
WIDTH 1270
HEIGHT 1
VIEWPOINT 0 0 0 1 0 0 0
POINTS 1270
DATA ascii
-0.038394175 -0.051655576 -0.18660837
-0.038390126 -0.051570937 -0.18663839
-0.038387597 -0.051488951 -0.18663847
-0.03838513 -0.051408969 -0.18663862
-0.038382057 -0.051324762 -0.18664865
-0.038379237 -0.05124265 -0.18665473
-0.03837603 -0.051160358 -0.18666881
-0.038372565 -0.051075984 -0.18668681
-0.038369548 -0.050993778 -0.1866969
-0.038366828 -0.05091171 -0.186701
-0.038364459 -0.050831765 -0.18669914
-0.038361832 -0.050749734 -0.18670122
-0.038359113 -0.050667658 -0.18670531
-0.038356937 -0.050587807 -0.18669946
-0.038355056 -0.050508082 -0.18668762
-0.038352296 -0.050427962 -0.18669374
-0.038348932 -0.050343633 -0.18670978
-0.038345817 -0.050261386 -0.18672185
-0.038342901 -0.050179224 -0.18672992
-0.038339827 -0.050095022 -0.18673997
-0.038337264 -0.050014991 -0.1867421
-0.03833409 -0.049930744 -0.18675414
-0.038331173 -0.049848586 -0.18676221
-0.038329098 -0.049768776 -0.18675438
-0.038327314 -0.049689092 -0.18674052
-0.038324397 -0.049606934 -0.18674859
-0.038321089 -0.049524602 -0.18676466
-0.038318761 -0.049442701 -0.18676078
-0.038316488 -0.049362801 -0.18675691
-0.038313571 -0.049280643 -0.186765
-0.038311299 -0.049200743 -0.18676114
-0.038309418 -0.049121015 -0.18674931
-0.038306989 -0.049039073 -0.1867474
-0.038304072 -0.048956916 -0.18675548
-0.038301449 -0.048874885 -0.18675756
-0.038298883 -0.048794858 -0.18675971
-0.03829626 -0.048712827 -0.1867618
-0.03829344 -0.048630711 -0.18676788
-0.038290426 -0.048548508 -0.18677795
-0.038287155 -0.04846422 -0.18679199
-0.038284142 -0.048382014 -0.18680206
-0.038281616 -0.048300032 -0.18680215
-0.038279735 -0.048220307 -0.18679032
-0.038278207 -0.048142709 -0.18677253
-0.038276225 -0.048062939 -0.18676268
-0.038274053 -0.047983084 -0.18675682
-0.038271978 -0.04790327 -0.18674898
-0.038269646 -0.047821373 -0.18674508
-0.038265985 -0.047736913 -0.1867671
-0.038262717 -0.047652621 -0.18678111
-0.038260251 -0.047572635 -0.18678126
-0.038257722 -0.047490649 -0.18678135
-0.038255297 -0.047408707 -0.18677944
-0.038252279 -0.047326505 -0.18678953
-0.038248815 -0.047242127 -0.18680754
-0.038245998 -0.047160015 -0.18681362
-0.038243666 -0.04707811 -0.18680972
-0.038240653 -0.046995908 -0.18681981
-0.038237382 -0.04691162 -0.18683383
-0.038233176 -0.046824943 -0.18686578
-0.038230807 -0.046744999 -0.18686393
-0.038228825 -0.046665233 -0.18685409
-0.038226787 -0.046583463 -0.18684418
-0.038224418 -0.046503522 -0.18684232
-0.038221247 -0.046419274 -0.18685436
-0.038218133 -0.046337031 -0.18686643
-0.038216155 -0.046257257 -0.1868566
-0.038214274 -0.046177533 -0.18684475
-0.038211651 -0.046095505 -0.18684682
-0.038209379 -0.046015605 -0.18684298
-0.038207598 -0.045935921 -0.18682915
-0.038204972 -0.04585389 -0.18683124
-0.038202349 -0.045771867 -0.18683332
-0.038199879 -0.045691878 -0.18683347
-0.038197551 -0.045609981 -0.18682957
-0.038195375 -0.045530122 -0.1868237
-0.040067066 -0.092647254 -0.17801143
-0.040065147 -0.092569485 -0.17800164
-0.040063091 -0.092493623 -0.17799588
-0.040061131 -0.092417814 -0.17798811
-0.040058784 -0.092341825 -0.17798835
-0.040055282 -0.092269264 -0.17801464
-0.040053032 -0.09219332 -0.17801288
-0.040051173 -0.092117548 -0.17800312
-0.040049545 -0.092039905 -0.17798734
-0.04004743 -0.091962047 -0.17798153
-0.040044848 -0.091887929 -0.17798778
-0.0400424 -0.091811895 -0.17799002
-0.040040541 -0.091736123 -0.17798027
-0.040038586 -0.091660306 -0.17797253
-0.040036567 -0.091582492 -0.17796472
-0.040034708 -0.09150672 -0.17795497
-0.040032163 -0.091430642 -0.17795919
-0.040029287 -0.091356389 -0.17797145
-0.040026605 -0.091282226 -0.17797971
-0.040023968 -0.091206104 -0.17798594
-0.040025521 -0.091121994 -0.17790008
-0.040024422 -0.091042615 -0.17787224
-0.040022034 -0.090968579 -0.17787452
-0.04001978 -0.090892635 -0.17787275
-0.040017627 -0.090816736 -0.17786899
-0.04001528 -0.09074074 -0.17786923
-0.04001303 -0.090664797 -0.17786746
-0.040010583 -0.090588763 -0.17786968
-0.040007669 -0.090516463 -0.17788398
-0.040004931 -0.090440303 -0.17789221
-0.040002678 -0.090364359 -0.17789045
-0.040000916 -0.090288624 -0.17787869
-0.039998997 -0.090210855 -0.1778689
-0.039996941 -0.090135001 -0.17786314
-0.039994493 -0.090058967 -0.17786537
-0.039992206 -0.089984976 -0.17786565
-0.039989956 -0.089909032 -0.17786388
-0.039987508 -0.089832991 -0.1778661
-0.039985552 -0.089757182 -0.17785835
-0.039986521 -0.089672804 -0.17778446
-0.039985146 -0.089597255 -0.17776471
-0.039982837 -0.089519307 -0.17776291
-0.039980646 -0.08944536 -0.1777612
-0.039978296 -0.089369372 -0.17776142
-0.039976045 -0.08929342 -0.17775965
-0.039974809 -0.089215957 -0.17773588
-0.03997289 -0.089138187 -0.17772608
-0.039970599 -0.089064196 -0.17772636
-0.039968252 -0.088988207 -0.1777266
-0.039966624 -0.088910565 -0.1777108
-0.039965391 -0.088833101 -0.17768702
-0.039963335 -0.088757247 -0.17768127
-0.03996085 -0.088683166 -0.17768553
-0.039958697 -0.088607259 -0.17768177
-0.039956249 -0.088531226 -0.17768401
-0.039953806 -0.088455193 -0.17768623
-0.039951552 -0.088379249 -0.17768446
-0.039949164 -0.088305213 -0.17768675
-0.03994672 -0.088229179 -0.17768896
-0.039944176 -0.088153102 -0.17769319
-0.039941594 -0.088078983 -0.17769946
-0.039939538 -0.088003121 -0.17769371
-0.03993801 -0.087925524 -0.17767592
-0.039936442 -0.087849885 -0.17766017
-0.039934814 -0.087772243 -0.17764437
-0.039932564 -0.087696299 -0.17764261
-0.03993002 -0.087620221 -0.17764685
-0.039927926 -0.087546319 -0.17764312
-0.03992587 -0.087470457 -0.17763737
-0.039923228 -0.087394342 -0.1776436
-0.039921075 -0.087318435 -0.17763983
-0.039919116 -0.087242618 -0.17763206
-0.039916575 -0.08716654 -0.1776363
-0.03991399 -0.087092422 -0.17764257
-0.039911546 -0.087016389 -0.17764479
-0.03990896 -0.086942263 -0.17765108
-0.03990642 -0.086866193 -0.17765531
-0.039904267 -0.086790286 -0.17765154
-0.039902013 -0.086714342 -0.17764977
-0.039899528 -0.086640261 -0.17765404
-0.03989679 -0.086564101 -0.17766225
-0.039894834 -0.086488284 -0.1776545
-0.039893303 -0.086410686 -0.17763671
-0.039891735 -0.086335048 -0.17762098
-0.039890304 -0.086257495 -0.17760119
-0.039888348 -0.086181678 -0.17759344
-0.039885763 -0.086107552 -0.1775997
-0.039882928 -0.086031348 -0.17760992
-0.039880738 -0.085957401 -0.17760819
-0.039878815 -0.085879631 -0.1775984
-0.039876331 -0.08580555 -0.17760268
-0.03987287 -0.085731037 -0.17762692
-0.039870523 -0.085655048 -0.17762715
-0.039868955 -0.08557941 -0.17761141
-0.039867327 -0.085501768 -0.17759562
-0.039864842 -0.085427687 -0.17759988
-0.039862201 -0.085351571 -0.17760611
-0.039859913 -0.08527758 -0.17760639
-0.039857663 -0.085201636 -0.17760462
-0.039855409 -0.085125685 -0.17760286
-0.039853159 -0.085049741 -0.1776011
-0.039850812 -0.084973752 -0.17760134
-0.039848424 -0.084899716 -0.1776036
-0.039846893 -0.084822118 -0.17758581
-0.039846674 -0.084743135 -0.17754002
-0.039846219 -0.084666014 -0.17750026
-0.039844554 -0.084590331 -0.17748651
-0.039841678 -0.084516078 -0.17749877
-0.03983923 -0.084440045 -0.17750102
-0.039837178 -0.084364183 -0.17749524
-0.039834633 -0.084288105 -0.17749947
-0.039832052 -0.084213987 -0.17750575
-0.039829899 -0.08413808 -0.17750198
-0.039827548 -0.084062092 -0.17750221
-0.039825492 -0.083986238 -0.17749646
-0.03982383 -0.083910555 -0.17748271
-0.039822165 -0.083834864 -0.17746896
-0.039820634 -0.083757266 -0.17745116
-0.039818969 -0.083681583 -0.17743742
-0.039816719 -0.08360564 -0.17743567
-0.039814565 -0.083529733 -0.1774319
-0.039812315 -0.083453789 -0.17743012
-0.039809927 -0.083379753 -0.17743242
-0.039807774 -0.083303854 -0.17742865
-0.039806206 -0.083228208 -0.1774129
-0.039806474 -0.083149441 -0.17735711
-0.039806213 -0.083072409 -0.17731336
-0.03980406 -0.08299651 -0.1773096
-0.039802887 -0.082921043 -0.17728588
-0.03980165 -0.082843572 -0.1772621
-0.0397994 -0.082767628 -0.17726034
-0.039796427 -0.082693331 -0.17727458
-0.039793257 -0.082618952 -0.17729284
-0.039790772 -0.082544871 -0.17729712
-0.039789535 -0.082467407 -0.17727333
-0.039788399 -0.082389981 -0.17724755
-0.039786927 -0.082314387 -0.17722981
-0.03978546 -0.082238786 -0.17721207
-0.039783403 -0.082162932 -0.17720631
-0.039780956 -0.082086891 -0.17720854
-0.039778568 -0.082012862 -0.17721081
-0.039776318 -0.081936911 -0.17720905
-0.03977393 -0.081862882 -0.17721134
-0.039771777 -0.081786975 -0.17720756
-0.039771423 -0.081709906 -0.17716581
-0.039771788 -0.081631176 -0.17710802
-0.039770804 -0.081555799 -0.1770803
-0.039768849 -0.081479982 -0.17707255
-0.039767377 -0.081404381 -0.17705482
-0.039765947 -0.081326827 -0.17703503
-0.039763853 -0.081252925 -0.17703131
-0.039761405 -0.081176892 -0.17703354
-0.039759934 -0.081101298 -0.1770158
-0.03975876 -0.081025831 -0.17699206
-0.039756313 -0.080949798 -0.17699429
-0.039753828 -0.080875717 -0.17699856
-0.039752495 -0.080798209 -0.17697679
-0.039752197 -0.080723129 -0.17693508
-0.039750729 -0.080647536 -0.17691734
-0.039747987 -0.080571368 -0.17692555
-0.039745934 -0.080495514 -0.17691979
-0.03974456 -0.080419958 -0.17690006
-0.039742701 -0.080344185 -0.1768903
-0.039740119 -0.080270059 -0.17689657
-0.038466826 -0.054454744 -0.1868329
-0.038468111 -0.054384314 -0.18676133
-0.038470179 -0.054314233 -0.18667379
-0.03847082 -0.054241553 -0.18661416
-0.038470265 -0.054164387 -0.1865764
-0.038469419 -0.054087095 -0.18654463
-0.038469672 -0.054014239 -0.18649298
-0.038468726 -0.053936902 -0.18646321
-0.038467295 -0.053859349 -0.18644342
-0.038465612 -0.05377971 -0.18642758
-0.038463786 -0.053701982 -0.18641579
-0.038461518 -0.053622086 -0.18641193
-0.038458988 -0.053540096 -0.18641202
-0.038456522 -0.05346011 -0.18641216
-0.038454093 -0.053378172 -0.18641025
-0.038451724 -0.053298227 -0.1864084
-0.038449451 -0.053218327 -0.18640454
-0.038446829 -0.053136297 -0.18640664
-0.038444363 -0.053056311 -0.18640678
-0.038441543 -0.052974194 -0.18641286
-0.038438782 -0.052894078 -0.186419
-0.038435671 -0.052811831 -0.18643107
-0.038432658 -0.052729629 -0.18644115
-0.03842929 -0.052645296 -0.18645716
-0.038426273 -0.052563094 -0.18646725
-0.038423613 -0.052483018 -0.18647137
-0.03842089 -0.052400947 -0.18647547
-0.038417973 -0.052318789 -0.18648356
-0.038415156 -0.052236669 -0.18648964
-0.038412336 -0.052154556 -0.18649572
-0.03840977 -0.052074522 -0.18649785
-0.038406558 -0.051992234 -0.18651193
-0.0384029 -0.05190777 -0.18653394
-0.038398948 -0.051823176 -0.18656194
-0.038395286 -0.051738717 -0.18658397
-0.038391531 -0.051654212 -0.18660797
-0.038387481 -0.051569574 -0.18663797
-0.038384952 -0.051487587 -0.18663807
-0.038382486 -0.051407602 -0.18663821
-0.038379412 -0.051323399 -0.18664825
-0.038376495 -0.051241241 -0.18665633
-0.038373385 -0.051158994 -0.1866684
-0.038370017 -0.051074661 -0.18668443
-0.038366806 -0.05099237 -0.1866985
-0.038364183 -0.050910342 -0.18670058
-0.038361814 -0.050830401 -0.18669873
-0.038359188 -0.050748371 -0.18670082
-0.038356371 -0.050666254 -0.1867069
-0.038354293 -0.05058644 -0.18669906
-0.038352411 -0.050506715 -0.1866872
-0.038349651 -0.050426595 -0.18669334
-0.038346287 -0.050342266 -0.18670936
-0.038343173 -0.050260019 -0.18672144
-0.038340256 -0.050177857 -0.18672952
-0.038337085 -0.050093614 -0.18674155
-0.038334619 -0.050013624 -0.18674169
-0.038331348 -0.049929339 -0.18675572
-0.038328432 -0.049847178 -0.18676379
-0.038326453 -0.049767412 -0.18675396
-0.038324669 -0.049687728 -0.18674012
-0.038321752 -0.049605567 -0.18674819
-0.038318444 -0.049523234 -0.18676427
-0.038316116 -0.049441338 -0.18676037
-0.038313743 -0.049361393 -0.18675852
-0.038310926 -0.049279276 -0.1867646
-0.038308654 -0.04919938 -0.18676072
-0.038306773 -0.049119651 -0.18674889
-0.038304344 -0.04903771 -0.18674698
-0.038301427 -0.048955549 -0.18675506
-0.038298704 -0.04887348 -0.18675914
-0.038296141 -0.04879345 -0.18676129
-0.038293518 -0.048711419 -0.18676338
-0.038290795 -0.048629344 -0.18676746
-0.038287781 -0.048547145 -0.18677755
-0.03828451 -0.048462857 -0.18679157
-0.038281497 -0.048380651 -0.18680164
-0.038278971 -0.048298664 -0.18680176
-0.03827709 -0.048218939 -0.1867899
-0.038275559 -0.048141345 -0.18677211
-0.03827358 -0.048061576 -0.18676227
-0.038271308 -0.047981676 -0.1867584
-0.03826933 -0.047901906 -0.18674856
-0.038267002 -0.047820009 -0.18674466
-0.03826334 -0.047735546 -0.18676668
-0.038260072 -0.047651254 -0.18678071
-0.038257603 -0.047571272 -0.18678084
-0.038255077 -0.047489285 -0.18678093
-0.038252648 -0.047407344 -0.18677902
-0.038249634 -0.047325134 -0.18678913
-0.03824617 -0.047240764 -0.18680713
-0.03824335 -0.047158647 -0.18681321
-0.038241021 -0.047076747 -0.18680932
-0.038238004 -0.046994545 -0.18681939
-0.038234733 -0.046910256 -0.18683341
-0.038230527 -0.04682358 -0.18686537
-0.038228258 -0.046743676 -0.18686152
-0.03822618 -0.046663865 -0.18685368
-0.038224142 -0.046582095 -0.18684378
-0.038221773 -0.046502154 -0.18684192
-0.038218603 -0.046417907 -0.18685395
-0.038215488 -0.04633566 -0.18686602
-0.03821351 -0.046255894 -0.18685618
-0.038211726 -0.04617621 -0.18684234
-0.038208906 -0.046094093 -0.18684843
-0.038206734 -0.046014242 -0.18684258
-0.038204852 -0.045934513 -0.18683073
-0.038202327 -0.045852527 -0.18683082
-0.038199604 -0.045770455 -0.1868349
-0.038197234 -0.04569051 -0.18683305
-0.038194902 -0.045608614 -0.18682915
-0.03819273 -0.045528758 -0.18682329
-0.040065642 -0.092645742 -0.1780102
-0.040063821 -0.092568018 -0.17799839
-0.040061764 -0.092492156 -0.17799264
-0.040059809 -0.092416339 -0.17798489
-0.040057458 -0.09234035 -0.1779851
-0.04005396 -0.092267796 -0.17801142
-0.040051609 -0.0921918 -0.17801164
-0.04004975 -0.092116028 -0.17800188
-0.040048122 -0.092038393 -0.17798609
-0.040046107 -0.091960579 -0.17797829
-0.040043522 -0.091886461 -0.17798457
-0.040041078 -0.09181042 -0.17798679
-0.040039215 -0.091734648 -0.17797704
-0.040037259 -0.091658831 -0.17796928
-0.04003524 -0.091581017 -0.17796148
-0.040033381 -0.091505244 -0.17795172
-0.04003074 -0.091429129 -0.17795795
-0.040027864 -0.091354877 -0.1779702
-0.040025182 -0.091280714 -0.17797849
-0.040022735 -0.091204673 -0.17798071
-0.040024389 -0.091120608 -0.17789283
-0.040023092 -0.091041148 -0.17786901
-0.040020607 -0.090967067 -0.17787328
-0.040018454 -0.090891168 -0.17786953
-0.040016301 -0.090815261 -0.17786574
-0.040014051 -0.090739317 -0.17786399
-0.0400117 -0.090663329 -0.17786422
-0.040009256 -0.090587296 -0.17786644
-0.040006243 -0.09051495 -0.17788276
-0.040003505 -0.090438791 -0.17789099
-0.040001351 -0.090362892 -0.1778872
-0.039999492 -0.090287112 -0.17787746
-0.039997667 -0.090209387 -0.17786565
-0.039995611 -0.090133525 -0.1778599
-0.039993167 -0.090057492 -0.17786214
-0.039990779 -0.089983463 -0.1778644
-0.039988566 -0.08990556 -0.1778606
-0.039986178 -0.089831524 -0.17786288
-0.039984219 -0.089755706 -0.17785512
-0.039985191 -0.089671336 -0.17778122
-0.03998372 -0.089595735 -0.17776349
-0.039981507 -0.089517832 -0.17775968
-0.039979316 -0.089443892 -0.17775796
-0.039976966 -0.089367896 -0.17775819
-0.039974812 -0.089291997 -0.17775443
-0.039973382 -0.089214444 -0.17773464
-0.03997156 -0.08913672 -0.17772284
-0.039969172 -0.089062683 -0.17772512
-0.039966922 -0.08898674 -0.17772335
-0.039965294 -0.088909097 -0.17770755
-0.039963961 -0.088831589 -0.17768578
-0.039961904 -0.088755727 -0.17768002
-0.03995946 -0.088679694 -0.17768225
-0.039957367 -0.088605791 -0.17767856
-0.039954919 -0.088529758 -0.17768076
-0.039952375 -0.08845368 -0.17768499
-0.039950222 -0.088377774 -0.17768124
-0.039947834 -0.088303745 -0.1776835
-0.039945289 -0.088227667 -0.17768773
-0.039942842 -0.088151634 -0.17768997
-0.03994026 -0.088077515 -0.17769623
-0.039938301 -0.088001698 -0.17768848
-0.03993658 -0.087924011 -0.17767468
-0.039935011 -0.087848373 -0.17765895
-0.039933383 -0.08777073 -0.17764315
-0.039931133 -0.087694786 -0.17764139
-0.039928589 -0.087618709 -0.17764561
-0.039926436 -0.087542802 -0.17764185
-0.039924439 -0.087468944 -0.17763615
-0.039921798 -0.087392822 -0.17764236
-0.039919645 -0.087316923 -0.17763859
-0.039917685 -0.087241106 -0.17763084
-0.039915238 -0.087165073 -0.17763308
-0.039912559 -0.087090909 -0.17764133
-0.039910112 -0.087014869 -0.17764357
-0.039907627 -0.086940795 -0.17764783
-0.039905082 -0.086864717 -0.17765206
-0.039902929 -0.086788818 -0.17764831
-0.039900679 -0.086712867 -0.17764655
-0.039898098 -0.086638749 -0.17765281
-0.039895453 -0.086562626 -0.17765903
-0.039893497 -0.086486816 -0.17765127
-0.039891966 -0.086409219 -0.17763349
-0.039890401 -0.086333573 -0.17761774
-0.039888971 -0.08625602 -0.17759797
-0.039887011 -0.08618021 -0.17759021
-0.039884329 -0.08610604 -0.17759848
-0.039881591 -0.08602988 -0.1776067
-0.0398793 -0.085955888 -0.17760697
-0.039877478 -0.085878156 -0.17759517
-0.039874896 -0.085804038 -0.17760146
-0.039871532 -0.085729569 -0.17762369
-0.039869186 -0.085653581 -0.17762393
-0.039867617 -0.085577935 -0.17760819
-0.039865989 -0.0855003 -0.17759238
-0.039863504 -0.085426219 -0.17759666
-0.039860766 -0.085350052 -0.17760488
-0.039858475 -0.08527606 -0.17760515
-0.039856322 -0.085200161 -0.1776014
-0.039853975 -0.085124172 -0.17760164
-0.039851919 -0.08504831 -0.17759588
-0.039849471 -0.084972277 -0.1775981
-0.039847083 -0.084898248 -0.17760038
-0.039845459 -0.084820606 -0.17758459
-0.039845336 -0.084741659 -0.17753679
-0.039844882 -0.084664546 -0.17749703
-0.039843217 -0.084588856 -0.17748329
-0.039840244 -0.084514558 -0.17749755
-0.039837796 -0.084438533 -0.17749977
-0.039835837 -0.084362715 -0.17749202
-0.039833196 -0.084286593 -0.17749825
-0.039830711 -0.084212512 -0.17750251
-0.039828558 -0.084136613 -0.17749876
-0.03982611 -0.08406058 -0.17750099
-0.039824151 -0.083984762 -0.17749324
-0.039822392 -0.083909035 -0.17748147
-0.039820723 -0.083833352 -0.17746773
-0.039819293 -0.083755799 -0.17744794
-0.039817628 -0.083680108 -0.17743421
-0.039815474 -0.083604209 -0.17743044
-0.039813127 -0.083528221 -0.17743067
-0.039810874 -0.083452269 -0.1774289
-0.039808586 -0.083378285 -0.17742918
-0.039806336 -0.083302334 -0.17742741
-0.039804865 -0.08322674 -0.17740968
-0.039805133 -0.083147973 -0.17735389
-0.039804813 -0.083068937 -0.17731011
-0.039802719 -0.082995035 -0.17730638
-0.039801486 -0.082917571 -0.1772826
-0.039800309 -0.082842104 -0.17725886
-0.039798155 -0.082766198 -0.17725511
-0.039795179 -0.082691908 -0.17726937
-0.039791916 -0.082617477 -0.17728962
-0.03978933 -0.082543358 -0.17729589
-0.039788097 -0.082465887 -0.17727211
-0.039787054 -0.082388513 -0.17724434
-0.039785586 -0.082312912 -0.17722659
-0.039784115 -0.082237318 -0.17720884
-0.039782058 -0.082161456 -0.17720309
-0.039779514 -0.082085378 -0.17720732
-0.039777227 -0.082011387 -0.17720759
-0.039774876 -0.081935398 -0.17720783
-0.039772589 -0.081861407 -0.17720811
-0.039770335 -0.081785463 -0.17720634
-0.039769981 -0.081708387 -0.17716458
-0.039770443 -0.081629708 -0.17710482
-0.03976946 -0.081554323 -0.17707708
-0.039767504 -0.081478506 -0.17706934
-0.039766032 -0.081402913 -0.17705159
-0.039764602 -0.08132536 -0.1770318
-0.039762411 -0.081251413 -0.17703009
-0.039759964 -0.081175379 -0.17703232
-0.039758492 -0.081099778 -0.17701457
-0.039757319 -0.081024311 -0.17699084
-0.039754968 -0.080948323 -0.17699108
-0.039752387 -0.080874205 -0.17699733
-0.03975115 -0.080796733 -0.17697355
-0.039750695 -0.08071962 -0.1769338
-0.039749283 -0.080646016 -0.17691612
-0.039746545 -0.080569856 -0.17692433
-0.039744489 -0.080493994 -0.17691857
-0.039743118 -0.080418438 -0.17689884
-0.039741352 -0.08034271 -0.17688709
-0.038465381 -0.054453287 -0.18682972
-0.038466569 -0.054382816 -0.18676016
-0.038468637 -0.054312736 -0.1866726
-0.038469374 -0.054240096 -0.18661097
-0.038468726 -0.05416289 -0.1865752
-0.03846788 -0.054085597 -0.18654343
-0.038468227 -0.054012783 -0.18648979
-0.038467187 -0.053935405 -0.18646201
-0.038465854 -0.053857893 -0.18644023
-0.038464166 -0.053778253 -0.1864244
-0.038462345 -0.053700529 -0.1864126
-0.038460072 -0.053620629 -0.18640874
-0.038457546 -0.053538643 -0.18640885
-0.038455177 -0.053458698 -0.18640698
-0.038452554 -0.053376671 -0.18640909
-0.038450282 -0.053296771 -0.18640521
-0.038447913 -0.05321683 -0.18640336
-0.038445443 -0.05313684 -0.18640351
-0.038442917 -0.053054854 -0.1864036
-0.038440097 -0.052972738 -0.18640968
-0.03843724 -0.052892577 -0.1864178
-0.038434226 -0.052810375 -0.18642789
-0.038431212 -0.052728172 -0.18643796
-0.038427748 -0.052643798 -0.18645598
-0.038424827 -0.052561637 -0.18646407
-0.038422167 -0.052481562 -0.1864682
-0.038419444 -0.052399494 -0.18647228
-0.038416527 -0.052317332 -0.18648037
-0.03841361 -0.052235171 -0.18648845
-0.03841079 -0.052153058 -0.18649453
-0.038408227 -0.052073024 -0.18649668
-0.038405016 -0.051990736 -0.18651074
-0.038401455 -0.051906317 -0.18653077
-0.038397402 -0.051821679 -0.18656076
-0.03839384 -0.05173726 -0.18658078
-0.038389985 -0.051652711 -0.18660679
-0.038385935 -0.051568076 -0.18663679
-0.038383406 -0.05148609 -0.18663689
-0.03838094 -0.051406104 -0.18663701
-0.038377866 -0.051321901 -0.18664706
-0.038375046 -0.051239785 -0.18665315
-0.038371835 -0.051157497 -0.1866672
-0.038368471 -0.051073164 -0.18668324
-0.038365453 -0.050990961 -0.18669333
-0.038362633 -0.050908841 -0.18669939
-0.038360264 -0.0508289 -0.18669754
-0.038357642 -0.050746873 -0.18669963
-0.038354918 -0.050664797 -0.18670371
-0.038352743 -0.050584942 -0.18669787
-0.038350962 -0.050505258 -0.18668403
-0.038348202 -0.050425142 -0.18669017
-0.038344737 -0.050340764 -0.18670818
-0.038341723 -0.050258562 -0.18671827
-0.038338803 -0.050176404 -0.18672635
-0.038335633 -0.050092161 -0.18673837
-0.038333166 -0.050012171 -0.18673852
-0.038329896 -0.049927883 -0.18675254
-0.038327076 -0.04984577 -0.18675862
-0.038325001 -0.049765956 -0.18675077
-0.038323313 -0.04968632 -0.18673494
-0.038320202 -0.049604069 -0.18674701
-0.038316991 -0.049521782 -0.18676108
-0.038314562 -0.04943984 -0.18675917
-0.03831229 -0.04935994 -0.18675533
-0.03830947 -0.04927782 -0.18676141
-0.038307101 -0.049197882 -0.18675956
-0.038305219 -0.049118154 -0.18674771
-0.03830279 -0.049036212 -0.18674581
-0.03829997 -0.048954096 -0.18675189
-0.038297251 -0.048872024 -0.18675599
-0.038294684 -0.048791993 -0.18675812
-0.038292062 -0.048709966 -0.18676022
-0.038289338 -0.048627891 -0.1867643
-0.038286228 -0.048545647 -0.18677637
-0.038282957 -0.048461359 -0.18679041
-0.038279943 -0.048379153 -0.18680046
-0.038277417 -0.048297167 -0.18680057
-0.038275536 -0.048217442 -0.18678872
-0.038274102 -0.048139889 -0.18676892
-0.038272124 -0.048060119 -0.18675908
-0.038269851 -0.047980219 -0.18675524
-0.038267776 -0.047900409 -0.18674739
-0.038265541 -0.047818556 -0.18674149
-0.038261883 -0.047734089 -0.1867635
-0.038258515 -0.047649756 -0.18677953
-0.038256049 -0.047569774 -0.18677968
-0.03825362 -0.047487829 -0.18677777
-0.038251191 -0.047405887 -0.18677586
-0.038248174 -0.047323681 -0.18678594
-0.038244709 -0.047239307 -0.18680397
-0.038241792 -0.04715715 -0.18681204
-0.038239524 -0.04707725 -0.18680818
-0.038236447 -0.046993047 -0.18681821
-0.03823318 -0.046908759 -0.18683225
-0.03822897 -0.046822079 -0.1868642
-0.038226798 -0.046742223 -0.18685836
-0.038224719 -0.046662413 -0.18685049
-0.038222644 -0.046582598 -0.18684265
-0.038220216 -0.046500657 -0.18684074
-0.038217142 -0.046416454 -0.18685079
-0.038214028 -0.046334207 -0.18686286
-0.03821205 -0.046254441 -0.18685301
-0.038210168 -0.046174712 -0.18684116
-0.038207445 -0.046092641 -0.18684524
-0.038205173 -0.046012744 -0.1868414
-0.038203392 -0.04593306 -0.18682754
-0.038200922 -0.045853071 -0.18682769
-0.038198143 -0.045769002 -0.18683174
-0.038195673 -0.045689013 -0.18683188
-0.038193345 -0.045607116 -0.18682797
-0.03819117 -0.045527261 -0.18682212
-0.040066816 -0.09264642 -0.17801045
-0.040064994 -0.092568696 -0.17799866
-0.040062938 -0.092492834 -0.1779929
-0.040060982 -0.092417017 -0.17798513
-0.040058631 -0.092341028 -0.17798537
-0.040055133 -0.092268467 -0.17801166
-0.040052783 -0.092192486 -0.17801189
-0.040050924 -0.092116714 -0.17800213
-0.040049296 -0.092039071 -0.17798635
-0.04004728 -0.091961257 -0.17797855
-0.040044695 -0.091887131 -0.17798482
-0.040042251 -0.091811098 -0.17798704
-0.040040389 -0.091735326 -0.17797729
-0.040038433 -0.091659516 -0.17796955
-0.040036414 -0.091581702 -0.17796174
-0.040034555 -0.09150593 -0.17795198
-0.040031914 -0.091429807 -0.17795821
-0.040029038 -0.091355555 -0.17797047
-0.040026356 -0.091281392 -0.17797872
-0.040023811 -0.091205314 -0.17798296
-0.040025465 -0.091121241 -0.17789508
-0.040024266 -0.091041826 -0.17786926
-0.040021785 -0.090967745 -0.17787354
-0.040019628 -0.090891838 -0.17786977
-0.040017474 -0.090815939 -0.17786601
-0.040015224 -0.090739995 -0.17786425
-0.040012874 -0.090663999 -0.17786448
-0.04001043 -0.090587974 -0.1778667
-0.04000742 -0.090515628 -0.177883
-0.040004775 -0.090439513 -0.17788923
-0.040002525 -0.090363562 -0.17788747
-0.040000666 -0.09028779 -0.17787771
-0.039998844 -0.090210065 -0.17786592
-0.039996788 -0.090134203 -0.17786016
-0.03999434 -0.09005817 -0.17786238
-0.039991952 -0.089984134 -0.17786467
-0.039989837 -0.089906283 -0.17785886
-0.039987452 -0.089832246 -0.17786112
-0.039985396 -0.089756384 -0.17785537
-0.039986365 -0.089672014 -0.17778148
-0.039984893 -0.089596413 -0.17776373
-0.03998268 -0.089518517 -0.17775993
-0.03998049 -0.089444563 -0.17775822
-0.039978139 -0.089368574 -0.17775846
-0.039975986 -0.089292675 -0.17775469
-0.039974652 -0.089215167 -0.1777329
-0.039972734 -0.08913739 -0.17772311
-0.039970346 -0.089063361 -0.17772537
-0.039968096 -0.08898741 -0.17772362
-0.039966468 -0.088909775 -0.17770782
-0.039965235 -0.088832304 -0.17768404
-0.039963081 -0.088756405 -0.17768028
-0.039960634 -0.088680372 -0.1776825
-0.039958537 -0.088606469 -0.17767879
-0.039956093 -0.088530436 -0.17768103
-0.039953645 -0.088454403 -0.17768325
-0.039951395 -0.088378452 -0.17768148
-0.039949007 -0.088304423 -0.17768377
-0.039946463 -0.088228345 -0.17768797
-0.039944019 -0.088152312 -0.17769022
-0.039941434 -0.088078186 -0.1776965
-0.039939478 -0.088002369 -0.17768873
-0.03993785 -0.087924734 -0.17767295
-0.039936185 -0.087849051 -0.17765918
-0.039934557 -0.087771408 -0.1776434
-0.039932404 -0.087695509 -0.17763963
-0.039929859 -0.087619431 -0.17764387
-0.039927706 -0.087543525 -0.1776401
-0.039925613 -0.087469622 -0.17763638
-0.039922971 -0.0873935 -0.17764261
-0.039920818 -0.087317601 -0.17763886
-0.039918959 -0.087241828 -0.1776291
-0.039916415 -0.087165751 -0.17763332
-0.039913733 -0.087091587 -0.1776416
-0.039911289 -0.087015554 -0.17764382
-0.039908901 -0.086941518 -0.1776461
-0.03990626 -0.086865395 -0.17765233
-0.039904103 -0.086789496 -0.17764857
-0.039901853 -0.086713545 -0.1776468
-0.039899271 -0.086639427 -0.17765307
-0.03989663 -0.086563304 -0.17765929
-0.039894767 -0.086487532 -0.17764953
-0.03989324 -0.086409941 -0.17763174
-0.039891575 -0.086334251 -0.177618
-0.039890144 -0.086256698 -0.17759821
-0.039888185 -0.086180881 -0.17759046
-0.039885543 -0.086104766 -0.17759667
-0.039882764 -0.086030558 -0.17760694
-0.039880477 -0.085956566 -0.17760722
-0.039878655 -0.085878834 -0.17759544
-0.03987617 -0.08580476 -0.1775997
-0.03987271 -0.085730247 -0.17762396
-0.039870359 -0.085654259 -0.17762418
-0.039868791 -0.085578613 -0.17760843
-0.039867166 -0.08550097 -0.17759264
-0.039864682 -0.085426897 -0.17759691
-0.03986194 -0.08535073 -0.17760514
-0.039859653 -0.085276738 -0.17760542
-0.039857499 -0.085200839 -0.17760165
-0.039855149 -0.08512485 -0.17760187
-0.039853092 -0.085048988 -0.17759612
-0.039850648 -0.084972955 -0.17759836
-0.039848261 -0.084898919 -0.17760062
-0.039846633 -0.084821284 -0.17758484
-0.03984651 -0.084742337 -0.17753705
-0.039846055 -0.084665224 -0.1774973
-0.03984439 -0.084589534 -0.17748353
-0.039841417 -0.084515244 -0.1774978
-0.03983897 -0.084439203 -0.17750004
-0.039837014 -0.084363393 -0.17749228
-0.039834373 -0.084287271 -0.17749849
-0.039831888 -0.08421319 -0.17750278
-0.039829731 -0.084137291 -0.17749901
-0.039827287 -0.084061258 -0.17750125
-0.039825328 -0.08398544 -0.17749348
-0.039823566 -0.083909713 -0.17748174
-0.0398219 -0.08383403 -0.17746799
-0.03982047 -0.083756477 -0.1774482
-0.039818805 -0.083680794 -0.17743444
-0.039816651 -0.083604887 -0.17743069
-0.039814301 -0.083528899 -0.17743093
-0.039812051 -0.083452955 -0.17742917
-0.03980976 -0.083378956 -0.17742944
-0.03980751 -0.083303012 -0.17742768
-0.039806042 -0.083227418 -0.17740992
-0.039806306 -0.083148651 -0.17735416
-0.03980599 -0.083069623 -0.17731035
-0.039803892 -0.082995713 -0.17730664
-0.039802659 -0.082918249 -0.17728285
-0.039801482 -0.082842782 -0.17725912
-0.039799329 -0.082766876 -0.17725536
-0.039796356 -0.082692578 -0.17726962
-0.039793089 -0.082618155 -0.17728987
-0.039790507 -0.082544036 -0.17729613
-0.039789271 -0.082466573 -0.17727235
-0.039788231 -0.082389191 -0.17724457
-0.03978676 -0.08231359 -0.17722684
-0.039785292 -0.082237989 -0.17720911
-0.039783236 -0.082162134 -0.17720336
-0.039780788 -0.082086101 -0.17720558
-0.0397784 -0.082012065 -0.17720786
-0.039776053 -0.081936076 -0.17720808
-0.039773762 -0.081862085 -0.17720836
-0.039771609 -0.081786186 -0.17720461
-0.039771155 -0.081709065 -0.17716485
-0.039771616 -0.081630386 -0.17710507
-0.039770637 -0.081555001 -0.17707734
-0.039768677 -0.081479192 -0.17706959
-0.039767209 -0.081403591 -0.17705184
-0.039765775 -0.081326038 -0.17703205
-0.039763682 -0.081252128 -0.17702834
-0.039761137 -0.081176057 -0.17703256
-0.039759669 -0.081100456 -0.17701483
-0.039758492 -0.081024989 -0.17699109
-0.039756142 -0.080949001 -0.17699131
-0.039753657 -0.08087492 -0.17699561
-0.039752323 -0.080797412 -0.17697382
-0.039751869 -0.080720298 -0.17693406
-0.039750457 -0.080646694 -0.17691636
-0.039747719 -0.080570534 -0.17692459
-0.039745662 -0.080494672 -0.17691883
-0.039744291 -0.080419116 -0.17689908
-0.039742529 -0.080343388 -0.17688733
-0.039739948 -0.08026927 -0.17689361
-0.038466603 -0.054453962 -0.18682998
-0.038467791 -0.054383494 -0.1867604
-0.038469858 -0.054313414 -0.18667287
-0.038470596 -0.054240774 -0.18661124
-0.038469948 -0.054163568 -0.18657547
-0.038469102 -0.054086275 -0.1865437
-0.038469449 -0.054013461 -0.18649006
-0.038468409 -0.053936079 -0.18646228
-0.038467076 -0.053858571 -0.1864405
-0.038465388 -0.053778931 -0.18642466
-0.038463566 -0.053701203 -0.18641286
-0.038461294 -0.053621307 -0.186409
-0.038458768 -0.053539321 -0.1864091
-0.038456399 -0.053459376 -0.18640724
-0.038453773 -0.053377349 -0.18640932
-0.0384515 -0.053297445 -0.18640548
-0.038449131 -0.053217508 -0.18640362
-0.038446665 -0.053137518 -0.18640375
-0.038444139 -0.053055532 -0.18640384
-0.03844142 -0.052973457 -0.18640794
-0.038438559 -0.052893296 -0.18641606
-0.038435545 -0.052811094 -0.18642615
-0.038432434 -0.05272885 -0.18643822
-0.038429067 -0.052644514 -0.18645424
-0.038426049 -0.052562311 -0.18646432
-0.038423389 -0.05248224 -0.18646845
-0.038420666 -0.052400168 -0.18647254
-0.038417749 -0.052318007 -0.18648061
-0.038414832 -0.052235849 -0.18648872
-0.038412109 -0.052153777 -0.1864928
-0.038409449 -0.052073702 -0.18649693
-0.038406238 -0.051991411 -0.18651101
-0.038402677 -0.051906995 -0.18653101
-0.038398623 -0.051822357 -0.18656102
-0.038395062 -0.051737938 -0.18658105
-0.038391206 -0.051653389 -0.18660705
-0.038387157 -0.051568754 -0.18663704
-0.038384631 -0.051486764 -0.18663715
-0.038382161 -0.051406778 -0.18663728
-0.038379088 -0.051322579 -0.18664733
-0.038376268 -0.051240459 -0.18665341
-0.038373157 -0.051158216 -0.18666548
-0.038369693 -0.051073842 -0.18668351
-0.038366679 -0.050991636 -0.18669358
-0.038363859 -0.050909519 -0.18669966
-0.03836149 -0.050829578 -0.18669781
-0.038358863 -0.050747551 -0.1866999
-0.038356144 -0.050665475 -0.18670398
-0.038353968 -0.05058562 -0.18669814
-0.038352184 -0.050505936 -0.18668428
-0.038349424 -0.05042582 -0.18669042
-0.038345959 -0.050341442 -0.18670844
-0.038342945 -0.05025924 -0.18671852
-0.038340028 -0.050177082 -0.1867266
-0.038336858 -0.050092839 -0.18673864
-0.038334388 -0.050012849 -0.18673876
-0.038331121 -0.049928561 -0.1867528
-0.038328301 -0.049846444 -0.18675889
-0.038326222 -0.049766634 -0.18675104
-0.038324539 -0.049686994 -0.18673518
-0.038321525 -0.049604788 -0.18674527
-0.038318217 -0.04952246 -0.18676135
-0.038315885 -0.049440559 -0.18675745
-0.038313612 -0.049360659 -0.18675359
-0.038310695 -0.049278498 -0.18676166
-0.038308326 -0.04919856 -0.1867598
-0.038306445 -0.049118832 -0.18674797
-0.038304016 -0.049036887 -0.18674606
-0.038301196 -0.04895477 -0.18675216
-0.038298473 -0.048872702 -0.18675624
-0.03829591 -0.048792668 -0.18675837
-0.038293287 -0.048710641 -0.18676046
-0.038290564 -0.048628569 -0.18676455
-0.038287453 -0.048546322 -0.18677662
-0.038284183 -0.048462033 -0.18679065
-0.038281169 -0.048379831 -0.18680073
-0.038278639 -0.048297845 -0.18680084
-0.038276762 -0.048218116 -0.18678898
-0.038275328 -0.048140567 -0.18676919
-0.038273349 -0.048060797 -0.18675935
-0.038271077 -0.047980897 -0.18675549
-0.038269002 -0.047901083 -0.18674764
-0.038266767 -0.047819231 -0.18674174
-0.038263109 -0.047734767 -0.18676376
-0.038259741 -0.047650434 -0.18677978
-0.038257372 -0.047570493 -0.18677792
-0.038254846 -0.047488503 -0.18677802
-0.038252417 -0.047406562 -0.18677612
-0.0382494 -0.047324359 -0.18678619
-0.038245935 -0.047239982 -0.18680422
-0.038243018 -0.047157828 -0.1868123
-0.038240746 -0.047077924 -0.18680844
-0.038237672 -0.046993725 -0.18681848
-0.038234405 -0.046909437 -0.1868325
-0.038230196 -0.046822757 -0.18686447
-0.038228024 -0.046742901 -0.18685861
-0.038225945 -0.046663091 -0.18685076
-0.03822387 -0.046583276 -0.1868429
-0.038221441 -0.046501335 -0.18684101
-0.038218368 -0.046417132 -0.18685104
-0.038215254 -0.046334885 -0.18686311
-0.038213275 -0.046255115 -0.18685326
-0.038211394 -0.04617539 -0.18684143
-0.038208671 -0.046093315 -0.18684551
-0.038206398 -0.046013419 -0.18684167
-0.038204618 -0.045933738 -0.18682781
-0.038202148 -0.045853749 -0.18682796
-0.038199369 -0.045769677 -0.18683198
-0.038196899 -0.045689691 -0.18683213
-0.038194571 -0.04560779 -0.18682823
-0.038192395 -0.045527935 -0.18682238
-0.040069699 -0.092649162 -0.17801183
-0.040067781 -0.092571393 -0.17800204
-0.040065821 -0.092495576 -0.17799428
-0.040063865 -0.092419758 -0.17798653
-0.040061519 -0.09234377 -0.17798676
-0.040058017 -0.092271209 -0.17801306
-0.04005567 -0.09219522 -0.17801328
-0.040053811 -0.092119448 -0.17800352
-0.040052183 -0.092041805 -0.17798774
-0.040050168 -0.091963992 -0.17797995
-0.040047586 -0.091889873 -0.1779862
-0.040045142 -0.09181384 -0.17798844
-0.040043183 -0.091738023 -0.17798068
-0.040041227 -0.091662206 -0.17797293
-0.040039212 -0.091584392 -0.17796512
-0.040037349 -0.091508627 -0.17795537
-0.040034808 -0.091432549 -0.17795959
-0.040031932 -0.091358289 -0.17797185
-0.040029254 -0.091284126 -0.17798012
-0.040026613 -0.091208011 -0.17798635
-0.040028263 -0.091123939 -0.17789847
-0.040027164 -0.09104456 -0.17787066
-0.040024683 -0.090970486 -0.17787492
-0.04002253 -0.09089458 -0.17787117
-0.040020376 -0.090818681 -0.1778674
-0.040017929 -0.090742648 -0.17786963
-0.040015679 -0.090666696 -0.17786786
-0.040013235 -0.090590663 -0.17787009
-0.040010322 -0.09051837 -0.1778844
-0.040007584 -0.09044221 -0.17789263
-0.040005431 -0.090366304 -0.17788886
-0.040003572 -0.090290532 -0.1778791
-0.040001653 -0.090212762 -0.17786931
-0.039999597 -0.090136901 -0.17786354
-0.03999725 -0.090060912 -0.17786378
-0.039994862 -0.089986876 -0.17786606
-0.039992649 -0.089908972 -0.17786224
-0.039990265 -0.089834943 -0.17786452
-0.039988209 -0.089759082 -0.17785877
-0.039989177 -0.089674711 -0.17778486
-0.039987806 -0.089599155 -0.17776513
-0.039985497 -0.089521207 -0.17776331
-0.039983306 -0.08944726 -0.1777616
-0.039980959 -0.089371271 -0.17776182
-0.039978806 -0.089295372 -0.17775807
-0.039977569 -0.089217901 -0.17773429
-0.039975651 -0.089140132 -0.17772448
-0.039973266 -0.089066096 -0.17772678
-0.039971013 -0.088990152 -0.177725
-0.039969388 -0.088912517 -0.17770921
-0.039968055 -0.088835001 -0.17768742
-0.039966002 -0.088759147 -0.17768167
-0.039963517 -0.088685066 -0.17768595
-0.039961364 -0.088609159 -0.17768218
-0.039958917 -0.088533126 -0.1776844
-0.039956473 -0.088457093 -0.17768663
-0.03995432 -0.088381194 -0.17768288
-0.039951932 -0.088307157 -0.17768514
-0.039949391 -0.088231079 -0.17768937
-0.039946847 -0.088155001 -0.17769361
-0.039944362 -0.088080928 -0.17769787
-0.039942309 -0.088005066 -0.17769212
-0.039940681 -0.087927431 -0.17767632
-0.039939117 -0.087851785 -0.17766058
-0.039937586 -0.087774187 -0.17764279
-0.039935239 -0.087698199 -0.17764303
-0.039932694 -0.087622121 -0.17764725
-0.039930545 -0.087546222 -0.17764349
-0.039928548 -0.087472357 -0.17763779
-0.039925907 -0.087396242 -0.177644
-0.039923754 -0.087320335 -0.17764023
-0.039921798 -0.087244518 -0.17763248
-0.03991935 -0.087168485 -0.17763472
-0.039916672 -0.087094322 -0.17764297
-0.039914224 -0.087018289 -0.17764521
-0.039911743 -0.086944208 -0.17764947
-0.039909199 -0.086868137 -0.17765372
-0.039907046 -0.086792231 -0.17764995
-0.039904796 -0.086716287 -0.17764819
-0.039902214 -0.086642161 -0.17765445
-0.039899476 -0.086566001 -0.17766267
-0.039897617 -0.086490229 -0.17765291
-0.039896086 -0.086412631 -0.17763513
-0.039894521 -0.086336993 -0.17761938
-0.039893091 -0.08625944 -0.17759959
-0.039891131 -0.086183622 -0.17759185
-0.039888453 -0.086109459 -0.17760012
-0.039885715 -0.086033292 -0.17760834
-0.039883427 -0.0859593 -0.17760861
-0.039881606 -0.085881576 -0.17759681
-0.039879024 -0.08580745 -0.17760308
-0.03987566 -0.085732982 -0.17762533
-0.039873313 -0.085656993 -0.17762557
-0.039871745 -0.085581347 -0.17760982
-0.039870121 -0.085503712 -0.17759402
-0.039867636 -0.085429631 -0.1775983
-0.039864898 -0.085353471 -0.17760652
-0.03986261 -0.08527948 -0.17760679
-0.039860457 -0.085203573 -0.17760304
-0.03985811 -0.085127585 -0.17760327
-0.039855957 -0.085051686 -0.1775995
-0.039853606 -0.084975697 -0.17759973
-0.039851222 -0.084901661 -0.17760202
-0.039849594 -0.084824018 -0.17758623
-0.039849374 -0.084745035 -0.17754042
-0.03984892 -0.084667914 -0.17750067
-0.039847255 -0.084592231 -0.17748693
-0.039844383 -0.084517978 -0.17749918
-0.039841935 -0.084441945 -0.17750141
-0.039839979 -0.084366128 -0.17749366
-0.039837338 -0.084290005 -0.17749989
-0.039834853 -0.084215932 -0.17750415
-0.0398327 -0.084140025 -0.1775004
-0.039830256 -0.084063992 -0.17750262
-0.0398282 -0.083988138 -0.17749687
-0.039826535 -0.083912447 -0.17748311
-0.039824873 -0.083836764 -0.17746937
-0.039823443 -0.083759211 -0.17744958
-0.039821677 -0.083683483 -0.17743784
-0.039819527 -0.083607584 -0.17743406
-0.039817277 -0.083531633 -0.1774323
-0.039815024 -0.083455689 -0.17743054
-0.039812639 -0.083381653 -0.17743282
-0.039810486 -0.083305754 -0.17742905
-0.039808922 -0.083230108 -0.17741331
-0.039809287 -0.083151385 -0.17735553
-0.039808966 -0.083072357 -0.17731172
-0.039806776 -0.08299841 -0.17731
-0.039805636 -0.082920983 -0.17728424
-0.039804462 -0.082845517 -0.17726049
-0.039802212 -0.082769573 -0.17725873
-0.039799239 -0.082695276 -0.17727301
-0.039796073 -0.082620896 -0.17729124
-0.039793491 -0.082546771 -0.17729753
-0.039792255 -0.082469307 -0.17727374
-0.039791115 -0.08239188 -0.17724797
-0.039789647 -0.082316287 -0.17723021
-0.039788179 -0.082240686 -0.17721248
-0.039786123 -0.082164831 -0.17720672
-0.039783679 -0.082088798 -0.17720896
-0.039781291 -0.082014762 -0.17721123
-0.039779041 -0.081938811 -0.17720947
-0.039776653 -0.081864782 -0.17721173
-0.039774504 -0.081788875 -0.17720798
-0.039774146 -0.081711799 -0.17716622
-0.039774511 -0.081633076 -0.17710844
-0.039773531 -0.081557699 -0.17708072
-0.039771572 -0.081481881 -0.17707296
-0.039770201 -0.081406325 -0.17705321
-0.039768673 -0.081328727 -0.17703544
-0.03976658 -0.081254825 -0.17703171
-0.039764132 -0.081178792 -0.17703393
-0.039762665 -0.081103191 -0.1770162
-0.039761487 -0.081027731 -0.17699248
-0.03975914 -0.080951735 -0.17699268
-0.039756559 -0.080877617 -0.17699897
-0.039755225 -0.080800109 -0.17697719
-0.039754927 -0.080725029 -0.17693548
-0.039753459 -0.080649436 -0.17691773
-0.039750721 -0.080573268 -0.17692596
-0.039748665 -0.080497414 -0.17692021
-0.039747294 -0.080421858 -0.17690046
-0.039745532 -0.080346122 -0.1768887
-0.03974295 -0.080272004 -0.17689499
-0.038469903 -0.054456625 -0.18683332
-0.038471188 -0.054386199 -0.18676175
-0.038473256 -0.054316118 -0.18667419
-0.038473897 -0.054243434 -0.18661457
-0.038473345 -0.054166272 -0.1865768
-0.0384725 -0.05408898 -0.18654503
-0.038472749 -0.054016121 -0.1864934
-0.038471807 -0.053938787 -0.18646362
-0.038470376 -0.053861234 -0.18644384
-0.038468789 -0.053781636 -0.186426
-0.038466871 -0.053703867 -0.18641619
-0.038464598 -0.053623967 -0.18641235
-0.038462073 -0.053541981 -0.18641242
-0.038459703 -0.053462036 -0.18641058
-0.038457178 -0.053380053 -0.18641067
-0.038454909 -0.05330015 -0.18640682
-0.03845254 -0.053220212 -0.18640494
-0.038450014 -0.053138226 -0.18640506
-0.038447451 -0.053058192 -0.18640718
-0.038444728 -0.05297612 -0.18641128
-0.038441874 -0.052895959 -0.1864194
-0.038438857 -0.052813757 -0.18642949
-0.038435847 -0.052731555 -0.18643954
-0.038432382 -0.052647177 -0.18645757
-0.038429465 -0.05256502 -0.18646567
-0.038426802 -0.052484944 -0.18646979
-0.038424082 -0.052402873 -0.18647388
-0.038421068 -0.05232067 -0.18648396
-0.038418248 -0.052238554 -0.18649004
-0.038415432 -0.052156441 -0.18649612
-0.038412869 -0.052076407 -0.18649825
-0.038409658 -0.051994119 -0.18651234
-0.038406096 -0.0519097 -0.18653236
-0.038402047 -0.051825061 -0.18656236
-0.038398389 -0.051740598 -0.18658438
-0.038394634 -0.051656093 -0.18660837
-0.038390584 -0.051571459 -0.18663839
-0.038388059 -0.051489469 -0.18663849
-0.038385592 -0.051409483 -0.18663862
-0.038382519 -0.051325284 -0.18664867
-0.038379699 -0.051243167 -0.18665475
-0.038376492 -0.051160879 -0.18666881
-0.038373124 -0.051076546 -0.18668485
-0.038370013 -0.050994299 -0.18669692
-0.038367294 -0.050912224 -0.186701
-0.038364924 -0.050832279 -0.18669914
-0.038362302 -0.050750256 -0.18670124
-0.038359582 -0.05066818 -0.18670532
-0.038357407 -0.050588325 -0.18669948
-0.038355626 -0.050508641 -0.18668562
-0.038352765 -0.05042848 -0.18669376
-0.038349401 -0.050344147 -0.18670978
-0.038346291 -0.0502619 -0.18672186
-0.038343277 -0.050179698 -0.18673193
-0.0383403 -0.05009554 -0.18673997
-0.038337834 -0.050015554 -0.1867401
-0.038334567 -0.049931265 -0.18675414
-0.03833165 -0.049849108 -0.18676221
-0.038329672 -0.049769334 -0.18675236
-0.038327888 -0.049689658 -0.18673852
-0.038324874 -0.049607452 -0.18674859
-0.03832157 -0.049525119 -0.18676469
-0.038319238 -0.049443219 -0.18676078
-0.038316969 -0.049363323 -0.18675691
-0.038314149 -0.049281202 -0.186763
-0.038311779 -0.049201261 -0.18676114
-0.038309898 -0.049121536 -0.18674931
-0.038307473 -0.049039591 -0.1867474
-0.038304653 -0.048957475 -0.18675348
-0.038301934 -0.048875406 -0.18675756
-0.038299367 -0.048795372 -0.18675971
-0.038296744 -0.048713345 -0.1867618
-0.038293928 -0.048631229 -0.18676788
-0.038290914 -0.048549026 -0.18677796
-0.038287643 -0.048464738 -0.18679199
-0.03828463 -0.048382536 -0.18680206
-0.038282104 -0.048300549 -0.18680216
-0.038280226 -0.048220821 -0.18679032
-0.038278796 -0.048143268 -0.18677053
-0.038276717 -0.048063457 -0.18676268
-0.038274545 -0.047983602 -0.18675682
-0.03827247 -0.047903787 -0.18674898
-0.038270235 -0.047821932 -0.18674308
-0.038266577 -0.047737472 -0.1867651
-0.038263213 -0.047653139 -0.18678111
-0.038260747 -0.047573149 -0.18678126
-0.038258221 -0.047491163 -0.18678135
-0.038255792 -0.047409225 -0.18677944
-0.038252778 -0.047327019 -0.18678953
-0.038249314 -0.047242645 -0.18680754
-0.038246401 -0.047160484 -0.18681562
-0.038244165 -0.047078632 -0.18680972
-0.038241152 -0.046996426 -0.18681981
-0.038237788 -0.046912096 -0.18683583
-0.038233679 -0.046825461 -0.18686578
-0.038231406 -0.046745561 -0.18686193
-0.038229428 -0.046665791 -0.1868521
-0.038227353 -0.046585977 -0.18684423
-0.038224924 -0.046504036 -0.18684232
-0.038221754 -0.046419792 -0.18685436
-0.038218644 -0.046337545 -0.18686643
-0.038216762 -0.046257816 -0.1868546
-0.038214881 -0.046178095 -0.18684275
-0.038212162 -0.046096019 -0.18684682
-0.038209889 -0.046016119 -0.18684298
-0.038208108 -0.045936435 -0.18682913
-0.038205639 -0.045856453 -0.18682928
-0.038202859 -0.045772381 -0.18683332
-0.038200393 -0.045692392 -0.18683347
-0.038198065 -0.045610495 -0.18682957
-0.038195889 -0.04553064 -0.1868237
-0.040068995 -0.092648678 -0.17800933
-0.040067073 -0.092570908 -0.17799953
-0.04006502 -0.092495047 -0.17799376
-0.040063061 -0.092419229 -0.177986
-0.040060617 -0.092343196 -0.17798823
-0.040057115 -0.092270643 -0.17801452
-0.040054865 -0.092194691 -0.17801276
-0.040053006 -0.092118919 -0.17800301
-0.040051378 -0.092041284 -0.17798722
-0.040049266 -0.091963425 -0.17798141
-0.040046781 -0.091889344 -0.17798568
-0.040044338 -0.091813311 -0.1779879
-0.040042378 -0.091737494 -0.17798015
-0.040040419 -0.091661684 -0.17797241
-0.0400385 -0.091583908 -0.1779626
-0.040036641 -0.091508135 -0.17795286
-0.040034 -0.09143202 -0.17795907
-0.040031124 -0.091357768 -0.17797133
-0.040028445 -0.091283605 -0.17797959
-0.040025804 -0.091207482 -0.17798582
-0.040027555 -0.091123454 -0.17789596
-0.040026259 -0.091043994 -0.17787212
-0.040023874 -0.090969957 -0.1778744
-0.040021721 -0.090894058 -0.17787065
-0.040019568 -0.090818152 -0.17786688
-0.040017217 -0.090742163 -0.17786711
-0.04001487 -0.090666175 -0.17786734
-0.040012427 -0.090590142 -0.17786957
-0.040009513 -0.090517841 -0.17788388
-0.040006772 -0.090441674 -0.1778921
-0.040004618 -0.090365775 -0.17788833
-0.04000276 -0.090290003 -0.17787859
-0.040000938 -0.090212278 -0.17786679
-0.039998785 -0.090136372 -0.17786303
-0.039996438 -0.090060383 -0.17786324
-0.03999405 -0.089986354 -0.17786554
-0.039991841 -0.089908451 -0.17786172
-0.039989453 -0.089834414 -0.17786399
-0.039987396 -0.089758553 -0.17785823
-0.039988466 -0.089674227 -0.17778234
-0.039986994 -0.089598626 -0.17776459
-0.039984781 -0.089520723 -0.17776081
-0.039982591 -0.089446783 -0.17775908
-0.039980244 -0.089370787 -0.1777593
-0.039977994 -0.089294843 -0.17775755
-0.03997666 -0.089217335 -0.17773576
-0.039974838 -0.089139603 -0.17772396
-0.039972451 -0.089065567 -0.17772624
-0.039970201 -0.08898963 -0.17772448
-0.039968573 -0.088911988 -0.17770869
-0.039967243 -0.088834479 -0.1776869
-0.039965186 -0.088758618 -0.17768115
-0.039962701 -0.088684537 -0.17768541
-0.039960548 -0.088608637 -0.17768165
-0.039958201 -0.088532649 -0.17768189
-0.039955657 -0.088456571 -0.17768611
-0.039953504 -0.088380665 -0.17768236
-0.039951116 -0.088306636 -0.17768463
-0.039948575 -0.088230558 -0.17768885
-0.039946128 -0.088154525 -0.17769107
-0.039943546 -0.088080399 -0.17769736
-0.03994149 -0.088004544 -0.17769159
-0.039939962 -0.087926947 -0.17767382
-0.039938297 -0.087851264 -0.17766006
-0.039936673 -0.087773621 -0.17764427
-0.039934423 -0.08769767 -0.17764249
-0.039931975 -0.087621644 -0.17764473
-0.039929822 -0.087545738 -0.17764097
-0.039927728 -0.087471835 -0.17763725
-0.039925087 -0.087395713 -0.17764348
-0.039922934 -0.087319814 -0.17763972
-0.039920978 -0.087243997 -0.17763196
-0.039918531 -0.087167963 -0.17763419
-0.039915852 -0.0870938 -0.17764246
-0.039913408 -0.08701776 -0.17764468
-0.039910823 -0.086943641 -0.17765096
-0.039908379 -0.086867608 -0.17765319
-0.039906226 -0.086791709 -0.17764942
-0.039903879 -0.086715713 -0.17764966
-0.039901394 -0.086641639 -0.17765392
-0.039898656 -0.086565472 -0.17766215
-0.039896794 -0.0864897 -0.17765239
-0.039895266 -0.086412102 -0.1776346
-0.039893698 -0.086336464 -0.17761886
-0.039892267 -0.086258911 -0.17759907
-0.039890312 -0.086183093 -0.17759132
-0.039887629 -0.08610893 -0.17759959
-0.039884891 -0.086032763 -0.1776078
-0.039882604 -0.085958779 -0.17760807
-0.039880782 -0.085881047 -0.17759629
-0.039878201 -0.085806929 -0.17760256
-0.039874837 -0.08573246 -0.17762481
-0.03987249 -0.085656464 -0.17762505
-0.039870922 -0.085580826 -0.17760929
-0.039869197 -0.085503139 -0.1775955
