# .PCD v0.7 - Point Cloud Data file format
VERSION 0.7
FIELDS x y z
SIZE 4 4 4
TYPE F F F
COUNT 1 1 1
WIDTH 1269
HEIGHT 1
VIEWPOINT 0 0 0 1 0 0 0
POINTS 1269
DATA ascii
0.048613101 -0.053498201 -0.080269963
0.048615538 -0.05341626 -0.080268063
0.048627965 -0.053334624 -0.080265678
0.04863438 -0.053252809 -0.080263585
0.048628777 -0.053172618 -0.080262117
0.048623107 -0.053094428 -0.080260694
0.048617549 -0.053012241 -0.080259174
0.048623919 -0.052932419 -0.080257125
0.048640393 -0.052848909 -0.08025451
0.048660852 -0.052765526 -0.080251694
0.048679262 -0.052684076 -0.080249026
0.048687689 -0.052602317 -0.080246836
0.048692107 -0.052520439 -0.080244839
0.048696548 -0.052438557 -0.080242842
0.048690937 -0.052358367 -0.080241367
0.048675284 -0.052279871 -0.080240428
0.048663676 -0.052199494 -0.080239244
0.048668042 -0.052119613 -0.080237292
0.048676476 -0.052037857 -0.080235101
0.048684895 -0.051956099 -0.080232918
0.048705362 -0.051872712 -0.080230102
0.048723824 -0.051789261 -0.080227382
0.048732251 -0.051707506 -0.080225192
0.048732623 -0.051627502 -0.080223434
0.048727021 -0.051547311 -0.080221966
0.048725396 -0.051467247 -0.080220304
0.048723839 -0.051385179 -0.080218598
0.048732199 -0.051305421 -0.080216452
0.048746675 -0.051221851 -0.080213927
0.048751101 -0.051139973 -0.08021193
0.048749484 -0.051059902 -0.080210268
0.04875192 -0.05097796 -0.080208369
0.048750296 -0.050897896 -0.080206707
0.048750684 -0.050817892 -0.080204949
0.048745066 -0.050737701 -0.080203474
0.048739456 -0.050657511 -0.080202006
0.048747882 -0.050575756 -0.080199815
0.048758306 -0.05049406 -0.080197528
0.048752688 -0.050413869 -0.08019606
0.048743077 -0.05033356 -0.080194786
0.037623107 -0.09998697 -0.081792288
0.037641279 -0.099913508 -0.081789799
0.037633546 -0.099837258 -0.081788518
0.037613951 -0.099756636 -0.08178772
0.037612215 -0.099680565 -0.081786156
0.037620395 -0.099606805 -0.081784151
0.037634626 -0.099531226 -0.081781805
0.037622906 -0.09945485 -0.081780717
0.037615232 -0.099376604 -0.081779391
0.037617482 -0.099300653 -0.081777632
0.037590161 -0.099143781 -0.081775554
0.037584484 -0.099065587 -0.08177413
0.037582748 -0.098989516 -0.081772558
0.037575074 -0.09891127 -0.081771232
0.037585258 -0.098837569 -0.081769131
0.037601426 -0.098764047 -0.081766739
0.037611604 -0.098690346 -0.081764638
0.037574105 -0.098607175 -0.081764661
0.037546523 -0.098526314 -0.081764251
0.037552767 -0.098450489 -0.081762291
0.037553027 -0.098374479 -0.08176063
0.037539363 -0.098296046 -0.081759587
0.037533626 -0.098219849 -0.081758209
0.037531942 -0.098141789 -0.081756599
0.037546121 -0.098068208 -0.081754304
0.037562288 -0.097994685 -0.081751913
0.037560552 -0.097918615 -0.081750341
0.03756474 -0.097844735 -0.08174853
0.03757298 -0.09776897 -0.081746481
0.037579171 -0.097695142 -0.081744567
0.037565567 -0.097614713 -0.081743486
0.037553899 -0.09753634 -0.081742346
0.037562095 -0.097462572 -0.081740342
0.03756234 -0.097386569 -0.081738681
0.037558608 -0.097310439 -0.081737205
0.037566848 -0.097234674 -0.081735156
0.037583016 -0.097161159 -0.081732765
0.037593201 -0.097087458 -0.081730664
0.037561633 -0.09700647 -0.08173044
0.037553951 -0.096928209 -0.081729114
0.037556209 -0.096852265 -0.081727356
0.037554465 -0.096776202 -0.081725784
0.037556715 -0.096700251 -0.081724018
0.037556976 -0.096624248 -0.081722356
0.037561223 -0.096548364 -0.081720494
0.037573397 -0.096474722 -0.081718296
0.037583582 -0.096401021 -0.081716195
0.037575908 -0.096322767 -0.081714869
0.037570179 -0.09624657 -0.08171349
0.037578419 -0.096170813 -0.081711441
0.037594587 -0.096097298 -0.08170905
0.037610762 -0.096023776 -0.081706658
0.037614949 -0.095949888 -0.081704848
0.037623189 -0.095874131 -0.081702799
0.037647352 -0.095800862 -0.081700027
0.037663519 -0.095727339 -0.081697635
0.03766378 -0.095651336 -0.081695966
0.037669964 -0.095577508 -0.081694059
0.037692122 -0.09550418 -0.081691377
0.037692383 -0.095428169 -0.081689715
0.037676722 -0.095349669 -0.081688769
0.037637219 -0.095266439 -0.081688888
0.037615582 -0.095187753 -0.08168824
0.037605904 -0.09510944 -0.081687003
0.037608154 -0.095033497 -0.081685245
0.037614405 -0.094957672 -0.081683286
0.037608668 -0.094881482 -0.081681907
0.03759101 -0.094802924 -0.081681065
0.037585281 -0.094726726 -0.081679687
0.037595518 -0.094651029 -0.081677541
0.037603699 -0.094577268 -0.081675537
0.037613943 -0.09450157 -0.081673384
0.037608206 -0.094425373 -0.081672013
0.037594549 -0.094346941 -0.08167097
0.037610725 -0.094273418 -0.081668578
0.037630878 -0.09420003 -0.081666
0.037639067 -0.094126262 -0.081663996
0.037647307 -0.094050497 -0.08166194
0.037659481 -0.093976863 -0.081659742
0.037665732 -0.093901038 -0.08165779
0.037658058 -0.093822785 -0.081656463
0.037614502 -0.093741432 -0.081656821
0.037604779 -0.093665116 -0.081655636
0.037581198 -0.093584374 -0.081655033
0.03756953 -0.093505993 -0.081653893
0.037563793 -0.093429804 -0.081652522
0.037558116 -0.093351617 -0.081651092
0.037548393 -0.093275294 -0.081649907
0.037542664 -0.093199104 -0.081648529
0.037530996 -0.093120731 -0.081647396
0.037527248 -0.093044601 -0.081645921
0.037535504 -0.092968836 -0.081643872
0.037541687 -0.092895016 -0.081641965
0.037534006 -0.092816763 -0.081640638
0.037532277 -0.092740692 -0.081639066
0.037522599 -0.092662379 -0.081637837
0.037516862 -0.09258619 -0.081636459
0.03751906 -0.092512235 -0.081634745
0.037529297 -0.092436537 -0.081632592
0.037543483 -0.092362955 -0.081630297
0.037535802 -0.092284709 -0.081628971
0.037516154 -0.092206091 -0.081628226
0.037504435 -0.092129707 -0.081627131
0.037492767 -0.092051335 -0.081625998
0.037473112 -0.091972716 -0.081625246
0.037457459 -0.091894217 -0.081624307
0.037449725 -0.09181796 -0.081623025
0.037445977 -0.09174183 -0.08162155
0.037452228 -0.091666013 -0.081619598
0.037446491 -0.091589816 -0.08161822
0.037428834 -0.091511257 -0.08161737
0.037417173 -0.091432884 -0.081616238
0.037401453 -0.091356382 -0.081615344
0.037393786 -0.091278136 -0.08161401
0.037407964 -0.091204554 -0.081611723
0.037428118 -0.091131158 -0.081609137
0.037430368 -0.091055214 -0.081607372
0.037424646 -0.090979025 -0.081606001
0.037428886 -0.090903133 -0.081604138
0.037441067 -0.090829499 -0.08160194
0.037445322 -0.090753615 -0.081600085
0.037449501 -0.090679727 -0.081598267
0.037447765 -0.090603657 -0.081596702
0.037438102 -0.090525344 -0.081595466
0.037438288 -0.09045133 -0.081593849
0.037444539 -0.090375513 -0.081591897
0.037446789 -0.090299562 -0.081590131
0.037452981 -0.090225741 -0.081588224
0.037453242 -0.09014973 -0.081586555
0.037451498 -0.09007366 -0.08158499
0.037449762 -0.089997597 -0.081583418
0.037444018 -0.0899214 -0.08158204
0.037444279 -0.089845397 -0.081580371
0.037446536 -0.089769453 -0.081578612
0.037436798 -0.089693129 -0.081577428
0.037431061 -0.089616939 -0.081576049
0.037431329 -0.089540936 -0.08157438
0.037439562 -0.089465171 -0.081572331
0.037455738 -0.089391656 -0.08156994
0.037469916 -0.089318074 -0.081567645
0.03748408 -0.0892445 -0.08156535
0.037498318 -0.089168921 -0.081563011
0.037506498 -0.08909516 -0.081561007
0.037500769 -0.089018963 -0.081559628
0.037497029 -0.088942833 -0.08155816
0.037499279 -0.088866889 -0.081556395
0.037499547 -0.088790879 -0.081554726
0.037497796 -0.088714808 -0.081553161
0.037494063 -0.088638678 -0.081551686
0.037484333 -0.088562369 -0.081550501
0.037478596 -0.088486172 -0.081549123
0.03748285 -0.088410288 -0.08154726
0.037475124 -0.088334039 -0.081545979
0.037453465 -0.088255353 -0.081545331
0.037447736 -0.088179164 -0.081543952
0.037442006 -0.088102967 -0.081542574
0.037440263 -0.088026896 -0.081541002
0.037440516 -0.087950893 -0.08153934
0.037440769 -0.087874889 -0.081537671
0.037458941 -0.087801427 -0.081535183
0.037471123 -0.087727793 -0.081532985
0.037467383 -0.087651655 -0.08153151
0.037463635 -0.087575525 -0.081530042
0.037457906 -0.087499335 -0.081528664
0.037444189 -0.0874229 -0.081527673
0.037420534 -0.087344155 -0.081527114
0.037390903 -0.087265223 -0.081526846
0.037363268 -0.087186359 -0.081526481
0.037355535 -0.087110102 -0.081525199
0.037357733 -0.087036163 -0.081523478
0.037361979 -0.086960271 -0.081521623
0.037360236 -0.086884208 -0.081520051
0.03734652 -0.086807765 -0.08151906
0.037326865 -0.086729147 -0.081518307
0.037309147 -0.086652584 -0.08151751
0.037299424 -0.086576268 -0.081516325
0.037309662 -0.08650057 -0.08151418
0.037313856 -0.086426683 -0.081512362
0.037318103 -0.086350799 -0.081510507
0.037330277 -0.086277157 -0.081508309
0.037342459 -0.086203516 -0.081506111
0.037350699 -0.086127758 -0.081504062
0.037344962 -0.086051568 -0.081502683
0.037311338 -0.085972518 -0.081502609
0.037265725 -0.085893095 -0.081503108
0.037240081 -0.08581429 -0.081502646
0.037222371 -0.085737728 -0.081501849
0.037198663 -0.085660979 -0.081501335
0.037194923 -0.085584849 -0.08149986
0.037201114 -0.085511029 -0.081497952
0.037205361 -0.085435145 -0.081496097
0.037211612 -0.08535932 -0.081494138
0.037221789 -0.085285619 -0.081492037
0.037226036 -0.085209735 -0.081490181
0.037224241 -0.085135661 -0.081488654
0.03721451 -0.085059345 -0.081487469
0.037196852 -0.084980786 -0.081486627
0.03718707 -0.084906474 -0.081485488
0.03718932 -0.084830523 -0.081483722
0.03718359 -0.084754333 -0.081482343
0.037177853 -0.084678143 -0.081480965
0.037184037 -0.084604315 -0.081479058
0.037192225 -0.084530555 -0.081477053
0.037192479 -0.084454544 -0.081475392
0.037186742 -0.084378354 -0.081474014
0.037141137 -0.084298939 -0.081474513
0.037065633 -0.084216595 -0.081476413
0.037055843 -0.084142283 -0.081475273
0.037042193 -0.084063843 -0.08147423
0.037016489 -0.083987035 -0.08147382
0.03699477 -0.083910353 -0.081473209
0.036985055 -0.083834037 -0.081472024
0.036991239 -0.083760209 -0.081470117
0.037001476 -0.083684511 -0.081467971
0.036995687 -0.083610319 -0.081466638
0.036952071 -0.083530962 -0.08146704
0.036910452 -0.083451666 -0.081467353
0.036892682 -0.083377101 -0.0814666
0.036877021 -0.083298601 -0.081465654
0.036873221 -0.083224468 -0.081464231
0.036875471 -0.083148524 -0.081462465
0.036875665 -0.083074518 -0.081460848
0.036867946 -0.082998261 -0.081459567
0.036854215 -0.082921825 -0.081458569
0.036840446 -0.082847387 -0.08145763
0.036780909 -0.082765535 -0.081458755
0.036697365 -0.082684949 -0.081461087
0.036669672 -0.082608081 -0.081460766
0.03662999 -0.082530841 -0.081461027
0.036596298 -0.082453795 -0.081460997
0.036562674 -0.082374744 -0.081460916
0.036532976 -0.082297809 -0.081460699
0.036527179 -0.082223617 -0.081459366
0.03653343 -0.082147792 -0.081457406
0.036527634 -0.082073599 -0.08145608
0.036509916 -0.081997037 -0.081455275
0.036466248 -0.081919685 -0.08145573
0.036414653 -0.081840076 -0.08145652
0.036400922 -0.08176364 -0.081455529
0.036379158 -0.081688955 -0.081454962
0.036353454 -0.081612147 -0.081454553
0.036333747 -0.081535526 -0.081453845
0.036308043 -0.081458718 -0.081453435
0.036284335 -0.081381977 -0.081452921
0.036272556 -0.081307597 -0.081451878
0.036264822 -0.081231341 -0.081450596
0.036253035 -0.081156962 -0.081449553
0.036237262 -0.081082463 -0.081448704
0.036209568 -0.081005596 -0.081448384
0.036171891 -0.080928423 -0.081448548
0.036154166 -0.08085186 -0.08144775
0.03615237 -0.080777787 -0.081446223
0.036156558 -0.080703899 -0.081444412
0.036156818 -0.080627896 -0.081442744
0.036153011 -0.080553763 -0.08144132
0.03615322 -0.080479756 -0.081439696
0.036167383 -0.080406174 -0.081437409
0.03619355 -0.080332965 -0.081434533
0.036227688 -0.080260001 -0.081431277
0.036251836 -0.080186732 -0.081428505
0.036275998 -0.080113456 -0.081425726
0.036318064 -0.080042735 -0.081422135
0.036360204 -0.079970017 -0.081418492
0.036420234 -0.079899855 -0.081414029
0.036530197 -0.07983122 -0.081407167
0.036596283 -0.07975924 -0.081402369
0.05043678 -0.079743177 -0.080725595
0.050467171 -0.079662099 -0.080722339
0.05051747 -0.07958363 -0.080718175
0.050559774 -0.079504915 -0.080714397
0.05127053 -0.059720755 -0.080249205
0.050846353 -0.059669692 -0.08026883
0.050818712 -0.059590824 -0.080268465
0.050717011 -0.059515677 -0.080271803
0.05054713 -0.059448436 -0.080278642
0.050507508 -0.059369199 -0.080278851
0.050493918 -0.059288763 -0.080277763
0.049917385 -0.059253015 -0.080305167
0.049449101 -0.059206594 -0.080327041
0.048620284 -0.059187084 -0.080367126
0.048584647 -0.059107974 -0.080367148
0.048538983 -0.059030551 -0.080367692
0.048485272 -0.058954883 -0.080368668
0.048429556 -0.058879152 -0.080369748
0.048383884 -0.058801733 -0.080370292
0.04834421 -0.058724493 -0.080370553
0.048312515 -0.058647506 -0.080370426
0.04828687 -0.058568697 -0.080369964
0.04828126 -0.058488511 -0.080368496
0.048281632 -0.058408502 -0.080366738
0.048284061 -0.058326561 -0.080364831
0.048286438 -0.05824662 -0.080362976
0.048286811 -0.058166616 -0.080361217
0.04829523 -0.058084857 -0.080359027
0.048313633 -0.058003407 -0.080356359
0.048318006 -0.057923526 -0.080354407
0.048320435 -0.057841584 -0.0803525
0.048328795 -0.057761826 -0.080350362
0.048345201 -0.057680313 -0.080347784
0.048357613 -0.057598677 -0.0803454
0.048355997 -0.057518609 -0.080343738
0.048366413 -0.057436913 -0.080341451
0.048382819 -0.057355404 -0.08033888
0.048383191 -0.0572754 -0.080337115
0.048393615 -0.057193704 -0.080334835
0.048410021 -0.057112191 -0.080332257
0.04842443 -0.057030618 -0.080329776
0.048438899 -0.056947045 -0.08032725
0.04845731 -0.056865595 -0.080324583
0.048475713 -0.056784146 -0.080321908
0.048482127 -0.056702323 -0.080319814
0.048498541 -0.056620814 -0.080317236
0.048530981 -0.0565378 -0.080313846
0.048549451 -0.056454349 -0.080311127
0.048553817 -0.056374468 -0.080309175
0.048552193 -0.056294397 -0.080307513
0.048562609 -0.056212705 -0.080305226
0.048591055 -0.056129564 -0.08030203
0.048603475 -0.056047928 -0.080299646
0.048605844 -0.055967987 -0.08029779
0.048608273 -0.055886041 -0.080295891
0.048614703 -0.055804223 -0.080293797
0.048625112 -0.055722527 -0.08029151
0.048645519 -0.055641137 -0.080288738
0.048643887 -0.055561073 -0.080287077
0.048640341 -0.055478945 -0.080285467
0.048650697 -0.055399247 -0.080283225
0.048671156 -0.05531586 -0.080280408
0.048677579 -0.055234045 -0.080278315
0.048685938 -0.055154286 -0.080276169
0.048698418 -0.05507065 -0.08027374
0.04870677 -0.054990891 -0.080271602
0.048723236 -0.054907382 -0.080268979
0.048757672 -0.054824427 -0.080265492
0.048784129 -0.054741222 -0.080262385
0.048784561 -0.054659218 -0.080260582
0.048776895 -0.054580964 -0.080259256
0.048761293 -0.054500468 -0.080258265
0.048743643 -0.054421909 -0.080257416
0.048744008 -0.054341905 -0.080255657
0.048772521 -0.054256767 -0.080252409
0.048798963 -0.054173563 -0.08024931
0.048799343 -0.054093555 -0.080247551
0.048799716 -0.054013554 -0.080245793
0.048804149 -0.053931672 -0.080243796
0.048816562 -0.05385004 -0.080241412
0.048828974 -0.053768404 -0.080239028
0.048825361 -0.053688277 -0.080237463
0.048829779 -0.053606395 -0.080235466
0.048838206 -0.053524636 -0.080233276
0.048846625 -0.053442881 -0.080231085
0.048865028 -0.053361431 -0.080228411
0.04888954 -0.053276166 -0.080225356
0.048885867 -0.05319804 -0.080223836
0.048864216 -0.053119354 -0.080223188
0.048858605 -0.053039167 -0.080221713
0.048867017 -0.052957408 -0.080219522
0.048881494 -0.052873835 -0.080216996
0.0488979 -0.052792326 -0.080214426
0.048908323 -0.05271063 -0.080212139
0.048912749 -0.052628748 -0.080210134
0.048917167 -0.052546866 -0.080208138
0.048919536 -0.052466925 -0.080206282
0.048913933 -0.052386738 -0.080204815
0.048916362 -0.052304797 -0.080202915
0.048918732 -0.052224852 -0.08020106
0.04892116 -0.052142911 -0.08019916
0.048933573 -0.052061275 -0.080196775
0.048948042 -0.051977701 -0.08019425
0.048956409 -0.051897943 -0.080192104
0.048968881 -0.05181431 -0.080189675
0.048969246 -0.051734302 -0.080187917
0.048957646 -0.051653933 -0.080186732
0.048964068 -0.051572111 -0.080184639
0.048978485 -0.051490538 -0.080182165
0.048964873 -0.051410105 -0.080181077
0.048947163 -0.051333547 -0.080180272
0.048949592 -0.051251605 -0.080178373
0.048956022 -0.051169783 -0.080176279
0.048958391 -0.051089838 -0.080174424
0.048972867 -0.051006265 -0.080171898
0.048997313 -0.050923001 -0.080168895
0.048991702 -0.050842814 -0.08016742
0.048970044 -0.050764132 -0.080166772
0.048964441 -0.050683945 -0.080165297
0.048978843 -0.050602369 -0.080162816
0.048989259 -0.050520673 -0.080160528
0.048985705 -0.050438546 -0.080158919
0.048988082 -0.050358605 -0.080157064
0.037752956 -0.099977471 -0.081780046
0.037763134 -0.09990377 -0.081777945
0.037777305 -0.099830188 -0.08177565
0.037787482 -0.099756487 -0.081773549
0.037785798 -0.09967842 -0.081771933
0.037787989 -0.099604473 -0.081770211
0.037792236 -0.099528581 -0.081768356
0.037796475 -0.099452704 -0.081766494
0.037790738 -0.099376515 -0.081765115
0.037785068 -0.099298321 -0.081763692
0.037765466 -0.099217698 -0.081762895
0.037751801 -0.099139266 -0.081761859
0.037748061 -0.099063136 -0.081760384
0.037764221 -0.098989621 -0.081757993
0.037790313 -0.098918408 -0.081755169
0.037792563 -0.098842457 -0.081753403
0.037794814 -0.098766513 -0.081751645
0.037795067 -0.098690502 -0.081749976
0.037775412 -0.098611884 -0.081749223
0.037735909 -0.098528653 -0.081749342
0.037714317 -0.098447971 -0.081748642
0.037708633 -0.098369777 -0.081747219
0.037722751 -0.098298199 -0.081744969
0.037742905 -0.098224804 -0.081742391
0.037743159 -0.0981488 -0.081740722
0.037745409 -0.098072857 -0.081738956
0.037741676 -0.097996727 -0.081737489
0.037739925 -0.097920656 -0.081735916
0.037742175 -0.097844705 -0.081734151
0.037732497 -0.097766392 -0.081732921
0.037724823 -0.097688138 -0.081731595
0.037727073 -0.097612195 -0.081729829
0.03772334 -0.097536065 -0.081728354
0.037719592 -0.097459935 -0.081726879
0.03772983 -0.097384237 -0.081724733
0.037744008 -0.097310655 -0.081722438
0.037750192 -0.097236827 -0.081720531
0.037752442 -0.097160883 -0.081718765
0.037740767 -0.097082511 -0.081717633
0.037729099 -0.097004138 -0.081716493
0.037733279 -0.096930251 -0.081714682
0.037737526 -0.096854366 -0.081712827
0.03774377 -0.096778542 -0.081710868
0.037749954 -0.096704714 -0.08170896
0.037742279 -0.096626461 -0.081707634
0.037734553 -0.096550211 -0.081706353
0.037738845 -0.096472323 -0.081704445
0.037745029 -0.096398503 -0.08170253
0.03774529 -0.096322492 -0.081700869
0.03775546 -0.096248791 -0.081698768
0.037773624 -0.096175335 -0.081696279
0.037789792 -0.09610182 -0.081693888
0.037800036 -0.096026115 -0.081691742
0.03780622 -0.095952295 -0.081689827
0.037806466 -0.095876284 -0.081688166
0.037808716 -0.09580034 -0.0816864
0.037816949 -0.095724575 -0.081684351
0.037829131 -0.095650941 -0.081682146
0.037847288 -0.095577478 -0.081679665
0.037837557 -0.095501162 -0.08167848
0.037792064 -0.095417753 -0.08167889
0.037782393 -0.095339432 -0.081677653
0.037780657 -0.095263369 -0.081676088
0.037772968 -0.095185116 -0.081674755
0.037763245 -0.095108807 -0.08167357
0.037763491 -0.095032796 -0.081671908
0.037777722 -0.094957218 -0.081669562
0.037779912 -0.094883271 -0.081667848
0.037768245 -0.094804898 -0.081666715
0.037764572 -0.094726764 -0.081665188
0.037772745 -0.094653003 -0.081663184
0.037782989 -0.094577298 -0.081661038
0.037785172 -0.094503358 -0.081659324
0.037791416 -0.094427526 -0.081657365
0.03780359 -0.094353884 -0.081655167
0.03781382 -0.094278187 -0.081653021
0.037820004 -0.094204366 -0.081651106
0.037830241 -0.094128661 -0.081648961
0.037836425 -0.094054833 -0.081647053
0.037830748 -0.093976647 -0.08164563
0.037817091 -0.093898207 -0.081644587
0.037777521 -0.093816981 -0.081644759
0.037767783 -0.093740664 -0.081643574
0.037770033 -0.093664721 -0.081641808
0.037752382 -0.093586162 -0.081640959
0.037732728 -0.093507543 -0.081640214
0.037727043 -0.093429349 -0.081638791
0.037721299 -0.09335316 -0.081637412
0.037721559 -0.093277149 -0.081635743
0.037725799 -0.093201265 -0.081633881
0.037714072 -0.093124889 -0.081632793
0.03769847 -0.093044393 -0.081631809
0.037698671 -0.092970386 -0.081630185
0.037706904 -0.092894621 -0.081628136
0.037713148 -0.092818797 -0.081626177
0.037719339 -0.092744976 -0.081624269
0.037715591 -0.092668846 -0.081622794
0.03770791 -0.092590593 -0.081621468
0.037714094 -0.092516765 -0.081619561
0.037728332 -0.092441186 -0.081617214
0.037730522 -0.092367239 -0.0816155
0.037712865 -0.09228868 -0.081614651
0.037685283 -0.092207819 -0.081614241
0.037673548 -0.092131443 -0.081613153
0.03766188 -0.092053071 -0.081612021
0.037650153 -0.091976687 -0.081610933
0.037652403 -0.091900744 -0.081609167
0.037652649 -0.09182474 -0.081607498
0.037648909 -0.09174861 -0.08160603
0.037647225 -0.091670543 -0.081604406
0.037623577 -0.091591798 -0.081603855
0.037613846 -0.091515481 -0.08160267
0.037612103 -0.091439411 -0.081601098
0.037606359 -0.091363221 -0.08159972
0.037608609 -0.091287278 -0.081597954
0.037606873 -0.091211207 -0.081596389
0.037607126 -0.091135204 -0.08159472
0.037609376 -0.091059253 -0.081592955
0.037619554 -0.090985551 -0.081590854
0.037635721 -0.090912029 -0.081588462
0.037643947 -0.090836272 -0.081586413
0.037650198 -0.090760447 -0.081584454
0.037652388 -0.0906865 -0.08158274
0.037644655 -0.090610251 -0.081581458
0.037630983 -0.090531811 -0.081580415
0.037623249 -0.090455562 -0.081579134
0.037625499 -0.090379611 -0.081577376
0.037615776 -0.090303302 -0.081576191
0.037600107 -0.090224802 -0.081575245
0.037586443 -0.090146363 -0.081574209
0.037612528 -0.09007515 -0.081571385
0.037646666 -0.090002187 -0.081568122
0.037646867 -0.08992818 -0.081566505
0.03763514 -0.089851797 -0.081565417
0.037625462 -0.089773491 -0.081564181
0.037627712 -0.08969754 -0.081562422
0.037631966 -0.089621656 -0.08156056
0.037630163 -0.089547589 -0.08155904
0.037638396 -0.089471824 -0.081556983
0.03766454 -0.089398615 -0.081554115
0.037676722 -0.089324974 -0.081551917
0.037678972 -0.08924903 -0.081550151
0.037687153 -0.089175262 -0.081548147
0.037693396 -0.089099437 -0.081546187
0.037695587 -0.08902549 -0.081544474
0.037687853 -0.088949233 -0.081543192
0.037666254 -0.088868558 -0.081542492
0.037654519 -0.088792183 -0.081541404
0.037658714 -0.088718295 -0.081539594
0.037664957 -0.088642471 -0.081537634
0.037679121 -0.088568896 -0.081535339
0.037687369 -0.088493131 -0.08153329
0.037681632 -0.088416941 -0.081531912
0.037669905 -0.088340566 -0.081530824
0.037664168 -0.088264376 -0.081529446
0.037660427 -0.088188246 -0.081527971
0.037654743 -0.088110052 -0.081526548
0.037641011 -0.088033617 -0.081525557
0.037619308 -0.087956935 -0.081524946
0.03760764 -0.087878555 -0.081523813
0.037623808 -0.08780504 -0.081521422
0.037639976 -0.087731518 -0.08151903
0.037640229 -0.087655514 -0.081517361
0.037634492 -0.087579325 -0.081515983
0.037618771 -0.087502822 -0.081515089
0.037601106 -0.087424263 -0.081514239
0.037581392 -0.087347642 -0.081513539
0.037557743 -0.087268904 -0.08151298
0.037554003 -0.087192774 -0.081511505
0.037562184 -0.087119006 -0.081509501
0.037540533 -0.087040327 -0.081508845
0.037514888 -0.086961523 -0.081508391
0.037513085 -0.086887449 -0.081506863
0.037529245 -0.086813934 -0.081504472
0.037533492 -0.08673805 -0.081502616
0.037517771 -0.086661547 -0.081501715
0.037504107 -0.086583115 -0.081500679
0.037514284 -0.086509414 -0.081498578
0.037520468 -0.086435586 -0.081496671
0.037522718 -0.086359642 -0.081494905
0.037528902 -0.086285815 -0.081492998
0.037527218 -0.086207747 -0.081491381
0.037527405 -0.086133741 -0.081489757
0.037537582 -0.086060032 -0.081487656
0.037535839 -0.085983969 -0.081486084
0.037504204 -0.085904978 -0.081485912
0.037478559 -0.085826173 -0.08148545
0.037442937 -0.085747063 -0.081485473
0.03738334 -0.085667215 -0.08148665
0.03736762 -0.08559072 -0.081485756
0.037381843 -0.085515141 -0.081483409
0.037396014 -0.08544156 -0.081481121
0.037390284 -0.08536537 -0.081479743
0.037360586 -0.085288443 -0.08147952
0.037346855 -0.085212007 -0.081478529
0.037353098 -0.085136183 -0.081476569
0.037355348 -0.085060231 -0.081474811
0.037357539 -0.084986284 -0.08147309
0.037355796 -0.084910214 -0.081471518
0.037342072 -0.084833778 -0.081470527
0.037344262 -0.084759831 -0.081468813
0.037354492 -0.084684134 -0.08146666
0.03736268 -0.084610365 -0.081464656
0.037366919 -0.084534481 -0.081462801
0.03736712 -0.084460475 -0.081461176
0.037311517 -0.084380746 -0.08146216
0.037251994 -0.084298901 -0.081463292
0.037250191 -0.084224835 -0.081461765
0.037238456 -0.084148459 -0.081460677
0.037210807 -0.084069595 -0.081460312
0.037185103 -0.083992787 -0.081459902
0.037169382 -0.083916292 -0.081459001
0.037153661 -0.083839789 -0.081458107
0.037145875 -0.083765537 -0.08145687
0.037146129 -0.083689526 -0.081455208
0.037134402 -0.08361315 -0.081454121
0.037116669 -0.083536595 -0.081453316
0.037084982 -0.083459601 -0.081453189
0.037055284 -0.083382674 -0.081452973
0.037037618 -0.083304115 -0.081452124
0.037027836 -0.083229795 -0.081450984
0.037024096 -0.083153665 -0.081449509
0.037014365 -0.083077356 -0.081448324
0.037010565 -0.083003223 -0.081446901
0.037014812 -0.082927339 -0.081445038
0.037005015 -0.082853019 -0.081443898
0.036901556 -0.082769826 -0.081447154
0.03685195 -0.082690284 -0.081447847
0.036846153 -0.082616091 -0.081446514
0.036820509 -0.082537286 -0.081446052
0.036778837 -0.082459994 -0.081446409
0.036735162 -0.082382634 -0.081446864
0.036695525 -0.082303397 -0.081447072
0.036665834 -0.08222647 -0.081446856
0.036662027 -0.082152337 -0.081445426
0.036660284 -0.082076274 -0.081443854
0.036628589 -0.08199928 -0.081443727
0.036590904 -0.081922106 -0.081443891
0.036567204 -0.081845365 -0.081443384
0.036553413 -0.081770927 -0.081442438
0.036537692 -0.081694424 -0.081441544
0.036523975 -0.081617989 -0.081440546
0.036512181 -0.081543609 -0.08143951
0.036506385 -0.081469417 -0.081438176
0.036498651 -0.081393167 -0.081436895
0.036490858 -0.081318915 -0.081435658
0.036483116 -0.081242658 -0.081434377
0.036443435 -0.081165425 -0.081434637
0.036387786 -0.081087694 -0.081435665
0.036364079 -0.081010953 -0.081435159
0.036346301 -0.080936395 -0.081434406
0.036328584 -0.080859832 -0.081433602
0.036318794 -0.080785513 -0.081432462
0.036307059 -0.080709144 -0.081431374
0.03630925 -0.08063519 -0.08142966
0.036321424 -0.080561548 -0.081427462
0.036337592 -0.080488034 -0.081425071
0.036357753 -0.080414638 -0.081422485
0.036379911 -0.080341302 -0.081419803
0.036402062 -0.080267973 -0.081417128
0.036434151 -0.080196939 -0.081414014
0.036470279 -0.080124035 -0.081410654
0.036500424 -0.080050953 -0.081407592
0.036560461 -0.079980783 -0.081403129
0.036678404 -0.079912387 -0.081395872
0.036754414 -0.079842709 -0.081390634
0.036820501 -0.079770729 -0.081385836
0.042736962 -0.079880558 -0.08109884
0.050428249 -0.07998693 -0.080724962
0.050430678 -0.079904988 -0.080723062
0.050467044 -0.07982409 -0.080719523
0.050517336 -0.07974562 -0.080715351
0.050609551 -0.079668432 -0.080709159
0.050687797 -0.079590827 -0.080703646
0.050720118 -0.079511799 -0.080700345
0.051725626 -0.059798714 -0.080222093
0.05171407 -0.059716344 -0.080220863
0.051486172 -0.059651323 -0.080230594
0.051564708 -0.059563719 -0.080224849
0.04878737 -0.059204303 -0.080352873
0.048767768 -0.05912368 -0.080352075
0.048724093 -0.059046324 -0.08035253
0.048654348 -0.058972169 -0.080354325
0.048606679 -0.058894686 -0.080354966
0.048532926 -0.058820408 -0.080356963
0.048479214 -0.05874474 -0.080357939
0.048447579 -0.058665752 -0.080357768
0.048439898 -0.058587499 -0.080356441
0.048454307 -0.058505926 -0.08035396
0.048462719 -0.058424167 -0.08035177
0.048455112 -0.058343917 -0.080350399
0.048451431 -0.05826579 -0.080348872
0.048453853 -0.058183849 -0.080346972
0.048462212 -0.05810409 -0.080344826
0.048474617 -0.058022451 -0.080342442
0.048485041 -0.057940755 -0.080340154
0.048481412 -0.057860628 -0.08033859
0.048489831 -0.057778873 -0.080336399
0.048506238 -0.057697359 -0.080333821
0.0485126 -0.057617538 -0.080331773
0.048527002 -0.057535961 -0.080329292
0.048547402 -0.057454571 -0.080326527
0.048559815 -0.057372943 -0.080324143
0.048564233 -0.057291061 -0.080322139
0.048576578 -0.057211421 -0.080319807
0.048597038 -0.057128035 -0.080316991
0.048615448 -0.057046581 -0.080314316
0.048619859 -0.056964703 -0.080312319
0.048626229 -0.056884881 -0.08031027
0.048646629 -0.056803491 -0.080307499
0.048663095 -0.056719981 -0.080304876
0.048675492 -0.056638345 -0.080302492
0.048683912 -0.056556586 -0.080300301
0.048706315 -0.056475259 -0.080297433
0.048734747 -0.056392118 -0.080294237
0.048745163 -0.056310419 -0.080291949
0.048753589 -0.05622866 -0.080289759
0.048759997 -0.056146841 -0.080287658
0.048768364 -0.056067083 -0.080285519
0.048778772 -0.055985387 -0.080283232
0.048787199 -0.055903628 -0.080281034
0.048793614 -0.05582181 -0.08027894
0.048787989 -0.055741619 -0.080277473
0.048790358 -0.055661678 -0.080275618
0.048806764 -0.055580165 -0.08027304
0.048819169 -0.055498529 -0.080270655
0.048823602 -0.055416647 -0.080268659
0.048832014 -0.055334888 -0.080266468
0.048844427 -0.055253256 -0.080264084
0.048852779 -0.055173498 -0.080261938
0.048861265 -0.055089742 -0.080259696
0.048875667 -0.055008166 -0.080257222
0.048896059 -0.054926775 -0.08025445
0.04893256 -0.054841883 -0.080250815
0.048940971 -0.054760121 -0.080248624
0.048931353 -0.054679811 -0.08024735
0.048935726 -0.05459993 -0.080245398
0.048944138 -0.054518171 -0.080243208
0.048948504 -0.054438289 -0.080241255
0.048948929 -0.054356284 -0.080239445
0.048953295 -0.054276407 -0.080237493
0.048963711 -0.054194707 -0.080235206
0.048970133 -0.054112889 -0.080233112
0.048964508 -0.054032698 -0.080231644
0.048958898 -0.053952511 -0.080230169
0.048965313 -0.053870693 -0.080228075
0.048985712 -0.053789303 -0.080225304
0.048996121 -0.053707603 -0.080223016
0.049002543 -0.053625785 -0.080220923
0.049012959 -0.053544089 -0.080218635
0.049021371 -0.053462334 -0.080216445
0.049025737 -0.053382449 -0.080214493
0.049026169 -0.053300448 -0.08021269
0.049030595 -0.053218566 -0.080210693
0.049034953 -0.053138684 -0.080208734
0.04903134 -0.053058557 -0.080207169
0.049025714 -0.052978367 -0.080205701
0.04903014 -0.052896485 -0.080203705
0.049038559 -0.05281473 -0.080201507
0.049046971 -0.052732971 -0.080199316
0.049063377 -0.052651457 -0.080196746
0.049075842 -0.052567825 -0.080194309
0.049090251 -0.052486248 -0.080191836
0.049090624 -0.052406244 -0.08019007
0.049077019 -0.052325811 -0.08018899
0.049069405 -0.052245561 -0.080187611
0.049091794 -0.052164234 -0.08018475
0.049106263 -0.052080661 -0.080182225
0.049100645 -0.05200047 -0.080180749
0.04911305 -0.051918838 -0.080178365
0.049123466 -0.051837139 -0.080176078
0.049121842 -0.051757075 -0.080174416
0.049128264 -0.051675253 -0.080172323
0.049128689 -0.051593252 -0.080170512
0.049121015 -0.051514998 -0.080169186
0.049127437 -0.05143318 -0.080167092
0.049141899 -0.051349606 -0.080164567
0.049146324 -0.051267728 -0.08016257
0.049136654 -0.051189415 -0.080161333
0.049131036 -0.051109225 -0.080159865
0.049135461 -0.051027343 -0.080157869
0.049141817 -0.050947525 -0.08015582
0.049144246 -0.050865583 -0.080153912
0.049142621 -0.050785515 -0.080152251
0.049149036 -0.050703697 -0.080150157
0.049153462 -0.050621815 -0.08014816
0.049151838 -0.050541751 -0.080146499
0.049156263 -0.050459869 -0.080144495
0.049170665 -0.050378293 -0.080142021
0.038019925 -0.099988997 -0.081779912
0.038026176 -0.099913172 -0.08177796
0.038030416 -0.099837288 -0.081776097
0.038038597 -0.099763528 -0.081774093
0.038050778 -0.099689886 -0.081771895
0.038059011 -0.099614121 -0.081769839
0.038041353 -0.099535562 -0.081768997
0.038015768 -0.099454761 -0.08176849
0.038004093 -0.099376388 -0.081767358
0.037998416 -0.099298194 -0.081765927
0.038010582 -0.099224553 -0.081763729
0.038020767 -0.099150851 -0.081761628
0.038019024 -0.099074781 -0.081760056
0.038027257 -0.098999023 -0.081758007
0.038033441 -0.098925196 -0.081756093
0.038027763 -0.098847009 -0.08175467
0.038026012 -0.098770939 -0.081753105
0.038026266 -0.098694928 -0.081751436
0.038006611 -0.098616309 -0.081750683
0.037985027 -0.098535627 -0.081749983
0.037973352 -0.098457254 -0.081748851
0.037955746 -0.098376699 -0.081747957
0.037942082 -0.098298267 -0.081746921
0.037948273 -0.098224439 -0.081745006
0.037948519 -0.098148435 -0.081743345
0.037940837 -0.098070174 -0.081742011
0.037945092 -0.097994298 -0.081740156
0.037951276 -0.09792047 -0.081738241
0.037951522 -0.097844459 -0.08173658
0.037959762 -0.097768702 -0.081734523
0.037961945 -0.097694755 -0.08173281
0.037952282 -0.097616442 -0.081731573
0.037956521 -0.097540557 -0.081729718
0.037962705 -0.09746673 -0.08172781
0.037965015 -0.097388782 -0.081726
0.037981123 -0.097317263 -0.081723653
0.038009271 -0.097244114 -0.08172068
0.038025379 -0.097172596 -0.081718341
0.037999794 -0.097091794 -0.081717834
0.03796228 -0.097008623 -0.081717856
0.037948623 -0.096930191 -0.081716813
0.037956797 -0.096856423 -0.081714809
0.037970968 -0.096782841 -0.081712514
0.037981197 -0.096707143 -0.081710368
0.037975468 -0.096630953 -0.08170899
0.037973724 -0.096554883 -0.081707418
0.037991881 -0.096481428 -0.081704929
0.038010046 -0.096407965 -0.081702441
0.038018227 -0.096334204 -0.081700437
0.038016535 -0.096256137 -0.08169882
0.038014792 -0.096180066 -0.081697248
0.038024977 -0.096106365 -0.081695147
0.03803122 -0.096030548 -0.081693187
0.038031459 -0.095954537 -0.081691526
0.03803172 -0.095878527 -0.081689857
0.038037904 -0.095804706 -0.08168795
0.038056061 -0.095731243 -0.081685461
0.038070239 -0.095657669 -0.081683166
0.038064554 -0.095579475 -0.081681736
0.038046896 -0.095500916 -0.081680894
0.038033225 -0.095422477 -0.081679851
0.038019568 -0.095344044 -0.081678815
0.038003907 -0.095265552 -0.081677876
0.038000159 -0.095189422 -0.081676401
0.038010389 -0.095113717 -0.081674248
0.038018577 -0.095039949 -0.081672244
0.038018823 -0.094963945 -0.081670575
0.038011156 -0.094885692 -0.081669249
0.03801734 -0.094811872 -0.081667341
0.03803549 -0.094738409 -0.081664853
0.038039744 -0.094662532 -0.08166299
0.038030066 -0.094584212 -0.081661761
0.038020343 -0.094507903 -0.081660576
0.038018599 -0.094431832 -0.081659004
0.038030833 -0.094356194 -0.081656761
0.03803701 -0.094282366 -0.081654847
0.03803926 -0.094206423 -0.081653088
0.038049497 -0.094130725 -0.081650935
0.038051687 -0.09405677 -0.081649221
0.03804601 -0.093978584 -0.081647798
0.038048252 -0.093902633 -0.081646033
0.038026601 -0.093823954 -0.081645377
0.037977107 -0.093740419 -0.08164598
0.037967384 -0.093664102 -0.081644796
0.037967682 -0.093586102 -0.081643082
0.037959956 -0.093509845 -0.081641801
0.037966199 -0.093434021 -0.081639849
0.037982307 -0.093362503 -0.081637502
0.037988551 -0.093286678 -0.081635542
0.037980877 -0.093208425 -0.081634216
0.037967145 -0.093131989 -0.081633225
0.037967399 -0.093055978 -0.081631556
0.037967645 -0.092979975 -0.081629887
0.037963912 -0.092903845 -0.081628419
0.037962228 -0.092825778 -0.081626803
0.037968412 -0.09275195 -0.081624888
0.037972644 -0.092676066 -0.081623033
0.03796491 -0.092599809 -0.081621751
0.037951253 -0.092521377 -0.081620708
0.037959494 -0.092445612 -0.081618659
0.037967667 -0.092371851 -0.081616655
0.037963927 -0.092295721 -0.08161518
0.037938341 -0.09221492 -0.081614673
0.037910692 -0.092136055 -0.081614308
0.037904963 -0.092059858 -0.08161293
0.037907206 -0.091983914 -0.081611164
0.037905462 -0.091907844 -0.081609592
0.037899725 -0.091831654 -0.081608213
0.037878074 -0.091752976 -0.081607565
0.037858419 -0.091674358 -0.081606813
0.037862651 -0.091598466 -0.081604958
0.037870899 -0.091522709 -0.081602901
0.037869155 -0.091446638 -0.081601329
0.037865415 -0.091370508 -0.081599854
0.037869662 -0.091294624 -0.081597999
0.037873842 -0.091220737 -0.081596181
0.037874095 -0.091144726 -0.081594519
0.037876345 -0.091068782 -0.081592754
0.037884526 -0.090995021 -0.081590749
0.03789676 -0.090919375 -0.081588499
0.037906937 -0.090845674 -0.081586398
0.0379012 -0.090769485 -0.08158502
0.03786163 -0.090688251 -0.081585191
0.037814081 -0.090606779 -0.081585743
0.037812337 -0.090530708 -0.08158417
0.037816584 -0.090454824 -0.081582315
0.037804909 -0.090376452 -0.081581175
0.037805103 -0.090302438 -0.081579559
0.037821271 -0.090228923 -0.081577167
0.037833504 -0.090153277 -0.081574917
0.037837692 -0.090079397 -0.081573106
0.037837945 -0.090003386 -0.081571437
0.037838191 -0.089927375 -0.081569776
0.037844375 -0.089853555 -0.081567861
0.037860602 -0.089778036 -0.081565425
0.037880704 -0.089706644 -0.081562884
0.037886947 -0.08963082 -0.081560932
0.037891187 -0.089554936 -0.081559069
0.037899375 -0.089481167 -0.081557065
0.037903614 -0.089405283 -0.081555203
0.037903868 -0.089329273 -0.081553541
0.037908114 -0.089253388 -0.081551678
0.037916295 -0.089179628 -0.081549674
0.037914552 -0.089103557 -0.081548102
0.037884913 -0.089024633 -0.081547834
0.037865251 -0.088946015 -0.081547081
0.037863508 -0.088869944 -0.081545517
0.037887603 -0.088798672 -0.081542782
0.037905768 -0.088725209 -0.081540294
0.03790009 -0.088647023 -0.081538871
0.037898339 -0.088570952 -0.081537299
0.037908517 -0.088497251 -0.081535198
0.03789679 -0.088420875 -0.08153411
0.037881128 -0.088342376 -0.081533164
0.037873395 -0.088266127 -0.081531882
0.037873648 -0.088190116 -0.081530221
0.037879884 -0.088114291 -0.081528261
0.037890062 -0.08804059 -0.08152616
0.037896246 -0.08796677 -0.081524253
0.037892565 -0.087888636 -0.081522733
0.037894756 -0.087814689 -0.081521012
0.037908986 -0.08773911 -0.081518672
0.037921153 -0.087665468 -0.081516474
0.037911423 -0.08758916 -0.08151529
0.03786581 -0.087509736 -0.081515789
0.037848152 -0.087431177 -0.081514947
0.037848406 -0.087355174 -0.081513278
0.037848599 -0.087281168 -0.081511654
0.037836865 -0.087204784 -0.081510566
0.037825197 -0.087126411 -0.081509434
0.037823401 -0.087052345 -0.081507906
0.037817717 -0.086974151 -0.081506483
0.037790015 -0.086897284 -0.081506163
0.037778281 -0.086820908 -0.081505075
0.037778534 -0.086744905 -0.081503414
0.037774801 -0.086668774 -0.081501938
0.037769057 -0.086592585 -0.08150056
0.037759326 -0.086516269 -0.081499375
0.037749596 -0.086439952 -0.081498191
0.037755832 -0.086364128 -0.081496231
0.037770003 -0.086290553 -0.081493936
0.037780181 -0.086216845 -0.081491835
0.037772454 -0.086140595 -0.081490554
0.037756734 -0.086064093 -0.08148966
0.037747048 -0.08598578 -0.081488423
0.037695445 -0.085906178 -0.08148922
0.037647836 -0.085826702 -0.081489816
0.037640102 -0.085750446 -0.081488535
0.037634365 -0.085674256 -0.081487156
0.037618645 -0.085597761 -0.081486262
0.037596986 -0.085519075 -0.081485607
0.037595242 -0.085443005 -0.081484035
0.037589453 -0.085368812 -0.081482708
0.037589699 -0.085292809 -0.08148104
0.037605859 -0.085219286 -0.081478648
0.037614048 -0.085145526 -0.081476644
0.037616298 -0.085069582 -0.081474878
0.03761255 -0.084993452 -0.081473403
0.037598833 -0.084917009 -0.081472412
0.037593089 -0.084840819 -0.081471033
0.037595272 -0.084766872 -0.08146932
0.037607506 -0.084691234 -0.08146707
0.037621684 -0.084617652 -0.081464775
0.037633851 -0.08454401 -0.081462577
0.037622124 -0.084467635 -0.081461489
0.037562542 -0.084387794 -0.081462666
0.03748703 -0.08430545 -0.081464566
0.037473306 -0.084229015 -0.081463575
0.037465572 -0.084152766 -0.081462294
0.037465818 -0.084076755 -0.081460625
0.037454031 -0.084002376 -0.081459582
0.037418403 -0.083923265 -0.081459604
0.037384711 -0.083846219 -0.081459582
0.03738296 -0.083770148 -0.08145801
0.037379228 -0.083694018 -0.081456535
0.037357517 -0.083617337 -0.081455924
0.037337802 -0.083540715 -0.081455223
0.0373061 -0.083463728 -0.081455097
0.037286386 -0.083387107 -0.081454396
0.037278652 -0.08331085 -0.081453115
0.037274852 -0.083236717 -0.081451684
0.037265122 -0.083160408 -0.0814505
0.037249394 -0.083083905 -0.081449606
0.03723567 -0.08300747 -0.081448615
0.037221946 -0.082931034 -0.081447616
0.037204176 -0.082856469 -0.081446864
0.037186511 -0.08277791 -0.081446022
0.037088975 -0.0826969 -0.081449032
0.037027396 -0.082616992 -0.081450298
0.037015662 -0.082540616 -0.081449211
0.037003875 -0.082466237 -0.081448168
0.036990158 -0.082389802 -0.081447177
0.03696245 -0.082312934 -0.081446864
0.036930755 -0.082235947 -0.081446737
0.036917031 -0.082159504 -0.081445746
0.03690131 -0.082083009 -0.081444845
0.036867619 -0.082005963 -0.081444815
0.036833927 -0.081928909 -0.081444792
0.036810212 -0.081852168 -0.081444278
0.036788501 -0.081775479 -0.081443675
0.03676673 -0.081700794 -0.081443109
0.036747016 -0.08162418 -0.081442408
0.036739282 -0.081547923 -0.081441127
0.036735483 -0.08147379 -0.081439696
0.036727689 -0.081399538 -0.081438467
0.036723942 -0.081323408 -0.081436992
0.036706224 -0.081246845 -0.081436187
0.036654562 -0.081169248 -0.081437029
0.03660889 -0.081091821 -0.08143758
0.036579199 -0.081014894 -0.081437357
0.036543444 -0.080939785 -0.081437469
0.036523722 -0.080863163 -0.081436768
0.036531903 -0.080789402 -0.081434764
0.036544077 -0.080715761 -0.081432566
0.036558256 -0.080642179 -0.081430264
0.036570422 -0.080568537 -0.081428066
0.0365806 -0.080494836 -0.081425965
0.036584787 -0.080420949 -0.081424154
0.036590964 -0.080347121 -0.08142224
0.036601208 -0.080271423 -0.081420094
0.03665325 -0.080201007 -0.081416011
0.036701366 -0.080128469 -0.081412084
0.036735445 -0.080057502 -0.081408866
0.036805466 -0.079987645 -0.081403919
0.036893517 -0.079916328 -0.081398062
0.036943562 -0.079845853 -0.081394076
0.038909003 -0.079884246 -0.081298746
0.038891286 -0.079807691 -0.081297942
0.038883552 -0.079731435 -0.08129666
0.038891792 -0.079655677 -0.081294611
0.03892193 -0.079582587 -0.081291541
0.038978025 -0.079510294 -0.081287228
0.051052094 -0.079685286 -0.080700248
0.05107443 -0.079605959 -0.080697425
0.051068872 -0.079523772 -0.080695912
0.051883101 -0.06005685 -0.080232285
0.051867492 -0.059976354 -0.080231294
0.051801793 -0.059900321 -0.080232859
0.051716134 -0.059823677 -0.080235377
0.051682495 -0.059744626 -0.080235302
0.051652856 -0.059665699 -0.080235034
0.051639311 -0.059583265 -0.080233902
0.050708294 -0.059572659 -0.080279231
0.050670609 -0.059495486 -0.080279395
0.050655007 -0.05941499 -0.080278404
0.050663419 -0.059333235 -0.080276214
0.05008097 -0.05929533 -0.080303885
0.050031304 -0.059217788 -0.08030463
0.049028225 -0.059210967 -0.080353558
0.04896453 -0.059134997 -0.080355026
0.04889477 -0.059060838 -0.080356821
0.048851095 -0.058983482 -0.080357276
0.04879339 -0.058907691 -0.080358446
0.048745722 -0.058830213 -0.080359094
0.048722066 -0.058751471 -0.080358535
0.048706405 -0.058672972 -0.080357596
0.048690803 -0.058592476 -0.080356605
0.048681132 -0.058514163 -0.080355376
0.048681498 -0.058434159 -0.080353618
0.04868187 -0.058354154 -0.080351859
0.048682243 -0.05827415 -0.080350094
0.048688658 -0.058192328 -0.080348
0.048699073 -0.058110632 -0.080345713
0.04870943 -0.058030937 -0.08034347
0.048711851 -0.057948995 -0.08034157
0.048716217 -0.05786911 -0.080339618
0.04872863 -0.057787478 -0.080337234
0.048732996 -0.057707593 -0.080335282
0.048743404 -0.057625897 -0.080332994
0.04875382 -0.057544202 -0.0803307
0.048764229 -0.057462506 -0.080328412
0.048776641 -0.05738087 -0.080326028
0.048777014 -0.057300866 -0.08032427
0.048779376 -0.057220921 -0.080322415
0.048805825 -0.05713772 -0.080319308
0.048822232 -0.057056203 -0.08031673
0.048832633 -0.056974508 -0.080314443
0.048857033 -0.056893241 -0.080311485
0.048869438 -0.056811605 -0.0803091
0.048877858 -0.056729846 -0.080306903
0.048900254 -0.056648515 -0.080304042
0.048922703 -0.056565192 -0.080301128
0.048941106 -0.056483738 -0.080298454
0.048957571 -0.056400232 -0.080295831
0.048963927 -0.05632041 -0.080293782
0.048972346 -0.056238651 -0.080291592
0.048984751 -0.056157015 -0.080289207
0.048989177 -0.056075133 -0.080287203
0.048989542 -0.055995129 -0.080285445
0.048993915 -0.055915248 -0.080283493
0.049006321 -0.055833615 -0.080281109
0.049012743 -0.055751793 -0.080279015
0.049021162 -0.055670038 -0.080276825
0.04903356 -0.055588402 -0.08027444
0.04903999 -0.05550658 -0.080272339
0.049040362 -0.055426575 -0.080270581
0.049048774 -0.05534482 -0.08026839
0.049063176 -0.055263244 -0.080265909
0.049083576 -0.055181853 -0.080263138
0.049102038 -0.055098407 -0.080260418
0.049124487 -0.05501508 -0.080257505
0.049154922 -0.054931998 -0.080254212
0.049177386 -0.054848671 -0.080251299
0.049161725 -0.054770172 -0.080250353
0.049146064 -0.054691676 -0.080249414
0.049154468 -0.054609917 -0.080247223
0.049170874 -0.054528404 -0.080244645
0.0491753 -0.054446526 -0.080242649
0.049173675 -0.054366458 -0.08024098
0.049182087 -0.054284699 -0.080238789
0.049186453 -0.054204818 -0.080236837
0.049188882 -0.054122873 -0.080234937
0.049203284 -0.054041304 -0.080232456
0.049201652 -0.053961236 -0.080230787
0.049200088 -0.053879172 -0.080229081
0.049214497 -0.053797599 -0.0802266
0.049218915 -0.053715717 -0.080224603
0.049221285 -0.053635772 -0.080222748
0.049223654 -0.053555831 -0.080220886
0.04922808 -0.053473949 -0.080218889
0.049246475 -0.0533925 -0.080216214
0.049270988 -0.053307235 -0.080213159
0.049281396 -0.05322554 -0.080210872
0.049269728 -0.053147167 -0.08020974
0.049262121 -0.053066913 -0.080208361
0.049264483 -0.052986968 -0.080206506
0.049266912 -0.052905027 -0.080204606
0.049267277 -0.052825022 -0.080202848
0.049263649 -0.052744895 -0.080201276
0.049268074 -0.052663013 -0.080199279
0.049286537 -0.052579567 -0.080196559
0.049292959 -0.052497745 -0.080194466
0.049295329 -0.052417804 -0.080192611
0.049307734 -0.052336168 -0.080190226
0.049314156 -0.052254349 -0.080188125
0.049306542 -0.052174095 -0.080186754
0.049300916 -0.052093908 -0.080185287
0.049301282 -0.052013904 -0.080183521
0.049309708 -0.051932145 -0.08018133
0.049310133 -0.05185014 -0.080179527
0.049318492 -0.051770382 -0.080177382
0.049339004 -0.051684998 -0.080174521
0.049353413 -0.051603422 -0.08017204
0.049363822 -0.051521726 -0.080169752
0.049338184 -0.051442921 -0.08016929
0.049306422 -0.051367931 -0.080169208
0.049308851 -0.05128599 -0.080167308
0.04933729 -0.051202845 -0.080164105
0.049365804 -0.051117703 -0.080160856
0.049376205 -0.051036008 -0.080158569
0.049374588 -0.05095594 -0.080156907
0.049373023 -0.050873879 -0.080155194
0.049393415 -0.050792485 -0.080152422
0.049403824 -0.05071079 -0.080150142
0.049404256 -0.050628789 -0.080148332
0.049400635 -0.050548658 -0.080146767
0.049401 -0.050468653 -0.080145009
0.049409419 -0.050386898 -0.080142811
0.038399391 -0.10001631 -0.081771851
0.038385727 -0.099937871 -0.081770815
0.038399898 -0.099864289 -0.08176852
0.038423993 -0.099793017 -0.081765786
0.038426243 -0.099717073 -0.081764027
0.038428493 -0.099641129 -0.081762262
0.03843873 -0.099565424 -0.081760116
0.038403161 -0.099484317 -0.081760086
0.038367651 -0.099401206 -0.081760019
0.038371898 -0.099325322 -0.081758156
0.038376145 -0.099249437 -0.081756294
0.03839431 -0.099175975 -0.081753805
0.038406484 -0.099102341 -0.081751607
0.038412668 -0.099028513 -0.0817497
0.038426846 -0.098954931 -0.081747405
0.038425103 -0.098878868 -0.081745833
0.038409501 -0.098798372 -0.08174485
0.038397834 -0.098719999 -0.08174371
0.038400024 -0.098646045 -0.081741996
0.038380429 -0.098565429 -0.081741199
0.038344912 -0.098482326 -0.081741124
0.038335241 -0.098404005 -0.081739895
0.038341433 -0.098330185 -0.081737988
0.038335696 -0.098253995 -0.081736609
0.038332015 -0.098175861 -0.081735089
0.038334265 -0.098099917 -0.081733324
0.038328588 -0.098021723 -0.081731901
0.038318858 -0.097945407 -0.081730716
0.038321108 -0.097869471 -0.08172895
0.038327359 -0.097793639 -0.081726998
0.038329549 -0.097719699 -0.081725277
0.038329855 -0.097641684 -0.081723563
0.038328111 -0.097565621 -0.081721991
0.038338289 -0.09749192 -0.08171989
0.038360447 -0.097418584 -0.081717215
0.038382545 -0.097347245 -0.081714578
0.038402706 -0.097273856 -0.081711993
0.038414881 -0.097200215 -0.081709795
0.038365401 -0.097116672 -0.081710398
0.038333878 -0.097033687 -0.08171013
0.03835199 -0.096962228 -0.081707694
0.03836222 -0.096886531 -0.08170554
0.038370401 -0.09681277 -0.081703536
0.038394563 -0.096739493 -0.081700765
0.038400739 -0.096665666 -0.08169885
0.038393065 -0.09658742 -0.081697524
0.038391329 -0.096511349 -0.081695952
0.038397573 -0.096435525 -0.081693999
0.038397826 -0.096359521 -0.081692331
0.038394086 -0.096283391 -0.081690855
0.038398333 -0.0962075 -0.081689
0.038398586 -0.096131496 -0.081687331
0.038402833 -0.096055612 -0.081685469
