# .PCD v0.7 - Point Cloud Data file format
VERSION 0.7
FIELDS x y z
SIZE 4 4 4
TYPE F F F
COUNT 1 1 1
WIDTH 1298
HEIGHT 1
VIEWPOINT 0 0 0 1 0 0 0
POINTS 1298
DATA ascii
-0.043529339 -0.13021976 -0.17874792
-0.043526758 -0.13014564 -0.17875418
-0.043524116 -0.13006952 -0.17876041
-0.043521535 -0.12999539 -0.17876667
-0.043518797 -0.12991923 -0.17877489
-0.04351563 -0.12984484 -0.17879313
-0.043514065 -0.12976921 -0.1787774
-0.043512207 -0.12969343 -0.17876764
-0.043509271 -0.12961718 -0.17877984
-0.043506399 -0.12954293 -0.1787921
-0.043504149 -0.12946698 -0.17879033
-0.043501761 -0.12939295 -0.1787926
-0.043498695 -0.12931861 -0.17880887
-0.043495663 -0.12924232 -0.17882307
-0.043493666 -0.12916845 -0.17881736
-0.043492042 -0.12909082 -0.17880155
-0.043490808 -0.12901334 -0.17877778
-0.043489143 -0.12893766 -0.17876402
-0.043486897 -0.12886173 -0.17876226
-0.043484412 -0.12878764 -0.17876652
-0.04348138 -0.12871134 -0.17878073
-0.043478802 -0.12863722 -0.17878699
-0.043476257 -0.12856115 -0.17879122
-0.043474007 -0.1284852 -0.17878945
-0.043472014 -0.12841134 -0.17878374
-0.04346947 -0.12833527 -0.17878796
-0.043466207 -0.12826084 -0.17880821
-0.043463036 -0.12818645 -0.17882645
-0.043460064 -0.12811215 -0.1788407
-0.04345762 -0.12803613 -0.17884293
-0.043455761 -0.12796035 -0.17883319
-0.043453902 -0.12788458 -0.17882341
-0.043451555 -0.12780859 -0.17882365
-0.043448485 -0.12773424 -0.17883991
-0.043445319 -0.12765987 -0.17885816
-0.04344264 -0.12758571 -0.17886642
-0.043441113 -0.1275081 -0.17884862
-0.043439548 -0.12743247 -0.17883289
-0.043437395 -0.12735656 -0.1788291
-0.043435048 -0.12728058 -0.17882934
-0.043432273 -0.12720637 -0.17883959
-0.0434293 -0.12713207 -0.17885385
-0.043426562 -0.1270559 -0.17886207
-0.04342398 -0.12698178 -0.17886834
-0.043421008 -0.12690748 -0.1788826
-0.043417878 -0.12683114 -0.1788988
-0.043414712 -0.12675676 -0.17891705
-0.043412328 -0.12668273 -0.17891932
-0.043410409 -0.12660496 -0.17890951
-0.043408025 -0.12653092 -0.17891179
-0.043405384 -0.1264548 -0.178918
-0.043401826 -0.12638025 -0.17894424
-0.043398228 -0.12630764 -0.17897253
-0.043395881 -0.12623166 -0.17897275
-0.043393631 -0.1261557 -0.17897099
-0.043391284 -0.12607971 -0.17897122
-0.043389034 -0.12600377 -0.17896944
-0.043386746 -0.12592977 -0.17896973
-0.043384731 -0.12585196 -0.17896192
-0.043382347 -0.12577793 -0.1789642
-0.043380387 -0.12570211 -0.17895642
-0.043378532 -0.12562634 -0.17894667
-0.043375596 -0.12555009 -0.17895889
-0.043372232 -0.12547562 -0.17898113
-0.043369163 -0.12540129 -0.17899738
-0.043366425 -0.12532511 -0.17900559
-0.043363944 -0.12525104 -0.17900985
-0.043361399 -0.12517495 -0.17901409
-0.043358956 -0.12509893 -0.17901631
-0.043356374 -0.12502481 -0.17902258
-0.043353539 -0.1249486 -0.1790328
-0.04335086 -0.12487444 -0.17904106
-0.043348122 -0.12479827 -0.17904928
-0.043345541 -0.12472415 -0.17905554
-0.043342508 -0.12464786 -0.17906976
-0.043339439 -0.12457351 -0.179086
-0.043336466 -0.12449922 -0.17910026
-0.043333728 -0.12442305 -0.17910847
-0.043332066 -0.12434737 -0.17909473
-0.043331124 -0.12427003 -0.17906494
-0.043328878 -0.12419409 -0.17906317
-0.043326199 -0.12411992 -0.17907144
-0.043323752 -0.12404389 -0.17907366
-0.043321602 -0.12396798 -0.17906991
-0.04331902 -0.12389386 -0.17907616
-0.043315891 -0.12381753 -0.17909238
-0.043313015 -0.12374327 -0.17910464
-0.04331024 -0.12366906 -0.17911491
-0.043307796 -0.12359303 -0.17911711
-0.043305643 -0.12351713 -0.17911336
-0.043303296 -0.12344114 -0.17911358
-0.043301534 -0.12336541 -0.17910182
-0.043299578 -0.12328959 -0.17909408
-0.043296449 -0.12321325 -0.17911027
-0.043293573 -0.123139 -0.17912254
-0.043290839 -0.12306283 -0.17913076
-0.043287769 -0.1229885 -0.17914701
-0.043284893 -0.12291425 -0.17915927
-0.04328268 -0.12283634 -0.17915544
-0.043282583 -0.12276135 -0.17910975
-0.043281153 -0.1226838 -0.17908996
-0.043279156 -0.12260994 -0.17908424
-0.043276615 -0.12253387 -0.17908847
-0.04327378 -0.12245766 -0.17909867
-0.043271005 -0.12238345 -0.17910893
-0.043267485 -0.12230694 -0.17913313
-0.043264121 -0.12223247 -0.17915538
-0.043260954 -0.12215808 -0.17917362
-0.043257236 -0.12208148 -0.17920181
-0.043255143 -0.12200758 -0.17919809
-0.04325401 -0.12193016 -0.17917231
-0.043252736 -0.12185465 -0.17915058
-0.043250155 -0.12178052 -0.17915684
-0.043246146 -0.1217038 -0.17919102
-0.043242395 -0.12162915 -0.17922124
-0.043239851 -0.12155307 -0.17922547
-0.043237366 -0.121479 -0.17922974
-0.043234631 -0.12140283 -0.17923796
-0.04323189 -0.12132666 -0.17924619
-0.043229602 -0.12125267 -0.17924646
-0.043227352 -0.12117673 -0.1792447
-0.043225691 -0.12110104 -0.17923093
-0.043223735 -0.12102523 -0.17922318
-0.043221094 -0.1209491 -0.17922941
-0.04321865 -0.12087307 -0.17923161
-0.043216497 -0.12079717 -0.17922786
-0.04321333 -0.12072279 -0.1792461
-0.043209478 -0.1206481 -0.17927834
-0.043206252 -0.12057172 -0.17929652
-0.043204688 -0.12049608 -0.17928079
-0.043202829 -0.12042031 -0.17927104
-0.043199699 -0.12034397 -0.17928724
-0.043196924 -0.12026976 -0.17929749
-0.043194477 -0.12019372 -0.17929973
-0.043192424 -0.12011787 -0.17929396
-0.043190174 -0.12004192 -0.17929219
-0.043187689 -0.11996784 -0.17929646
-0.043184854 -0.11989163 -0.17930667
-0.043182019 -0.11981542 -0.17931689
-0.043178752 -0.119741 -0.17933714
-0.043175526 -0.11966462 -0.17935535
-0.043172985 -0.11958854 -0.17935956
-0.043171223 -0.11951281 -0.17934781
-0.043170147 -0.11943739 -0.17932208
-0.0431678 -0.1193614 -0.1793223
-0.043164477 -0.11928497 -0.17934251
-0.043161795 -0.1192108 -0.17935076
-0.043159645 -0.1191349 -0.17934701
-0.04315681 -0.1190587 -0.1793572
-0.04315456 -0.11898275 -0.17935544
-0.043153483 -0.11890732 -0.17932971
-0.043150999 -0.11883325 -0.17933398
-0.043147676 -0.11875682 -0.17935419
-0.043145131 -0.11868075 -0.17935841
-0.043142784 -0.11860476 -0.17935863
-0.043140143 -0.11852863 -0.17936486
-0.043137562 -0.11845452 -0.17937112
-0.043135118 -0.11837848 -0.17937334
-0.043132477 -0.11830236 -0.17937957
-0.043129545 -0.11822611 -0.17939177
-0.043127 -0.11815003 -0.179396
-0.043125302 -0.1180763 -0.17938429
-0.043124221 -0.11800088 -0.17935856
-0.043122754 -0.11792528 -0.17934081
-0.043121092 -0.1178496 -0.17932707
-0.043119818 -0.11777408 -0.17930532
-0.043117963 -0.11769831 -0.17929557
-0.04311493 -0.11762202 -0.17930977
-0.043111507 -0.11754555 -0.17933197
-0.043108437 -0.11747121 -0.17934822
-0.043105211 -0.11739483 -0.17936642
-0.04310257 -0.1173187 -0.17937265
-0.043099735 -0.1172425 -0.17938286
-0.043097779 -0.11716668 -0.17937511
-0.043096274 -0.11709304 -0.17935941
-0.043093827 -0.11701701 -0.17936161
-0.043090895 -0.11694076 -0.17937383
-0.04308835 -0.11686468 -0.17937806
-0.043085515 -0.11678848 -0.17938827
-0.043082386 -0.11671214 -0.17940448
-0.043079354 -0.11663584 -0.17941868
-0.043077361 -0.11656198 -0.17941296
-0.043075308 -0.11648612 -0.17940721
-0.043073349 -0.11641031 -0.17939945
-0.043071784 -0.11633466 -0.1793837
-0.043069046 -0.1162585 -0.17939192
-0.043064941 -0.11618172 -0.1794281
-0.043062069 -0.11610747 -0.17944035
-0.043059759 -0.11602953 -0.17943853
-0.043057665 -0.11595562 -0.17943482
-0.043056197 -0.11588003 -0.17941707
-0.043054827 -0.11580447 -0.17939733
-0.043051895 -0.11572822 -0.17940953
-0.043048277 -0.11565167 -0.17943573
-0.043045051 -0.11557528 -0.17945394
-0.043043192 -0.11549951 -0.17944416
-0.043040745 -0.11542348 -0.1794464
-0.043037776 -0.11534918 -0.17946066
-0.043034881 -0.11527097 -0.17947082
-0.043032102 -0.11519676 -0.17948109
-0.04302907 -0.11512047 -0.17949529
-0.043026332 -0.1150443 -0.17950352
-0.043024182 -0.1149684 -0.17949975
-0.043021638 -0.11489233 -0.17950398
-0.043018803 -0.11481612 -0.17951417
-0.043015968 -0.11473991 -0.17952439
-0.04301323 -0.11466375 -0.17953262
-0.043010883 -0.11458775 -0.17953284
-0.043008536 -0.11451177 -0.17953306
-0.043006286 -0.11443582 -0.17953131
-0.04300423 -0.11435996 -0.17952554
-0.043001495 -0.1142838 -0.17953375
-0.042997289 -0.11420698 -0.17957193
-0.042994455 -0.11413077 -0.17958215
-0.042993926 -0.11405756 -0.17954648
-0.042992651 -0.11398206 -0.17952473
-0.042990208 -0.11390603 -0.17952695
-0.042987764 -0.11382999 -0.17952919
-0.042984925 -0.11375378 -0.17953941
-0.042981211 -0.11367718 -0.17956759
-0.04297724 -0.1135985 -0.17959973
-0.042973917 -0.11352207 -0.17961992
-0.04297163 -0.11344808 -0.17962021
-0.042969223 -0.11337009 -0.17962039
-0.042966936 -0.1132961 -0.17962065
-0.042964723 -0.1132182 -0.17961684
-0.042961791 -0.11314195 -0.17962906
-0.042958174 -0.11306539 -0.17965525
-0.042955827 -0.1129894 -0.17965548
-0.042954065 -0.11291367 -0.17964372
-0.042951912 -0.11283777 -0.17963997
-0.042949174 -0.1127616 -0.17964818
-0.042946927 -0.11268566 -0.1796464
-0.042945459 -0.11261006 -0.17962866
-0.042944342 -0.11253659 -0.17960498
-0.042942289 -0.11246073 -0.1795992
-0.042940624 -0.11238505 -0.17958546
-0.042937692 -0.1123088 -0.17959768
-0.042934366 -0.11223237 -0.17961787
-0.042931631 -0.11215621 -0.17962608
-0.042928834 -0.11207805 -0.17963424
-0.042925313 -0.11200153 -0.17965844
-0.042921696 -0.11192498 -0.17968464
-0.042919248 -0.11184894 -0.17968687
-0.042917587 -0.11177326 -0.17967311
-0.042915825 -0.11169753 -0.17966136
-0.042913478 -0.11162154 -0.17966159
-0.042911328 -0.11154564 -0.17965782
-0.042909272 -0.11146978 -0.17965207
-0.042907022 -0.11139383 -0.17965029
-0.042904872 -0.11131793 -0.17964652
-0.042903267 -0.11124425 -0.17963281
-0.042901997 -0.11116873 -0.17961109
-0.042900722 -0.11109322 -0.17958933
-0.042899121 -0.11101954 -0.17957564
-0.042896323 -0.11094138 -0.1795838
-0.042893976 -0.11086538 -0.17958403
-0.042891786 -0.11079144 -0.17958231
-0.042888403 -0.11071301 -0.17960247
-0.042884491 -0.11063632 -0.17963466
-0.042881593 -0.11055812 -0.17964482
-0.042879637 -0.11048231 -0.17963706
-0.042877447 -0.11040836 -0.17963535
-0.042874649 -0.11033019 -0.17964351
-0.042871524 -0.11025386 -0.17965972
-0.042868726 -0.11017569 -0.17966789
-0.042866241 -0.11010162 -0.17967215
-0.042863697 -0.11002554 -0.17967638
-0.042861685 -0.10994773 -0.17966858
-0.042860765 -0.10987435 -0.17964089
-0.042860236 -0.10980114 -0.17960522
-0.042858765 -0.10972554 -0.17958745
-0.042856712 -0.10964968 -0.1795817
-0.042855442 -0.10957417 -0.17955998
-0.042854521 -0.1095008 -0.17953227
-0.042851135 -0.10942237 -0.17955244
-0.042846933 -0.10934555 -0.17959061
-0.042844098 -0.10926934 -0.17960082
-0.042842433 -0.10919365 -0.17958707
-0.042840574 -0.10911789 -0.17957732
-0.042838618 -0.10904207 -0.17956954
-0.042836662 -0.10896625 -0.17956179
-0.042834021 -0.10889013 -0.17956801
-0.042830832 -0.1088118 -0.17958418
-0.042828485 -0.10873581 -0.17958438
-0.042826239 -0.10865986 -0.17958263
-0.042824183 -0.108584 -0.17957687
-0.042821895 -0.10851001 -0.17957714
-0.042820331 -0.10843437 -0.17956141
-0.042819995 -0.10836125 -0.17952174
-0.042817589 -0.10828327 -0.1795219
-0.042814851 -0.1082071 -0.17953013
-0.042812407 -0.10813107 -0.17953235
-0.042810354 -0.1080552 -0.1795266
-0.042807907 -0.10797917 -0.17952882
-0.042805657 -0.10790323 -0.17952704
-0.042804055 -0.10782954 -0.17951334
-0.042801708 -0.10775355 -0.17951357
-0.042798616 -0.10767525 -0.17952773
-0.042796757 -0.10759949 -0.17951798
-0.042794801 -0.10752367 -0.17951021
-0.042792652 -0.10744777 -0.17950645
-0.042790204 -0.10737173 -0.17950869
-0.042786784 -0.10729527 -0.17953087
-0.042783692 -0.10721697 -0.17954503
-0.042781249 -0.10714094 -0.17954725
-0.042778805 -0.1070649 -0.17954949
-0.042776458 -0.10698891 -0.17954972
-0.042773366 -0.10691062 -0.17956388
-0.042770725 -0.1068345 -0.17957011
-0.042769257 -0.10675891 -0.17955235
-0.042767849 -0.1066853 -0.17953464
-0.042765796 -0.10660945 -0.17952889
-0.042763192 -0.10653137 -0.17953306
-0.042760357 -0.10645516 -0.17954329
-0.042759083 -0.10637965 -0.17952155
-0.042757772 -0.1063061 -0.17950185
-0.042754743 -0.1062298 -0.17951605
-0.042751554 -0.10615147 -0.17953221
-0.042750284 -0.10607596 -0.17951047
-0.042748775 -0.10600232 -0.17949477
-0.04274559 -0.10592398 -0.17951092
-0.042741813 -0.10584538 -0.17953907
-0.042738724 -0.10576709 -0.17955324
-0.042736474 -0.10569113 -0.17955147
-0.042734127 -0.10561515 -0.17955169
-0.042731095 -0.10553885 -0.17956591
-0.042728297 -0.10546069 -0.17957407
-0.042726342 -0.10538487 -0.17956631
-0.042724386 -0.10530906 -0.17955855
-0.04272243 -0.10523324 -0.1795508
-0.04272151 -0.10515986 -0.17952311
-0.042720392 -0.10508639 -0.17949942
-0.042718045 -0.10501041 -0.17949966
-0.042715698 -0.10493442 -0.17949986
-0.04271394 -0.10485869 -0.17948812
-0.042712081 -0.10478292 -0.17947836
-0.042710084 -0.10470906 -0.17947266
-0.04270852 -0.10463342 -0.17945689
-0.042707991 -0.10456021 -0.17942122
-0.042707071 -0.10448683 -0.17939353
-0.042705309 -0.1044111 -0.17938179
-0.042703707 -0.10433742 -0.17936808
-0.042702138 -0.10426177 -0.17935233
-0.042699892 -0.10418583 -0.17935055
-0.042696409 -0.10410736 -0.17937271
-0.042693477 -0.10403111 -0.17938493
-0.042691227 -0.10395516 -0.17938316
-0.042688332 -0.10387696 -0.17939332
-0.042685438 -0.10379875 -0.17940348
-0.042684224 -0.10372524 -0.1793818
-0.042683598 -0.10365199 -0.17934813
-0.042682286 -0.10357843 -0.17932844
-0.042680722 -0.1035028 -0.17931268
-0.042679213 -0.10342915 -0.17929697
-0.042676613 -0.10335108 -0.17930116
-0.042674169 -0.10327505 -0.17930338
-0.042671822 -0.10319905 -0.17930362
-0.042668242 -0.10312054 -0.17932776
-0.042665794 -0.10304451 -0.17932999
-0.04266556 -0.10297143 -0.17928833
-0.042663213 -0.10289544 -0.17928854
-0.042659927 -0.10281706 -0.1793067
-0.042658165 -0.10274133 -0.17929494
-0.042656563 -0.10266764 -0.17928125
-0.042654313 -0.1025917 -0.17927948
-0.042651869 -0.10251567 -0.17928171
-0.042649265 -0.10243759 -0.17928588
-0.042646371 -0.10235938 -0.17929605
-0.042644475 -0.10228557 -0.17928833
-0.042643301 -0.1022101 -0.17926461
-0.042640954 -0.10213411 -0.17926481
-0.042638764 -0.10206017 -0.1792631
-0.042638429 -0.10198705 -0.17922343
-0.042638153 -0.10191593 -0.17918381
-0.0426361 -0.10184006 -0.17917806
-0.042633753 -0.10176408 -0.17917827
-0.042632189 -0.10168844 -0.17916253
-0.042630583 -0.10161475 -0.17914882
-0.042629018 -0.10153911 -0.17913307
-0.042627707 -0.10146555 -0.17911339
-0.042626005 -0.10139182 -0.17910168
-0.042623952 -0.10131597 -0.17909589
-0.042621896 -0.10124011 -0.17909014
-0.042619649 -0.10116416 -0.17908838
-0.042616948 -0.10108604 -0.17909455
-0.04261421 -0.10100988 -0.17910278
-0.042611219 -0.10093163 -0.17911494
-0.042608615 -0.10085355 -0.17911911
-0.042607207 -0.10077995 -0.17910141
-0.042606093 -0.10070649 -0.17907771
-0.042604782 -0.10063294 -0.17905802
-0.042602725 -0.10055707 -0.17905226
-0.042599734 -0.10047883 -0.17906442
-0.042597838 -0.10040501 -0.17905672
-0.042595528 -0.10032706 -0.1790549
-0.042593181 -0.10025107 -0.17905512
-0.042592362 -0.10017774 -0.17902544
-0.042591304 -0.10010627 -0.17900181
-0.04258915 -0.10003036 -0.17899804
-0.042588037 -0.099956892 -0.17897436
-0.042586923 -0.09988343 -0.17895065
-0.042585455 -0.099807829 -0.17893291
-0.042584144 -0.099734277 -0.17891321
-0.042583086 -0.099662803 -0.17888957
-0.042581715 -0.099587254 -0.17886983
-0.042579915 -0.099513479 -0.17886013
-0.042577412 -0.099435449 -0.1788623
-0.04257571 -0.099361718 -0.17885059
-0.042574849 -0.099290334 -0.17882295
-0.04257299 -0.099214561 -0.17881319
-0.042570196 -0.099136397 -0.17882136
-0.042567398 -0.099058241 -0.17882952
-0.042566244 -0.09898673 -0.17880788
-0.042565227 -0.098913297 -0.17878219
-0.042562779 -0.098837271 -0.17878443
-0.042560276 -0.098759234 -0.17878661
-0.042558573 -0.098685503 -0.17877489
-0.042556424 -0.098609604 -0.17877114
-0.042553879 -0.098533526 -0.17877536
-0.042550888 -0.09845528 -0.17878753
-0.042548541 -0.098379284 -0.17878774
-0.04254584 -0.098301172 -0.17879392
-0.042542752 -0.098222874 -0.17880808
-0.042540111 -0.098146752 -0.17881429
-0.042538252 -0.098070979 -0.17880455
-0.042537488 -0.097999647 -0.17877491
-0.04253602 -0.097924046 -0.17875716
-0.042533871 -0.097848147 -0.17875341
-0.04253152 -0.097772151 -0.17875363
-0.042529173 -0.09769617 -0.17875385
-0.042527217 -0.097620353 -0.1787461
-0.042525418 -0.097546577 -0.17873639
-0.042522915 -0.097468548 -0.17873856
-0.042520568 -0.097392559 -0.1787388
-0.042518962 -0.097318873 -0.17872509
-0.042518202 -0.097247534 -0.17869546
-0.042516734 -0.097171932 -0.17867771
-0.042515226 -0.097098291 -0.178662
-0.042514171 -0.097026825 -0.17863837
-0.042511862 -0.096948877 -0.17863655
-0.04250893 -0.096872628 -0.17864877
-0.042506427 -0.09679459 -0.17865095
-0.042504918 -0.096720949 -0.17863524
-0.042503312 -0.096647263 -0.17862153
-0.042500906 -0.096569277 -0.17862171
-0.042498365 -0.096493199 -0.17862594
-0.042496759 -0.096419513 -0.17861223
-0.042495646 -0.096346051 -0.17858854
-0.042493396 -0.096270099 -0.17858678
-0.042490698 -0.09619198 -0.17859295
-0.042487606 -0.096113689 -0.17860711
-0.042484418 -0.096035346 -0.17862326
-0.042481326 -0.095957056 -0.17863743
-0.042478532 -0.095878899 -0.17864561
-0.042475343 -0.095800556 -0.17866176
-0.042472996 -0.095724568 -0.17866199
-0.042471685 -0.095651016 -0.17864229
-0.042471215 -0.095579803 -0.17860666
-0.042470254 -0.095508382 -0.17858103
-0.042468846 -0.095434785 -0.17856333
-0.042466696 -0.095358878 -0.17855957
-0.042464193 -0.095280848 -0.17856175
-0.04246249 -0.095207117 -0.17855003
-0.042460885 -0.095133431 -0.17853633
-0.042458735 -0.095057532 -0.17853257
-0.042456485 -0.094981581 -0.17853078
-0.042453982 -0.094903551 -0.17853297
-0.042451341 -0.094827428 -0.17853919
-0.042449385 -0.094751611 -0.17853144
-0.042447779 -0.094677925 -0.17851773
-0.042444691 -0.094599634 -0.17853189
-0.042440854 -0.094519034 -0.17855999
-0.04243806 -0.094440877 -0.17856815
-0.04243581 -0.094364926 -0.17856638
-0.042432815 -0.09428668 -0.17857856
-0.042429727 -0.09420839 -0.17859271
-0.042427771 -0.094132572 -0.17858496
-0.042427007 -0.094061226 -0.17855531
-0.042425949 -0.09398976 -0.17853168
-0.042424385 -0.093914121 -0.17851594
-0.042421941 -0.093838088 -0.17851815
-0.042419337 -0.093760014 -0.17852233
-0.04241699 -0.093684018 -0.17852256
-0.0424149 -0.093610123 -0.17851883
-0.042412493 -0.09353213 -0.17851901
-0.042408951 -0.093451664 -0.17854112
-0.042406701 -0.09337572 -0.17853935
-0.042405646 -0.093304247 -0.1785157
-0.042403847 -0.093230478 -0.178506
-0.042401146 -0.093152359 -0.17851219
-0.042398997 -0.093076453 -0.1785084
-0.042396843 -0.093000554 -0.17850465
-0.042394046 -0.09292239 -0.17851281
-0.042391308 -0.092846222 -0.17852104
-0.042388611 -0.092768103 -0.17852721
-0.042386752 -0.09269233 -0.17851745
-0.04238544 -0.092618778 -0.17849775
-0.042383347 -0.092544876 -0.17849404
-0.042381097 -0.092468932 -0.17849226
-0.042379141 -0.092393115 -0.1784845
-0.042378083 -0.092321642 -0.17846087
-0.042376325 -0.092245914 -0.17844911
-0.042373683 -0.092169791 -0.17845532
-0.043451961 -0.13986662 -0.17789853
-0.043449711 -0.13979068 -0.17789677
-0.043447558 -0.13971478 -0.177893
-0.043450169 -0.1396272 -0.17778306
-0.043451279 -0.13954091 -0.17770511
-0.043449752 -0.13946332 -0.17768733
-0.043448851 -0.13938403 -0.17765552
-0.043448046 -0.13930479 -0.17762169
-0.043446481 -0.13922915 -0.17760596
-0.043444466 -0.13915133 -0.17759815
-0.043442372 -0.13907743 -0.17759442
-0.043440513 -0.13900165 -0.17758468
-0.043438695 -0.13892393 -0.17757286
-0.043436307 -0.1388499 -0.17757514
-0.043433923 -0.13877586 -0.17757741
-0.043432064 -0.13870008 -0.17756766
-0.043429483 -0.13862596 -0.17757392
-0.043426417 -0.13855162 -0.17759018
-0.043424323 -0.13847773 -0.17758647
-0.043421019 -0.13840525 -0.17760876
-0.043418009 -0.1383329 -0.17762505
-0.043414805 -0.13826048 -0.17764534
-0.043412127 -0.13818631 -0.17765361
-0.043409877 -0.13811037 -0.17765184
-0.043407198 -0.13803621 -0.17766011
-0.043404579 -0.13796404 -0.17766841
-0.043402135 -0.137888 -0.17767063
-0.043399554 -0.13781388 -0.1776769
-0.043396641 -0.13774158 -0.17769121
-0.043393534 -0.13766921 -0.1777095
-0.043390132 -0.13759668 -0.17773378
-0.043386597 -0.13752608 -0.17776212
-0.04338333 -0.13745165 -0.17778236
-0.043379795 -0.13738105 -0.1778107
-0.043375671 -0.13731018 -0.17785099
-0.043372329 -0.13723966 -0.17787534
-0.043369457 -0.13716541 -0.17788759
-0.043366779 -0.13709125 -0.17789584
-0.043363806 -0.13701695 -0.17791012
-0.043361228 -0.13694283 -0.17791638
-0.043359037 -0.13686888 -0.17791465
-0.043356162 -0.13679463 -0.17792691
-0.043352664 -0.13672206 -0.17795321
-0.043349031 -0.13665143 -0.17798352
-0.043345727 -0.13657895 -0.17800581
-0.043342851 -0.13650469 -0.17801808
-0.043339744 -0.1364323 -0.17803636
-0.043337204 -0.13635623 -0.17804059
-0.043335013 -0.13628228 -0.17803887
-0.043332569 -0.13620625 -0.1780411
-0.043329362 -0.13613382 -0.1780614
-0.04332573 -0.13606317 -0.17809172
-0.043322366 -0.1359887 -0.17811397
-0.043318927 -0.13591814 -0.17814028
-0.043316189 -0.13584198 -0.17814851
-0.043313708 -0.13576791 -0.17815278
-0.043310989 -0.1356957 -0.17816308
-0.043307822 -0.13562131 -0.17818135
-0.043304812 -0.13554896 -0.17819765
-0.043302368 -0.13547292 -0.17819987
-0.043299593 -0.13539872 -0.17821012
-0.043296818 -0.13532451 -0.17822039
-0.043294139 -0.13525034 -0.17822865
-0.043291263 -0.13517609 -0.17824091
-0.04328806 -0.13510366 -0.17826119
-0.043285381 -0.13502949 -0.17826946
-0.043283522 -0.13495372 -0.1782597
-0.043281604 -0.13487595 -0.1782499
-0.043279123 -0.13480188 -0.17825417
-0.043276679 -0.13472584 -0.17825641
-0.043274 -0.13465168 -0.17826468
-0.043270599 -0.13457917 -0.17828897
-0.043267332 -0.13450474 -0.1783092
-0.043264423 -0.13443244 -0.17832351
-0.043261878 -0.13435636 -0.17832772
-0.043259591 -0.13428237 -0.17832801
-0.043257207 -0.13420834 -0.17833027
-0.043254174 -0.13413204 -0.17834449
-0.043250971 -0.13405961 -0.17836478
-0.043248292 -0.13398544 -0.17837304
-0.043245848 -0.13390942 -0.17837527
-0.04324346 -0.13383538 -0.17837754
-0.043241017 -0.13375935 -0.17837977
-0.043238927 -0.13368544 -0.17837605
-0.043236479 -0.13360941 -0.17837827
-0.043233901 -0.13353528 -0.17838454
-0.04323132 -0.13346116 -0.1783908
-0.043229166 -0.13338526 -0.17838705
-0.043227211 -0.13330945 -0.1783793
-0.043224961 -0.1332335 -0.17837751
-0.043222088 -0.13315925 -0.17838977
-0.04321859 -0.13308668 -0.17841604
-0.04321605 -0.13301061 -0.17842028
-0.043213271 -0.1329364 -0.17843054
-0.043209814 -0.13286188 -0.17845479
-0.043206606 -0.13278946 -0.17847508
-0.043204024 -0.13271534 -0.17848134
-0.043201189 -0.13263912 -0.17849156
-0.043198183 -0.13256678 -0.17850785
-0.043194525 -0.13249218 -0.17853609
-0.043191515 -0.13241984 -0.17855239
-0.043188836 -0.13234568 -0.17856064
-0.043186296 -0.13226961 -0.17856488
-0.043184046 -0.13219365 -0.1785631
-0.043181464 -0.13211954 -0.17856938
-0.043178827 -0.13204342 -0.17857561
-0.043176048 -0.1319692 -0.17858586
-0.043172881 -0.13189483 -0.17860411
-0.043170106 -0.13182062 -0.17861436
-0.043167759 -0.13174462 -0.17861459
-0.0431659 -0.13166885 -0.17860484
-0.043164045 -0.13159308 -0.17859508
-0.043161795 -0.13151713 -0.17859331
-0.043158919 -0.13144287 -0.17860557
-0.043155655 -0.13136846 -0.17862582
-0.043152548 -0.13129607 -0.17864412
-0.043149285 -0.13122164 -0.17866436
-0.043146506 -0.13114743 -0.17867462
-0.043143772 -0.13107127 -0.17868283
-0.043140896 -0.13099702 -0.1786951
-0.043137826 -0.13092268 -0.17871135
-0.043134719 -0.13085029 -0.17872965
-0.043131981 -0.13077413 -0.17873786
-0.043129634 -0.13069813 -0.17873809
-0.043127388 -0.13062219 -0.17873633
-0.043125294 -0.13054828 -0.1787326
-0.043122947 -0.1304723 -0.17873284
-0.0431206 -0.13039631 -0.17873307
-0.043118447 -0.1303204 -0.1787293
-0.043115478 -0.1302461 -0.17874357
-0.043112211 -0.13017169 -0.17876381
-0.043109827 -0.13009764 -0.17876607
-0.043107383 -0.13002162 -0.17876831
-0.04310441 -0.12994732 -0.17878255
-0.043101966 -0.12987128 -0.17878479
-0.043100499 -0.12979569 -0.17876703
-0.043098543 -0.12971987 -0.17875928
-0.043095902 -0.12964375 -0.17876551
-0.043093126 -0.12956955 -0.17877576
-0.04308996 -0.12949516 -0.17879401
-0.043086991 -0.12942086 -0.17880827
-0.043084253 -0.1293447 -0.17881648
-0.043081086 -0.12927032 -0.17883474
-0.04307821 -0.12919606 -0.17884699
-0.043077271 -0.12911873 -0.17881721
-0.043077346 -0.12903987 -0.17876543
-0.043075584 -0.12896414 -0.17875367
-0.043072846 -0.12888798 -0.1787619
-0.043069877 -0.12881368 -0.17877614
-0.04306661 -0.12873925 -0.1787964
-0.043063931 -0.12866509 -0.17880467
-0.043061975 -0.12858927 -0.17879689
-0.043060157 -0.12851155 -0.17878509
-0.043057967 -0.12843761 -0.17878337
-0.043055035 -0.12836134 -0.17879558
-0.043052256 -0.12828714 -0.17880584
-0.043049678 -0.12821302 -0.17881212
-0.043047331 -0.12813702 -0.17881234
-0.043044653 -0.12806286 -0.17882061
-0.04304162 -0.12798657 -0.17883483
-0.043038454 -0.12791218 -0.17885306
-0.04303515 -0.12783971 -0.17887536
-0.043032315 -0.12776351 -0.17888556
-0.043030165 -0.1276876 -0.17888181
-0.043028209 -0.12761179 -0.17887405
-0.04302635 -0.12753601 -0.17886429
-0.04302498 -0.12746046 -0.17884454
-0.043022633 -0.12738447 -0.17884478
-0.043019798 -0.12730826 -0.17885499
-0.043017216 -0.12723415 -0.17886126
-0.043014675 -0.12715806 -0.17886548
-0.043012191 -0.12708399 -0.17886975
-0.043009844 -0.12700799 -0.17886999
-0.0430074 -0.12693197 -0.1788722
-0.043004625 -0.12685776 -0.17888246
-0.043001886 -0.12678158 -0.17889068
-0.042999014 -0.12670733 -0.17890294
-0.042996235 -0.12663312 -0.17891321
-0.0429934 -0.12655692 -0.17892343
-0.042990625 -0.12648271 -0.17893368
-0.042987693 -0.12640646 -0.1789459
-0.042985208 -0.12633239 -0.17895016
-0.042982958 -0.12625644 -0.1789484
-0.042980321 -0.12618032 -0.1789546
-0.042977251 -0.12610598 -0.17897087
-0.042974513 -0.1260298 -0.17897908
-0.042972323 -0.12595586 -0.17897737
-0.042970367 -0.12588005 -0.17896959
-0.042968743 -0.12580241 -0.1789538
-0.042966984 -0.12572668 -0.17894205
-0.042964537 -0.12565064 -0.17894429
-0.042961959 -0.12557653 -0.17895055
-0.042959612 -0.12550053 -0.17895079
-0.042957067 -0.12542446 -0.17895499
-0.042954095 -0.12535016 -0.17896925
-0.042950928 -0.12527578 -0.1789875
-0.042947471 -0.12520126 -0.17901175
-0.042944305 -0.12512688 -0.17903
-0.042941272 -0.12505059 -0.17904422
-0.042938299 -0.12497629 -0.17905846
-0.042935465 -0.12490008 -0.17906867
-0.042932887 -0.12482596 -0.17907494
-0.04293083 -0.1247501 -0.17906918
-0.042928778 -0.12467424 -0.17906341
-0.042925846 -0.12459799 -0.17907563
-0.042922679 -0.12452361 -0.17909387
-0.042920195 -0.12444953 -0.17909814
-0.042919058 -0.12437211 -0.17907237
-0.042918801 -0.12429508 -0.1790286
-0.042916652 -0.12421917 -0.17902485
-0.042913776 -0.12414492 -0.17903711
-0.042910904 -0.12407067 -0.17904937
-0.042908557 -0.12399468 -0.17904958
-0.042906795 -0.12391895 -0.17903784
-0.042904448 -0.12384296 -0.17903806
-0.042901516 -0.12376671 -0.17905027
-0.042898349 -0.12369233 -0.17906854
-0.042894889 -0.12361781 -0.17909276
-0.042892933 -0.123542 -0.17908502
-0.042890195 -0.12346584 -0.17909321
-0.042886835 -0.12339136 -0.17911547
-0.042883959 -0.12331711 -0.17912772
-0.042881943 -0.12323929 -0.17911991
-0.042879853 -0.12316539 -0.1791162
-0.042877115 -0.12308922 -0.17912441
-0.042875059 -0.12301337 -0.17911866
-0.042873006 -0.12293751 -0.1791129
-0.042869743 -0.12286308 -0.17913315
-0.042866908 -0.12278687 -0.17914335
-0.042865049 -0.1227111 -0.17913359
-0.042863876 -0.12263563 -0.17910987
-0.042862602 -0.12256013 -0.17908812
-0.042860255 -0.12248413 -0.17908835
-0.042857323 -0.12240788 -0.17910057
-0.042854585 -0.12233172 -0.17910877
-0.042851906 -0.12225755 -0.17911705
-0.042848837 -0.12218322 -0.1791333
-0.042846099 -0.12210705 -0.17914152
-0.042844046 -0.12203119 -0.17913575
-0.04284209 -0.12195538 -0.17912799
-0.042839743 -0.12187938 -0.17912823
-0.042836968 -0.12180518 -0.17913848
-0.042834133 -0.12172897 -0.1791487
-0.042831257 -0.12165472 -0.17916095
-0.042827837 -0.12157825 -0.17918316
-0.042824473 -0.12150378 -0.1792054
-0.042821445 -0.12142748 -0.1792196
-0.042818803 -0.12135136 -0.17922583
-0.042816613 -0.12127741 -0.1792241
-0.042814754 -0.12120164 -0.17921436
-0.042812213 -0.12112556 -0.17921858
-0.042809241 -0.12105127 -0.17923282
-0.042806406 -0.12097506 -0.17924304
-0.042803571 -0.12089885 -0.17925325
-0.042800833 -0.12082269 -0.17926148
-0.042798154 -0.12074852 -0.17926973
-0.042795319 -0.12067232 -0.17927995
-0.042792778 -0.12059624 -0.17928419
-0.042790823 -0.12052042 -0.17927641
-0.042787947 -0.12044617 -0.17928867
-0.042785015 -0.12036992 -0.17930087
-0.042783253 -0.12029419 -0.17928913
-0.042781398 -0.12021842 -0.17927937
-0.04277866 -0.12014226 -0.17928758
-0.042775296 -0.12006778 -0.17930984
-0.042772461 -0.11999158 -0.17932005
-0.042770408 -0.11991572 -0.17931429
-0.042768843 -0.11984008 -0.17929853
-0.042766593 -0.11976413 -0.17929676
-0.042762838 -0.11968949 -0.17932701
-0.042758834 -0.11961275 -0.17936118
-0.042757034 -0.11953899 -0.17935148
-0.04275658 -0.11946186 -0.17931172
-0.042754721 -0.11938609 -0.17930195
-0.042750776 -0.11931136 -0.17933619
-0.04274784 -0.11923511 -0.17934839
-0.042745691 -0.11915921 -0.17934464
-0.042742658 -0.11908291 -0.17935884
-0.04273998 -0.11900875 -0.17936711
-0.04273871 -0.11893324 -0.17934537
-0.042736262 -0.1188572 -0.1793476
-0.042733233 -0.11878091 -0.17936181
-0.042730495 -0.11870474 -0.17937002
-0.042727914 -0.11863063 -0.17937627
-0.042725567 -0.11855463 -0.17937651
-0.04272332 -0.11847869 -0.17937475
-0.042720973 -0.1184027 -0.17937496
-0.042718917 -0.11832684 -0.17936921
-0.042717256 -0.11825115 -0.17935546
-0.042715691 -0.11817551 -0.17933971
-0.042713109 -0.11810139 -0.179346
-0.042710077 -0.11802509 -0.17936018
-0.042708121 -0.11794928 -0.17935243
-0.042706557 -0.11787364 -0.17933668
-0.042705089 -0.11779805 -0.17931893
-0.042703718 -0.11772249 -0.17929919
-0.042701371 -0.1176465 -0.17929941
-0.042697854 -0.11756998 -0.17932361
-0.042695273 -0.11749586 -0.17932987
-0.042692926 -0.11741988 -0.17933011
-0.042690482 -0.11734384 -0.17933235
-0.042688135 -0.11726785 -0.17933255
-0.042685397 -0.11719169 -0.17934078
-0.042683013 -0.11711765 -0.17934306
-0.042680077 -0.1170414 -0.17935526
-0.042677242 -0.11696519 -0.17936549
-0.042674996 -0.11688925 -0.17936373
-0.042672452 -0.11681317 -0.17936794
-0.042669713 -0.11673701 -0.17937616
-0.042667367 -0.11666101 -0.17937638
-0.042665277 -0.11658711 -0.17937267
-0.042662829 -0.11651108 -0.1793749
-0.042659704 -0.11643474 -0.17939109
-0.042657256 -0.1163587 -0.17939332
-0.042654812 -0.11628267 -0.17939556
-0.042651784 -0.11620638 -0.17940976
-0.042649593 -0.11613243 -0.17940804
-0.042648263 -0.11605492 -0.17938626
-0.04264617 -0.11598102 -0.17938253
-0.04264177 -0.11590412 -0.1794247
-0.042639326 -0.11582808 -0.17942694
-0.042637859 -0.11575248 -0.17940918
-0.042636 -0.11567671 -0.17939942
-0.042633653 -0.11560072 -0.17939965
-0.042630427 -0.11552434 -0.17941785
-0.04262691 -0.11544783 -0.17944205
-0.042623643 -0.1153734 -0.1794623
-0.04262026 -0.11529497 -0.17948246
-0.042617582 -0.11522081 -0.17949072
-0.04261547 -0.11514295 -0.1794849
-0.042612597 -0.1150687 -0.17949717
-0.042608883 -0.1149921 -0.17952535
-0.042606633 -0.11491615 -0.17952359
-0.042605165 -0.11484055 -0.17950584
-0.042602621 -0.11476447 -0.17951006
-0.042600274 -0.11468849 -0.1795103
-0.042598907 -0.11461294 -0.17949055
-0.04259783 -0.11453751 -0.17946482
-0.042596128 -0.11446378 -0.1794531
-0.042593781 -0.1143878 -0.17945334
-0.042591043 -0.11431163 -0.17946155
-0.042588305 -0.11423546 -0.17946976
-0.042585958 -0.11415947 -0.17947
-0.042584002 -0.11408366 -0.17946224
-0.042581461 -0.11400758 -0.17946647
-0.042577647 -0.11393094 -0.17949665
-0.042574227 -0.11385447 -0.17951885
-0.042570356 -0.11377583 -0.17954898
-0.042566445 -0.11369914 -0.17958117
-0.042561948 -0.11362219 -0.17962533
-0.042558823 -0.11354585 -0.17964154
-0.042557158 -0.11347017 -0.17962779
-0.042555593 -0.11339453 -0.17961204
-0.042553246 -0.11331853 -0.17961228
-0.042550217 -0.11324224 -0.17962648
-0.042547867 -0.11316625 -0.1796267
-0.042546403 -0.11309066 -0.17960897
-0.042544737 -0.11301497 -0.17959522
-0.042542353 -0.11294094 -0.1795975
-0.042538773 -0.11286242 -0.17962164
-0.042535745 -0.11278613 -0.17963585
-0.042533789 -0.11271031 -0.17962807
-0.042532224 -0.11263467 -0.17961234
-0.042530522 -0.11256094 -0.17960063
-0.042528309 -0.11248304 -0.17959681
-0.042525828 -0.11240897 -0.17960109
-0.042523675 -0.11233306 -0.17959732
-0.042520195 -0.11225459 -0.17961948
-0.042515796 -0.11217768 -0.17966163
-0.042511925 -0.11209904 -0.17969178
-0.04250909 -0.11202284 -0.179702
-0.042506646 -0.11194681 -0.17970422
-0.042504102 -0.11187073 -0.17970845
-0.042501658 -0.1117947 -0.17971067
-0.042500485 -0.11171923 -0.17968693
-0.042498432 -0.11164337 -0.17968117
-0.042495988 -0.11156733 -0.17968339
-0.042492371 -0.11149078 -0.17970958
-0.042489924 -0.11141475 -0.17971182
-0.042489141 -0.11133945 -0.17968009
-0.042488221 -0.11126607 -0.17965241
-0.042486362 -0.1111903 -0.17964265
-0.042484406 -0.11111449 -0.1796349
-0.042482257 -0.11103858 -0.17963113
-0.042480495 -0.11096285 -0.17961937
-0.042479184 -0.1108893 -0.17959967
-0.04247674 -0.11081327 -0.17960191
-0.042473063 -0.11073471 -0.17962804
-0.042469546 -0.1106582 -0.17965224
-0.04246749 -0.11058234 -0.17964648
-0.042465437 -0.11050648 -0.17964071
-0.042462151 -0.11042809 -0.17965887
-0.042458631 -0.11035158 -0.17968306
-0.042455699 -0.11027534 -0.17969528
-0.042453002 -0.11019722 -0.17970145
-0.042450752 -0.11012127 -0.17969969
-0.042448856 -0.11004745 -0.17969197
-0.042447191 -0.10997177 -0.17967822
-0.042445432 -0.10989604 -0.17966646
-0.042443477 -0.10982022 -0.17965871
-0.042441618 -0.10974445 -0.17964895
-0.042440794 -0.10967112 -0.17961927
-0.0424404 -0.109596 -0.17957956
-0.042438149 -0.10952005 -0.1795778
-0.042434826 -0.10944363 -0.17959797
-0.042432383 -0.10936759 -0.17960021
-0.042430721 -0.10929191 -0.17958647
-0.042428471 -0.10921596 -0.1795847
-0.042426318 -0.10914006 -0.17958093
-0.042423874 -0.10906403 -0.17958315
-0.042421237 -0.10898791 -0.17958938
-0.042418242 -0.10890965 -0.17960154
-0.04241541 -0.10883345 -0.17961174
-0.042412572 -0.10875724 -0.17962196
-0.042409874 -0.10867912 -0.17962813
-0.04240733 -0.10860305 -0.17963237
-0.042405084 -0.10852709 -0.17963061
-0.042404164 -0.10845372 -0.17960291
-0.042403147 -0.1083803 -0.17957723
-0.042401128 -0.10830248 -0.17956942
-0.042400599 -0.10822927 -0.17953375
-0.042399388 -0.10815576 -0.17951205
-0.042397432 -0.10807995 -0.17950429
-0.042395376 -0.10800409 -0.17949852
-0.042393323 -0.10792823 -0.17949277
-0.042391524 -0.10785446 -0.17948306
-0.042389274 -0.10777851 -0.17948128
-0.042386282 -0.10770026 -0.17949346
-0.042383157 -0.10762392 -0.17950965
-0.042379968 -0.10754558 -0.17952582
-0.042377524 -0.10746955 -0.17952806
-0.042375762 -0.10739382 -0.17951629
-0.042374257 -0.10732018 -0.17950059
-0.042371556 -0.10724206 -0.17950678
-0.042367879 -0.1071635 -0.17953292
-0.042365339 -0.10708743 -0.17953713
-0.042362504 -0.10701122 -0.17954734
-0.042359803 -0.1069331 -0.17955352
-0.042358201 -0.10685942 -0.17953983
-0.04235683 -0.10678386 -0.17952007
-0.042354386 -0.10670783 -0.17952231
-0.042351745 -0.10663171 -0.17952853
-0.042348851 -0.1065535 -0.1795387
-0.042346016 -0.10647729 -0.1795489
-0.042344939 -0.10640187 -0.17952317
-0.042343333 -0.10632818 -0.17950946
-0.04234089 -0.10625215 -0.1795117
-0.042338837 -0.10617629 -0.17950593
-0.042336978 -0.10610052 -0.17949617
-0.042334184 -0.10602236 -0.17950433
-0.042331345 -0.10594615 -0.17951456
-0.042328708 -0.10587003 -0.17952079
-0.042326104 -0.10579196 -0.17952496
-0.042322528 -0.10571344 -0.1795491
-0.042319596 -0.10563719 -0.17956132
-0.042317346 -0.10556124 -0.17955954
-0.042314451 -0.10548304 -0.17956972
-0.04231181 -0.10540692 -0.17957594
-0.042309366 -0.10533088 -0.17957816
-0.04230696 -0.1052529 -0.17957833
-0.042307176 -0.10518199 -0.17952874
-0.042306449 -0.1051087 -0.17949706
-0.04230459 -0.10503293 -0.1794873
-0.042303868 -0.10495964 -0.17945562
-0.042302106 -0.10488391 -0.17944387
-0.042300016 -0.10481001 -0.17944014
-0.042298447 -0.10473436 -0.17942441
-0.042296689 -0.10465863 -0.17941265
-0.042294145 -0.10458256 -0.17941687
-0.042291701 -0.10450652 -0.1794191
-0.042290136 -0.10443088 -0.17940333
-0.042289019 -0.10435741 -0.17937967
-0.04228726 -0.10428169 -0.1793679
-0.04228507 -0.10420774 -0.17936617
-0.042282566 -0.10412971 -0.17936836
-0.042280022 -0.10405363 -0.17937259
-0.042277578 -0.1039776 -0.17937481
-0.042274587 -0.10389934 -0.17938697
-0.042272337 -0.1038234 -0.17938522
-0.04227132 -0.10374998 -0.17935953
-0.042270791 -0.10367677 -0.17932385
-0.042270713 -0.10360574 -0.17928024
-0.042269439 -0.10353023 -0.1792585
-0.042267542 -0.10345641 -0.17925078
-0.042265587 -0.1033806 -0.17924303
-0.042263433 -0.10330469 -0.17923926
-0.042260345 -0.1032264 -0.17925343
-0.042256866 -0.10314793 -0.17927557
-0.042255748 -0.10307446 -0.17925188
-0.042255122 -0.10300121 -0.1792182
-0.042252228 -0.10292301 -0.17922837
-0.042247966 -0.10284419 -0.1792665
-0.04224591 -0.10276833 -0.17926073
-0.042243212 -0.10269021 -0.1792669
-0.042240866 -0.10261422 -0.17926714
-0.042238422 -0.10253819 -0.17926937
-0.042236075 -0.1024622 -0.17926958
-0.04223441 -0.10238652 -0.17925584
-0.042232454 -0.1023107 -0.17924809
-0.042228781 -0.10223214 -0.17927423
-0.042225044 -0.10215159 -0.17930034
-0.042223245 -0.10207782 -0.17929062
-0.042223655 -0.102007 -0.17923701
-0.042222537 -0.10193354 -0.17921333
-0.04222152 -0.10186011 -0.17918763
-0.042220112 -0.10178651 -0.17916994
-0.042217802 -0.10170857 -0.17916813
-0.042215809 -0.10163471 -0.17916241
-0.042213462 -0.10155872 -0.17916265
-0.042211253 -0.10148081 -0.17915884
-0.042209942 -0.10140726 -0.17913914
-0.042207889 -0.1013314 -0.17913336
-0.042204954 -0.10125515 -0.17914557
-0.042202704 -0.1011792 -0.17914382
-0.042201236 -0.1011036 -0.17912607
-0.042199634 -0.10102992 -0.17911236
-0.042197227 -0.10095193 -0.17911255
-0.042194586 -0.10087581 -0.17911875
-0.04219263 -0.10079999 -0.179111
-0.042190872 -0.10072426 -0.17909926
-0.042188779 -0.10065037 -0.17909554
-0.042186569 -0.10057247 -0.17909172
-0.042184964 -0.10049878 -0.17907801
-0.0421842 -0.10042744 -0.17904839
-0.042186134 -0.10035928 -0.17896485
-0.042184044 -0.10028537 -0.17896116
-0.042182088 -0.10020956 -0.17895339
-0.042180032 -0.1001337 -0.17894763
-0.042179368 -0.1000624 -0.17891599
-0.042178288 -0.099986985 -0.17889026
-0.042174809 -0.099908516 -0.1789124
-0.042171329 -0.099830046 -0.17893457
-0.042168729 -0.099751972 -0.17893875
-0.042166732 -0.099678107 -0.17893302
-0.042166106 -0.09960486 -0.17889935
-0.042164795 -0.099531308 -0.17887965
-0.042162545 -0.099455357 -0.17887789
-0.042160198 -0.099379368 -0.17887813
-0.042158242 -0.099303558 -0.17887035
-0.042156287 -0.099227741 -0.1788626
-0.042154294 -0.099153876 -0.17885688
-0.042151399 -0.099075668 -0.17886704
-0.042149246 -0.098999768 -0.17886329
-0.042148031 -0.098926261 -0.17884159
-0.042147562 -0.098855048 -0.17880595
-0.042146645 -0.098781668 -0.17877828
-0.042143553 -0.098703377 -0.17879245
-0.042140912 -0.098627254 -0.17879866
-0.042138763 -0.098551355 -0.17879489
-0.042136163 -0.098473273 -0.17879908
-0.042132974 -0.098394938 -0.17881523
-0.042131018 -0.098319128 -0.17880748
-0.042129513 -0.098245487 -0.17879176
-0.042128004 -0.098171838 -0.17877606
-0.042125951 -0.098095983 -0.1787703
-0.042123701 -0.098020032 -0.17876855
-0.042121746 -0.097944222 -0.17876077
-0.042120043 -0.097870491 -0.17874907
-0.042118087 -0.097794674 -0.17874131
-0.042115547 -0.097718596 -0.17874554
-0.042111911 -0.097638085 -0.17876965
-0.042108916 -0.097559839 -0.17878181
-0.04210696 -0.097484022 -0.17877403
-0.042106003 -0.097412594 -0.1787484
-0.042106215 -0.097341694 -0.17869879
-0.042105552 -0.097270399 -0.17866716
-0.042103007 -0.097194321 -0.17867139
-0.042100564 -0.097118288 -0.17867361
-0.042098705 -0.097042516 -0.17866385
-0.042096749 -0.096966699 -0.1786561
-0.042094696 -0.096890844 -0.17865033
-0.042092446 -0.096814901 -0.17864856
-0.042089358 -0.096736602 -0.17866272
-0.04208662 -0.096660435 -0.17867094
-0.042085208 -0.096586838 -0.17865324
-0.042083997 -0.096513331 -0.17863154
-0.042081747 -0.09643738 -0.17862979
-0.04207895 -0.096359223 -0.17863795
-0.042075861 -0.096280925 -0.17865211
-0.042073261 -0.09620285 -0.17865628
-0.042070914 -0.096126862 -0.17865652
-0.042068761 -0.096050955 -0.17865276
-0.042066123 -0.095974833 -0.17865899
-0.042062778 -0.095894456 -0.17867708
-0.04205969 -0.095816165 -0.17869125
-0.042057987 -0.095742434 -0.17867956
-0.042056773 -0.095668927 -0.17865784
-0.042055268 -0.095595285 -0.17864215
-0.042054251 -0.09552186 -0.17861646
-0.042053193 -0.095450386 -0.17859282
-0.042050943 -0.095374443 -0.17859104
-0.042048734 -0.095296539 -0.17858723
-0.04204664 -0.095222637 -0.17858352
-0.042042457 -0.095139906 -0.17861757
-0.042039815 -0.095063791 -0.17862378
-0.042037565 -0.094987839 -0.17862201
-0.04203571 -0.094912075 -0.17861226
-0.042034496 -0.09483856 -0.17859057
-0.042032987 -0.094764918 -0.17857486
-0.042030193 -0.094686754 -0.17858303
-0.042027455 -0.094610594 -0.17859125
-0.042024855 -0.09453252 -0.17859542
-0.042022604 -0.094456568 -0.17859367
-0.042019866 -0.094380409 -0.17860188
-0.042017169 -0.094302282 -0.17860804
-0.042014666 -0.094224252 -0.17861024
-0.04201306 -0.094150566 -0.17859653
-0.042013139 -0.094081581 -0.17855096
-0.042012081 -0.094010107 -0.17852731
-0.042010967 -0.093936637 -0.17850363
-0.042010009 -0.093865216 -0.17847797
-0.042007759 -0.093789265 -0.17847621
-0.04200412 -0.093708754 -0.17850032
-0.042000677 -0.093628332 -0.17852043
-0.041998137 -0.093552262 -0.17852464
-0.041995633 -0.093474224 -0.17852682
-0.041992836 -0.093396068 -0.178535
-0.041990489 -0.093320072 -0.17853522
-0.041988496 -0.093246214 -0.1785295
-0.041986186 -0.093168274 -0.1785277
-0.041983645 -0.093092188 -0.17853191
-0.041981395 -0.093016244 -0.17853016
-0.041978694 -0.092938125 -0.17853633
-0.041975509 -0.09285979 -0.17855248
-0.041972712 -0.092781626 -0.17856064
-0.041970659 -0.092705771 -0.17855489
-0.041968703 -0.092629954 -0.17854714
-0.041967254 -0.092558309 -0.17853148
-0.04196649 -0.09248697 -0.17850184
-0.04196528 -0.092413455 -0.17848015
-0.041962933 -0.092337467 -0.17848039
-0.041960135 -0.092259303 -0.17848855
-0.041957982 -0.092183404 -0.17848478
-0.042964257 -0.13981558 -0.17786978
-0.042963453 -0.13973634 -0.17783597
-0.042963371 -0.13965544 -0.17778614
-0.042964868 -0.13956933 -0.17770019
-0.042963769 -0.13948996 -0.17767239
-0.04296273 -0.13941258 -0.17764461
-0.042961437 -0.13933311 -0.17762077
-0.042960927 -0.139254 -0.17758095
-0.042959925 -0.13917467 -0.17755115
-0.042957969 -0.13909885 -0.17754339
-0.042955779 -0.1390249 -0.17754167
-0.042953335 -0.13894887 -0.17754388
-0.042950854 -0.1388748 -0.17754817
-0.042948797 -0.13879894 -0.1775424
-0.042946842 -0.13872312 -0.17753464
-0.042944457 -0.13864908 -0.1775369
-0.042941544 -0.13857679 -0.17755121
-0.042938143 -0.13850427 -0.1775755
-0.042935368 -0.13843006 -0.17758575
-0.042933177 -0.13835612 -0.17758404
-0.042930499 -0.13828194 -0.17759231
-0.042927589 -0.13820966 -0.17760661
-0.042925242 -0.13813366 -0.17760682
-0.042922463 -0.13805945 -0.1776171
-0.042919748 -0.13798724 -0.17762741
-0.042917363 -0.13791321 -0.17762968
-0.042914391 -0.13783891 -0.17764392
-0.042910952 -0.13776834 -0.17767027
-0.042907357 -0.13769574 -0.17769855
-0.042904347 -0.1376234 -0.17771484
-0.042901374 -0.1375491 -0.1777291
-0.042897876 -0.13747655 -0.17775539
-0.042894244 -0.1374059 -0.17778572
-0.042891037 -0.13733347 -0.17780602
-0.042888556 -0.13725939 -0.17781028
-0.042885974 -0.13718528 -0.17781654
-0.042882867 -0.13711289 -0.17783484
-0.042879172 -0.13704024 -0.17786512
-0.042875439 -0.13696955 -0.17789744
-0.042872958 -0.13689548 -0.17790172
-0.042870708 -0.13681953 -0.17789994
-0.042867932 -0.13674532 -0.17791021
-0.042864922 -0.13667297 -0.1779265
-0.04286205 -0.13659872 -0.17793876
-0.042858843 -0.13652629 -0.17795905
-0.042855442 -0.13645378 -0.17798334
-0.042852569 -0.13637953 -0.17799559
-0.042850282 -0.13630553 -0.17799586
-0.042847507 -0.13623133 -0.17800614
-0.042844396 -0.13615894 -0.17802443
-0.042840999 -0.13608642 -0.17804873
-0.042837832 -0.13601205 -0.17806697
-0.042835113 -0.13593984 -0.17807728
-0.042832144 -0.13586554 -0.17809153
-0.042828973 -0.13579115 -0.17810979
-0.042826258 -0.13571894 -0.17812009
-0.042823482 -0.13564473 -0.17813036
-0.042820316 -0.13557035 -0.1781486
-0.04281754 -0.13549614 -0.17815886
-0.042815056 -0.13542205 -0.17816314
-0.042812377 -0.13534789 -0.1781714
-0.042809602 -0.13527368 -0.17818165
-0.042806923 -0.13519952 -0.17818992
-0.042804383 -0.13512345 -0.17819415
-0.042801604 -0.13504924 -0.17820442
-0.042798791 -0.13497698 -0.17821671
-0.042795956 -0.13490076 -0.17822693
-0.042793669 -0.13482678 -0.1782272
-0.042791516 -0.13475087 -0.17822345
-0.042788837 -0.13467671 -0.1782317
-0.042785965 -0.13460246 -0.17824396
-0.042783089 -0.1345282 -0.17825621
-0.042780217 -0.13445395 -0.17826848
-0.042776816 -0.13438144 -0.17829277
-0.042773612 -0.13430901 -0.17831306
-0.042771168 -0.13423297 -0.17831528
-0.042768195 -0.13415867 -0.17832954
-0.042764891 -0.13408621 -0.17835182
-0.042762309 -0.13401209 -0.17835809
-0.042760491 -0.13393435 -0.17834631
-0.04275883 -0.13385868 -0.17833255
-0.042756286 -0.1337826 -0.17833677
-0.04275357 -0.13371038 -0.17834708
-0.042750832 -0.13363422 -0.17835529
-0.042748347 -0.13356014 -0.17835957
-0.042746197 -0.13348424 -0.17835581
-0.042744044 -0.13340834 -0.17835203
-0.042741563 -0.13333426 -0.1783563
-0.042738922 -0.13325813 -0.17836252
-0.04273634 -0.13318402 -0.17836879
-0.042733468 -0.13310976 -0.17838106
-0.042730592 -0.13303551 -0.1783933
-0.042727623 -0.13296121 -0.17840756
-0.042724416 -0.13288878 -0.17842786
-0.042720959 -0.13281427 -0.1784521
-0.042717949 -0.13274193 -0.17846841
-0.042715114 -0.13266572 -0.17847861
-0.0427122 -0.13259342 -0.17849292
-0.042708643 -0.13251886 -0.17851916
-0.042705867 -0.13244465 -0.17852941
-0.042704828 -0.13236728 -0.17850164
-0.042703498 -0.13228977 -0.17847985
-0.04270082 -0.1322156 -0.17848811
-0.042697065 -0.13214096 -0.17851835
-0.042694487 -0.13206685 -0.17852461
-0.042692296 -0.13199289 -0.1785229
-0.04269018 -0.13191503 -0.17851709
-0.042687211 -0.13184074 -0.17853135
-0.042684045 -0.13176635 -0.17854959
-0.042681269 -0.13169214 -0.17855985
-0.04267849 -0.13161793 -0.17857012
-0.042675521 -0.13154364 -0.17858437
-0.042672355 -0.13146925 -0.17860262
-0.042669773 -0.13139513 -0.17860889
-0.042667232 -0.13131906 -0.1786131
-0.042664319 -0.13124676 -0.1786274
-0.042661384 -0.13117051 -0.17863962
-0.042658709 -0.13109633 -0.17864789
-0.042655345 -0.13102187 -0.17867014
-0.042652238 -0.13094948 -0.17868842
-0.042649791 -0.13087346 -0.17869064
-0.042647544 -0.13079751 -0.17868888
-0.042645391 -0.1307216 -0.17868513
-0.042643338 -0.13064575 -0.17867936
-0.04264148 -0.13056998 -0.1786696
-0.042639524 -0.13049416 -0.17866184
-0.042636845 -0.13042 -0.17867011
-0.042633776 -0.13034566 -0.17868635
-0.042630646 -0.13026932 -0.17870256
-0.042627774 -0.13019507 -0.17871483
-0.042624999 -0.13012086 -0.17872509
-0.04262232 -0.13004668 -0.17873335
-0.042619545 -0.12997247 -0.1787436
-0.042617001 -0.1298964 -0.17874783
-0.04261557 -0.12981884 -0.17872804
-0.042613909 -0.12974316 -0.17871431
-0.042611036 -0.12966891 -0.17872655
-0.042607769 -0.12959449 -0.17874679
-0.042605422 -0.12951849 -0.17874703
-0.042602941 -0.12944442 -0.17875129
-0.042599577 -0.12936994 -0.17877355
-0.042596314 -0.12929551 -0.17879379
-0.042594165 -0.12921962 -0.17879003
-0.042592011 -0.12914371 -0.17878625
-0.042589858 -0.12906781 -0.17878249
-0.042587806 -0.12899195 -0.17877674
-0.042586278 -0.12891436 -0.17875895
-0.042584185 -0.12884045 -0.17875522
-0.042581059 -0.12876411 -0.17877144
-0.042578086 -0.12868981 -0.17878568
-0.042575311 -0.1286156 -0.17879595
-0.042572241 -0.12854126 -0.17881221
-0.042569503 -0.1284651 -0.17882042
-0.042567547 -0.12838928 -0.17881265
-0.042566177 -0.12831374 -0.17879292
-0.042564221 -0.12823792 -0.17878515
-0.042561583 -0.1281618 -0.17879137
-0.042558804 -0.1280876 -0.17880164
-0.042555872 -0.12801133 -0.17881384
-0.042553097 -0.12793712 -0.17882411
-0.042550221 -0.12786287 -0.17883638
