# .PCD v0.7 - Point Cloud Data file format
VERSION 0.7
FIELDS x y z
SIZE 4 4 4
TYPE F F F
COUNT 1 1 1
WIDTH 1144
HEIGHT 1
VIEWPOINT 0 0 0 1 0 0 0
POINTS 1144
DATA ascii
-0.058492359 -0.040232807 -0.17943528
-0.058463927 -0.040232047 -0.18002471
-0.058450956 -0.040271662 -0.18031937
-0.05846221 -0.040231034 -0.18002391
-0.058449231 -0.040270649 -0.18031853
-0.058488853 -0.040230915 -0.17944115
-0.058460519 -0.040230196 -0.18002859
-0.058447737 -0.040269896 -0.18031925
-0.058487043 -0.040230066 -0.17944586
-0.058459003 -0.040229481 -0.18002731
-0.058445733 -0.040268961 -0.18032795
-0.058487192 -0.040230952 -0.1794441
-0.058459051 -0.040230323 -0.18002756
-0.058445722 -0.04026781 -0.18032816
-0.058488321 -0.040232159 -0.179444
-0.058460176 -0.040231526 -0.18002744
-0.058447104 -0.040271096 -0.18032408
-0.058459036 -0.040219024 -0.1801168
-0.058466148 -0.040308952 -0.18002698
-0.058469255 -0.040387243 -0.18001281
-0.058491997 -0.040231593 -0.17944373
-0.05846376 -0.040230922 -0.18002918
-0.058450688 -0.040270492 -0.18032581
-0.058491915 -0.040231556 -0.17944573
-0.058463581 -0.040230837 -0.18003318
-0.058450606 -0.040270448 -0.1803278
-0.058491793 -0.04022947 -0.17944992
-0.058463812 -0.040230881 -0.18003142
-0.058450639 -0.04027041 -0.18033004
-0.058463916 -0.04023087 -0.18002942
-0.058450941 -0.040270485 -0.18032405
-0.058462135 -0.040229581 -0.18002594
-0.058464658 -0.040307611 -0.18002374
-0.058467962 -0.040385991 -0.18000558
-0.058491498 -0.040228769 -0.17946082
-0.058464296 -0.040230528 -0.18002634
-0.058451321 -0.040270142 -0.18032098
-0.058492351 -0.040232349 -0.17943314
-0.058463819 -0.040231548 -0.18002456
-0.058450844 -0.040271163 -0.1803192
-0.058491968 -0.040232524 -0.17944123
-0.058463633 -0.040231809 -0.18002868
-0.058450561 -0.040271379 -0.1803253
-0.058465369 -0.040231682 -0.18002656
-0.0584522 -0.040271208 -0.18032521
-0.058460962 -0.040219426 -0.18011397
-0.058468074 -0.040309347 -0.18002415
-0.05847257 -0.040392198 -0.17998409
-0.058490422 -0.040229388 -0.17945236
-0.058462832 -0.040230975 -0.18002588
-0.058449857 -0.040270589 -0.1803205
-0.058492564 -0.040234793 -0.17943406
-0.058463935 -0.040233947 -0.18002748
-0.058451153 -0.040273648 -0.18031815
-0.058490172 -0.040231712 -0.17944203
-0.058461938 -0.040231038 -0.18002748
-0.058448963 -0.040270653 -0.18032213
-0.058486264 -0.040230371 -0.1794484
-0.058458574 -0.040231913 -0.18002389
-0.058445305 -0.040271398 -0.18032454
-0.058459438 -0.040230475 -0.18002602
-0.058462057 -0.040308546 -0.18002182
-0.058461986 -0.040228654 -0.18002687
-0.058449205 -0.040268354 -0.18031752
-0.058492258 -0.040229864 -0.17943004
-0.058463436 -0.040228933 -0.18002746
-0.058450852 -0.040268719 -0.18031412
-0.05849373 -0.040231477 -0.17943367
-0.058465198 -0.040230677 -0.18002512
-0.058452707 -0.040270507 -0.18030977
-0.058492064 -0.040232666 -0.17944454
-0.05846392 -0.04023204 -0.18002799
-0.058450848 -0.04027161 -0.18032461
-0.058457505 -0.040220585 -0.18011299
-0.058464654 -0.040308557 -0.18002111
-0.058466244 -0.040230632 -0.18002599
-0.058453172 -0.040270202 -0.18032265
-0.058495697 -0.040231135 -0.1794357
-0.058467265 -0.040230379 -0.18002513
-0.058454484 -0.040270075 -0.18031578
-0.058492802 -0.040231004 -0.17942733
-0.05846398 -0.040230073 -0.18002474
-0.058451295 -0.040269818 -0.18031341
-0.0584893 -0.040231366 -0.17943451
-0.058460768 -0.040230565 -0.18002594
-0.05844789 -0.040270217 -0.18031859
-0.058457807 -0.040221877 -0.18010998
-0.058464669 -0.04030972 -0.18002409
-0.05845971 -0.04022212 -0.18011165
-0.058466766 -0.040310048 -0.18002176
-0.058495507 -0.040228717 -0.17943691
-0.058466878 -0.040227868 -0.18003035
-0.058454193 -0.040267609 -0.18031898
-0.05849519 -0.040230602 -0.17943507
-0.058466561 -0.040229753 -0.1800285
-0.058453977 -0.040269539 -0.18031515
-0.058491841 -0.040231053 -0.17943615
-0.058463216 -0.040230207 -0.18002959
-0.058450531 -0.040269949 -0.18031824
-0.058463015 -0.040230624 -0.18002981
-0.058450039 -0.040270239 -0.18032447
-0.058461435 -0.040222228 -0.1801153
-0.058468491 -0.040310156 -0.1800254
-0.058495525 -0.04023432 -0.17944703
-0.058467481 -0.040233735 -0.18002847
-0.058454506 -0.040273346 -0.18032312
-0.058490653 -0.040235318 -0.17943302
-0.058451023 -0.040207908 -0.18023765
-0.058449633 -0.040274344 -0.18030912
-0.058494531 -0.040232476 -0.17943111
-0.058465805 -0.040231589 -0.18002653
-0.058453023 -0.04027129 -0.18031718
-0.058464646 -0.040231194 -0.18002801
-0.058451768 -0.04027085 -0.18032065
-0.058459472 -0.040221341 -0.18011338
-0.058466524 -0.040309269 -0.18002349
-0.058491584 -0.040231891 -0.17944416
-0.05846354 -0.040231302 -0.18002561
-0.058450274 -0.04027079 -0.18032625
-0.058491688 -0.040232159 -0.17943645
-0.058463257 -0.040231399 -0.18002588
-0.058450479 -0.040271103 -0.18031654
-0.058491901 -0.040233091 -0.17943271
-0.058463275 -0.040232249 -0.18002613
-0.058450498 -0.040271945 -0.18031678
-0.058463763 -0.040233407 -0.18002632
-0.058450691 -0.040272977 -0.18032297
-0.058463935 -0.040231392 -0.18002674
-0.058450863 -0.040270962 -0.18032339
-0.058491219 -0.040230077 -0.17945418
-0.058463626 -0.04023166 -0.18002769
-0.05845055 -0.04027123 -0.18032433
-0.058492064 -0.040232778 -0.17943531
-0.058463529 -0.040231977 -0.18002674
-0.058450554 -0.040271591 -0.1803214
-0.058491357 -0.040232606 -0.17943248
-0.058462724 -0.040231761 -0.18002591
-0.058449943 -0.040271461 -0.18031655
-0.058489949 -0.040229961 -0.17945498
-0.058462355 -0.040231545 -0.1800285
-0.058449477 -0.0402712 -0.18032113
-0.058491725 -0.040231455 -0.17944448
-0.058463484 -0.040230788 -0.18002991
-0.058450703 -0.040270489 -0.18032056
-0.05846405 -0.040232949 -0.18002197
-0.058450721 -0.040270437 -0.18032257
-0.058463909 -0.040230766 -0.18002582
-0.05845093 -0.040270381 -0.18032046
-0.058492165 -0.040231377 -0.17944238
-0.058463827 -0.040230669 -0.18002982
-0.058451239 -0.040270455 -0.18031648
-0.058492571 -0.04023144 -0.17943628
-0.058464136 -0.040230684 -0.18002573
-0.058450963 -0.040270217 -0.18032436
-0.058491919 -0.040229093 -0.1794425
-0.058463775 -0.040228467 -0.18002594
-0.058450799 -0.040268086 -0.18032058
-0.058492135 -0.040227458 -0.17944425
-0.058464088 -0.040226877 -0.1800257
-0.05845131 -0.040266581 -0.18031634
-0.058452848 -0.04022887 -0.18002063
-0.058439676 -0.040268399 -0.18031925
-0.058387529 -0.040224425 -0.18006152
-0.058393996 -0.040312093 -0.17998362
-0.058396418 -0.040390082 -0.17998342
-0.058192071 -0.040172119 -0.18052441
-0.058193944 -0.040247891 -0.18053415
-0.058197107 -0.040328182 -0.18052003
-0.05797435 -0.040191621 -0.18035945
-0.054484937 -0.033602219 -0.17621817
-0.054486856 -0.033676036 -0.17622587
-0.054488964 -0.033749942 -0.17622957
-0.054492272 -0.033828318 -0.17621142
-0.054494895 -0.033906393 -0.17620721
-0.054497004 -0.033980295 -0.17621091
-0.054499373 -0.034056284 -0.17621067
-0.054502189 -0.034134448 -0.17620248
-0.054505691 -0.03421291 -0.17618033
-0.054508153 -0.034288943 -0.17617807
-0.054510325 -0.034364842 -0.17618182
-0.054512341 -0.034438703 -0.17618753
-0.054514162 -0.034512479 -0.17619723
-0.054516625 -0.034588508 -0.176195
-0.054519989 -0.034668885 -0.17617688
-0.054522648 -0.034745004 -0.17617063
-0.054524567 -0.034818821 -0.17617834
-0.054526933 -0.034894809 -0.1761781
-0.054529689 -0.034970973 -0.17616986
-0.0545329 -0.035049304 -0.17615369
-0.05453546 -0.035125382 -0.17614946
-0.054537185 -0.035199113 -0.17616114
-0.054539159 -0.03527493 -0.17616889
-0.054681785 -0.038639426 -0.17537341
-0.054685831 -0.038720101 -0.17534129
-0.054688882 -0.038796395 -0.17532706
-0.054691993 -0.038874686 -0.17531289
-0.054694846 -0.03895089 -0.17530267
-0.054697704 -0.039027095 -0.17529243
-0.054700069 -0.039103083 -0.17529219
-0.054701634 -0.039174777 -0.17530584
-0.054703452 -0.039248548 -0.17531553
-0.054705273 -0.039322324 -0.17532524
-0.05470635 -0.039393798 -0.17534888
-0.054087069 -0.032926351 -0.17627321
-0.054089338 -0.033002295 -0.17627497
-0.054092355 -0.033080541 -0.1762628
-0.054096013 -0.033161048 -0.17623869
-0.054098126 -0.033234946 -0.17624238
-0.054099362 -0.033308465 -0.17626405
-0.054101378 -0.033382326 -0.17626977
-0.054104235 -0.033458531 -0.17625953
-0.054106507 -0.033534475 -0.17626128
-0.054108232 -0.033608206 -0.17627299
-0.054109856 -0.033681896 -0.17628667
-0.054111227 -0.033753499 -0.17630431
-0.054114047 -0.033831656 -0.17629611
-0.054117903 -0.033912249 -0.17626801
-0.054120563 -0.033988371 -0.17626178
-0.054122642 -0.034064226 -0.17626752
-0.054125011 -0.034140214 -0.17626727
-0.054128513 -0.034218676 -0.17624512
-0.054131526 -0.03429693 -0.17623293
-0.054135382 -0.034377519 -0.17620482
-0.054139137 -0.034458064 -0.17617871
-0.054141253 -0.03453197 -0.1761824
-0.054142624 -0.034603573 -0.17620006
-0.054144699 -0.034679431 -0.17620581
-0.054146327 -0.034753121 -0.17621949
-0.054148342 -0.034826983 -0.17622519
-0.054151062 -0.034905098 -0.17621902
-0.054153726 -0.034981217 -0.17621277
-0.054156385 -0.035057336 -0.17620653
-0.054158852 -0.035133369 -0.17620429
-0.05416093 -0.035209224 -0.17621005
-0.05416324 -0.035283215 -0.17620975
-0.054166157 -0.03536142 -0.17619957
-0.054170206 -0.035442099 -0.17616746
-0.054174803 -0.03552499 -0.17612542
-0.054178208 -0.035603411 -0.17610526
-0.054181121 -0.035681613 -0.17609507
-0.054184176 -0.035757907 -0.17608085
-0.054186996 -0.035836067 -0.17607266
-0.054189108 -0.035909969 -0.17607637
-0.054191574 -0.035986003 -0.17607412
-0.054193944 -0.036061991 -0.17607388
-0.054196313 -0.036137979 -0.17607364
-0.054199718 -0.036216401 -0.17605346
-0.05420367 -0.036297034 -0.17602336
-0.054206975 -0.036375411 -0.17600518
-0.054209992 -0.036453657 -0.17599301
-0.054213393 -0.036532074 -0.17597285
-0.054216348 -0.036608327 -0.17596062
-0.054219168 -0.036686484 -0.17595243
-0.054222025 -0.036762692 -0.1759422
-0.054224689 -0.036838807 -0.17593597
-0.054226957 -0.036914755 -0.17593771
-0.054229621 -0.036990874 -0.17593148
-0.054233573 -0.037071507 -0.17590137
-0.054243114 -0.037168421 -0.17576575
-0.054247104 -0.037247099 -0.1757336
-0.054251056 -0.037327733 -0.17570348
-0.054254718 -0.03740824 -0.17567936
-0.05425806 -0.037484661 -0.17565915
-0.054260977 -0.037562862 -0.17564897
-0.054263737 -0.037639026 -0.17564073
-0.054269213 -0.037722304 -0.17558071
-0.054273359 -0.037803028 -0.17554662
-0.054276019 -0.037879147 -0.17554039
-0.054279037 -0.037957393 -0.1755282
-0.054282442 -0.03803581 -0.17550804
-0.054286137 -0.038114361 -0.17548187
-0.054289445 -0.038192738 -0.17546371
-0.054292299 -0.038268946 -0.17545347
-0.05429551 -0.038347274 -0.1754373
-0.054298367 -0.038423482 -0.17542706
-0.05430093 -0.038499556 -0.17542283
-0.054303497 -0.038575634 -0.17541859
-0.054307193 -0.038654182 -0.17539245
-0.054311827 -0.038735118 -0.17534834
-0.054315329 -0.03881358 -0.17532617
-0.054318637 -0.038891956 -0.17530802
-0.054322042 -0.038970377 -0.17528784
-0.054324798 -0.039046541 -0.17527962
-0.054326426 -0.039120227 -0.1752933
-0.054327797 -0.039191831 -0.17531094
-0.054329365 -0.039263517 -0.17532459
-0.054331087 -0.039337251 -0.17533627
-0.054332618 -0.039410893 -0.17535196
-0.054333694 -0.03948237 -0.1753756
-0.054334871 -0.039553884 -0.17539722
-0.05433546 -0.039625145 -0.17543083
-0.054335602 -0.039694227 -0.17547241
-0.054335099 -0.039761059 -0.1755259
-0.054334555 -0.039829843 -0.17558144
-0.054334149 -0.039896712 -0.17563292
-0.054334097 -0.039965712 -0.17567849
-0.0538106 -0.032841899 -0.1763733
-0.053813774 -0.032922186 -0.17635916
-0.053816535 -0.032998346 -0.17635094
-0.053819101 -0.033074424 -0.17634669
-0.053821471 -0.033150412 -0.17634645
-0.053824488 -0.033228658 -0.17633426
-0.053827405 -0.033306859 -0.17632408
-0.05382923 -0.033380635 -0.17633379
-0.053830698 -0.03345228 -0.17634943
-0.053833067 -0.033528272 -0.17634918
-0.053835344 -0.03360422 -0.17635092
-0.053836972 -0.033677906 -0.17636462
-0.053838342 -0.033749506 -0.17638226
-0.053840324 -0.033825323 -0.17639001
-0.05384215 -0.033899099 -0.17639971
-0.053845104 -0.033975348 -0.17638747
-0.053848825 -0.034057848 -0.17636341
-0.053851232 -0.034131885 -0.17636111
-0.053854443 -0.03421022 -0.17634495
-0.053857461 -0.034288466 -0.17633276
-0.053860281 -0.034366623 -0.17632458
-0.053863879 -0.034445129 -0.17630042
-0.053866796 -0.034523331 -0.17629023
-0.053869266 -0.034599364 -0.17628798
-0.053872183 -0.034677565 -0.17627782
-0.053874847 -0.034753688 -0.17627157
-0.05387751 -0.034829807 -0.17626533
-0.053880624 -0.034908094 -0.17625116
-0.053883288 -0.034984216 -0.17624493
-0.05388556 -0.03506016 -0.17624667
-0.053887483 -0.035133976 -0.17625436
-0.053889364 -0.035209753 -0.17626411
-0.053891286 -0.035283566 -0.17627183
-0.053893499 -0.035357516 -0.17627352
-0.053896513 -0.035435762 -0.17626134
-0.053900369 -0.035516351 -0.17623323
-0.05390542 -0.035601415 -0.17618324
-0.053908825 -0.035679832 -0.17616308
-0.053911485 -0.035755955 -0.17615685
-0.053914893 -0.035834372 -0.17613667
-0.053918298 -0.035912789 -0.1761165
-0.053920925 -0.035990864 -0.17611231
-0.053923041 -0.036064774 -0.17611602
-0.053925507 -0.036140803 -0.17611377
-0.053928912 -0.036219224 -0.17609361
-0.05393232 -0.036297642 -0.17607343
-0.053935882 -0.036378101 -0.17605132
-0.053939093 -0.036456436 -0.17603514
-0.053941756 -0.036532555 -0.17602891
-0.053944126 -0.036608543 -0.17602867
-0.053946789 -0.036684662 -0.17602244
-0.053950392 -0.036763169 -0.17599827
-0.053953953 -0.036843628 -0.17597614
-0.053956363 -0.036917664 -0.17597386
-0.053958442 -0.036993522 -0.1759796
-0.053960361 -0.037067339 -0.1759873
-0.053975828 -0.037249707 -0.17578371
-0.053979136 -0.037328079 -0.17576554
-0.053983189 -0.037408758 -0.17573342
-0.053986982 -0.03748735 -0.17570528
-0.053989805 -0.037565511 -0.17569709
-0.053992212 -0.037639543 -0.17569479
-0.053994779 -0.037715621 -0.17569056
-0.053997792 -0.037793867 -0.17567837
-0.054002527 -0.037874844 -0.1756323
-0.054007869 -0.037960038 -0.17557631
-0.054011762 -0.038038675 -0.17554617
-0.054014973 -0.038117006 -0.17552999
-0.054018378 -0.038195424 -0.17550981
-0.054021783 -0.038273845 -0.17548965
-0.05402464 -0.038350053 -0.17547941
-0.05402711 -0.038426083 -0.17547718
-0.054029871 -0.038502246 -0.17546895
-0.054032985 -0.038580533 -0.17545477
-0.054036584 -0.03865904 -0.1754306
-0.054040283 -0.038737588 -0.17540444
-0.054043982 -0.038816139 -0.17537828
-0.054047681 -0.038894691 -0.17535213
-0.054050695 -0.038972933 -0.17533994
-0.054053202 -0.03904701 -0.17533565
-0.054055378 -0.039122913 -0.1753394
-0.054057397 -0.039196774 -0.17534511
-0.054059803 -0.039270807 -0.17534283
-0.054061785 -0.03934662 -0.17535058
-0.054063059 -0.039418183 -0.1753702
-0.054063652 -0.039489441 -0.17540382
-0.054063443 -0.039556399 -0.17545132
-0.054063782 -0.03962557 -0.17548889
-0.054064631 -0.039698914 -0.17551854
-0.054065552 -0.039768346 -0.17554414
-0.054065756 -0.039839432 -0.17558575
-0.054065254 -0.039906256 -0.17563923
-0.054061938 -0.039965928 -0.1757465
-0.05360809 -0.032842286 -0.17643249
-0.053611007 -0.032920487 -0.1764223
-0.053613767 -0.032996647 -0.17641407
-0.053616684 -0.033074852 -0.17640388
-0.053619798 -0.033153143 -0.17638971
-0.053622462 -0.033229262 -0.17638347
-0.053625084 -0.033307336 -0.17637929
-0.053627845 -0.033383496 -0.17637105
-0.053630315 -0.033459529 -0.1763688
-0.053632781 -0.033535562 -0.17636657
-0.053635053 -0.033611506 -0.17636833
-0.053636488 -0.033685111 -0.176386
-0.053637508 -0.033754583 -0.17640959
-0.053639233 -0.033828314 -0.17642128
-0.053641018 -0.033904046 -0.17643303
-0.053644422 -0.033982467 -0.17641285
-0.053648632 -0.034065183 -0.17637879
-0.053651039 -0.034139216 -0.17637651
-0.053653859 -0.034217376 -0.17636833
-0.053657714 -0.034297965 -0.17634021
-0.053661022 -0.034376346 -0.17632204
-0.053663746 -0.034454461 -0.17631584
-0.0536667 -0.034530707 -0.17630363
-0.053669617 -0.034608912 -0.17629343
-0.053672478 -0.034685116 -0.17628321
-0.053674456 -0.034760933 -0.17629096
-0.053676926 -0.034836967 -0.17628871
-0.053679392 -0.034913 -0.17628649
-0.053680863 -0.034984645 -0.17630212
-0.053682841 -0.035060462 -0.17630985
-0.053685799 -0.035136707 -0.17629763
-0.053688522 -0.035214826 -0.17629144
-0.053690538 -0.035288684 -0.17629714
-0.053692263 -0.035362419 -0.17630884
-0.053694636 -0.035438407 -0.1763086
-0.053698879 -0.035519172 -0.1762725
-0.053703927 -0.035604235 -0.1762225
-0.053707138 -0.035682566 -0.17620634
-0.053710155 -0.035760812 -0.17619416
-0.053712912 -0.035836976 -0.17618592
-0.053715833 -0.035915181 -0.17617573
-0.053718593 -0.035991341 -0.1761675
-0.053721353 -0.036067501 -0.17615926
-0.053724367 -0.036145747 -0.1761471
-0.053727284 -0.036223952 -0.17613691
-0.053730339 -0.036300242 -0.1761227
-0.053733997 -0.036380749 -0.17609856
-0.053737503 -0.036459211 -0.17607641
-0.053740807 -0.036537588 -0.17605823
-0.053743728 -0.036615789 -0.17604804
-0.053746291 -0.036691867 -0.17604381
-0.053749248 -0.036768116 -0.17603159
-0.053751972 -0.036846228 -0.17602539
-0.053754378 -0.036920264 -0.1760231
-0.053756747 -0.036996253 -0.17602286
-0.053765547 -0.037090868 -0.17590116
-0.053770438 -0.037173886 -0.17585313
-0.05377394 -0.037252352 -0.17583096
-0.053777892 -0.037332986 -0.17580086
-0.053781942 -0.03741366 -0.17576873
-0.053785346 -0.037492082 -0.17574857
-0.053789593 -0.037572846 -0.17571247
-0.053792354 -0.037649006 -0.17570424
-0.053794529 -0.037724905 -0.175708
-0.053797193 -0.037801027 -0.17570177
-0.053801242 -0.037881702 -0.17566964
-0.053806912 -0.03796507 -0.17560562
-0.053811412 -0.038047917 -0.17556559
-0.053814366 -0.038124166 -0.17555337
-0.053817872 -0.038202628 -0.17553119
-0.053821079 -0.038280964 -0.17551503
-0.053823646 -0.038357038 -0.17551078
-0.053826503 -0.038433243 -0.17550056
-0.053829812 -0.038511619 -0.17548238
-0.053833801 -0.038590297 -0.17545024
-0.053837657 -0.03867089 -0.17542212
-0.053840712 -0.03874718 -0.1754079
-0.05384431 -0.038825683 -0.17538373
-0.053847522 -0.038904019 -0.17536756
-0.053850476 -0.038980268 -0.17535533
-0.053852849 -0.039056256 -0.17535508
-0.053855062 -0.039130203 -0.17535679
-0.053857431 -0.039206192 -0.17535655
-0.053859252 -0.039279968 -0.17536625
-0.05386053 -0.039351527 -0.17538589
-0.053862255 -0.039425258 -0.17539757
-0.053863686 -0.039498858 -0.17541526
-0.053863928 -0.039567988 -0.17545483
-0.053864263 -0.039637163 -0.17549238
-0.053864956 -0.039708465 -0.175524
-0.053865097 -0.039777547 -0.17556556
-0.053865239 -0.039846636 -0.17560712
-0.053865287 -0.039915677 -0.17565067
-0.05386252 -0.039977558 -0.17574802
-0.053859752 -0.040039439 -0.17584535
-0.053488176 -0.032864943 -0.17636585
-0.053490546 -0.032940932 -0.17636561
-0.053494204 -0.033021435 -0.17634149
-0.053497061 -0.03309764 -0.17633127
-0.05349943 -0.033173628 -0.17633101
-0.053501699 -0.033249572 -0.17633277
-0.053503972 -0.033325519 -0.17633453
-0.053506535 -0.033401597 -0.1763303
-0.053508647 -0.033475503 -0.17633399
-0.053510178 -0.033549145 -0.1763497
-0.053511802 -0.033622831 -0.17636338
-0.05351343 -0.033696521 -0.17637706
-0.053515248 -0.033770297 -0.17638677
-0.05351717 -0.033844113 -0.17639446
-0.05351989 -0.033922229 -0.17638826
-0.053523842 -0.034002867 -0.17635816
-0.05352705 -0.034081198 -0.176342
-0.053530358 -0.034159575 -0.17632382
-0.05353466 -0.034242339 -0.17628777
-0.053538062 -0.034320757 -0.17626759
-0.053540882 -0.034398917 -0.17625941
-0.053543348 -0.03447495 -0.17625718
-0.053547848 -0.034557797 -0.17621714
-0.053551152 -0.034636177 -0.17619894
-0.053552523 -0.034707777 -0.17621659
-0.053553309 -0.03477912 -0.17624621
-0.053555131 -0.034852892 -0.17625591
-0.053557951 -0.034931056 -0.17624772
-0.053560905 -0.035007305 -0.1762355
-0.053562723 -0.035081081 -0.1762452
-0.053564802 -0.035156939 -0.17625093
-0.053567462 -0.035233058 -0.17624471
-0.053569734 -0.035309002 -0.17624646
-0.053571455 -0.035382733 -0.17625815
-0.053573571 -0.035456635 -0.17626187
-0.053576779 -0.03553497 -0.17624569
-0.053582471 -0.035622291 -0.17618376
-0.053586908 -0.035703145 -0.17614368
-0.053589825 -0.035781346 -0.17613348
-0.053592291 -0.035857379 -0.17613125
-0.053594954 -0.035933495 -0.17612502
-0.053597223 -0.036009442 -0.17612676
-0.053599689 -0.036085475 -0.17612453
-0.053603642 -0.036166109 -0.17609441
-0.053607494 -0.036246702 -0.17606631
-0.053610548 -0.036322992 -0.17605209
-0.053613756 -0.036401324 -0.17603591
-0.053617161 -0.036479745 -0.17601573
-0.053620271 -0.036558032 -0.17600156
-0.053622931 -0.036634155 -0.17599532
-0.053625945 -0.036712401 -0.17598315
-0.05362935 -0.036790822 -0.17596298
-0.053632461 -0.036869109 -0.1759488
-0.053635415 -0.036945358 -0.17593658
-0.053641595 -0.037032895 -0.17586467
-0.053647324 -0.037118264 -0.17580071
-0.053651176 -0.037198853 -0.17577258
-0.053654872 -0.0372774 -0.17574643
-0.053658374 -0.037355863 -0.17572427
-0.053662036 -0.03743637 -0.17570013
-0.053666022 -0.037515048 -0.175668
-0.053669427 -0.037593469 -0.17564783
-0.053671055 -0.037667155 -0.17566152
-0.05367342 -0.037743144 -0.17566127
-0.053677663 -0.037823908 -0.17562518
-0.053682398 -0.037904888 -0.17557909
-0.053687736 -0.037990078 -0.1755231
-0.053691529 -0.038068675 -0.17549495
-0.053694386 -0.038144879 -0.17548472
-0.053697497 -0.03822317 -0.17547055
-0.053700551 -0.038299464 -0.17545632
-0.053703759 -0.038377792 -0.17544015
-0.053706419 -0.038453914 -0.1754339
-0.053708885 -0.038529947 -0.17543167
-0.053711645 -0.038606107 -0.17542344
-0.053715341 -0.038684655 -0.17539728
-0.053718939 -0.038763162 -0.17537312
-0.053723536 -0.038846053 -0.17533107
-0.053727329 -0.038924646 -0.17530292
-0.053731028 -0.039003193 -0.17527676
-0.053733885 -0.039079398 -0.17526653
-0.05373551 -0.039153092 -0.17528021
-0.053736687 -0.039224606 -0.17530185
-0.053738605 -0.039298423 -0.17530954
-0.053741168 -0.039374501 -0.17530531
-0.053742792 -0.039448187 -0.175319
-0.053743128 -0.039517358 -0.17535657
-0.053743564 -0.039586574 -0.17539214
-0.053744152 -0.039657831 -0.17542574
-0.053744644 -0.039729044 -0.17546135
-0.053744532 -0.039796047 -0.17550686
-0.053744085 -0.039864875 -0.17556041
-0.053741962 -0.039929014 -0.17564581
-0.053741947 -0.039996058 -0.17568932
-0.053448971 -0.032872297 -0.17634135
-0.053451594 -0.032950368 -0.17633715
-0.053454254 -0.033026487 -0.17633092
-0.053457461 -0.033104822 -0.17631476
-0.053460378 -0.033183023 -0.17630456
-0.053463392 -0.033261269 -0.17629239
-0.053466402 -0.033339519 -0.1762802
-0.053468518 -0.033413421 -0.17628391
-0.053469885 -0.033485025 -0.17630155
-0.053471021 -0.033558495 -0.17632523
-0.053472586 -0.033630185 -0.17633887
-0.053474762 -0.033706091 -0.17634264
-0.053476483 -0.033779822 -0.17635432
-0.05347801 -0.033853464 -0.17636999
-0.05348067 -0.033929586 -0.17636377
-0.053486008 -0.034014776 -0.1763078
-0.053490311 -0.034097541 -0.17627174
-0.053493619 -0.034175918 -0.17625356
-0.053495985 -0.034251906 -0.17625332
-0.053498451 -0.034327939 -0.17625108
-0.05350082 -0.034403928 -0.17625085
-0.053504124 -0.034482304 -0.17623267
-0.053507976 -0.034562893 -0.17620456
-0.053510442 -0.034638926 -0.17620233
-0.053512361 -0.034712747 -0.17621002
-0.053515177 -0.034790903 -0.17620185
-0.053518035 -0.034867108 -0.1761916
-0.0535204 -0.0349431 -0.17619136
-0.053521927 -0.035016745 -0.17620707
-0.053523101 -0.03508826 -0.17622869
-0.05352547 -0.035164252 -0.17622843
-0.053528033 -0.035240326 -0.1762242
-0.053529851 -0.035314098 -0.1762339
-0.053531576 -0.035387829 -0.1762456
-0.053533942 -0.035463817 -0.17624535
-0.053538736 -0.035546798 -0.17619932
-0.053545073 -0.03563638 -0.17612545
-0.05354812 -0.035712667 -0.17611122
-0.053550683 -0.035788745 -0.17610699
-0.053553406 -0.035866864 -0.17610081
-0.053556554 -0.035943195 -0.17608458
-0.053560309 -0.036023743 -0.17605847
-0.053562675 -0.036099732 -0.17605823
-0.053565044 -0.03617572 -0.17605798
-0.053568155 -0.036254011 -0.17604381
-0.053570464 -0.036328003 -0.17604351
-0.053573828 -0.03640838 -0.17602539
-0.053579204 -0.036491618 -0.17596737
-0.05358196 -0.036567777 -0.17595914
-0.053584781 -0.036645938 -0.17595096
-0.053587832 -0.036722228 -0.17593673
-0.053590257 -0.036800217 -0.17593654
-0.053592175 -0.036874037 -0.17594424
-0.053594582 -0.03694807 -0.17594194
-0.053610105 -0.037132435 -0.17573839
-0.053613413 -0.037210815 -0.17572021
-0.053617205 -0.037289403 -0.17569207
-0.05362051 -0.037367783 -0.1756739
-0.053624462 -0.037448414 -0.17564379
-0.053627864 -0.037526835 -0.17562363
-0.053629979 -0.037600741 -0.17562732
-0.053631894 -0.037674554 -0.17563502
-0.053635105 -0.037752889 -0.17561886
-0.053639993 -0.037835911 -0.17557082
-0.053644139 -0.037916631 -0.17553672
-0.053648382 -0.037997395 -0.17550062
-0.05365292 -0.038078289 -0.17545852
-0.053656127 -0.038156621 -0.17544234
-0.053658884 -0.038232788 -0.17543411
-0.053661741 -0.038308993 -0.17542389
-0.053664949 -0.038387325 -0.17540771
-0.053668 -0.038463615 -0.17539349
-0.05367066 -0.038539734 -0.17538726
-0.053673025 -0.038615722 -0.17538702
-0.053676527 -0.038694188 -0.17536485
-0.053682745 -0.038779765 -0.1752909
-0.053686246 -0.038858231 -0.17526874
-0.053688653 -0.038932264 -0.17526644
-0.05369176 -0.039010555 -0.17525226
-0.05369452 -0.039086718 -0.17524403
-0.053696886 -0.039162707 -0.17524379
-0.053699099 -0.039236654 -0.17524549
-0.05370082 -0.039310385 -0.17525721
-0.053701896 -0.039381858 -0.17528082
-0.05370307 -0.039453372 -0.17530246
-0.053704403 -0.039526932 -0.17532215
-0.053704932 -0.039596193 -0.1753557
-0.053705461 -0.039665449 -0.17538929
-0.053705662 -0.039736532 -0.17543089
-0.053705156 -0.039803363 -0.17548439
-0.053704064 -0.039869931 -0.17554986
-0.053703908 -0.039938889 -0.1755974
-0.053702466 -0.040003326 -0.17566884
-0.053407896 -0.032872692 -0.17636852
-0.053410616 -0.032950807 -0.17636234
-0.053415053 -0.033031657 -0.17632224
-0.053418264 -0.033109993 -0.17630607
-0.053420044 -0.03318572 -0.1763178
-0.053422056 -0.033259582 -0.1763235
-0.053424716 -0.033335701 -0.17631727
-0.053426791 -0.033411562 -0.17632301
-0.053428255 -0.033483207 -0.17633867
-0.053429879 -0.033556893 -0.17635235
-0.053431697 -0.033630669 -0.17636205
-0.053433869 -0.033706572 -0.17636579
-0.053435981 -0.033780474 -0.17636952
-0.053437702 -0.033854209 -0.1763812
-0.053440873 -0.033934496 -0.17636707
-0.053445764 -0.034017518 -0.17631903
-0.053449515 -0.034098066 -0.17629293
-0.053452373 -0.034174271 -0.17628269
-0.053455189 -0.034252435 -0.17627451
-0.053458102 -0.034330636 -0.17626433
-0.053460859 -0.034406796 -0.17625609
-0.053463776 -0.034485001 -0.17624591
-0.053468212 -0.034565851 -0.17620581
-0.053471871 -0.034646355 -0.1761817
-0.053472947 -0.034717828 -0.17620534
-0.05347373 -0.034789175 -0.17623496
-0.053475451 -0.034862906 -0.17624664
-0.053477816 -0.034938894 -0.1762464
-0.05348077 -0.035015143 -0.17623419
-0.053483136 -0.035091132 -0.17623393
-0.05348511 -0.035166949 -0.1762417
-0.053487323 -0.035240896 -0.17624339
-0.053489592 -0.03531684 -0.17624515
-0.053491507 -0.03539066 -0.17625284
-0.053493973 -0.03546669 -0.17625061
-0.053497627 -0.035547197 -0.1762265
-0.053502224 -0.035630085 -0.17618445
-0.053506918 -0.035713024 -0.1761404
-0.053509772 -0.035789229 -0.17613018
-0.053512238 -0.035865262 -0.17612794
-0.053514898 -0.035941377 -0.17612171
-0.05351752 -0.036019452 -0.17611751
-0.053519983 -0.036095485 -0.17611527
-0.053523678 -0.036174037 -0.17608911
-0.053528469 -0.036257014 -0.17604308
-0.053531129 -0.036333136 -0.17603683
-0.053534493 -0.036413506 -0.17601871
-0.053538188 -0.036492057 -0.17599255
-0.053540945 -0.036568217 -0.17598432
-0.053543862 -0.036646422 -0.17597413
-0.053546716 -0.03672263 -0.17596391
-0.053549532 -0.036800787 -0.17595573
-0.053552095 -0.036876865 -0.17595148
-0.053555146 -0.036953155 -0.17593727
-0.053560775 -0.037038479 -0.17587529
-0.053568635 -0.037130706 -0.17577152
-0.053572685 -0.037211381 -0.17573942
-0.053575989 -0.037289761 -0.17572126
-0.053579137 -0.037366092 -0.17570503
-0.053582698 -0.037446558 -0.1756829
-0.053585745 -0.037522849 -0.17566869
-0.053588562 -0.037601009 -0.17566051
-0.053591516 -0.037677258 -0.17564827
-0.053594723 -0.03775559 -0.1756321
-0.053598709 -0.037834272 -0.17559995
-0.053602662 -0.037914902 -0.17556983
-0.053607099 -0.037995756 -0.17552975
-0.053611245 -0.038076475 -0.17549565
-0.053615037 -0.038155068 -0.17546749
-0.053618051 -0.038233317 -0.17545532
-0.053620614 -0.038309392 -0.17545107
-0.053623371 -0.038385551 -0.17544284
-0.053626321 -0.038461797 -0.17543063
-0.053629275 -0.03853805 -0.17541839
-0.053631995 -0.038616166 -0.17541221
-0.053635336 -0.038692586 -0.175392
-0.053639933 -0.038775481 -0.17534995
-0.053643178 -0.038851857 -0.17533173
-0.053646483 -0.038930234 -0.17531356
-0.053650629 -0.039010957 -0.17527947
-0.053653874 -0.039087333 -0.17526123
-0.053656045 -0.039163236 -0.17526498
-0.05365796 -0.039237052 -0.17527269
-0.053659525 -0.039308742 -0.17528634
-0.053661346 -0.039382517 -0.17529602
-0.053662967 -0.039456204 -0.17530972
-0.053663556 -0.039527461 -0.17534333
-0.053664085 -0.039596722 -0.17537692
-0.053665064 -0.03966815 -0.17540254
-0.053665455 -0.039739322 -0.17544015
-0.053665239 -0.039806284 -0.17548765
-0.053664595 -0.039875023 -0.17554519
-0.053663053 -0.039939418 -0.17561862
-0.053662799 -0.040008329 -0.17566815
-0.053410638 -0.032882743 -0.17636342
-0.053413454 -0.032960903 -0.17635524
-0.053417854 -0.033043709 -0.17631719
-0.053420808 -0.033119954 -0.17630497
-0.053422589 -0.033195686 -0.17631671
-0.053424604 -0.033269547 -0.1763224
-0.053427264 -0.033345666 -0.17631617
-0.053429533 -0.033421613 -0.17631793
-0.053431351 -0.033495385 -0.17632762
-0.053432878 -0.03356903 -0.17634331
-0.053434502 -0.033642717 -0.176357
-0.053436518 -0.033716582 -0.17636269
-0.053438433 -0.033790395 -0.17637041
-0.053440154 -0.033864129 -0.17638209
-0.053443521 -0.033944502 -0.17636397
-0.053447958 -0.034025356 -0.17632389
-0.053451773 -0.034107901 -0.17629781
-0.053454727 -0.03418415 -0.17628559
-0.05345764 -0.034262352 -0.1762754
-0.053460851 -0.034340687 -0.17625922
-0.053463861 -0.034418933 -0.17624705
-0.053466816 -0.034495182 -0.17623481
-0.053471118 -0.034577943 -0.17619877
-0.053474423 -0.03465632 -0.1761806
-0.053475499 -0.034727797 -0.17620423
-0.053476281 -0.034799136 -0.17623386
-0.053477906 -0.034872826 -0.17624754
-0.053480469 -0.0349489 -0.17624331
-0.053483322 -0.035025105 -0.17623308
-0.053485848 -0.035103135 -0.17623088
-0.053488057 -0.035177086 -0.17623258
-0.053490426 -0.035253074 -0.17623234
-0.053492442 -0.035326935 -0.17623805
-0.053494513 -0.03540279 -0.17624378
-0.053496979 -0.035478827 -0.17624155
-0.053500187 -0.035557158 -0.17622539
-0.053504333 -0.035637878 -0.17619127
-0.053509671 -0.035723075 -0.1761353
-0.053512782 -0.035801362 -0.17612113
-0.053515248 -0.035877395 -0.17611888
-0.053517807 -0.03595347 -0.17611465
-0.05352037 -0.036029547 -0.17611042
-0.053522736 -0.036105536 -0.17611018
-0.053526532 -0.036184128 -0.17608202
-0.053531125 -0.03626702 -0.17603996
-0.053534139 -0.036345266 -0.17602777
-0.053537443 -0.036423646 -0.17600961
-0.053540751 -0.036502019 -0.17599145
-0.053543605 -0.036578223 -0.17598121
-0.053546522 -0.036656428 -0.17597103
-0.053549472 -0.036732677 -0.17595881
-0.053552292 -0.036810838 -0.17595062
-0.053555049 -0.036887001 -0.17594239
-0.053557806 -0.036963161 -0.17593417
-0.053563889 -0.037050657 -0.17586423
-0.053571396 -0.037140753 -0.17576641
-0.053575151 -0.037221301 -0.1757403
-0.053578556 -0.037299722 -0.17572013
-0.0535818 -0.037376098 -0.17570192
-0.053585459 -0.037456602 -0.17567781
-0.05358851 -0.037532896 -0.17566358
-0.05359162 -0.037611187 -0.1756494
-0.053594474 -0.037687391 -0.17563917
-0.05359729 -0.037765551 -0.17563099
-0.053601183 -0.037844189 -0.17560083
-0.053605329 -0.037924908 -0.17556673
-0.053610023 -0.038007844 -0.17552269
-0.053614009 -0.038086522 -0.17549053
-0.053617708 -0.03816507 -0.17546438
-0.053620815 -0.038243361 -0.17545021
-0.053623281 -0.038319394 -0.17544797
-0.053626038 -0.038395554 -0.17543973
-0.053629089 -0.038471848 -0.1754255
-0.053632006 -0.038550049 -0.17541532
-0.053634666 -0.038626172 -0.17540908
-0.053637911 -0.038702548 -0.17539087
-0.053642213 -0.038785309 -0.17535482
-0.053645656 -0.038861774 -0.17533261
-0.053649057 -0.038940195 -0.17531243
-0.053653494 -0.039021045 -0.17527235
-0.053656802 -0.039099421 -0.17525417
-0.053658813 -0.039173283 -0.17525987
-0.053660538 -0.039247014 -0.17527157
-0.053662103 -0.039318703 -0.17528522
-0.053664077 -0.03939452 -0.17529295
-0.053665739 -0.039466254 -0.17530459
-0.053666327 -0.039537512 -0.17533821
-0.053666659 -0.039606683 -0.17537579
-0.053667542 -0.039678067 -0.17540342
-0.053668033 -0.03974928 -0.17543903
-0.053667817 -0.039816242 -0.17548653
-0.05366727 -0.039885022 -0.17554207
-0.053665534 -0.039949335 -0.17561948
-0.053665474 -0.040018335 -0.17566504
-0.053400178 -0.032884739 -0.17635286
-0.053402543 -0.032960728 -0.17635259
-0.053405456 -0.033038929 -0.17634243
-0.053408667 -0.033117265 -0.17632625
-0.053411677 -0.033195511 -0.17631407
-0.053414531 -0.033271715 -0.17630383
-0.053417545 -0.033349961 -0.17629166
-0.05341991 -0.03342595 -0.17629142
-0.053421535 -0.033499643 -0.17630512
-0.053422906 -0.033571243 -0.17632276
-0.053424235 -0.033644803 -0.17634243
-0.053426251 -0.033718664 -0.17634813
-0.053428419 -0.033794567 -0.17635188
-0.05342979 -0.033866167 -0.17636952
-0.053431511 -0.033939898 -0.17638122
-0.053436946 -0.034025136 -0.17632324
-0.053441152 -0.034107856 -0.17628919
-0.053444557 -0.034186274 -0.17626902
-0.05344747 -0.034264479 -0.17625883
-0.053449739 -0.034340426 -0.17626059
-0.053451851 -0.034414329 -0.17626429
-0.053455215 -0.034494705 -0.17624617
-0.053459361 -0.034575425 -0.17621207
-0.053462472 -0.034653716 -0.17619789
-0.05346439 -0.034727532 -0.17620559
-0.053466756 -0.034803525 -0.17620534
-0.053469319 -0.034879595 -0.17620111
-0.053471684 -0.034955584 -0.17620087
-0.053473599 -0.035029404 -0.17620856
-0.053474773 -0.035100922 -0.17623019
-0.053476654 -0.035176694 -0.17623994
-0.053479314 -0.035252813 -0.17623371
-0.053481583 -0.035328761 -0.17623547
-0.0534834 -0.035402533 -0.17624515
-0.053485513 -0.035476439 -0.17624885
-0.053489074 -0.035556898 -0.17622674
-0.053496189 -0.035646822 -0.17613691
-0.053499594 -0.035725243 -0.17611673
-0.053501766 -0.035801142 -0.17612049
-0.053504325 -0.03587722 -0.17611626
-0.053507436 -0.035955511 -0.17610207
-0.053511389 -0.036036149 -0.17607197
-0.053514048 -0.036112264 -0.17606573
-0.05351606 -0.036186125 -0.17607144
-0.053519368 -0.036264502 -0.17605326
-0.053522184 -0.036342666 -0.17604508
-0.053524747 -0.03641874 -0.17604083
-0.053529732 -0.036501803 -0.17599081
-0.053533137 -0.03658022 -0.17597064
-0.053535797 -0.036656342 -0.1759644
-0.053538904 -0.036734633 -0.17595023
-0.05354172 -0.03681279 -0.17594203
-0.053543542 -0.036886565 -0.17595173
-0.053545944 -0.036960602 -0.17594945
-0.053550091 -0.037041321 -0.17591536
-0.053561963 -0.037145182 -0.17573592
-0.053564426 -0.037221216 -0.17573369
-0.053567827 -0.037299633 -0.17571351
-0.053571623 -0.037378229 -0.17568535
-0.053575378 -0.037458777 -0.17565924
-0.05357923 -0.037539363 -0.17563114
-0.053581342 -0.037613273 -0.17563483
-0.053583257 -0.037687086 -0.17564252
-0.053586114 -0.037763294 -0.1756323
-0.053590611 -0.037846141 -0.17559226
-0.053594954 -0.03792695 -0.17555416
-0.053598452 -0.038005412 -0.17553198
-0.053603634 -0.038088564 -0.17547797
-0.05360733 -0.038167115 -0.17545182
-0.05360999 -0.038243234 -0.17544556
-0.053612746 -0.038319394 -0.17543733
-0.053616211 -0.038399812 -0.17541721
-0.053619161 -0.038476061 -0.175405
-0.053621568 -0.038550094 -0.1754027
-0.053624131 -0.038626172 -0.17539847
-0.053627435 -0.038704544 -0.17538029
-0.053633459 -0.038790043 -0.17531034
-0.053637058 -0.03886855 -0.17528617
-0.053639714 -0.038944669 -0.17527995
-0.053642824 -0.03902296 -0.17526576
-0.053645521 -0.039097123 -0.17525749
-0.053648084 -0.039173193 -0.17525324
-0.053650647 -0.039249271 -0.17524901
-0.053652562 -0.039323092 -0.17525671
-0.05365409 -0.039396733 -0.17527241
-0.05365536 -0.039468292 -0.17529204
-0.053656142 -0.039539639 -0.17532167
-0.053656768 -0.03960894 -0.17535323
-0.053657651 -0.039680324 -0.17538086
-0.053658042 -0.039751496 -0.17541847
-0.053657632 -0.039818369 -0.17546996
-0.053656537 -0.03988494 -0.17553544
-0.053655833 -0.039951678 -0.17559293
-0.05365568 -0.040020637 -0.17564049
-0.053650834 -0.040077653 -0.17577767
-0.053315669 -0.032890841 -0.17635657
-0.053318385 -0.032968961 -0.17635038
-0.053321395 -0.033047207 -0.1763382
-0.053324502 -0.033125497 -0.17632404
-0.053327512 -0.033203743 -0.17631185
-0.053330265 -0.033279903 -0.17630363
-0.053332984 -0.033358023 -0.17629743
-0.053335287 -0.033432014 -0.17629714
-0.053336814 -0.033505656 -0.17631283
-0.053338334 -0.033579301 -0.17632851
-0.053339802 -0.03365095 -0.17634416
-0.053341772 -0.033726767 -0.1763519
-0.053343493 -0.033800494 -0.17636359
-0.053344861 -0.033872098 -0.17638123
-0.053346932 -0.03394796 -0.17638698
-0.053351816 -0.034030981 -0.17633894
-0.053356409 -0.034113873 -0.17629689
-0.053360067 -0.03419438 -0.17627278
-0.053363271 -0.034272712 -0.17625661
-0.053365637 -0.0343487 -0.17625636
-0.053367842 -0.034422647 -0.17625809
-0.053370755 -0.034500852 -0.17624789
-0.053374313 -0.034581311 -0.17622578
-0.05337736 -0.034657605 -0.17621157
-0.053379528 -0.034733508 -0.17621531
-0.053381797 -0.034809455 -0.17621705
-0.05338455 -0.034885615 -0.17620882
-0.053387366 -0.034963779 -0.17620066
-0.053389572 -0.035037726 -0.17620236
-0.053390902 -0.035111282 -0.17622203
-0.053392366 -0.035182927 -0.17623767
-0.053394888 -0.03526096 -0.17623548
-0.053396899 -0.035334818 -0.17624119
-0.053398617 -0.035408549 -0.17625287
-0.053400531 -0.035482369 -0.17626058
-0.053404383 -0.035562962 -0.17623246
-0.053411402 -0.035652846 -0.17614463
-0.053414956 -0.035733305 -0.17612252
-0.053417519 -0.035809383 -0.17611827
-0.053420175 -0.035885498 -0.17611204
-0.053423185 -0.035963744 -0.17609985
-0.053427037 -0.036044337 -0.17607173
-0.053430181 -0.036120676 -0.17605552
-0.053432252 -0.03619653 -0.17606127
-0.053435005 -0.036272693 -0.17605305
-0.053437918 -0.036350898 -0.17604285
-0.053440027 -0.036424801 -0.17604658
-0.053444624 -0.036507696 -0.17600453
-0.05344896 -0.036588501 -0.17596643
-0.053451326 -0.036664493 -0.17596617
-0.053454336 -0.036742739 -0.17595401
-0.053457089 -0.036818899 -0.17594577
-0.053459357 -0.036894847 -0.17594752
-0.053461563 -0.03696879 -0.17594925
-0.053463735 -0.037044697 -0.17595297
-0.053476442 -0.037150901 -0.17575762
-0.053479843 -0.037229322 -0.17573744
-0.053483143 -0.037307698 -0.17571928
-0.053486839 -0.037386246 -0.17569312
-0.05349059 -0.037466794 -0.17566702
-0.053494576 -0.037545476 -0.17563486
-0.053497039 -0.037621506 -0.17563263
-0.053498954 -0.037695326 -0.17564031
-0.053501416 -0.037771359 -0.17563808
-0.053505264 -0.037851948 -0.17560998
-0.05351064 -0.037935186 -0.17555195
-0.053514335 -0.038013738 -0.17552578
-0.053519025 -0.038096674 -0.17548174
-0.05352262 -0.038175181 -0.17545758
-0.053525474 -0.038251385 -0.17544734
-0.053528581 -0.038329676 -0.17543317
-0.053531885 -0.038408048 -0.17541501
-0.053534735 -0.038484253 -0.17540479
-0.053537235 -0.038558334 -0.1754005
-0.053539697 -0.038634367 -0.17539825
-0.053542804 -0.038712658 -0.17538407
-0.053547986 -0.038795806 -0.17533004
-0.053552713 -0.038876787 -0.17528395
-0.053555369 -0.038952906 -0.17527774
-0.053558223 -0.039029114 -0.17526749
-0.05356098 -0.039105274 -0.17525926
-0.053563539 -0.039181352 -0.17525503
-0.053566098 -0.039257426 -0.1752508
-0.053568013 -0.039331242 -0.17525849
-0.05356928 -0.039402802 -0.17527813
-0.05357061 -0.039476361 -0.1752978
-0.053571489 -0.039547749 -0.17532542
-0.053572364 -0.039619133 -0.17535307
-0.053572889 -0.039688393 -0.17538664
-0.053573027 -0.039757479 -0.17542818
-0.053572867 -0.039826438 -0.17547575
-0.053571969 -0.039893091 -0.17553723
-0.053571809 -0.039962046 -0.17558478
-0.053571749 -0.040031046 -0.17563033
-0.053566352 -0.040085848 -0.17577747
-0.053146601 -0.032908358 -0.17631453
-0.053148769 -0.032984264 -0.17631829
-0.053151034 -0.033060208 -0.17632005
-0.053153884 -0.033136416 -0.17630979
-0.053156599 -0.033214532 -0.17630363
-0.05315851 -0.033288352 -0.17631131
-0.053160679 -0.033364251 -0.17631507
-0.053163335 -0.033440374 -0.17630884
-0.053165697 -0.033516362 -0.1763086
-0.053167313 -0.033590049 -0.17632228
-0.053169031 -0.033663779 -0.17633398
-0.053171396 -0.033739768 -0.17633374
-0.053173307 -0.033813588 -0.17634144
-0.05317438 -0.033885062 -0.17636508
-0.05317729 -0.033963263 -0.17635489
-0.053181782 -0.034046113 -0.17631483
-0.053185437 -0.034126617 -0.17629072
-0.053189382 -0.034207255 -0.17626062
-0.053191882 -0.034281328 -0.17625633
-0.053194147 -0.034357276 -0.17625809
-0.053196862 -0.034435391 -0.17625189
-0.053199418 -0.034511469 -0.17624766
-0.053201783 -0.034587458 -0.17624742
-0.053205181 -0.034665879 -0.17622726
-0.053208385 -0.034744211 -0.17621107
-0.053210452 -0.034820072 -0.17621683
-0.053211976 -0.034893718 -0.17623252
-0.05321373 -0.034965493 -0.17624216
-0.053216934 -0.035043824 -0.17622599
-0.053220041 -0.035122119 -0.1762118
-0.053222109 -0.035197977 -0.17621756
-0.053223923 -0.035271749 -0.17622726
-0.053226482 -0.035347827 -0.17622301
-0.053228747 -0.035423771 -0.17622477
-0.053230658 -0.035497591 -0.17623247
-0.053234056 -0.035576008 -0.17621231
-0.05324078 -0.035665765 -0.17613047
-0.053244181 -0.035744183 -0.1761103
-0.053247187 -0.035822429 -0.17609811
-0.05324965 -0.035898462 -0.17609587
-0.0532525 -0.035974666 -0.17608564
-0.053256992 -0.036057517 -0.1760456
-0.053261291 -0.036140278 -0.17600954
-0.053263947 -0.036216401 -0.17600331
-0.053265471 -0.036290042 -0.176019
-0.053267479 -0.036363903 -0.17602471
-0.05327123 -0.036444455 -0.17599858
-0.053275216 -0.036523134 -0.17596644
-0.053278223 -0.03660138 -0.17595425
-0.053280685 -0.036677413 -0.17595202
-0.053283241 -0.036753487 -0.17594777
-0.053285994 -0.03682965 -0.17593955
-0.053289551 -0.036910113 -0.17591743
-0.053293694 -0.036990829 -0.17588332
-0.053299222 -0.037076112 -0.17582336
-0.0533044 -0.037159264 -0.17576933
-0.053308446 -0.037239943 -0.17573723
-0.053313721 -0.03732314 -0.1756812
-0.053316925 -0.037401471 -0.17566502
-0.053320028 -0.037479762 -0.17565084
-0.053322785 -0.037555922 -0.17564261
-0.053326182 -0.037634343 -0.17562245
-0.053329676 -0.037712805 -0.17560029
-0.053332079 -0.037786841 -0.175598
-0.053335439 -0.037867218 -0.17557988
-0.053341202 -0.037950628 -0.17551386
-0.05334466 -0.038031045 -0.17549375
-0.053347901 -0.038107425 -0.17547552
-0.053351849 -0.038188059 -0.17544541
-0.053355344 -0.038266525 -0.17542325
-0.053358488 -0.038342856 -0.17540702
-0.053361204 -0.038420975 -0.17540085
-0.053363606 -0.038495008 -0.17539856
-0.053366553 -0.038571257 -0.17538634
-0.053369951 -0.038649678 -0.17536616
-0.053373545 -0.038728181 -0.17534199
-0.05337853 -0.038811248 -0.17529196
-0.053381927 -0.038889669 -0.17527179
-0.053384583 -0.038965788 -0.17526555
-0.053386945 -0.039041776 -0.17526531
-0.053389795 -0.039117981 -0.17525509
-0.053392746 -0.03919423 -0.17524287
-0.053395398 -0.039270349 -0.17523664
-0.05339741 -0.03934421 -0.17524233
-0.053398285 -0.039415598 -0.17526996
-0.053399261 -0.039487027 -0.17529559
-0.053400878 -0.039560717 -0.17530927
-0.053401209 -0.039629888 -0.17534685
-0.053400889 -0.039696801 -0.17539635
-0.053401571 -0.039768104 -0.17542797
-0.053401608 -0.039837144 -0.17547151
-0.053401798 -0.03990823 -0.17551313
-0.053401385 -0.039975099 -0.17556462
-0.05339925 -0.040039241 -0.17565003
-0.053397801 -0.040103678 -0.17572145
