# .PCD v0.7 - Point Cloud Data file format
VERSION 0.7
FIELDS x y z
SIZE 4 4 4
TYPE F F F
COUNT 1 1 1
WIDTH 1269
HEIGHT 1
VIEWPOINT 0 0 0 1 0 0 0
POINTS 1269
DATA ascii
-0.03037283 -0.076672323 -0.17516488
-0.030369075 -0.076597683 -0.17519513
-0.03036532 -0.076523036 -0.17522535
-0.030360356 -0.076449826 -0.17528158
-0.030355917 -0.076374874 -0.17532581
-0.030350951 -0.076301664 -0.17538205
-0.030343253 -0.076227233 -0.17549422
-0.030631598 -0.09606342 -0.17693457
-0.030630592 -0.095984086 -0.17690474
-0.030627713 -0.095909834 -0.176917
-0.030624796 -0.095837533 -0.17693129
-0.03062297 -0.095759809 -0.17691951
-0.030620189 -0.095685601 -0.17692977
-0.030617312 -0.095611349 -0.17694204
-0.030614296 -0.095539011 -0.17695834
-0.030612141 -0.095463112 -0.17695457
-0.030610178 -0.095387295 -0.17694682
-0.030607788 -0.095313258 -0.17694908
-0.030604908 -0.095239006 -0.17696135
-0.030602127 -0.095164798 -0.17697161
-0.030599445 -0.095090635 -0.17697987
-0.030596565 -0.095016375 -0.17699215
-0.030594701 -0.09494061 -0.17698237
-0.030593168 -0.094863012 -0.1769646
-0.030590815 -0.094787024 -0.17696482
-0.030588659 -0.094711117 -0.17696106
-0.030586172 -0.094637044 -0.17696533
-0.030583721 -0.094561011 -0.17696756
-0.030581038 -0.094486848 -0.17697583
-0.03057855 -0.094412766 -0.17698011
-0.030576587 -0.094336949 -0.17697236
-0.030574664 -0.09425918 -0.17696254
-0.030572079 -0.094185054 -0.17696881
-0.030570116 -0.094109237 -0.17696106
-0.030568251 -0.094033472 -0.1769513
-0.03056547 -0.093959257 -0.17696157
-0.030563021 -0.093883231 -0.17696379
-0.030561253 -0.093807504 -0.17695203
-0.030558903 -0.093731508 -0.17695227
-0.030556317 -0.093657389 -0.17695853
-0.030553633 -0.093583226 -0.17696682
-0.030550461 -0.09350884 -0.17698506
-0.030548695 -0.093433112 -0.17697331
-0.030547591 -0.093353733 -0.17694548
-0.030545432 -0.093277834 -0.17694172
-0.030543141 -0.093203843 -0.17694199
-0.030540885 -0.093127899 -0.17694023
-0.030538827 -0.093052037 -0.17693448
-0.030537292 -0.092974439 -0.17691669
-0.030534707 -0.092900321 -0.17692295
-0.030531829 -0.092826068 -0.17693523
-0.030529048 -0.092751861 -0.17694548
-0.030526463 -0.092677735 -0.17695175
-0.030523818 -0.092601612 -0.17695798
-0.030521525 -0.092527628 -0.17695825
-0.030519133 -0.092453592 -0.17696053
-0.030516684 -0.092377558 -0.17696276
-0.030514956 -0.092299879 -0.17694896
-0.030513091 -0.092224106 -0.1769392
-0.030511362 -0.092146419 -0.17692542
-0.030509595 -0.092070691 -0.17691366
-0.030507145 -0.091994658 -0.17691588
-0.03050456 -0.09192054 -0.17692214
-0.030501878 -0.091846369 -0.17693043
-0.030500147 -0.091768689 -0.17691663
-0.030499434 -0.091689482 -0.17688081
-0.030497374 -0.091613628 -0.17687505
-0.030494887 -0.091539547 -0.17687933
-0.03049273 -0.091463648 -0.17687556
-0.030490767 -0.091387831 -0.17686781
-0.030488415 -0.091311842 -0.17686805
-0.030485829 -0.091237716 -0.17687431
-0.030483048 -0.091163509 -0.17688456
-0.0304805 -0.091087431 -0.17688879
-0.030478403 -0.091013528 -0.17688507
-0.030476479 -0.090935759 -0.17687528
-0.030474946 -0.090858161 -0.1768575
-0.030473569 -0.090782613 -0.17683776
-0.030471452 -0.090704754 -0.17683195
-0.030469295 -0.090628847 -0.17682818
-0.030467391 -0.090555035 -0.17682047
-0.030464845 -0.090478957 -0.17682469
-0.030462492 -0.090402968 -0.17682493
-0.030460432 -0.090327106 -0.17681918
-0.030459192 -0.090249643 -0.17679538
-0.030459883 -0.090169095 -0.17672957
-0.030458251 -0.090091452 -0.17671378
-0.030455178 -0.09001711 -0.17673004
-0.030452494 -0.089942947 -0.17673829
-0.030450532 -0.08986713 -0.17673054
-0.030449059 -0.089791536 -0.1767128
-0.030446842 -0.089713633 -0.176709
-0.030444354 -0.089639559 -0.17671326
-0.030442294 -0.089563698 -0.17670751
-0.03044082 -0.089488104 -0.17668976
-0.030439287 -0.089410506 -0.17667197
-0.030437227 -0.089334644 -0.17666622
-0.03043507 -0.089258745 -0.17666245
-0.030432621 -0.089182705 -0.17666468
-0.030430034 -0.089108586 -0.17667094
-0.030427743 -0.089034595 -0.17667122
-0.030425388 -0.088958606 -0.17667145
-0.030422315 -0.088884264 -0.17668772
-0.030419437 -0.088810012 -0.17669997
-0.030417377 -0.088734157 -0.17669421
-0.030416723 -0.088656947 -0.17665844
-0.030416105 -0.088577792 -0.17662063
-0.030413326 -0.088503584 -0.1766309
-0.030410543 -0.088429376 -0.17664117
-0.030408584 -0.088353559 -0.1766334
-0.030407341 -0.088276096 -0.17660964
-0.030405477 -0.088200323 -0.17659988
-0.030402794 -0.08812616 -0.17660815
-0.030399624 -0.088051774 -0.17662638
-0.030395925 -0.08797913 -0.17665666
-0.030392852 -0.087904789 -0.17667292
-0.03039089 -0.087828971 -0.17666516
-0.030390138 -0.087751724 -0.17663141
-0.030388506 -0.087674081 -0.17661561
-0.030385921 -0.087599963 -0.17662188
-0.030383432 -0.087525889 -0.17662615
-0.030381178 -0.087449938 -0.17662439
-0.030378591 -0.08737582 -0.17663065
-0.030375849 -0.08729966 -0.17663887
-0.030373557 -0.087225661 -0.17663915
-0.030371301 -0.087149717 -0.17663738
-0.03036977 -0.087072119 -0.17661959
-0.030368587 -0.08699666 -0.17659587
-0.030366762 -0.086918928 -0.17658406
-0.030364897 -0.086843155 -0.17657432
-0.030363033 -0.086767383 -0.17656454
-0.030360876 -0.086691484 -0.17656079
-0.03035829 -0.086617358 -0.17656706
-0.030355606 -0.086543195 -0.17657533
-0.030353157 -0.086467162 -0.17657755
-0.030350864 -0.08639317 -0.17657784
-0.030348279 -0.086319052 -0.17658409
-0.030346315 -0.086243235 -0.17657635
-0.03034449 -0.08616551 -0.17656454
-0.0303421 -0.086091474 -0.17656682
-0.030339222 -0.086017221 -0.17657909
-0.030336732 -0.08594314 -0.17658335
-0.030334478 -0.085867196 -0.17658159
-0.030332126 -0.085791208 -0.17658181
-0.030329932 -0.085717261 -0.1765801
-0.030327676 -0.08564131 -0.17657834
-0.030326104 -0.085565671 -0.17656258
-0.030325683 -0.085486598 -0.17652079
-0.030324209 -0.085411005 -0.17650305
-0.030323163 -0.085333623 -0.17647527
-0.030321788 -0.085258067 -0.17645553
-0.030319337 -0.085182041 -0.17645776
-0.030316167 -0.085107654 -0.17647602
-0.030312898 -0.085033223 -0.17649625
-0.030310117 -0.084959015 -0.17650652
-0.030308312 -0.084885247 -0.17649682
-0.030305764 -0.084809169 -0.17650105
-0.030302983 -0.084734961 -0.1765113
-0.030300338 -0.084658839 -0.17651753
-0.030298434 -0.084585026 -0.17650983
-0.030296376 -0.084509164 -0.17650406
-0.030294647 -0.084431484 -0.17649026
-0.030293075 -0.084355839 -0.17647451
-0.030291211 -0.084280066 -0.17646477
-0.030289348 -0.084204294 -0.17645502
-0.030286761 -0.084130175 -0.17646128
-0.03028398 -0.084055968 -0.17647153
-0.030281298 -0.083981797 -0.1764798
-0.030279471 -0.083904073 -0.17646801
-0.030278914 -0.083826914 -0.17643026
-0.030277636 -0.083751403 -0.17640851
-0.030275868 -0.083675675 -0.17639676
-0.030274199 -0.083599992 -0.17638302
-0.030272042 -0.083524086 -0.17637925
-0.030269261 -0.083449878 -0.17638952
-0.030266285 -0.083375581 -0.17640376
-0.030262489 -0.083302893 -0.17643604
-0.030260099 -0.083228856 -0.17643832
-0.030258274 -0.083151132 -0.17642653
-0.030255493 -0.083076924 -0.17643678
-0.030252809 -0.083002761 -0.17644504
-0.030250555 -0.08292681 -0.17644328
-0.030248359 -0.082852863 -0.17644157
-0.030246299 -0.082777008 -0.17643581
-0.030244337 -0.082701191 -0.17642805
-0.030242767 -0.082625546 -0.17641231
-0.030240376 -0.082551517 -0.17641458
-0.030237595 -0.082477301 -0.17642485
-0.030235438 -0.082401402 -0.17642108
-0.030234061 -0.082325846 -0.17640135
-0.030233894 -0.082248859 -0.1763556
-0.030232752 -0.08217144 -0.17632982
-0.030230556 -0.082097493 -0.17632809
-0.03022873 -0.082019761 -0.17631629
-0.030227743 -0.081944384 -0.17628856
-0.03022627 -0.08186879 -0.17627081
-0.030224405 -0.081793018 -0.17626107
-0.030221917 -0.081718937 -0.17626534
-0.03021937 -0.081642859 -0.17626956
-0.030216882 -0.081568785 -0.17627384
-0.030214686 -0.081494838 -0.17627212
-0.03021403 -0.081417635 -0.17623636
-0.030213084 -0.081340298 -0.17620659
-0.030210987 -0.081266396 -0.17620286
-0.030209219 -0.081190661 -0.17619112
-0.030207258 -0.081114851 -0.17618336
-0.030205004 -0.0810389 -0.17618158
-0.030202905 -0.080964997 -0.17617787
-0.030201236 -0.080889314 -0.17616412
-0.030199859 -0.080813758 -0.17614439
-0.030199459 -0.080738641 -0.17610466
-0.030198608 -0.080661349 -0.1760729
-0.030197915 -0.080586098 -0.17603919
-0.03019654 -0.080510542 -0.17601945
-0.03019448 -0.080434687 -0.17601369
-0.030192675 -0.080360912 -0.17600398
-0.030190028 -0.080284797 -0.17601021
-0.03018715 -0.080210544 -0.17602247
-0.030184954 -0.080136597 -0.17602074
-0.030182408 -0.080060519 -0.17602497
-0.030179627 -0.079986311 -0.17603523
-0.030177763 -0.079910539 -0.17602548
-0.030179158 -0.079834245 -0.17594776
-0.030178269 -0.079758912 -0.17591804
-0.030178005 -0.079681881 -0.17587429
-0.030176882 -0.079608411 -0.1758506
-0.030174432 -0.079532377 -0.17585284
-0.030172043 -0.079458341 -0.17585512
-0.030170666 -0.079382792 -0.17583537
-0.030170597 -0.079305843 -0.17578763
-0.030170782 -0.079230987 -0.17573592
-0.030171005 -0.079154179 -0.17568219
-0.030170605 -0.079079054 -0.17564248
-0.030170048 -0.079001896 -0.17560473
-0.030168924 -0.078928426 -0.17558104
-0.030166963 -0.078852609 -0.17557327
-0.03016467 -0.078778625 -0.17557356
-0.030162513 -0.078702718 -0.17556979
-0.030161001 -0.078629076 -0.17555408
-0.030159723 -0.078553565 -0.17553234
-0.030158639 -0.078478143 -0.17550662
-0.030156542 -0.07840424 -0.1755029
-0.030154578 -0.078328423 -0.17549515
-0.030153593 -0.078253046 -0.17546743
-0.030152705 -0.078177705 -0.17543769
-0.030152207 -0.078102544 -0.17539999
-0.030150928 -0.078027032 -0.17537823
-0.030149512 -0.077953435 -0.17536055
-0.03014843 -0.077878013 -0.17533481
-0.030147541 -0.077802673 -0.17530508
-0.030146517 -0.077729248 -0.17527939
-0.030146116 -0.077654131 -0.17523968
-0.030145423 -0.07757888 -0.17520598
-0.030143851 -0.077503242 -0.17519021
-0.030142631 -0.077429727 -0.17516853
-0.030141257 -0.077354178 -0.17514879
-0.030139744 -0.077280529 -0.17513308
-0.030137978 -0.077204801 -0.17512134
-0.030136269 -0.07713107 -0.17510962
-0.030134659 -0.077057384 -0.17509595
-0.030132465 -0.076983437 -0.17509422
-0.030128904 -0.076908886 -0.17512044
-0.030125927 -0.076834589 -0.17513472
-0.030123476 -0.076758556 -0.17513694
-0.030120267 -0.076686129 -0.17515723
-0.030116413 -0.076611437 -0.17518947
-0.030112168 -0.076536573 -0.17522968
-0.030107202 -0.076463364 -0.17528594
-0.030101748 -0.076389939 -0.17535216
-0.030097015 -0.076314859 -0.17540237
-0.030093318 -0.076242208 -0.17543265
-0.030089794 -0.076165698 -0.17545685
-0.030418411 -0.096074902 -0.17691061
-0.03041645 -0.095999092 -0.17690286
-0.030413998 -0.095923051 -0.1769051
-0.030411609 -0.095849022 -0.17690736
-0.030409548 -0.09577316 -0.17690161
-0.030407 -0.095697083 -0.17690584
-0.030404316 -0.095622919 -0.1769141
-0.030401632 -0.095548756 -0.17692237
-0.030399047 -0.095474631 -0.17692862
-0.030396655 -0.095400602 -0.1769309
-0.030393874 -0.095326394 -0.17694117
-0.030390665 -0.095253959 -0.17696147
-0.030388176 -0.095179886 -0.17696574
-0.030385492 -0.095105723 -0.176974
-0.03038232 -0.095031336 -0.17699227
-0.030379832 -0.094957255 -0.17699653
-0.030381456 -0.094869241 -0.17690657
-0.030379884 -0.094793595 -0.17689082
-0.0303772 -0.094719432 -0.17689909
-0.030374555 -0.09464331 -0.1769053
-0.030372262 -0.094569318 -0.17690559
-0.030369481 -0.09449511 -0.17691585
-0.030366797 -0.094420947 -0.17692412
-0.030364309 -0.094346866 -0.17692839
-0.030361332 -0.094272569 -0.17694265
-0.030358259 -0.094198227 -0.1769589
-0.03035577 -0.094124153 -0.17696318
-0.030353282 -0.09405008 -0.17696744
-0.030350402 -0.093975827 -0.17697972
-0.030348441 -0.09390001 -0.17697196
-0.030346477 -0.093824193 -0.17696419
-0.030344553 -0.093746424 -0.17695439
-0.030342691 -0.093670651 -0.17694464
-0.030340239 -0.093594618 -0.17694688
-0.030337654 -0.0935205 -0.17695314
-0.030335164 -0.093446419 -0.17695741
-0.030333534 -0.093368784 -0.17694163
-0.030331707 -0.093291052 -0.17692983
-0.030330038 -0.093215369 -0.17691608
-0.030328698 -0.09313786 -0.17689429
-0.030326346 -0.093061864 -0.17689452
-0.030323468 -0.092987619 -0.17690679
-0.03032098 -0.092913538 -0.17691106
-0.030318199 -0.09283933 -0.17692131
-0.030314891 -0.092766859 -0.17694362
-0.030312246 -0.092690736 -0.17694983
-0.030310614 -0.092613101 -0.17693403
-0.030308027 -0.092538975 -0.17694032
-0.030305246 -0.092464767 -0.17695057
-0.030302856 -0.092390731 -0.17695284
-0.03030175 -0.092311352 -0.17692503
-0.030300081 -0.092235669 -0.17691128
-0.030298021 -0.092159815 -0.17690551
-0.030295864 -0.092083909 -0.17690176
-0.030293219 -0.092007786 -0.17690799
-0.030291121 -0.091933884 -0.17690426
-0.030288767 -0.091857895 -0.1769045
-0.030285694 -0.091783553 -0.17692074
-0.030283401 -0.091709569 -0.17692104
-0.030284459 -0.091625243 -0.17684513
-0.030282399 -0.091549382 -0.17683938
-0.03028034 -0.09147352 -0.17683363
-0.030277656 -0.091399357 -0.17684188
-0.030275069 -0.091325238 -0.17684814
-0.030272853 -0.091247335 -0.17684434
-0.030270463 -0.091173299 -0.17684662
-0.030267388 -0.091098957 -0.17686287
-0.030264607 -0.091024749 -0.17687315
-0.030262509 -0.090950847 -0.17686942
-0.030260585 -0.090873078 -0.17685962
-0.030258428 -0.090797171 -0.17685586
-0.030256758 -0.090721488 -0.17684212
-0.030255517 -0.090644024 -0.17681834
-0.030253984 -0.090566427 -0.17680053
-0.030251728 -0.090490483 -0.17679876
-0.03024924 -0.090416402 -0.17680305
-0.030246984 -0.090340458 -0.17680129
-0.030245159 -0.090262726 -0.17678948
-0.030244503 -0.090185523 -0.17675371
-0.0302433 -0.0901061 -0.17672789
-0.030241203 -0.090032198 -0.17672417
-0.030238949 -0.089956254 -0.17672241
-0.030237122 -0.089878529 -0.17671061
-0.030235121 -0.089804664 -0.1767049
-0.030232865 -0.08972872 -0.17670313
-0.030231332 -0.089651123 -0.17668535
-0.030229701 -0.089573488 -0.17666957
-0.030228032 -0.089497805 -0.1766558
-0.030225873 -0.089421898 -0.17665204
-0.030223384 -0.089347824 -0.17665631
-0.030221131 -0.089271873 -0.17665455
-0.030219167 -0.089196056 -0.1766468
-0.030217011 -0.089120157 -0.17664303
-0.030214854 -0.089044251 -0.17663926
-0.030212658 -0.088970304 -0.17663755
-0.030209877 -0.088896096 -0.17664781
-0.0302069 -0.088821799 -0.17666207
-0.030204644 -0.088745855 -0.1766603
-0.030202584 -0.088669993 -0.17665455
-0.030201344 -0.088592529 -0.17663077
-0.030199908 -0.088514976 -0.17661098
-0.030198142 -0.088439249 -0.17659923
-0.03019575 -0.088365212 -0.1766015
-0.030193202 -0.088289134 -0.17660573
-0.030190811 -0.088215105 -0.176608
-0.030188557 -0.088139161 -0.17660624
-0.030186301 -0.08806321 -0.17660448
-0.030184008 -0.087989219 -0.17660475
-0.030181227 -0.087915011 -0.17661501
-0.030178251 -0.087840714 -0.17662928
-0.03017547 -0.087766506 -0.17663953
-0.030173019 -0.087690473 -0.17664176
-0.030170958 -0.087614611 -0.17663601
-0.030169485 -0.087539017 -0.17661826
-0.030167326 -0.087463118 -0.17661449
-0.030165464 -0.087387346 -0.17660475
-0.030163538 -0.087309577 -0.17659494
-0.030161051 -0.087235495 -0.1765992
-0.030158171 -0.087161243 -0.17661148
-0.030155526 -0.08708512 -0.17661771
-0.030153722 -0.087011352 -0.176608
-0.030152187 -0.086933754 -0.1765902
-0.030150849 -0.086856246 -0.17656842
-0.030148886 -0.086780429 -0.17656067
-0.030146692 -0.086706482 -0.17655894
-0.030144729 -0.086630665 -0.17655119
-0.030142376 -0.086554676 -0.17655142
-0.030139692 -0.086480513 -0.17655969
-0.030137107 -0.086406387 -0.17656595
-0.030134363 -0.086330228 -0.17657417
-0.030132363 -0.08625637 -0.17656846
-0.030131219 -0.086178944 -0.17654267
-0.030128475 -0.086102784 -0.17655089
-0.030125657 -0.086030528 -0.1765632
-0.030123636 -0.085952714 -0.17655541
-0.030121733 -0.085878894 -0.17654771
-0.030119576 -0.085802995 -0.17654394
-0.030116696 -0.085728742 -0.1765562
-0.030113524 -0.085654356 -0.17657445
-0.030110743 -0.085580148 -0.17658472
-0.030109074 -0.085504465 -0.17657097
-0.030109666 -0.085423872 -0.17650715
-0.030108426 -0.085346408 -0.17648336
-0.030106034 -0.085272372 -0.17648564
-0.030103877 -0.085196465 -0.17648187
-0.030102013 -0.085120693 -0.17647213
-0.030099953 -0.085044838 -0.17646636
-0.030098282 -0.084969155 -0.17645261
-0.030096088 -0.084895208 -0.17645091
-0.030093012 -0.084820867 -0.17646715
-0.030090466 -0.084744789 -0.17647138
-0.030088894 -0.08466915 -0.17645563
-0.030087028 -0.084593378 -0.17644587
-0.030084051 -0.084519081 -0.17646015
-0.030081797 -0.084443137 -0.17645837
-0.030079933 -0.084367365 -0.17644861
-0.030077541 -0.084293328 -0.17645088
-0.030075092 -0.084217295 -0.17645311
-0.030072896 -0.084143348 -0.17645141
-0.030070348 -0.08406727 -0.17645562
-0.030067859 -0.083993196 -0.17645989
-0.030065898 -0.083917379 -0.17645213
-0.03006413 -0.083841652 -0.17644039
-0.030061875 -0.0837657 -0.17643863
-0.030060401 -0.083690107 -0.17642087
-0.030059414 -0.083614729 -0.17639315
-0.030058173 -0.083537258 -0.17636937
-0.030056406 -0.083461531 -0.17635763
-0.03005382 -0.083387412 -0.17636389
-0.030050259 -0.083312854 -0.17639014
-0.030047283 -0.083238557 -0.17640439
-0.030045319 -0.08316274 -0.17639664
-0.030043123 -0.083088793 -0.17639491
-0.030040674 -0.08301276 -0.17639714
-0.030038185 -0.082938686 -0.17640141
-0.030035932 -0.082862735 -0.17639965
-0.030033872 -0.08278688 -0.17639388
-0.030032065 -0.082713105 -0.17638418
-0.030030103 -0.082637288 -0.17637643
-0.030027127 -0.082562998 -0.17639068
-0.030024443 -0.082488827 -0.17639895
-0.030022187 -0.082412884 -0.17639717
-0.03002003 -0.082336977 -0.17639342
-0.030018225 -0.082263209 -0.1763837
-0.030017706 -0.082184091 -0.1763439
-0.030015998 -0.08211036 -0.17633221
-0.030013744 -0.082034416 -0.17633043
-0.030012893 -0.081957124 -0.17629868
-0.030011222 -0.081881441 -0.17628491
-0.030009456 -0.081805713 -0.17627317
-0.030007651 -0.081731938 -0.17626345
-0.030005004 -0.081655815 -0.17626968
-0.030002516 -0.081581742 -0.17627396
-0.030000653 -0.081505969 -0.1762642
-0.029999997 -0.081428766 -0.17622843
-0.029999694 -0.081353687 -0.17618674
-0.029997341 -0.081277698 -0.17618696
-0.029995184 -0.081201792 -0.17618319
-0.029993281 -0.081127979 -0.17617549
-0.029991221 -0.081052117 -0.17616972
-0.029989356 -0.080976352 -0.17615998
-0.029987395 -0.080900535 -0.17615221
-0.029986309 -0.080825105 -0.17612648
-0.029985616 -0.080749862 -0.17609277
-0.029984336 -0.08067435 -0.17607102
-0.029983681 -0.080597147 -0.17603527
-0.029982304 -0.080521591 -0.17601553
-0.029980306 -0.080447733 -0.1760098
-0.029978734 -0.080372088 -0.17599407
-0.029977063 -0.080296405 -0.17598033
-0.029974185 -0.080222152 -0.17599258
-0.029972125 -0.08014629 -0.17598683
-0.029970028 -0.080072388 -0.1759831
-0.029967342 -0.079998225 -0.17599137
-0.029964991 -0.079922237 -0.17599159
-0.029964296 -0.079846986 -0.17595789
-0.029964129 -0.079769999 -0.17591213
-0.029963534 -0.079694793 -0.17587641
-0.029961435 -0.07962089 -0.1758727
-0.029959083 -0.079544902 -0.17587292
-0.029957473 -0.079471208 -0.17585921
-0.029956426 -0.079393834 -0.17583145
-0.029955439 -0.079318449 -0.17580372
-0.02995621 -0.079243854 -0.17574005
-0.029957058 -0.079165347 -0.17567229
-0.029956266 -0.079090059 -0.17564057
-0.029954888 -0.079014502 -0.17562082
-0.029953182 -0.078940772 -0.17560911
-0.029951317 -0.078864999 -0.17559937
-0.029949609 -0.078791268 -0.17558765
-0.029947646 -0.078715459 -0.17557991
-0.02994588 -0.078639731 -0.17556813
-0.029944172 -0.078566 -0.17555645
-0.029943185 -0.078490615 -0.17552871
-0.029942004 -0.078415148 -0.17550498
-0.029939516 -0.078341074 -0.17550924
-0.029938724 -0.078265779 -0.17547753
-0.029939339 -0.078189142 -0.17541581
-0.029938215 -0.078115672 -0.17539212
-0.029936742 -0.078040071 -0.17537437
-0.029935462 -0.077964567 -0.17535263
-0.029934378 -0.077889137 -0.1753269
-0.029933255 -0.077815674 -0.17530322
-0.02993145 -0.077741899 -0.17529351
-0.029929489 -0.077666081 -0.17528576
-0.029929284 -0.077591054 -0.17524204
-0.029929174 -0.077516064 -0.17519635
-0.029927798 -0.077440508 -0.17517661
-0.029927066 -0.077367216 -0.17514493
-0.029925885 -0.077291749 -0.17512119
-0.029924665 -0.077218235 -0.17509949
-0.029923189 -0.077142633 -0.17508176
-0.029921092 -0.077068731 -0.17507803
-0.029919092 -0.076994874 -0.17507233
-0.029916251 -0.076918662 -0.17508255
-0.029912945 -0.076846197 -0.17510483
-0.029909577 -0.076771721 -0.17512709
-0.02990582 -0.076697081 -0.17515734
-0.029901927 -0.076624349 -0.1751916
-0.029898366 -0.076549791 -0.17521784
-0.029894803 -0.076475233 -0.17524409
-0.029890265 -0.076400243 -0.17529029
-0.029885493 -0.076327115 -0.17534254
-0.029881835 -0.07625252 -0.17537078
-0.02987837 -0.076178007 -0.17539503
-0.030173996 -0.096092381 -0.17682235
-0.030172469 -0.096014783 -0.17680457
-0.030170707 -0.095939055 -0.17679282
-0.030168457 -0.095863104 -0.17679104
-0.030165778 -0.095788941 -0.17679931
-0.030162865 -0.09571664 -0.1768136
-0.030160518 -0.095640659 -0.17681384
-0.030158659 -0.095564887 -0.1768041
-0.030156214 -0.095488846 -0.17680632
-0.030153204 -0.095416509 -0.17682263
-0.030150231 -0.095342211 -0.17683688
-0.030147649 -0.095268086 -0.17684314
-0.030144971 -0.095193923 -0.17685142
-0.030142389 -0.095119804 -0.17685768
-0.030141193 -0.095040381 -0.17683187
-0.030140055 -0.094962962 -0.17680609
-0.030137941 -0.094885103 -0.17680028
-0.030135458 -0.094811022 -0.17680454
-0.030133404 -0.09473516 -0.17679879
-0.030131115 -0.094661176 -0.17679907
-0.030128572 -0.094585098 -0.17680329
-0.030125894 -0.094510935 -0.17681156
-0.030123936 -0.094435118 -0.1768038
-0.030122273 -0.094359428 -0.17679006
-0.030119535 -0.094283268 -0.17679828
-0.030116193 -0.094212756 -0.17682262
-0.030112928 -0.094138324 -0.17684287
-0.030106433 -0.093912572 -0.17683361
-0.030105002 -0.093835019 -0.17681384
-0.030102948 -0.093759164 -0.17680806
-0.030100074 -0.093684912 -0.17682034
-0.030097198 -0.093610659 -0.17683259
-0.030094422 -0.093536444 -0.17684287
-0.030091742 -0.093462281 -0.17685112
-0.030089591 -0.093386382 -0.17684737
-0.030088257 -0.093308866 -0.17682558
-0.030086828 -0.09323132 -0.17680578
-0.030085104 -0.093153633 -0.176792
-0.030083636 -0.093078032 -0.17677425
-0.03008119 -0.093002006 -0.17677647
-0.03007818 -0.092929661 -0.17679279
-0.030075539 -0.092853539 -0.176799
-0.030073153 -0.092779502 -0.17680128
-0.03007067 -0.092705429 -0.17680556
-0.030068224 -0.092629395 -0.17680778
-0.030065974 -0.092553452 -0.176806
-0.030063784 -0.092479497 -0.17680429
-0.030061768 -0.092401683 -0.1767965
-0.030059479 -0.092327699 -0.17679676
-0.030056937 -0.092251614 -0.176801
-0.030054647 -0.092177629 -0.17680128
-0.030052301 -0.092101634 -0.1768015
-0.030049954 -0.092025653 -0.17680174
-0.0300478 -0.091949746 -0.17679797
-0.030045746 -0.091873884 -0.1767922
-0.030044608 -0.091796465 -0.17676644
-0.030043608 -0.091717131 -0.17673662
-0.030041553 -0.09164127 -0.17673086
-0.030039167 -0.091567233 -0.17673314
-0.030037209 -0.091491424 -0.17672537
-0.030035486 -0.091413736 -0.17671157
-0.030033197 -0.091339745 -0.17671186
-0.030030459 -0.091263585 -0.17672008
-0.030027742 -0.091191374 -0.17673039
-0.030024907 -0.091115162 -0.17674062
-0.030021993 -0.091042869 -0.17675489
-0.030018691 -0.090970397 -0.1767772
-0.030015854 -0.090894192 -0.17678742
-0.030017274 -0.09081199 -0.17670558
-0.030015979 -0.09073253 -0.17668176
-0.030013496 -0.090658449 -0.17668602
-0.030010719 -0.090584241 -0.1766963
-0.030008137 -0.090510115 -0.17670256
-0.030005887 -0.090434171 -0.1767008
-0.03000354 -0.090358183 -0.17670102
-0.030001974 -0.090282537 -0.17668527
-0.030001363 -0.090203375 -0.17664747
-0.02999964 -0.090125695 -0.17663367
-0.029997878 -0.090049967 -0.17662191
-0.029996643 -0.089972503 -0.17659815
-0.029994685 -0.089896686 -0.17659038
-0.029992202 -0.089822605 -0.17659467
-0.029990382 -0.089744881 -0.17658286
-0.029988816 -0.089669243 -0.17656711
-0.029986175 -0.08959312 -0.17657334
-0.02998336 -0.089520872 -0.17658564
-0.029981403 -0.089445047 -0.1765779
-0.029980108 -0.089365587 -0.17655405
-0.02997821 -0.089291766 -0.17654637
-0.02997596 -0.089215823 -0.17654459
-0.029973809 -0.089139923 -0.17654082
-0.029971754 -0.089064062 -0.17653507
-0.0299697 -0.0889882 -0.1765293
-0.029967314 -0.088914171 -0.17653158
-0.029964769 -0.088838093 -0.17653582
-0.029962579 -0.088764146 -0.17653409
-0.029961871 -0.088684939 -0.17649826
-0.029960109 -0.088609211 -0.17648652
-0.029957762 -0.088533223 -0.17648676
-0.029955316 -0.08845719 -0.17648898
-0.029952832 -0.088383108 -0.17649326
-0.02994992 -0.088310815 -0.17650756
-0.029947279 -0.088234693 -0.17651378
-0.029945128 -0.088158786 -0.17651001
-0.029943269 -0.088083021 -0.17650026
-0.029940784 -0.08800894 -0.17650454
-0.029938241 -0.087932862 -0.17650875
-0.029936383 -0.08785709 -0.17649901
-0.029934425 -0.08778128 -0.17649126
-0.029932175 -0.087705329 -0.17648949
-0.029930081 -0.087631427 -0.17648578
-0.029927831 -0.087555483 -0.176484
-0.029925153 -0.087481312 -0.17649227
-0.029922377 -0.087407105 -0.17650253
-0.029920029 -0.087331116 -0.17650276
-0.029917642 -0.08725708 -0.17650504
-0.0299151 -0.087181002 -0.17650926
-0.029913768 -0.087103494 -0.17648748
-0.029911907 -0.087027721 -0.17647773
-0.029909756 -0.086951822 -0.17647398
-0.029908288 -0.086876221 -0.17645621
-0.029906427 -0.086800449 -0.17644647
-0.029904373 -0.086724594 -0.17644072
-0.029902279 -0.086650684 -0.17643699
-0.029899444 -0.08657448 -0.17644721
-0.029896766 -0.086500317 -0.17645547
-0.029894086 -0.086426146 -0.17646374
-0.029891407 -0.086351983 -0.17647201
-0.029889645 -0.086276256 -0.17646027
-0.029888507 -0.086198837 -0.17643447
-0.029886454 -0.086122975 -0.17642871
-0.02988397 -0.086048894 -0.176433
-0.029881231 -0.085972734 -0.17644122
-0.029879138 -0.085898831 -0.1764375
-0.029876987 -0.085822925 -0.17643374
-0.029874209 -0.085748717 -0.17644399
-0.029871823 -0.085674681 -0.17644626
-0.029869672 -0.085598782 -0.1764425
-0.02986791 -0.085523054 -0.17643076
-0.029866675 -0.085445583 -0.17640698
-0.029865108 -0.085369945 -0.17639123
-0.029862663 -0.085293911 -0.17639345
-0.029860081 -0.085219786 -0.17639972
-0.029858749 -0.085142277 -0.17637795
-0.02985728 -0.085066684 -0.1763602
-0.029855128 -0.084990777 -0.17635643
-0.029853132 -0.084916919 -0.17635071
-0.029850492 -0.084840797 -0.17635694
-0.029847715 -0.084766589 -0.17636722
-0.029845661 -0.084690735 -0.17636146
-0.029843997 -0.084615044 -0.1763477
-0.029841747 -0.084539101 -0.17634594
-0.029839654 -0.084465198 -0.17634222
-0.029837698 -0.084389381 -0.17633447
-0.029835641 -0.084313519 -0.17632869
-0.029832963 -0.084239356 -0.17633697
-0.029830284 -0.084165193 -0.17634523
-0.02982774 -0.084089115 -0.17634946
-0.02982516 -0.084014989 -0.17635573
-0.029822811 -0.083939001 -0.17635596
-0.029821537 -0.083863489 -0.17633423
-0.029820597 -0.08378616 -0.17630446
-0.029819226 -0.083710603 -0.17628472
-0.029817073 -0.083634697 -0.17628095
-0.029815605 -0.083559103 -0.17626321
-0.029814038 -0.083483458 -0.17624746
-0.029811164 -0.083409205 -0.17625973
-0.029808192 -0.083334908 -0.17627397
-0.029805513 -0.083260745 -0.17628226
-0.02980336 -0.083184846 -0.17627847
-0.029801209 -0.083108939 -0.17627472
-0.029799018 -0.083034992 -0.176273
-0.029796572 -0.082958959 -0.17627524
-0.029793991 -0.082884841 -0.1762815
-0.02979262 -0.082809284 -0.17626175
-0.029790858 -0.082733557 -0.17625001
-0.029788375 -0.082659476 -0.17625427
-0.029785929 -0.082583442 -0.17625651
-0.029783249 -0.082509279 -0.17626478
-0.029780414 -0.082433075 -0.17627499
-0.029778127 -0.082359076 -0.17627528
-0.029776169 -0.082283266 -0.1762675
-0.029775189 -0.082207888 -0.17623979
-0.029774636 -0.082130723 -0.17620203
-0.029773071 -0.082055084 -0.17618628
-0.029771309 -0.081979357 -0.17617452
-0.029769352 -0.08190354 -0.17616677
-0.029767493 -0.081827767 -0.17615701
-0.029765595 -0.081753947 -0.17614931
-0.029763248 -0.081677958 -0.17614955
-0.029760666 -0.08160384 -0.17615581
-0.029758709 -0.081528023 -0.17614806
-0.02975845 -0.081450991 -0.17610431
-0.029757567 -0.081375659 -0.17607456
-0.029756 -0.081300013 -0.17605883
-0.029753946 -0.081224158 -0.17605306
-0.029751267 -0.081149988 -0.17606133
-0.029748686 -0.08107587 -0.17606759
-0.029746827 -0.081000097 -0.17605785
-0.02974526 -0.080924451 -0.17604209
-0.029744279 -0.080849074 -0.17601436
-0.029743494 -0.080773778 -0.17598265
-0.029742064 -0.080696225 -0.17596287
-0.029741181 -0.080620892 -0.17593314
-0.029739322 -0.08054512 -0.17592338
-0.029737229 -0.080471218 -0.17591967
-0.029736249 -0.080395833 -0.17589194
-0.029734876 -0.080320284 -0.17587219
-0.029732004 -0.080246031 -0.17588446
-0.029729363 -0.080169909 -0.17589068
-0.029727073 -0.080095917 -0.17589095
-0.02972459 -0.080021836 -0.17589523
-0.029722633 -0.079946026 -0.17588747
-0.02972253 -0.079871036 -0.17584178
-0.029722273 -0.079794005 -0.17579803
-0.029720608 -0.079718322 -0.17578426
-0.0297192 -0.079644717 -0.17576657
-0.029718023 -0.07956925 -0.17574283
-0.029716261 -0.079493523 -0.17573109
-0.029714011 -0.079417579 -0.17572933
-0.02971391 -0.079342589 -0.17568362
-0.029714823 -0.079266086 -0.17561591
-0.029714135 -0.079190835 -0.17558219
-0.029713839 -0.079115756 -0.17554048
-0.029712174 -0.079040073 -0.17552672
-0.029709788 -0.078966036 -0.175529
-0.029707929 -0.078890264 -0.17551926
-0.029706851 -0.078814842 -0.17549351
-0.029705577 -0.07873933 -0.17547178
-0.02970407 -0.078665689 -0.17545608
-0.029702503 -0.07859005 -0.17544033
-0.029700899 -0.078516364 -0.17542663
-0.029698942 -0.078440547 -0.17541888
-0.029697044 -0.078366727 -0.17541116
-0.0296962 -0.078289434 -0.1753794
-0.029696196 -0.078214496 -0.1753317
-0.029695274 -0.078141108 -0.17530401
-0.029694099 -0.078065641 -0.17528027
-0.02969341 -0.077990398 -0.17524657
-0.029692626 -0.077915102 -0.17521483
-0.029691646 -0.077839717 -0.17518711
-0.029690139 -0.077766076 -0.17517141
-0.029688278 -0.077690303 -0.17516166
-0.029687356 -0.077616923 -0.17513397
-0.029687684 -0.077540159 -0.17507823
-0.029686078 -0.077466466 -0.17506453
-0.029684279 -0.077392697 -0.17505482
-0.029682713 -0.077317052 -0.17503908
-0.029680815 -0.077243239 -0.17503136
-0.029679054 -0.077167511 -0.17501962
-0.029678328 -0.077094212 -0.17498794
-0.029676761 -0.077018574 -0.17497219
-0.029674083 -0.076944411 -0.17498046
-0.029670779 -0.076871939 -0.17500275
-0.02966683 -0.076797202 -0.17503698
-0.02966298 -0.076722518 -0.17506921
-0.029659482 -0.076649956 -0.1750955
-0.029656254 -0.076573581 -0.17511371
-0.029652756 -0.076501019 -0.17513999
-0.029647637 -0.076425761 -0.1751982
-0.029642282 -0.07635238 -0.17526242
-0.029636733 -0.076278903 -0.17533065
-0.029908864 -0.096086398 -0.1766701
-0.029905563 -0.096013926 -0.1766924
-0.029902555 -0.095941588 -0.1767087
-0.029899584 -0.095867291 -0.17672294
-0.02989763 -0.095791474 -0.1767152
-0.02989601 -0.095713839 -0.1766994
-0.029893529 -0.09563975 -0.17670366
-0.029890656 -0.095565505 -0.17671594
-0.029887844 -0.09549325 -0.17672823
-0.029885108 -0.095417082 -0.17673646
-0.029882295 -0.095344827 -0.17674875
-0.029879851 -0.095268801 -0.17675099
-0.02987737 -0.09519472 -0.17675525
-0.029874656 -0.095122509 -0.17676556
-0.029873366 -0.095043048 -0.17674175
-0.029872995 -0.094962016 -0.17669789
-0.029870845 -0.094886117 -0.17669412
-0.029868364 -0.094812036 -0.1766984
-0.029865883 -0.094737962 -0.17670268
-0.029863441 -0.094661921 -0.1767049
-0.029860629 -0.094589673 -0.17671721
-0.029857561 -0.094515331 -0.17673346
-0.029854786 -0.094441123 -0.17674372
-0.029851681 -0.094368741 -0.17676201
-0.029848808 -0.094294488 -0.17677426
-0.029846758 -0.094218627 -0.17676851
-0.029846288 -0.094137557 -0.17672667
-0.029845253 -0.094060175 -0.17669889
-0.029842675 -0.093986049 -0.17670515
-0.029839996 -0.093911886 -0.17671341
-0.029837457 -0.093835808 -0.17671764
-0.029835172 -0.093761817 -0.17671792
-0.029832495 -0.093687654 -0.17672619
-0.029829916 -0.093613535 -0.17673245
-0.029827278 -0.093537413 -0.17673868
-0.029824993 -0.093463421 -0.17673895
-0.02982505 -0.093380615 -0.17668507
-0.029824875 -0.093299672 -0.17663723
-0.029822785 -0.09322577 -0.17663351
-0.029820343 -0.093149737 -0.17663574
-0.029817764 -0.093075618 -0.176642
-0.029815419 -0.092999622 -0.17664224
-0.029812938 -0.092925549 -0.17664652
-0.029809734 -0.092853114 -0.1766668
-0.029806238 -0.09278056 -0.1766931
-0.02980274 -0.092707999 -0.17671938
-0.029799966 -0.092633791 -0.17672963
-0.029800083 -0.092552982 -0.1766758
-0.029799087 -0.092473648 -0.17664599
-0.029796703 -0.092399612 -0.17664826
-0.029794222 -0.092325538 -0.17665254
-0.029791487 -0.092249371 -0.17666075
-0.029788772 -0.09217716 -0.17667106
-0.029786095 -0.092102997 -0.17667933
-0.029783223 -0.092028737 -0.17669159
-0.029780351 -0.091954485 -0.17670384
-0.029780507 -0.091871724 -0.17664798
-0.029780526 -0.09179087 -0.17659613
-0.029779393 -0.091713451 -0.17657036
-0.029777441 -0.091637634 -0.17656261
-0.029774334 -0.091565251 -0.17658089
-0.029771071 -0.09149082 -0.17660114
-0.029769508 -0.091415182 -0.17658541
-0.029767457 -0.09133932 -0.17657962
-0.02976439 -0.091264978 -0.1765959
-0.02976099 -0.091192469 -0.17662019
-0.029758411 -0.091118351 -0.17662644
-0.029756065 -0.091042355 -0.17662668
-0.029753782 -0.090968363 -0.17662695
-0.029751338 -0.09089233 -0.17662919
-0.029749483 -0.090816557 -0.17661943
-0.029747665 -0.090738833 -0.17660761
-0.029745713 -0.090663016 -0.17659986
-0.029743955 -0.090587288 -0.17658812
-0.029741805 -0.090511382 -0.17658436
-0.02973952 -0.090437397 -0.17658463
-0.029737506 -0.090359583 -0.17657682
-0.029736238 -0.090284072 -0.17655508
-0.029734518 -0.090206385 -0.1765413
-0.02973319 -0.090128876 -0.17651951
-0.029731959 -0.090051413 -0.17649573
-0.029730102 -0.08997564 -0.17648596
-0.029728051 -0.089899778 -0.1764802
-0.029725805 -0.089823835 -0.17647845
-0.029723421 -0.089749798 -0.17648071
-0.029721566 -0.089674026 -0.17647097
-0.029719748 -0.089596301 -0.17645916
-0.029717697 -0.08952044 -0.1764534
-0.029715803 -0.089446627 -0.17644569
-0.029713791 -0.089368813 -0.17643788
-0.029711504 -0.089294821 -0.17643815
-0.029709257 -0.089218877 -0.17643639
-0.029707206 -0.089143015 -0.17643063
-0.029704725 -0.089068934 -0.1764349
-0.029702146 -0.088994816 -0.17644116
-0.029699605 -0.088918738 -0.17644539
-0.02969775 -0.088842966 -0.17643565
-0.029696286 -0.088767365 -0.17641789
-0.029694332 -0.088691548 -0.17641014
-0.02969189 -0.088615522 -0.17641236
-0.029689506 -0.088541485 -0.17641464
-0.029687259 -0.088465542 -0.17641288
-0.029684583 -0.088391371 -0.17642114
-0.029682435 -0.088315472 -0.17641737
-0.02968091 -0.088237874 -0.17639957
-0.02967882 -0.088163972 -0.17639586
-0.029676279 -0.088087894 -0.17640008
-0.029674092 -0.088013947 -0.17639837
-0.029672138 -0.08793813 -0.1763906
-0.029669892 -0.087862186 -0.17638883
-0.029667312 -0.08778806 -0.1763951
-0.029664675 -0.087711945 -0.17640133
-0.029662194 -0.087637864 -0.17640559
-0.029660104 -0.087563962 -0.17640188
-0.029657954 -0.087488055 -0.17639811
-0.029655317 -0.087411933 -0.17640434
-0.02965307 -0.087335989 -0.17640257
-0.029651508 -0.087260351 -0.17638683
-0.029649749 -0.087184623 -0.17637506
-0.029648187 -0.087108977 -0.17635933
-0.029647054 -0.087031558 -0.17633355
-0.029645432 -0.086953916 -0.17631775
-0.029642951 -0.086879842 -0.17632203
-0.029640274 -0.086805671 -0.1763303
-0.029637501 -0.086731464 -0.17634055
-0.02963453 -0.086657166 -0.17635481
-0.029632479 -0.086581305 -0.17634904
-0.029630817 -0.086505622 -0.1763353
-0.029628631 -0.086431675 -0.17633358
-0.02962609 -0.086355597 -0.17633781
-0.029624039 -0.086279742 -0.17633203
-0.029622184 -0.08620397 -0.17632228
-0.029620191 -0.086130105 -0.17631656
-0.029618042 -0.086054206 -0.1763128
-0.029615795 -0.085978255 -0.17631105
-0.029613413 -0.085904226 -0.17631331
-0.029610345 -0.085829884 -0.17632957
-0.029607277 -0.085755542 -0.17634583
-0.029604601 -0.085681379 -0.17635408
-0.029602353 -0.085605435 -0.17635232
-0.029601183 -0.085529968 -0.17632858
-0.029600048 -0.085452542 -0.17630281
-0.029598292 -0.085376814 -0.17629105
-0.02959663 -0.085301131 -0.17627731
-0.02959458 -0.085225269 -0.17627153
-0.029592626 -0.085149452 -0.17626378
-0.029590966 -0.085073769 -0.17625004
-0.029589012 -0.084997952 -0.17624228
-0.029586433 -0.084923834 -0.17624855
-0.02958356 -0.084849581 -0.1762608
-0.029580982 -0.084775463 -0.17626706
-0.029578736 -0.084699512 -0.1762653
-0.029576391 -0.084623523 -0.17626554
-0.029574927 -0.084547922 -0.17624778
-0.029573364 -0.084472284 -0.17623204
-0.02957092 -0.084396251 -0.17623428
-0.029567951 -0.084321953 -0.17624852
-0.029565275 -0.08424779 -0.17625679
-0.029562794 -0.084173709 -0.17626107
-0.029560253 -0.084097631 -0.1762653
-0.029557576 -0.084023468 -0.17627355
-0.029555526 -0.083947606 -0.17626779
-0.02955455 -0.083872229 -0.17624006
-0.029553417 -0.08379481 -0.17621428
-0.029551951 -0.083719209 -0.17619653
-0.029550683 -0.083643697 -0.17617479
-0.029548533 -0.083567798 -0.17617103
-0.029545955 -0.083493672 -0.17617729
-0.029543767 -0.083419725 -0.17617558
-0.029541619 -0.083343826 -0.17617181
-0.029539175 -0.083267793 -0.17617404
-0.029536791 -0.083193757 -0.17617632
-0.029534644 -0.083117858 -0.17617255
-0.029532749 -0.083044037 -0.17616484
-0.029530697 -0.082968175 -0.17615908
-0.029528547 -0.082892276 -0.17615533
-0.029526165 -0.08281824 -0.17615759
-0.029523488 -0.082744077 -0.17616586
-0.029520812 -0.082669906 -0.17617413
-0.029517684 -0.082593568 -0.17619033
-0.029515009 -0.082519405 -0.1761986
-0.029512957 -0.08244355 -0.17619283
-0.029511785 -0.082368076 -0.1761691
-0.0295112 -0.08229287 -0.17613338
-0.029511182 -0.082213975 -0.17608359
-0.02951001 -0.082138509 -0.17605984
-0.029507764 -0.082062565 -0.17605808
-0.029505283 -0.081988484 -0.17606235
-0.029503193 -0.081914581 -0.17605865
-0.029501669 -0.081836984 -0.17604086
-0.02949997 -0.081763253 -0.17602915
-0.029497625 -0.081687264 -0.17602937
-0.029495046 -0.081613138 -0.17603564
-0.029493483 -0.0815375 -0.17601989
-0.029491529 -0.081461683 -0.17601213
-0.029490065 -0.081386089 -0.1759944
-0.029489519 -0.081308931 -0.17595662
-0.029487722 -0.081235155 -0.17594692
-0.029486258 -0.081159554 -0.17592917
-0.029484205 -0.0810837 -0.17592341
-0.029481724 -0.081009619 -0.1759277
-0.029479282 -0.080933586 -0.1759299
-0.029477388 -0.080859765 -0.1759222
-0.029476803 -0.080784559 -0.17588648
-0.029475767 -0.080707185 -0.17585871
-0.029474206 -0.080631547 -0.17584296
-0.02947274 -0.080555946 -0.17582521
-0.029471628 -0.080482475 -0.17580153
-0.029470164 -0.080406882 -0.17578378
-0.029467292 -0.080332629 -0.17579603
-0.029464321 -0.080258332 -0.17581031
-0.029462367 -0.080182515 -0.17580254
-0.029461 -0.080106959 -0.1757828
-0.029461002 -0.080032021 -0.1757351
-0.029460652 -0.079954945 -0.17569333
-0.029458698 -0.079879127 -0.17568558
-0.029456314 -0.079805091 -0.17568785
-0.029454615 -0.079731368 -0.17567614
-0.02945276 -0.079655595 -0.17566639
-0.029450709 -0.079579733 -0.17566064
-0.0294494 -0.079506181 -0.17564094
-0.029448267 -0.079428755 -0.17561516
-0.029449051 -0.07935416 -0.17555149
-0.029449189 -0.079277307 -0.17549974
-0.029448213 -0.079201922 -0.17547201
-0.029446846 -0.079126373 -0.17545228
-0.029444855 -0.079052508 -0.17544657
-0.029443096 -0.07897678 -0.17543481
-0.02944218 -0.078903399 -0.17540713
-0.02944134 -0.078826107 -0.17537534
-0.029439054 -0.078752115 -0.17537563
-0.029436279 -0.078677908 -0.17538589
-0.029433994 -0.078603916 -0.17538616
-0.029432138 -0.078528143 -0.17537642
-0.029430771 -0.078452595 -0.17535666
-0.029430969 -0.078377739 -0.17530498
-0.029430676 -0.078302659 -0.17526327
-0.029430091 -0.078227453 -0.17522755
-0.029429507 -0.078152247 -0.17519183
-0.029428726 -0.078076959 -0.17516011
-0.02942732 -0.078003362 -0.17514241
-0.029426051 -0.07792785 -0.17512065
-0.029424392 -0.07785216 -0.17510691
-0.029422203 -0.077778213 -0.1751052
-0.029421814 -0.077703096 -0.17506549
-0.029424004 -0.07762716 -0.1749718
-0.029422306 -0.077553429 -0.17496011
-0.02942051 -0.077479653 -0.17495039
-0.02941924 -0.077404141 -0.17492865
-0.029417345 -0.077330329 -0.17492095
-0.029415255 -0.077256419 -0.17491722
-0.029413301 -0.077180609 -0.17490947
-0.029410625 -0.077106439 -0.17491773
-0.029407812 -0.07703419 -0.17493004
-0.029405076 -0.076958023 -0.17493826
-0.029402167 -0.076885723 -0.17495255
-0.029398903 -0.076811299 -0.1749728
-0.029395249 -0.076736696 -0.17500104
-0.029392082 -0.076662317 -0.17501929
-0.029388625 -0.076587796 -0.17504352
-0.029384052 -0.076514758 -0.17509179
-0.029378405 -0.076441243 -0.17516202
-0.02937348 -0.076366074 -0.1752162
-0.029370274 -0.076293647 -0.17523651
-0.029641384 -0.096093439 -0.17664136
-0.02963822 -0.096019052 -0.17665961
-0.029635737 -0.095944971 -0.17666388
-0.02963388 -0.095869198 -0.17665413
-0.029631827 -0.095793344 -0.17664838
-0.029629579 -0.0957174 -0.17664661
-0.029626472 -0.09564501 -0.17666489
-0.029623365 -0.095572628 -0.17668319
-0.029621216 -0.095496729 -0.17667943
-0.029618539 -0.095422558 -0.17668769
-0.029615957 -0.095348433 -0.17669396
-0.029613417 -0.095272362 -0.17669818
-0.029610075 -0.095201842 -0.17672253
-0.02960648 -0.095129237 -0.17675081
-0.029605052 -0.095051691 -0.17673102
-0.029604973 -0.094970793 -0.17668119
-0.029603155 -0.094893068 -0.17666939
-0.029601494 -0.094817385 -0.17665562
-0.029599674 -0.094739653 -0.17664383
-0.029596763 -0.094667353 -0.17665814
-0.029593656 -0.09459497 -0.17667644
-0.029590685 -0.094520673 -0.1766907
-0.02958791 -0.094446465 -0.17670095
-0.029585429 -0.094372392 -0.17670523
-0.02958318 -0.09429644 -0.17670345
-0.029580601 -0.094222322 -0.17670973
-0.029577825 -0.094148114 -0.17671999
-0.029575676 -0.094072208 -0.17671622
-0.02957372 -0.093996391 -0.17670846
-0.029571043 -0.093922228 -0.17671673
-0.029569088 -0.093846411 -0.17670897
-0.029567895 -0.093766987 -0.17668316
-0.029566135 -0.09369126 -0.1766714
-0.02956379 -0.093615271 -0.17667162
-0.029561602 -0.093541324 -0.1766699
-0.029561423 -0.093460388 -0.17662206
-0.029560562 -0.09337914 -0.17658821
-0.029558081 -0.093305066 -0.17659247
-0.029555168 -0.093232766 -0.17660677
-0.029552726 -0.093156733 -0.17660901
-0.029550243 -0.093082651 -0.17661327
-0.029547567 -0.093008488 -0.17662153
-0.029545084 -0.092934407 -0.1766258
-0.029542837 -0.092858464 -0.17662403
-0.029540785 -0.092782602 -0.17661828
-0.029538829 -0.092706792 -0.17661053
-0.029536679 -0.092630886 -0.17660677
-0.0295341 -0.09255676 -0.17661303
-0.029531324 -0.092482552 -0.17662328
-0.029529076 -0.092406608 -0.17662153
-0.029526789 -0.092332616 -0.17662179
-0.029524345 -0.092256583 -0.17662403
-0.029522195 -0.092180684 -0.17662026
-0.029519811 -0.092106648 -0.17662254
-0.029517133 -0.092032485 -0.1766308
-0.029514788 -0.091956489 -0.17663103
-0.029512735 -0.091880634 -0.17662528
-0.029511113 -0.091802992 -0.17660949
-0.029511327 -0.091722228 -0.17655365
-0.029509274 -0.091646373 -0.17654788
-0.029506363 -0.091574073 -0.17656219
-0.029503919 -0.09149804 -0.17656443
-0.029501047 -0.09142378 -0.17657667
-0.029498134 -0.091351487 -0.17659098
-0.029495887 -0.091275543 -0.17658922
-0.029493932 -0.091199726 -0.17658146
-0.029491156 -0.091125518 -0.17659172
-0.029487893 -0.091051087 -0.17661196
-0.029485215 -0.090976924 -0.17662023
-0.029483691 -0.090899326 -0.17660245
-0.029482029 -0.090823643 -0.17658868
-0.029479781 -0.090747699 -0.17658693
-0.029477825 -0.090671882 -0.17657916
-0.029475775 -0.09059602 -0.1765734
-0.029473722 -0.090520166 -0.17656764
-0.029471571 -0.090444259 -0.17656389
-0.029469617 -0.09036845 -0.17655611
-0.029469928 -0.090287723 -0.17649829
-0.029468365 -0.090212077 -0.17648256
-0.029465627 -0.090135917 -0.17649077
-0.029462911 -0.090063706 -0.17650107
-0.029461425 -0.089984156 -0.17648125
-0.02946078 -0.089906953 -0.17644548
-0.029458532 -0.08983101 -0.17644371
-0.029455561 -0.089756712 -0.17645797
-0.029452551 -0.089684367 -0.17647427
-0.029450499 -0.089608505 -0.17646851
-0.029448349 -0.089532606 -0.17646474
-0.02944616 -0.089458659 -0.17646302
-0.029444342 -0.089380935 -0.17645121
-0.029442582 -0.089305207 -0.17643946
-0.029440237 -0.089229211 -0.1764397
-0.029438185 -0.089153357 -0.17643394
-0.029436288 -0.089079536 -0.17642623
-0.029434238 -0.089003682 -0.17642047
-0.029431695 -0.088927604 -0.17642468
-0.029428627 -0.088853262 -0.17644095
-0.029425949 -0.088779099 -0.17644921
-0.029424287 -0.088703409 -0.17643546
-0.029422957 -0.0886259 -0.17641367
-0.029421395 -0.088550262 -0.17639792
-0.029419243 -0.088474363 -0.17639416
-0.029416567 -0.088400193 -0.17640242
-0.029414183 -0.088326156 -0.1764047
-0.029411837 -0.088250168 -0.17640492
-0.029409062 -0.08817596 -0.17641519
-0.029406521 -0.088099882 -0.17641941
-0.029404528 -0.088026024 -0.1764137
-0.029401556 -0.087951727 -0.17642796
-0.029399112 -0.087875694 -0.1764302
-0.029397354 -0.087799966 -0.17641842
-0.029395204 -0.08772406 -0.17641467
-0.029393151 -0.087648205 -0.1764089
-0.029391158 -0.087574348 -0.17640319
-0.029389242 -0.087496571 -0.17639339
-0.029387249 -0.087422714 -0.17638767
-0.029384706 -0.087346636 -0.1763919
-0.029382752 -0.087270819 -0.17638415
-0.029381093 -0.087195136 -0.1763704
-0.029379332 -0.087119408 -0.17635864
-0.029377572 -0.08704368 -0.1763469
-0.029375561 -0.086965866 -0.17633909
-0.02937337 -0.086891919 -0.17633736
-0.029370889 -0.086817838 -0.17634164
-0.029368347 -0.08674176 -0.17634585
-0.029366489 -0.086665988 -0.17633611
-0.029364536 -0.086590171 -0.17632835
-0.02936225 -0.086516187 -0.17632863
-0.029359866 -0.08644215 -0.17633089
-0.029357851 -0.086364336 -0.17632309
-0.02935658 -0.086288825 -0.17630135
-0.029354723 -0.086213052 -0.17629158
-0.029352047 -0.086138889 -0.17629987
-0.029349271 -0.086064681 -0.17631012
-0.029347219 -0.08598882 -0.17630437
-0.029344736 -0.085914738 -0.17630863
-0.029341765 -0.085840441 -0.17632288
-0.029339029 -0.085764281 -0.1763311
-0.029336937 -0.085690379 -0.17632738
-0.029334886 -0.085614517 -0.17632163
-0.029333126 -0.08553879 -0.17630988
-0.029331503 -0.085461147 -0.17629409
-0.029329941 -0.085385509 -0.17627832
-0.029327653 -0.085311517 -0.17627861
-0.029325014 -0.085235395 -0.17628482
-0.029323313 -0.085161664 -0.17627312
-0.029321399 -0.085083894 -0.17626333
-0.02931921 -0.085009947 -0.1762616
-0.029316962 -0.084934004 -0.17625985
-0.029314674 -0.084860012 -0.17626011
-0.029312231 -0.084783979 -0.17626235
-0.029309653 -0.084709853 -0.17626861
-0.029307269 -0.084635817 -0.17627087
-0.029305508 -0.084560089 -0.17625913
-0.029303787 -0.084482409 -0.17624533
-0.029301794 -0.084408551 -0.17623961
-0.02929935 -0.084332518 -0.17624184
-0.02929638 -0.084258221 -0.17625611
-0.029293507 -0.084183969 -0.17626837
-0.029291162 -0.084107973 -0.17626858
-0.029289071 -0.08403407 -0.17626488
-0.029287213 -0.083958298 -0.17625511
-0.029285844 -0.083882749 -0.17623538
-0.029284613 -0.083805278 -0.1762116
-0.029283147 -0.083729684 -0.17619385
-0.029280666 -0.083655603 -0.17619812
-0.029278222 -0.08357957 -0.17620035
-0.029276365 -0.083503798 -0.17619058
-0.029274469 -0.083429985 -0.17618288
-0.029272515 -0.083354168 -0.17617512
-0.029270267 -0.083278224 -0.17617336
-0.029267784 -0.083204143 -0.17617762
-0.029265499 -0.083130151 -0.17617792
-0.029263446 -0.083054289 -0.17617214
-0.02926198 -0.082978696 -0.1761544
-0.029260222 -0.082902968 -0.17614265
-0.029257583 -0.082826845 -0.17614888
-0.029255003 -0.08275272 -0.17615515
-0.02925252 -0.082678646 -0.17615941
-0.029250272 -0.082602702 -0.17615765
-0.029248279 -0.082528837 -0.17615193
-0.029245934 -0.082452849 -0.17615214
-0.02924398 -0.082377031 -0.17614439
-0.029244017 -0.082300134 -0.17609465
-0.029243138 -0.082224801 -0.17606494
-0.029241281 -0.082149029 -0.17605518
-0.029238839 -0.082072988 -0.1760574
-0.029236747 -0.081999086 -0.17605367
-0.029234791 -0.081923276 -0.17604592
-0.02923231 -0.081849195 -0.17605019
-0.029230159 -0.081773296 -0.17604643
-0.029228205 -0.081697479 -0.17603868
-0.029226016 -0.081623524 -0.17603695
-0.029224159 -0.081547759 -0.17602719
-0.029222693 -0.081472158 -0.17600945
-0.029221326 -0.08139661 -0.17598972
-0.029219761 -0.081320964 -0.17597397
-0.029217808 -0.081245147 -0.1759662
-0.029215813 -0.081171289 -0.17596048
-0.029213957 -0.081095517 -0.17595074
-0.029211866 -0.081021614 -0.17594701
-0.029210635 -0.080944151 -0.17592323
-0.029210147 -0.080868982 -0.17588553
-0.029208288 -0.080793217 -0.17587577
-0.029206198 -0.080719307 -0.17587206
-0.029203949 -0.080643363 -0.17587028
