# .PCD v0.7 - Point Cloud Data file format
VERSION 0.7
FIELDS x y z
SIZE 4 4 4
TYPE F F F
COUNT 1 1 1
WIDTH 1269
HEIGHT 1
VIEWPOINT 0 0 0 1 0 0 0
POINTS 1269
DATA ascii
-0.030106053 -0.076480508 -0.17522049
-0.030101713 -0.0764056 -0.17526269
-0.030096751 -0.07633239 -0.17531893
-0.030091105 -0.076258875 -0.17538917
-0.0300838 -0.076184615 -0.17549333
-0.030079266 -0.076109625 -0.17553955
-0.030877357 -0.096074209 -0.17696786
-0.030874521 -0.095998004 -0.17697808
-0.030871607 -0.095925704 -0.17699239
-0.0308684 -0.095853277 -0.17701268
-0.030866148 -0.095777333 -0.17701092
-0.030863995 -0.095701426 -0.17700714
-0.030860787 -0.095628999 -0.17702743
-0.030858107 -0.095554836 -0.1770357
-0.030858116 -0.095473982 -0.17698386
-0.030856196 -0.095396213 -0.17697407
-0.030853515 -0.095322043 -0.17698234
-0.030850835 -0.09524788 -0.1769906
-0.030847922 -0.095175579 -0.1770049
-0.030845376 -0.095099509 -0.17700914
-0.030843124 -0.095023558 -0.17700738
-0.03084103 -0.094949663 -0.17700365
-0.030839927 -0.094870284 -0.17697583
-0.030839117 -0.094791032 -0.17694202
-0.030837256 -0.09471526 -0.17693226
-0.030834906 -0.094639271 -0.17693248
-0.030831933 -0.094564974 -0.17694676
-0.030828532 -0.094492465 -0.17697105
-0.030826144 -0.094418421 -0.17697331
-0.030824712 -0.094340876 -0.17695352
-0.030822594 -0.094263017 -0.17694771
-0.030820305 -0.094189025 -0.176948
-0.030818248 -0.094113171 -0.17694223
-0.030815665 -0.094039045 -0.17694852
-0.030812789 -0.093964793 -0.17696077
-0.030810343 -0.09388876 -0.176963
-0.030807663 -0.093814597 -0.17697126
-0.03080475 -0.093742296 -0.17698556
-0.030802106 -0.093666174 -0.17699179
-0.030800011 -0.093592271 -0.17698807
-0.030797563 -0.093516238 -0.1769903
-0.030794883 -0.093442075 -0.17699857
-0.030792339 -0.093365997 -0.17700279
-0.030790672 -0.093290314 -0.17698905
-0.030789338 -0.093212798 -0.17696726
-0.030787513 -0.093135074 -0.17695546
-0.030785456 -0.093059219 -0.17694969
-0.030784121 -0.092981711 -0.17692792
-0.030781772 -0.092905715 -0.17692815
-0.030779384 -0.092831686 -0.17693043
-0.030776937 -0.092755646 -0.17693265
-0.030774744 -0.092681706 -0.17693093
-0.030772395 -0.09260571 -0.17693116
-0.03076952 -0.092531458 -0.17694342
-0.030766606 -0.092459165 -0.17695773
-0.030764062 -0.092383087 -0.17696196
-0.030762296 -0.092307359 -0.1769502
-0.030760046 -0.092231408 -0.17694843
-0.030757403 -0.092155293 -0.17695466
-0.030755736 -0.09207961 -0.17694092
-0.030753875 -0.092003837 -0.17693114
-0.030751135 -0.09192767 -0.17693937
-0.030748455 -0.091853507 -0.17694764
-0.030746067 -0.09177947 -0.17694992
-0.030744011 -0.091703609 -0.17694415
-0.030742809 -0.091624193 -0.17691833
-0.030741377 -0.09154664 -0.17689854
-0.03073932 -0.091470778 -0.17689279
-0.030737458 -0.091395006 -0.17688303
-0.03073583 -0.091317371 -0.17686723
-0.030733638 -0.091243424 -0.17686552
-0.030730665 -0.091169119 -0.17687976
-0.030727496 -0.091094747 -0.17689802
-0.030724816 -0.091020577 -0.17690629
-0.030721903 -0.090948284 -0.17692059
-0.030718636 -0.090873852 -0.17694083
-0.030715859 -0.090799645 -0.17695111
-0.030714758 -0.090720266 -0.17692327
-0.030714629 -0.09064132 -0.17687549
-0.030713294 -0.090563819 -0.17685372
-0.03071147 -0.090486094 -0.17684191
-0.030709414 -0.090410233 -0.17683615
-0.030707125 -0.090336241 -0.17683643
-0.030704482 -0.090260118 -0.17684264
-0.030703964 -0.090181001 -0.17680284
-0.030703349 -0.090101846 -0.17676504
-0.030701488 -0.090026073 -0.17675528
-0.030699529 -0.089950256 -0.17674753
-0.030697376 -0.089874357 -0.17674376
-0.030695416 -0.08979854 -0.176736
-0.030693261 -0.089722633 -0.17673224
-0.030690776 -0.08964856 -0.1767365
-0.030688232 -0.089572482 -0.17674074
-0.030686369 -0.089496709 -0.17673098
-0.030684274 -0.089422807 -0.17672727
-0.030681632 -0.089346685 -0.17673349
-0.030678952 -0.089272521 -0.17674175
-0.030675588 -0.089198053 -0.176764
-0.03067402 -0.089122407 -0.17674825
-0.03067245 -0.089046769 -0.17673251
-0.0306702 -0.088970825 -0.17673074
-0.030667616 -0.088896699 -0.17673701
-0.030665364 -0.088820755 -0.17673525
-0.030663209 -0.088744849 -0.17673147
-0.030660529 -0.088670686 -0.17673975
-0.030657791 -0.088594519 -0.17674798
-0.030657429 -0.08851745 -0.17670621
-0.03065623 -0.088438027 -0.17668039
-0.030654661 -0.088362381 -0.17666465
-0.030652506 -0.088286482 -0.17666087
-0.030650547 -0.088210665 -0.17665312
-0.030648258 -0.088136673 -0.17665339
-0.030645713 -0.088060603 -0.17665762
-0.030643031 -0.087986432 -0.17666589
-0.030640449 -0.087912314 -0.17667216
-0.030637477 -0.087838016 -0.17668641
-0.030634504 -0.087763719 -0.17670068
-0.030632544 -0.08768791 -0.17669292
-0.030631403 -0.087610483 -0.17666712
-0.030629247 -0.087534577 -0.17666337
-0.030626899 -0.087458588 -0.17666361
-0.030624315 -0.08738447 -0.17666987
-0.030621674 -0.087308347 -0.17667609
-0.030618994 -0.087234184 -0.17668436
-0.030616313 -0.087160021 -0.17669263
-0.030613866 -0.087083988 -0.17669487
-0.030611869 -0.087010123 -0.17668915
-0.030610338 -0.086932525 -0.17667136
-0.030608475 -0.086856753 -0.17666161
-0.030606907 -0.086781114 -0.17664586
-0.03060678 -0.086702175 -0.17659806
-0.030604724 -0.086626314 -0.17659229
-0.030601652 -0.086551979 -0.17660856
-0.030599266 -0.086477943 -0.17661083
-0.030597208 -0.086402081 -0.17660508
-0.030594468 -0.086325921 -0.17661329
-0.030591555 -0.086253621 -0.17662759
-0.030588523 -0.086177327 -0.17664181
-0.030585513 -0.086104989 -0.17665809
-0.030583454 -0.086029127 -0.17665234
-0.030582022 -0.085951574 -0.17663255
-0.030580355 -0.085875891 -0.17661881
-0.0305782 -0.085799985 -0.17661504
-0.030575911 -0.085725993 -0.17661533
-0.030573659 -0.085650049 -0.17661355
-0.030571407 -0.085574105 -0.17661178
-0.030569447 -0.085498288 -0.17660403
-0.030568268 -0.085422821 -0.17658029
-0.030568238 -0.08534392 -0.17653051
-0.030566378 -0.085268147 -0.17652075
-0.030564222 -0.085192248 -0.17651698
-0.030562362 -0.085116476 -0.17650723
-0.030560598 -0.085040748 -0.17649549
-0.03055815 -0.084964715 -0.17649771
-0.030555334 -0.084892459 -0.17651002
-0.03055279 -0.084816381 -0.17651424
-0.03055083 -0.084740564 -0.17650649
-0.030548774 -0.08466471 -0.17650074
-0.03054662 -0.084588811 -0.17649695
-0.030544329 -0.084514819 -0.17649725
-0.030541882 -0.084438786 -0.17649947
-0.030539788 -0.084364876 -0.17649576
-0.030537438 -0.084288888 -0.17649598
-0.03053505 -0.084214851 -0.17649826
-0.030532798 -0.084138907 -0.17649649
-0.030530449 -0.084062919 -0.17649671
-0.030527767 -0.083988756 -0.17650498
-0.030525185 -0.08391463 -0.17651126
-0.030522445 -0.08383847 -0.17651948
-0.030520057 -0.083764434 -0.17652175
-0.030518917 -0.083687007 -0.17649597
-0.030517641 -0.083611503 -0.17647423
-0.030515486 -0.083535597 -0.17647047
-0.030513626 -0.083459824 -0.17646071
-0.030511627 -0.083385967 -0.17645499
-0.030509375 -0.083310023 -0.17645323
-0.030506987 -0.083235987 -0.1764555
-0.030503526 -0.083161473 -0.17647976
-0.030500066 -0.08308696 -0.176504
-0.030498166 -0.08301314 -0.1764963
-0.030496733 -0.082935587 -0.17647651
-0.030495066 -0.082859904 -0.17646275
-0.03049301 -0.082784042 -0.17645699
-0.030491635 -0.082708493 -0.17643726
-0.030489638 -0.082634628 -0.17643154
-0.030487094 -0.082558557 -0.17643577
-0.030484414 -0.082484387 -0.17644402
-0.030482063 -0.082408398 -0.17644426
-0.030479578 -0.082334317 -0.17644852
-0.030476995 -0.082260199 -0.1764548
-0.030475464 -0.082182601 -0.17643701
-0.030474968 -0.08210744 -0.17639929
-0.030473925 -0.082030058 -0.17637151
-0.030472845 -0.081954636 -0.1763458
-0.03047147 -0.081879087 -0.17632605
-0.030469939 -0.081801489 -0.17630824
-0.030468663 -0.081725977 -0.17628652
-0.030467093 -0.081650332 -0.17627078
-0.030465331 -0.081574604 -0.17625903
-0.03046304 -0.08150062 -0.17625931
-0.0304603 -0.081424452 -0.17626752
-0.030459316 -0.081349075 -0.17623979
-0.030458566 -0.081271827 -0.17620602
-0.030456569 -0.081197962 -0.1762003
-0.030454414 -0.081122063 -0.17619655
-0.030452356 -0.081046201 -0.17619079
-0.030450067 -0.08097221 -0.17619106
-0.030447192 -0.080897957 -0.17620333
-0.030445134 -0.080822095 -0.17619756
-0.030443527 -0.080748416 -0.17618386
-0.03044229 -0.080670945 -0.1761601
-0.030441307 -0.080595568 -0.17613235
-0.03044042 -0.080520235 -0.17610264
-0.030439669 -0.08044298 -0.17606886
-0.030438393 -0.080367476 -0.17604712
-0.030436823 -0.08029183 -0.17603138
-0.030435022 -0.080218062 -0.17602167
-0.030432867 -0.080142155 -0.17601791
-0.030430576 -0.080068164 -0.17601818
-0.030428091 -0.07999409 -0.17602246
-0.030426132 -0.079918273 -0.17601469
-0.030425148 -0.079842895 -0.17598698
-0.030424301 -0.079765603 -0.17595521
-0.030424098 -0.079690568 -0.17591149
-0.030423112 -0.079615191 -0.17588377
-0.030421643 -0.07953959 -0.17586601
-0.03041945 -0.079465643 -0.17586429
-0.030417491 -0.079389825 -0.17585653
-0.030415628 -0.079314053 -0.17584679
-0.030414313 -0.079240501 -0.17582709
-0.030415222 -0.079163991 -0.17575938
-0.030416753 -0.07908579 -0.17567763
-0.030416062 -0.079010539 -0.17564392
-0.030415175 -0.078935206 -0.17561418
-0.030413996 -0.078859739 -0.17559046
-0.030412193 -0.078785963 -0.17558074
-0.030410236 -0.078710146 -0.17557299
-0.03040814 -0.078636244 -0.17556927
-0.030405888 -0.0785603 -0.17556751
-0.030403696 -0.078486353 -0.17556578
-0.030401796 -0.078412533 -0.17555806
-0.030400226 -0.078336895 -0.17554232
-0.030398853 -0.078261338 -0.17552258
-0.030398551 -0.078186266 -0.17548087
-0.030399129 -0.078111582 -0.17542119
-0.030398477 -0.078034379 -0.17538542
-0.030397551 -0.077960998 -0.17535774
-0.030396469 -0.077885576 -0.17533201
-0.030394997 -0.077809975 -0.17531428
-0.030393196 -0.077736199 -0.17530456
-0.030391529 -0.077660516 -0.17529082
-0.030389825 -0.077586785 -0.17527911
-0.03038884 -0.077511407 -0.17525138
-0.030389709 -0.077436857 -0.17518571
-0.030388433 -0.077361345 -0.17516395
-0.030386826 -0.077287659 -0.17515028
-0.030385453 -0.077212103 -0.17513053
-0.030383846 -0.077138416 -0.17511682
-0.03038175 -0.077064514 -0.17511311
-0.03037907 -0.076990351 -0.17512137
-0.030376585 -0.07691627 -0.17512563
-0.030374099 -0.076842189 -0.17512992
-0.030371066 -0.076765895 -0.17514414
-0.030368056 -0.076693557 -0.17516044
-0.030364789 -0.076619133 -0.17518067
-0.030361915 -0.076544881 -0.17519294
-0.030358648 -0.07647045 -0.17521319
-0.030354701 -0.07639572 -0.17524743
-0.030350361 -0.076320812 -0.17528963
-0.030345984 -0.076247863 -0.17533389
-0.030337999 -0.076173298 -0.17545205
-0.030333232 -0.076100178 -0.1755043
-0.031191865 -0.096055828 -0.1769536
-0.031189283 -0.09598171 -0.17695986
-0.031186994 -0.095907718 -0.17696014
-0.031184414 -0.0958336 -0.1769664
-0.031181579 -0.095757388 -0.17697662
-0.031178998 -0.095683269 -0.17698291
-0.031176846 -0.095607363 -0.17697912
-0.031174362 -0.095533282 -0.17698342
-0.03117178 -0.095459163 -0.17698967
-0.03116996 -0.095381439 -0.17697787
-0.031168297 -0.095305756 -0.17696412
-0.03116595 -0.09522976 -0.17696434
-0.031163368 -0.095155641 -0.17697063
-0.03116069 -0.095081478 -0.17697889
-0.031158205 -0.095007397 -0.17698315
-0.03115619 -0.094929583 -0.17697535
-0.031154331 -0.094853811 -0.17696559
-0.031152509 -0.094776079 -0.17695379
-0.031150747 -0.094700351 -0.17694205
-0.031148789 -0.094624534 -0.1769343
-0.031147163 -0.094546899 -0.17691851
-0.031145304 -0.094471127 -0.17690873
-0.031141806 -0.094398573 -0.17693503
-0.031138407 -0.094326057 -0.17695932
-0.031135827 -0.094251931 -0.17696558
-0.031133479 -0.094175942 -0.17696582
-0.031131327 -0.094100043 -0.17696205
-0.031129271 -0.094024181 -0.1769563
-0.03112708 -0.093950234 -0.17695457
-0.031124637 -0.093874201 -0.1769568
-0.031122152 -0.093800128 -0.17696106
-0.031119376 -0.093725912 -0.17697133
-0.031117029 -0.093649924 -0.17697157
-0.031114547 -0.09357585 -0.17697583
-0.031112004 -0.093499765 -0.17698005
-0.031109618 -0.093425736 -0.17698234
-0.031106841 -0.093351528 -0.1769926
-0.031104982 -0.093275756 -0.17698285
-0.031104703 -0.093194768 -0.17693701
-0.031103173 -0.093117177 -0.17691921
-0.031101255 -0.093039401 -0.17690942
-0.0310992 -0.092963547 -0.17690365
-0.031096619 -0.092889421 -0.17690992
-0.031093707 -0.092817128 -0.17692423
-0.031090872 -0.092740916 -0.17693444
-0.031088583 -0.092666924 -0.17693472
-0.031085944 -0.092590809 -0.17694093
-0.03108385 -0.092516899 -0.17693722
-0.03108203 -0.092439175 -0.17692542
-0.031079741 -0.092365183 -0.17692569
-0.03107792 -0.092287458 -0.1769139
-0.031075768 -0.092211552 -0.17691013
-0.031073187 -0.092137434 -0.17691639
-0.031070508 -0.092063263 -0.17692468
-0.031067966 -0.091987193 -0.17692889
-0.03106558 -0.091913156 -0.17693117
-0.031062804 -0.091838941 -0.17694142
-0.031060223 -0.091764823 -0.1769477
-0.031060468 -0.091682106 -0.17688984
-0.031060053 -0.091603033 -0.17684802
-0.03105757 -0.091528952 -0.1768523
-0.031054597 -0.091454655 -0.17686656
-0.031051919 -0.091380492 -0.17687482
-0.031049768 -0.091304585 -0.17687106
-0.031047517 -0.091228642 -0.17686929
-0.031045366 -0.091152743 -0.17686552
-0.031043213 -0.091076836 -0.17686176
-0.031039519 -0.091004193 -0.17689204
-0.03103612 -0.090931676 -0.17691633
-0.031033635 -0.090857595 -0.17692061
-0.031031055 -0.090783477 -0.17692688
-0.031031009 -0.090700626 -0.176875
-0.031030787 -0.090621635 -0.17682919
-0.031028733 -0.090545781 -0.17682344
-0.03102701 -0.090468094 -0.17680964
-0.031025151 -0.090392321 -0.17679989
-0.031022802 -0.09031634 -0.17680012
-0.031020515 -0.090242349 -0.1768004
-0.031018265 -0.090166397 -0.17679863
-0.031016737 -0.0900888 -0.17678082
-0.031016085 -0.090011597 -0.17674507
-0.031014265 -0.089933872 -0.17673329
-0.031011879 -0.089859836 -0.17673555
-0.031009825 -0.089783981 -0.1767298
-0.031007966 -0.089708209 -0.17672002
-0.031005813 -0.089632303 -0.17671627
-0.031003173 -0.08955618 -0.1767225
-0.03100026 -0.089483887 -0.1767368
-0.030997777 -0.089409806 -0.17674106
-0.030995663 -0.089331947 -0.17673525
-0.030994527 -0.089254528 -0.17670947
-0.030993097 -0.089176975 -0.17668968
-0.030990515 -0.089102849 -0.17669596
-0.030987641 -0.089028597 -0.17670822
-0.030984962 -0.088954434 -0.17671649
-0.030982673 -0.08888045 -0.17671676
-0.030980326 -0.088804454 -0.176717
-0.030977648 -0.088730291 -0.17672527
-0.030974774 -0.088656038 -0.17673752
-0.030972622 -0.088580132 -0.17673376
-0.03097086 -0.088504404 -0.17672201
-0.030968806 -0.088428549 -0.17671624
-0.030967472 -0.088351034 -0.17669445
-0.030966431 -0.088273659 -0.17666668
-0.03096471 -0.08819598 -0.17665288
-0.030962225 -0.088121898 -0.17665716
-0.030958727 -0.088049337 -0.17668344
-0.030956184 -0.087973259 -0.17668767
-0.030953994 -0.087899312 -0.17668596
-0.030951548 -0.087823279 -0.17668818
-0.030948676 -0.087749027 -0.17670044
-0.030946095 -0.087674901 -0.1767067
-0.030944236 -0.087599136 -0.17669696
-0.030942082 -0.087523229 -0.17669319
-0.030939443 -0.087447114 -0.1766994
-0.030937448 -0.087373249 -0.17669369
-0.030935235 -0.087295353 -0.17668989
-0.030932948 -0.087221362 -0.17669016
-0.030930465 -0.087147281 -0.17669442
-0.030928215 -0.087071337 -0.17669266
-0.030925965 -0.086995386 -0.17669091
-0.030923422 -0.086919308 -0.17669514
-0.030921621 -0.08684554 -0.17668542
-0.030920913 -0.086766332 -0.17664962
-0.030918663 -0.086690389 -0.17664784
-0.03091657 -0.086616486 -0.17664412
-0.030914651 -0.086538717 -0.17663431
-0.030912461 -0.086464763 -0.1766326
-0.030910406 -0.086388908 -0.17662683
-0.030908976 -0.086311355 -0.17660706
-0.030906882 -0.086237453 -0.17660333
-0.030903423 -0.08616294 -0.17662758
-0.030900745 -0.086088777 -0.17663583
-0.030898554 -0.086014822 -0.17663413
-0.030896831 -0.085937142 -0.17662033
-0.030895166 -0.085861459 -0.17660658
-0.030893404 -0.085785732 -0.17659482
-0.030891545 -0.085709959 -0.17658508
-0.030889394 -0.085634053 -0.17658131
-0.030887144 -0.085558109 -0.17657954
-0.03088505 -0.085484207 -0.17657582
-0.030882899 -0.0854083 -0.17657207
-0.030881273 -0.085330665 -0.17655626
-0.030880719 -0.085253499 -0.1765185
-0.03087968 -0.085176125 -0.17649072
-0.030878212 -0.085100524 -0.17647299
-0.030876547 -0.085024841 -0.17645924
-0.030873965 -0.084950715 -0.17646551
-0.030871287 -0.084876552 -0.17647377
-0.030869076 -0.084798649 -0.17646995
-0.030866398 -0.084724486 -0.17647824
-0.030863523 -0.084650233 -0.17649049
-0.030861957 -0.084574595 -0.17647475
-0.030860584 -0.084499039 -0.17645501
-0.03085896 -0.084421396 -0.17643921
-0.030856671 -0.084347405 -0.17643949
-0.030854225 -0.084271371 -0.1764417
-0.030851841 -0.084197342 -0.17644399
-0.030849064 -0.084123127 -0.17645425
-0.030845897 -0.084048748 -0.17647251
-0.030842731 -0.083974361 -0.17649075
-0.030839954 -0.083900154 -0.17650101
-0.030837705 -0.08382421 -0.17649925
-0.03083571 -0.083750352 -0.17649353
-0.030833557 -0.083674446 -0.17648977
-0.030831991 -0.083598807 -0.17647402
-0.030830657 -0.083521292 -0.17645225
-0.030829091 -0.083445653 -0.1764365
-0.030827135 -0.083369836 -0.17642874
-0.030824846 -0.083295852 -0.17642902
-0.030822499 -0.083219856 -0.17642924
-0.030819722 -0.083145648 -0.17643951
-0.030816849 -0.083071396 -0.17645177
-0.030814696 -0.082995489 -0.17644802
-0.030812642 -0.082919635 -0.17644224
-0.030810451 -0.082845688 -0.17644052
-0.0308083 -0.082769781 -0.17643675
-0.030806303 -0.082695924 -0.17643104
-0.030804347 -0.082620107 -0.17642328
-0.030802194 -0.082544208 -0.17641953
-0.030799808 -0.082470171 -0.17642179
-0.030797169 -0.082394049 -0.17642802
-0.030794295 -0.082319796 -0.17644027
-0.030791909 -0.082245767 -0.17644255
-0.03079077 -0.082168341 -0.17641678
-0.030790903 -0.082091488 -0.17636502
-0.030790251 -0.082014278 -0.17632927
-0.030789603 -0.081937075 -0.17629349
-0.030787997 -0.081863388 -0.17627981
-0.030786041 -0.081787579 -0.17627203
-0.030784668 -0.081712022 -0.17625231
-0.030783238 -0.081634469 -0.17623252
-0.030781243 -0.081560612 -0.17622679
-0.03077909 -0.081484705 -0.17622304
-0.030776938 -0.081408806 -0.17621927
-0.030775137 -0.08133503 -0.17620957
-0.030773805 -0.081257522 -0.17618778
-0.030772103 -0.081183791 -0.17617607
-0.030769754 -0.081107803 -0.17617631
-0.030767506 -0.081031859 -0.17617454
-0.030765608 -0.080958039 -0.17616683
-0.030763749 -0.080882266 -0.17615707
-0.030762475 -0.080806755 -0.17613533
-0.03076159 -0.080731422 -0.17610562
-0.030760024 -0.080655776 -0.17608987
-0.030758556 -0.080580182 -0.17607212
-0.030757379 -0.080504715 -0.17604838
-0.030755714 -0.080429032 -0.17603463
-0.030754343 -0.080353476 -0.1760149
-0.030752288 -0.080277614 -0.17600913
-0.030749513 -0.080203407 -0.17601939
-0.030747127 -0.08012937 -0.17602167
-0.030746244 -0.080054037 -0.17599195
-0.030745555 -0.079978786 -0.17595822
-0.030743793 -0.079903059 -0.17594647
-0.030741641 -0.079827152 -0.1759427
-0.030740563 -0.07975173 -0.17591697
-0.030740557 -0.079676792 -0.17586927
-0.030739186 -0.079601236 -0.17584953
-0.030738205 -0.079525858 -0.17582181
-0.030736346 -0.079450086 -0.17581205
-0.030734487 -0.079374313 -0.17580229
-0.030733272 -0.079300798 -0.17578059
-0.03073151 -0.079225071 -0.17576885
-0.030730626 -0.079149738 -0.17573912
-0.030732844 -0.079071835 -0.17564338
-0.030731961 -0.078996502 -0.17561367
-0.030729771 -0.078922555 -0.17561194
-0.030728107 -0.078846872 -0.1755982
-0.030727614 -0.07877171 -0.17556049
-0.030726731 -0.07869637 -0.17553076
-0.030725457 -0.078620858 -0.17550902
-0.030723754 -0.078547135 -0.17549732
-0.030721407 -0.078471139 -0.17549756
-0.030719509 -0.078397326 -0.17548984
-0.030718138 -0.07832177 -0.17547008
-0.030716669 -0.078246176 -0.17545235
-0.030715844 -0.078172833 -0.17542267
-0.03071578 -0.078095891 -0.17537493
-0.030714994 -0.078020602 -0.17534319
-0.030714404 -0.077945396 -0.17530748
-0.030713091 -0.077871837 -0.17528778
-0.030711524 -0.077796198 -0.17527205
-0.030710505 -0.077722773 -0.17524636
-0.03070933 -0.077647306 -0.17522264
-0.030707236 -0.077573404 -0.17521891
-0.030705474 -0.077497676 -0.17520715
-0.030704785 -0.077422425 -0.17517343
-0.030705074 -0.077347614 -0.17511973
-0.030704191 -0.077272274 -0.17509001
-0.03070239 -0.077198498 -0.1750803
-0.030700395 -0.07712464 -0.17507459
-0.030698204 -0.077050693 -0.17507288
-0.030695915 -0.076976702 -0.17507315
-0.030693471 -0.076900668 -0.17507538
-0.030690461 -0.076828331 -0.17509167
-0.030687295 -0.076753944 -0.17510992
-0.030684324 -0.076679647 -0.17512417
-0.030680962 -0.076605178 -0.17514643
-0.030677307 -0.076530576 -0.17517467
-0.030673711 -0.076457977 -0.17520295
-0.030668886 -0.076382853 -0.17525515
-0.030664451 -0.0763079 -0.17529936
-0.030659586 -0.076234736 -0.17535362
-0.030654956 -0.076159693 -0.17540182
-0.030651849 -0.076087311 -0.17542012
-0.031559326 -0.096045315 -0.17702076
-0.031557798 -0.095967717 -0.17700297
-0.031555451 -0.095891729 -0.17700319
-0.031552248 -0.095819302 -0.17702349
-0.031549141 -0.095746912 -0.17704177
-0.031546794 -0.095670924 -0.17704201
-0.031545464 -0.095593415 -0.17702022
-0.031543545 -0.095515646 -0.17701042
-0.031542078 -0.095440045 -0.17699268
-0.031539965 -0.095362186 -0.17698687
-0.031536862 -0.095289804 -0.17700517
-0.031534281 -0.095215686 -0.17701143
-0.031532031 -0.095139734 -0.17700967
-0.031529218 -0.095067486 -0.17702198
-0.031526871 -0.094991498 -0.17702222
-0.031525776 -0.094912119 -0.17699438
-0.031523954 -0.094834387 -0.17698258
-0.031521764 -0.09476044 -0.17698087
-0.031519614 -0.094684541 -0.1769771
-0.031517699 -0.094606772 -0.17696731
-0.031515703 -0.094532907 -0.17696159
-0.031513065 -0.094456792 -0.17696781
-0.031509861 -0.094384357 -0.17698811
-0.031506423 -0.0943138 -0.17701444
-0.031503353 -0.094239458 -0.1770307
-0.031500578 -0.094165251 -0.17704095
-0.031499248 -0.094087742 -0.17701916
-0.031497721 -0.094010144 -0.17700137
-0.031495862 -0.093934372 -0.17699163
-0.031494375 -0.093854822 -0.17697179
-0.031492613 -0.093779095 -0.17696004
-0.031490266 -0.093703106 -0.17696026
-0.031487688 -0.093628988 -0.17696653
-0.03148501 -0.093554817 -0.1769748
-0.031482235 -0.093480609 -0.17698506
-0.031479985 -0.093404666 -0.1769833
-0.031478461 -0.093327068 -0.1769655
-0.031477127 -0.093249559 -0.17694372
-0.031474978 -0.093173653 -0.17693995
-0.031472396 -0.093099535 -0.17694622
-0.031470012 -0.093025498 -0.17694849
-0.031467862 -0.092949599 -0.17694473
-0.031465322 -0.092873514 -0.17694896
-0.031462409 -0.092801221 -0.17696325
-0.031459339 -0.092726879 -0.17697951
-0.031456858 -0.092652805 -0.17698377
-0.031455331 -0.092575207 -0.176966
-0.031453609 -0.092497528 -0.1769522
-0.031451032 -0.092423402 -0.17695847
-0.031448156 -0.092349149 -0.17697072
-0.031445812 -0.092273161 -0.17697096
-0.031443328 -0.09219908 -0.17697522
-0.03144075 -0.092124961 -0.17698151
-0.031438168 -0.092050835 -0.17698777
-0.031435531 -0.09197472 -0.176994
-0.031433377 -0.091898814 -0.17699023
-0.031430896 -0.091824733 -0.1769945
-0.031428415 -0.091750652 -0.17699876
-0.031426363 -0.091674797 -0.176993
-0.031425457 -0.091595508 -0.17696118
-0.031424947 -0.09151639 -0.17692138
-0.031423654 -0.09143693 -0.17689756
-0.031421699 -0.091361113 -0.17688979
-0.031419314 -0.091287076 -0.17689207
-0.031417064 -0.091211133 -0.1768903
-0.031414717 -0.091135144 -0.17689052
-0.031412568 -0.091059238 -0.17688677
-0.031410318 -0.090983294 -0.17688499
-0.031407602 -0.090911083 -0.17689532
-0.031405259 -0.090835094 -0.17689553
-0.031403732 -0.090757497 -0.17687775
-0.031401578 -0.090681598 -0.17687398
-0.031399526 -0.090605736 -0.17686823
-0.031398095 -0.090528183 -0.17684844
-0.031396337 -0.090452455 -0.17683668
-0.031393893 -0.090376422 -0.1768389
-0.031391509 -0.090302385 -0.17684118
-0.031389356 -0.090226486 -0.17683741
-0.031387929 -0.090148933 -0.17681763
-0.031386793 -0.090071507 -0.17679185
-0.031385362 -0.089993954 -0.17677206
-0.031383738 -0.089916319 -0.17675626
-0.031381685 -0.089840457 -0.17675051
-0.031379301 -0.089766428 -0.17675278
-0.031376623 -0.089692257 -0.17676105
-0.031373847 -0.08961805 -0.17677131
-0.031371832 -0.089540236 -0.1767635
-0.031370465 -0.089464679 -0.17674378
-0.03136884 -0.089387044 -0.17672798
-0.031366788 -0.089311182 -0.1767222
-0.031364731 -0.089235321 -0.17671645
-0.031363167 -0.089159682 -0.1767007
-0.031360626 -0.089083605 -0.17670493
-0.03135791 -0.089011393 -0.17671522
-0.03135537 -0.088935316 -0.17671946
-0.031352397 -0.088861018 -0.17673372
-0.031349428 -0.088786721 -0.17674798
-0.03134675 -0.088712558 -0.17675623
-0.031343974 -0.08863835 -0.1767665
-0.031341199 -0.088564143 -0.17677677
-0.031338852 -0.088488154 -0.17677699
-0.031339552 -0.088407606 -0.17671119
-0.031338416 -0.088330179 -0.17668539
-0.031336032 -0.08825615 -0.17668767
-0.031332768 -0.088181719 -0.17670792
-0.031329073 -0.088109076 -0.1767382
-0.03132581 -0.088034645 -0.17675845
-0.031323522 -0.087960653 -0.17675874
-0.031321276 -0.087884709 -0.17675696
-0.031319126 -0.08780881 -0.17675319
-0.031316936 -0.087734863 -0.17675148
-0.031314589 -0.087658867 -0.1767517
-0.031312145 -0.087582834 -0.17675394
-0.03130937 -0.087508626 -0.17676419
-0.03130712 -0.087432683 -0.17676243
-0.031305362 -0.087356955 -0.17675067
-0.031302489 -0.087282702 -0.17676294
-0.031299811 -0.087208532 -0.17677119
-0.031297367 -0.087132499 -0.17677343
-0.031294495 -0.087058246 -0.17678569
-0.031292111 -0.086984217 -0.17678796
-0.031290874 -0.086906746 -0.17676419
-0.031289935 -0.086829416 -0.17673442
-0.031288702 -0.086751953 -0.17671064
-0.031286843 -0.08667618 -0.17670086
-0.031284694 -0.086600274 -0.17669711
-0.031282932 -0.086524546 -0.17668536
-0.031281404 -0.086446948 -0.17666757
-0.031279743 -0.086371265 -0.1766538
-0.031277455 -0.086297274 -0.1766541
-0.03127468 -0.086223066 -0.17666435
-0.031272333 -0.086147077 -0.17666459
-0.031270906 -0.086069524 -0.1766448
-0.031269107 -0.085995749 -0.17663509
-0.031267285 -0.085918024 -0.17662328
-0.031265233 -0.085842162 -0.17661753
-0.031262655 -0.085768044 -0.17662379
-0.031259879 -0.085693836 -0.17663406
-0.031257629 -0.085617885 -0.17663229
-0.031255968 -0.085542202 -0.17661855
-0.031254303 -0.085466519 -0.17660478
-0.031252779 -0.085388921 -0.176587
-0.031251699 -0.085313499 -0.17656127
-0.03124994 -0.085237771 -0.17654951
-0.031247789 -0.085161865 -0.17654574
-0.031246029 -0.085086137 -0.176534
-0.031244699 -0.085008629 -0.17651221
-0.03124284 -0.084932856 -0.17650247
-0.031240884 -0.084857039 -0.1764947
-0.031238694 -0.084783092 -0.17649299
-0.031236153 -0.084707022 -0.17649721
-0.031233475 -0.084632851 -0.17650548
-0.031230699 -0.084558643 -0.17651573
-0.031228451 -0.0844827 -0.17651395
-0.031226398 -0.084406838 -0.1765082
-0.031223195 -0.084334411 -0.1765285
-0.031220751 -0.084258378 -0.17653072
-0.031218991 -0.08418265 -0.17651898
-0.031216741 -0.084106699 -0.1765172
-0.03121426 -0.084032625 -0.17652148
-0.031211678 -0.083958499 -0.17652774
-0.03120943 -0.083882555 -0.17652598
-0.031207865 -0.083806917 -0.17651023
-0.031206632 -0.083729446 -0.17648645
-0.031204872 -0.083653718 -0.17647469
-0.031202585 -0.083579727 -0.17647499
-0.031200044 -0.083503649 -0.17647921
-0.031197269 -0.083429441 -0.17648946
-0.031194981 -0.083355457 -0.17648974
-0.031193025 -0.083279639 -0.17648199
-0.031190347 -0.083205469 -0.17649025
-0.03118722 -0.08312913 -0.17650646
-0.031184835 -0.083055094 -0.17650872
-0.031183075 -0.082979366 -0.17649697
-0.031181216 -0.082903594 -0.17648721
-0.031179417 -0.082829826 -0.17647751
-0.031177891 -0.082752228 -0.17645971
-0.031176032 -0.082676455 -0.17644997
-0.031173453 -0.082602337 -0.17645623
-0.031171009 -0.082526304 -0.17645845
-0.03116921 -0.082452528 -0.17644876
-0.031166766 -0.082376495 -0.17645097
-0.0311637 -0.082302153 -0.17646724
-0.031161413 -0.082228161 -0.17646751
-0.031161485 -0.082149312 -0.17641571
-0.031161521 -0.082072407 -0.17636597
-0.031160347 -0.08199694 -0.17634225
-0.031158783 -0.081921302 -0.1763265
-0.031156827 -0.081845485 -0.17631873
-0.031155456 -0.081769936 -0.17629899
-0.031154417 -0.081692554 -0.17627123
-0.031152951 -0.081616953 -0.17625347
-0.031150859 -0.081543051 -0.17624976
-0.031149391 -0.081467457 -0.17623201
-0.031147962 -0.081389904 -0.17621222
-0.031145968 -0.081316039 -0.1762065
-0.031143719 -0.081240095 -0.17620474
-0.031141628 -0.081166193 -0.17620102
-0.031139769 -0.08109042 -0.17619127
-0.031137912 -0.081014648 -0.17618152
-0.031135429 -0.080940567 -0.17618579
-0.031132888 -0.080864497 -0.17619
-0.031130601 -0.080790505 -0.17619029
-0.031128645 -0.080714688 -0.17618252
-0.031127861 -0.080639392 -0.1761508
-0.031127175 -0.080564149 -0.17611709
-0.031126136 -0.080486767 -0.1760893
-0.03112424 -0.080412947 -0.1760816
-0.031122578 -0.080337264 -0.17606784
-0.031121599 -0.080261886 -0.17604011
-0.031120718 -0.080186546 -0.17601039
-0.031119054 -0.080110863 -0.17599663
-0.03111661 -0.08003483 -0.17599887
-0.031114519 -0.079960927 -0.17599514
-0.031113148 -0.079885371 -0.1759754
-0.031112364 -0.079810083 -0.17594367
-0.031111287 -0.079734653 -0.17591795
-0.031109527 -0.079658926 -0.1759062
-0.031109035 -0.079583764 -0.17586848
-0.031109365 -0.079507001 -0.17581275
-0.0311078 -0.079431355 -0.175797
-0.031105414 -0.079357326 -0.17579928
-0.031103557 -0.079281554 -0.17578951
-0.031101953 -0.079207867 -0.17577581
-0.031100094 -0.079132095 -0.17576605
-0.031100327 -0.079055279 -0.17571232
-0.031100947 -0.078978643 -0.1756506
-0.031100262 -0.078903392 -0.17561686
-0.031099379 -0.078828059 -0.17558715
-0.031098401 -0.078752682 -0.1755594
-0.031096602 -0.078678906 -0.17554972
-0.031094451 -0.078602999 -0.17554593
-0.031093433 -0.078529581 -0.17552026
-0.031092454 -0.078454196 -0.17549253
-0.031090498 -0.078378379 -0.17548478
-0.031088505 -0.078304522 -0.17547905
-0.031087818 -0.078229271 -0.17544533
-0.031086449 -0.078153722 -0.17542559
-0.03108504 -0.078080118 -0.17540789
-0.031084061 -0.07800474 -0.17538016
-0.031083276 -0.077929452 -0.17534843
-0.031082004 -0.07785394 -0.1753267
-0.031080499 -0.077780291 -0.175311
-0.031079423 -0.077704869 -0.17528526
-0.031078247 -0.077629402 -0.17526153
-0.031076547 -0.077555671 -0.17524981
-0.031075567 -0.077480294 -0.1752221
-0.031076735 -0.077405877 -0.17515042
-0.031075951 -0.077330582 -0.17511871
-0.031073898 -0.07725472 -0.17511293
-0.031071611 -0.077180728 -0.17511323
-0.031069422 -0.077106781 -0.1751115
-0.031067038 -0.077032752 -0.17511377
-0.031064458 -0.076958627 -0.17512006
-0.031062072 -0.07688459 -0.17512232
-0.031059492 -0.076810472 -0.17512858
-0.031056229 -0.07673604 -0.17514883
-0.031053551 -0.076661877 -0.1751571
-0.031051166 -0.076587841 -0.17515936
-0.031048294 -0.076513588 -0.17517163
-0.031045031 -0.076439165 -0.17519188
-0.031041572 -0.076364651 -0.17521612
-0.031036709 -0.076291479 -0.17527038
-0.03103116 -0.076218009 -0.1753386
-0.031023854 -0.076143749 -0.17544277
-0.031017527 -0.076069929 -0.17552698
-0.032015454 -0.096036807 -0.17714235
-0.032013401 -0.095960945 -0.1771366
-0.032010622 -0.095886737 -0.17714685
-0.032007519 -0.095814347 -0.17716515
-0.032005601 -0.095736578 -0.17715535
-0.032003742 -0.095660806 -0.1771456
-0.03200087 -0.095586553 -0.17715785
-0.031997997 -0.095512301 -0.17717011
-0.031995945 -0.095436446 -0.17716435
-0.031994805 -0.095359027 -0.17713857
-0.031992462 -0.095283031 -0.17713881
-0.031990506 -0.095207214 -0.17713104
-0.031988353 -0.095131315 -0.17712727
-0.031985674 -0.095057152 -0.17713554
-0.031983133 -0.094981074 -0.17713977
-0.031981081 -0.094905213 -0.17713401
-0.031979553 -0.094827622 -0.17711622
-0.031978846 -0.094748415 -0.17708041
-0.031977028 -0.094670691 -0.17706861
-0.0319755 -0.094593093 -0.17705081
-0.031973407 -0.09451919 -0.1770471
-0.031970341 -0.094444849 -0.17706335
-0.031967856 -0.094370767 -0.17706762
-0.031966232 -0.094293132 -0.17705184
-0.031964317 -0.094215363 -0.17704204
-0.031962223 -0.094141454 -0.17703831
-0.031959973 -0.09406551 -0.17703655
-0.031957433 -0.093989432 -0.17704076
-0.031955145 -0.09391544 -0.17704105
-0.031953093 -0.093839586 -0.17703529
-0.031950455 -0.093763463 -0.1770415
-0.031948499 -0.093687646 -0.17703375
-0.031946737 -0.093611918 -0.177022
-0.031944059 -0.093537748 -0.17703027
-0.031941283 -0.09346354 -0.17704052
-0.031938706 -0.093389422 -0.17704679
-0.031935636 -0.09331508 -0.17706305
-0.031933155 -0.093241006 -0.17706732
-0.031931821 -0.093163498 -0.17704552
-0.031929478 -0.093087502 -0.17704576
-0.031926934 -0.093011424 -0.17704999
-0.031923827 -0.092939042 -0.17706828
-0.03192148 -0.092863053 -0.17706852
-0.031919524 -0.092787236 -0.17706075
-0.031917278 -0.092711292 -0.17705899
-0.031914502 -0.092637084 -0.17706925
-0.031911492 -0.092564739 -0.17708555
-0.031908523 -0.092490442 -0.17709981
-0.031905942 -0.092416324 -0.17710608
-0.031903069 -0.092342071 -0.17711833
-0.031900097 -0.092267774 -0.17713261
-0.031899098 -0.09218844 -0.17710277
-0.031897962 -0.092111021 -0.177077
-0.031895578 -0.092036985 -0.17707926
-0.03189284 -0.091960818 -0.17708749
-0.031889968 -0.091886565 -0.17709976
-0.031887487 -0.091812491 -0.17710403
-0.031885333 -0.091736585 -0.17710027
-0.031882949 -0.091662556 -0.17710254
-0.031880505 -0.091586515 -0.17710476
-0.031880226 -0.091505535 -0.17705892
-0.031879324 -0.091426246 -0.17702709
-0.031877894 -0.091348693 -0.17700732
-0.031876329 -0.091273054 -0.17699157
-0.031874277 -0.091197193 -0.1769858
-0.031871695 -0.091123074 -0.17699207
-0.03186886 -0.091046862 -0.1770023
-0.031866048 -0.090974607 -0.17701459
-0.031863507 -0.090898529 -0.17701882
-0.031862173 -0.090821028 -0.17699704
-0.031861234 -0.090743691 -0.17696726
-0.031859513 -0.090666004 -0.17695346
-0.031857654 -0.090590231 -0.17694372
-0.031855404 -0.090514287 -0.17694195
-0.031852864 -0.090438209 -0.17694616
-0.031850088 -0.090364002 -0.17695643
-0.031847704 -0.090289965 -0.17695871
-0.03184526 -0.090213932 -0.17696095
-0.031842582 -0.090139769 -0.1769692
-0.031840429 -0.090063863 -0.17696545
-0.031840347 -0.089982972 -0.17691559
-0.031840656 -0.089902252 -0.17685777
-0.031839188 -0.089826651 -0.17684004
-0.031837232 -0.089750834 -0.17683226
-0.031834982 -0.08967489 -0.1768305
-0.031832736 -0.089598939 -0.17682873
-0.031830486 -0.089522995 -0.17682695
-0.031828433 -0.089447141 -0.1768212
-0.031825755 -0.08937297 -0.17682947
-0.031823076 -0.089298807 -0.17683774
-0.031820301 -0.089224592 -0.17684799
-0.031817526 -0.089150384 -0.17685826
-0.031814847 -0.089076221 -0.17686653
-0.031812698 -0.089000322 -0.17686276
-0.031810544 -0.088924415 -0.17685899
-0.031808063 -0.088850334 -0.17686327
-0.031805716 -0.088774346 -0.17686349
-0.03180347 -0.088698402 -0.17686173
-0.031800363 -0.08862602 -0.17688003
-0.031797331 -0.088549726 -0.17689425
-0.031796783 -0.08847256 -0.17685649
-0.031795979 -0.088393316 -0.17682266
-0.031794023 -0.088317499 -0.17681491
-0.031791441 -0.08824338 -0.17682117
-0.031788666 -0.088169172 -0.17683145
-0.031785402 -0.088094741 -0.17685169
-0.031782139 -0.088020317 -0.17687194
-0.031780045 -0.087946415 -0.17686822
-0.03177809 -0.087870598 -0.17686047
-0.031775549 -0.08779452 -0.17686468
-0.031772677 -0.087720267 -0.17687695
-0.031771149 -0.08764267 -0.17685916
-0.031769291 -0.087566897 -0.1768494
-0.031766906 -0.087492868 -0.17685167
-0.031764463 -0.087416828 -0.1768539
-0.031762175 -0.087342843 -0.17685416
-0.031759635 -0.087266766 -0.1768584
-0.031757154 -0.087192684 -0.17686267
-0.031754181 -0.087118387 -0.17687693
-0.03175164 -0.087042309 -0.17688116
-0.031750698 -0.08696498 -0.17685138
-0.031750187 -0.086885862 -0.17681158
-0.031748623 -0.086810216 -0.17679583
-0.031746566 -0.086734362 -0.17679006
-0.031744514 -0.0866585 -0.17678431
-0.031742129 -0.086584464 -0.17678657
-0.031739488 -0.086508349 -0.1767928
-0.031737301 -0.086434402 -0.17679109
-0.031735346 -0.086358584 -0.17678332
-0.031733427 -0.086280815 -0.17677352
-0.031731568 -0.086205043 -0.17676377
-0.031729516 -0.086129181 -0.17675799
-0.031727523 -0.086055323 -0.1767523
-0.031725369 -0.085979417 -0.17674853
-0.03172322 -0.085903518 -0.17674476
-0.031720873 -0.085827529 -0.176745
-0.031718917 -0.085751712 -0.17673725
-0.031717546 -0.085676156 -0.17671749
-0.031715397 -0.085600257 -0.17671373
-0.031712718 -0.085526086 -0.17672201
-0.03171014 -0.085451968 -0.17672826
-0.031707793 -0.08537598 -0.1767285
-0.031706948 -0.085298687 -0.17669672
-0.031706829 -0.085219741 -0.17664893
-0.031705163 -0.085144058 -0.17663519
-0.031703111 -0.085068204 -0.17662942
-0.03170057 -0.084992126 -0.17663364
-0.031698089 -0.084918045 -0.17663792
-0.031695604 -0.084843963 -0.17664219
-0.031692829 -0.084769756 -0.17665246
-0.031690482 -0.084693767 -0.17665267
-0.031688139 -0.084617779 -0.17665291
-0.03168546 -0.084543616 -0.17666116
-0.031683505 -0.084467798 -0.17665341
-0.031682231 -0.084392287 -0.17663169
-0.03167969 -0.084316209 -0.17663591
-0.031676915 -0.084242001 -0.17664617
-0.031674568 -0.084166013 -0.1766464
-0.031672377 -0.084092066 -0.17664468
-0.031669643 -0.084015898 -0.17665289
-0.031667158 -0.083941825 -0.17665717
-0.031664811 -0.083865836 -0.17665741
-0.031662721 -0.083791927 -0.17665368
-0.031660862 -0.083716154 -0.17664394
-0.031659104 -0.083640426 -0.17663218
-0.031656951 -0.083564527 -0.17662841
-0.031654701 -0.083488584 -0.17662665
-0.031652845 -0.083412811 -0.17661688
-0.031651046 -0.083339036 -0.17660719
-0.03164909 -0.083263218 -0.17659941
-0.031647135 -0.083187401 -0.17659166
-0.031644788 -0.083111413 -0.17659189
-0.031642109 -0.08303725 -0.17660016
-0.031639628 -0.082963169 -0.17660442
-0.031637475 -0.08288727 -0.17660066
-0.031635813 -0.082811579 -0.17658693
-0.031634189 -0.082733944 -0.17657113
-0.03163239 -0.082660168 -0.17656142
-0.031630825 -0.08258453 -0.17654566
-0.031629492 -0.082507014 -0.17652388
-0.031627636 -0.082431249 -0.17651412
-0.031625152 -0.082357168 -0.1765184
-0.031622477 -0.082283005 -0.17652667
-0.031621106 -0.082207449 -0.17650692
-0.031621277 -0.082128637 -0.17645314
-0.031619612 -0.082052954 -0.17643939
-0.031617854 -0.081977226 -0.17642763
-0.031616386 -0.081901625 -0.17640989
-0.031614099 -0.081827641 -0.17641017
-0.031611949 -0.081751734 -0.1764064
-0.031609796 -0.081675828 -0.17640264
-0.031607646 -0.081599928 -0.17639887
-0.031606179 -0.081524327 -0.17638114
-0.031604476 -0.081450604 -0.17636943
-0.031602424 -0.081374742 -0.17636368
-0.031601675 -0.081297494 -0.17632991
-0.031600405 -0.081221983 -0.17630816
-0.031598449 -0.081146166 -0.17630041
-0.031596258 -0.081072219 -0.17629868
-0.031593621 -0.080996104 -0.17630491
-0.031591725 -0.080922283 -0.17629719
-0.031589963 -0.080846556 -0.17628545
-0.03158791 -0.080770694 -0.17627966
-0.031585917 -0.080696836 -0.17627396
-0.031584583 -0.080619328 -0.17625219
-0.031583603 -0.08054395 -0.17622444
-0.03158243 -0.080468483 -0.17620072
-0.031581648 -0.080393188 -0.17616898
-0.031580079 -0.080317549 -0.17615324
-0.031578321 -0.080241814 -0.1761415
-0.031577341 -0.080166437 -0.17611375
-0.031576399 -0.080089107 -0.17608398
-0.031574111 -0.080015115 -0.17608428
-0.031571534 -0.07994099 -0.17609054
-0.031570554 -0.079865612 -0.17606281
-0.031569768 -0.079790317 -0.17603108
-0.0315683 -0.079714723 -0.17601335
-0.031567421 -0.079639383 -0.17598361
-0.031566575 -0.079562098 -0.17595184
-0.031565107 -0.079486497 -0.17593411
-0.031563506 -0.079412811 -0.1759204
-0.031561743 -0.079337083 -0.17590864
-0.031560179 -0.079261437 -0.17589289
-0.031558968 -0.07918793 -0.17587119
-0.031557929 -0.079110548 -0.17584343
-0.031558841 -0.079034045 -0.17577571
-0.031559363 -0.078957364 -0.17571598
-0.031557467 -0.078883544 -0.17570826
-0.031555962 -0.078809902 -0.17569256
-0.031555314 -0.078732699 -0.1756568
-0.031554431 -0.078657359 -0.17562708
-0.031552635 -0.078583591 -0.17561737
-0.031551067 -0.078507945 -0.17560162
-0.031549796 -0.078432433 -0.17557988
-0.031547997 -0.078358665 -0.17557016
-0.031545553 -0.078282632 -0.1755724
-0.031543754 -0.078208856 -0.17556268
-0.031543847 -0.078133956 -0.175513
-0.031543456 -0.078058839 -0.17547327
-0.031542417 -0.077981457 -0.1754455
-0.03154169 -0.077908166 -0.17541382
-0.031540126 -0.07783252 -0.17539808
-0.031538326 -0.077758752 -0.17538837
-0.031536859 -0.077683151 -0.17537063
-0.031535547 -0.077609599 -0.17535093
-0.031533692 -0.077533826 -0.17534117
-0.031532615 -0.077458404 -0.17531544
-0.031533003 -0.07738363 -0.17525975
-0.03153218 -0.077310294 -0.17523009
-0.031531002 -0.077234827 -0.17520633
-0.031529635 -0.077159271 -0.17518659
-0.031528227 -0.077085674 -0.1751689
-0.031526428 -0.077011898 -0.17515919
-0.03152404 -0.076937869 -0.17516147
-0.031521596 -0.076861836 -0.17516369
-0.031518921 -0.076787665 -0.17517196
-0.031515069 -0.076712981 -0.17520419
-0.031511769 -0.076640509 -0.17522648
-0.031509288 -0.076566428 -0.17523074
-0.031506646 -0.076490313 -0.17523697
-0.031503636 -0.076417968 -0.17525327
-0.031499203 -0.076343015 -0.1752975
-0.031494241 -0.076269805 -0.17535374
-0.031488497 -0.076196246 -0.17542595
-0.031479828 -0.076121375 -0.17555809
-0.031474669 -0.076048076 -0.17561832
-0.031471111 -0.075973518 -0.17564456
-0.032511085 -0.096026376 -0.17727461
-0.032508545 -0.095950298 -0.17727885
-0.032506879 -0.095874615 -0.17726511
-0.032505352 -0.095797017 -0.17724732
-0.03250353 -0.095719293 -0.17723551
-0.032500621 -0.095646992 -0.17724982
-0.032497551 -0.09557265 -0.17726606
-0.032494251 -0.095500179 -0.17728835
-0.032491669 -0.09542606 -0.17729463
-0.032490864 -0.095346808 -0.17726082
-0.032489669 -0.095267393 -0.17723499
-0.03248781 -0.09519162 -0.17722523
-0.032485463 -0.095115632 -0.17722547
-0.032482784 -0.095041469 -0.17723373
-0.032480337 -0.094965428 -0.17723596
-0.032479201 -0.094888009 -0.17721018
-0.032479253 -0.094805203 -0.1771563
-0.032478251 -0.09472587 -0.17712648
-0.032475866 -0.094651833 -0.17712876
-0.032473288 -0.094577715 -0.17713502
-0.032472908 -0.094496682 -0.17709118
-0.032471519 -0.094417177 -0.17706935
-0.032468606 -0.094344884 -0.17708366
-0.032465402 -0.09427245 -0.17710394
-0.032462958 -0.094196416 -0.17710617
-0.032460708 -0.094120473 -0.17710441
-0.032457933 -0.094046265 -0.17711467
-0.032455254 -0.093972102 -0.17712294
-0.032453101 -0.093896195 -0.17711918
-0.032450911 -0.093822248 -0.17711747
-0.032448135 -0.09374804 -0.17712772
-0.032445498 -0.093671918 -0.17713395
-0.032443307 -0.093597971 -0.17713222
-0.03244096 -0.093521982 -0.17713244
-0.032438416 -0.093445905 -0.17713667
-0.032435935 -0.093371823 -0.17714095
-0.032433979 -0.093296006 -0.17713319
-0.032432549 -0.093218461 -0.17711341
-0.032431021 -0.093140863 -0.17709561
-0.032429297 -0.093063176 -0.17708182
-0.032427635 -0.092987493 -0.17706805
-0.03242591 -0.092909813 -0.17705427
-0.032423429 -0.092835732 -0.17705855
-0.032419931 -0.092763171 -0.17708483
-0.032417156 -0.092688963 -0.17709509
-0.032414809 -0.092612974 -0.17709532
-0.032412328 -0.092538893 -0.17709959
-0.03240988 -0.092462867 -0.17710182
-0.032407593 -0.092388868 -0.17710209
-0.032405149 -0.092312843 -0.17710432
-0.032402765 -0.092238806 -0.1771066
-0.032399833 -0.092162549 -0.17711881
-0.03239692 -0.092090257 -0.17713311
-0.032394435 -0.092016175 -0.17713739
-0.032391701 -0.091940016 -0.1771456
-0.032388922 -0.091865808 -0.17715588
-0.032386344 -0.091791682 -0.17716214
-0.032383762 -0.091717556 -0.1771684
-0.032381415 -0.091641575 -0.17716864
-0.032380123 -0.091562107 -0.17714481
-0.032379609 -0.091482989 -0.17710501
-0.032378279 -0.091405481 -0.17708322
-0.032376748 -0.091327883 -0.17706543
-0.03237446 -0.091253892 -0.1770657
-0.03237192 -0.091177821 -0.17706993
-0.032369766 -0.091101915 -0.17706618
-0.032367714 -0.091026053 -0.1770604
-0.032365464 -0.090950109 -0.17705864
-0.032363471 -0.090876251 -0.17705292
-0.032361884 -0.090796649 -0.17703509
-0.032360025 -0.090720885 -0.17702535
-0.032358065 -0.090645067 -0.17701758
-0.032356109 -0.09056925 -0.17700982
-0.03235396 -0.090493351 -0.17700607
-0.032351904 -0.090417489 -0.17700028
-0.03234946 -0.090341456 -0.17700252
-0.03234639 -0.090267114 -0.17701879
-0.032343578 -0.090194866 -0.17703108
-0.032341134 -0.090118825 -0.17703331
-0.032340426 -0.090039626 -0.17699751
-0.032341354 -0.089957207 -0.17692564
-0.032339498 -0.089881435 -0.1769159
-0.032337248 -0.089805491 -0.17691413
-0.032334764 -0.08973141 -0.1769184
-0.032331988 -0.089657202 -0.17692865
-0.032328919 -0.089582868 -0.17694491
-0.032325324 -0.089510262 -0.17697319
-0.032322843 -0.089436188 -0.17697747
-0.032321118 -0.089358501 -0.17696369
-0.032319065 -0.089282647 -0.17695792
-0.032316387 -0.089208476 -0.17696619
-0.032313317 -0.089134142 -0.17698243
-0.032309212 -0.088982418 -0.17697091
-0.032306828 -0.088908382 -0.17697319
-0.032304186 -0.088832267 -0.17697942
-0.032301605 -0.088758141 -0.17698568
-0.032299023 -0.088684022 -0.17699194
-0.032296248 -0.088609807 -0.17700222
-0.032293413 -0.088533603 -0.17701241
-0.032291651 -0.088457875 -0.17700067
-0.03228993 -0.088380195 -0.17698687
-0.032287739 -0.088306248 -0.17698516
-0.032285783 -0.088230431 -0.1769774
-0.032284684 -0.088151053 -0.17694959
-0.0322823 -0.088077016 -0.17695186
-0.032279424 -0.088002764 -0.17696412
-0.032276884 -0.087926686 -0.17696834
-0.0322745 -0.087852657 -0.17697062
-0.032272249 -0.087776706 -0.17696884
-0.032270294 -0.087700889 -0.17696109
-0.032268666 -0.087623253 -0.1769453
-0.032266378 -0.087549262 -0.17694557
-0.032263644 -0.087473094 -0.17695379
-0.032261785 -0.087397322 -0.17694403
-0.032260023 -0.087321594 -0.17693228
-0.032258201 -0.08724387 -0.17692049
-0.032256149 -0.087168008 -0.17691472
-0.032253373 -0.0870938 -0.176925
-0.032250401 -0.087019503 -0.17693925
-0.032248739 -0.08694382 -0.17692551
-0.032248423 -0.086864792 -0.1768817
-0.032246951 -0.086789191 -0.17686395
-0.032244898 -0.086713336 -0.17685819
-0.032242745 -0.086637437 -0.17685443
-0.032240495 -0.086561486 -0.17685267
-0.032238442 -0.086485624 -0.17684691
-0.032236155 -0.08641164 -0.17684719
-0.032233905 -0.086335689 -0.17684542
-0.032231558 -0.0862597 -0.17684564
-0.032228783 -0.086185493 -0.17685591
-0.032226436 -0.086109504 -0.17685613
-0.032224871 -0.086033858 -0.17684039
-0.032223109 -0.085958131 -0.17682864
-0.03222125 -0.085882358 -0.17681889
-0.032219488 -0.085806631 -0.17680714
-0.032217339 -0.085730731 -0.17680337
-0.032214992 -0.085654736 -0.1768036
-0.032212801 -0.085580789 -0.17680189
-0.032210551 -0.085504845 -0.17680012
-0.032208398 -0.085428946 -0.17679635
-0.032205954 -0.085352913 -0.17679858
-0.032203902 -0.085277051 -0.17679282
-0.032203153 -0.085199803 -0.17675905
-0.032201394 -0.085124075 -0.17674729
-0.032199338 -0.085048214 -0.17674154
-0.032197483 -0.084972441 -0.17673178
-0.032195915 -0.084896803 -0.17671603
-0.032193761 -0.084820896 -0.17671227
-0.032190695 -0.084746562 -0.17672853
-0.032187432 -0.084672138 -0.17674878
-0.032184459 -0.084597841 -0.17676303
-0.032181684 -0.084523626 -0.17677329
-0.032179493 -0.084449679 -0.17677158
-0.032178164 -0.08437217 -0.1767498
-0.032177221 -0.084294841 -0.17672002
-0.032175362 -0.084219068 -0.17671025
-0.032173112 -0.084143117 -0.17670849
-0.032171018 -0.084069215 -0.17670478
-0.032168575 -0.083993182 -0.176707
-0.032165993 -0.083919063 -0.17671329
-0.032163255 -0.083842896 -0.1767215
-0.032160774 -0.083768815 -0.17672578
-0.032158721 -0.08369296 -0.17672001
-0.032157581 -0.083615534 -0.17669421
-0.032156799 -0.083540246 -0.1766625
-0.03215494 -0.083464473 -0.17665276
-0.032152165 -0.083390266 -0.17666301
-0.032149289 -0.083316013 -0.17667526
-0.032146748 -0.083239935 -0.17667949
-0.032144461 -0.083165944 -0.17667976
-0.032142445 -0.08308813 -0.17667197
-0.032140743 -0.083014399 -0.17666027
-0.03213859 -0.082938492 -0.1766565
-0.032136731 -0.082862727 -0.17664674
-0.032134872 -0.082786955 -0.17663699
-0.032132819 -0.082711093 -0.17663123
-0.03213096 -0.082635321 -0.17662147
-0.032128964 -0.082561463 -0.17661576
-0.032127008 -0.082485646 -0.176608
-0.03212525 -0.082409918 -0.17659625
-0.032122802 -0.082333885 -0.17659849
-0.032119833 -0.082259588 -0.17661273
-0.032117739 -0.082185686 -0.17660901
-0.032118399 -0.082107089 -0.17654523
-0.032118138 -0.082030058 -0.17650148
-0.032116182 -0.081954248 -0.17649373
-0.032114424 -0.081878513 -0.17648199
-0.032113675 -0.081801265 -0.17644823
-0.032111816 -0.081725501 -0.17643847
-0.032109529 -0.081651509 -0.17643875
-0.032106988 -0.081575431 -0.17644298
-0.032104798 -0.081501484 -0.17644125
-0.032102741 -0.081425622 -0.17643549
-0.032100786 -0.081349805 -0.17642772
-0.032099318 -0.081274211 -0.17640999
-0.03209785 -0.08119861 -0.17639223
-0.032095991 -0.081122838 -0.17638248
-0.032094385 -0.081049152 -0.17636877
