# .PCD v0.7 - Point Cloud Data file format
VERSION 0.7
FIELDS x y z
SIZE 4 4 4
TYPE F F F
COUNT 1 1 1
WIDTH 1270
HEIGHT 1
VIEWPOINT 0 0 0 1 0 0 0
POINTS 1270
DATA ascii
-0.048550695 -0.021956848 -0.18639162
-0.048548717 -0.021877082 -0.18638179
-0.048546545 -0.021797225 -0.18637592
-0.048544761 -0.021717545 -0.18636207
-0.048543137 -0.021639906 -0.18634628
-0.048541158 -0.021560136 -0.18633643
-0.048539374 -0.021480456 -0.18632258
-0.048537847 -0.021402858 -0.18630478
-0.048536062 -0.021323178 -0.18629095
-0.048534084 -0.02124341 -0.18628109
-0.048532166 -0.021165639 -0.18627128
-0.048530091 -0.021085827 -0.18626343
-0.04852831 -0.021006145 -0.18624958
-0.048527814 -0.020930985 -0.18621185
-0.048527323 -0.020855825 -0.18617415
-0.048526283 -0.020778447 -0.18614636
-0.048525207 -0.020703027 -0.18612063
-0.048523519 -0.020623388 -0.18610479
-0.048521347 -0.020543534 -0.18609893
-0.048519466 -0.020463808 -0.18608707
-0.048517842 -0.020386169 -0.18607129
-0.048515376 -0.020306179 -0.18607143
-0.048512459 -0.02022402 -0.1860795
-0.048509542 -0.02014186 -0.18608758
-0.048506431 -0.020059614 -0.18609965
-0.048502479 -0.019975018 -0.18612763
-0.048498333 -0.019890336 -0.18615964
-0.048494518 -0.019803829 -0.1861836
-0.048489332 -0.019716712 -0.18623552
-0.048482314 -0.019622859 -0.18632126
-0.048476875 -0.019533653 -0.18637711
-0.048926234 -0.054762125 -0.18995982
-0.048926465 -0.054675452 -0.18989986
-0.04892695 -0.054590866 -0.18983594
-0.049044207 -0.054071337 -0.18707438
-0.049042951 -0.053989917 -0.18704851
-0.049042322 -0.053906806 -0.1870086
-0.049043097 -0.053822353 -0.1869387
-0.049042661 -0.053739328 -0.1868948
-0.049041349 -0.053655911 -0.18686888
-0.049039666 -0.053576276 -0.18685304
-0.049037531 -0.053494461 -0.18684514
-0.049035497 -0.053412694 -0.18683523
-0.049033616 -0.05333297 -0.1868234
-0.04903115 -0.053252984 -0.18682353
-0.04902849 -0.053172909 -0.18682766
-0.049025927 -0.053092878 -0.18682979
-0.049023364 -0.053012848 -0.18683192
-0.049020506 -0.052932687 -0.18684004
-0.04901775 -0.052852571 -0.18684617
-0.04901509 -0.052772496 -0.18685029
-0.049012527 -0.052692465 -0.18685243
-0.049009532 -0.052614212 -0.18686458
-0.049006775 -0.052534096 -0.18687072
-0.049004447 -0.052452199 -0.1868668
-0.049002178 -0.052372299 -0.18686295
-0.048999514 -0.052292224 -0.18686707
-0.048996661 -0.052212063 -0.18687519
-0.048993863 -0.052133899 -0.18688336
-0.048990909 -0.052053697 -0.18689349
-0.048988346 -0.051973663 -0.18689561
-0.04898588 -0.051893678 -0.18689576
-0.04898322 -0.051813602 -0.18689987
-0.048980266 -0.051733397 -0.18691
-0.048977174 -0.051655106 -0.18692416
-0.048973694 -0.051576637 -0.18694632
-0.048970155 -0.05149617 -0.18696842
-0.048967063 -0.051417876 -0.18698257
-0.048964307 -0.051337756 -0.1869887
-0.048961647 -0.051257685 -0.18699282
-0.048959572 -0.05117787 -0.18698497
-0.048957046 -0.051095884 -0.18698506
-0.048954055 -0.051017635 -0.18699723
-0.048951689 -0.05093769 -0.18699536
-0.048949357 -0.050855793 -0.18699145
-0.0489466 -0.050775677 -0.18699758
-0.04894302 -0.050697163 -0.18702173
-0.048939444 -0.050618652 -0.18704587
-0.048936978 -0.050538663 -0.18704602
-0.048934747 -0.050456811 -0.18704011
-0.048932672 -0.050376996 -0.18703225
-0.048930012 -0.050296925 -0.18703638
-0.048926763 -0.050216585 -0.18705249
-0.048923969 -0.050138425 -0.18706065
-0.048921112 -0.050058261 -0.18706878
-0.048917376 -0.049977709 -0.18709487
-0.048913993 -0.049899284 -0.18711504
-0.048911333 -0.049819209 -0.18711916
-0.048908964 -0.049739264 -0.18711729
-0.048906539 -0.049657322 -0.18711539
-0.048904072 -0.04957734 -0.18711552
-0.048901804 -0.04949744 -0.18711166
-0.048899241 -0.049417406 -0.18711379
-0.048896968 -0.049337506 -0.18710993
-0.048894212 -0.04925739 -0.18711606
-0.048891257 -0.049177185 -0.18712617
-0.048888404 -0.049097024 -0.1871343
-0.048885643 -0.049016908 -0.18714043
-0.048883375 -0.048937008 -0.18713656
-0.048881534 -0.048855327 -0.18712267
-0.048879363 -0.048775472 -0.1871168
-0.048876993 -0.048695527 -0.18711495
-0.048874237 -0.048615407 -0.18712108
-0.048871476 -0.048535291 -0.1871272
-0.048869111 -0.04845535 -0.18712534
-0.048866447 -0.048375271 -0.18712947
-0.048863396 -0.048295025 -0.18714158
-0.048860345 -0.048214778 -0.1871537
-0.048857488 -0.048134614 -0.18716183
-0.048855025 -0.048054628 -0.18716195
-0.048852853 -0.047974773 -0.18715611
-0.048850719 -0.047892962 -0.1871482
-0.048848059 -0.047812887 -0.18715233
-0.048844673 -0.047734462 -0.18717249
-0.048841331 -0.047654081 -0.18719059
-0.048838474 -0.04757392 -0.18719871
-0.048835911 -0.04749389 -0.18720084
-0.048833542 -0.047413945 -0.18719898
-0.04883147 -0.047334135 -0.18719113
-0.04882963 -0.047252454 -0.18717724
-0.048827067 -0.047172423 -0.18717936
-0.048824504 -0.047092393 -0.1871815
-0.048822232 -0.047012493 -0.18717763
-0.048819765 -0.046932507 -0.18717778
-0.048817046 -0.046850435 -0.18718186
-0.048813958 -0.046772141 -0.18719602
-0.048810847 -0.046689894 -0.18720809
-0.048808049 -0.04661173 -0.18721625
-0.048805583 -0.046531744 -0.18721639
-0.04880394 -0.046450149 -0.1871985
-0.048802197 -0.046368513 -0.18718261
-0.048799828 -0.046288572 -0.18718076
-0.048796877 -0.046208367 -0.18719086
-0.048794117 -0.046128251 -0.187197
-0.048792139 -0.046048481 -0.18718714
-0.048790496 -0.045966886 -0.18716925
-0.048787933 -0.045886856 -0.1871714
-0.048785172 -0.045806739 -0.18717751
-0.048782904 -0.045726839 -0.18717366
-0.048780732 -0.045646984 -0.18716779
-0.04877856 -0.045567129 -0.18716194
-0.048776232 -0.045485228 -0.18715803
-0.048774056 -0.045405373 -0.18715218
-0.048771493 -0.045325343 -0.18715431
-0.048768736 -0.045245223 -0.18716043
-0.048765685 -0.045164976 -0.18717255
-0.04876234 -0.045084596 -0.18719065
-0.048759092 -0.04500426 -0.18720677
-0.048756197 -0.044926055 -0.18721694
-0.04875426 -0.044844329 -0.18720505
-0.048752673 -0.044764735 -0.18718719
-0.048750542 -0.044682924 -0.1871793
-0.04874827 -0.044603024 -0.18717544
-0.04874561 -0.044522952 -0.18717957
-0.048742853 -0.044442832 -0.1871857
-0.048740093 -0.044362716 -0.18719181
-0.048737336 -0.044282597 -0.18719795
-0.048734773 -0.044202566 -0.18720008
-0.048732404 -0.044122625 -0.18719822
-0.048729979 -0.04404068 -0.18719631
-0.048727512 -0.043960694 -0.18719643
-0.048725143 -0.043880753 -0.18719457
-0.048722681 -0.043800764 -0.18719471
-0.048720118 -0.043720733 -0.18719684
-0.04871726 -0.043640573 -0.18720496
-0.048714504 -0.043560456 -0.1872111
-0.048711684 -0.04347834 -0.18721718
-0.048708692 -0.043400086 -0.18722934
-0.04870525 -0.043319665 -0.18724944
-0.048702434 -0.043237548 -0.18725553
-0.048700847 -0.043157954 -0.18723768
-0.048699357 -0.043078404 -0.18721783
-0.048697419 -0.042996682 -0.18720594
-0.048694368 -0.042916432 -0.18721807
-0.048691414 -0.042836227 -0.18722817
-0.048689634 -0.042756546 -0.18721434
-0.048687559 -0.042676732 -0.18720648
-0.048684701 -0.042596571 -0.18721461
-0.04868165 -0.042516321 -0.18722671
-0.048678834 -0.042434208 -0.18723281
-0.048676174 -0.042354133 -0.18723693
-0.048673805 -0.042274188 -0.18723506
-0.048671536 -0.042194288 -0.18723121
-0.048669364 -0.042114433 -0.18722536
-0.048667189 -0.042034578 -0.18721949
-0.048664432 -0.041954458 -0.18722561
-0.048661031 -0.04187208 -0.18724367
-0.048657879 -0.041791789 -0.1872578
-0.048655707 -0.041711934 -0.18725193
-0.048654217 -0.041632384 -0.18723211
-0.048652828 -0.041552875 -0.18721026
-0.048651181 -0.041471284 -0.18719238
-0.048648816 -0.041391339 -0.18719052
-0.048646446 -0.041311398 -0.18718866
-0.048644178 -0.041231498 -0.18718478
-0.048641808 -0.041151553 -0.18718293
-0.048639286 -0.041069567 -0.18718302
-0.04863682 -0.040989581 -0.18718314
-0.048634745 -0.040909767 -0.1871753
-0.048632868 -0.040830042 -0.18716344
-0.048631087 -0.040750362 -0.1871496
-0.048629146 -0.04066864 -0.18713771
-0.048626684 -0.040588651 -0.18713784
-0.04862402 -0.040508579 -0.18714197
-0.048621263 -0.04042846 -0.18714809
-0.048618406 -0.040348299 -0.18715623
-0.048616078 -0.040266402 -0.1871523
-0.048614196 -0.040186677 -0.18714046
-0.048611734 -0.040106688 -0.18714058
-0.048609268 -0.040026702 -0.18714073
-0.048607387 -0.039946977 -0.18712887
-0.048605215 -0.039867122 -0.18712303
-0.04860279 -0.03978518 -0.18712112
-0.04860042 -0.039705236 -0.18711925
-0.048597567 -0.039625075 -0.18712738
-0.048594613 -0.039544869 -0.1871375
-0.048591953 -0.039464794 -0.18714163
-0.04858939 -0.039384764 -0.18714376
-0.048587702 -0.039305124 -0.18712792
-0.048586059 -0.039223533 -0.18711002
-0.048583593 -0.039143547 -0.18711016
-0.04858103 -0.039063517 -0.1871123
-0.04857837 -0.038983442 -0.18711641
-0.048575416 -0.038903236 -0.18712653
-0.048572503 -0.038821075 -0.18713462
-0.048569646 -0.038740914 -0.18714273
-0.048566986 -0.038660839 -0.18714687
-0.048565302 -0.038581204 -0.18713102
-0.048563421 -0.038501479 -0.18711919
-0.048561092 -0.038419582 -0.18711525
-0.048559017 -0.038339768 -0.18710741
-0.048556942 -0.038259957 -0.18709956
-0.04855448 -0.038179968 -0.1870997
-0.048552208 -0.038100068 -0.18709584
-0.048549548 -0.038019996 -0.18709996
-0.04854634 -0.037937704 -0.18711403
-0.048543777 -0.037857674 -0.18711616
-0.048541702 -0.03777786 -0.18710831
-0.04853943 -0.03769796 -0.18710445
-0.048536967 -0.037617974 -0.18710458
-0.048535086 -0.037538249 -0.18709274
-0.048532661 -0.037456308 -0.18709081
-0.048529804 -0.037376147 -0.18709895
-0.048527241 -0.037296116 -0.18710107
-0.048524678 -0.037216086 -0.18710321
-0.04852153 -0.037135795 -0.18711731
-0.048518322 -0.037053503 -0.18713139
-0.048516344 -0.036973733 -0.18712154
-0.04851554 -0.036894489 -0.18708771
-0.04851415 -0.03681498 -0.1870659
-0.048511587 -0.03673495 -0.18706802
-0.048509121 -0.036654964 -0.18706815
-0.048507631 -0.036575414 -0.18704832
-0.048506144 -0.036495864 -0.18702847
-0.048503131 -0.036413658 -0.18703854
-0.048499689 -0.036333237 -0.18705866
-0.048497517 -0.036253378 -0.1870528
-0.048495635 -0.036173657 -0.18704095
-0.04849327 -0.036093712 -0.18703908
-0.04849055 -0.03601164 -0.18704316
-0.048488181 -0.035931695 -0.18704131
-0.048486009 -0.03585184 -0.18703544
-0.048483934 -0.035772026 -0.1870276
-0.048481569 -0.035692085 -0.18702573
-0.048478749 -0.035609968 -0.18703181
-0.048475895 -0.035529807 -0.18703994
-0.048473135 -0.035449687 -0.18704605
-0.048470475 -0.035369612 -0.18705019
-0.048468303 -0.035289757 -0.18704432
-0.048466951 -0.035208296 -0.18702045
-0.04846552 -0.035130747 -0.18700066
-0.048464172 -0.035049282 -0.18697679
-0.048462056 -0.034971423 -0.18697098
-0.048459142 -0.034889266 -0.18697906
-0.048456676 -0.03480928 -0.18697917
-0.048454601 -0.034729466 -0.18697134
-0.048451588 -0.034647264 -0.18698139
-0.048448734 -0.034567103 -0.18698952
-0.048446756 -0.034487333 -0.18697968
-0.048444778 -0.034407564 -0.18696982
-0.048442509 -0.034327663 -0.18696597
-0.048439495 -0.034245461 -0.18697603
-0.04843615 -0.034165081 -0.18699414
-0.0484332 -0.034084875 -0.18700427
-0.048430379 -0.034002759 -0.18701035
-0.04842684 -0.033922292 -0.18703245
-0.048423924 -0.033840135 -0.18704051
-0.048421264 -0.033760056 -0.18704465
-0.048418898 -0.033680115 -0.18704279
-0.048417114 -0.033600435 -0.18702894
-0.048415139 -0.033520665 -0.18701908
-0.048413455 -0.033441026 -0.18700324
-0.048411183 -0.033361129 -0.18699938
-0.048408173 -0.033278923 -0.18700945
-0.04840561 -0.033198893 -0.1870116
-0.048403535 -0.033119082 -0.18700373
-0.048400912 -0.033037052 -0.18700582
-0.048398055 -0.032956891 -0.18701394
-0.048395202 -0.03287673 -0.18702206
-0.048392676 -0.032794744 -0.18702215
-0.048390407 -0.032714844 -0.18701829
-0.048387844 -0.032634813 -0.18702042
-0.048385281 -0.032554783 -0.18702257
-0.048383009 -0.032474883 -0.18701869
-0.04838039 -0.032392852 -0.18702078
-0.048377238 -0.032312561 -0.1870349
-0.048374422 -0.032230444 -0.18704098
-0.048371762 -0.032150373 -0.1870451
-0.048369586 -0.032070514 -0.18703924
-0.048368685 -0.031991228 -0.18700743
-0.048367489 -0.031911805 -0.18698159
-0.048366003 -0.031832255 -0.18696176
-0.048364025 -0.03175249 -0.18695191
-0.048361462 -0.031672455 -0.18695405
-0.048359193 -0.031592555 -0.18695018
-0.04835692 -0.031512659 -0.18694633
-0.04835391 -0.031430453 -0.18695639
-0.048351739 -0.031350598 -0.18695053
-0.048350055 -0.031270958 -0.18693468
-0.048347589 -0.031190973 -0.18693483
-0.04834532 -0.031111075 -0.18693095
-0.048342951 -0.031031132 -0.18692911
-0.048340231 -0.030949056 -0.18693319
-0.048337668 -0.030869028 -0.18693532
-0.048335105 -0.030788997 -0.18693745
-0.048332579 -0.030707011 -0.18693754
-0.048330408 -0.030627156 -0.18693168
-0.048328724 -0.030547518 -0.18691584
-0.048327196 -0.030469922 -0.18689804
-0.048324477 -0.030387849 -0.18690214
-0.04832162 -0.030307688 -0.18691024
-0.048319645 -0.03022792 -0.18690039
-0.048317473 -0.030148063 -0.18689454
-0.048314948 -0.030066077 -0.18689463
-0.048312385 -0.029986046 -0.18689676
-0.048309527 -0.029905885 -0.18690488
-0.048307102 -0.029823944 -0.18690297
-0.048305418 -0.029744307 -0.18688713
-0.048303053 -0.029664364 -0.18688527
-0.048300587 -0.029584376 -0.1868854
-0.048298415 -0.029504519 -0.18687955
-0.048295889 -0.029422535 -0.18687963
-0.048293423 -0.029342549 -0.18687975
-0.04829086 -0.029262517 -0.1868819
-0.048287846 -0.029180313 -0.18689197
-0.048284836 -0.02909811 -0.18690205
-0.048282273 -0.02901808 -0.18690418
-0.048280392 -0.028938353 -0.18689233
-0.048278417 -0.028858585 -0.18688247
-0.048275754 -0.02877851 -0.18688661
-0.048272744 -0.028696308 -0.18689668
-0.048270315 -0.028614366 -0.18689477
-0.048268046 -0.028534465 -0.1868909
-0.048265677 -0.028454524 -0.18688905
-0.048263017 -0.028374448 -0.18689317
-0.048260003 -0.028292246 -0.18690324
-0.048257381 -0.028210215 -0.18690532
-0.04825566 -0.028132532 -0.18689153
-0.048254073 -0.028052939 -0.18687367
-0.048252292 -0.027973257 -0.18685985
-0.048250414 -0.027893532 -0.18684798
-0.048248239 -0.027813677 -0.18684214
-0.048246067 -0.027733821 -0.18683627
-0.048243798 -0.027653921 -0.18683241
-0.048241332 -0.027573936 -0.18683255
-0.048238613 -0.027491862 -0.18683663
-0.048236344 -0.02741196 -0.18683279
-0.048234954 -0.027332455 -0.18681094
-0.048233133 -0.027254729 -0.18679914
-0.048230901 -0.027172875 -0.18679324
-0.048228983 -0.027095105 -0.18678343
-0.048226263 -0.027013032 -0.18678752
-0.04822335 -0.02693087 -0.18679559
-0.048220783 -0.02685084 -0.18679771
-0.048218321 -0.026770853 -0.18679786
-0.048215795 -0.026688868 -0.18679795
-0.048213135 -0.026608795 -0.18680207
-0.048211157 -0.026529025 -0.18679222
-0.048210219 -0.026451692 -0.18676244
-0.048208438 -0.02637201 -0.18674859
-0.04820646 -0.026292242 -0.18673874
-0.048204385 -0.02621243 -0.18673089
-0.048201568 -0.026130313 -0.18673697
-0.048198905 -0.02605024 -0.18674111
-0.04819648 -0.025968298 -0.18673919
-0.048194952 -0.025890701 -0.18672138
-0.048192877 -0.02581089 -0.18671355
-0.048190061 -0.025728773 -0.18671963
-0.048187595 -0.025648786 -0.18671975
-0.04818562 -0.025569018 -0.18670991
-0.048183449 -0.025489161 -0.18670404
-0.04818102 -0.025407219 -0.18670213
-0.048178751 -0.025327319 -0.18669829
-0.048176285 -0.025247334 -0.18669841
-0.048173565 -0.02516526 -0.18670249
-0.048171099 -0.025085274 -0.18670262
-0.048169024 -0.025005462 -0.18669477
-0.048167437 -0.024925867 -0.18667692
-0.048166204 -0.024848402 -0.18665314
-0.04816458 -0.024770765 -0.18663736
-0.048161957 -0.024688734 -0.18663943
-0.048159592 -0.024608791 -0.18663757
-0.048157517 -0.024528978 -0.18662971
-0.048154853 -0.024448905 -0.18663384
-0.048151784 -0.024364702 -0.18664387
-0.048149124 -0.024284627 -0.18664801
-0.048147343 -0.024204947 -0.18663415
-0.048145816 -0.024127351 -0.18661636
-0.048143838 -0.024047581 -0.18660653
-0.048141569 -0.023967683 -0.18660265
-0.048139043 -0.023885697 -0.18660274
-0.04813648 -0.023805667 -0.18660486
-0.048134014 -0.023725679 -0.18660501
-0.048131879 -0.02364387 -0.18659711
-0.048129417 -0.023563882 -0.18659723
-0.048126753 -0.023483807 -0.18660137
-0.048124623 -0.023401998 -0.18659347
-0.048123389 -0.023324532 -0.18656969
-0.048121508 -0.023244807 -0.18655783
-0.04811959 -0.023167036 -0.18654802
-0.048117712 -0.023087312 -0.18653618
-0.048115831 -0.023007587 -0.18652433
-0.048113659 -0.022927731 -0.18651848
-0.04811139 -0.022847831 -0.18651462
-0.048108965 -0.02276589 -0.18651271
-0.048107143 -0.022688163 -0.18650091
-0.048106495 -0.022610961 -0.18646513
-0.048106201 -0.022535888 -0.18642342
-0.048104867 -0.02245838 -0.18640164
-0.048103087 -0.022378698 -0.18638778
-0.048101559 -0.022301102 -0.18636999
-0.048100267 -0.02222164 -0.18634617
-0.048098642 -0.022144001 -0.18633036
-0.048096567 -0.022064187 -0.18632251
-0.048093908 -0.021984113 -0.18632664
-0.048091188 -0.02190204 -0.18633072
-0.048089016 -0.021822184 -0.18632486
-0.048087586 -0.021744631 -0.18630508
-0.04808645 -0.021667212 -0.1862793
-0.04808512 -0.021589706 -0.18625751
-0.048083436 -0.021510066 -0.18624166
-0.048081812 -0.021432428 -0.18622586
-0.048079833 -0.021352658 -0.18621601
-0.048077956 -0.021272935 -0.18620417
-0.04807717 -0.021197641 -0.18617243
-0.048076034 -0.02112022 -0.18614665
-0.04807312 -0.021038061 -0.18615472
-0.048071396 -0.020960378 -0.18614092
-0.048070848 -0.020883219 -0.18610317
-0.048069611 -0.020805754 -0.18607938
-0.048067987 -0.020728115 -0.18606359
-0.04806646 -0.020650519 -0.1860458
-0.048065033 -0.020572968 -0.18602601
-0.048062604 -0.020491026 -0.1860241
-0.048060238 -0.020411083 -0.18602224
-0.048058223 -0.020333268 -0.18601441
-0.0480556 -0.020251241 -0.1860165
-0.048052296 -0.020168906 -0.18603256
-0.048048638 -0.020084441 -0.18605459
-0.048045721 -0.020002281 -0.18606266
-0.048042063 -0.019917818 -0.18608467
-0.048036627 -0.019828612 -0.18614054
-0.048032381 -0.019743886 -0.18617451
-0.048025262 -0.01964999 -0.18626225
-0.048018437 -0.019556222 -0.186344
-0.048591681 -0.054104775 -0.18717757
-0.048591774 -0.054020014 -0.18712163
-0.048592351 -0.053935472 -0.18705572
-0.048593126 -0.053851016 -0.18698582
-0.048593514 -0.053766388 -0.18692389
-0.048592061 -0.053684883 -0.18690202
-0.048590221 -0.053603202 -0.18688813
-0.04858838 -0.053521521 -0.18687424
-0.048586402 -0.053441755 -0.18686438
-0.04858423 -0.0533619 -0.18685852
-0.048582096 -0.053280089 -0.18685062
-0.048579436 -0.053200014 -0.18685475
-0.048576873 -0.053119984 -0.18685687
-0.048574407 -0.053039998 -0.18685701
-0.048572037 -0.052960053 -0.18685514
-0.048569709 -0.052878156 -0.18685123
-0.048567243 -0.052798167 -0.18685137
-0.048564579 -0.052718095 -0.18685549
-0.048561782 -0.052639931 -0.18686366
-0.048558827 -0.052559726 -0.18687379
-0.048556168 -0.052479655 -0.18687791
-0.048553605 -0.05239962 -0.18688005
-0.048550945 -0.052319545 -0.18688416
-0.048548184 -0.052239429 -0.1868903
-0.048545327 -0.052159268 -0.18689843
-0.048542861 -0.052079283 -0.18689856
-0.048540063 -0.052001119 -0.18690673
-0.048536915 -0.051920824 -0.18692084
-0.048534058 -0.051840663 -0.18692896
-0.04853126 -0.051762499 -0.18693712
-0.048528112 -0.051682208 -0.18695125
-0.048525743 -0.051602267 -0.18694937
-0.048523083 -0.051522192 -0.18695351
-0.04851931 -0.051443592 -0.18698165
-0.048515864 -0.051363166 -0.18700176
-0.048513301 -0.051283136 -0.18700388
-0.048510835 -0.05120315 -0.18700401
-0.048508272 -0.05112312 -0.18700615
-0.048505414 -0.051042959 -0.18701428
-0.04850262 -0.050964795 -0.18702245
-0.048499763 -0.050884634 -0.18703055
-0.048496809 -0.050804429 -0.18704069
-0.048494145 -0.050724354 -0.1870448
-0.048491679 -0.050644368 -0.18704495
-0.048489116 -0.050564338 -0.18704706
-0.04848659 -0.050482351 -0.18704715
-0.048484322 -0.050402451 -0.18704328
-0.048481662 -0.050322376 -0.18704742
-0.04847857 -0.050244085 -0.18706158
-0.048475325 -0.050163746 -0.1870777
-0.048472565 -0.05008363 -0.18708381
-0.048469611 -0.050003424 -0.18709394
-0.048466168 -0.049923003 -0.18711403
-0.048463173 -0.049844749 -0.1871262
-0.048460316 -0.049764588 -0.18713433
-0.048457462 -0.049684428 -0.18714246
-0.048454799 -0.049604353 -0.18714657
-0.048452236 -0.049524322 -0.18714872
-0.048449673 -0.049444292 -0.18715084
-0.048447404 -0.049364392 -0.18714698
-0.048445072 -0.049282495 -0.18714307
-0.048442315 -0.049202375 -0.1871492
-0.048439752 -0.049122348 -0.18715133
-0.048437968 -0.049042664 -0.18713748
-0.048435833 -0.048960853 -0.18712959
-0.04843327 -0.048880823 -0.1871317
-0.048430905 -0.048800878 -0.18712984
-0.048428729 -0.048721023 -0.18712398
-0.048426401 -0.048639126 -0.18712008
-0.048423797 -0.048561051 -0.18712425
-0.048420843 -0.048480846 -0.18713437
-0.048417598 -0.04840051 -0.18715048
-0.04841435 -0.048320174 -0.1871666
-0.048411492 -0.048240013 -0.18717471
-0.04840932 -0.048160154 -0.18716887
-0.048407577 -0.048078518 -0.18715297
-0.048405893 -0.047998883 -0.18713713
-0.048403427 -0.047918893 -0.18713726
-0.048400275 -0.047838602 -0.18715137
-0.048397031 -0.047758266 -0.18716748
-0.048394173 -0.047678106 -0.1871756
-0.048391316 -0.047597945 -0.18718374
-0.048388362 -0.047517739 -0.18719384
-0.048385896 -0.04743775 -0.18719397
-0.04838353 -0.047357809 -0.18719211
-0.048380964 -0.047277778 -0.18719424
-0.048378304 -0.047197703 -0.18719837
-0.048375644 -0.047117628 -0.18720251
-0.048373468 -0.047037773 -0.18719664
-0.04837114 -0.046955876 -0.18719274
-0.048368577 -0.046875846 -0.18719485
-0.048365526 -0.046795595 -0.18720698
-0.048362471 -0.046715345 -0.1872191
-0.048359618 -0.046635184 -0.18722722
-0.048357151 -0.046555199 -0.18722737
-0.048354879 -0.046475299 -0.18722349
-0.048353098 -0.046395618 -0.18720964
-0.048351355 -0.046313982 -0.18719375
-0.048349377 -0.046234213 -0.1871839
-0.048346423 -0.046154007 -0.18719402
-0.048342787 -0.046073496 -0.18721813
-0.048340026 -0.04599338 -0.18722424
-0.048337892 -0.045911565 -0.18721634
-0.048335522 -0.045831624 -0.18721449
-0.048332959 -0.045751594 -0.18721661
-0.048330981 -0.045671824 -0.18720677
-0.048329297 -0.045592189 -0.18719092
-0.048326872 -0.045510247 -0.18718901
-0.048324112 -0.045430128 -0.18719514
-0.048321743 -0.045350187 -0.18719327
-0.048319377 -0.045270242 -0.18719141
-0.048316617 -0.045190126 -0.18719754
-0.048313662 -0.04510992 -0.18720764
-0.048311003 -0.045029845 -0.18721178
-0.048308048 -0.04494964 -0.18722188
-0.048305094 -0.044869434 -0.18723202
-0.048302919 -0.044789579 -0.18722616
-0.048300687 -0.044707723 -0.18722025
-0.048298027 -0.044627648 -0.18722437
-0.048295267 -0.044547532 -0.1872305
-0.04829251 -0.044467412 -0.18723664
-0.048290238 -0.044387516 -0.18723276
-0.048287969 -0.044307616 -0.18722892
-0.048285738 -0.04422576 -0.187223
-0.048283465 -0.04414586 -0.18721914
-0.048281293 -0.044066004 -0.18721329
-0.048279025 -0.043986104 -0.18720943
-0.048276361 -0.043906029 -0.18721355
-0.048273504 -0.043825869 -0.18722168
-0.048271235 -0.043745968 -0.18721782
-0.048269004 -0.043664116 -0.1872119
-0.048265953 -0.043583866 -0.18722403
-0.048262507 -0.043503445 -0.18724413
-0.048259359 -0.04342315 -0.18725824
-0.048256405 -0.043342944 -0.18726836
-0.048253842 -0.043262914 -0.18727049
-0.048252061 -0.043183234 -0.18725665
-0.04825012 -0.043101508 -0.18724474
-0.048247948 -0.043021653 -0.1872389
-0.048245773 -0.042941798 -0.18723303
-0.048243016 -0.042861681 -0.18723917
-0.048239965 -0.042781431 -0.18725127
-0.048237439 -0.042699445 -0.18725136
-0.048234973 -0.042619459 -0.18725149
-0.048232313 -0.042539384 -0.18725562
-0.048230335 -0.042459615 -0.18724579
-0.048228163 -0.042379759 -0.18723992
-0.04822544 -0.042297687 -0.187244
-0.048222877 -0.042217657 -0.18724613
-0.048220512 -0.042137712 -0.18724427
-0.048218336 -0.042057857 -0.1872384
-0.04821597 -0.041977916 -0.18723655
-0.048212856 -0.041895669 -0.18724862
-0.048210099 -0.041815549 -0.18725473
-0.048207633 -0.041735563 -0.18725488
-0.048205461 -0.041655708 -0.187249
-0.048203774 -0.041576069 -0.18723318
-0.048202325 -0.041494563 -0.18721128
-0.048200447 -0.041414838 -0.18719944
-0.04819759 -0.041334677 -0.18720755
-0.048194636 -0.041254472 -0.18721768
-0.048192367 -0.041174572 -0.18721381
-0.04819062 -0.041092936 -0.18719792
-0.048188936 -0.0410133 -0.18718207
-0.048186667 -0.0409334 -0.18717822
-0.048184495 -0.040853545 -0.18717237
-0.04818242 -0.040773731 -0.18716452
-0.048180088 -0.040691834 -0.18716061
-0.048177719 -0.040611889 -0.18715873
-0.048175257 -0.040531904 -0.18715888
-0.048172887 -0.040451959 -0.18715701
-0.048170324 -0.040371928 -0.18715915
-0.048167214 -0.040289681 -0.18717122
-0.048164748 -0.040209696 -0.18717134
-0.04816277 -0.040129926 -0.18716148
-0.048160888 -0.040050201 -0.18714964
-0.048159011 -0.039970476 -0.18713778
-0.048157033 -0.039890707 -0.18712795
-0.048154663 -0.039810766 -0.18712607
-0.048151944 -0.039728694 -0.18713015
-0.048149087 -0.039648529 -0.18713829
-0.048145939 -0.039568238 -0.18715239
-0.048143081 -0.039488077 -0.18716052
-0.04814091 -0.039408222 -0.18715467
-0.048139028 -0.039328497 -0.1871428
-0.0481367 -0.039246596 -0.1871389
-0.04813394 -0.03916648 -0.18714502
-0.04813157 -0.039086536 -0.18714316
-0.04812891 -0.03900646 -0.18714729
-0.048125859 -0.038926214 -0.1871594
-0.048123039 -0.038844097 -0.18716548
-0.048120476 -0.038764067 -0.18716761
-0.048117816 -0.038683992 -0.18717174
-0.048114862 -0.038603786 -0.18718186
-0.04811269 -0.038523931 -0.187176
-0.048111729 -0.038442645 -0.18714413
-0.048110336 -0.038363136 -0.1871223
-0.048108358 -0.03828337 -0.18711245
-0.04810638 -0.038203601 -0.18710259
-0.048104599 -0.038123921 -0.18708876
-0.048102621 -0.038044151 -0.18707889
-0.048098829 -0.037961598 -0.18710496
-0.048095383 -0.037881173 -0.18712506
-0.04809282 -0.037801143 -0.18712719
-0.04809045 -0.037721202 -0.18712533
-0.048088122 -0.037639301 -0.18712142
-0.048086047 -0.037559491 -0.18711355
-0.048083581 -0.037479505 -0.18711369
-0.048080824 -0.037399385 -0.18711981
-0.048078064 -0.037319265 -0.18712595
-0.048075344 -0.037237193 -0.18713003
-0.048072584 -0.037157077 -0.18713614
-0.048069924 -0.037077002 -0.18714029
-0.048067361 -0.036996972 -0.1871424
-0.048064798 -0.036916941 -0.18714453
-0.04806276 -0.036835175 -0.18713464
-0.048061468 -0.036755711 -0.18711081
-0.048060074 -0.036676206 -0.18708897
-0.0480581 -0.036596436 -0.1870791
-0.048055924 -0.036516581 -0.18707326
-0.048053361 -0.03643655 -0.18707538
-0.048050407 -0.036356345 -0.18708551
-0.048047591 -0.036274228 -0.18709159
-0.048045516 -0.036194414 -0.18708374
-0.048043538 -0.036114648 -0.18707389
-0.048041366 -0.036034793 -0.18706802
-0.048039291 -0.035954978 -0.18706018
-0.048036765 -0.035872992 -0.18706027
-0.048034202 -0.035792962 -0.18706238
-0.048031636 -0.035712931 -0.18706453
-0.048029173 -0.035632946 -0.18706465
-0.048026647 -0.035550959 -0.18706474
-0.048023693 -0.035470754 -0.18707485
-0.048020542 -0.035390463 -0.18708897
-0.048017882 -0.035310388 -0.18709311
-0.048015844 -0.035228621 -0.1870832
-0.048014257 -0.035149027 -0.18706536
-0.048013061 -0.035069607 -0.18703952
-0.048011474 -0.034990013 -0.18702169
-0.048010144 -0.034912504 -0.1869999
-0.04800934 -0.03483326 -0.18696609
-0.048007067 -0.03475336 -0.18696222
-0.048004251 -0.034671243 -0.1869683
-0.048001979 -0.034591347 -0.18696444
-0.047999512 -0.034511358 -0.18696457
-0.047996305 -0.034429066 -0.18697864
-0.047993448 -0.034348905 -0.18698676
-0.047991179 -0.034269005 -0.1869829
-0.047988616 -0.034188975 -0.18698503
-0.047985952 -0.034108903 -0.18698916
-0.047982745 -0.034026612 -0.18700323
-0.047979046 -0.0339441 -0.18702728
-0.047975898 -0.033863809 -0.18704139
-0.047973081 -0.033781692 -0.18704748
-0.047970418 -0.033701617 -0.18705159
-0.047968149 -0.033621717 -0.18704775
-0.047965877 -0.033541821 -0.18704388
-0.047963254 -0.03345979 -0.18704596
-0.047960594 -0.033379715 -0.18705009
-0.047958128 -0.033299729 -0.18705022
-0.047955956 -0.033219874 -0.18704437
-0.047953684 -0.033139974 -0.18704051
-0.047950868 -0.033057857 -0.18704659
-0.047947716 -0.032977566 -0.1870607
-0.047945093 -0.032895535 -0.18706279
-0.04794351 -0.032815941 -0.18704493
-0.047941823 -0.032736301 -0.18702909
-0.047939748 -0.032656491 -0.18702124
-0.047937479 -0.032576591 -0.18701738
-0.047934815 -0.032496519 -0.18702151
-0.047931999 -0.032414399 -0.18702759
-0.047929436 -0.032334372 -0.18702972
-0.047926717 -0.032252297 -0.1870338
-0.047923565 -0.032172006 -0.18704791
-0.047921393 -0.03209215 -0.18704206
-0.047919903 -0.032012597 -0.18702221
-0.047918219 -0.031932961 -0.18700637
-0.047916338 -0.031853236 -0.18699452
-0.047914166 -0.031773381 -0.18698865
-0.0479118 -0.031693436 -0.1869868
-0.047909372 -0.031611495 -0.1869849
-0.0479072 -0.031531639 -0.18697903
-0.047904439 -0.031451523 -0.18698515
-0.047901876 -0.031371489 -0.18698728
-0.047900096 -0.031291809 -0.18697344
-0.047898702 -0.031212304 -0.18695161
-0.047896825 -0.031132579 -0.18693976
-0.047894359 -0.031052591 -0.1869399
-0.047891051 -0.030970257 -0.18695596
-0.047888391 -0.030890184 -0.18696007
-0.047885962 -0.03080824 -0.18695816
-0.047883593 -0.030728297 -0.18695632
-0.047881324 -0.030648399 -0.18695244
-0.047878955 -0.030568454 -0.18695058
-0.047876686 -0.030488554 -0.18694672
-0.047874257 -0.030406613 -0.18694481
-0.047871988 -0.030326713 -0.18694095
-0.04787001 -0.030246945 -0.1869311
-0.047868032 -0.030167177 -0.18692125
-0.047865666 -0.030087233 -0.18691939
-0.047862552 -0.030004986 -0.18693146
-0.047859795 -0.02992487 -0.18693757
-0.047857076 -0.029842794 -0.18694165
-0.0478549 -0.029762939 -0.1869358
-0.047853023 -0.029683214 -0.18692395
-0.04785075 -0.029603314 -0.18692009
-0.047848284 -0.029523328 -0.18692023
-0.047846053 -0.029441474 -0.18691432
-0.047844175 -0.029361749 -0.18690246
-0.047841806 -0.029281806 -0.18690062
-0.047839046 -0.029201688 -0.18690673
-0.047836326 -0.029119615 -0.18691081
-0.047834251 -0.029039804 -0.18690296
-0.04783247 -0.02896012 -0.18688911
-0.047830299 -0.028880265 -0.18688326
-0.047828224 -0.028800454 -0.1868754
-0.047825757 -0.028720466 -0.18687552
-0.047823034 -0.028638393 -0.18687961
-0.04782106 -0.028558625 -0.18686977
-0.047818203 -0.028478462 -0.18687788
-0.047814798 -0.028396085 -0.18689594
-0.04781149 -0.02831375 -0.186912
-0.047808673 -0.028231634 -0.18691808
-0.047806695 -0.028151866 -0.18690823
-0.047805168 -0.02807427 -0.18689045
-0.047803033 -0.027992459 -0.18688254
-0.047800764 -0.027912561 -0.18687868
-0.047798201 -0.02783253 -0.18688081
-0.047795735 -0.027752541 -0.18688095
-0.04779366 -0.02767273 -0.18687308
-0.047791526 -0.027590919 -0.18686518
-0.04778935 -0.027511064 -0.18685934
-0.047787666 -0.027431425 -0.18684348
-0.047786336 -0.027353918 -0.1868217
-0.047784358 -0.027274149 -0.18681185
-0.047782481 -0.027194424 -0.1868
-0.047780599 -0.027114701 -0.18678814
-0.04777823 -0.027034756 -0.18678628
-0.047775961 -0.026954856 -0.18678242
-0.047773689 -0.026874956 -0.18677856
-0.047771066 -0.026792929 -0.18678065
-0.047768407 -0.026712853 -0.18678477
-0.047765393 -0.026630649 -0.18679485
-0.047762927 -0.026550662 -0.18679498
-0.047761634 -0.026471201 -0.18677115
-0.04775995 -0.026391562 -0.1867553
-0.047757678 -0.026311662 -0.18675144
-0.047755212 -0.026231676 -0.18675157
-0.047752649 -0.026151646 -0.18675371
-0.047749735 -0.026069485 -0.18676178
-0.047746819 -0.025987325 -0.18676986
-0.047744352 -0.025907338 -0.18676999
-0.047742471 -0.025827613 -0.18675813
-0.047740985 -0.025748063 -0.1867383
-0.047739163 -0.025670337 -0.1867265
-0.047737028 -0.025588525 -0.1867186
-0.047734857 -0.02550867 -0.18671274
-0.047732197 -0.025428597 -0.18671687
-0.047729768 -0.025346655 -0.18671495
-0.047727205 -0.025266623 -0.18671709
-0.047724191 -0.025184419 -0.18672717
-0.047721725 -0.025104433 -0.1867273
-0.047719553 -0.025024576 -0.18672143
-0.047717672 -0.024944851 -0.18670958
-0.047716241 -0.0248673 -0.18668979
-0.047714461 -0.02478762 -0.18667595
-0.047712386 -0.024707807 -0.1866681
-0.047710251 -0.024625996 -0.1866602
-0.047707688 -0.024545966 -0.18666233
-0.047704928 -0.024465848 -0.18666846
-0.047702208 -0.024383774 -0.18667254
-0.047699839 -0.024303831 -0.18667066
-0.047698256 -0.024224238 -0.18665282
-0.047696471 -0.024144556 -0.18663898
-0.047694203 -0.024064656 -0.18663512
-0.047692128 -0.023984844 -0.18662727
-0.047689565 -0.023904813 -0.18662938
-0.047686942 -0.023822784 -0.18663147
-0.047684375 -0.023742754 -0.18663362
-0.047681753 -0.023660725 -0.18663569
-0.047679387 -0.023580782 -0.18663383
-0.047676824 -0.023500752 -0.18663596
-0.047674298 -0.023418766 -0.18663606
-0.047673356 -0.023341432 -0.18660627
-0.047672316 -0.023264056 -0.18657848
-0.047670338 -0.023184288 -0.18656863
-0.04766836 -0.023104517 -0.18655878
-0.047665797 -0.02302449 -0.18656091
-0.047663078 -0.022942415 -0.186565
-0.0476612 -0.02286269 -0.18655315
-0.047659475 -0.022785006 -0.18653935
-0.047657594 -0.022705283 -0.18652749
-0.047656752 -0.022627993 -0.18649572
-0.047656357 -0.022552876 -0.18645601
-0.047655612 -0.02247563 -0.18642223
-0.047653891 -0.022397948 -0.18640843
-0.047651716 -0.022318091 -0.18640259
-0.04764929 -0.022236152 -0.18640068
-0.047647566 -0.022158468 -0.18638687
-0.047646176 -0.022078961 -0.18636504
-0.047644649 -0.022001363 -0.18634725
-0.047642574 -0.021921555 -0.18633938
-0.047640692 -0.021841828 -0.18632755
-0.047639165 -0.021764234 -0.18630974
-0.047637738 -0.021686682 -0.18628994
-0.047636054 -0.021607043 -0.18627411
-0.047634136 -0.021529272 -0.18626431
-0.047632255 -0.021449551 -0.18625244
-0.047630824 -0.021371998 -0.18623266
-0.047629237 -0.021292403 -0.18621482
-0.047627263 -0.021212634 -0.18620497
-0.047625344 -0.021134866 -0.18619516
-0.047623757 -0.02105527 -0.18617731
-0.047623169 -0.020980068 -0.1861416
-0.047623165 -0.020905124 -0.1860939
-0.047622282 -0.020829789 -0.18606415
-0.047620304 -0.020750023 -0.18605432
-0.047618326 -0.020670254 -0.18604445
-0.047616605 -0.02059257 -0.18603066
-0.047614433 -0.020512713 -0.1860248
-0.047612358 -0.020432904 -0.18601695
-0.047610439 -0.020355133 -0.18600714
-0.047608107 -0.020273235 -0.18600324
-0.047605194 -0.020191073 -0.18601131
-0.047601435 -0.020106567 -0.18603531
-0.047597837 -0.020024098 -0.18605737
-0.047593981 -0.019939547 -0.18608338
-0.04759042 -0.019855127 -0.18610339
-0.047584787 -0.019765837 -0.18616325
-0.047580484 -0.019679112 -0.18619719
-0.047576241 -0.019594386 -0.18623118
-0.048174098 -0.054049842 -0.18709716
-0.048174482 -0.053965211 -0.18703525
-0.048174046 -0.053882189 -0.18699135
-0.048172593 -0.053800683 -0.18696946
-0.04817206 -0.053717617 -0.18692756
-0.048171293 -0.053636417 -0.1868917
-0.048169255 -0.053554647 -0.18688181
-0.048167415 -0.053472966 -0.18686792
-0.048165727 -0.05339333 -0.18685207
-0.04816369 -0.053311564 -0.18684217
-0.04816103 -0.053231489 -0.18684632
-0.048158467 -0.053151459 -0.18684843
-0.048156232 -0.053069606 -0.18684253
-0.048153765 -0.052989617 -0.18684265
-0.048150908 -0.052909456 -0.18685079
-0.048147917 -0.052831206 -0.18686295
-0.048145354 -0.052751176 -0.18686508
-0.048143081 -0.052671276 -0.18686122
-0.04814085 -0.05258942 -0.18685532
-0.048138089 -0.052509304 -0.18686144
-0.04813543 -0.052429229 -0.18686557
-0.048132863 -0.052349199 -0.18686771
-0.048129678 -0.052270859 -0.18688387
-0.048126388 -0.052192479 -0.18690202
-0.048123866 -0.052110493 -0.18690211
-0.048121359 -0.052032463 -0.18690428
-0.048118211 -0.051952172 -0.18691839
-0.048115253 -0.051871967 -0.18692851
-0.048112556 -0.051793844 -0.18693468
-0.048109405 -0.051713552 -0.18694881
-0.048105728 -0.051634997 -0.18697494
-0.048102479 -0.051554661 -0.18699107
-0.048099428 -0.051474415 -0.18700317
-0.04809624 -0.051396076 -0.18701932
-0.048093483 -0.051315956 -0.18702546
-0.048091114 -0.051236015 -0.18702358
-0.048088685 -0.051154073 -0.18702167
-0.048086412 -0.051074173 -0.18701783
-0.048084047 -0.050994229 -0.18701595
-0.048081581 -0.050914243 -0.18701608
-0.048079506 -0.050834432 -0.18700823
-0.048077468 -0.050752662 -0.18699834
-0.048074804 -0.050672591 -0.18700247
-0.048071325 -0.050594121 -0.18702462
-0.048067588 -0.050513566 -0.1870507
-0.048064984 -0.050435491 -0.18705487
-0.048062753 -0.050353639 -0.18704897
-0.048059661 -0.050275341 -0.18706314
-0.048056122 -0.050194874 -0.18708524
-0.048053361 -0.050114758 -0.18709138
-0.048051093 -0.050034858 -0.18708751
-0.048048429 -0.049954783 -0.18709165
-0.048044987 -0.049874358 -0.18711174
-0.048041701 -0.049795978 -0.1871299
-0.04803865 -0.049715731 -0.18714201
-0.04803589 -0.049635611 -0.18714815
-0.048033327 -0.049555585 -0.18715027
-0.048030958 -0.04947564 -0.18714841
-0.048028491 -0.049395651 -0.18714854
-0.048025243 -0.049315318 -0.18716466
-0.04802268 -0.049235284 -0.18716678
-0.048020445 -0.049153432 -0.18716088
-0.048018076 -0.049073488 -0.18715902
-0.048015613 -0.048993502 -0.18715915
-0.048013438 -0.048913646 -0.18715328
-0.048011497 -0.048831921 -0.18714139
-0.048009325 -0.048752066 -0.18713555
-0.048006665 -0.048671991 -0.18713966
-0.048003808 -0.04859183 -0.1871478
-0.048001047 -0.048511714 -0.18715392
-0.047998093 -0.048431508 -0.18716404
-0.047995236 -0.048351347 -0.18717214
-0.047992475 -0.048271228 -0.18717828
-0.047989719 -0.048191108 -0.18718441
-0.047986567 -0.048110817 -0.18719852
-0.047984004 -0.048030786 -0.18720065
-0.047981828 -0.047950931 -0.18719479
-0.04797985 -0.047871161 -0.18718496
-0.047977388 -0.047791176 -0.18718508
-0.047974568 -0.047709059 -0.18719116
-0.047972102 -0.047629073 -0.18719128
-0.047969539 -0.047549043 -0.18719342
-0.047966681 -0.047468882 -0.18720154
-0.047964312 -0.047388937 -0.18719968
-0.047962762 -0.047307387 -0.1871798
-0.047960591 -0.047227532 -0.18717393
-0.04795783 -0.047147416 -0.18718007
-0.047955267 -0.047067385 -0.1871822
-0.047952898 -0.04698744 -0.18718034
-0.047950663 -0.046905585 -0.18717442
-0.0479481 -0.046825558 -0.18717656
-0.047944754 -0.046745177 -0.18719468
-0.047941372 -0.046666753 -0.18721482
-0.047938906 -0.046586763 -0.18721496
-0.047937356 -0.046505217 -0.18719508
-0.047935806 -0.046423666 -0.18717518
-0.047933243 -0.046343636 -0.18717732
-0.047929704 -0.046263169 -0.18719941
-0.047926515 -0.04618483 -0.18721557
-0.047923695 -0.046102714 -0.18722166
-0.047921192 -0.046024684 -0.18722382
-0.047918569 -0.045942653 -0.18722591
-0.047915906 -0.045862578 -0.18723005
-0.047913734 -0.045782723 -0.18722419
-0.047912382 -0.045701262 -0.18720031
-0.047910206 -0.045621406 -0.18719445
-0.047907349 -0.045541245 -0.18720257
-0.047904592 -0.045461126 -0.1872087
-0.047901928 -0.045381054 -0.18721282
-0.047899462 -0.045301065 -0.18721297
-0.047896802 -0.045220993 -0.18721709
-0.047893845 -0.045140788 -0.18722722
-0.0478906 -0.045060452 -0.18724333
-0.047888033 -0.044980422 -0.18724546
-0.047885999 -0.044898652 -0.18723556
-0.04788363 -0.044818711 -0.1872337
-0.047881067 -0.04473868 -0.18723583
-0.0478785 -0.04465865 -0.18723795
-0.047876034 -0.044578664 -0.1872381
-0.047873568 -0.044498675 -0.18723822
-0.047871143 -0.044416733 -0.18723631
-0.047868673 -0.044336747 -0.18723646
-0.047865428 -0.044256411 -0.18725257
-0.047862764 -0.044176336 -0.18725669
-0.047861375 -0.044096828 -0.18723485
-0.047859728 -0.044015236 -0.18721697
-0.04785677 -0.043935031 -0.18722709
-0.047854111 -0.043854959 -0.18723121
-0.047851935 -0.0437751 -0.18722536
-0.047849372 -0.04369507 -0.18722749
-0.047846321 -0.043614823 -0.1872396
-0.047842976 -0.043534443 -0.18725771
-0.047839925 -0.043454193 -0.18726984
-0.047837362 -0.043374162 -0.18727195
-0.04783503 -0.043292265 -0.18726805
-0.047832757 -0.043212365 -0.18726419
-0.047829609 -0.043132074 -0.1872783
-0.04782724 -0.043052129 -0.18727645
-0.047825396 -0.042970449 -0.18726255
-0.047823615 -0.042890768 -0.18724871
-0.04782144 -0.042810913 -0.18724285
-0.04781872 -0.042728841 -0.18724692
-0.047815923 -0.042650677 -0.1872551
-0.047813788 -0.042568866 -0.18724719
-0.047811713 -0.042489056 -0.18723935
-0.047809344 -0.042409111 -0.18723747
-0.047806684 -0.042329036 -0.18724161
-0.047803923 -0.04224892 -0.18724772
-0.047801457 -0.04216893 -0.18724787
-0.047799323 -0.042087123 -0.18723997
-0.047796857 -0.042007133 -0.18724009
-0.047793511 -0.041926753 -0.18725821
-0.04779036 -0.041846462 -0.18727231
-0.047788285 -0.041766651 -0.18726447
-0.047786444 -0.04168497 -0.18725057
-0.047784366 -0.04160516 -0.18724272
-0.047782779 -0.041525565 -0.18722488
-0.047781035 -0.041443929 -0.18720898
-0.047778763 -0.041364029 -0.18720514
-0.047776103 -0.041283954 -0.18720925
-0.047773246 -0.041203793 -0.18721738
-0.04777078 -0.041123804 -0.1872175
-0.047769133 -0.041042212 -0.18719962
-0.047768131 -0.040962882 -0.18716981
-0.047765959 -0.040883023 -0.18716395
-0.047762807 -0.040802732 -0.18717806
-0.047760341 -0.040722746 -0.18717819
-0.047758304 -0.04064098 -0.1871683
-0.047756132 -0.040561121 -0.18716243
-0.047753762 -0.04048118 -0.18716058
-0.047751393 -0.040401235 -0.1871587
-0.047748439 -0.04032103 -0.18716884
-0.047745582 -0.040240869 -0.18717696
-0.047743056 -0.040158883 -0.18717705
-0.047740493 -0.040078852 -0.18717918
-0.047738612 -0.039999127 -0.18716732
-0.047737904 -0.039919928 -0.18713149
-0.047735829 -0.039840117 -0.18712366
-0.047733303 -0.039758131 -0.18712375
-0.04773074 -0.0396781 -0.18712586
-0.047728468 -0.0395982 -0.18712202
-0.047726195 -0.0395183 -0.18711814
-0.047723632 -0.03943827 -0.18712029
-0.04772136 -0.03935837 -0.18711643
-0.04771864 -0.039276298 -0.1871205
-0.047715686 -0.039196093 -0.18713063
-0.047713123 -0.039116062 -0.18713276
-0.047710851 -0.039036162 -0.1871289
-0.04770809 -0.038956046 -0.18713501
-0.047705274 -0.038873926 -0.18714111
-0.047702417 -0.038793765 -0.18714923
-0.047699463 -0.03871356 -0.18715934
-0.047696117 -0.038633183 -0.18717745
-0.047692712 -0.038550802 -0.18719551
-0.04769044 -0.038470902 -0.18719165
-0.047688756 -0.038391266 -0.18717581
-0.047686778 -0.038311496 -0.18716596
-0.047684703 -0.038231686 -0.18715811
-0.047682725 -0.038151916 -0.18714824
-0.047680493 -0.03807006 -0.18714234
-0.047678415 -0.03799025 -0.18713449
-0.047676437 -0.03791048 -0.18712464
-0.047674067 -0.037830539 -0.18712278
-0.047671799 -0.037750639 -0.18711892
-0.047669079 -0.037668567 -0.187123
-0.047666319 -0.037588447 -0.18712912
-0.047664143 -0.037508592 -0.18712327
-0.047662068 -0.037428781 -0.1871154
-0.047659505 -0.037348747 -0.18711755
-0.047656685 -0.037266634 -0.18712363
-0.04765344 -0.037186295 -0.18713973
-0.047650132 -0.037103962 -0.1871558
-0.047647569 -0.037023932 -0.18715793
-0.047645006 -0.036943901 -0.18716007
-0.047642831 -0.036864046 -0.1871542
-0.04764222 -0.036784887 -0.18711638
-0.047641024 -0.036705468 -0.18709058
-0.04763924 -0.036625788 -0.18707672
-0.047637459 -0.036546104 -0.18706286
-0.04763509 -0.036466163 -0.187061
-0.047632661 -0.036384221 -0.18705909
-0.047630489 -0.036304366 -0.18705323
-0.047627632 -0.036224201 -0.18706137
-0.047624581 -0.036143955 -0.18707348
-0.047622152 -0.036062013 -0.18707156
-0.047620174 -0.035982244 -0.18706171
-0.047617707 -0.035902258 -0.18706185
-0.04761485 -0.035822093 -0.18706998
-0.047612187 -0.035742022 -0.1870741
-0.047609664 -0.035660036 -0.18707418
-0.047607098 -0.035580005 -0.18707633
-0.047603987 -0.035497759 -0.18708839
-0.047600839 -0.035417467 -0.1871025
-0.047598176 -0.035337392 -0.18710664
-0.047596198 -0.035257623 -0.18709677
-0.047594514 -0.035177987 -0.18708093
-0.047592573 -0.035096262 -0.18706904
-0.047590848 -0.035018578 -0.18705525
-0.047588423 -0.034936637 -0.18705334
-0.047586247 -0.034856781 -0.18704748
-0.04758437 -0.034777056 -0.18703562
-0.047581706 -0.034696981 -0.18703976
-0.047578789 -0.034614824 -0.18704784
-0.047576871 -0.034537051 -0.18703802
-0.047575518 -0.03445559 -0.18701413
-0.047574282 -0.034378126 -0.18699037
-0.047572501 -0.034298446 -0.18697652
-0.047569975 -0.03421646 -0.18697661
-0.047566921 -0.03413621 -0.18698873
-0.047563713 -0.034053918 -0.18700278
-0.047560662 -0.033973671 -0.18701491
-0.047557645 -0.033891469 -0.18702498
-0.047554694 -0.033811264 -0.1870351
-0.047551736 -0.033731058 -0.18704522
-0.047549661 -0.033651244 -0.18703736
-0.047547683 -0.033571474 -0.18702751
-0.047544669 -0.033489272 -0.18703759
-0.047541909 -0.033409156 -0.1870437
-0.047539834 -0.033329342 -0.18703586
-0.047537699 -0.03324753 -0.18702796
-0.047534943 -0.033167414 -0.18703407
-0.047531441 -0.033084992 -0.18705414
-0.047528096 -0.033004612 -0.18707225
-0.04752592 -0.032924756 -0.18706639
-0.047523882 -0.03284299 -0.18705648
-0.047522161 -0.032765307 -0.18704268
-0.047520123 -0.032683536 -0.18703279
-0.047517754 -0.032603595 -0.18703094
-0.047515288 -0.03252361 -0.18703106
-0.047513016 -0.03244371 -0.18702722
-0.047511332 -0.03236407 -0.18701136
-0.047509354 -0.032284304 -0.18700151
-0.047506534 -0.032202184 -0.18700758
-0.047503874 -0.032122113 -0.18701172
-0.047501698 -0.032042257 -0.18700585
-0.047499232 -0.031962268 -0.187006
-0.047496706 -0.031880282 -0.18700609
-0.047494341 -0.031800341 -0.18700421
-0.047491677 -0.031720266 -0.18700835
-0.047489151 -0.03163828 -0.18700844
-0.047486782 -0.031558339 -0.18700656
-0.047484513 -0.031478439 -0.1870027
-0.047482338 -0.031398583 -0.18699685
-0.047480166 -0.031318724 -0.18699099
-0.047478128 -0.03123696 -0.1869811
-0.047476504 -0.031159321 -0.1869653
-0.047473978 -0.031077335 -0.18696539
-0.047471512 -0.030997347 -0.18696551
-0.047469337 -0.030917492 -0.18695965
-0.047466714 -0.030835463 -0.18696174
-0.04746376 -0.030755259 -0.18697187
-0.047460746 -0.030673053 -0.18698195
-0.04745828 -0.030593067 -0.18698207
-0.047456887 -0.03051356 -0.18696025
-0.04745575 -0.03043614 -0.18693446
-0.047453478 -0.03035624 -0.1869306
-0.04745115 -0.030274343 -0.18692669
-0.047449365 -0.030194661 -0.18691283
-0.047447093 -0.030114762 -0.18690899
-0.047444627 -0.030034773 -0.18690911
-0.047441967 -0.0299547 -0.18691325
-0.047439344 -0.029872671 -0.18691534
-0.047437269 -0.029792858 -0.18690747
-0.047435582 -0.029713221 -0.18689165
-0.047433212 -0.029633278 -0.18688977
-0.047430456 -0.02955316 -0.18689589
-0.047427636 -0.029471043 -0.18690197
-0.047424719 -0.029388882 -0.18691005
-0.047421962 -0.029308766 -0.18691617
-0.047419436 -0.02922678 -0.18691626
-0.047416676 -0.029146664 -0.18692237
-0.047413759 -0.029064503 -0.18693046
-0.04741149 -0.028984603 -0.1869266
-0.047409512 -0.028904835 -0.18691674
-0.047407534 -0.028825067 -0.1869069
-0.047405846 -0.028745428 -0.18689106
-0.047403283 -0.028665397 -0.18689319
-0.047400661 -0.028583368 -0.18689527
-0.047398645 -0.028505554 -0.18688746
-0.04739612 -0.02842357 -0.18688755
-0.047392812 -0.028341236 -0.18690361
-0.047389995 -0.028259119 -0.18690971
-0.047387626 -0.028179176 -0.18690783
-0.047385354 -0.028099276 -0.18690397
-0.047383182 -0.028019421 -0.18689811
-0.047381204 -0.027939651 -0.18688825
-0.047379617 -0.027860057 -0.18687043
-0.047377344 -0.027780157 -0.18686655
-0.047374487 -0.027699996 -0.18687469
-0.047371767 -0.027617924 -0.18687877
-0.047369495 -0.027538024 -0.1868749
-0.047368005 -0.027458474 -0.18685508
-0.047366671 -0.027380966 -0.18683329
-0.047364693 -0.027301196 -0.18682343
-0.047362365 -0.027219299 -0.18681952
-0.047360446 -0.027141528 -0.18680972
-0.047357921 -0.027059544 -0.18680981
-0.047355454 -0.026979556 -0.18680993
-0.047353085 -0.026899613 -0.18680808
-0.047350366 -0.026817542 -0.18681216
-0.047348093 -0.02673764 -0.18680829
-0.047346018 -0.026657827 -0.18680045
-0.047344234 -0.026578147 -0.18678659
-0.04734255 -0.02649851 -0.18677075
-0.047340475 -0.026418697 -0.1867629
-0.0473384 -0.026338886 -0.18675503
-0.047335774 -0.026256856 -0.18675712
-0.047333114 -0.026176782 -0.18676126
-0.047330353 -0.026096664 -0.18676737
-0.04732734 -0.02601446 -0.18677746
-0.04732462 -0.025932387 -0.18678153
-0.04732313 -0.025852837 -0.18676169
-0.047322284 -0.025775548 -0.18672992
-0.04732056 -0.025697865 -0.18671612
-0.047318038 -0.02561588 -0.1867162
-0.047315471 -0.025535848 -0.18671834
-0.047313493 -0.02545608 -0.1867085
-0.047311127 -0.025376137 -0.18670663
-0.047308601 -0.025294151 -0.18670672
-0.047306135 -0.025214164 -0.18670684
-0.047303412 -0.025132092 -0.18671092
-0.047301043 -0.025052149 -0.18670908
-0.047298871 -0.024972294 -0.18670321
-0.047296599 -0.024892393 -0.18669935
-0.04729427 -0.024810495 -0.18669546
-0.047291998 -0.024730595 -0.18669158
-0.047289532 -0.024650609 -0.18669173
-0.047287162 -0.024570666 -0.18668985
-0.047284834 -0.024488768 -0.18668595
-0.047282074 -0.02440865 -0.18669206
-0.047279254 -0.024326533 -0.18669815
-0.047277279 -0.024246763 -0.1866883
-0.047275946 -0.024169257 -0.18666652
-0.047274258 -0.024089618 -0.18665066
