# .PCD v0.7 - Point Cloud Data file format
VERSION 0.7
FIELDS x y z
SIZE 4 4 4
TYPE F F F
COUNT 1 1 1
WIDTH 1269
HEIGHT 1
VIEWPOINT 0 0 0 1 0 0 0
POINTS 1269
DATA ascii
-0.04967605 -0.089990504 -0.18801028
-0.049678151 -0.090074271 -0.18802023
-0.049680326 -0.090154126 -0.18802607
-0.04968217 -0.090235807 -0.18803994
-0.049683973 -0.090319447 -0.18805587
-0.049686346 -0.090399384 -0.18805772
-0.049688816 -0.090479374 -0.18805757
-0.049691148 -0.090561271 -0.18806148
-0.049693383 -0.09064313 -0.18806738
-0.049695361 -0.090722896 -0.18807721
-0.049697265 -0.090806581 -0.18809114
-0.049699441 -0.090886436 -0.18809699
-0.049701147 -0.090970024 -0.18811491
-0.04970276 -0.091053575 -0.18813485
-0.049704406 -0.091135174 -0.18815272
-0.049705956 -0.091216728 -0.18817258
-0.049708389 -0.09129867 -0.18817449
-0.049711149 -0.091378786 -0.18816835
-0.049713913 -0.091458902 -0.18816221
-0.049716383 -0.091538891 -0.18816209
-0.049718421 -0.091620654 -0.18817197
-0.049719833 -0.091704115 -0.18819588
-0.049722169 -0.09178602 -0.18819979
-0.049724538 -0.091865964 -0.18820164
-0.049727008 -0.091945946 -0.18820149
-0.049729634 -0.092027977 -0.1881994
-0.049731907 -0.092107877 -0.18820325
-0.049734142 -0.092189729 -0.18820915
-0.049736377 -0.092271581 -0.18821505
-0.049738415 -0.092353359 -0.18822493
-0.049740493 -0.092433169 -0.18823276
-0.049742788 -0.092517018 -0.18823871
-0.049744535 -0.092598662 -0.18825459
-0.04974677 -0.092680514 -0.1882605
-0.049749531 -0.09276063 -0.18825436
-0.049752001 -0.092840619 -0.18825421
-0.04975443 -0.092922561 -0.18825611
-0.049756471 -0.093004331 -0.18826599
-0.049758315 -0.093086012 -0.18827988
-0.04976045 -0.093167819 -0.18828776
-0.049762491 -0.093249589 -0.18829766
-0.049764626 -0.093331404 -0.18830556
-0.049766861 -0.093413256 -0.18831144
-0.049768705 -0.093494937 -0.18832533
-0.049771041 -0.093576834 -0.18832922
-0.04977423 -0.093655169 -0.18831305
-0.049777422 -0.093733504 -0.18829688
-0.049780577 -0.093813799 -0.18828277
-0.049782712 -0.093895614 -0.18829066
-0.049784128 -0.093979076 -0.18831457
-0.049785834 -0.094062671 -0.1883325
-0.049787678 -0.094144344 -0.18834639
-0.049789622 -0.09422607 -0.18835828
-0.04979172 -0.094309837 -0.1883682
-0.049793992 -0.094389737 -0.18837205
-0.049796656 -0.094469815 -0.1883679
-0.049799517 -0.094549976 -0.18835978
-0.049801946 -0.094631918 -0.18836167
-0.049803987 -0.09471368 -0.18837157
-0.049806554 -0.094793715 -0.18836942
-0.049809314 -0.094873831 -0.1883633
-0.049811453 -0.094955638 -0.18837118
-0.049813822 -0.095035583 -0.18837304
-0.049816549 -0.095117658 -0.18836895
-0.049819544 -0.095195904 -0.18835679
-0.049822502 -0.09527611 -0.18834665
-0.049824774 -0.09535601 -0.1883505
-0.049826816 -0.09543778 -0.18836039
-0.049829245 -0.095519722 -0.1883623
-0.04983224 -0.095597968 -0.18835013
-0.049245108 -0.086804129 -0.18816541
-0.04924918 -0.086882852 -0.18813127
-0.049255416 -0.086956628 -0.18804905
-0.049261753 -0.087030441 -0.18796486
-0.049265958 -0.087107256 -0.18792666
-0.049270794 -0.087182373 -0.18787447
-0.049275782 -0.087259538 -0.18782032
-0.049279891 -0.087336309 -0.18778412
-0.049283668 -0.087414905 -0.18775597
-0.049286142 -0.087494887 -0.18775582
-0.049288511 -0.087574832 -0.18775767
-0.049291179 -0.087654904 -0.18775353
-0.049293943 -0.087735027 -0.18774742
-0.049296279 -0.087816924 -0.18775129
-0.049298454 -0.087896779 -0.18775713
-0.049300928 -0.087976769 -0.187757
-0.049303163 -0.088058621 -0.18776289
-0.049305107 -0.088140346 -0.18777478
-0.049307052 -0.088222072 -0.18778667
-0.049309228 -0.088301927 -0.18779251
-0.049310781 -0.088383481 -0.18781239
-0.049312491 -0.088467069 -0.18783031
-0.049314767 -0.088546969 -0.18783416
-0.049316809 -0.088628739 -0.18784404
-0.049318459 -0.08871033 -0.18786192
-0.049320113 -0.088791929 -0.1878798
-0.049322054 -0.088873655 -0.18789169
-0.049324293 -0.088955507 -0.18789758
-0.049326569 -0.089035407 -0.18790144
-0.04932861 -0.089117177 -0.18791132
-0.049330555 -0.089198902 -0.18792321
-0.049332265 -0.089282498 -0.18794113
-0.049333818 -0.089364052 -0.18796101
-0.049335565 -0.089445688 -0.18797688
-0.049337178 -0.089529231 -0.1879968
-0.0493384 -0.089612611 -0.18802471
-0.049340539 -0.089694425 -0.1880326
-0.049342815 -0.089774325 -0.18803644
-0.049345151 -0.089856222 -0.18804035
-0.049347427 -0.089936122 -0.18804419
-0.049349464 -0.090017885 -0.18805408
-0.049351215 -0.090099528 -0.18806997
-0.049353257 -0.090181299 -0.18807986
-0.049355492 -0.090263151 -0.18808576
-0.049358357 -0.090343311 -0.18807761
-0.04936073 -0.090423256 -0.18807948
-0.049362145 -0.090506718 -0.18810338
-0.04936409 -0.090588443 -0.18811527
-0.049367145 -0.090668693 -0.18810314
-0.049369518 -0.09074863 -0.18810499
-0.049371228 -0.090832226 -0.18812293
-0.049372979 -0.090913862 -0.18813881
-0.049375214 -0.090995722 -0.1881447
-0.049376536 -0.091079138 -0.18817061
-0.049377427 -0.091164336 -0.18820655
-0.049379408 -0.091244109 -0.18821639
-0.049382132 -0.091326185 -0.18821231
-0.049384505 -0.091406122 -0.18821415
-0.049387075 -0.091486156 -0.18821201
-0.049389604 -0.091568142 -0.18821192
-0.049391784 -0.091647997 -0.18821776
-0.049393591 -0.091731638 -0.18823369
-0.049395867 -0.091811538 -0.18823755
-0.049398199 -0.091893435 -0.18824142
-0.049400534 -0.091975331 -0.18824533
-0.049403142 -0.092053406 -0.18824115
-0.049405478 -0.092135303 -0.18824506
-0.049407519 -0.092217073 -0.18825494
-0.049409561 -0.092298843 -0.18826482
-0.04941199 -0.092380784 -0.18826672
-0.049413837 -0.092462465 -0.18828061
-0.049415745 -0.092546143 -0.18829453
-0.049417824 -0.092625961 -0.18830237
-0.049420021 -0.092709765 -0.18831033
-0.049422491 -0.092789754 -0.18831018
-0.049425393 -0.092867956 -0.18829998
-0.049428158 -0.092948079 -0.18829386
-0.04943059 -0.093030021 -0.18829575
-0.049432531 -0.093111746 -0.18830764
-0.049434535 -0.093195468 -0.18831958
-0.04943648 -0.093277194 -0.18833145
-0.049438618 -0.093359008 -0.18833935
-0.049440563 -0.093440726 -0.18835124
-0.04944323 -0.093520805 -0.1883471
-0.049445897 -0.093600877 -0.18834296
-0.049448133 -0.093682736 -0.18834886
-0.049450368 -0.093764588 -0.18835475
-0.049453035 -0.09384466 -0.18835062
-0.049455468 -0.093926601 -0.18835251
-0.049457215 -0.094008237 -0.18836838
-0.049459256 -0.094090007 -0.18837827
-0.049461398 -0.094171822 -0.18838617
-0.049463402 -0.094255544 -0.18839809
-0.049465541 -0.094337352 -0.18840599
-0.049468637 -0.09441565 -0.18839182
-0.049471926 -0.09449403 -0.18837366
-0.049474359 -0.094575971 -0.18837556
-0.049476203 -0.094657645 -0.18838945
-0.049478248 -0.094739415 -0.18839933
-0.049480911 -0.094819494 -0.18839519
-0.049483344 -0.094901435 -0.18839708
-0.049485385 -0.094983205 -0.18840697
-0.049487293 -0.095066883 -0.18842091
-0.049489763 -0.095146865 -0.18842076
-0.049492817 -0.095227115 -0.18840864
-0.049495522 -0.095305234 -0.18840246
-0.049498387 -0.095385395 -0.18839431
-0.049501345 -0.0954656 -0.18838419
-0.049503248 -0.095549278 -0.18839812
-0.049504802 -0.095630825 -0.188418
-0.048753344 -0.08689753 -0.18803604
-0.048759911 -0.086969472 -0.1879458
-0.048764277 -0.087048329 -0.18790567
-0.048769109 -0.087123454 -0.18785346
-0.048773512 -0.087200351 -0.18781127
-0.048777234 -0.08727695 -0.18778308
-0.048780721 -0.087355413 -0.18776092
-0.048784263 -0.087435879 -0.18773881
-0.048787363 -0.08751417 -0.18772462
-0.048790261 -0.087592371 -0.18771446
-0.048793122 -0.087672532 -0.18770632
-0.048795499 -0.087752476 -0.18770817
-0.048797444 -0.087834202 -0.18772006
-0.048799582 -0.087916017 -0.18772796
-0.048801623 -0.087997779 -0.18773785
-0.048803568 -0.088079512 -0.18774973
-0.048805747 -0.088159367 -0.18775558
-0.04880828 -0.088241354 -0.18775548
-0.04881075 -0.088321336 -0.18775535
-0.04881322 -0.088401325 -0.18775518
-0.048815303 -0.088481136 -0.18776304
-0.04881715 -0.088562816 -0.18777692
-0.048818763 -0.088646367 -0.18779683
-0.048820511 -0.088728011 -0.18781272
-0.048822593 -0.088807821 -0.18782057
-0.048824735 -0.088889629 -0.18782845
-0.048826776 -0.088971399 -0.18783835
-0.048828624 -0.089053079 -0.18785223
-0.048830569 -0.089134805 -0.18786411
-0.048832513 -0.08921653 -0.187876
-0.048834555 -0.0892983 -0.18788588
-0.048836306 -0.089379936 -0.18790177
-0.048837822 -0.089463443 -0.18792368
-0.048839178 -0.089544907 -0.18794756
-0.048840892 -0.089628503 -0.18796548
-0.048842639 -0.089710139 -0.18798135
-0.048844781 -0.089791954 -0.18798923
-0.048846919 -0.089873761 -0.18799713
-0.048849195 -0.089953661 -0.18800098
-0.048851006 -0.090037301 -0.18801692
-0.048853379 -0.090117246 -0.18801877
-0.048856143 -0.090197355 -0.18801263
-0.048858479 -0.090279259 -0.18801653
-0.048860561 -0.090359069 -0.18802437
-0.048862796 -0.090440929 -0.18803027
-0.048864841 -0.090522692 -0.18804015
-0.048866492 -0.09060429 -0.18805802
-0.048868634 -0.090686098 -0.18806592
-0.048870869 -0.090767957 -0.18807182
-0.048872814 -0.090849683 -0.18808371
-0.048874624 -0.090933315 -0.18809962
-0.048876274 -0.091014907 -0.1881175
-0.048877694 -0.091098376 -0.18814141
-0.04887921 -0.091181882 -0.18816334
-0.04888168 -0.091261864 -0.18816319
-0.048884444 -0.091341987 -0.18815705
-0.048886586 -0.091423795 -0.18816493
-0.048888236 -0.091505393 -0.18818282
-0.048890278 -0.091587156 -0.18819271
-0.048893046 -0.09166728 -0.18818657
-0.048895478 -0.091749221 -0.18818846
-0.048897326 -0.091830902 -0.18820235
-0.048899464 -0.091912709 -0.18821025
-0.048901938 -0.091992699 -0.1882101
-0.048904505 -0.092072725 -0.18820795
-0.048906937 -0.092154667 -0.18820986
-0.048909213 -0.092234567 -0.18821371
-0.048911646 -0.092316508 -0.18821561
-0.048913788 -0.092398323 -0.1882235
-0.048915967 -0.092478178 -0.18822935
-0.048918203 -0.092560038 -0.18823525
-0.048920639 -0.092641979 -0.18823715
-0.048922777 -0.092723787 -0.18824503
-0.048924197 -0.092807248 -0.18826894
-0.048926473 -0.092887148 -0.1882728
-0.0489292 -0.092969224 -0.18826871
-0.048931375 -0.093049079 -0.18827455
-0.048941147 -0.093374893 -0.18828011
-0.048943423 -0.093454793 -0.18828395
-0.048945524 -0.09353856 -0.1882939
-0.048948094 -0.093618587 -0.18829176
-0.048950665 -0.093698621 -0.18828961
-0.0489529 -0.093780473 -0.18829551
-0.048955176 -0.093860373 -0.18829936
-0.048957806 -0.093942404 -0.18829727
-0.048959553 -0.09402404 -0.18831314
-0.04896117 -0.094107591 -0.18833306
-0.048963603 -0.094189532 -0.18833496
-0.048965547 -0.094271258 -0.18834685
-0.04896798 -0.094353199 -0.18834874
-0.048970979 -0.094431445 -0.18833658
-0.048973642 -0.094511524 -0.18833244
-0.048975356 -0.094595119 -0.18835035
-0.048977729 -0.094675057 -0.18835221
-0.048981078 -0.094755441 -0.18833409
-0.048984408 -0.094831862 -0.18831389
-0.048987076 -0.094911933 -0.18830974
-0.048988651 -0.094997436 -0.18833171
-0.048989777 -0.095080771 -0.18836161
-0.048991486 -0.095164366 -0.18837954
-0.048994057 -0.095244393 -0.1883774
-0.048996821 -0.095324509 -0.18837127
-0.048999157 -0.095406413 -0.18837516
-0.049000964 -0.095490046 -0.18839109
-0.049002189 -0.095573425 -0.18841898
-0.049004328 -0.095655233 -0.18842688
-0.048296887 -0.08690685 -0.18794146
-0.048302539 -0.086980358 -0.18787123
-0.048307333 -0.087057434 -0.18782106
-0.048311543 -0.08713425 -0.18778288
-0.048316568 -0.087209456 -0.18772668
-0.048320349 -0.087288052 -0.18769853
-0.048323445 -0.087366343 -0.18768436
-0.048326403 -0.087446548 -0.18767422
-0.048329107 -0.087524667 -0.18766806
-0.048331544 -0.087606609 -0.18766996
-0.048333917 -0.087686554 -0.18767181
-0.048336387 -0.087766536 -0.18767166
-0.048338626 -0.087848395 -0.18767756
-0.048340704 -0.087928206 -0.1876854
-0.048342846 -0.088010021 -0.1876933
-0.048345316 -0.088090003 -0.18769315
-0.048347883 -0.088170037 -0.187691
-0.048350453 -0.088250063 -0.18768887
-0.048352592 -0.088331878 -0.18769675
-0.048354674 -0.088411689 -0.18770461
-0.048356812 -0.088493504 -0.18771249
-0.048358757 -0.088575229 -0.18772438
-0.048360411 -0.08865682 -0.18774226
-0.048362646 -0.08873868 -0.18774816
-0.048365019 -0.088818617 -0.18775001
-0.048366867 -0.088900298 -0.1877639
-0.048368286 -0.088983767 -0.1877878
-0.048370425 -0.089065574 -0.1877957
-0.048372895 -0.089145564 -0.18779555
-0.048375171 -0.089225464 -0.18779939
-0.048377115 -0.089307189 -0.18781129
-0.048378438 -0.089390606 -0.18783721
-0.048379853 -0.089474067 -0.18786111
-0.048381213 -0.089555532 -0.18788499
-0.048382923 -0.089639127 -0.1879029
-0.048385061 -0.089720935 -0.1879108
-0.048387047 -0.089800708 -0.18792063
-0.048389282 -0.089882568 -0.18792653
-0.048391327 -0.08996433 -0.18793643
-0.048393466 -0.090046145 -0.18794432
-0.048396036 -0.090126172 -0.18794218
-0.048397981 -0.090207897 -0.18795407
-0.048399691 -0.090291493 -0.18797198
-0.048401732 -0.090373263 -0.18798187
-0.04840358 -0.090454943 -0.18799576
-0.048405856 -0.090534844 -0.18799961
-0.048408423 -0.09061487 -0.18799746
-0.048410662 -0.090696722 -0.18800336
-0.048412703 -0.090778492 -0.18801324
-0.048414841 -0.090860307 -0.18802114
-0.048416689 -0.090941988 -0.18803501
-0.048418339 -0.091023579 -0.18805289
-0.048419621 -0.091108955 -0.18808085
-0.048421469 -0.091190636 -0.18809474
-0.048423938 -0.091270626 -0.1880946
-0.048426274 -0.091352522 -0.18809849
-0.048428319 -0.091434292 -0.18810838
-0.048430886 -0.091514319 -0.18810624
-0.048433848 -0.091594525 -0.18809611
-0.048436511 -0.091674596 -0.18809196
-0.048438653 -0.091756411 -0.18809986
-0.048439875 -0.09183979 -0.18812777
-0.048441526 -0.091921382 -0.18814564
-0.048444096 -0.092001408 -0.18814352
-0.048446625 -0.092083395 -0.1881434
-0.048449095 -0.092163384 -0.18814327
-0.048451763 -0.092243455 -0.18813913
-0.048454724 -0.092323661 -0.18812901
-0.048456997 -0.092403561 -0.18813285
-0.048458807 -0.092487201 -0.18814877
-0.048460323 -0.0925707 -0.1881707
-0.048461974 -0.092652299 -0.18818858
-0.048463978 -0.092736021 -0.1882005
-0.048466116 -0.092817836 -0.1882084
-0.048468102 -0.092897601 -0.18821824
-0.048470631 -0.092979588 -0.18821815
-0.048473101 -0.093059577 -0.188218
-0.048474677 -0.09314508 -0.18823996
-0.048476133 -0.093226589 -0.18826184
-0.048478663 -0.093308575 -0.18826175
-0.048480801 -0.093390383 -0.18826962
-0.048482649 -0.093472064 -0.1882835
-0.048485316 -0.093552142 -0.18827936
-0.048488609 -0.093630522 -0.18826121
-0.048491664 -0.093710765 -0.18824908
-0.048494 -0.093792662 -0.18825297
-0.048495747 -0.093874305 -0.18826886
-0.048497889 -0.093956113 -0.18827675
-0.048500128 -0.094037972 -0.18828264
-0.048501838 -0.09412156 -0.18830056
-0.048503783 -0.094203286 -0.18831244
-0.048505921 -0.094285101 -0.18832034
-0.048507866 -0.094366819 -0.18833223
-0.048510533 -0.094446898 -0.18832809
-0.0485132 -0.094526969 -0.18832394
-0.048515964 -0.094607085 -0.18831781
-0.04851912 -0.09468738 -0.18830369
-0.048521686 -0.094767407 -0.18830155
-0.048524156 -0.094847396 -0.18830141
-0.048526689 -0.094929382 -0.18830131
-0.048528399 -0.095012978 -0.18831924
-0.048530247 -0.095094651 -0.18833312
-0.048532911 -0.09517473 -0.18832898
-0.048535347 -0.095256671 -0.18833089
-0.048537523 -0.095336527 -0.18833673
-0.048539955 -0.095418468 -0.18833864
-0.048542 -0.095500238 -0.18834853
-0.048543904 -0.095583916 -0.18836245
-0.048546143 -0.095665768 -0.18836835
-0.04786247 -0.086928532 -0.18796948
-0.047868706 -0.0870023 -0.18788725
-0.047872625 -0.087078989 -0.18785506
-0.047877613 -0.087156147 -0.18780091
-0.047881961 -0.087231047 -0.18775868
-0.047886033 -0.087309778 -0.18772453
-0.047889713 -0.087388329 -0.18769839
-0.047893006 -0.087466709 -0.18768023
-0.047896102 -0.087545 -0.18766606
-0.047898769 -0.087625071 -0.18766192
-0.047901202 -0.087707013 -0.18766382
-0.047903478 -0.087786913 -0.18766767
-0.047905616 -0.087868728 -0.18767557
-0.047907598 -0.087948501 -0.1876854
-0.047909975 -0.088028438 -0.18768725
-0.047912933 -0.088108644 -0.18767713
-0.0479156 -0.088188715 -0.18767299
-0.047917448 -0.088270396 -0.18768688
-0.047919489 -0.088352166 -0.18769675
-0.047921572 -0.088431977 -0.18770461
-0.047923613 -0.088513747 -0.1877145
-0.047925949 -0.088595644 -0.18771839
-0.047928087 -0.088677458 -0.18772629
-0.047929741 -0.08875905 -0.18774417
-0.047931489 -0.088840693 -0.18776004
-0.047933962 -0.088920675 -0.18775991
-0.047936335 -0.08900062 -0.18776175
-0.047938146 -0.089084253 -0.18777768
-0.047939893 -0.089165896 -0.18779355
-0.047942072 -0.089245752 -0.18779941
-0.04794421 -0.089327559 -0.18780729
-0.047945667 -0.089409068 -0.18782917
-0.047946852 -0.089494407 -0.18785912
-0.047948405 -0.089575954 -0.187879
-0.047950018 -0.089659505 -0.1878989
-0.047952883 -0.089739665 -0.18789078
-0.047954865 -0.089819431 -0.18790063
-0.047956772 -0.089903116 -0.18791455
-0.047958851 -0.089982927 -0.1879224
-0.047961384 -0.090064913 -0.1879223
-0.047963656 -0.090144813 -0.18792614
-0.047965895 -0.090226665 -0.18793204
-0.047967315 -0.090310127 -0.18795596
-0.047968965 -0.090391725 -0.18797384
-0.047971535 -0.090471752 -0.1879717
-0.047974162 -0.090553783 -0.1879696
-0.047976341 -0.090633638 -0.18797545
-0.04797858 -0.090715498 -0.18798134
-0.047980525 -0.090797216 -0.18799323
-0.047982566 -0.090878986 -0.18800312
-0.047984842 -0.090958886 -0.18800697
-0.04798593 -0.091044173 -0.18803892
-0.047986858 -0.091127418 -0.18807283
-0.047988802 -0.091209143 -0.18808471
-0.047991138 -0.09129104 -0.1880886
-0.047992852 -0.091374636 -0.18810654
-0.047994833 -0.091454409 -0.18811637
-0.04799746 -0.091536433 -0.18811429
-0.04800003 -0.091616467 -0.18811214
-0.048002504 -0.091696456 -0.18811199
-0.048004936 -0.091778398 -0.18811388
-0.048007406 -0.091858387 -0.18811375
-0.048009448 -0.09194015 -0.18812364
-0.04801159 -0.092021957 -0.18813153
-0.048013728 -0.092103772 -0.18813941
-0.048016004 -0.092183672 -0.18814328
-0.048018441 -0.092265613 -0.18814518
-0.048020713 -0.092345513 -0.18814902
-0.048023049 -0.092427418 -0.18815292
-0.048025191 -0.092509225 -0.18816081
-0.048027039 -0.092590906 -0.18817469
-0.048028886 -0.092672586 -0.18818858
-0.048030987 -0.092756353 -0.18819851
-0.048032835 -0.092838034 -0.18821239
-0.048035208 -0.092917979 -0.18821424
-0.048038267 -0.092998222 -0.18820211
-0.048040833 -0.093078256 -0.18819998
-0.048043266 -0.093160197 -0.18820187
-0.048045836 -0.093240231 -0.18819973
-0.048048172 -0.093322128 -0.18820363
-0.048049256 -0.093407415 -0.18823558
-0.048051007 -0.093489051 -0.18825147
-0.048053637 -0.093571082 -0.18824938
-0.048055485 -0.093652762 -0.18826325
-0.048057429 -0.093734488 -0.18827514
-0.048059959 -0.093816474 -0.18827504
-0.048062138 -0.093896329 -0.18828088
-0.048064042 -0.093980007 -0.18829483
-0.048065793 -0.094061643 -0.18831071
-0.048068129 -0.094143547 -0.18831459
-0.048070464 -0.094225444 -0.18831849
-0.048072409 -0.094307169 -0.18833038
-0.048074413 -0.094390891 -0.1883423
-0.048076455 -0.094472662 -0.1883522
-0.048078731 -0.094552562 -0.18835604
-0.048081983 -0.094632894 -0.18833992
-0.048085313 -0.094709322 -0.18831971
-0.048088077 -0.09478943 -0.18831359
-0.048089985 -0.094873115 -0.18832752
-0.048092026 -0.094954878 -0.18833742
-0.048094694 -0.095034957 -0.18833327
-0.048096932 -0.095116809 -0.18833917
-0.048098974 -0.095198579 -0.18834904
-0.04810131 -0.095280476 -0.18835294
-0.048103586 -0.095360376 -0.18835679
-0.048105922 -0.09544228 -0.18836069
-0.048108257 -0.095524177 -0.1883646
-0.048110824 -0.095604204 -0.18836245
-0.048113357 -0.09568619 -0.18836236
-0.047425345 -0.086953349 -0.18796411
-0.04742926 -0.087030038 -0.18793193
-0.047434445 -0.087107286 -0.18787377
-0.047439571 -0.087182537 -0.18781558
-0.047443293 -0.087259129 -0.18778737
-0.047447462 -0.087337896 -0.18775123
-0.047451049 -0.08741641 -0.18772706
-0.047454242 -0.087494746 -0.18771091
-0.047457337 -0.087573037 -0.18769673
-0.047460396 -0.087653287 -0.18768461
-0.047463257 -0.087733448 -0.18767649
-0.04746573 -0.08781343 -0.18767634
-0.047468007 -0.08789333 -0.18768018
-0.047470342 -0.087975226 -0.18768409
-0.047472421 -0.088055044 -0.18769193
-0.047474366 -0.088136762 -0.18770382
-0.047476508 -0.088218577 -0.1877117
-0.047478687 -0.08829844 -0.18771756
-0.04748112 -0.088380381 -0.18771946
-0.047483493 -0.088460319 -0.18772131
-0.047485635 -0.088542134 -0.18772921
-0.047487713 -0.088621944 -0.18773703
-0.047489855 -0.088703752 -0.18774493
-0.047491997 -0.088785574 -0.18775281
-0.047494076 -0.088865384 -0.18776067
-0.047496021 -0.088947102 -0.18777254
-0.047498062 -0.089028873 -0.18778244
-0.047500107 -0.089110643 -0.18779233
-0.047502186 -0.089190453 -0.18780017
-0.047504134 -0.089272179 -0.18781206
-0.047505748 -0.08935573 -0.18783197
-0.047507398 -0.089437321 -0.18784985
-0.047509208 -0.089520961 -0.18786579
-0.047510955 -0.089602605 -0.18788166
-0.047511593 -0.089685716 -0.18792155
-0.047513206 -0.089769267 -0.18794148
-0.047515776 -0.089849293 -0.18793933
-0.047518637 -0.089929454 -0.18793121
-0.047521111 -0.090009443 -0.18793106
-0.047523249 -0.090091251 -0.18793896
-0.047525488 -0.09017311 -0.18794484
-0.047527764 -0.09025301 -0.1879487
-0.047529574 -0.090336651 -0.18796462
-0.047530796 -0.090420023 -0.18799253
-0.047533266 -0.090500005 -0.18799239
-0.04753574 -0.090579994 -0.18799224
-0.047537979 -0.090661854 -0.18799815
-0.047539786 -0.090745486 -0.18801406
-0.047541343 -0.09082704 -0.18803394
-0.047543187 -0.090908721 -0.18804783
-0.047545034 -0.090990402 -0.18806171
-0.047546748 -0.09107399 -0.18807963
-0.047548693 -0.091155723 -0.18809152
-0.047550403 -0.091239311 -0.18810943
-0.047552384 -0.091319084 -0.18811928
-0.047554724 -0.091400981 -0.18812317
-0.047556862 -0.091482788 -0.18813106
-0.047558572 -0.091566384 -0.18814898
-0.047560848 -0.091646284 -0.18815285
-0.047563225 -0.091726229 -0.1881547
-0.04756546 -0.091808081 -0.1881606
-0.047567464 -0.09189181 -0.18817252
-0.047569744 -0.09197171 -0.18817636
-0.047572702 -0.092051908 -0.18816623
-0.047575273 -0.092131943 -0.1881641
-0.047577843 -0.092211969 -0.18816197
-0.047580607 -0.092292085 -0.18815583
-0.047582939 -0.09237399 -0.18815973
-0.047584984 -0.092455752 -0.1881696
-0.047586929 -0.092537478 -0.18818149
-0.047588874 -0.092619203 -0.18819338
-0.047590818 -0.092700928 -0.18820527
-0.047592726 -0.092784613 -0.18821919
-0.047594048 -0.09286803 -0.18824512
-0.04759609 -0.092949793 -0.18825498
-0.04759872 -0.093031824 -0.1882529
-0.047600761 -0.093113594 -0.18826279
-0.047603659 -0.093191803 -0.18825261
-0.047607675 -0.093268529 -0.18821843
-0.047610205 -0.093350515 -0.18821833
-0.047611859 -0.093432106 -0.18823621
-0.047612749 -0.093517303 -0.18827215
-0.047614459 -0.093600899 -0.18829006
-0.047616933 -0.093680888 -0.18828993
-0.047619697 -0.093761005 -0.1882838
-0.047622129 -0.093842946 -0.18828569
-0.047624603 -0.093922935 -0.18828554
-0.047626935 -0.094004832 -0.18828943
-0.047629077 -0.094086647 -0.18829733
-0.047631122 -0.09416841 -0.18830723
-0.047633555 -0.094250351 -0.18830913
-0.047635831 -0.094330251 -0.18831298
-0.047637407 -0.094415754 -0.18833494
-0.04763902 -0.094499305 -0.18835485
-0.047641687 -0.094579384 -0.18835072
-0.047644254 -0.09465941 -0.18834858
-0.047646493 -0.09474127 -0.18835446
-0.047649063 -0.094821297 -0.18835233
-0.047652159 -0.094899587 -0.18833816
-0.04765512 -0.094979793 -0.18832803
-0.047657259 -0.095061608 -0.18833593
-0.047658678 -0.095145069 -0.18835984
-0.047660254 -0.095230572 -0.18838179
-0.047663055 -0.095308736 -0.18837363
-0.047666114 -0.095388979 -0.1883615
-0.047668684 -0.095469013 -0.18835935
-0.047670625 -0.095550738 -0.18837124
-0.04767273 -0.095634505 -0.18838117
-0.047674481 -0.095716141 -0.18839705
-0.046966396 -0.086902186 -0.18798947
-0.046970896 -0.086979136 -0.18794531
-0.04697622 -0.087054469 -0.18788311
-0.046981111 -0.08713159 -0.18783095
-0.046985514 -0.087208487 -0.18778877
-0.046990544 -0.087283693 -0.18773258
-0.046994753 -0.087360509 -0.1876944
-0.04699824 -0.087438978 -0.18767223
-0.047001723 -0.08751744 -0.18765008
-0.047004685 -0.087597646 -0.18763994
-0.047007293 -0.08767572 -0.18763575
-0.047010019 -0.087757796 -0.18763167
-0.047012527 -0.087835826 -0.18762946
-0.047014959 -0.087917767 -0.18763137
-0.047017042 -0.087997578 -0.18763922
-0.047019083 -0.088079348 -0.1876491
-0.047021225 -0.088161156 -0.187657
-0.047023267 -0.088242926 -0.18766689
-0.04702564 -0.08832287 -0.18766874
-0.047027916 -0.08840277 -0.18767259
-0.047030058 -0.088484585 -0.18768048
-0.047032099 -0.088566348 -0.18769038
-0.047034081 -0.088646121 -0.18770021
-0.047035892 -0.088729754 -0.18771614
-0.047037542 -0.088811353 -0.18773401
-0.047039624 -0.088891163 -0.18774186
-0.047042057 -0.088973105 -0.18774375
-0.047044098 -0.089054875 -0.18775365
-0.047045946 -0.089136556 -0.18776754
-0.047047891 -0.089218281 -0.18777943
-0.047049541 -0.089299873 -0.18779731
-0.047051683 -0.089381687 -0.18780518
-0.04705343 -0.089463323 -0.18782106
-0.04705485 -0.089546785 -0.18784499
-0.047056071 -0.089630164 -0.18787289
-0.047056906 -0.089713365 -0.18790878
-0.047058422 -0.089796871 -0.1879307
-0.047060795 -0.089876816 -0.18793255
-0.047063559 -0.089956932 -0.18792641
-0.04706613 -0.090036966 -0.18792428
-0.047068268 -0.090118773 -0.18793216
-0.047070213 -0.090200499 -0.18794405
-0.047072645 -0.09028244 -0.18794595
-0.047075409 -0.090362564 -0.18793982
-0.047077782 -0.090442501 -0.18794167
-0.047079727 -0.090524226 -0.18795356
-0.047081869 -0.090606034 -0.18796146
-0.04708444 -0.090686068 -0.18795931
-0.047086969 -0.090768054 -0.18795919
-0.047088228 -0.090849474 -0.18798508
-0.047089316 -0.090934761 -0.18801703
-0.047090538 -0.09101814 -0.18804494
-0.047092095 -0.091099694 -0.18806481
-0.04709433 -0.091181546 -0.18807071
-0.047096569 -0.091263399 -0.1880766
-0.047098611 -0.091345169 -0.18808648
-0.047100656 -0.091426939 -0.18809637
-0.047102794 -0.091508746 -0.18810427
-0.047104836 -0.091590516 -0.18811415
-0.047107074 -0.091672376 -0.18812004
-0.047109056 -0.091752142 -0.18812989
-0.047111392 -0.091834038 -0.18813378
-0.047114059 -0.091914117 -0.18812963
-0.047116064 -0.09199784 -0.18814158
-0.047118146 -0.09207765 -0.18814942
-0.047120675 -0.092159636 -0.18814933
-0.047122952 -0.092239536 -0.18815318
-0.047125619 -0.092319608 -0.18814903
-0.047128052 -0.092401549 -0.18815094
-0.047130425 -0.092481494 -0.18815279
-0.047133092 -0.092561565 -0.18814865
-0.047135524 -0.092643514 -0.18815055
-0.047136944 -0.092726976 -0.18817446
-0.047137931 -0.092812218 -0.1882084
-0.047139779 -0.092893898 -0.18822229
-0.047142114 -0.092975795 -0.18822619
-0.047144584 -0.093055785 -0.18822604
-0.047146924 -0.093137681 -0.18822995
-0.047149159 -0.093219534 -0.18823583
-0.047151633 -0.093299523 -0.18823569
-0.047154296 -0.093379602 -0.18823156
-0.047157258 -0.0934598 -0.18822142
-0.047159828 -0.093539834 -0.18821928
-0.047162689 -0.093619987 -0.18821114
-0.047166079 -0.093698412 -0.188191
-0.047167398 -0.093781829 -0.18821689
-0.047168154 -0.093868949 -0.18825689
-0.047170527 -0.093948886 -0.18825874
-0.047173154 -0.094030917 -0.18825665
-0.047175333 -0.094110772 -0.18826249
-0.047177475 -0.094192587 -0.18827039
-0.047179908 -0.094274528 -0.18827228
-0.047181617 -0.094358124 -0.18829021
-0.047182508 -0.094443321 -0.18832615
-0.047184747 -0.094525173 -0.18833205
-0.047187649 -0.094603382 -0.18832186
-0.047190275 -0.094685413 -0.18831977
-0.047192454 -0.094765268 -0.18832561
-0.047194753 -0.094849125 -0.18833156
-0.047196928 -0.09492898 -0.18833742
-0.047199264 -0.095010877 -0.1883413
-0.047201309 -0.095092647 -0.18835118
-0.047203742 -0.095174588 -0.18835309
-0.047206212 -0.09525457 -0.18835294
-0.047208216 -0.0953383 -0.18836488
-0.04721069 -0.095418289 -0.18836473
-0.04721345 -0.095498398 -0.1883586
-0.047215689 -0.095580257 -0.18836449
-0.047217831 -0.095662065 -0.18837239
-0.047220498 -0.095742144 -0.18836825
-0.046528861 -0.086919412 -0.18788879
-0.046534672 -0.086994961 -0.1878166
-0.046539798 -0.087070212 -0.18775842
-0.04654371 -0.087146893 -0.18772623
-0.046547197 -0.087225363 -0.18770406
-0.046551015 -0.087301999 -0.18767387
-0.046555579 -0.087380946 -0.18762973
-0.046559006 -0.087457411 -0.18760753
-0.046562452 -0.087537833 -0.18758741
-0.046565548 -0.087616123 -0.18757325
-0.046568409 -0.087696284 -0.18756512
-0.046570979 -0.087776311 -0.18756297
-0.046573352 -0.087856255 -0.18756482
-0.046575785 -0.087938197 -0.18756673
-0.046577964 -0.088018052 -0.18757257
-0.046579517 -0.088099606 -0.18759245
-0.046581462 -0.088181332 -0.18760434
-0.046583839 -0.088261276 -0.18760619
-0.046586074 -0.088343129 -0.18761209
-0.046587531 -0.088424638 -0.18763396
-0.046589475 -0.088506363 -0.18764584
-0.046591908 -0.088588305 -0.18764773
-0.046594284 -0.08866825 -0.18764958
-0.046596561 -0.08874815 -0.18765344
-0.046598505 -0.088829875 -0.18766531
-0.04660045 -0.088911593 -0.1876772
-0.046602394 -0.088993326 -0.1876891
-0.046604339 -0.089075044 -0.18770099
-0.046605989 -0.089156643 -0.18771887
-0.046607215 -0.089240015 -0.18774676
-0.046608865 -0.089321613 -0.18776464
-0.046611004 -0.089403421 -0.18777253
-0.046612754 -0.089485064 -0.18778841
-0.046613976 -0.089568436 -0.18781632
-0.046615396 -0.089651905 -0.18784024
-0.046617538 -0.089733712 -0.18784812
-0.046619676 -0.089815527 -0.18785602
-0.046621524 -0.089897208 -0.18786991
-0.04662386 -0.089979105 -0.1878738
-0.046626233 -0.090059049 -0.18787566
-0.046628214 -0.090138823 -0.18788549
-0.046630319 -0.090222582 -0.18789542
-0.046632264 -0.090304308 -0.18790731
-0.046634402 -0.090386122 -0.18791521
-0.046636775 -0.090466067 -0.18791705
-0.046639051 -0.090545967 -0.1879209
-0.046641096 -0.09062773 -0.18793079
-0.046643004 -0.090711415 -0.18794471
-0.046645377 -0.09079136 -0.18794657
-0.046647515 -0.090873167 -0.18795447
-0.046649266 -0.09095481 -0.18797034
-0.046651114 -0.091036484 -0.18798423
-0.046652921 -0.091120124 -0.18800014
-0.046654437 -0.09120363 -0.18802208
-0.046655368 -0.091286875 -0.18805596
-0.046657018 -0.091368474 -0.18807384
-0.046659257 -0.091450326 -0.18807974
-0.046662215 -0.091530532 -0.18806961
-0.046664648 -0.091612473 -0.18807152
-0.046666205 -0.091694027 -0.18809138
-0.04666844 -0.091775879 -0.18809728
-0.046672359 -0.091852561 -0.18806508
-0.046674732 -0.091932505 -0.18806694
-0.046676442 -0.092016101 -0.18808487
-0.046678193 -0.092097737 -0.18810074
-0.046680626 -0.092179678 -0.18810263
-0.046683192 -0.092259705 -0.18810049
-0.046685569 -0.09233965 -0.18810235
-0.046688002 -0.092421591 -0.18810424
-0.046690568 -0.092501625 -0.18810211
-0.046693005 -0.092583567 -0.188104
-0.046694715 -0.092667162 -0.18812194
-0.046696033 -0.092750579 -0.18814784
-0.046697259 -0.092833959 -0.18817575
-0.046698969 -0.092917547 -0.18819368
-0.046701245 -0.092997447 -0.18819752
-0.046703774 -0.093079433 -0.18819743
-0.046707164 -0.093157858 -0.18817727
-0.046710454 -0.093236238 -0.18815911
-0.046712596 -0.093318045 -0.18816699
-0.046714209 -0.093401596 -0.18818691
-0.046716057 -0.093483277 -0.1882008
-0.046718195 -0.093565091 -0.18820868
-0.046720337 -0.093646899 -0.18821658
-0.046722807 -0.093726888 -0.18821643
-0.046725437 -0.093808919 -0.18821433
-0.046728201 -0.093889035 -0.18820822
-0.046730477 -0.093968935 -0.18821205
-0.046732284 -0.094052568 -0.18822798
-0.046734624 -0.094134472 -0.18823187
-0.046736997 -0.09421441 -0.18823373
-0.046739232 -0.094296269 -0.18823963
-0.046741471 -0.094378121 -0.18824552
-0.046743806 -0.094460025 -0.18824941
-0.046746083 -0.094539918 -0.18825327
-0.04674799 -0.094623603 -0.1882672
-0.046750557 -0.09470363 -0.18826506
-0.046753518 -0.094783835 -0.18825492
-0.046755657 -0.09486565 -0.18826282
-0.046757273 -0.094949193 -0.18828273
-0.046758592 -0.095032617 -0.18830866
-0.046760634 -0.09511438 -0.18831852
-0.046763301 -0.095194459 -0.18831439
-0.046766359 -0.095274702 -0.18830228
-0.046769027 -0.095354781 -0.18829814
-0.046771497 -0.095434763 -0.18829799
-0.046774458 -0.095514968 -0.18828785
-0.046776928 -0.095594957 -0.18828771
-0.046777878 -0.095682159 -0.18832371
-0.046779104 -0.095765531 -0.18835162
-0.046128836 -0.086931005 -0.18779987
-0.046132226 -0.087009422 -0.18777972
-0.046136238 -0.087086149 -0.18774553
-0.046140313 -0.087164879 -0.18771139
-0.04614462 -0.087241739 -0.18767121
-0.046149027 -0.087318636 -0.18762904
-0.046152942 -0.087395325 -0.18759684
-0.046156332 -0.087473743 -0.18757668
-0.046159588 -0.087554075 -0.18756056
-0.046162684 -0.087632373 -0.18754639
-0.046165682 -0.087710619 -0.18753421
-0.046168115 -0.08779256 -0.18753612
-0.04617016 -0.087874331 -0.187546
-0.046172243 -0.087954141 -0.18755385
-0.046174482 -0.088035993 -0.18755974
-0.046176229 -0.088117637 -0.18757562
-0.046178274 -0.088199399 -0.1875855
-0.046180647 -0.088279344 -0.18758737
-0.046183024 -0.088359289 -0.18758921
-0.046184968 -0.088441014 -0.18760109
-0.046186622 -0.088522606 -0.18761897
-0.046188567 -0.088604331 -0.18763086
-0.046190709 -0.088686146 -0.18763876
-0.046192653 -0.088767871 -0.18765064
-0.046194404 -0.088849507 -0.18766651
-0.046196487 -0.088929325 -0.18767437
-0.046198431 -0.089011043 -0.18768625
-0.046200141 -0.089094639 -0.18770418
-0.046201892 -0.089176275 -0.18772006
-0.046203841 -0.089258 -0.18773195
-0.046205688 -0.089339688 -0.18774581
-0.046207827 -0.089421496 -0.18775371
-0.046210006 -0.089501351 -0.18775955
-0.046211816 -0.089584991 -0.18777549
-0.046212941 -0.089668319 -0.18780538
-0.046213776 -0.089751527 -0.1878413
-0.046216112 -0.089833423 -0.1878452
-0.046218682 -0.08991345 -0.18784305
-0.046221156 -0.08999344 -0.18784291
-0.046222672 -0.090076946 -0.18786481
-0.046224128 -0.090158448 -0.18788669
-0.046226174 -0.090240225 -0.18789658
-0.046228312 -0.090322033 -0.18790448
-0.046230651 -0.090403929 -0.18790837
-0.04623279 -0.090485744 -0.18791626
-0.046234969 -0.0905656 -0.18792211
-0.046237502 -0.090647578 -0.187922
-0.04624011 -0.09072566 -0.18791783
-0.046242837 -0.090807728 -0.18791373
-0.046244685 -0.090889409 -0.1879276
-0.046245519 -0.090972617 -0.18796352
-0.046247229 -0.091056205 -0.18798144
-0.046249509 -0.091136113 -0.18798529
-0.046251219 -0.091219701 -0.18800321
-0.046251819 -0.091304772 -0.18804514
-0.046253473 -0.091386363 -0.18806303
-0.046255905 -0.091468312 -0.18806493
-0.046258379 -0.091548294 -0.18806478
-0.046260517 -0.091630109 -0.18807268
-0.046262465 -0.091711834 -0.18808456
-0.046264313 -0.091793515 -0.18809845
-0.046266552 -0.091875367 -0.18810433
-0.046269316 -0.091955483 -0.18809819
-0.046272084 -0.092035599 -0.18809205
-0.046274517 -0.092117548 -0.18809396
-0.046276558 -0.092199311 -0.18810385
-0.046279129 -0.092279345 -0.18810171
-0.046281602 -0.092359327 -0.18810157
-0.046283841 -0.092441186 -0.18810746
-0.046286177 -0.092523083 -0.18811136
-0.046288259 -0.092602894 -0.1881192
-0.046290264 -0.092686616 -0.18813112
-0.046292406 -0.092768431 -0.18813902
-0.046294153 -0.092850067 -0.18815491
-0.046295866 -0.092933662 -0.18817282
-0.046298437 -0.093013689 -0.18817069
-0.04630097 -0.093095675 -0.1881706
-0.046302915 -0.093177401 -0.18818247
-0.046305779 -0.093257561 -0.18817435
-0.046308778 -0.093335807 -0.18816218
-0.04631082 -0.093417577 -0.18817207
-0.046312436 -0.093501128 -0.18819198
-0.046314869 -0.09358307 -0.18819387
-0.04631773 -0.093663231 -0.18818575
-0.04632001 -0.093743131 -0.1881896
-0.04632258 -0.093823165 -0.18818747
-0.046325345 -0.093903273 -0.18818131
-0.046327487 -0.093985088 -0.18818921
-0.046329197 -0.094068684 -0.18820713
-0.046331864 -0.094148755 -0.18820301
-0.0463343 -0.094230697 -0.1882049
-0.046336107 -0.094314337 -0.18822083
-0.046338677 -0.094394363 -0.18821868
-0.046341151 -0.094474353 -0.18821853
-0.046343293 -0.09455616 -0.18822643
-0.046346195 -0.094634369 -0.18821625
-0.046349645 -0.094714791 -0.18819614
-0.046351921 -0.094794691 -0.1882
-0.046353497 -0.094880193 -0.18822196
-0.046355579 -0.094960004 -0.1882298
-0.046357818 -0.095041864 -0.1882357
-0.046359956 -0.095123671 -0.18824358
-0.046361864 -0.095207348 -0.18825752
-0.046363186 -0.095290773 -0.18828343
-0.04636519 -0.095374495 -0.18829536
-0.046367664 -0.095454484 -0.18829522
-0.046370331 -0.095534556 -0.18829107
-0.046372805 -0.095614545 -0.18829092
-0.046374612 -0.095698178 -0.18830685
-0.046376657 -0.095779948 -0.18831673
-0.045818154 -0.086876445 -0.18791011
-0.045821682 -0.086952955 -0.18788591
-0.04582759 -0.087028548 -0.18781172
-0.045833245 -0.087102056 -0.18774149
-0.045837224 -0.087180741 -0.18770936
-0.045840904 -0.087259293 -0.18768319
-0.045845021 -0.087336063 -0.18764701
-0.045848899 -0.087414704 -0.18761685
-0.045852095 -0.08749304 -0.1876007
-0.04585506 -0.087573245 -0.18759057
-0.04585845 -0.087651663 -0.18757041
-0.045861159 -0.087729782 -0.18756422
-0.045863692 -0.087811768 -0.18756412
-0.045865972 -0.087891668 -0.18756798
-0.045868311 -0.087973565 -0.18757188
-0.04587049 -0.08805342 -0.18757772
-0.045872342 -0.088135108 -0.1875916
-0.045874193 -0.088216782 -0.18760547
-0.045876238 -0.088298552 -0.18761536
-0.045878615 -0.088378496 -0.18761723
-0.045880858 -0.088460349 -0.18762311
-0.045882549 -0.088539988 -0.18763894
-0.045884594 -0.088621758 -0.18764883
-0.045886837 -0.088703617 -0.18765473
-0.045888882 -0.08878538 -0.18766461
-0.045891263 -0.088865325 -0.18766648
-0.045893639 -0.08894527 -0.18766832
-0.045894962 -0.089028686 -0.18769425
-0.045896519 -0.08911024 -0.1877141
-0.045898564 -0.08919201 -0.18772399
-0.045900807 -0.089273863 -0.1877299
-0.04590299 -0.089353718 -0.18773574
-0.045904897 -0.089437395 -0.18774967
-0.045906454 -0.089518949 -0.18776953
-0.045907684 -0.089602329 -0.18779746
-0.0459093 -0.089685872 -0.18781736
-0.045910954 -0.089767471 -0.18783525
-0.045912806 -0.089849152 -0.18784913
-0.045915045 -0.089931011 -0.18785502
-0.045917191 -0.090012819 -0.1878629
-0.045919038 -0.090094499 -0.18787679
-0.045921028 -0.090174273 -0.18788664
-0.045923132 -0.09025804 -0.18789656
-0.045925081 -0.090339765 -0.18790846
-0.045927361 -0.090419665 -0.18791232
-0.045928977 -0.090503216 -0.18793222
-0.045930825 -0.090584889 -0.18794611
-0.045933068 -0.090666749 -0.18795201
-0.045935348 -0.090746649 -0.18795586
-0.045937393 -0.090828419 -0.18796575
-0.045940354 -0.090908617 -0.18795562
-0.045943845 -0.090987086 -0.18793344
-0.04594478 -0.091070324 -0.18796736
-0.045945246 -0.091157317 -0.18801332
-0.045947 -0.091238953 -0.1880292
-0.045948517 -0.091322459 -0.18805112
-0.045949977 -0.091403961 -0.18807299
-0.045951985 -0.091487691 -0.18808493
-0.045954362 -0.091567636 -0.18808678
-0.045956701 -0.091649532 -0.18809068
-0.045959372 -0.091729604 -0.18808654
-0.045961749 -0.091809548 -0.18808839
-0.04596471 -0.091889754 -0.18807825
-0.045969877 -0.091963045 -0.18801802
-0.045972742 -0.092043206 -0.18800989
-0.045973346 -0.092128277 -0.18805182
-0.045974143 -0.092213437 -0.18808976
-0.045976188 -0.0922952 -0.18809965
-0.04597804 -0.092376888 -0.18811353
-0.04597985 -0.092460521 -0.18812945
-0.045982227 -0.092540465 -0.1881313
-0.045984566 -0.092622362 -0.18813521
-0.045986418 -0.092704043 -0.18814909
-0.04598774 -0.092787459 -0.18817499
-0.045989946 -0.092871271 -0.18818294
-0.045992613 -0.09295135 -0.18817879
-0.045994993 -0.093031287 -0.18818064
-0.045997329 -0.093113191 -0.18818454
-0.046000097 -0.093193308 -0.18817841
-0.046002768 -0.093273379 -0.18817428
-0.046005338 -0.093353406 -0.18817213
-0.046007816 -0.093433395 -0.18817198
-0.046009727 -0.09351708 -0.1881859
-0.046011869 -0.093598887 -0.1881938
-0.046014208 -0.093680784 -0.1881977
-0.046016484 -0.093760684 -0.18820155
-0.046019021 -0.09384267 -0.18820146
-0.046021495 -0.09392266 -0.18820131
-0.046023637 -0.094004467 -0.18820921
-0.046026368 -0.094086543 -0.18820509
-0.046028841 -0.094166525 -0.18820497
-0.046031024 -0.094246387 -0.18821082
-0.046033654 -0.094328411 -0.18820873
-0.046035897 -0.09441027 -0.18821461
-0.046038177 -0.09449017 -0.18821844
-0.046041138 -0.094570369 -0.18820834
-0.046043381 -0.094652221 -0.18821421
-0.046045288 -0.094735906 -0.18822816
-0.046047803 -0.094813935 -0.18822595
-0.046050336 -0.094895922 -0.18822587
-0.046052381 -0.094977692 -0.18823574
-0.046054624 -0.095059544 -0.18824165
-0.046056766 -0.095141359 -0.18824953
-0.046059202 -0.0952233 -0.18825144
-0.04606168 -0.095303282 -0.18825129
-0.04606349 -0.095386922 -0.18826722
-0.046064913 -0.095470384 -0.18829113
-0.046067972 -0.095550634 -0.188279
-0.046070449 -0.095630616 -0.18827887
-0.046072356 -0.095714301 -0.1882928
-0.046073876 -0.095797807 -0.18831471
-0.045556784 -0.086891264 -0.18797328
-0.045561522 -0.086966336 -0.18792307
-0.04556714 -0.087041803 -0.18785489
-0.045572657 -0.087117225 -0.1877887
-0.045577358 -0.087194256 -0.18774052
-0.045581043 -0.087272808 -0.18771437
-0.045584768 -0.0873494 -0.18768618
-0.045589175 -0.087426305 -0.18764399
-0.045592569 -0.08750473 -0.18762383
-0.045595534 -0.087584928 -0.1876137
-0.045598499 -0.087665133 -0.18760356
-0.045601405 -0.087743334 -0.1875934
-0.045604173 -0.087823451 -0.18758726
-0.04560655 -0.087903395 -0.18758911
-0.04560899 -0.087985337 -0.18759102
-0.045611467 -0.088065326 -0.18759087
-0.04561365 -0.088145182 -0.18759671
-0.045615699 -0.088226952 -0.1876066
-0.045617979 -0.088306852 -0.18761045
-0.045620419 -0.088388793 -0.18761235
-0.045622367 -0.088470519 -0.18762425
-0.045623928 -0.088552073 -0.18764411
-0.04562578 -0.088633746 -0.187658
-0.04562816 -0.088713691 -0.18765984
-0.045630109 -0.088795416 -0.18767172
-0.045631867 -0.088877052 -0.18768761
-0.045634009 -0.088958867 -0.1876955
-0.045636389 -0.089038812 -0.18769735
-0.045638438 -0.089120574 -0.18770725
-0.045639861 -0.089204043 -0.18773115
-0.045641717 -0.089285724 -0.18774503
-0.045643274 -0.08936727 -0.18776491
-0.045644797 -0.089450777 -0.18778683
-0.045646355 -0.089532331 -0.1878067
-0.045647975 -0.089615881 -0.18782663
-0.04564983 -0.089697562 -0.18784051
-0.045651779 -0.089779288 -0.18785238
-0.045653634 -0.089860968 -0.18786627
-0.045655485 -0.089942649 -0.18788016
-0.045657396 -0.090026334 -0.18789408
-0.045658957 -0.090107881 -0.18791395
-0.045661103 -0.090189695 -0.18792184
-0.045663774 -0.090269767 -0.18791771
-0.045666251 -0.090349749 -0.18791756
-0.0456683 -0.090431519 -0.18792745
-0.045670543 -0.090513378 -0.18793333
-0.045672394 -0.090595059 -0.18794721
-0.045673721 -0.090678476 -0.18797314
-0.045676161 -0.090760425 -0.18797503
-0.045679357 -0.090838753 -0.18795887
-0.045681931 -0.090918779 -0.18795672
-0.045683686 -0.091000423 -0.18797261
-0.045685112 -0.091083884 -0.18799652
-0.045686439 -0.091167301 -0.18802243
-0.045688156 -0.091250896 -0.18804035
-0.045689676 -0.091334403 -0.18806227
-0.04569114 -0.091415912 -0.18808416
-0.045693249 -0.091499679 -0.18809408
-0.045695528 -0.091579579 -0.18809792
-0.045697577 -0.091661349 -0.18810782
-0.045699723 -0.091743156 -0.1881157
-0.045701671 -0.091824882 -0.18812758
-0.045703817 -0.091906697 -0.18813547
-0.045706157 -0.091988593 -0.18813938
-0.045708206 -0.092070363 -0.18814926
-0.045710683 -0.092150345 -0.18814912
-0.045713685 -0.092228599 -0.18813694
-0.045716222 -0.092310578 -0.18813685
-0.045718368 -0.092392392 -0.18814474
-0.045720942 -0.092472419 -0.1881426
-0.045723379 -0.092554361 -0.18814451
-0.045725368 -0.092634134 -0.18815434
-0.045727611 -0.092715994 -0.18816024
-0.04572995 -0.09279789 -0.18816411
-0.045731667 -0.092881478 -0.18818206
-0.045733094 -0.09296494 -0.18820596
-0.045735568 -0.093044929 -0.18820581
-0.045738533 -0.093125135 -0.18819569
-0.045741402 -0.093205296 -0.18818757
-0.045743976 -0.093285322 -0.18818541
-0.045746416 -0.093367264 -0.1881873
-0.045748364 -0.093448989 -0.18819919
-0.045750178 -0.093532629 -0.18821512
-0.045752753 -0.093612656 -0.18821299
-0.045755193 -0.093694597 -0.1882149
-0.045757998 -0.093772762 -0.1882067
-0.045761585 -0.093851268 -0.18818255
-0.045763634 -0.093933038 -0.18819243
-0.045766015 -0.094012983 -0.18819427
-0.045768648 -0.094095007 -0.18819219
-0.045770794 -0.094176821 -0.18820009
-0.045772742 -0.094258547 -0.18821198
-0.045775183 -0.094340488 -0.18821387
-0.045777328 -0.094422296 -0.18822175
-0.045779083 -0.094503939 -0.18823764
-0.045781132 -0.094585702 -0.18824753
-0.045783803 -0.094665781 -0.18824339
-0.045786239 -0.094747722 -0.18824528
-0.045789108 -0.094827875 -0.18823716
-0.045791779 -0.094907954 -0.18823302
-0.045794219 -0.094989896 -0.18823493
-0.045796305 -0.095069706 -0.18824276
-0.04579851 -0.095153518 -0.18825069
-0.045800693 -0.095233373 -0.18825653
-0.045803327 -0.095315404 -0.18825445
-0.045805804 -0.095395386 -0.18825431
-0.045807853 -0.095477156 -0.18826419
-0.045809139 -0.095562533 -0.18829215
-0.045811284 -0.09564434 -0.18830004
-0.045814056 -0.095724463 -0.1882939
-0.045816492 -0.095806405 -0.1882958
-0.045320619 -0.086987376 -0.18785918
-0.045327052 -0.087061234 -0.18777297
-0.045330875 -0.08713787 -0.18774278
-0.045334458 -0.087216377 -0.18771863
-0.045338631 -0.087295152 -0.18768249
-0.045343895 -0.087368488 -0.18762025
-0.045347966 -0.087447211 -0.1875861
-0.045351453 -0.087525681 -0.18756394
-0.045354456 -0.087603927 -0.18755177
-0.04535722 -0.087684043 -0.18754564
-0.045359794 -0.087764069 -0.18754348
-0.045362268 -0.087844059 -0.18754336
-0.0453647 -0.087926 -0.18754525
-0.04536698 -0.0880059 -0.1875491
-0.045369357 -0.088085845 -0.18755095
-0.045371789 -0.088167787 -0.18755284
-0.045374263 -0.088247776 -0.18755272
-0.045376211 -0.088329501 -0.1875646
-0.045377672 -0.088411003 -0.18758646
-0.045379616 -0.088492729 -0.18759835
-0.04538209 -0.088572718 -0.1875982
-0.045384429 -0.088654615 -0.1876021
-0.045386706 -0.088734515 -0.18760595
-0.045388557 -0.088816196 -0.18761984
-0.04539011 -0.08889775 -0.18763971
-0.045391865 -0.088979386 -0.1876556
-0.045393772 -0.089063063 -0.18766952
-0.045395661 -0.089142792 -0.18768135
-0.0453979 -0.089224651 -0.18768725
-0.045399945 -0.089306414 -0.18769714
-0.045402028 -0.089386232 -0.18770498
-0.045404267 -0.089468084 -0.18771088
-0.045405589 -0.089551508 -0.18773678
-0.045406483 -0.089636706 -0.18777274
-0.045407847 -0.08971817 -0.18779659
-0.045409597 -0.089799806 -0.18781248
-0.045411408 -0.089883447 -0.18782841
-0.045413647 -0.089965299 -0.18783429
-0.045416024 -0.090045244 -0.18783616
-0.045418166 -0.090127051 -0.18784404
-0.045420017 -0.090208739 -0.18785793
-0.045422159 -0.090290546 -0.18786582
-0.045424104 -0.090372272 -0.1878777
-0.045425858 -0.090453908 -0.18789357
-0.045428194 -0.090535812 -0.18789747
-0.045430277 -0.090615623 -0.18790533
-0.045432519 -0.090697482 -0.18791121
-0.045434952 -0.090779416 -0.18791312
-0.045436803 -0.090861097 -0.18792701
-0.045438848 -0.090942867 -0.18793689
-0.045441028 -0.09102273 -0.18794273
-0.045443036 -0.091106445 -0.18795466
-0.045444589 -0.091187999 -0.18797454
-0.045446206 -0.091271549 -0.18799445
-0.045447823 -0.0913551 -0.18801439
-0.045449086 -0.09143652 -0.18804024
-0.045451522 -0.091518462 -0.18804213
-0.045454189 -0.091598541 -0.18803801
-0.045456626 -0.091680482 -0.1880399
-0.045458376 -0.091762118 -0.18805578
-0.045460127 -0.091843754 -0.18807167
-0.045462467 -0.091925651 -0.18807556
-0.045464512 -0.092007421 -0.18808544
-0.045466516 -0.092091143 -0.18809737
-0.045469087 -0.092171177 -0.18809524
-0.045471795 -0.092249289 -0.18808906
-0.045474231 -0.092331231 -0.18809095
-0.045476373 -0.092413045 -0.18809885
-0.045478806 -0.092494987 -0.18810074
-0.045480989 -0.09257485 -0.1881066
-0.04548274 -0.092656486 -0.18812248
-0.045484941 -0.092740297 -0.18813041
-0.045487318 -0.092820235 -0.18813226
-0.045489654 -0.092902139 -0.18813616
-0.0454918 -0.092983946 -0.18814404
-0.045494273 -0.093063936 -0.18814391
-0.045496512 -0.093145788 -0.18814979
-0.045499276 -0.093225904 -0.18814367
-0.045502435 -0.093306199 -0.18812954
-0.045505006 -0.093386225 -0.1881274
-0.045507185 -0.093466081 -0.18813324
-0.045508567 -0.093551502 -0.1881592
-0.045510612 -0.093633264 -0.18816909
-0.045513477 -0.093713433 -0.18816096
-0.045515753 -0.093793325 -0.1881648
-0.045517996 -0.093875185 -0.1881707
-0.045520332 -0.093957081 -0.18817461
-0.045523196 -0.094037242 -0.18816647
-0.045525864 -0.094117314 -0.18816233
-0.045528241 -0.094197258 -0.18816417
-0.045530383 -0.094279066 -0.18817207
-0.045532487 -0.09436284 -0.188182
-0.04553467 -0.094442695 -0.18818784
-0.045536909 -0.094524547 -0.18819374
-0.045539051 -0.094606362 -0.18820164
-0.045541193 -0.094688177 -0.18820952
-0.045543529 -0.094770074 -0.18821342
-0.045545869 -0.094851971 -0.18821731
-0.045547914 -0.094933733 -0.18822721
-0.045550678 -0.095013857 -0.18822107
-0.045553777 -0.095092148 -0.18820691
-0.045556407 -0.095174178 -0.1882048
-0.045558684 -0.095254071 -0.18820865
-0.045560595 -0.095337756 -0.18822259
