# .PCD v0.7 - Point Cloud Data file format
VERSION 0.7
FIELDS x y z
SIZE 4 4 4
TYPE F F F
COUNT 1 1 1
WIDTH 1270
HEIGHT 1
VIEWPOINT 0 0 0 1 0 0 0
POINTS 1270
DATA ascii
-0.058220156 -0.05302415 -0.1763176
-0.058221962 -0.053097926 -0.17632732
-0.058223322 -0.053169526 -0.17634495
-0.058225088 -0.053245261 -0.1763567
-0.058227383 -0.053319249 -0.17635641
-0.058230773 -0.05339767 -0.17633626
-0.05823436 -0.053476177 -0.17631209
-0.058237005 -0.0535523 -0.17630586
-0.058239359 -0.053628288 -0.17630562
-0.05824146 -0.053702191 -0.17630935
-0.058244202 -0.053778354 -0.17630111
-0.058247242 -0.053854644 -0.17628688
-0.058249887 -0.053930767 -0.17628066
-0.058252439 -0.054006845 -0.17627643
-0.058254793 -0.054082833 -0.17627621
-0.058256794 -0.054156691 -0.1762819
-0.058259245 -0.054232724 -0.17627966
-0.058262285 -0.054309022 -0.17626545
-0.05826493 -0.054385141 -0.17625922
-0.05826693 -0.054458998 -0.17626491
-0.058268446 -0.054532643 -0.17628062
-0.058269862 -0.054606244 -0.17629832
-0.058272056 -0.054680191 -0.17630002
-0.058275059 -0.054758441 -0.17628784
-0.058277253 -0.054832388 -0.17628956
-0.058278512 -0.054903947 -0.1763092
-0.058280125 -0.054977633 -0.17632289
-0.05828248 -0.055053622 -0.17632267
-0.058285322 -0.05512983 -0.17631243
-0.058288261 -0.055206079 -0.17630021
-0.058290906 -0.055282198 -0.17629397
-0.058293458 -0.055358276 -0.17628975
-0.058295947 -0.055432353 -0.17628548
-0.058298398 -0.055508386 -0.17628324
-0.058301341 -0.055584636 -0.17627102
-0.05830463 -0.055663012 -0.17625284
-0.058307864 -0.055739395 -0.17623463
-0.058310706 -0.0558156 -0.17622441
-0.058313161 -0.055891633 -0.17622218
-0.058315162 -0.055965494 -0.1762279
-0.05831632 -0.056037009 -0.17624952
-0.058317639 -0.056110565 -0.1762692
-0.05832009 -0.056186598 -0.17626697
-0.058322288 -0.056260545 -0.1762687
-0.058323897 -0.056334235 -0.17628238
-0.058325704 -0.05640801 -0.17629209
-0.058328159 -0.05648404 -0.17628986
-0.058330707 -0.056560118 -0.17628562
-0.058333002 -0.056634109 -0.17628533
-0.058335453 -0.056710139 -0.17628309
-0.058338489 -0.056786433 -0.17626888
-0.058341824 -0.056862857 -0.17624867
-0.058344178 -0.056938846 -0.17624843
-0.058346275 -0.057012752 -0.17625216
-0.058348726 -0.057088785 -0.17624992
-0.058351569 -0.057164989 -0.17623968
-0.05835535 -0.057243586 -0.17621154
-0.058359463 -0.057320356 -0.17617534
-0.058363147 -0.057398908 -0.17614919
-0.058366183 -0.057475198 -0.17613497
-0.058368832 -0.057551317 -0.17612875
-0.058370735 -0.057625137 -0.17613645
-0.058372542 -0.057698909 -0.17614615
-0.058374345 -0.057772685 -0.17615585
-0.058376603 -0.057848632 -0.17615762
-0.058379583 -0.057922926 -0.17614335
-0.058381937 -0.057998914 -0.17614311
-0.058383252 -0.05807247 -0.17616281
-0.058385059 -0.058146246 -0.17617249
-0.05838716 -0.058220148 -0.17617621
-0.058389552 -0.058294185 -0.17617393
-0.058392201 -0.058370303 -0.1761677
-0.058395043 -0.058446512 -0.17615747
-0.058397688 -0.05852263 -0.17615125
-0.058399692 -0.058596492 -0.17615695
-0.058401596 -0.058670308 -0.17616466
-0.058404144 -0.058746383 -0.17616042
-0.058407962 -0.058823023 -0.17613024
-0.058411293 -0.058899447 -0.17611003
-0.058414429 -0.058975782 -0.1760938
-0.058417175 -0.059051946 -0.17608558
-0.058418982 -0.059125721 -0.17609528
-0.058421079 -0.059199624 -0.17609899
-0.058423631 -0.059275702 -0.17609476
-0.058424946 -0.059349257 -0.17611444
-0.058426596 -0.059420992 -0.17612609
-0.058429342 -0.059497155 -0.17611787
-0.058431245 -0.059570968 -0.17612557
-0.05843227 -0.059644397 -0.17615125
-0.058434468 -0.059718348 -0.17615296
-0.058438249 -0.059796941 -0.17612481
-0.058440834 -0.059871063 -0.17611854
-0.058442641 -0.059944838 -0.17612824
-0.058444899 -0.060020782 -0.17613
-0.058447838 -0.060097031 -0.17611778
-0.058451168 -0.060173456 -0.17609757
-0.058453757 -0.060247578 -0.17609128
-0.058455564 -0.06032135 -0.176101
-0.0584586 -0.060397644 -0.17608678
-0.058462419 -0.060474284 -0.17605658
-0.05846497 -0.060550358 -0.17605235
-0.058467265 -0.06062435 -0.17605206
-0.058469716 -0.060700383 -0.17604983
-0.058471814 -0.060774285 -0.17605354
-0.058474109 -0.060848277 -0.17605326
-0.058476463 -0.060924266 -0.17605302
-0.058478467 -0.060998127 -0.17605872
-0.058480371 -0.061071947 -0.17606643
-0.058481883 -0.061145589 -0.17608212
-0.058483202 -0.061219148 -0.1761018
-0.058485691 -0.061293226 -0.17609753
-0.058489121 -0.061369691 -0.17607532
-0.058492839 -0.061446287 -0.17604712
-0.058495782 -0.061522536 -0.1760349
-0.058498368 -0.061596658 -0.17602864
-0.05850086 -0.061670735 -0.17602435
-0.058503799 -0.061746985 -0.17601213
-0.05850713 -0.061823409 -0.17599192
-0.058510754 -0.06189996 -0.17596573
-0.05851467 -0.061976645 -0.17593352
-0.058518197 -0.062053151 -0.17590931
-0.058521431 -0.062129535 -0.1758911
-0.058524311 -0.062203787 -0.17587885
-0.058526568 -0.062279731 -0.17588061
-0.058528177 -0.062353417 -0.17589431
-0.058529731 -0.062425107 -0.17590794
-0.058532082 -0.062501095 -0.17590772
-0.058534965 -0.062575348 -0.17589545
-0.058537513 -0.062651426 -0.17589122
-0.05853932 -0.062725201 -0.17590091
-0.05854132 -0.062799059 -0.17590663
-0.058544945 -0.062875614 -0.17588043
-0.058549643 -0.062952645 -0.17583224
-0.058553852 -0.063029453 -0.17579406
-0.058557183 -0.063105881 -0.17577386
-0.05856026 -0.063180216 -0.1757576
-0.058564529 -0.063259028 -0.17571945
-0.058567509 -0.063333325 -0.17570519
-0.058569998 -0.063407399 -0.1757009
-0.058574405 -0.063484296 -0.17565873
-0.058579005 -0.063561291 -0.17561257
-0.058581945 -0.06363754 -0.17560035
-0.058584534 -0.063711658 -0.17559406
-0.058586691 -0.063787565 -0.17559782
-0.058588341 -0.063859291 -0.17560947
-0.058590341 -0.063933156 -0.17561519
-0.05859299 -0.064009272 -0.17560896
-0.058595382 -0.064083308 -0.17560667
-0.05859758 -0.064157255 -0.1756084
-0.058599383 -0.064231031 -0.17561808
-0.05860113 -0.064302802 -0.17562774
-0.058603778 -0.064378925 -0.17562151
-0.05860744 -0.06445352 -0.17559327
-0.058610771 -0.064529948 -0.17557307
-0.058613554 -0.064604156 -0.1755628
-0.058616433 -0.064678401 -0.17555052
-0.058620155 -0.064755 -0.17552233
-0.058623876 -0.0648316 -0.17549413
-0.058627151 -0.064906023 -0.17547387
-0.058629543 -0.064980052 -0.17547157
-0.058630861 -0.065053612 -0.17549127
-0.05863208 -0.065127127 -0.17551297
-0.058633983 -0.065200947 -0.17552066
-0.058636084 -0.06527485 -0.17552438
-0.058637597 -0.065348491 -0.17554006
-0.05863905 -0.065420136 -0.17555571
-0.058640368 -0.065493695 -0.17557541
-0.058641784 -0.065567292 -0.17559309
-0.0586432 -0.065640897 -0.17561078
-0.05864403 -0.06571424 -0.17564045
-0.058644801 -0.065785579 -0.17567009
-0.058645435 -0.065858833 -0.17570375
-0.058644839 -0.065929569 -0.17576134
-0.05864254 -0.06600152 -0.17585492
-0.058641553 -0.066072084 -0.17592049
-0.058640566 -0.066142641 -0.17598607
-0.058636744 -0.066211946 -0.17610955
-0.058415465 -0.066086106 -0.18061647
-0.058214199 -0.065984927 -0.1847243
-0.057979822 -0.045590114 -0.17657889
-0.057983015 -0.045668446 -0.17656273
-0.057986017 -0.045746699 -0.17655055
-0.057988212 -0.045820646 -0.17655227
-0.057990663 -0.045896679 -0.17655003
-0.057993311 -0.045972798 -0.1765438
-0.057995565 -0.046048746 -0.17654556
-0.057997726 -0.046124648 -0.17654932
-0.058000371 -0.046200767 -0.17654309
-0.058002822 -0.0462768 -0.17654085
-0.058004826 -0.046350658 -0.17654657
-0.058006886 -0.04642652 -0.17655231
-0.058009632 -0.046502683 -0.17654409
-0.05801218 -0.046578757 -0.17653985
-0.058013789 -0.046652444 -0.17655355
-0.058015596 -0.046726219 -0.17656325
-0.058019243 -0.046806723 -0.17653914
-0.058023024 -0.046885323 -0.17651099
-0.058025181 -0.046961226 -0.17651474
-0.058026988 -0.047035001 -0.17652445
-0.058029536 -0.047111075 -0.17652021
-0.058031794 -0.047187023 -0.17652197
-0.058034148 -0.047263011 -0.17652175
-0.05803699 -0.047339216 -0.17651151
-0.058039539 -0.047415294 -0.17650728
-0.058041539 -0.047489151 -0.17651299
-0.058043797 -0.047565103 -0.17651474
-0.058046795 -0.047643349 -0.17650257
-0.058049541 -0.047719512 -0.17649435
-0.058051698 -0.047795415 -0.17649812
-0.058053602 -0.047869232 -0.1765058
-0.058055859 -0.047945179 -0.17650756
-0.05805786 -0.048019037 -0.17651328
-0.058059473 -0.048092723 -0.17652698
-0.058061473 -0.048166588 -0.17653269
-0.058063082 -0.048240274 -0.17654637
-0.058064047 -0.048311703 -0.176572
-0.058065757 -0.048385434 -0.17658371
-0.058067564 -0.04845921 -0.17659339
-0.058069274 -0.04853294 -0.17660511
-0.058071569 -0.048606932 -0.17660482
-0.058074918 -0.048687309 -0.1765867
-0.058078505 -0.048765812 -0.17656255
-0.058082186 -0.048844367 -0.17653638
-0.058085833 -0.048924871 -0.17651227
-0.058089025 -0.04900321 -0.1764961
-0.058091771 -0.049079373 -0.17648788
-0.058094673 -0.049157575 -0.1764777
-0.058097515 -0.049233779 -0.17646748
-0.05809987 -0.049309772 -0.17646724
-0.058102515 -0.04938589 -0.17646101
-0.058105163 -0.049462013 -0.17645478
-0.058107417 -0.049537957 -0.17645654
-0.058109421 -0.049611818 -0.17646226
-0.058111228 -0.04968559 -0.17647195
-0.058113482 -0.049761537 -0.17647371
-0.058116034 -0.049837612 -0.17646948
-0.058118131 -0.049911518 -0.1764732
-0.058119744 -0.049985208 -0.17648688
-0.058121547 -0.050058983 -0.17649658
-0.058123708 -0.050134882 -0.17650035
-0.05812655 -0.050211087 -0.17649013
-0.058129743 -0.050289422 -0.17647395
-0.058132939 -0.050367758 -0.17645778
-0.05813662 -0.050446309 -0.17643163
-0.058139268 -0.050522432 -0.1764254
-0.058141425 -0.050598331 -0.17642915
-0.058143977 -0.050674409 -0.17642492
-0.058146916 -0.050750658 -0.1764127
-0.058149464 -0.050826736 -0.17640847
-0.058152113 -0.050902855 -0.17640224
-0.058155015 -0.05098106 -0.17639206
-0.05815766 -0.051057179 -0.17638583
-0.058159858 -0.051131129 -0.17638755
-0.058162503 -0.051207248 -0.17638132
-0.058165152 -0.051283367 -0.17637509
-0.058167309 -0.051359266 -0.17637885
-0.058169506 -0.051433217 -0.17638054
-0.058171861 -0.051509209 -0.17638031
-0.058174018 -0.051585108 -0.17638406
-0.058175728 -0.051658839 -0.17639577
-0.058177631 -0.051732659 -0.17640346
-0.058180768 -0.051808994 -0.17638725
-0.05818351 -0.051885158 -0.17637902
-0.058186121 -0.051963232 -0.17637485
-0.058189061 -0.052039482 -0.17636263
-0.058191705 -0.052115601 -0.17635641
-0.058193903 -0.052189548 -0.1763581
-0.058196258 -0.052265536 -0.17635788
-0.058198318 -0.052341394 -0.17636362
-0.058200516 -0.052415345 -0.17636535
-0.058204003 -0.052493811 -0.17634317
-0.058207687 -0.052572362 -0.17631702
-0.058210626 -0.052648611 -0.17630479
-0.058213174 -0.052724689 -0.17630059
-0.058215722 -0.052800763 -0.17629634
-0.058218077 -0.052876752 -0.1762961
-0.05821969 -0.052950442 -0.17630979
-0.058221593 -0.053024255 -0.17631751
-0.058223497 -0.053098075 -0.1763252
-0.058224756 -0.05316963 -0.17634484
-0.058226623 -0.053245407 -0.17635459
-0.058228917 -0.053319395 -0.1763543
-0.058232307 -0.053397819 -0.17633414
-0.058235794 -0.053476285 -0.17631198
-0.058238536 -0.053552449 -0.17630376
-0.058240794 -0.053628393 -0.17630552
-0.058242992 -0.05370234 -0.17630723
-0.058245737 -0.053778503 -0.17629901
-0.058248676 -0.053854752 -0.17628679
-0.058251321 -0.053930871 -0.17628056
-0.058253869 -0.054006949 -0.17627633
-0.058256324 -0.054082982 -0.17627409
-0.058258325 -0.05415684 -0.17627978
-0.058260776 -0.054232873 -0.17627755
-0.058263715 -0.054309126 -0.17626533
-0.058266461 -0.05438529 -0.1762571
-0.058268365 -0.054459102 -0.17626482
-0.058269877 -0.054532751 -0.1762805
-0.058271293 -0.054606348 -0.1762982
-0.058273491 -0.054680295 -0.1762999
-0.058276489 -0.054758545 -0.17628774
-0.058278687 -0.054832492 -0.17628944
-0.058279946 -0.054904051 -0.17630909
-0.058281556 -0.054977737 -0.17632279
-0.058284007 -0.055053771 -0.17632055
-0.058286753 -0.055129934 -0.17631233
-0.058289789 -0.055206228 -0.17629811
-0.058292337 -0.055282302 -0.17629388
-0.058294889 -0.05535838 -0.17628965
-0.058297474 -0.055432502 -0.17628336
-0.058299929 -0.055508532 -0.17628112
-0.058302768 -0.05558474 -0.1762709
-0.058306158 -0.055663161 -0.17625074
-0.058309294 -0.0557395 -0.17623453
-0.058312137 -0.055815704 -0.17622431
-0.058314588 -0.055891737 -0.17622207
-0.058316689 -0.055965643 -0.17622578
-0.058317751 -0.056037113 -0.17624941
-0.058319166 -0.056110717 -0.1762671
-0.058321618 -0.056186747 -0.17626488
-0.058323815 -0.056260694 -0.17626658
-0.058325328 -0.056334339 -0.17628229
-0.058327232 -0.056408156 -0.17628998
-0.058329683 -0.056484189 -0.17628774
-0.058332231 -0.056560267 -0.17628351
-0.058334526 -0.056634255 -0.17628323
-0.058336981 -0.056710288 -0.17628099
-0.058340017 -0.056786582 -0.17626677
-0.058343347 -0.056863006 -0.17624655
-0.058345702 -0.056938995 -0.17624633
-0.058347702 -0.057012856 -0.17625204
-0.05835025 -0.05708893 -0.17624781
-0.058353193 -0.057165183 -0.17623559
-0.058356874 -0.057243735 -0.17620942
-0.058361046 -0.057322502 -0.17617328
-0.05836457 -0.057399012 -0.17614907
-0.05836761 -0.057475306 -0.17613485
-0.058370255 -0.057551425 -0.17612863
-0.058372259 -0.057625286 -0.17613435
-0.058373965 -0.057699017 -0.17614603
-0.058375869 -0.057772834 -0.17615375
-0.058378126 -0.057848781 -0.17615551
-0.058381006 -0.05792303 -0.17614323
-0.058383457 -0.057999063 -0.17614099
-0.058384679 -0.058072578 -0.17616269
-0.058386486 -0.05814635 -0.17617238
-0.058388583 -0.058220256 -0.1761761
-0.058390975 -0.058294289 -0.17617382
-0.058393721 -0.058370452 -0.1761656
-0.058396466 -0.058446616 -0.17615736
-0.058399111 -0.058522735 -0.17615113
-0.058401212 -0.058596641 -0.17615485
-0.058403019 -0.058670416 -0.17616454
-0.058405664 -0.058746532 -0.17615831
-0.058409482 -0.058823172 -0.17612812
-0.058412716 -0.058899552 -0.17610991
-0.058415852 -0.05897589 -0.1760937
-0.058418594 -0.05905205 -0.17608547
-0.058420401 -0.059125826 -0.17609516
-0.058422502 -0.059199728 -0.17609888
-0.058425147 -0.059275851 -0.17609265
-0.058426466 -0.059349407 -0.17611232
-0.058428079 -0.059423093 -0.17612603
-0.058430761 -0.05949726 -0.17611776
-0.058432765 -0.059571121 -0.17612347
-0.058433693 -0.059644505 -0.17615114
-0.058435887 -0.059718452 -0.17615286
-0.058439668 -0.059797049 -0.17612471
-0.058442354 -0.059871212 -0.17611644
-0.05844406 -0.059944943 -0.17612813
-0.058446318 -0.060020886 -0.17612989
-0.058449257 -0.060097136 -0.17611766
-0.058452688 -0.060173605 -0.17609546
-0.058455274 -0.060247727 -0.1760892
-0.05845708 -0.060321499 -0.17609888
-0.05846002 -0.060397748 -0.17608666
-0.058463838 -0.060474388 -0.17605647
-0.05846639 -0.060550466 -0.17605224
-0.058468685 -0.060624458 -0.17605194
-0.058471136 -0.060700487 -0.17604971
-0.05847333 -0.060774438 -0.17605144
-0.058475625 -0.060848426 -0.17605114
-0.058477882 -0.060924374 -0.1760529
-0.058479883 -0.060998231 -0.17605862
-0.058481887 -0.061072096 -0.17606431
-0.058483399 -0.061145738 -0.17608002
-0.058484718 -0.061219297 -0.1760997
-0.05848711 -0.06129333 -0.17609742
-0.058490634 -0.06136984 -0.17607322
-0.058494356 -0.061446436 -0.17604502
-0.058497392 -0.06152273 -0.1760308
-0.058499884 -0.061596807 -0.17602652
-0.058502275 -0.06167084 -0.17602423
-0.058505215 -0.061747089 -0.17601201
-0.058508545 -0.061823513 -0.1759918
-0.05851217 -0.061900068 -0.17596561
-0.058516182 -0.061976794 -0.17593142
-0.05851971 -0.062053304 -0.17590722
-0.058522943 -0.062129684 -0.175889
-0.058525726 -0.062203892 -0.17587873
-0.058527984 -0.062279835 -0.17588049
-0.058529593 -0.062353525 -0.17589419
-0.058531143 -0.062425211 -0.17590784
-0.058533497 -0.0625012 -0.1759076
-0.058536477 -0.062575497 -0.17589334
-0.058538929 -0.06265153 -0.1758911
-0.058540832 -0.06272535 -0.17589881
-0.058542736 -0.062799163 -0.17590651
-0.058546361 -0.062875718 -0.17588031
-0.058551058 -0.062952749 -0.17583214
-0.058555268 -0.063029557 -0.17579395
-0.058558598 -0.063105986 -0.17577374
-0.058561675 -0.06318032 -0.17575748
-0.058565944 -0.063259132 -0.17571935
-0.058568921 -0.063333429 -0.17570508
-0.058571409 -0.063407503 -0.1757008
-0.058575816 -0.063484408 -0.17565863
-0.058580417 -0.063561395 -0.17561245
-0.058583356 -0.063637644 -0.17560023
-0.058585942 -0.063711762 -0.17559396
-0.058588102 -0.063787669 -0.17559773
-0.058589753 -0.063859396 -0.17560937
-0.05859185 -0.063933305 -0.17561308
-0.058594499 -0.064009421 -0.17560685
-0.05859689 -0.064083457 -0.17560457
-0.058599085 -0.064157404 -0.17560628
-0.058600891 -0.06423118 -0.17561598
-0.058602542 -0.064302906 -0.17562763
-0.058605287 -0.064379074 -0.17561941
-0.058608852 -0.064453632 -0.17559315
-0.058612183 -0.064530052 -0.17557296
-0.058614966 -0.06460426 -0.17556268
-0.058617845 -0.064678513 -0.17555042
-0.058621567 -0.064755104 -0.17552221
-0.058625385 -0.064831749 -0.17549202
-0.058628656 -0.064906172 -0.17547177
-0.058630951 -0.064980164 -0.17547148
-0.05863227 -0.065053716 -0.17549117
-0.058633488 -0.065127231 -0.17551285
-0.058635391 -0.065201052 -0.17552055
-0.058637492 -0.065274954 -0.17552426
-0.058639005 -0.065348595 -0.17553996
-0.058640458 -0.06542024 -0.1755556
-0.058641873 -0.065493844 -0.17557329
-0.058643289 -0.065567449 -0.17559099
-0.058644608 -0.065641001 -0.17561066
-0.058645438 -0.065714344 -0.17564034
-0.058646206 -0.065785684 -0.17566997
-0.058646843 -0.065858938 -0.17570363
-0.058646243 -0.065929674 -0.17576122
-0.058643948 -0.066001624 -0.1758548
-0.058642961 -0.066072188 -0.17592038
-0.058641873 -0.066142708 -0.17598796
-0.058638055 -0.066212013 -0.17611144
-0.058416877 -0.06608621 -0.18061635
-0.058215711 -0.065985076 -0.18472219
-0.057978462 -0.045590241 -0.1765776
-0.057981655 -0.045668576 -0.17656143
-0.057984658 -0.045746826 -0.17654924
-0.057986856 -0.045820773 -0.17655095
-0.057989307 -0.045896806 -0.17654872
-0.057991952 -0.045972925 -0.17654249
-0.057994209 -0.046048872 -0.17654425
-0.057996366 -0.046124775 -0.176548
-0.057999015 -0.046200894 -0.17654179
-0.058001563 -0.046276972 -0.17653754
-0.058003467 -0.046350785 -0.17654526
-0.058005527 -0.046426646 -0.17655101
-0.058008272 -0.04650281 -0.17654279
-0.058010824 -0.046578884 -0.17653856
-0.05801253 -0.046652615 -0.17655024
-0.05801424 -0.046726346 -0.17656195
-0.058017984 -0.046806894 -0.17653584
-0.058021821 -0.046887491 -0.17650774
-0.058023825 -0.046961352 -0.17651345
-0.058025628 -0.047035128 -0.17652315
-0.05802818 -0.047111202 -0.17651892
-0.058030531 -0.047187194 -0.17651868
-0.058032788 -0.047263138 -0.17652044
-0.058035631 -0.047339343 -0.17651021
-0.058038082 -0.047415376 -0.17650798
-0.058040183 -0.047489282 -0.17651168
-0.058042441 -0.047565229 -0.17651343
-0.058045439 -0.047643475 -0.17650126
-0.058048181 -0.047719639 -0.17649303
-0.058050342 -0.047795542 -0.1764968
-0.058052246 -0.047869358 -0.17650449
-0.058054402 -0.047945261 -0.17650825
-0.058056407 -0.048019122 -0.17651395
-0.058058113 -0.048092853 -0.17652565
-0.058060117 -0.048166715 -0.17653137
-0.058061726 -0.048240401 -0.17654505
-0.058062691 -0.04831183 -0.1765707
-0.058064401 -0.048385561 -0.1765824
-0.058066208 -0.048459336 -0.1765921
-0.058067914 -0.048533067 -0.17660379
-0.058070209 -0.048607059 -0.17660351
-0.058073562 -0.048687436 -0.17658541
-0.058077149 -0.048765942 -0.17656124
-0.05808083 -0.048844494 -0.17653508
-0.058084477 -0.048924997 -0.17651096
-0.058087669 -0.049003337 -0.17649479
-0.058090415 -0.0490795 -0.17648657
-0.058093317 -0.049157701 -0.17647639
-0.058096159 -0.049233906 -0.17646617
-0.058098514 -0.049309902 -0.17646593
-0.058101159 -0.049386017 -0.1764597
-0.058103807 -0.04946214 -0.17645347
-0.058106065 -0.049538083 -0.17645523
-0.058108065 -0.049611945 -0.17646094
-0.058109872 -0.049685717 -0.17647064
-0.058112126 -0.049761664 -0.1764724
-0.058114678 -0.049837738 -0.17646816
-0.058116678 -0.049911603 -0.17647387
-0.058118388 -0.049985334 -0.17648557
-0.058120191 -0.05005911 -0.17649528
-0.058122352 -0.050135009 -0.17649904
-0.058125291 -0.050211258 -0.17648681
-0.058128387 -0.050289549 -0.17647263
-0.058131583 -0.050367884 -0.17645648
-0.05813517 -0.050446395 -0.17643231
-0.058137912 -0.050522558 -0.17642409
-0.058140073 -0.050598457 -0.17642784
-0.058142621 -0.050674535 -0.17642361
-0.05814556 -0.050750785 -0.17641139
-0.058148112 -0.050826862 -0.17640716
-0.058150757 -0.050902981 -0.17640093
-0.058153756 -0.050981231 -0.17638874
-0.058156308 -0.051057309 -0.17638452
-0.058158502 -0.051131256 -0.17638624
-0.058161151 -0.051207375 -0.17638001
-0.058163799 -0.051283494 -0.17637378
-0.058165956 -0.051359396 -0.17637753
-0.058168154 -0.051433343 -0.17637923
-0.058170509 -0.051509336 -0.176379
-0.058172666 -0.051585235 -0.17638275
-0.058174215 -0.051656924 -0.1763964
-0.058176279 -0.051732786 -0.17640215
-0.058179475 -0.051811121 -0.176386
-0.058182314 -0.051887326 -0.17637578
-0.058184866 -0.0519634 -0.17637154
-0.058187708 -0.052039608 -0.17636132
-0.058190353 -0.052115727 -0.17635509
-0.058192551 -0.052189674 -0.17635679
-0.058194906 -0.052265663 -0.17635655
-0.058196966 -0.052341521 -0.17636231
-0.058199164 -0.052415472 -0.17636403
-0.05820265 -0.052493937 -0.17634186
-0.058206335 -0.052572489 -0.17631571
-0.058209274 -0.052648738 -0.17630349
-0.058211822 -0.052724816 -0.17629926
-0.058214374 -0.05280089 -0.17629503
-0.058216728 -0.052876879 -0.17629479
-0.058218338 -0.052950568 -0.17630848
-0.058220241 -0.053024381 -0.17631619
-0.058222145 -0.053098202 -0.17632389
-0.058223404 -0.053169757 -0.17634353
-0.05822527 -0.053245533 -0.17635328
-0.058227565 -0.053319521 -0.17635299
-0.058230951 -0.053397946 -0.17633283
-0.058234442 -0.053476412 -0.17631067
-0.058237188 -0.053552575 -0.17630243
-0.058239441 -0.053628519 -0.17630419
-0.058241639 -0.053702466 -0.17630592
-0.058244385 -0.05377863 -0.17629769
-0.058247324 -0.053854879 -0.17628548
-0.058249973 -0.053930998 -0.17627925
-0.058252521 -0.054007076 -0.17627501
-0.058254875 -0.054083064 -0.17627478
-0.058256973 -0.054156967 -0.17627847
-0.058259428 -0.054233 -0.17627624
-0.058262464 -0.054309294 -0.17626202
-0.058265112 -0.054385416 -0.17625579
-0.058267012 -0.054459229 -0.1762635
-0.058268528 -0.054532878 -0.17627919
-0.058269944 -0.054606475 -0.17629689
-0.058272239 -0.054680467 -0.17629659
-0.058275141 -0.054758672 -0.17628643
-0.058277335 -0.054832619 -0.17628813
-0.058278594 -0.054904178 -0.17630777
-0.058280364 -0.054979909 -0.17631952
-0.058282658 -0.055053897 -0.17631924
-0.0582854 -0.055130061 -0.17631102
-0.05828844 -0.055206355 -0.1762968
-0.058291085 -0.055282474 -0.17629056
-0.058293637 -0.055358551 -0.17628634
-0.058296125 -0.055432629 -0.17628205
-0.058298577 -0.055508662 -0.17627981
-0.058301419 -0.055584867 -0.17626959
-0.058304809 -0.055663288 -0.17624943
-0.058307946 -0.055739626 -0.1762332
-0.058310788 -0.055815831 -0.17622299
-0.058313239 -0.055891864 -0.17622076
-0.058315337 -0.05596577 -0.17622447
-0.058316402 -0.05603724 -0.1762481
-0.058317818 -0.056110844 -0.17626579
-0.058320172 -0.056186832 -0.17626555
-0.058322467 -0.05626082 -0.17626527
-0.058324076 -0.05633451 -0.17627895
-0.05832598 -0.056408327 -0.17628667
-0.058328334 -0.056484316 -0.17628643
-0.058330882 -0.056560393 -0.1762822
-0.058333278 -0.056634426 -0.1762799
-0.058335632 -0.056710415 -0.17627968
-0.058338668 -0.056786709 -0.17626546
-0.058341999 -0.056863133 -0.17624524
-0.058344353 -0.056939121 -0.17624502
-0.058346353 -0.057012983 -0.17625073
-0.058348902 -0.057089057 -0.17624649
-0.058351845 -0.05716531 -0.17623428
-0.058355525 -0.057243861 -0.17620811
-0.058359697 -0.057322629 -0.17617197
-0.058363225 -0.057399139 -0.17614776
-0.058366261 -0.057475433 -0.17613354
-0.05836891 -0.057551552 -0.17612731
-0.058370911 -0.057625413 -0.17613304
-0.05837262 -0.05769914 -0.17614472
-0.058374524 -0.057772961 -0.17615242
-0.058376782 -0.057848908 -0.1761542
-0.058379661 -0.057923157 -0.17614192
-0.058382113 -0.05799919 -0.17613968
-0.058383331 -0.058072705 -0.17616138
-0.058385137 -0.058146477 -0.17617106
-0.058387239 -0.058220383 -0.17617479
-0.05838963 -0.058294415 -0.17617249
-0.058392376 -0.058370579 -0.17616427
-0.058395118 -0.058446743 -0.17615604
-0.058397766 -0.058522861 -0.17614982
-0.058399767 -0.058596723 -0.17615552
-0.05840167 -0.058670543 -0.17616323
-0.058404319 -0.058746658 -0.176157
-0.058408137 -0.058823299 -0.17612681
-0.058411527 -0.05890172 -0.17610665
-0.058414605 -0.058976058 -0.17609039
-0.058417249 -0.059052177 -0.17608416
-0.058419056 -0.059125952 -0.17609385
-0.058421157 -0.059199855 -0.17609756
-0.058423705 -0.059275933 -0.17609334
-0.058425024 -0.059349492 -0.17611301
-0.05842673 -0.059423219 -0.17612472
-0.058429416 -0.059497386 -0.17611644
-0.058431417 -0.059571244 -0.17612216
-0.058432344 -0.059644632 -0.17614982
-0.058434542 -0.059718579 -0.17615154
-0.058438323 -0.059797175 -0.17612338
-0.058441009 -0.059871338 -0.17611511
-0.058442716 -0.059945069 -0.17612681
-0.058444973 -0.060021013 -0.17612857
-0.058447912 -0.060097262 -0.17611635
-0.058451343 -0.060173731 -0.17609414
-0.058453929 -0.06024785 -0.17608786
-0.058455735 -0.060321625 -0.17609757
-0.058458678 -0.060397875 -0.17608535
-0.058462653 -0.060476556 -0.1760532
-0.058465142 -0.060550634 -0.17604892
-0.05846734 -0.060624581 -0.17605063
-0.058469791 -0.060700614 -0.1760484
-0.058471888 -0.06077452 -0.17605211
-0.058474284 -0.060848553 -0.17604983
-0.058476537 -0.0609245 -0.17605159
-0.058478542 -0.060998358 -0.17605729
-0.058480542 -0.061072223 -0.176063
-0.058482055 -0.061145864 -0.17607869
-0.058483373 -0.061219424 -0.17609838
-0.058485765 -0.061293457 -0.1760961
-0.058489293 -0.061369967 -0.1760719
-0.058493011 -0.061446562 -0.17604369
-0.058495954 -0.061522812 -0.17603147
-0.058498539 -0.061596934 -0.1760252
-0.058500934 -0.061670966 -0.17602292
-0.058503874 -0.061747216 -0.1760107
-0.058507301 -0.061823681 -0.1759885
-0.058510829 -0.061900191 -0.17596428
-0.058514841 -0.061976921 -0.1759301
-0.058518369 -0.062053427 -0.17590588
-0.058521602 -0.06212981 -0.17588767
-0.058524385 -0.062204018 -0.17587741
-0.058526639 -0.062279962 -0.17587917
-0.058528252 -0.062353648 -0.17589286
-0.058529802 -0.062425338 -0.17590651
-0.058532156 -0.062501326 -0.17590627
-0.058535136 -0.062575623 -0.17589201
-0.058537588 -0.062651657 -0.17588978
-0.058539491 -0.062725469 -0.17589748
-0.058541492 -0.062799335 -0.1759032
-0.058545019 -0.062875845 -0.17587899
-0.058549717 -0.062952876 -0.17583081
-0.058553927 -0.063029692 -0.17579263
-0.058557257 -0.063106112 -0.17577243
-0.058560431 -0.063180491 -0.17575416
-0.0585647 -0.063259304 -0.17571603
-0.058567677 -0.063333601 -0.17570177
-0.058570072 -0.06340763 -0.17569947
-0.058574475 -0.063484535 -0.1756573
-0.058579076 -0.063561521 -0.17561114
-0.058582112 -0.063637808 -0.17559692
-0.058584604 -0.063711889 -0.17559263
-0.058586858 -0.063787833 -0.17559439
-0.058588412 -0.063859522 -0.17560804
-0.058590513 -0.063933432 -0.17561175
-0.058593158 -0.064009547 -0.17560554
-0.058595452 -0.064083539 -0.17560524
-0.05859765 -0.064157486 -0.17560695
-0.058599554 -0.064231306 -0.17561466
-0.058601201 -0.064303033 -0.17562631
-0.058603946 -0.0643792 -0.17561808
-0.058607511 -0.064453751 -0.17559183
-0.058610842 -0.064530179 -0.17557164
-0.058613624 -0.064604387 -0.17556135
-0.058616504 -0.064678632 -0.17554909
-0.058620229 -0.064755231 -0.17552088
-0.058624048 -0.064831875 -0.17549069
-0.058627319 -0.064906299 -0.17547044
-0.058629613 -0.064980283 -0.17547014
-0.058630928 -0.065053843 -0.17548984
-0.05863215 -0.065127358 -0.17551154
-0.058634054 -0.065201178 -0.17551923
-0.058636155 -0.065275081 -0.17552294
-0.058637667 -0.065348722 -0.17553863
-0.05863912 -0.065420367 -0.17555428
-0.058640439 -0.065493926 -0.17557396
-0.058641952 -0.065567568 -0.17558965
-0.058643367 -0.065641172 -0.17560735
-0.058644198 -0.065714508 -0.17563702
-0.058644868 -0.06578581 -0.17566864
-0.058645502 -0.065859064 -0.1757023
-0.058644906 -0.0659298 -0.17575991
-0.058642708 -0.066001795 -0.17585148
-0.05864162 -0.066072315 -0.17591906
-0.058640536 -0.066142835 -0.17598662
-0.058637105 -0.066212311 -0.17610213
-0.058415521 -0.066086344 -0.18061502
-0.058214337 -0.06598521 -0.18472087
-0.057977479 -0.045589224 -0.17657909
-0.057980735 -0.045669556 -0.17656296
-0.057983831 -0.045747846 -0.17654878
-0.057986028 -0.045821793 -0.17655049
-0.05798848 -0.045897827 -0.17654826
-0.057991128 -0.045973945 -0.17654203
-0.057993382 -0.046049893 -0.1765438
-0.057995543 -0.046125799 -0.17654756
-0.057998091 -0.04620187 -0.17654333
-0.058000643 -0.046277948 -0.17653909
-0.058002643 -0.046351809 -0.17654479
-0.058004703 -0.046427667 -0.17655054
-0.058007449 -0.046503831 -0.17654231
-0.058009997 -0.046579905 -0.17653808
-0.05801161 -0.046653595 -0.17655179
-0.058013417 -0.04672737 -0.17656147
-0.05801706 -0.046807874 -0.17653736
-0.058020841 -0.046886466 -0.17650922
-0.058022901 -0.046962328 -0.17651498
-0.058024805 -0.047036149 -0.17652267
-0.058027357 -0.047112223 -0.17651844
-0.058029711 -0.047188211 -0.1765182
-0.058031965 -0.047264159 -0.17651996
-0.058034807 -0.047340367 -0.17650974
-0.058037259 -0.047416396 -0.1765075
-0.05803936 -0.047490302 -0.17651123
-0.058041617 -0.04756625 -0.17651299
-0.058044516 -0.047644455 -0.17650279
-0.058047261 -0.047720619 -0.17649457
-0.058049519 -0.047796562 -0.17649633
-0.058051422 -0.047870379 -0.17650403
-0.058053583 -0.047946282 -0.17650779
-0.058055583 -0.048020143 -0.17651349
-0.058057234 -0.048091874 -0.17652515
-0.058059294 -0.048167735 -0.1765309
-0.058060903 -0.048241422 -0.17654461
-0.058061771 -0.048312806 -0.17657223
-0.058063481 -0.04838654 -0.17658393
-0.058065385 -0.048460357 -0.17659162
-0.058067095 -0.048534088 -0.17660332
-0.058069386 -0.04860808 -0.17660305
-0.058072738 -0.048688456 -0.17658493
-0.058076326 -0.048766963 -0.17656076
-0.05807991 -0.04884547 -0.1765366
-0.058083557 -0.048925977 -0.17651251
-0.058086749 -0.049004313 -0.17649633
-0.058089495 -0.049080476 -0.1764881
-0.058092494 -0.049158722 -0.17647593
-0.058095336 -0.04923493 -0.17646571
-0.05809769 -0.049310923 -0.17646545
-0.058100339 -0.049387038 -0.17645924
-0.058102984 -0.04946316 -0.17645301
-0.058105242 -0.049539104 -0.17645477
-0.058107242 -0.049612969 -0.17646047
-0.058109049 -0.049686741 -0.17647016
-0.058111306 -0.049762689 -0.17647192
-0.058113758 -0.049838718 -0.1764697
-0.058115859 -0.049912624 -0.17647341
-0.058117565 -0.049986355 -0.17648511
-0.058119372 -0.050060127 -0.17649481
-0.058121532 -0.05013603 -0.17649856
-0.058124375 -0.050212238 -0.17648834
-0.058127567 -0.05029057 -0.17647217
-0.058130763 -0.050368905 -0.176456
-0.058134347 -0.050447416 -0.17643183
-0.058137093 -0.050523579 -0.17642361
-0.058139253 -0.050599482 -0.17642738
-0.058141802 -0.050675556 -0.17642313
-0.058144644 -0.050751764 -0.17641291
-0.058147289 -0.050827883 -0.17640668
-0.058149938 -0.050904002 -0.17640045
-0.05815284 -0.050982207 -0.17639029
-0.058155488 -0.051058326 -0.17638406
-0.058157682 -0.051132277 -0.17638576
-0.058160331 -0.051208392 -0.17637953
-0.05816298 -0.051284514 -0.1763733
-0.058165137 -0.051360413 -0.17637706
-0.058167335 -0.051434364 -0.17637879
-0.058169588 -0.051510312 -0.17638054
-0.058171846 -0.051586255 -0.1763823
-0.058173399 -0.051657945 -0.17639594
-0.05817546 -0.051733807 -0.17640169
-0.058178656 -0.051812138 -0.17638552
-0.058181494 -0.051888347 -0.1763753
-0.058184046 -0.051964425 -0.17637107
-0.058186889 -0.052040629 -0.17636085
-0.058189534 -0.052116748 -0.17635462
-0.058191732 -0.052190695 -0.17635632
-0.058193989 -0.052266642 -0.17635807
-0.05819609 -0.052340545 -0.1763618
-0.058198344 -0.052416492 -0.17636356
-0.058201831 -0.052494958 -0.17634138
-0.058205515 -0.05257351 -0.17631525
-0.058208454 -0.052649759 -0.17630301
-0.058211006 -0.052725833 -0.1762988
-0.058213554 -0.052801907 -0.17629455
-0.058215812 -0.052877855 -0.17629631
-0.058217518 -0.052951586 -0.17630801
-0.058219425 -0.053025402 -0.17631572
-0.058221329 -0.053099222 -0.17632341
-0.058222584 -0.053170778 -0.17634305
-0.058224451 -0.053246554 -0.17635281
-0.058226746 -0.053320546 -0.17635253
-0.058230136 -0.053398967 -0.17633235
-0.058233626 -0.053477429 -0.1763102
-0.058236368 -0.053553592 -0.17630197
-0.058238626 -0.05362954 -0.17630373
-0.058240823 -0.053703487 -0.17630544
-0.058243569 -0.05377965 -0.17629722
-0.058246508 -0.0538559 -0.176285
-0.058249153 -0.053932019 -0.17627877
-0.058251705 -0.054008096 -0.17627454
-0.058254059 -0.054084085 -0.1762743
-0.05825606 -0.054157943 -0.17628001
-0.058258511 -0.054233976 -0.17627777
-0.058261551 -0.054310273 -0.17626354
-0.058264293 -0.054386437 -0.17625532
-0.058266196 -0.05446025 -0.17626303
-0.058267713 -0.054533899 -0.17627873
-0.058269128 -0.054607496 -0.17629641
-0.058271322 -0.054681443 -0.17629811
-0.058274321 -0.054759692 -0.17628595
-0.058276519 -0.054833639 -0.17628767
-0.058277778 -0.054905199 -0.17630731
-0.058279388 -0.054978885 -0.176321
-0.058281843 -0.055054918 -0.17631876
-0.058284588 -0.055131081 -0.17631054
-0.058287527 -0.055207331 -0.17629832
-0.058290172 -0.05528345 -0.17629209
-0.058292724 -0.055359527 -0.17628786
-0.05829531 -0.055433646 -0.17628157
-0.058297761 -0.055509679 -0.17627934
-0.058300603 -0.055585887 -0.17626911
-0.058303993 -0.055664308 -0.17624895
-0.05830713 -0.055740647 -0.17623274
-0.058309972 -0.055816852 -0.17622252
-0.058312424 -0.055892885 -0.17622028
-0.058314525 -0.055966787 -0.17622399
-0.058315586 -0.05603826 -0.17624763
-0.058316905 -0.05611182 -0.17626733
-0.058319356 -0.056187853 -0.17626509
-0.058321554 -0.0562618 -0.17626679
-0.058323164 -0.056335486 -0.1762805
-0.058325067 -0.056409303 -0.17628819
-0.058327518 -0.056485336 -0.17628595
-0.05833007 -0.05656141 -0.17628172
-0.058332462 -0.056635447 -0.17627946
-0.058334816 -0.056711435 -0.1762792
-0.058337852 -0.056787729 -0.17626499
-0.058341086 -0.056864109 -0.17624678
-0.05834344 -0.056940097 -0.17624652
-0.058345541 -0.057014003 -0.17625025
-0.058348089 -0.057090078 -0.17624602
-0.058351029 -0.057166331 -0.1762338
-0.058354713 -0.057244882 -0.17620763
-0.058358729 -0.057321608 -0.17617345
-0.058362409 -0.05740016 -0.1761473
-0.058365449 -0.05747645 -0.17613308
-0.058368094 -0.057552569 -0.17612684
-0.058370098 -0.057626434 -0.17613256
-0.058371805 -0.057700161 -0.17614424
-0.058373712 -0.057773978 -0.17615196
-0.058375966 -0.057849925 -0.17615372
-0.058378845 -0.057924177 -0.17614144
-0.058381297 -0.058000211 -0.17613921
-0.058382519 -0.058073722 -0.1761609
-0.058384325 -0.058147497 -0.17617059
-0.058386423 -0.058221404 -0.17617431
-0.058388818 -0.058295436 -0.17617202
-0.058391564 -0.0583716 -0.17616379
-0.058394305 -0.058447763 -0.17615557
-0.058396954 -0.058523882 -0.17614934
-0.058398955 -0.058597744 -0.17615505
-0.058400858 -0.05867156 -0.17616275
-0.058403507 -0.058747679 -0.17615652
-0.058407325 -0.058824319 -0.17612633
-0.058410559 -0.058900699 -0.17610812
-0.058413696 -0.058977038 -0.17609191
-0.058416441 -0.059053198 -0.17608368
-0.058418244 -0.059126973 -0.17609338
-0.058420345 -0.059200875 -0.17609708
-0.058422893 -0.059276953 -0.17609286
-0.058424212 -0.059350509 -0.17611253
-0.058425862 -0.059422243 -0.17612419
-0.058428604 -0.059498407 -0.17611596
-0.058430508 -0.05957222 -0.17612368
-0.058431536 -0.059645649 -0.17614934
-0.05843373 -0.0597196 -0.17615107
-0.058437511 -0.059798192 -0.1761229
-0.058440197 -0.059872359 -0.17611465
-0.058441907 -0.05994609 -0.17612633
-0.058444165 -0.060022034 -0.17612809
-0.058447104 -0.060098283 -0.17611587
-0.058450531 -0.060174748 -0.17609367
-0.058453023 -0.060248829 -0.17608938
-0.058454826 -0.060322601 -0.17609909
-0.058457866 -0.060398895 -0.17608488
-0.058461685 -0.060475536 -0.17605467
-0.058464233 -0.06055161 -0.17605044
-0.058466528 -0.060625602 -0.17605016
-0.058468983 -0.060701635 -0.17604792
-0.05847108 -0.060775537 -0.17605163
-0.058473375 -0.060849529 -0.17605135
-0.058475729 -0.060925517 -0.17605111
-0.05847773 -0.060999379 -0.17605682
-0.058479734 -0.06107324 -0.17606252
-0.058481246 -0.061146885 -0.17607822
-0.058482565 -0.061220441 -0.1760979
-0.058484957 -0.061294477 -0.17609562
-0.058488481 -0.061370984 -0.17607144
-0.058492202 -0.061447583 -0.17604321
-0.058495142 -0.061523832 -0.17603099
-0.058497731 -0.061597954 -0.17602473
-0.058500122 -0.061671987 -0.17602244
-0.058503062 -0.061748236 -0.17601022
-0.058506396 -0.061824661 -0.17599002
-0.058510017 -0.061901212 -0.17596382
-0.058514033 -0.061977938 -0.17592964
-0.05851756 -0.062054448 -0.17590542
-0.058520794 -0.062130827 -0.1758872
-0.058523577 -0.062205039 -0.17587695
-0.058525831 -0.062280983 -0.1758787
-0.058527444 -0.062354669 -0.17589238
-0.058528993 -0.062426358 -0.17590603
-0.058531348 -0.062502347 -0.17590581
-0.058534328 -0.062576644 -0.17589155
-0.058536779 -0.062652677 -0.1758893
-0.058538586 -0.062726453 -0.175899
-0.058540586 -0.062800311 -0.17590471
-0.058544211 -0.062876865 -0.17587851
-0.058548909 -0.062953889 -0.17583033
-0.058553118 -0.063030705 -0.17579216
-0.058556449 -0.063107133 -0.17577195
-0.058559526 -0.063181467 -0.17575568
-0.058563892 -0.063260324 -0.17571555
-0.058566771 -0.063334577 -0.17570329
-0.058569264 -0.06340865 -0.175699
-0.058573667 -0.063485548 -0.17565683
-0.058578268 -0.063562535 -0.17561066
-0.058581308 -0.063638829 -0.17559645
-0.058583796 -0.06371291 -0.17559215
-0.058585957 -0.063788809 -0.17559591
-0.058587603 -0.063860543 -0.17560756
-0.058589704 -0.063934445 -0.17561127
-0.058592349 -0.064010568 -0.17560506
-0.058594648 -0.06408456 -0.17560476
-0.058596842 -0.064158507 -0.17560646
-0.058598649 -0.064232282 -0.17561617
-0.058600396 -0.064304054 -0.17562583
-0.058603141 -0.064380221 -0.17561761
-0.058606707 -0.064454772 -0.17559135
-0.058610037 -0.064531192 -0.17557114
-0.05861282 -0.0646054 -0.17556088
-0.058615699 -0.064679652 -0.17554861
-0.058619421 -0.064756252 -0.17552042
-0.058623239 -0.064832889 -0.17549022
-0.05862651 -0.064907312 -0.17546996
-0.058628809 -0.064981304 -0.17546967
-0.058630124 -0.065054864 -0.17548937
-0.058631346 -0.065128379 -0.17551106
-0.058633249 -0.065202191 -0.17551875
-0.058635347 -0.065276101 -0.17552245
-0.058636863 -0.065349743 -0.17553815
-0.058638316 -0.065421388 -0.1755538
-0.058639634 -0.065494947 -0.1755735
-0.05864105 -0.065568544 -0.17559119
-0.058642466 -0.065642148 -0.17560886
-0.058643293 -0.065715492 -0.17563853
-0.058644064 -0.065786831 -0.17566817
-0.058644697 -0.065860085 -0.17570183
-0.058644101 -0.065930821 -0.17575943
-0.058641903 -0.066002816 -0.175851
-0.058640815 -0.066073336 -0.17591858
-0.058639731 -0.066143855 -0.17598614
-0.058635909 -0.066213153 -0.17610964
-0.058414709 -0.066087365 -0.18061455
-0.058213521 -0.065986238 -0.1847204
-0.057976294 -0.045588013 -0.17657924
-0.057979546 -0.045668345 -0.17656311
-0.057982646 -0.045746639 -0.17654893
-0.057984747 -0.045820542 -0.17655264
-0.057987295 -0.04589662 -0.17654842
-0.05798994 -0.045972735 -0.17654218
-0.057992198 -0.046048682 -0.17654394
-0.057994358 -0.046124585 -0.17654771
-0.057996906 -0.046200663 -0.17654347
-0.057999454 -0.046276741 -0.17653924
-0.058001459 -0.046350598 -0.17654493
-0.058003519 -0.04642646 -0.17655069
-0.058006164 -0.046502579 -0.17654446
-0.058008716 -0.046578653 -0.17654023
-0.058010422 -0.046652384 -0.17655194
-0.058012228 -0.04672616 -0.17656162
-0.058015876 -0.046806663 -0.17653751
-0.058019653 -0.046885259 -0.17650935
-0.058021717 -0.046961121 -0.17651513
-0.05802362 -0.047034938 -0.17652282
-0.058026168 -0.047111012 -0.17651859
-0.058028426 -0.04718696 -0.17652035
-0.058030777 -0.047262952 -0.17652011
-0.058033526 -0.047339112 -0.17651188
-0.058036074 -0.047415189 -0.17650765
-0.058038171 -0.047489092 -0.17651138
-0.058040429 -0.047565039 -0.17651314
-0.058043331 -0.047643244 -0.17650294
-0.058046076 -0.047719408 -0.17649472
-0.058048233 -0.047795311 -0.17649847
-0.058050137 -0.047869127 -0.17650616
-0.058052395 -0.047945075 -0.17650792
-0.058054395 -0.048018932 -0.17651364
-0.058056045 -0.048090667 -0.17652529
-0.058058105 -0.048166528 -0.17653105
-0.058059715 -0.048240215 -0.17654476
-0.058060586 -0.048311599 -0.17657238
-0.058062293 -0.04838533 -0.17658406
-0.058064196 -0.048459146 -0.17659178
-0.058065809 -0.048532836 -0.17660546
-0.058068104 -0.048606828 -0.17660519
-0.058071554 -0.048687246 -0.17658508
-0.058075137 -0.048765752 -0.17656091
-0.058078721 -0.048844263 -0.17653675
-0.058082368 -0.048924766 -0.17651266
-0.058085561 -0.049003102 -0.17649648
-0.058088306 -0.049079269 -0.17648825
-0.058091305 -0.049157515 -0.17647606
-0.058094148 -0.04923372 -0.17646584
-0.058096502 -0.049309712 -0.1764656
-0.058099151 -0.049385831 -0.17645937
-0.058101796 -0.04946195 -0.17645316
-0.058103956 -0.049537852 -0.1764569
-0.058106054 -0.049611755 -0.17646062
-0.05810786 -0.04968553 -0.17647031
-0.058110021 -0.049761433 -0.17647408
-0.058112569 -0.049837507 -0.17646985
-0.05811467 -0.049911413 -0.17647356
-0.058116376 -0.049985144 -0.17648524
-0.058118183 -0.05005892 -0.17649496
-0.058120243 -0.050134778 -0.17650071
-0.058123183 -0.050211027 -0.17648849
-0.058126379 -0.050289363 -0.17647232
-0.058129575 -0.050367698 -0.17645615
-0.058133159 -0.050446205 -0.17643198
-0.058135904 -0.050522368 -0.17642376
-0.058137964 -0.050598226 -0.17642951
-0.058140613 -0.050674349 -0.17642328
-0.058143456 -0.050750554 -0.17641306
-0.0581461 -0.050826672 -0.17640683
-0.058148652 -0.050902747 -0.1764026
-0.058151651 -0.050981 -0.17639044
-0.058154199 -0.051057074 -0.17638619
-0.058156397 -0.051131025 -0.17638791
-0.058159042 -0.05120714 -0.17638168
-0.058161788 -0.051283307 -0.17637345
-0.058163948 -0.051359206 -0.17637721
-0.058166046 -0.051433112 -0.1763809
-0.0581684 -0.051509101 -0.17638068
-0.058170658 -0.051585048 -0.17638244
-0.058172207 -0.051656738 -0.17639607
-0.058174074 -0.05173251 -0.17640583
-0.058177307 -0.051808886 -0.17638762
-0.058180049 -0.051885054 -0.1763794
-0.058182757 -0.051963169 -0.17637321
-0.058185697 -0.052039418 -0.17636099
-0.058188248 -0.052115496 -0.17635676
-0.058190443 -0.052189443 -0.17635846
-0.058192797 -0.052265432 -0.17635822
-0.058194898 -0.052339338 -0.17636195
-0.058197156 -0.052415282 -0.17636371
-0.058200642 -0.052493747 -0.17634153
-0.058204323 -0.052572303 -0.17631538
-0.058207165 -0.052648507 -0.17630516
-0.058209814 -0.052724626 -0.17629895
-0.058212362 -0.0528007 -0.1762947
-0.05821462 -0.052876644 -0.17629646
-0.05821633 -0.052950379 -0.17630816
-0.058218233 -0.053024195 -0.17631586
-0.058220137 -0.053098012 -0.17632356
-0.058221396 -0.053169571 -0.1763432
-0.058223162 -0.053245302 -0.17635494
-0.058225557 -0.053319335 -0.17635266
-0.058228943 -0.053397756 -0.1763325
-0.058232434 -0.053476222 -0.17631035
-0.058235079 -0.053552341 -0.17630413
-0.058237433 -0.053628333 -0.17630388
-0.058239534 -0.053702235 -0.17630759
-0.058242276 -0.053778399 -0.17629936
-0.058245316 -0.053854689 -0.17628515
-0.058247961 -0.053930812 -0.17627892
-0.058250513 -0.054006889 -0.17627469
-0.058252864 -0.054082878 -0.17627445
-0.058254868 -0.054156736 -0.17628014
-0.058257319 -0.054232769 -0.17627792
-0.058260359 -0.054309063 -0.17626369
-0.058263004 -0.054385185 -0.17625746
-0.058265004 -0.054459043 -0.17626317
-0.058266521 -0.054532688 -0.17627886
-0.058267936 -0.054606289 -0.17629656
-0.05827013 -0.054680236 -0.17629828
-0.058273129 -0.054758482 -0.1762861
-0.058275327 -0.054832429 -0.1762878
-0.058276586 -0.054903992 -0.17630745
-0.058278196 -0.054977678 -0.17632115
-0.05828055 -0.055053666 -0.17632091
-0.058283392 -0.055129871 -0.17631069
-0.058286332 -0.055206124 -0.17629847
-0.05828898 -0.055282243 -0.17629223
-0.058291528 -0.05535832 -0.17628801
-0.058294021 -0.055432394 -0.17628372
-0.058296472 -0.055508427 -0.17628148
-0.058299411 -0.055584677 -0.17626926
-0.058302704 -0.055663057 -0.1762511
-0.058305938 -0.055739436 -0.17623287
-0.05830878 -0.055815645 -0.17622265
-0.058311231 -0.055891678 -0.17622042
-0.058313232 -0.055965535 -0.17622614
-0.058314394 -0.056037053 -0.17624778
-0.058315709 -0.056110609 -0.17626746
-0.058318164 -0.056186642 -0.17626522
-0.058320358 -0.05626059 -0.17626694
-0.058321971 -0.056334276 -0.17628063
-0.058323875 -0.056408092 -0.17628834
-0.058326326 -0.056484126 -0.1762861
-0.058328874 -0.056560203 -0.17628187
-0.058331169 -0.056634195 -0.17628159
-0.058333524 -0.056710184 -0.17628135
-0.058336563 -0.056786478 -0.17626712
-0.058339894 -0.056862898 -0.17624691
-0.058342248 -0.056938887 -0.17624667
-0.058344346 -0.057012793 -0.1762504
-0.058346897 -0.057088867 -0.17624615
-0.058349736 -0.057165075 -0.17623594
-0.05835342 -0.05724363 -0.17620978
-0.058357533 -0.057320397 -0.17617358
-0.058361217 -0.057398949 -0.17614743
-0.058364253 -0.057475243 -0.17613322
-0.058366902 -0.057551362 -0.17612699
-0.058368903 -0.057625223 -0.17613271
-0.058370613 -0.05769895 -0.17614439
-0.058372416 -0.057772726 -0.17615411
-0.058374673 -0.057848673 -0.17615587
-0.058377653 -0.057922967 -0.17614159
-0.058380008 -0.057998955 -0.17614135
-0.058381323 -0.058072515 -0.17616104
-0.05838313 -0.05814629 -0.17617074
-0.058385231 -0.058220193 -0.17617445
-0.058387622 -0.058294229 -0.17617217
-0.058390267 -0.058370348 -0.17616594
-0.058393113 -0.058446553 -0.17615572
-0.058395661 -0.05852263 -0.17615148
-0.058397759 -0.058596533 -0.17615519
-0.058399662 -0.058670349 -0.1761629
-0.058402311 -0.058746472 -0.17615667
-0.058406129 -0.058823109 -0.17612647
-0.058409363 -0.058899492 -0.17610826
-0.0584125 -0.058975827 -0.17609203
-0.058415242 -0.059051991 -0.17608382
-0.058417048 -0.059125762 -0.17609352
-0.058419149 -0.059199668 -0.17609721
-0.058421697 -0.059275746 -0.17609298
-0.058423016 -0.059349302 -0.17611268
-0.058424667 -0.059421033 -0.17612433
-0.058427408 -0.059497196 -0.17611611
-0.058429316 -0.059571013 -0.17612381
-0.05843034 -0.059644438 -0.17614949
-0.058432437 -0.059718344 -0.17615321
-0.058436219 -0.059796941 -0.17612505
-0.058438905 -0.059871104 -0.17611678
-0.058440711 -0.059944879 -0.17612648
-0.058442965 -0.060020827 -0.17612824
-0.058445808 -0.060097031 -0.17611802
-0.058449335 -0.060173541 -0.1760938
-0.058451824 -0.060247619 -0.17608953
-0.058453631 -0.060321391 -0.17609924
-0.05845667 -0.060397685 -0.17608501
-0.058460489 -0.060474325 -0.17605481
-0.058463037 -0.060550399 -0.17605057
-0.058465332 -0.060624391 -0.17605031
-0.058467783 -0.060700424 -0.17604807
-0.058469884 -0.06077433 -0.17605177
-0.058472179 -0.060848322 -0.1760515
-0.058474533 -0.06092431 -0.17605126
-0.058476534 -0.060998172 -0.17605695
-0.058478534 -0.061072029 -0.17606267
-0.058480047 -0.061145678 -0.17607835
-0.058481269 -0.061219189 -0.17610005
-0.058483757 -0.061293267 -0.17609575
-0.058487285 -0.061369777 -0.17607155
-0.058491006 -0.061446372 -0.17604336
-0.058493946 -0.061522625 -0.17603114
-0.058496434 -0.061596699 -0.17602685
-0.058498926 -0.06167078 -0.17602259
-0.058501866 -0.061747029 -0.17601036
-0.058505196 -0.06182345 -0.17599016
-0.058508821 -0.061900005 -0.17596394
-0.058512736 -0.061976686 -0.17593175
-0.058516361 -0.062053241 -0.17590556
-0.058519594 -0.06212962 -0.17588735
-0.058522377 -0.062203828 -0.17587708
-0.058524631 -0.062279776 -0.17587884
-0.058526244 -0.062353462 -0.17589253
-0.058527797 -0.062425151 -0.17590618
-0.058530148 -0.06250114 -0.17590594
-0.058533031 -0.062575392 -0.17589366
-0.05853558 -0.06265147 -0.17588943
-0.058537386 -0.062725239 -0.17589915
-0.058539387 -0.062799104 -0.17590484
-0.058542915 -0.062875614 -0.17588064
-0.058547612 -0.062952638 -0.17583248
-0.058551919 -0.063029498 -0.17579229
-0.058555249 -0.063105918 -0.17577209
-0.058558326 -0.06318026 -0.17575583
-0.058562595 -0.063259073 -0.17571768
-0.058565572 -0.063333362 -0.17570341
-0.058568064 -0.063407443 -0.17569914
-0.058572467 -0.063484341 -0.17565697
-0.058577068 -0.063561328 -0.17561078
-0.058580011 -0.063637577 -0.17559858
-0.0585825 -0.063711658 -0.1755943
-0.058584757 -0.063787602 -0.17559606
-0.058586404 -0.063859336 -0.17560771
-0.058588408 -0.063933194 -0.1756134
-0.058591053 -0.064009316 -0.17560717
-0.058593445 -0.064083353 -0.17560491
-0.058595642 -0.0641573 -0.17560661
-0.058597449 -0.064231068 -0.17561632
-0.058599196 -0.064302847 -0.17562596
-0.058601938 -0.064379007 -0.17561775
-0.058605507 -0.064453565 -0.1755915
-0.058608837 -0.064529985 -0.17557129
-0.058611616 -0.064604193 -0.17556101
-0.0586145 -0.064678445 -0.17554875
-0.058618221 -0.064755045 -0.17552054
-0.05862204 -0.064831682 -0.17549035
-0.058625311 -0.064906105 -0.1754701
-0.058627605 -0.064980097 -0.17546982
-0.058628924 -0.065053657 -0.1754895
-0.058630142 -0.065127172 -0.17551118
