# .PCD v0.7 - Point Cloud Data file format
VERSION 0.7
FIELDS x y z
SIZE 4 4 4
TYPE F F F
COUNT 1 1 1
WIDTH 1270
HEIGHT 1
VIEWPOINT 0 0 0 1 0 0 0
POINTS 1270
DATA ascii
-0.038204476 -0.045932945 -0.18682727
-0.038202006 -0.045852959 -0.18682741
-0.038199227 -0.045768887 -0.18683144
-0.038196757 -0.045688897 -0.18683159
-0.038194429 -0.045607001 -0.18682769
-0.038192254 -0.045527145 -0.18682182
-0.040079173 -0.093105011 -0.1780725
-0.040076397 -0.093030803 -0.17808276
-0.040073812 -0.092956677 -0.17808902
-0.040071465 -0.092880689 -0.17808926
-0.040069312 -0.09280479 -0.17808551
-0.040068503 -0.092725538 -0.17805168
-0.040068027 -0.092644468 -0.17800984
-0.040066108 -0.092566699 -0.17800003
-0.040064052 -0.092490837 -0.17799428
-0.040061995 -0.092414975 -0.17798853
-0.040059648 -0.092338994 -0.17798877
-0.040056147 -0.092266433 -0.17801504
-0.040053993 -0.092190526 -0.1780113
-0.040052135 -0.092114761 -0.17800152
-0.040050507 -0.092037119 -0.17798574
-0.040048391 -0.09195926 -0.17797995
-0.040045906 -0.091885179 -0.17798421
-0.040043458 -0.091809146 -0.17798644
-0.040041503 -0.091733329 -0.17797868
-0.040039543 -0.091657519 -0.17797092
-0.040037625 -0.09157975 -0.17796111
-0.040035665 -0.091503933 -0.17795336
-0.040033121 -0.091427855 -0.17795759
-0.040030245 -0.091353603 -0.17796986
-0.040027566 -0.091279432 -0.17797813
-0.040024925 -0.091203317 -0.17798436
-0.040026769 -0.091119334 -0.17789248
-0.040025376 -0.091039829 -0.17787065
-0.040022891 -0.090965748 -0.17787492
-0.040020738 -0.090889841 -0.17787117
-0.040018681 -0.090813987 -0.1778654
-0.040016238 -0.090737954 -0.17786764
-0.040013984 -0.09066201 -0.17786586
-0.04001154 -0.090585977 -0.1778681
-0.040008627 -0.090513676 -0.1778824
-0.040005885 -0.090437517 -0.17789063
-0.040003635 -0.090361565 -0.17788887
-0.040001873 -0.090285838 -0.1778771
-0.039999951 -0.090208068 -0.17786731
-0.039997894 -0.090132207 -0.17786156
-0.039995451 -0.090056174 -0.17786378
-0.039993159 -0.089982182 -0.17786406
-0.039990947 -0.089904286 -0.17786026
-0.039988559 -0.08983025 -0.17786252
-0.039986502 -0.089754388 -0.17785677
-0.039987471 -0.089670017 -0.17778286
-0.0399861 -0.089594461 -0.17776313
-0.03998379 -0.089516521 -0.17776133
-0.039981596 -0.089442573 -0.17775962
-0.039979249 -0.089366585 -0.17775983
-0.039977096 -0.089290679 -0.17775607
-0.039975762 -0.08921317 -0.17773429
-0.03997384 -0.089135394 -0.1777245
-0.039971452 -0.089061365 -0.17772678
-0.039969299 -0.088985458 -0.17772302
-0.039967671 -0.088907823 -0.17770723
-0.039966337 -0.088830307 -0.17768544
-0.039964184 -0.088754408 -0.17768168
-0.0399618 -0.088680372 -0.17768395
-0.039959647 -0.088604473 -0.17768019
-0.039957199 -0.088528439 -0.17768241
-0.039954752 -0.088452406 -0.17768465
-0.039952502 -0.088376455 -0.17768289
-0.039950114 -0.088302426 -0.17768517
-0.039947569 -0.088226348 -0.17768939
-0.039945122 -0.088150315 -0.17769161
-0.03994254 -0.088076189 -0.17769788
-0.039940484 -0.088000335 -0.17769213
-0.039938956 -0.087922737 -0.17767434
-0.039937291 -0.087847054 -0.17766058
-0.039935663 -0.087769412 -0.17764479
-0.03993351 -0.087693512 -0.17764103
-0.039930966 -0.087617435 -0.17764527
-0.039928872 -0.087543525 -0.17764156
-0.039926719 -0.087467626 -0.17763779
-0.039924074 -0.087391503 -0.17764401
-0.039921921 -0.087315604 -0.17764026
-0.039919965 -0.087239787 -0.17763248
-0.039917517 -0.087163754 -0.17763472
-0.039914839 -0.087089591 -0.177643
-0.039912488 -0.087013602 -0.17764322
-0.039909907 -0.086939476 -0.1776495
-0.039907362 -0.086863399 -0.17765372
-0.039905209 -0.086787499 -0.17764997
-0.039902955 -0.086711556 -0.1776482
-0.039900374 -0.08663743 -0.17765446
-0.039897732 -0.086561307 -0.17766069
-0.039895773 -0.08648549 -0.17765293
-0.039894246 -0.0864079 -0.17763513
-0.039892677 -0.086332254 -0.1776194
-0.039891247 -0.086254701 -0.17759961
-0.039889287 -0.086178884 -0.17759186
-0.039886706 -0.086104766 -0.17759813
-0.039883867 -0.086028561 -0.17760834
-0.039881676 -0.085954614 -0.17760663
-0.039879754 -0.085876837 -0.17759684
-0.039877173 -0.085802719 -0.1776031
-0.039873905 -0.085728295 -0.17762335
-0.039871462 -0.085652262 -0.17762557
-0.039869893 -0.085576616 -0.17760983
-0.039868265 -0.085498974 -0.17759404
-0.039865781 -0.0854249 -0.17759833
-0.039863043 -0.085348733 -0.17760654
-0.039860751 -0.085274741 -0.17760682
-0.039858501 -0.085198797 -0.17760506
-0.039856348 -0.085122898 -0.17760129
-0.039854195 -0.085046992 -0.17759752
-0.039851747 -0.084970959 -0.17759976
-0.039849263 -0.084896885 -0.17760402
-0.039847791 -0.084821284 -0.17758629
-0.039847668 -0.084742337 -0.1775385
-0.039847057 -0.084663182 -0.17750069
-0.039845489 -0.084587537 -0.17748496
-0.039842613 -0.084513284 -0.17749721
-0.039840069 -0.084437214 -0.17750144
-0.039838113 -0.084361397 -0.17749369
-0.039835569 -0.084285319 -0.17749791
-0.039832983 -0.084211193 -0.17750418
-0.03983083 -0.084135294 -0.17750041
-0.039828483 -0.084059305 -0.17750065
-0.039826427 -0.083983444 -0.17749488
-0.039824761 -0.083907761 -0.17748114
-0.039823096 -0.083832078 -0.17746741
-0.039821468 -0.083754435 -0.17745161
-0.0398199 -0.083678797 -0.17743586
-0.03981765 -0.083602846 -0.17743409
-0.0398154 -0.083526902 -0.17743233
-0.039813146 -0.083450958 -0.17743057
-0.039810859 -0.083376966 -0.17743084
-0.039808609 -0.083301015 -0.17742908
-0.03980694 -0.083225332 -0.17741533
-0.039807208 -0.083146565 -0.17735955
-0.039807145 -0.083069623 -0.17731181
-0.039804991 -0.082993716 -0.17730805
-0.039803714 -0.082918204 -0.1772863
-0.039802577 -0.082840785 -0.17726053
-0.039800327 -0.082764834 -0.17725876
-0.039797451 -0.082690582 -0.17727104
-0.039794184 -0.082616158 -0.17729127
-0.039791699 -0.082542084 -0.17729555
-0.039790366 -0.082464576 -0.17727377
-0.039789286 -0.082389146 -0.17724803
-0.039787855 -0.082311593 -0.17722824
-0.039786384 -0.082235992 -0.17721051
-0.039784327 -0.082160138 -0.17720476
-0.039781883 -0.082084104 -0.17720699
-0.039779495 -0.082010068 -0.17720926
-0.039777145 -0.08193408 -0.1772095
-0.039774761 -0.081860043 -0.17721176
-0.039772604 -0.081784144 -0.17720801
-0.03977225 -0.081707068 -0.17716625
-0.039772712 -0.08162839 -0.17710647
-0.039771728 -0.081553005 -0.17707875
-0.039769769 -0.081477188 -0.17707099
-0.039768301 -0.081401594 -0.17705324
-0.039766867 -0.081324041 -0.17703347
-0.039764773 -0.081250139 -0.17702974
-0.039762229 -0.081174061 -0.17703399
-0.039760761 -0.08109846 -0.17701623
-0.039759584 -0.081022993 -0.17699251
-0.039757233 -0.080947004 -0.17699274
-0.039754748 -0.080872923 -0.17699701
-0.039753415 -0.080795415 -0.17697522
-0.03975302 -0.080720298 -0.17693552
-0.039751548 -0.080644697 -0.17691778
-0.03974881 -0.080568537 -0.17692599
-0.039746754 -0.080492675 -0.17692024
-0.039745383 -0.080417119 -0.17690049
-0.039743617 -0.080341391 -0.17688873
-0.039740939 -0.080267228 -0.17689702
-0.039738648 -0.080193236 -0.17689729
-0.039737705 -0.080115899 -0.17686751
-0.038467705 -0.054451987 -0.18683144
-0.03846899 -0.054381557 -0.18675987
-0.038471058 -0.05431148 -0.18667233
-0.038471639 -0.054236799 -0.18661264
-0.03847095 -0.054161549 -0.18657893
-0.038470298 -0.054084342 -0.18654317
-0.038470548 -0.054011486 -0.1864915
-0.038469605 -0.053934149 -0.18646175
-0.038468078 -0.053856552 -0.18644395
-0.038466487 -0.053776953 -0.18642612
-0.038464606 -0.053697228 -0.18641427
-0.038462237 -0.053617284 -0.18641242
-0.038459867 -0.053537343 -0.18641056
-0.038457498 -0.053457398 -0.1864087
-0.038454972 -0.053375416 -0.1864088
-0.038452603 -0.053295471 -0.18640694
-0.03845023 -0.053215526 -0.18640509
-0.038447801 -0.053133585 -0.18640319
-0.038445238 -0.053053558 -0.18640532
-0.038442418 -0.052971438 -0.1864114
-0.038439658 -0.052891321 -0.18641753
-0.038436644 -0.052809119 -0.18642761
-0.038433529 -0.052726872 -0.18643969
-0.038430162 -0.052642539 -0.1864557
-0.038427148 -0.052560337 -0.18646578
-0.038424484 -0.052480262 -0.18646991
-0.038421765 -0.05239819 -0.18647401
-0.038418848 -0.052316032 -0.1864821
-0.038416028 -0.052233916 -0.18648818
-0.038413111 -0.052151754 -0.18649626
-0.038410544 -0.052071728 -0.18649839
-0.038407333 -0.051989436 -0.18651247
-0.038403772 -0.051905017 -0.18653248
-0.038399819 -0.051820423 -0.18656048
-0.038396161 -0.05173596 -0.18658251
-0.038392402 -0.051651455 -0.18660653
-0.038388353 -0.051566817 -0.18663652
-0.038385823 -0.051484831 -0.18663663
-0.038383357 -0.051404849 -0.18663675
-0.038380284 -0.051320646 -0.18664679
-0.038377367 -0.051238485 -0.18665487
-0.038374253 -0.051156238 -0.18666694
-0.038370788 -0.051071864 -0.18668497
-0.038367677 -0.050989617 -0.18669704
-0.038365051 -0.050907589 -0.18669912
-0.038362682 -0.050827645 -0.18669727
-0.038360059 -0.050745614 -0.18669936
-0.038357239 -0.050663501 -0.18670544
-0.038355164 -0.050583687 -0.1866976
-0.038353279 -0.050503962 -0.18668574
-0.038350523 -0.050423846 -0.18669188
-0.038347155 -0.050339513 -0.18670791
-0.038344041 -0.050257266 -0.18671998
-0.038341124 -0.050175104 -0.18672806
-0.03833805 -0.050090902 -0.1867381
-0.038335484 -0.050010875 -0.18674025
-0.038332216 -0.049926586 -0.18675426
-0.0383293 -0.049844429 -0.18676235
-0.038327321 -0.049764656 -0.1867525
-0.038325537 -0.049684975 -0.18673867
-0.03832252 -0.049602769 -0.18674874
-0.038319312 -0.049520481 -0.18676281
-0.03831698 -0.049438581 -0.18675892
-0.038314611 -0.04935864 -0.18675706
-0.038311791 -0.049276523 -0.18676314
-0.038309421 -0.049196579 -0.18676129
-0.038307637 -0.049116898 -0.18674743
-0.038305208 -0.049034953 -0.18674554
-0.038302291 -0.048952796 -0.18675363
-0.038299568 -0.048870724 -0.1867577
-0.038297005 -0.048790693 -0.18675984
-0.038294379 -0.048708666 -0.18676195
-0.038291659 -0.048626594 -0.18676603
-0.038288642 -0.048544392 -0.1867761
-0.038285375 -0.048460104 -0.18679014
-0.038282357 -0.048377901 -0.18680021
-0.038279831 -0.048295915 -0.1868003
-0.038277853 -0.048216142 -0.18679045
-0.038276423 -0.048138589 -0.18677068
-0.038274441 -0.048058819 -0.18676081
-0.038272172 -0.047978923 -0.18675697
-0.03827019 -0.047899149 -0.18674712
-0.038267858 -0.047817253 -0.18674323
-0.0382642 -0.047732793 -0.18676524
-0.038260929 -0.047648501 -0.18677926
-0.038258463 -0.047568515 -0.18677941
-0.038255937 -0.047486529 -0.1867795
-0.038253509 -0.047404587 -0.18677759
-0.038250491 -0.047322385 -0.18678766
-0.038247027 -0.047238007 -0.1868057
-0.03824421 -0.047155894 -0.18681177
-0.038241878 -0.047073998 -0.18680787
-0.038238861 -0.046991795 -0.18681794
-0.038235594 -0.046907507 -0.18683198
-0.038231287 -0.046820782 -0.18686593
-0.038229015 -0.046740882 -0.18686208
-0.038227133 -0.046661157 -0.18685023
-0.038224999 -0.046579346 -0.18684234
-0.03822263 -0.046499401 -0.18684047
-0.038219459 -0.046415158 -0.18685251
-0.038216345 -0.046332911 -0.18686458
-0.038214367 -0.046253141 -0.18685475
-0.038212486 -0.046173416 -0.1868429
-0.038209762 -0.04609134 -0.18684699
-0.038207587 -0.046011485 -0.18684113
-0.038205806 -0.045931805 -0.1868273
-0.038203083 -0.045849729 -0.18683138
-0.038200457 -0.045767702 -0.18683347
-0.038197991 -0.045687713 -0.18683362
-0.038195759 -0.045605861 -0.18682772
-0.038193487 -0.045525961 -0.18682386
-0.0400794 -0.093106873 -0.17807367
-0.040076625 -0.093032666 -0.17808396
-0.040074039 -0.09295854 -0.17809021
-0.040071789 -0.092882596 -0.17808846
-0.040069539 -0.092806652 -0.1780867
-0.040068828 -0.092727445 -0.17805088
-0.040068254 -0.092646331 -0.17801103
-0.040066432 -0.092568606 -0.17799923
-0.04006438 -0.092492744 -0.17799348
-0.04006242 -0.092416927 -0.17798573
-0.040059973 -0.092340894 -0.17798795
-0.040056475 -0.092268333 -0.17801425
-0.040054224 -0.092192389 -0.17801248
-0.040052362 -0.092116624 -0.17800272
-0.040050734 -0.092038982 -0.17798692
-0.040048622 -0.091961123 -0.17798112
-0.040046137 -0.091887042 -0.1779854
-0.040043689 -0.091811009 -0.17798762
-0.04004173 -0.091735199 -0.17797987
-0.040039774 -0.091659382 -0.17797211
-0.040037755 -0.091581568 -0.17796431
-0.040035896 -0.091505796 -0.17795455
-0.040033352 -0.091429718 -0.17795879
-0.040030476 -0.091355465 -0.17797104
-0.040027797 -0.091281295 -0.17797932
-0.040025152 -0.09120518 -0.17798555
-0.040026903 -0.091121152 -0.17789567
-0.040025707 -0.091041729 -0.17786986
-0.040023223 -0.090967655 -0.17787412
-0.040020969 -0.090891704 -0.17787236
-0.040018916 -0.09081585 -0.17786659
-0.040016565 -0.090739861 -0.17786682
-0.040014219 -0.090663873 -0.17786705
-0.040011868 -0.090587884 -0.17786729
-0.040008858 -0.090515539 -0.1778836
-0.040006116 -0.090439379 -0.17789182
-0.040003963 -0.090363473 -0.17788807
-0.040002104 -0.0902877 -0.17787829
-0.040000185 -0.090209931 -0.17786852
-0.039998129 -0.090134069 -0.17786273
-0.039995681 -0.090058044 -0.17786497
-0.03999339 -0.089984044 -0.17786524
-0.039991178 -0.089906149 -0.17786145
-0.039988793 -0.089832112 -0.17786372
-0.039986737 -0.08975625 -0.17785797
-0.039987706 -0.08967188 -0.17778406
-0.039986335 -0.089596324 -0.17776433
-0.039984021 -0.089518383 -0.17776251
-0.039981831 -0.089444436 -0.17776079
-0.03997948 -0.089368448 -0.17776102
-0.039977327 -0.089292541 -0.17775726
-0.039975993 -0.089215025 -0.17773548
-0.039974075 -0.089137256 -0.17772567
-0.039971687 -0.089063227 -0.17772797
-0.039969534 -0.088987321 -0.1777242
-0.039967909 -0.088909686 -0.17770842
-0.039966576 -0.08883217 -0.17768663
-0.039964519 -0.088756315 -0.17768086
-0.039962035 -0.088682234 -0.17768514
-0.039959881 -0.088606335 -0.17768137
-0.039957434 -0.088530302 -0.17768362
-0.039954986 -0.088454269 -0.17768584
-0.039952736 -0.088378318 -0.17768407
-0.039950348 -0.088304289 -0.17768635
-0.039947804 -0.088228211 -0.17769057
-0.03994536 -0.088152178 -0.1776928
-0.039942876 -0.088078097 -0.17769708
-0.039940722 -0.088002197 -0.17769331
-0.039939191 -0.0879246 -0.17767552
-0.039937623 -0.087848961 -0.17765978
-0.039935999 -0.087771319 -0.17764398
-0.039933749 -0.087695375 -0.17764223
-0.039931204 -0.087619297 -0.17764646
-0.039929107 -0.087545387 -0.17764273
-0.039927054 -0.087469533 -0.17763698
-0.039924413 -0.087393411 -0.17764321
-0.039922159 -0.087317467 -0.17764144
-0.0399203 -0.087241694 -0.17763168
-0.039917756 -0.087165616 -0.17763591
-0.039915174 -0.087091498 -0.17764218
-0.039912727 -0.087015457 -0.1776444
-0.039910145 -0.086941339 -0.17765069
-0.039907601 -0.086865261 -0.17765492
-0.039905448 -0.086789362 -0.17765115
-0.039903194 -0.086713411 -0.17764938
-0.039900612 -0.086639293 -0.17765565
-0.039897971 -0.08656317 -0.17766188
-0.039896015 -0.086487353 -0.17765412
-0.039894484 -0.086409763 -0.17763633
-0.039893016 -0.086334161 -0.17761859
-0.039891485 -0.086256564 -0.1776008
-0.039889529 -0.086180747 -0.17759305
-0.039886944 -0.086106628 -0.17759931
-0.039884206 -0.086030468 -0.17760754
-0.039881915 -0.085956477 -0.17760782
-0.039879996 -0.0858787 -0.17759803
-0.039877512 -0.085804626 -0.17760229
-0.039874148 -0.085730158 -0.17762452
-0.0398717 -0.085654125 -0.17762677
-0.039870135 -0.085578479 -0.17761102
-0.039868508 -0.085500836 -0.17759523
-0.03986612 -0.085426807 -0.17759751
-0.039863382 -0.08535064 -0.17760572
-0.039860994 -0.085276604 -0.17760801
-0.03985884 -0.085200705 -0.17760424
-0.03985659 -0.085124761 -0.17760247
-0.039854437 -0.085048854 -0.17759871
-0.039852086 -0.084972866 -0.17759895
-0.039849602 -0.084898785 -0.17760323
-0.039848037 -0.084823146 -0.17758748
-0.03984791 -0.0847442 -0.17753968
-0.039847299 -0.084665045 -0.17750189
-0.039845735 -0.084589399 -0.17748614
-0.039842859 -0.084515147 -0.1774984
-0.039840411 -0.084439114 -0.17750064
-0.039838355 -0.084363259 -0.17749487
-0.039835811 -0.084287181 -0.17749909
-0.039833229 -0.084213056 -0.17750537
-0.039831076 -0.084137157 -0.1775016
-0.039828725 -0.084061168 -0.17750184
-0.039826669 -0.083985306 -0.17749608
-0.039825007 -0.083909623 -0.17748234
-0.039823342 -0.08383394 -0.17746858
-0.039821811 -0.083756343 -0.17745079
-0.039820146 -0.083680652 -0.17743704
-0.039817993 -0.083604753 -0.17743328
-0.039815743 -0.083528809 -0.17743152
-0.039813392 -0.083452821 -0.17743176
-0.039811105 -0.083378822 -0.17743203
-0.039808854 -0.083302878 -0.17743027
-0.039807286 -0.08322724 -0.17741452
-0.039807454 -0.083148427 -0.17736074
-0.03980739 -0.083071485 -0.177313
-0.039805237 -0.082995579 -0.17730923
-0.039803963 -0.082920067 -0.17728749
-0.039802823 -0.082842648 -0.17726171
-0.039800573 -0.082766697 -0.17725995
-0.039797697 -0.082692444 -0.17727223
-0.039794531 -0.082618065 -0.17729047
-0.039791945 -0.082543947 -0.17729674
-0.039790712 -0.082466476 -0.17727296
-0.039789535 -0.082391009 -0.17724922
-0.039788101 -0.082313456 -0.17722943
-0.039786633 -0.082237855 -0.1772117
-0.039784577 -0.082162 -0.17720595
-0.039782129 -0.082085967 -0.17720817
-0.039779745 -0.082011931 -0.17721045
-0.039777491 -0.081935987 -0.17720869
-0.039775103 -0.08186195 -0.17721096
-0.03977295 -0.081786051 -0.1772072
-0.039772496 -0.08170893 -0.17716745
-0.039772958 -0.081630245 -0.17710766
-0.039771978 -0.081554867 -0.17707995
-0.039770018 -0.08147905 -0.17707218
-0.039768647 -0.081403494 -0.17705244
-0.03976712 -0.081325904 -0.17703465
-0.039765023 -0.081251994 -0.17703094
-0.039762579 -0.081175968 -0.17703317
-0.039761107 -0.081100367 -0.17701542
-0.03975993 -0.0810249 -0.1769917
-0.039757583 -0.080948904 -0.17699192
-0.039755002 -0.080874786 -0.1769982
-0.039753668 -0.080797277 -0.17697641
-0.03975337 -0.080722198 -0.17693472
-0.039751898 -0.080646604 -0.17691697
-0.03974916 -0.080570437 -0.17692518
-0.039747007 -0.080494538 -0.17692143
-0.039745733 -0.080419026 -0.17689969
-0.03974387 -0.080343254 -0.17688993
-0.039741289 -0.080269128 -0.17689621
-0.039738901 -0.080195099 -0.17689848
-0.039737958 -0.080117762 -0.17686871
-0.038468 -0.054453842 -0.18683262
-0.038469285 -0.054383416 -0.18676105
-0.038471349 -0.054313339 -0.18667349
-0.03847193 -0.054238655 -0.18661383
-0.038471341 -0.054163449 -0.18657811
-0.038470592 -0.054086197 -0.18654434
-0.038470842 -0.054013338 -0.1864927
-0.038469899 -0.053936005 -0.18646292
-0.038468368 -0.053858407 -0.18644515
-0.038466781 -0.053778812 -0.1864273
-0.03846496 -0.053701084 -0.18641549
-0.038462687 -0.053621184 -0.18641165
-0.038460162 -0.053539202 -0.18641174
-0.038457792 -0.053459257 -0.18640989
-0.038455263 -0.053377271 -0.18640998
-0.038452893 -0.053297326 -0.18640813
-0.038450524 -0.053217385 -0.18640627
-0.038448095 -0.05313544 -0.18640438
-0.038445532 -0.053055413 -0.18640649
-0.038442809 -0.052973337 -0.18641059
-0.038439952 -0.052893177 -0.18641871
-0.038436938 -0.052810974 -0.1864288
-0.038433924 -0.052728772 -0.18643886
-0.03843046 -0.052644394 -0.18645689
-0.038427543 -0.052562237 -0.18646497
-0.038424879 -0.052482162 -0.18646911
-0.038422059 -0.052400045 -0.18647519
-0.038419142 -0.052317888 -0.18648328
-0.038416322 -0.052235775 -0.18648936
-0.038413405 -0.052153613 -0.18649743
-0.038410842 -0.052073583 -0.18649958
-0.038407728 -0.051991336 -0.18651167
-0.038404167 -0.051906917 -0.18653168
-0.038400117 -0.051822279 -0.18656167
-0.038396455 -0.051737815 -0.1865837
-0.0383927 -0.051653311 -0.1866077
-0.038388647 -0.051568672 -0.1866377
-0.038386121 -0.051486686 -0.18663779
-0.038383655 -0.051406704 -0.18663794
-0.038380582 -0.051322501 -0.18664798
-0.038377762 -0.051240385 -0.18665406
-0.038374551 -0.051158093 -0.18666813
-0.038371086 -0.051073719 -0.18668614
-0.038367976 -0.050991472 -0.18669823
-0.038365349 -0.050909445 -0.18670031
-0.03836298 -0.0508295 -0.18669847
-0.03836026 -0.050747428 -0.18670255
-0.038357537 -0.050665356 -0.18670663
-0.038355462 -0.050585546 -0.18669879
-0.038353581 -0.050505817 -0.18668693
-0.038350821 -0.050425701 -0.18669307
-0.038347453 -0.050341368 -0.18670911
-0.038344342 -0.050259121 -0.18672118
-0.038341425 -0.050176963 -0.18672925
-0.038338348 -0.05009276 -0.1867393
-0.038335785 -0.05001273 -0.18674143
-0.038332514 -0.049928442 -0.18675545
-0.038329598 -0.04984628 -0.18676353
-0.038327619 -0.049766511 -0.18675369
-0.038325936 -0.049686871 -0.18673785
-0.038322918 -0.049604669 -0.18674792
-0.03831961 -0.04952234 -0.186764
-0.038317282 -0.049440436 -0.1867601
-0.038315009 -0.04936054 -0.18675624
-0.038312092 -0.049278378 -0.18676433
-0.038309723 -0.049198437 -0.18676247
-0.038307939 -0.049118754 -0.18674862
-0.03830551 -0.049036812 -0.18674672
-0.03830269 -0.048954695 -0.18675281
-0.03829987 -0.048872583 -0.18675889
-0.038297307 -0.048792548 -0.18676102
-0.03829468 -0.048710525 -0.18676311
-0.038291961 -0.048628449 -0.18676721
-0.038288947 -0.048546247 -0.18677729
-0.038285676 -0.048461959 -0.18679132
-0.038282663 -0.048379753 -0.18680139
-0.038280137 -0.04829777 -0.18680149
-0.038278155 -0.048218001 -0.18679163
-0.038276725 -0.048140444 -0.18677185
-0.038274746 -0.048060678 -0.18676201
-0.038272474 -0.047980778 -0.18675816
-0.038270496 -0.047901008 -0.1867483
-0.038268164 -0.047819108 -0.18674441
-0.038264602 -0.047734693 -0.18676442
-0.038261235 -0.04765036 -0.18678045
-0.038258769 -0.04757037 -0.1867806
-0.038256243 -0.047488384 -0.18678068
-0.038253814 -0.047406442 -0.18677877
-0.038250796 -0.04732424 -0.18678886
-0.038247332 -0.047239866 -0.18680687
-0.038244415 -0.047157705 -0.18681496
-0.038242184 -0.047075853 -0.18680906
-0.038239069 -0.046993606 -0.18682113
-0.038235802 -0.046909317 -0.18683517
-0.038231593 -0.046822637 -0.18686712
-0.038229421 -0.046742782 -0.18686125
-0.038227439 -0.046663012 -0.18685141
-0.038225304 -0.046581201 -0.18684351
-0.038222935 -0.046501257 -0.18684167
-0.038219765 -0.046417013 -0.18685368
-0.03821665 -0.046334766 -0.18686578
-0.038214672 -0.046254996 -0.18685593
-0.038212888 -0.046175316 -0.18684208
-0.038210168 -0.04609324 -0.18684617
-0.038207896 -0.04601334 -0.18684232
-0.038206112 -0.045933656 -0.18682846
-0.038203489 -0.045851633 -0.18683057
-0.038200766 -0.045769557 -0.18683466
-0.038198397 -0.045689613 -0.1868328
-0.038196065 -0.045607716 -0.1868289
-0.038193792 -0.045527816 -0.18682504
-0.040077228 -0.09310808 -0.1780737
-0.040074453 -0.093033873 -0.17808396
-0.040071968 -0.092959791 -0.17808823
-0.040069617 -0.09288381 -0.17808846
-0.040067464 -0.092807904 -0.1780847
-0.0400666 -0.092726655 -0.17805085
-0.040066086 -0.092647538 -0.17801104
-0.040064167 -0.092569768 -0.17800124
-0.040062208 -0.092493951 -0.17799349
-0.040060155 -0.09241809 -0.17798772
-0.040057804 -0.092342108 -0.17798796
-0.040054306 -0.092269547 -0.17801425
-0.040052056 -0.092193604 -0.17801249
-0.040050194 -0.092117831 -0.17800273
-0.040048569 -0.092040189 -0.17798695
-0.040046453 -0.09196233 -0.17798114
-0.040043969 -0.091888249 -0.1779854
-0.040041525 -0.091812223 -0.17798764
-0.040039565 -0.091736406 -0.17797989
-0.04003761 -0.091660589 -0.17797212
-0.040035591 -0.091582775 -0.17796433
-0.040033732 -0.091507003 -0.17795457
-0.040031187 -0.091430925 -0.17795879
-0.040028311 -0.091356672 -0.17797107
-0.040025633 -0.091282509 -0.17797932
-0.040022992 -0.091206387 -0.17798555
-0.040024742 -0.091122359 -0.17789567
-0.040023446 -0.091042899 -0.17787185
-0.040021058 -0.090968862 -0.17787412
-0.040018808 -0.090892918 -0.17787236
-0.040016752 -0.090817057 -0.17786661
-0.040014405 -0.090741068 -0.17786685
-0.040012058 -0.09066508 -0.17786707
-0.040009707 -0.090589091 -0.17786729
-0.040006697 -0.090516746 -0.1778836
-0.040003959 -0.090440586 -0.17789182
-0.040001806 -0.09036468 -0.17788807
-0.039999947 -0.090288907 -0.17787831
-0.039998025 -0.090211138 -0.17786852
-0.039995968 -0.090135276 -0.17786275
-0.039993525 -0.090059251 -0.17786497
-0.039991233 -0.089985259 -0.17786527
-0.039989024 -0.089907356 -0.17786145
-0.039986636 -0.089833319 -0.17786372
-0.03998458 -0.089757457 -0.17785797
-0.039985549 -0.089673087 -0.17778407
-0.039984178 -0.089597538 -0.17776433
-0.039981868 -0.08951959 -0.17776252
-0.039979678 -0.089445643 -0.17776081
-0.039977424 -0.089369699 -0.17775905
-0.039975174 -0.089293748 -0.17775728
-0.03997384 -0.08921624 -0.17773549
-0.039971922 -0.089138471 -0.1777257
-0.039969634 -0.089064479 -0.17772597
-0.039967384 -0.088988528 -0.17772421
-0.039965756 -0.088910893 -0.17770842
-0.039964423 -0.088833377 -0.17768663
-0.039962366 -0.088757522 -0.17768088
-0.039959885 -0.088683441 -0.17768514
-0.039957732 -0.088607542 -0.17768139
-0.039955381 -0.088531554 -0.17768162
-0.039952837 -0.088455476 -0.17768586
-0.039950587 -0.088379532 -0.17768408
-0.039948203 -0.088305496 -0.17768636
-0.039945755 -0.088229463 -0.17768858
-0.039943211 -0.088153385 -0.17769282
-0.039940629 -0.088079259 -0.17769907
-0.039938573 -0.088003404 -0.17769332
-0.039937045 -0.087925807 -0.17767553
-0.039935477 -0.087850168 -0.17765978
-0.039933853 -0.087772526 -0.177644
-0.039931603 -0.087696582 -0.17764223
-0.039929058 -0.087620504 -0.17764646
-0.039926961 -0.087546602 -0.17764275
-0.039924908 -0.08747074 -0.17763698
-0.039922267 -0.087394617 -0.17764321
-0.039920114 -0.087318718 -0.17763944
-0.039918154 -0.087242901 -0.17763169
-0.039915614 -0.087166823 -0.17763591
-0.039913028 -0.087092705 -0.1776422
-0.039910585 -0.087016672 -0.17764442
-0.039908003 -0.086942546 -0.17765069
-0.039905459 -0.086866468 -0.17765492
-0.039903305 -0.086790569 -0.17765117
-0.039901055 -0.086714625 -0.17764939
-0.039898474 -0.0866405 -0.17765565
-0.039895833 -0.086564377 -0.17766188
-0.039893873 -0.086488567 -0.17765412
-0.039892443 -0.086411014 -0.17763433
-0.039890874 -0.086335368 -0.17761859
-0.039889347 -0.086257771 -0.1776008
-0.039887488 -0.086181998 -0.17759106
-0.039884806 -0.086107835 -0.17759933
-0.039881971 -0.086031631 -0.17760953
-0.03987978 -0.085957684 -0.1776078
-0.039877858 -0.085879907 -0.17759803
-0.039875276 -0.085805789 -0.17760429
-0.039871912 -0.08573132 -0.17762655
-0.039869566 -0.085655332 -0.17762676
-0.039868094 -0.085579731 -0.17760903
-0.039866373 -0.085502051 -0.17759523
-0.039863888 -0.08542797 -0.17759952
-0.039861247 -0.085351847 -0.17760573
-0.039858956 -0.085277855 -0.17760602
-0.039856706 -0.085201912 -0.17760424
-0.039854456 -0.085125968 -0.17760247
-0.039852303 -0.085050061 -0.17759871
-0.039849956 -0.084974073 -0.17759895
-0.039847471 -0.084899999 -0.17760323
-0.03984594 -0.084822401 -0.17758544
-0.03984572 -0.08474341 -0.17753965
-0.039845265 -0.084666297 -0.17749989
-0.0398436 -0.084590614 -0.17748615
-0.039840728 -0.084516361 -0.1774984
-0.039838281 -0.084440321 -0.17750064
-0.039836325 -0.084364511 -0.17749286
-0.03983368 -0.084288388 -0.17749909
-0.039831098 -0.08421427 -0.17750537
-0.039828945 -0.084138364 -0.1775016
-0.039826598 -0.084062375 -0.17750183
-0.039824542 -0.083986513 -0.17749608
-0.039822876 -0.08391083 -0.17748232
-0.039821215 -0.083835147 -0.1774686
-0.039819587 -0.083757505 -0.17745279
-0.039818019 -0.083681867 -0.17743705
-0.039815865 -0.08360596 -0.17743328
-0.039813615 -0.083530016 -0.17743152
-0.039811365 -0.083454072 -0.17742975
-0.039808977 -0.083380036 -0.17743203
-0.039806727 -0.083304092 -0.17743027
-0.039805159 -0.083228447 -0.17741452
-0.039805427 -0.083149679 -0.17735875
-0.039805267 -0.083072692 -0.177313
-0.039803114 -0.082996786 -0.17730923
-0.039801937 -0.082921319 -0.17728549
-0.039800704 -0.082843855 -0.17726171
-0.03979845 -0.082767904 -0.17725995
-0.039795578 -0.082693659 -0.17727222
-0.039792407 -0.082619272 -0.17729047
-0.039789826 -0.082545154 -0.17729674
-0.039788589 -0.082467683 -0.17727296
-0.039787453 -0.082390264 -0.17724718
-0.039785981 -0.08231467 -0.17722943
-0.039784513 -0.082239069 -0.1772117
-0.039782457 -0.082163207 -0.17720595
-0.039780013 -0.082087174 -0.17720817
-0.039777625 -0.082013138 -0.17721045
-0.039775375 -0.081937194 -0.17720869
-0.039772987 -0.081863157 -0.17721096
-0.039770834 -0.081787258 -0.1772072
-0.03977038 -0.081710137 -0.17716745
-0.039770842 -0.081631459 -0.17710766
-0.039769862 -0.081556074 -0.17707995
-0.039767906 -0.081480265 -0.17707217
-0.039766531 -0.081404708 -0.17705244
-0.039765004 -0.081327111 -0.17703465
-0.03976291 -0.081253208 -0.17703092
-0.039760366 -0.08117713 -0.17703515
-0.039758995 -0.081101574 -0.17701542
-0.039757818 -0.081026107 -0.1769917
-0.03975537 -0.080950074 -0.17699392
-0.039752886 -0.080875993 -0.1769982
-0.039751556 -0.080798484 -0.17697641
-0.039751258 -0.080723412 -0.17693469
-0.039749786 -0.080647811 -0.17691696
-0.039747048 -0.080571651 -0.17692518
-0.039744992 -0.08049579 -0.17691943
-0.039743621 -0.080420233 -0.17689969
-0.039741762 -0.080344461 -0.17688993
-0.03973918 -0.080270343 -0.1768962
-0.039736792 -0.080196306 -0.17689848
-0.03973585 -0.080118969 -0.17686871
-0.038465977 -0.054455034 -0.18683258
-0.038467262 -0.054384604 -0.18676102
-0.038469329 -0.054314528 -0.18667346
-0.03846997 -0.054241844 -0.18661383
-0.038469322 -0.054164641 -0.18657807
-0.038468573 -0.054087389 -0.1865443
-0.038468823 -0.05401453 -0.18649265
-0.03846788 -0.053937197 -0.18646288
-0.03846645 -0.053859644 -0.18644309
-0.038464859 -0.053780045 -0.18642527
-0.038462941 -0.053702272 -0.18641546
-0.038460672 -0.053622376 -0.18641162
-0.038458146 -0.053540386 -0.18641171
-0.038455777 -0.053460445 -0.18640985
-0.038453247 -0.053378463 -0.18640995
-0.038450878 -0.053298518 -0.18640807
-0.038448609 -0.053218618 -0.18640423
-0.038446084 -0.053136632 -0.18640432
-0.038443517 -0.053056601 -0.18640645
-0.038440797 -0.05297453 -0.18641055
-0.03843794 -0.052894369 -0.18641867
-0.038434923 -0.052812167 -0.18642876
-0.038431913 -0.052729964 -0.18643883
-0.038428448 -0.052645586 -0.18645684
-0.038425531 -0.052563429 -0.18646494
-0.038422771 -0.052483309 -0.18647106
-0.038420048 -0.052401237 -0.18647516
-0.038417131 -0.05231908 -0.18648323
-0.038414314 -0.052236963 -0.18648931
-0.038411394 -0.052154802 -0.18649739
-0.038408831 -0.052074771 -0.18649954
-0.03840572 -0.051992528 -0.18651161
-0.038402058 -0.051908065 -0.18653363
-0.038398109 -0.051823467 -0.18656163
-0.038394447 -0.051739007 -0.18658365
-0.038390692 -0.051654503 -0.18660766
-0.038386639 -0.051569864 -0.18663765
-0.038384113 -0.051487878 -0.18663776
-0.038381647 -0.051407896 -0.18663789
-0.038378574 -0.05132369 -0.18664792
-0.038375754 -0.051241577 -0.18665402
-0.038372546 -0.051159285 -0.18666808
-0.038369082 -0.051074911 -0.1866861
-0.038366068 -0.050992705 -0.18669619
-0.038363345 -0.050910633 -0.18670027
-0.038360976 -0.050830692 -0.18669841
-0.038358353 -0.050748661 -0.18670051
-0.038355634 -0.050666589 -0.18670459
-0.038353458 -0.05058673 -0.18669873
-0.038351577 -0.050507009 -0.18668689
-0.038348816 -0.050426889 -0.18669303
-0.038345449 -0.050342556 -0.18670905
-0.038342338 -0.050260313 -0.18672113
-0.038339421 -0.050178152 -0.18672921
-0.038336348 -0.050093949 -0.18673924
-0.038333785 -0.050013918 -0.18674138
-0.038330514 -0.04992963 -0.18675539
-0.038327597 -0.049847469 -0.1867635
-0.038325619 -0.049767703 -0.18675363
-0.038323935 -0.049688064 -0.18673781
-0.038320921 -0.049605861 -0.18674788
-0.038317613 -0.049523525 -0.18676394
-0.038315281 -0.049441628 -0.18676004
-0.038313009 -0.049361728 -0.18675619
-0.038310092 -0.049279571 -0.18676428
-0.038307726 -0.049199626 -0.18676242
-0.038305942 -0.049119942 -0.18674858
-0.038303513 -0.049038 -0.18674667
-0.038300596 -0.048955843 -0.18675476
-0.038297974 -0.048873816 -0.18675685
-0.038295407 -0.048793785 -0.186759
-0.038292687 -0.04871171 -0.18676308
-0.038289964 -0.048629638 -0.18676716
-0.03828695 -0.048547436 -0.18677723
-0.038283683 -0.048463147 -0.18679127
-0.038280666 -0.048380941 -0.18680134
-0.03827814 -0.048298959 -0.18680143
-0.038276263 -0.048219234 -0.18678959
-0.038274731 -0.048141636 -0.18677181
-0.038272753 -0.048061863 -0.18676196
-0.038270481 -0.047981966 -0.1867581
-0.038268503 -0.047902197 -0.18674827
-0.038266174 -0.0478203 -0.18674436
-0.038262613 -0.047735877 -0.18676437
-0.038259245 -0.047651544 -0.18678039
-0.038256779 -0.047571562 -0.18678054
-0.038254254 -0.047489576 -0.18678063
-0.038251825 -0.047407635 -0.18677872
-0.038248807 -0.047325429 -0.1867888
-0.038245346 -0.047241054 -0.18680683
-0.038242429 -0.047158897 -0.1868149
-0.038240194 -0.047077041 -0.186809
-0.038237084 -0.046994794 -0.18682107
-0.038233813 -0.046910506 -0.18683511
-0.038229704 -0.046823867 -0.18686506
-0.038227431 -0.04674397 -0.18686122
-0.038225453 -0.046664201 -0.18685137
-0.038223319 -0.046582386 -0.18684347
-0.038220949 -0.046502449 -0.18684161
-0.038217779 -0.046418201 -0.18685365
-0.038214669 -0.046335954 -0.18686572
-0.038212687 -0.046256185 -0.18685588
-0.038210906 -0.046176504 -0.18684202
-0.038208183 -0.046094432 -0.18684611
-0.038205914 -0.046014532 -0.18684226
-0.03820413 -0.045934848 -0.18682843
-0.038201507 -0.045852818 -0.18683052
-0.038198784 -0.045770746 -0.1868346
-0.038196415 -0.045690805 -0.18683276
-0.038194083 -0.045608908 -0.18682885
-0.038191911 -0.045529049 -0.18682298
-0.040077042 -0.093107469 -0.17807448
-0.040074263 -0.093033262 -0.17808473
-0.040071778 -0.09295918 -0.17808902
-0.040069431 -0.092883192 -0.17808925
-0.040067181 -0.092807248 -0.17808747
-0.040066473 -0.092728041 -0.17805167
-0.040065899 -0.092646927 -0.17801182
-0.040063981 -0.092569157 -0.17800203
-0.040062025 -0.09249334 -0.17799425
-0.040059969 -0.092417479 -0.1779885
-0.040057622 -0.09234149 -0.17798874
-0.040054217 -0.092268974 -0.17801303
-0.04005187 -0.092192985 -0.17801327
-0.040050011 -0.09211722 -0.1780035
-0.040048383 -0.092039578 -0.17798772
-0.040046234 -0.091963679 -0.17798395
-0.040043786 -0.091887638 -0.17798617
-0.040041342 -0.091811605 -0.17798841
-0.040039383 -0.091735795 -0.17798066
-0.040037427 -0.091659978 -0.1779729
-0.040035505 -0.091582209 -0.17796309
-0.040033549 -0.091506392 -0.17795533
-0.040031005 -0.091430314 -0.17795956
-0.040028132 -0.091356061 -0.17797184
-0.04002545 -0.091281891 -0.1779801
-0.040022809 -0.091205776 -0.17798632
-0.040024661 -0.091121793 -0.17789444
-0.040023267 -0.091042288 -0.17787263
-0.040020879 -0.090968251 -0.17787489
-0.040018726 -0.090892345 -0.17787114
-0.040016573 -0.090816446 -0.17786737
-0.040014226 -0.090740457 -0.17786762
-0.040011879 -0.090664469 -0.17786783
-0.040009432 -0.090588436 -0.17787006
-0.040006518 -0.090516135 -0.17788437
-0.04000378 -0.090439975 -0.1778926
-0.04000153 -0.090364024 -0.17789084
-0.039999768 -0.090288296 -0.17787908
-0.039997946 -0.090210572 -0.17786728
-0.039995793 -0.090134665 -0.17786352
-0.039993446 -0.090058677 -0.17786375
-0.039991058 -0.08998464 -0.17786603
-0.039988846 -0.089906745 -0.17786223
-0.039986461 -0.089832708 -0.17786449
-0.039984405 -0.089756846 -0.17785874
-0.039985374 -0.089672476 -0.17778483
-0.039984003 -0.08959692 -0.1777651
-0.039981693 -0.089518979 -0.17776328
-0.039979503 -0.089445032 -0.17776157
-0.039977252 -0.089369081 -0.1777598
-0.039975002 -0.089293137 -0.17775804
-0.039973669 -0.089215629 -0.17773625
-0.039971747 -0.089137852 -0.17772646
-0.039969459 -0.089063868 -0.17772673
-0.039967209 -0.088987917 -0.17772496
-0.039965585 -0.088910282 -0.17770918
-0.039964251 -0.088832766 -0.17768741
-0.039962195 -0.088756911 -0.17768164
-0.03995971 -0.08868283 -0.17768592
-0.039957557 -0.088606931 -0.17768216
-0.03995521 -0.088530943 -0.17768238
-0.039952666 -0.088454865 -0.1776866
-0.039950512 -0.088378958 -0.17768285
-0.039948031 -0.088304885 -0.17768712
-0.039945584 -0.088228852 -0.17768934
-0.039943039 -0.088152774 -0.17769358
-0.039940458 -0.088078648 -0.17769983
-0.039938502 -0.088002838 -0.17769209
-0.039936874 -0.087925196 -0.17767629
-0.039935209 -0.087849513 -0.17766255
-0.039933681 -0.087771915 -0.17764476
-0.039931431 -0.087695971 -0.177643
-0.039928887 -0.087619893 -0.17764722
-0.039926738 -0.087543987 -0.17764346
-0.039924741 -0.087470129 -0.17763774
-0.0399221 -0.087394007 -0.17764398
-0.039919946 -0.087318107 -0.1776402
-0.039917991 -0.08724229 -0.17763245
-0.039915446 -0.087166212 -0.17763668
-0.039912865 -0.087092087 -0.17764294
-0.039910417 -0.087016053 -0.17764518
-0.039907835 -0.086941935 -0.17765145
-0.039905291 -0.086865857 -0.17765567
-0.039903138 -0.086789958 -0.17765191
-0.039900888 -0.086714007 -0.17765015
-0.039898306 -0.086639889 -0.17765641
-0.039895665 -0.086563766 -0.17766264
-0.039893709 -0.086487949 -0.17765489
-0.039892279 -0.086410403 -0.1776351
-0.03989071 -0.086334758 -0.17761937
-0.03988928 -0.086257204 -0.17759958
-0.039887324 -0.086181387 -0.17759182
-0.039884642 -0.086107224 -0.17760009
-0.039881904 -0.086031064 -0.17760831
-0.039879616 -0.085957073 -0.17760858
-0.039877795 -0.085879341 -0.17759678
-0.039875213 -0.085805222 -0.17760307
-0.039871849 -0.085730754 -0.1776253
-0.039869502 -0.085654765 -0.17762554
-0.039867934 -0.08557912 -0.17760979
-0.039866209 -0.085501432 -0.177596
-0.039863825 -0.085427403 -0.17759827
-0.039861087 -0.085351236 -0.17760649
-0.039858796 -0.085277244 -0.17760676
-0.039856546 -0.085201301 -0.177605
-0.039854296 -0.085125357 -0.17760324
-0.039852142 -0.08504945 -0.17759947
-0.039849795 -0.084973462 -0.1775997
-0.039847407 -0.084899426 -0.17760199
-0.039845783 -0.08482179 -0.1775862
-0.039845563 -0.084742799 -0.17754039
-0.039845109 -0.084665686 -0.17750064
-0.039843541 -0.08459004 -0.1774849
-0.039840568 -0.084515743 -0.17749916
-0.039838124 -0.08443971 -0.17750138
-0.039836165 -0.0843639 -0.17749363
-0.039833523 -0.084287778 -0.17749986
-0.039830942 -0.084213659 -0.17750612
-0.039828788 -0.084137753 -0.17750235
-0.039826442 -0.084061764 -0.1775026
-0.039824385 -0.083985902 -0.17749684
-0.03982272 -0.083910219 -0.17748308
-0.039821059 -0.083834536 -0.17746934
-0.039819527 -0.083756939 -0.17745155
-0.039817862 -0.083681256 -0.17743781
-0.039815713 -0.083605349 -0.17743403
-0.039813463 -0.083529405 -0.17743227
-0.039811209 -0.083453454 -0.17743051
-0.039808825 -0.083379418 -0.17743278
-0.039806575 -0.083303474 -0.17743102
-0.039805006 -0.083227836 -0.17741528
-0.039805371 -0.083149113 -0.17735749
-0.039805114 -0.083072081 -0.17731375
-0.039802864 -0.08299613 -0.17731199
-0.039801784 -0.082920708 -0.17728625
-0.039800547 -0.082843244 -0.17726247
-0.039798297 -0.082767293 -0.17726071
-0.039795425 -0.08269304 -0.17727298
-0.039792255 -0.082618661 -0.17729121
-0.039789673 -0.082544543 -0.1772975
-0.03978844 -0.082467072 -0.17727371
-0.0397873 -0.082389653 -0.17724794
-0.039785832 -0.082314052 -0.17723018
-0.039784361 -0.082238458 -0.17721245
-0.039782308 -0.082162596 -0.1772067
-0.039779861 -0.082086563 -0.17720893
-0.039777476 -0.082012527 -0.1772112
-0.039775223 -0.081936583 -0.17720944
-0.039772838 -0.081862547 -0.1772117
-0.039770685 -0.081786647 -0.17720795
-0.039770328 -0.081709571 -0.17716619
-0.039770693 -0.081630848 -0.17710841
-0.039769713 -0.081555463 -0.17708069
-0.039767757 -0.081479654 -0.17707291
-0.039766386 -0.081404097 -0.17705318
-0.039764855 -0.0813265 -0.17703539
-0.039762761 -0.081252597 -0.17703168
-0.039760318 -0.081176564 -0.1770339
-0.039758846 -0.081100963 -0.17701617
-0.039757673 -0.081025496 -0.17699245
-0.039755322 -0.080949508 -0.17699265
-0.03975274 -0.080875382 -0.17699894
-0.039751407 -0.080797873 -0.17697716
-0.039751112 -0.080722801 -0.17693545
-0.039749641 -0.0806472 -0.1769177
-0.039746903 -0.080571041 -0.17692593
-0.039744847 -0.080495179 -0.17692018
-0.039743476 -0.080419622 -0.17690043
-0.039741617 -0.08034385 -0.17689067
-0.039739035 -0.080269732 -0.17689694
-0.039736647 -0.080195695 -0.17689922
-0.039735705 -0.080118358 -0.17686945
-0.038465951 -0.05445439 -0.18683326
-0.038467333 -0.054384008 -0.1867597
-0.038469303 -0.054313887 -0.18667415
-0.038469944 -0.054241203 -0.18661451
-0.038469292 -0.054163996 -0.18657875
-0.038468547 -0.054086749 -0.18654498
-0.038468797 -0.054013889 -0.18649334
-0.038467854 -0.053936552 -0.18646356
-0.038466424 -0.053859003 -0.18644378
-0.038464837 -0.053779405 -0.18642595
-0.038462915 -0.053701632 -0.18641615
-0.038460646 -0.053621735 -0.18641229
-0.03845812 -0.053539749 -0.18641238
-0.038455751 -0.053459805 -0.18641052
-0.038453225 -0.053377822 -0.18641062
-0.038450856 -0.053297877 -0.18640876
-0.038448583 -0.053217977 -0.1864049
-0.038446117 -0.053137992 -0.18640505
-0.038443591 -0.053056005 -0.18640514
-0.038440775 -0.052973889 -0.18641122
-0.038437918 -0.052893728 -0.18641934
-0.038434904 -0.052811526 -0.18642944
-0.03843189 -0.052729324 -0.18643951
-0.038428426 -0.052644946 -0.18645751
-0.038425509 -0.052562788 -0.18646562
-0.038422748 -0.052482668 -0.18647173
-0.038420029 -0.052400596 -0.18647583
-0.038417112 -0.052318439 -0.1864839
-0.038414292 -0.052236319 -0.18649
-0.038411375 -0.052154161 -0.18649808
-0.038408909 -0.052074175 -0.18649819
-0.038405702 -0.051991887 -0.18651229
-0.038402043 -0.051907424 -0.1865343
-0.038398091 -0.05182283 -0.1865623
-0.038394429 -0.051738366 -0.18658432
-0.038390674 -0.051653858 -0.18660833
-0.038386624 -0.051569223 -0.18663833
-0.038384099 -0.051487237 -0.18663843
-0.038381632 -0.051407252 -0.18663856
-0.038378559 -0.051323049 -0.18664861
-0.038375739 -0.051240932 -0.18665469
-0.038372532 -0.051158644 -0.18666875
-0.038369164 -0.051074311 -0.18668479
-0.038366053 -0.050992064 -0.18669686
-0.03836333 -0.050909992 -0.18670094
-0.038360961 -0.050830048 -0.18669908
-0.038358338 -0.05074802 -0.18670118
-0.038355619 -0.050665945 -0.18670526
-0.038353443 -0.050586089 -0.18669942
-0.038351566 -0.050506365 -0.18668756
-0.038348805 -0.050426248 -0.1866937
-0.038345437 -0.050341915 -0.18670972
-0.038342327 -0.050259672 -0.1867218
-0.03833941 -0.050177507 -0.18672988
-0.03833624 -0.050093263 -0.1867419
-0.038333774 -0.050013274 -0.18674204
-0.038330503 -0.049928986 -0.18675607
-0.03832759 -0.049846828 -0.18676415
-0.038325608 -0.049767062 -0.18675432
-0.038323924 -0.049687423 -0.18673848
-0.03832091 -0.049605217 -0.18674853
-0.038317602 -0.049522884 -0.18676463
-0.038315274 -0.049440987 -0.18676072
-0.038313001 -0.049361087 -0.18675686
-0.038310084 -0.049278926 -0.18676496
-0.038307816 -0.04919903 -0.18676108
-0.038305935 -0.049119301 -0.18674925
-0.038303506 -0.04903736 -0.18674734
-0.038300686 -0.048955243 -0.18675342
-0.038297966 -0.048873171 -0.1867575
-0.038295403 -0.048793141 -0.18675965
-0.038292777 -0.048711114 -0.18676174
-0.03828996 -0.048628997 -0.18676782
-0.038286947 -0.048546791 -0.1867779
-0.038283676 -0.048462503 -0.18679193
-0.038280662 -0.0483803 -0.186802
-0.038278136 -0.048298314 -0.1868021
-0.038276255 -0.048218593 -0.18679026
-0.038274728 -0.048140991 -0.18677247
-0.03827275 -0.048061222 -0.18676263
-0.038270578 -0.047981367 -0.18675676
-0.038268499 -0.047901556 -0.18674892
-0.038266171 -0.047819659 -0.18674502
-0.038262609 -0.047735237 -0.18676504
-0.038259242 -0.047650903 -0.18678105
-0.038256776 -0.047570918 -0.1867812
-0.03825425 -0.047488932 -0.18678129
-0.038251821 -0.04740699 -0.18677938
-0.038248807 -0.047324784 -0.18678947
-0.038245343 -0.04724041 -0.18680748
-0.038242526 -0.047158297 -0.18681356
-0.038240194 -0.047076397 -0.18680966
-0.038237181 -0.046994194 -0.18681975
-0.038233813 -0.046909861 -0.18683577
-0.038229704 -0.046823226 -0.18686572
-0.038227435 -0.046743326 -0.18686187
-0.038225457 -0.04666356 -0.18685204
-0.038223319 -0.046581745 -0.18684413
-0.038220953 -0.046501804 -0.18684226
-0.03821788 -0.046417601 -0.18685231
-0.038214669 -0.04633531 -0.18686637
-0.038212691 -0.046255544 -0.18685654
-0.038210906 -0.04617586 -0.18684269
-0.038208187 -0.046093784 -0.18684678
-0.038205914 -0.046013892 -0.18684292
-0.038204134 -0.045934208 -0.18682908
-0.038201511 -0.045852177 -0.18683118
-0.038198788 -0.045770101 -0.18683526
-0.038196418 -0.04569016 -0.18683341
-0.03819409 -0.045608263 -0.18682951
-0.038191915 -0.045528404 -0.18682365
-0.040076442 -0.093110718 -0.17807128
-0.040073663 -0.09303651 -0.17808154
-0.040071022 -0.092960387 -0.17808777
-0.040068734 -0.092886396 -0.17808804
-0.040066484 -0.092810452 -0.17808628
-0.040065713 -0.092729248 -0.17805043
-0.0400653 -0.092650175 -0.17800862
-0.040063381 -0.092572406 -0.17799883
-0.040061325 -0.092496544 -0.17799306
-0.040059369 -0.092420727 -0.17798531
-0.040057022 -0.092344739 -0.17798553
-0.04005352 -0.092272177 -0.17801183
-0.040051173 -0.092196196 -0.17801207
-0.040049314 -0.092120424 -0.1780023
-0.040047687 -0.092042781 -0.17798652
-0.040045671 -0.091964968 -0.17797872
-0.04004309 -0.091890842 -0.17798498
-0.040040646 -0.091814816 -0.17798722
-0.040038783 -0.091739044 -0.17797747
-0.040036827 -0.091663226 -0.17796969
-0.040034812 -0.091585413 -0.1779619
-0.040032852 -0.091509596 -0.17795415
-0.040030308 -0.091433518 -0.17795837
-0.040027436 -0.091359265 -0.17797063
-0.040024757 -0.091285102 -0.1779789
-0.040022213 -0.091209024 -0.17798313
-0.040023863 -0.091124959 -0.17789525
-0.040022667 -0.091045536 -0.17786944
-0.040020183 -0.090971455 -0.1778737
-0.04001803 -0.090895548 -0.17786995
-0.04001588 -0.090819649 -0.17786618
-0.040013529 -0.090743661 -0.17786641
-0.040011279 -0.090667717 -0.17786464
-0.040008835 -0.090591684 -0.17786688
-0.040005825 -0.090519339 -0.17788318
-0.040003084 -0.090443179 -0.1778914
-0.040000934 -0.090367272 -0.17788763
-0.039999072 -0.0902915 -0.17787787
-0.039997254 -0.090213776 -0.17786609
-0.039995197 -0.090137914 -0.17786032
-0.03999275 -0.090061881 -0.17786255
-0.039990366 -0.089987844 -0.17786482
-0.03998825 -0.089909993 -0.17785902
-0.039985865 -0.089835957 -0.1778613
-0.039983712 -0.08976005 -0.17785755
-0.039984681 -0.08967568 -0.17778364
-0.03998331 -0.089600131 -0.17776391
-0.039981097 -0.089522228 -0.17776009
-0.03997881 -0.089448236 -0.17776038
-0.03997656 -0.089372285 -0.1777586
-0.03997431 -0.089296341 -0.17775685
-0.039972976 -0.089218833 -0.17773506
-0.039971057 -0.089141063 -0.17772526
-0.039968766 -0.089067072 -0.17772554
-0.039966516 -0.088991128 -0.17772377
-0.039964892 -0.088913485 -0.17770797
-0.039963655 -0.088836014 -0.17768422
-0.039961502 -0.088760115 -0.17768043
-0.039959058 -0.088684082 -0.17768267
-0.039956965 -0.08861018 -0.17767897
-0.039954517 -0.088534147 -0.17768118
-0.039951976 -0.088458069 -0.17768541
-0.039949823 -0.08838217 -0.17768165
-0.039947435 -0.088308133 -0.17768392
-0.039944895 -0.088232055 -0.17768815
-0.03994235 -0.088155977 -0.17769238
-0.039939865 -0.088081896 -0.17769665
-0.039937809 -0.088006042 -0.17769089
-0.039936282 -0.087928444 -0.1776731
-0.039934617 -0.087852761 -0.17765936
-0.039933089 -0.087775163 -0.17764157
-0.039930839 -0.08769922 -0.17763981
-0.039928198 -0.087623097 -0.17764601
-0.039926142 -0.087547235 -0.17764026
-0.039924048 -0.087473333 -0.17763656
-0.03992141 -0.087397218 -0.17764278
-0.039919257 -0.087321311 -0.17763901
-0.039917298 -0.087245494 -0.17763126
-0.039914854 -0.087169461 -0.17763349
-0.039912172 -0.087095298 -0.17764175
-0.039909728 -0.087019265 -0.17764398
-0.039907243 -0.086945184 -0.17764825
-0.039904602 -0.086869061 -0.17765447
-0.039902449 -0.086793162 -0.17765072
-0.039900199 -0.086717218 -0.17764896
-0.039897718 -0.086643137 -0.17765322
-0.039894976 -0.08656697 -0.17766145
-0.039893117 -0.086491197 -0.17765169
-0.039891589 -0.086413607 -0.17763391
-0.039890021 -0.086337961 -0.17761816
-0.039888591 -0.086260408 -0.17759839
-0.039886635 -0.086184591 -0.17759062
-0.039883956 -0.086110428 -0.17759889
-0.039881214 -0.086034268 -0.1776071
-0.039878927 -0.085960276 -0.17760739
-0.039877106 -0.085882545 -0.17759559
-0.039874524 -0.085808426 -0.17760186
-0.039871164 -0.085733958 -0.17762411
-0.039868813 -0.085657969 -0.17762434
-0.039867245 -0.085582323 -0.17760859
-0.03986562 -0.085504681 -0.17759278
-0.039863136 -0.085430607 -0.17759708
-0.039860398 -0.08535444 -0.1776053
-0.03985811 -0.085280448 -0.17760557
-0.03985586 -0.085204504 -0.17760381
-0.03985361 -0.085128561 -0.17760204
-0.039851457 -0.085052654 -0.17759827
-0.03984911 -0.084976666 -0.17759851
-0.039846722 -0.084902629 -0.17760079
-0.039845094 -0.084824994 -0.17758501
-0.039844874 -0.084746003 -0.1775392
-0.039844424 -0.08466889 -0.17749944
-0.039842855 -0.084593244 -0.17748369
-0.039839882 -0.084518954 -0.17749795
-0.039837435 -0.084442914 -0.17750019
-0.039835479 -0.084367104 -0.17749242
-0.039832838 -0.084290981 -0.17749865
-0.039830256 -0.084216863 -0.17750493
-0.039828204 -0.084141001 -0.17749918
-0.039825756 -0.084064968 -0.1775014
-0.0398237 -0.083989106 -0.17749563
-0.039822038 -0.083913423 -0.17748189
-0.039820373 -0.08383774 -0.17746815
-0.039818846 -0.083760142 -0.17745036
-0.03981718 -0.083684459 -0.17743661
-0.039815027 -0.083608553 -0.17743284
-0.039812777 -0.083532609 -0.17743108
-0.039810527 -0.083456665 -0.1774293
-0.039808236 -0.083382666 -0.17742959
-0.039805986 -0.083306722 -0.17742783
-0.039804421 -0.083231084 -0.17741209
-0.03980469 -0.083152317 -0.1773563
