# .PCD v0.7 - Point Cloud Data file format
VERSION 0.7
FIELDS x y z
SIZE 4 4 4
TYPE F F F
COUNT 1 1 1
WIDTH 1269
HEIGHT 1
VIEWPOINT 0 0 0 1 0 0 0
POINTS 1269
DATA ascii
-0.032892574 -0.058222346 -0.17633262
-0.032894932 -0.058298334 -0.17633238
-0.032896742 -0.05837211 -0.17634209
-0.032899156 -0.058450099 -0.17634189
-0.032902002 -0.058526304 -0.17633165
-0.032904457 -0.058602337 -0.17632942
-0.0329073 -0.058678541 -0.17631918
-0.032909952 -0.05875466 -0.17631297
-0.032911818 -0.058830433 -0.1763227
-0.032913826 -0.058904294 -0.17632842
-0.03291579 -0.058980111 -0.17633615
-0.032917798 -0.059053972 -0.17634186
-0.032920152 -0.059129961 -0.17634162
-0.032922413 -0.059205908 -0.17634338
-0.032925352 -0.059282158 -0.17633116
-0.032928396 -0.059358448 -0.17631693
-0.032930359 -0.059434265 -0.1763247
-0.032932267 -0.059508082 -0.17633238
-0.03293537 -0.059586376 -0.17631821
-0.0329387 -0.059662797 -0.17629799
-0.032941252 -0.059738874 -0.17629376
-0.032943122 -0.059814647 -0.17630351
-0.032945421 -0.059888635 -0.17630322
-0.032947678 -0.059964582 -0.17630498
-0.032949742 -0.06004044 -0.17631073
-0.032952394 -0.060116559 -0.1763045
-0.032956369 -0.060195241 -0.17627235
-0.032960095 -0.060271837 -0.17624415
-0.032962743 -0.060347956 -0.17623791
-0.032965295 -0.060424034 -0.17623368
-0.03296775 -0.060500063 -0.17623144
-0.032970205 -0.060576096 -0.17622921
-0.03297266 -0.060652129 -0.17622697
-0.032974921 -0.060728077 -0.17622873
-0.03297741 -0.060802154 -0.17622444
-0.032980803 -0.060880575 -0.17620428
-0.032985173 -0.060959429 -0.17616415
-0.032988992 -0.061036065 -0.17613393
-0.032992095 -0.061114356 -0.17611977
-0.03299439 -0.061188348 -0.17611948
-0.032997102 -0.061266467 -0.17611329
-0.032999396 -0.061340459 -0.17611301
-0.033001207 -0.061414231 -0.17612271
-0.033003915 -0.06149235 -0.17611653
-0.033008225 -0.061569206 -0.17607635
-0.033011615 -0.061647628 -0.17605618
-0.033013914 -0.061721615 -0.17605588
-0.033016078 -0.061797522 -0.17605963
-0.033018142 -0.06187338 -0.17606539
-0.033021472 -0.061949801 -0.17604518
-0.033025101 -0.062026352 -0.17601898
-0.033027068 -0.062102169 -0.17602673
-0.033028681 -0.062175855 -0.17604041
-0.033030685 -0.06224972 -0.17604612
-0.033032358 -0.062325403 -0.17605986
-0.033034071 -0.062399134 -0.17607155
-0.03303672 -0.062475257 -0.17606533
-0.033041578 -0.06255433 -0.1760152
-0.033046041 -0.062633224 -0.17597306
-0.033050645 -0.062710211 -0.17592689
-0.033054136 -0.062788673 -0.17590472
-0.033056822 -0.062862836 -0.17589647
-0.033059765 -0.062939085 -0.17588423
-0.033061925 -0.063014984 -0.17588797
-0.033064418 -0.063089065 -0.17588371
-0.033067167 -0.063165225 -0.17587547
-0.033069719 -0.063241303 -0.17587124
-0.033072952 -0.063317679 -0.17585301
-0.033077713 -0.063396707 -0.1758049
-0.033080656 -0.063472956 -0.17579266
-0.033083986 -0.063549384 -0.17577247
-0.033087514 -0.063625887 -0.17574826
-0.033090655 -0.063702226 -0.17573205
-0.03309311 -0.063778259 -0.17572981
-0.033095796 -0.063852422 -0.17572153
-0.033098739 -0.063928671 -0.17570931
-0.033105411 -0.064010516 -0.17562327
-0.033110596 -0.064087763 -0.17556512
-0.033114187 -0.06416627 -0.17554095
-0.033117265 -0.064240605 -0.1755247
-0.033120401 -0.064316943 -0.17550847
-0.03312403 -0.064393498 -0.17548227
-0.033127751 -0.06447009 -0.17545408
-0.033130497 -0.064546257 -0.17544585
-0.03313309 -0.064620376 -0.17543957
-0.033136129 -0.06469667 -0.17542535
-0.033138875 -0.064772829 -0.17541713
-0.033141758 -0.064847082 -0.17540485
-0.033146616 -0.064926147 -0.17535472
-0.033151958 -0.065005437 -0.17529461
-0.033154648 -0.0650796 -0.17528635
-0.033156909 -0.065155551 -0.17528811
-0.033159889 -0.065229841 -0.17527384
-0.03316322 -0.065306261 -0.17525363
-0.0331662 -0.065380558 -0.17523935
-0.03316924 -0.065456852 -0.17522514
-0.03317238 -0.065533184 -0.17520891
-0.033175651 -0.065607607 -0.17518866
-0.033178594 -0.065683857 -0.17517643
-0.033182025 -0.065760322 -0.17515422
-0.033186335 -0.065837182 -0.17511404
-0.033189118 -0.065911382 -0.17510377
-0.03319177 -0.065987505 -0.17509753
-0.033194263 -0.066061586 -0.17509326
-0.033196658 -0.066135615 -0.17509097
-0.033199012 -0.066211604 -0.17509073
-0.033200532 -0.066285253 -0.17510642
-0.03320156 -0.066358678 -0.1751321
-0.033203173 -0.066432364 -0.17514578
-0.033204984 -0.06650614 -0.17515549
-0.033206403 -0.066579744 -0.17517318
-0.033207137 -0.066653043 -0.17520484
-0.033206448 -0.066723734 -0.17526442
-0.03320504 -0.066796079 -0.17534003
-0.033205226 -0.066867165 -0.17538163
-0.033204205 -0.066939682 -0.17544925
-0.033195101 -0.067002699 -0.17567849
-0.032913364 -0.066881672 -0.18144636
-0.032913867 -0.06695684 -0.18148407
-0.033105645 -0.087420739 -0.19060937
-0.033109389 -0.087501287 -0.19058326
-0.033217158 -0.087472171 -0.18832867
-0.033219401 -0.08755403 -0.18833455
-0.03322174 -0.087635927 -0.18833846
-0.033223595 -0.087717608 -0.18835233
-0.033281662 -0.087698005 -0.18713501
-0.033285446 -0.087776601 -0.18710685
-0.03328985 -0.087853499 -0.18706468
-0.033295076 -0.087928787 -0.18700448
-0.033298802 -0.088005379 -0.18697627
-0.033302192 -0.088083804 -0.18695611
-0.033305779 -0.08816231 -0.18693194
-0.033309564 -0.088240907 -0.18690379
-0.03331276 -0.088319242 -0.18688762
-0.033315528 -0.088399358 -0.18688148
-0.033318102 -0.088479385 -0.18687934
-0.033320677 -0.088559419 -0.18687719
-0.03332331 -0.088641442 -0.18687509
-0.033325493 -0.088721298 -0.18688093
-0.033327539 -0.088803068 -0.18689081
-0.033329625 -0.088882886 -0.18689866
-0.033332102 -0.088962868 -0.1868985
-0.033334345 -0.08904472 -0.1869044
-0.033336487 -0.089126535 -0.18691228
-0.033339061 -0.089206561 -0.18691014
-0.033341929 -0.08928673 -0.186902
-0.033344209 -0.089366622 -0.18690585
-0.033345632 -0.089450091 -0.18692976
-0.033347093 -0.0895316 -0.18695162
-0.033349141 -0.089613363 -0.18696152
-0.03335119 -0.089695141 -0.1869714
-0.033353567 -0.089775078 -0.18697324
-0.033357058 -0.08985354 -0.18695107
-0.033358909 -0.089935228 -0.18696496
-0.033359747 -0.090018429 -0.18700084
-0.03336117 -0.090101898 -0.18702477
-0.033362925 -0.090183534 -0.18704063
-0.033364974 -0.090265304 -0.18705052
-0.0333662 -0.090348676 -0.18707842
-0.033366941 -0.090431839 -0.18711632
-0.033368852 -0.090515524 -0.18713024
-0.033371329 -0.090595506 -0.18713009
-0.033372946 -0.090679057 -0.18715
-0.033374701 -0.0907607 -0.18716589
-0.033376984 -0.090840593 -0.18716973
-0.033378992 -0.090924323 -0.18718165
-0.03338065 -0.091005914 -0.18719953
-0.033382695 -0.091087684 -0.18720941
-0.033384841 -0.091169499 -0.1872173
-0.033387024 -0.091249354 -0.18722314
-0.033389561 -0.09133134 -0.18722305
-0.033392034 -0.09141133 -0.1872229
-0.033394609 -0.091491356 -0.18722075
-0.033397183 -0.091571391 -0.18721861
-0.033399425 -0.091653243 -0.18722449
-0.033401277 -0.091734923 -0.18723837
-0.033403326 -0.091816694 -0.18724826
-0.033405237 -0.091900371 -0.18726218
-0.033406794 -0.091981925 -0.18728206
-0.033408217 -0.092065394 -0.18730596
-0.033409838 -0.092148937 -0.18732587
-0.033412021 -0.0922288 -0.18733171
-0.033414558 -0.092310779 -0.18733162
-0.033417128 -0.092390813 -0.18732947
-0.033419702 -0.09247084 -0.18732733
-0.033421848 -0.092552654 -0.18733521
-0.033423897 -0.092634425 -0.18734509
-0.033426665 -0.092714541 -0.18733895
-0.03342957 -0.092792742 -0.18732879
-0.03343191 -0.092874646 -0.18733266
-0.033433761 -0.092956319 -0.18734655
-0.033435907 -0.093038134 -0.18735445
-0.033437952 -0.093119904 -0.18736431
-0.033440292 -0.093201801 -0.18736821
-0.033442475 -0.093281657 -0.18737406
-0.033445012 -0.093363643 -0.18737395
-0.033447683 -0.093443722 -0.18736979
-0.033449925 -0.093525574 -0.18737569
-0.033451777 -0.093607254 -0.18738958
-0.033453103 -0.093690678 -0.18741548
-0.033455014 -0.093774356 -0.18742941
-0.033457883 -0.093854517 -0.18742126
-0.033460747 -0.093934678 -0.18741313
-0.033463322 -0.094014704 -0.18741098
-0.033465993 -0.094094783 -0.18740684
-0.033468567 -0.09417481 -0.18740469
-0.033470906 -0.094256707 -0.1874086
-0.033472855 -0.094338432 -0.18742049
-0.033474475 -0.094421983 -0.1874404
-0.033476621 -0.094503798 -0.18744828
-0.033478998 -0.094583735 -0.18745013
-0.033481531 -0.094665721 -0.18745002
-0.033483911 -0.094745666 -0.18745188
-0.033486016 -0.094829433 -0.18746179
-0.033488102 -0.094909251 -0.18746965
-0.033490211 -0.094993018 -0.18747957
-0.033491768 -0.095074564 -0.18749943
-0.033493351 -0.095160075 -0.1875214
-0.033495631 -0.095239975 -0.18752524
-0.033497542 -0.095323652 -0.18753918
-0.033499163 -0.095407203 -0.1875591
-0.033502162 -0.095485449 -0.18754691
-0.033505224 -0.095565699 -0.18753478
-0.033508129 -0.0956439 -0.1875246
-0.033510704 -0.095723934 -0.18752246
-0.033512518 -0.095807567 -0.18753839
-0.033514563 -0.095889337 -0.18754826
-0.033517431 -0.095969498 -0.18754013
-0.033519965 -0.096051484 -0.18754002
-0.033522014 -0.096133254 -0.18754992
-0.033524353 -0.096215151 -0.18755379
-0.033526734 -0.096295096 -0.18755564
-0.033529401 -0.096375167 -0.1875515
-0.033532076 -0.096455239 -0.18754736
-0.03296566 -0.046717152 -0.17643644
-0.032969017 -0.046797529 -0.17641833
-0.032971665 -0.046873644 -0.17641208
-0.032974023 -0.046949632 -0.17641185
-0.032975636 -0.047023322 -0.17642555
-0.032976411 -0.047094665 -0.17645517
-0.032977827 -0.047168266 -0.17647286
-0.032979835 -0.047242127 -0.17647856
-0.032982543 -0.047320247 -0.17647237
-0.032985095 -0.047396321 -0.17646813
-0.032987803 -0.047474436 -0.17646195
-0.032989811 -0.047548302 -0.17646766
-0.032991972 -0.047624201 -0.17647141
-0.03299433 -0.047700189 -0.17647117
-0.032997977 -0.0477807 -0.17644706
-0.033000331 -0.047856688 -0.17644683
-0.033002689 -0.047932677 -0.17644657
-0.033005048 -0.048008665 -0.17644635
-0.033007208 -0.048084568 -0.17645009
-0.033010505 -0.048162945 -0.17643192
-0.033015538 -0.048248012 -0.17638195
-0.03301809 -0.048324086 -0.1763777
-0.033021092 -0.048402339 -0.17636552
-0.033025581 -0.04848519 -0.17632549
-0.033028778 -0.048563521 -0.17630932
-0.033030648 -0.048639294 -0.17631906
-0.033031713 -0.048710767 -0.1763427
-0.033033229 -0.048784412 -0.17635839
-0.033035234 -0.048858274 -0.17636409
-0.033037398 -0.048934177 -0.17636785
-0.033039462 -0.049010035 -0.1763736
-0.033039689 -0.049079165 -0.17641315
-0.033041947 -0.049155109 -0.17641491
-0.033044696 -0.049231268 -0.17640668
-0.033047404 -0.049309388 -0.1764005
-0.033049956 -0.049385466 -0.17639627
-0.033051826 -0.049461238 -0.17640601
-0.033053283 -0.049532883 -0.17642166
-0.033054702 -0.049606483 -0.17643934
-0.033057507 -0.049684647 -0.17643115
-0.033062935 -0.049769886 -0.17637318
-0.033066582 -0.049850389 -0.17634907
-0.033069424 -0.049926598 -0.17633885
-0.03307233 -0.050004803 -0.17632866
-0.033075139 -0.050082963 -0.17632049
-0.033077337 -0.05015691 -0.17632219
-0.033079207 -0.050232682 -0.17633194
-0.033081759 -0.050308757 -0.17632771
-0.033085052 -0.050387137 -0.17630954
-0.033087313 -0.050463084 -0.1763113
-0.033088733 -0.050536685 -0.17632899
-0.033090346 -0.050610371 -0.17634267
-0.033092253 -0.050684191 -0.17635038
-0.03309451 -0.050760135 -0.17635214
-0.033097029 -0.050838165 -0.17634995
-0.033098835 -0.050911941 -0.17635965
-0.033101097 -0.050987888 -0.17636141
-0.033103745 -0.051064007 -0.17635518
-0.033106394 -0.051140126 -0.17634894
-0.033108264 -0.051215898 -0.17635868
-0.033109587 -0.051289458 -0.17637837
-0.033112589 -0.051367704 -0.1763662
-0.033116724 -0.051448427 -0.17633209
-0.033119373 -0.05152455 -0.17632586
-0.033122472 -0.051602837 -0.1763117
-0.03312612 -0.051683344 -0.17628758
-0.033128574 -0.051759377 -0.17628533
-0.033130933 -0.051835366 -0.1762851
-0.033132937 -0.051909223 -0.1762908
-0.033134706 -0.051984958 -0.17630255
-0.033136614 -0.052058771 -0.17631024
-0.033138778 -0.052134678 -0.176314
-0.033140782 -0.052208535 -0.1763197
-0.033143237 -0.052284569 -0.17631745
-0.033146042 -0.052362733 -0.17630929
-0.033148792 -0.052438892 -0.17630106
-0.033150952 -0.052514799 -0.17630482
-0.033152469 -0.05258844 -0.17632049
-0.033153791 -0.052662 -0.17634019
-0.033155307 -0.052735642 -0.17635587
-0.03315692 -0.052809332 -0.17636958
-0.033158887 -0.052885145 -0.17637733
-0.033161927 -0.052961439 -0.17636311
-0.033165772 -0.053042032 -0.17633498
-0.033168674 -0.053120233 -0.17632481
-0.033171717 -0.053196527 -0.1763106
-0.033173781 -0.053272389 -0.17631635
-0.033175003 -0.053345904 -0.17633802
-0.033176519 -0.053419549 -0.17635372
-0.033178583 -0.053495407 -0.17635947
-0.03318049 -0.05356922 -0.17636716
-0.03318236 -0.053645 -0.17637691
-0.033184268 -0.053718813 -0.17638463
-0.033185881 -0.053792499 -0.17639831
-0.033188239 -0.053868491 -0.17639807
-0.033190694 -0.053944524 -0.17639583
-0.033192758 -0.054020382 -0.17640159
-0.033194762 -0.054094248 -0.17640728
-0.033196926 -0.054170147 -0.17641103
-0.03319899 -0.054246008 -0.17641678
-0.033200506 -0.05431965 -0.17643248
-0.033202022 -0.054393299 -0.17644817
-0.033203442 -0.054466896 -0.17646587
-0.033205152 -0.05454063 -0.17647755
-0.033209641 -0.054623477 -0.17643753
-0.033214457 -0.054704506 -0.17638943
-0.033216719 -0.054780453 -0.17639118
-0.03321898 -0.054856397 -0.17639294
-0.033221532 -0.054932475 -0.17638871
-0.03322418 -0.055008594 -0.17638248
-0.033226635 -0.055084623 -0.17638025
-0.033229049 -0.055162612 -0.17638005
-0.033231702 -0.055238731 -0.17637382
-0.033234838 -0.055315066 -0.1763576
-0.033237003 -0.055390969 -0.17636135
-0.033238519 -0.055464618 -0.17637704
-0.033240583 -0.055540472 -0.17638279
-0.033243135 -0.05561655 -0.17637858
-0.03324559 -0.055692583 -0.17637631
-0.033247653 -0.055768445 -0.17638208
-0.033249814 -0.055844344 -0.17638582
-0.033251721 -0.055918165 -0.17639354
-0.033253334 -0.055991851 -0.17640722
-0.033255499 -0.056067754 -0.17641097
-0.033258989 -0.056146219 -0.17638882
-0.033263415 -0.056227073 -0.17634872
-0.033266712 -0.056305446 -0.17633057
-0.033269458 -0.056381613 -0.17632234
-0.033271462 -0.056455471 -0.17632803
-0.033274367 -0.056533676 -0.17631786
-0.033277661 -0.056612052 -0.17629969
-0.033280119 -0.056688085 -0.17629746
-0.033282027 -0.056761906 -0.17630515
-0.033284381 -0.056837894 -0.17630491
-0.033286933 -0.056913972 -0.17630067
-0.033289682 -0.056990132 -0.17629245
-0.033292137 -0.057066165 -0.17629021
-0.033293456 -0.057139724 -0.17630988
-0.033294681 -0.057213239 -0.17633158
-0.03329733 -0.057289355 -0.17632535
-0.033300079 -0.057365518 -0.17631713
-0.033302434 -0.05744151 -0.17631687
-0.033304695 -0.057517454 -0.17631863
-0.033306759 -0.057593316 -0.1763244
-0.033308372 -0.057667002 -0.17633808
-0.033310436 -0.05774286 -0.17634383
-0.033313282 -0.057819068 -0.17633361
-0.033316676 -0.057897486 -0.17631343
-0.033318192 -0.057971131 -0.17632912
-0.033319611 -0.058044732 -0.17634681
-0.033321518 -0.058118552 -0.17635453
-0.03332413 -0.058196627 -0.17635033
-0.033327363 -0.058273003 -0.17633212
-0.033330016 -0.058349125 -0.17632589
-0.033331983 -0.058424942 -0.17633364
-0.033333302 -0.058498498 -0.17635332
-0.033335757 -0.058574531 -0.17635107
-0.033338994 -0.058650911 -0.17633286
-0.033341996 -0.058729157 -0.17632069
-0.03334406 -0.058805019 -0.17632644
-0.033345871 -0.058878791 -0.17633614
-0.033347934 -0.058954649 -0.17634189
-0.033350036 -0.059028555 -0.1763456
-0.033352394 -0.059104547 -0.17634535
-0.033355236 -0.059180751 -0.17633513
-0.033358924 -0.059259303 -0.17630897
-0.033361476 -0.059335377 -0.17630474
-0.033362798 -0.059408933 -0.17632443
-0.033365447 -0.059485056 -0.1763182
-0.033369228 -0.059563648 -0.17629004
-0.033372466 -0.059640028 -0.17627183
-0.033374727 -0.059715971 -0.17627358
-0.033377081 -0.05979196 -0.17627335
-0.033379477 -0.059865996 -0.17627105
-0.033381637 -0.059941899 -0.17627481
-0.033383448 -0.060015675 -0.17628451
-0.033385806 -0.060091663 -0.17628427
-0.033388261 -0.060167696 -0.17628203
-0.033391751 -0.060246162 -0.17625988
-0.033395182 -0.060322627 -0.17623766
-0.033398125 -0.060398877 -0.17622544
-0.03340048 -0.060474865 -0.17622519
-0.033402741 -0.060550809 -0.17622694
-0.033405293 -0.060626887 -0.17622273
-0.033407748 -0.06070292 -0.17622048
-0.033410337 -0.060777038 -0.1762142
-0.033414669 -0.060857847 -0.17617612
-0.033419035 -0.060936704 -0.17613599
-0.03342237 -0.061013125 -0.17611575
-0.033425018 -0.061089244 -0.17610952
-0.033427473 -0.061165277 -0.17610729
-0.033430025 -0.061241351 -0.17610306
-0.033432618 -0.061315473 -0.17609678
-0.033435363 -0.061391637 -0.17608856
-0.033437528 -0.06146754 -0.1760923
-0.033439532 -0.061541401 -0.17609802
-0.033442143 -0.061619475 -0.17609383
-0.033444341 -0.061693422 -0.17609555
-0.033447187 -0.061769627 -0.17608531
-0.033450425 -0.061846007 -0.1760671
-0.033452876 -0.06192204 -0.17606486
-0.03345494 -0.061997898 -0.17607062
-0.033457141 -0.062071845 -0.17607233
-0.03345979 -0.062147968 -0.17606609
-0.033462636 -0.062224172 -0.17605586
-0.033464544 -0.062297989 -0.17606357
-0.033466607 -0.06237385 -0.17606932
-0.033469647 -0.062450141 -0.1760551
-0.033475287 -0.062529556 -0.175989
-0.033479363 -0.062608279 -0.17595485
-0.033482499 -0.062684618 -0.17593864
-0.033486515 -0.062761344 -0.17590445
-0.033489656 -0.062837675 -0.17588823
-0.033492111 -0.062913708 -0.17588598
-0.033494465 -0.062989704 -0.17588574
-0.033496764 -0.063063696 -0.17588547
-0.033499021 -0.06313964 -0.17588721
-0.033501711 -0.063213803 -0.17587894
-0.033505395 -0.063292354 -0.17585278
-0.033510547 -0.063371554 -0.17579666
-0.033514366 -0.063448191 -0.17576647
-0.033517506 -0.063524529 -0.17575026
-0.033519961 -0.063600563 -0.17574802
-0.033522256 -0.063674554 -0.17574772
-0.033525005 -0.063750714 -0.1757395
-0.033527497 -0.063824788 -0.17573522
-0.033530246 -0.063900955 -0.17572698
-0.033535201 -0.063980065 -0.17567486
-0.033542007 -0.064060003 -0.17558479
-0.033547256 -0.064139247 -0.17552669
-0.033550881 -0.064215802 -0.17550048
-0.033553727 -0.064292006 -0.17549026
-0.033556864 -0.064368337 -0.17547405
-0.033560101 -0.064444721 -0.17545584
-0.033563238 -0.064521059 -0.17543961
-0.033565439 -0.064595006 -0.17544132
-0.033567503 -0.064670861 -0.17544708
-0.033571266 -0.064745501 -0.17541683
-0.033575084 -0.064822145 -0.17538664
-0.033578672 -0.064900652 -0.17536247
-0.033583079 -0.064977549 -0.1753203
-0.03358651 -0.065054014 -0.17529809
-0.03358959 -0.065128349 -0.17528182
-0.033592727 -0.065204687 -0.17526561
-0.033595864 -0.065281019 -0.1752494
-0.033598457 -0.065355144 -0.17524311
-0.033601008 -0.065431222 -0.17523888
-0.033603892 -0.065505467 -0.1752266
-0.033606678 -0.065579675 -0.17521633
-0.033610303 -0.06565623 -0.17519012
-0.03361471 -0.065733127 -0.17514795
-0.033618335 -0.065809682 -0.17512175
-0.033621669 -0.065886103 -0.17510155
-0.033624455 -0.06596031 -0.17509127
-0.033627298 -0.066036515 -0.17508104
-0.033629596 -0.066110507 -0.17508075
-0.033631697 -0.066184409 -0.17508446
-0.033633899 -0.066258356 -0.17508617
-0.033635221 -0.066331916 -0.17510587
-0.0336366 -0.066407472 -0.17512558
-0.033638254 -0.066479206 -0.17513725
-0.033639148 -0.066554546 -0.17516696
-0.033639628 -0.066625759 -0.17520258
-0.033639483 -0.066698663 -0.17525221
-0.033638306 -0.066769145 -0.17532177
-0.033637967 -0.066841967 -0.17537543
-0.033637181 -0.066912614 -0.175437
-0.033556528 -0.086924337 -0.18992294
-0.033563975 -0.086996667 -0.18981472
-0.033570863 -0.087072693 -0.18972057
-0.03357802 -0.087144896 -0.18961832
-0.033582717 -0.08722192 -0.18957016
-0.033585448 -0.087303996 -0.18956608
-0.033586774 -0.087387413 -0.18959197
-0.033587575 -0.087472573 -0.18962991
-0.033714142 -0.087666765 -0.18712872
-0.033718221 -0.087745495 -0.18709457
-0.033721514 -0.087823868 -0.18707642
-0.033725005 -0.087902337 -0.18705425
-0.033729315 -0.08797919 -0.18701407
-0.033733524 -0.088055998 -0.18697588
-0.033737637 -0.088132769 -0.18693969
-0.033741325 -0.08821132 -0.18691352
-0.033744521 -0.088289656 -0.18689737
-0.03374739 -0.088369817 -0.18688923
-0.033750061 -0.088449888 -0.18688509
-0.033752438 -0.088529833 -0.18688694
-0.033755071 -0.088611856 -0.18688484
-0.033757545 -0.088691846 -0.18688469
-0.033759438 -0.088771574 -0.18689652
-0.033761252 -0.088855207 -0.18691245
-0.033763725 -0.088935196 -0.1869123
-0.033766497 -0.089015312 -0.18690616
-0.033768874 -0.089095257 -0.18690801
-0.03377096 -0.089175075 -0.18691584
-0.033773005 -0.089256838 -0.18692574
-0.033774957 -0.089338563 -0.18693762
-0.033776905 -0.089420289 -0.18694949
-0.033778466 -0.089501843 -0.18696937
-0.033780415 -0.089583568 -0.18698123
-0.033782754 -0.089665465 -0.18698514
-0.033784937 -0.089745328 -0.18699098
-0.033786889 -0.089827046 -0.18700287
-0.033788837 -0.089908779 -0.18701474
-0.03379108 -0.089990631 -0.18702063
-0.033793226 -0.090072438 -0.18702851
-0.033795077 -0.090154126 -0.1870424
-0.033796538 -0.090235628 -0.18706426
-0.033797964 -0.090319097 -0.18708818
-0.033799291 -0.090402514 -0.18711409
-0.033800419 -0.090485848 -0.18714398
-0.033802368 -0.090567574 -0.18715587
-0.033804942 -0.090647608 -0.18715373
-0.033806365 -0.090731069 -0.18717763
-0.033807691 -0.090814494 -0.18720354
-0.033810072 -0.090894431 -0.18720539
-0.033812508 -0.090976372 -0.18720728
-0.033814885 -0.091056317 -0.18720913
-0.033816934 -0.091138087 -0.18721902
-0.033818983 -0.091219857 -0.1872289
-0.033820834 -0.091301538 -0.18724278
-0.033823173 -0.091383442 -0.18724668
-0.033825941 -0.091463551 -0.18724054
-0.033828419 -0.09154354 -0.18724039
-0.033830367 -0.091625266 -0.18725225
-0.033832707 -0.091707163 -0.18725616
-0.03383489 -0.091787025 -0.187262
-0.033837035 -0.091868833 -0.1872699
-0.033839181 -0.09195064 -0.18727778
-0.033841033 -0.092032328 -0.18729165
-0.033843275 -0.09211418 -0.18729755
-0.033845849 -0.092194214 -0.18729541
-0.033848189 -0.092276111 -0.18729928
-0.03385004 -0.092357792 -0.18731317
-0.033851992 -0.092439517 -0.18732506
-0.033854235 -0.092521369 -0.18733095
-0.033856377 -0.092603184 -0.18733883
-0.033858329 -0.09268491 -0.18735072
-0.033860181 -0.092766598 -0.18736459
-0.03386252 -0.092848495 -0.18736848
-0.033865094 -0.092928521 -0.18736634
-0.033867862 -0.093008637 -0.1873602
-0.033870339 -0.093088627 -0.18736005
-0.033872679 -0.093170524 -0.18736395
-0.033874627 -0.093252249 -0.18737583
-0.03387687 -0.093334101 -0.18738171
-0.033879153 -0.093414001 -0.18738556
-0.033881065 -0.093497679 -0.18739949
-0.033882916 -0.093579367 -0.18741336
-0.033885062 -0.093661174 -0.18742126
-0.033887535 -0.093741164 -0.18742111
-0.033890598 -0.093821406 -0.18740897
-0.033893134 -0.093903393 -0.18740888
-0.03389512 -0.093983166 -0.1874187
-0.033897266 -0.094064981 -0.1874266
-0.033899277 -0.094148703 -0.18743852
-0.033901945 -0.094228774 -0.18743438
-0.033904716 -0.09430889 -0.18742825
-0.033906899 -0.094388746 -0.18743409
-0.033909142 -0.094470605 -0.18743998
-0.033911385 -0.094552457 -0.18744588
-0.033913296 -0.094636142 -0.1874598
-0.033914953 -0.094717734 -0.18747768
-0.033917487 -0.09479972 -0.18747756
-0.033919964 -0.094879709 -0.18747741
-0.033922009 -0.094961479 -0.1874873
-0.033923823 -0.095045112 -0.18750322
-0.033925734 -0.09512879 -0.18751714
-0.033927724 -0.095208563 -0.18752699
-0.033930063 -0.09529046 -0.18753088
-0.033931546 -0.095375925 -0.18755484
-0.033933204 -0.095457524 -0.18757272
-0.033936169 -0.095537722 -0.18756257
-0.033939268 -0.095616013 -0.1875484
-0.033941705 -0.095697954 -0.18755029
-0.033943657 -0.09577968 -0.18756218
-0.033946425 -0.095859796 -0.18755603
-0.03394857 -0.095941611 -0.18756393
-0.033949994 -0.096025072 -0.18758783
-0.033951182 -0.096110404 -0.18761778
-0.033954147 -0.096190609 -0.18760765
-0.033957247 -0.0962689 -0.18759347
-0.033960309 -0.096349142 -0.18758135
-0.033963114 -0.096427307 -0.18757316
-0.033375546 -0.046677038 -0.17654343
-0.033379994 -0.046761844 -0.17650543
-0.033382449 -0.046837874 -0.17650318
-0.033386391 -0.046918511 -0.17647308
-0.033389002 -0.046996586 -0.17646891
-0.033390358 -0.04706819 -0.17648655
-0.033390939 -0.047139443 -0.17652015
-0.033391811 -0.047210835 -0.17654778
-0.033392876 -0.047282305 -0.17657143
-0.033394296 -0.047355905 -0.1765891
-0.0333963 -0.047429767 -0.17659481
-0.033398461 -0.047505669 -0.17659858
-0.033401363 -0.047583874 -0.17658839
-0.03340511 -0.047664423 -0.17656228
-0.033408403 -0.047742799 -0.1765441
-0.033411015 -0.047820874 -0.17653993
-0.033413019 -0.047894735 -0.17654562
-0.033415083 -0.047970593 -0.17655137
-0.033417087 -0.048044458 -0.17655708
-0.033419408 -0.048122402 -0.17655888
-0.033423446 -0.048203081 -0.17652678
-0.033428967 -0.048288364 -0.17646682
-0.033432223 -0.0483687 -0.17645068
-0.03343413 -0.048442513 -0.17645839
-0.033435453 -0.048516072 -0.17647809
-0.03343736 -0.048589889 -0.17648578
-0.033439521 -0.048665792 -0.17648953
-0.033441428 -0.048739612 -0.17649724
-0.033443138 -0.048813343 -0.17650893
-0.033445299 -0.048889242 -0.17651269
-0.033447266 -0.048965059 -0.17652044
-0.033450563 -0.049043436 -0.17650226
-0.033454012 -0.049123857 -0.17648214
-0.033456661 -0.049199976 -0.17647591
-0.033458628 -0.049275793 -0.17648366
-0.03346118 -0.049351871 -0.17647943
-0.033463344 -0.04942777 -0.17648318
-0.033464856 -0.049501415 -0.17649888
-0.033466764 -0.049575236 -0.17650658
-0.033469476 -0.049653351 -0.17650038
-0.03347316 -0.049731903 -0.17647424
-0.033477549 -0.049814709 -0.17643619
-0.033480845 -0.049893089 -0.17641801
-0.033483554 -0.049971208 -0.17641184
-0.033486009 -0.050047241 -0.1764096
-0.03348856 -0.050123315 -0.17640537
-0.033490427 -0.050199088 -0.17641512
-0.03349214 -0.050272819 -0.1764268
-0.033494398 -0.050348766 -0.17642856
-0.033496305 -0.050422583 -0.17643626
-0.033498369 -0.050498441 -0.17644201
-0.03350053 -0.050574347 -0.17644577
-0.033503629 -0.050652638 -0.1764316
-0.033507217 -0.050731145 -0.17640743
-0.033509925 -0.050809264 -0.17640126
-0.033511933 -0.050883122 -0.17640695
-0.033514094 -0.050959021 -0.1764107
-0.033516452 -0.051035013 -0.17641047
-0.033518512 -0.051110875 -0.17641622
-0.033521261 -0.051187038 -0.17640799
-0.033524163 -0.05126524 -0.1763978
-0.033526972 -0.051343404 -0.17638963
-0.033530463 -0.051421866 -0.17636746
-0.033534147 -0.051500417 -0.1763413
-0.033536956 -0.051578578 -0.17633313
-0.033539604 -0.051654696 -0.1763269
-0.033541568 -0.051730514 -0.17633465
-0.033543281 -0.051804245 -0.17634633
-0.033545833 -0.051880319 -0.17634211
-0.033547994 -0.051956221 -0.17634585
-0.033550449 -0.052032255 -0.17634362
-0.03355306 -0.052110329 -0.17633943
-0.033555262 -0.052184276 -0.17634115
-0.033557225 -0.052260093 -0.17634889
-0.03355968 -0.052336127 -0.17634666
-0.033562038 -0.052412115 -0.17634642
-0.033563904 -0.052487887 -0.17635617
-0.033564974 -0.052559361 -0.1763798
-0.033566587 -0.052633047 -0.17639348
-0.033568103 -0.052706696 -0.17640918
-0.033569522 -0.052780293 -0.17642686
-0.033572134 -0.052858368 -0.17642269
-0.033576012 -0.052937008 -0.17639253
-0.033578821 -0.053015169 -0.17638434
-0.033581469 -0.053091288 -0.1763781
-0.033584569 -0.053169578 -0.17636395
-0.033587314 -0.053245742 -0.17635572
-0.033589769 -0.053321771 -0.17635348
-0.033591833 -0.053397633 -0.17635924
-0.033593059 -0.053471148 -0.1763809
-0.033594575 -0.05354479 -0.17639661
-0.033595994 -0.053618394 -0.17641428
-0.033597607 -0.05369208 -0.17642798
-0.033599965 -0.053768069 -0.17642775
-0.033601966 -0.053841934 -0.17643344
-0.033603933 -0.053917747 -0.17644119
-0.033606097 -0.05399365 -0.17644495
-0.033608198 -0.054067552 -0.17644866
-0.033610262 -0.054143414 -0.17645441
-0.033612132 -0.054219186 -0.17646416
-0.033613842 -0.054292917 -0.17647585
-0.0336161 -0.054368865 -0.17647761
-0.033618264 -0.054444768 -0.17648137
-0.033620268 -0.054518625 -0.17648706
-0.033623658 -0.05459705 -0.1764669
-0.033627793 -0.05467777 -0.1764328
-0.033630505 -0.054755889 -0.17642662
-0.033632118 -0.054829575 -0.1764403
-0.033634316 -0.054903526 -0.17644203
-0.033637222 -0.054981731 -0.17643183
-0.033639967 -0.055057891 -0.17642361
-0.033642128 -0.055133794 -0.17642736
-0.033644095 -0.055209607 -0.17643511
-0.033645708 -0.055283301 -0.17644881
-0.033646837 -0.055356771 -0.17647249
-0.033650324 -0.055435233 -0.17645033
-0.033653814 -0.055513699 -0.17642817
-0.033655722 -0.055587515 -0.17643586
-0.033657882 -0.055663422 -0.17643961
-0.033660047 -0.055739321 -0.17644337
-0.033662595 -0.055815399 -0.17643914
-0.033664953 -0.055891387 -0.1764389
-0.033666469 -0.055965032 -0.17645457
-0.03366828 -0.056038804 -0.17646429
-0.033671729 -0.056119226 -0.17644417
-0.033678465 -0.056203075 -0.17635819
-0.033681467 -0.056281321 -0.176346
-0.033683274 -0.056355096 -0.17635572
-0.033685338 -0.056430954 -0.17636147
-0.033687986 -0.056507073 -0.17635524
-0.03368976 -0.056582801 -0.17636698
-0.033690825 -0.056654274 -0.1763906
-0.033692889 -0.056730136 -0.17639637
-0.033695541 -0.056806255 -0.17639013
-0.033698443 -0.05688446 -0.17637995
-0.033700742 -0.056958452 -0.17637965
-0.033702999 -0.057034396 -0.17638141
-0.033705845 -0.0571106 -0.17637119
-0.0337083 -0.057186633 -0.17636895
-0.033710655 -0.057262622 -0.17636871
-0.033712819 -0.057338528 -0.17637247
-0.03371498 -0.057414427 -0.17637622
-0.033717334 -0.05749042 -0.17637599
-0.033720084 -0.057566583 -0.17636776
-0.033722341 -0.057642527 -0.17636952
-0.033724442 -0.057716429 -0.17637321
-0.033726897 -0.057792462 -0.17637098
-0.033729352 -0.057868496 -0.17636874
-0.033731904 -0.057944573 -0.17636451
-0.033734612 -0.058022693 -0.17635833
-0.033736911 -0.058096681 -0.17635804
-0.033739071 -0.058172584 -0.1763618
-0.033741135 -0.058248445 -0.17636755
-0.033743337 -0.058322392 -0.17636925
-0.033745401 -0.05839825 -0.176375
-0.033747014 -0.05847194 -0.1763887
-0.033748884 -0.058547713 -0.17639844
-0.033751823 -0.058623962 -0.17638622
-0.033754475 -0.058700081 -0.17637999
-0.033756636 -0.058775984 -0.17638373
-0.033758603 -0.058851797 -0.17639148
-0.033760704 -0.058925703 -0.17639521
-0.033762671 -0.05900152 -0.17640296
-0.033764772 -0.059075423 -0.17640665
-0.033767775 -0.059153669 -0.17639448
-0.033771008 -0.059230052 -0.17637627
-0.033774011 -0.059308298 -0.17636409
-0.033776954 -0.059384547 -0.17635188
-0.033780187 -0.059460927 -0.17633367
-0.033783287 -0.059539218 -0.17631948
-0.033785783 -0.059613295 -0.17631519
-0.033788234 -0.059689328 -0.17631295
-0.033790007 -0.059765056 -0.1763247
-0.033792205 -0.059839003 -0.17632642
-0.033795208 -0.059917253 -0.17631423
-0.0337977 -0.05999133 -0.17630996
-0.033800058 -0.060067318 -0.1763097
-0.033803448 -0.060145739 -0.17628954
-0.033807173 -0.060222335 -0.17626135
-0.033810176 -0.060300581 -0.17624918
-0.033812825 -0.060376704 -0.17624295
-0.033814926 -0.060450606 -0.17624664
-0.033816598 -0.060526293 -0.17626038
-0.033818703 -0.060600199 -0.17626411
-0.033821158 -0.060676232 -0.17626187
-0.033823807 -0.060752347 -0.17625564
-0.033827394 -0.060830858 -0.17623147
-0.03383141 -0.060907584 -0.17619726
-0.033834353 -0.060983833 -0.17618504
-0.033837255 -0.061062038 -0.17617488
-0.033840198 -0.061138287 -0.17616266
-0.033843141 -0.061214536 -0.17615044
-0.033845596 -0.06129057 -0.17614819
-0.033847794 -0.061364517 -0.1761499
-0.033850737 -0.061440766 -0.17613769
-0.033853095 -0.061516754 -0.17613745
-0.033855353 -0.061592698 -0.17613921
-0.033857904 -0.061668776 -0.17613497
-0.033860106 -0.061742723 -0.17613667
-0.033862267 -0.061818626 -0.17614043
-0.033864722 -0.061894659 -0.17613819
-0.033867665 -0.061970908 -0.17612597
-0.033870704 -0.062047198 -0.17611174
-0.033873197 -0.06212128 -0.17610747
-0.033875261 -0.062197138 -0.17611322
-0.033877458 -0.062271085 -0.17611493
-0.033879817 -0.062347077 -0.17611468
-0.033882856 -0.062423367 -0.17610046
-0.033887714 -0.062502436 -0.17605034
-0.033892669 -0.062581554 -0.17599823
-0.033895317 -0.062657669 -0.17599198
-0.033897869 -0.062733747 -0.17598777
-0.033901591 -0.062810346 -0.17595956
-0.033904731 -0.062886678 -0.17594334
-0.033906892 -0.062962577 -0.1759471
-0.03390919 -0.063036568 -0.1759468
-0.03391213 -0.063112818 -0.17593458
-0.033915073 -0.063189067 -0.17592236
-0.033917919 -0.063265279 -0.17591213
-0.033922032 -0.063342042 -0.17587595
-0.033926107 -0.063420773 -0.17584181
-0.033929538 -0.06349723 -0.17581959
-0.033932678 -0.063573569 -0.17580338
-0.033935267 -0.063647687 -0.17579709
-0.033937819 -0.063723765 -0.17579286
-0.033940762 -0.063800015 -0.17578064
-0.033943508 -0.063876182 -0.17577241
-0.033947233 -0.063952774 -0.17574421
-0.03395414 -0.064032756 -0.17565215
-0.033959288 -0.064111955 -0.17559603
-0.033964045 -0.064190984 -0.1755479
-0.033967771 -0.064267576 -0.1755197
-0.033970617 -0.06434378 -0.17550948
-0.033973012 -0.064417817 -0.17550719
-0.033975661 -0.064493939 -0.17550097
-0.033978641 -0.064568229 -0.17548671
-0.033981934 -0.064646609 -0.17546853
-0.033984914 -0.064720899 -0.17545426
-0.033987567 -0.064797021 -0.17544803
-0.033990998 -0.064873487 -0.17542583
-0.033995207 -0.064950302 -0.17538765
-0.033998735 -0.065026805 -0.17536342
-0.034002364 -0.06510336 -0.17533723
-0.03400505 -0.065177523 -0.17532897
-0.034008089 -0.065253817 -0.17531474
-0.034011558 -0.06532833 -0.1752905
-0.034014598 -0.065404624 -0.17527626
-0.034017932 -0.065481044 -0.17525604
-0.034021851 -0.065557726 -0.17522386
-0.034026645 -0.065634795 -0.1751737
-0.034030467 -0.065711439 -0.1751435
-0.03403306 -0.065785557 -0.17513722
-0.034035902 -0.065861762 -0.17512698
-0.034038689 -0.065935969 -0.17511672
-0.034041338 -0.066012084 -0.17511049
-0.034044027 -0.066086255 -0.1751022
-0.034046322 -0.066160247 -0.17510194
-0.034047741 -0.066233844 -0.17511961
-0.034049258 -0.066307485 -0.17513531
-0.034050677 -0.066381089 -0.17515299
-0.034051899 -0.066454604 -0.17517468
-0.034053281 -0.066530161 -0.17519441
-0.034054346 -0.066601634 -0.17521803
-0.034054108 -0.066674501 -0.17526968
-0.034053572 -0.066747233 -0.1753273
-0.034052979 -0.066817969 -0.17538489
-0.034051605 -0.066888362 -0.17545846
-0.034050096 -0.066960663 -0.17553607
-0.033833649 -0.066825211 -0.17993885
-0.033834934 -0.06690073 -0.17996058
-0.033836998 -0.066976584 -0.17996632
-0.033840001 -0.067054838 -0.17995414
-0.03384212 -0.067132697 -0.17995994
-0.033842467 -0.067205817 -0.17999959
-0.033841994 -0.067280553 -0.18005729
-0.03384142 -0.067355245 -0.18011695
-0.033439111 -0.067157075 -0.18833475
-0.033440709 -0.067236677 -0.18835258
-0.033440843 -0.067315623 -0.18840036
-0.033441558 -0.06739483 -0.18843615
-0.033988845 -0.087040201 -0.18965994
-0.033994131 -0.087117493 -0.18959978
-0.033997484 -0.08719787 -0.18958166
-0.034000155 -0.087277941 -0.18957752
-0.034002263 -0.087361708 -0.18958744
-0.034029879 -0.087480456 -0.18909065
-0.034033 -0.087562703 -0.18907857
-0.034125779 -0.087647244 -0.18720827
-0.034130283 -0.087724186 -0.18716408
-0.034135081 -0.087801255 -0.18711391
-0.034139585 -0.087878197 -0.18706974
-0.034143209 -0.087954752 -0.18704355
-0.03414752 -0.088031605 -0.18700336
-0.034151729 -0.08810842 -0.18696517
-0.034155279 -0.088188879 -0.18694305
-0.034158379 -0.08826717 -0.18692887
-0.034161188 -0.088345334 -0.1869207
-0.034163915 -0.088427402 -0.1869166
-0.034166392 -0.088507392 -0.18691644
-0.034168966 -0.088587418 -0.18691431
-0.034171637 -0.088667497 -0.18691015
-0.034174345 -0.088745609 -0.18690398
-0.034176391 -0.088827379 -0.18691386
-0.034178831 -0.088909321 -0.18691576
-0.034181401 -0.088989355 -0.18691361
-0.034182865 -0.089070864 -0.18693548
-0.034183994 -0.089154199 -0.18696539
-0.034185942 -0.089235924 -0.18697727
-0.034188516 -0.089315951 -0.18697512
-0.034190271 -0.089397594 -0.18699101
-0.034191929 -0.089479186 -0.18700887
-0.034194071 -0.089561 -0.18701676
-0.034196217 -0.089642808 -0.18702465
-0.034198165 -0.089724533 -0.18703653
-0.034200251 -0.089804351 -0.18704438
-0.034202397 -0.089886159 -0.18705225
-0.034204148 -0.089967802 -0.18706813
-0.0342061 -0.09004952 -0.18708001
-0.034208242 -0.090131335 -0.18708791
-0.034209862 -0.090214886 -0.1871078
-0.034210991 -0.090298221 -0.18713772
-0.034212161 -0.090379596 -0.18716557
-0.034213681 -0.090463109 -0.18718749
-0.034216117 -0.090545051 -0.18718939
-0.034218594 -0.090625033 -0.18718924
-0.034220446 -0.090706721 -0.18720311
-0.034221869 -0.090790182 -0.18722704
-0.034223527 -0.090871781 -0.18724489
-0.034225866 -0.090953678 -0.1872488
-0.034228243 -0.091033623 -0.18725064
-0.03422996 -0.091117218 -0.18726856
-0.034231517 -0.091198765 -0.18728843
-0.034233663 -0.09128058 -0.18729632
-0.034235906 -0.091362432 -0.1873022
-0.034238283 -0.091442376 -0.18730405
-0.034241248 -0.091522574 -0.18729392
-0.034244113 -0.091602743 -0.18728578
-0.034246258 -0.09168455 -0.18729368
-0.034248341 -0.091764361 -0.18730152
-0.034250583 -0.09184622 -0.18730742
-0.034252338 -0.091927856 -0.18732329
-0.034254387 -0.092009626 -0.18733317
-0.03425663 -0.092091486 -0.18733905
-0.0342592 -0.092171513 -0.18733692
-0.034262165 -0.092251718 -0.18732677
-0.034264602 -0.09233366 -0.18732867
-0.034266163 -0.092415214 -0.18734854
-0.034268402 -0.092497066 -0.18735445
-0.034270547 -0.092578873 -0.18736231
-0.034271874 -0.092662297 -0.18738823
-0.034274116 -0.092744149 -0.18739411
-0.034276493 -0.092824094 -0.18739596
-0.034278639 -0.092905909 -0.18740386
-0.034281503 -0.092986062 -0.18739572
-0.034284703 -0.093064398 -0.18737954
-0.034287274 -0.093144432 -0.18737739
-0.034289323 -0.093226194 -0.18738729
-0.034291271 -0.093307927 -0.18739916
-0.034293413 -0.093389735 -0.18740706
-0.034295231 -0.093473375 -0.18742298
-0.034297179 -0.0935551 -0.18743485
-0.034299556 -0.093635038 -0.1874367
-0.034302093 -0.093717031 -0.18743661
-0.03430447 -0.093796968 -0.18743846
-0.034306575 -0.093880743 -0.18744838
-0.034308661 -0.093960553 -0.18745622
-0.034311097 -0.094042495 -0.18745813
-0.03431334 -0.094124347 -0.187464
-0.034315389 -0.094206117 -0.18747389
-0.034317862 -0.094286107 -0.18747374
-0.034320105 -0.094367959 -0.18747965
-0.034322444 -0.094449863 -0.18748353
-0.03432541 -0.094530061 -0.18747339
-0.034327984 -0.094610095 -0.18747126
-0.034330457 -0.094690077 -0.18747111
-0.034332935 -0.094770066 -0.18747097
-0.034334358 -0.094853528 -0.18749487
-0.034335546 -0.094938859 -0.18752483
-0.034337554 -0.095022589 -0.18753675
-0.034339502 -0.095104307 -0.18754862
-0.034341455 -0.09518604 -0.18756051
-0.034342974 -0.095269546 -0.18758242
-0.034344457 -0.095355004 -0.18760636
-0.034347031 -0.095435038 -0.18760423
-0.034349993 -0.095515236 -0.18759412
-0.03435247 -0.095595226 -0.18759395
-0.034354612 -0.095677033 -0.18760183
-0.034356467 -0.095758721 -0.18761572
-0.034358375 -0.095842399 -0.18762964
-0.034360815 -0.09592434 -0.18763155
-0.034364149 -0.096000761 -0.18761133
-0.034367345 -0.096079096 -0.18759516
-0.034370076 -0.096161172 -0.18759106
-0.03437255 -0.096241161 -0.1875909
-0.034375221 -0.096321225 -0.18758678
-0.034377892 -0.096401304 -0.18758264
-0.033800062 -0.046648286 -0.17661437
-0.03380277 -0.046726406 -0.1766082
-0.033805966 -0.046804741 -0.17659202
-0.033808127 -0.04688064 -0.17659578
-0.033809837 -0.046954371 -0.17660747
-0.033811647 -0.047028147 -0.17661718
-0.033814453 -0.047106311 -0.17660899
-0.033817004 -0.047182389 -0.17660476
-0.033818521 -0.04725603 -0.17662045
-0.033819839 -0.04732959 -0.17664014
-0.033823039 -0.047407921 -0.17662397
-0.03382688 -0.047488514 -0.17659587
-0.033829588 -0.04756663 -0.17658967
-0.033831298 -0.047640365 -0.17660137
-0.033833109 -0.047714137 -0.17661107
-0.033835072 -0.047789954 -0.17661881
-0.033837624 -0.047866032 -0.17661458
-0.033841915 -0.047948793 -0.17657852
-0.033842143 -0.048017923 -0.1766181
-0.033841722 -0.048084792 -0.1766696
-0.033844531 -0.048162952 -0.1766614
-0.033849854 -0.048248149 -0.17660543
-0.033853211 -0.048328526 -0.17658731
-0.033855565 -0.048404515 -0.17658707
-0.03385802 -0.048480548 -0.17658484
-0.033859923 -0.048554365 -0.17659253
-0.033862438 -0.048632398 -0.17659035
-0.033864539 -0.048706301 -0.17659405
-0.033866152 -0.048779987 -0.17660776
-0.033867475 -0.048853546 -0.17662743
-0.033869833 -0.048929535 -0.17662719
-0.033874221 -0.049012344 -0.17658913
-0.033878256 -0.049093023 -0.17655703
-0.033881065 -0.049171183 -0.17654887
-0.033883616 -0.049247257 -0.17654462
-0.033885874 -0.049323209 -0.17654638
-0.033887841 -0.049399022 -0.17655413
-0.033889551 -0.049472753 -0.17656583
-0.033891067 -0.049546398 -0.17658152
-0.033893228 -0.049622301 -0.17658527
-0.03389607 -0.049698509 -0.17657505
-0.033901557 -0.049785744 -0.17651713
-0.033905338 -0.049864337 -0.17648897
-0.03390795 -0.049942415 -0.17648478
-0.033910111 -0.050018318 -0.17648852
-0.033912309 -0.050092265 -0.17649025
-0.033914823 -0.050170295 -0.17648804
-0.033916727 -0.050244115 -0.17649576
-0.033918146 -0.050317712 -0.17651343
-0.033919856 -0.050391443 -0.17652515
-0.033923052 -0.050469778 -0.17650896
-0.033925861 -0.050547943 -0.17650078
-0.033928216 -0.050623931 -0.17650053
-0.033930279 -0.050699789 -0.17650628
-0.033932831 -0.050775863 -0.17650205
-0.033935834 -0.050854109 -0.17648989
-0.033938289 -0.050930146 -0.17648765
-0.033940349 -0.051006004 -0.17649341
-0.033942353 -0.051079866 -0.1764991
-0.033944868 -0.051157899 -0.17649691
-0.033948552 -0.051236451 -0.17647074
-0.033951357 -0.051314607 -0.17646256
-0.033954848 -0.051393077 -0.1764404
-0.033957556 -0.051471192 -0.17643422
-0.033959366 -0.051544964 -0.17644392
-0.033961426 -0.051620826 -0.17644967
-0.033963334 -0.051694646 -0.17645738
-0.033965044 -0.051768377 -0.17646906
-0.033967108 -0.051844232 -0.17647481
-0.033969916 -0.051922396 -0.17646664
-0.033973113 -0.052000728 -0.17645046
-0.03397537 -0.052076675 -0.17645222
-0.033977181 -0.052150451 -0.17646192
-0.033978987 -0.052224223 -0.17647162
-0.033981245 -0.05230017 -0.17647338
-0.033983309 -0.052376032 -0.17647913
-0.03398557 -0.052451976 -0.17648089
-0.033988118 -0.052528054 -0.17647666
-0.033990476 -0.052604042 -0.17647642
-0.033992637 -0.052679941 -0.17648016
-0.033994444 -0.052753717 -0.17648986
-0.033996411 -0.052829534 -0.17649761
-0.033999804 -0.052907959 -0.17647743
-0.034003098 -0.052986331 -0.17645928
-0.034005553 -0.053062364 -0.17645705
-0.034007907 -0.053138353 -0.17645679
-0.034010813 -0.053216558 -0.17644662
-0.03401307 -0.053292505 -0.17644837
-0.034014586 -0.053366151 -0.17646407
-0.034016591 -0.053440012 -0.17646977
-0.034019042 -0.053516045 -0.17646754
-0.034020618 -0.053591687 -0.17648327
-0.034022037 -0.053665288 -0.17650096
-0.034024041 -0.053739149 -0.17650667
-0.034026593 -0.053815223 -0.17650244
-0.03402885 -0.053891171 -0.17650419
-0.034031011 -0.053967074 -0.17650793
-0.034033369 -0.054043062 -0.1765077
-0.034035821 -0.054119095 -0.17650545
-0.03403759 -0.054194827 -0.17651722
-0.03403911 -0.054268472 -0.17653289
-0.034040622 -0.054342113 -0.17654859
-0.03404253 -0.054415934 -0.17655629
-0.034045823 -0.05449431 -0.17653812
-0.034050155 -0.054575123 -0.17650002
-0.034053642 -0.054653585 -0.17647786
-0.034056254 -0.054731656 -0.17647368
-0.034058161 -0.054805476 -0.17648137
-0.034060225 -0.054881334 -0.17648712
-0.034062192 -0.054957151 -0.17649487
-0.034063999 -0.055030927 -0.17650458
-0.034065865 -0.055106699 -0.17651431
-0.034067869 -0.055180557 -0.17652002
-0.034069933 -0.055256419 -0.17652577
-0.034072094 -0.055332322 -0.17652953
-0.034074843 -0.055408485 -0.1765213
-0.034077294 -0.055484518 -0.17651907
-0.034079555 -0.055560462 -0.17652082
-0.034081813 -0.05563641 -0.17652258
-0.034084171 -0.055712398 -0.17652234
-0.034086622 -0.055788431 -0.17652009
-0.03408898 -0.05586442 -0.17651986
-0.034091238 -0.055940367 -0.17652161
-0.03409408 -0.056016572 -0.17651139
-0.034097277 -0.056094907 -0.17649522
-0.034100417 -0.056171242 -0.17647901
-0.03410371 -0.056249619 -0.17646083
-0.034107395 -0.05632817 -0.17643468
-0.034109849 -0.056404203 -0.17643243
-0.034111716 -0.056479976 -0.17644218
-0.034114171 -0.056556009 -0.17643994
-0.034116331 -0.056631912 -0.1764437
-0.034118239 -0.056705728 -0.1764514
-0.0341204 -0.056781635 -0.17645516
-0.034122303 -0.056855451 -0.17646286
-0.034124173 -0.056931224 -0.1764726
-0.034126919 -0.057007387 -0.17646438
-0.034129862 -0.057083637 -0.17645216
-0.034132414 -0.057159711 -0.17644793
-0.034134574 -0.057235613 -0.17645168
-0.034136832 -0.057311561 -0.17645343
-0.034139089 -0.057387508 -0.17645518
-0.034141544 -0.057463542 -0.17645293
-0.034144487 -0.057539791 -0.17644072
-0.034147389 -0.057617992 -0.17643055
-0.034150138 -0.057694156 -0.17642231
-0.034152493 -0.057770144 -0.17642207
-0.0341544 -0.057843961 -0.17642978
-0.03415627 -0.057919733 -0.17643952
-0.034158431 -0.05799564 -0.17644328
-0.034160435 -0.058069497 -0.17644897
-0.034162205 -0.058145229 -0.17646071
-0.034164209 -0.05821909 -0.17646644
-0.034166466 -0.058295034 -0.17646818
-0.034168821 -0.058371026 -0.17646794
-0.034171764 -0.058447275 -0.17645572
-0.034175158 -0.058525696 -0.17643556
-0.034178197 -0.058601987 -0.17642134
-0.034180358 -0.058677889 -0.1764251
-0.034181774 -0.058751494 -0.17644277
-0.034183547 -0.058827221 -0.17645451
-0.034185451 -0.058901038 -0.17646223
-0.034187064 -0.058974728 -0.17647591
-0.034188934 -0.0590505 -0.17648566
-0.034191679 -0.059126664 -0.17647743
-0.034196302 -0.059207603 -0.17643335
-0.034200083 -0.059286196 -0.17640519
-0.034202382 -0.059360188 -0.17640491
-0.034204639 -0.059436131 -0.17640665
-0.034208033 -0.059514552 -0.17638649
-0.034211267 -0.059590932 -0.17636828
-0.034213915 -0.059667051 -0.17636205
-0.034216564 -0.05974317 -0.17635582
-0.034219019 -0.059819203 -0.17635359
-0.034222059 -0.059895497 -0.17633936
-0.034226328 -0.059974305 -0.17630121
-0.034231536 -0.060055505 -0.17624515
-0.034234479 -0.060131755 -0.17623293
-0.034235604 -0.060205229 -0.17625661
-0.0342388 -0.06028356 -0.17624044
-0.034242135 -0.060359985 -0.17622024
-0.034243062 -0.060433365 -0.17624789
-0.034242958 -0.060504321 -0.1762955
-0.03424418 -0.060577836 -0.17631719
-0.034245893 -0.060651567 -0.17632887
-0.034247957 -0.060727425 -0.17633462
-0.034251288 -0.060803849 -0.17631441
-0.034255754 -0.060882747 -0.17627227
-0.034259241 -0.060961209 -0.17625012
-0.034262184 -0.061037458 -0.17623788
-0.03426503 -0.061113663 -0.17622767
-0.034267776 -0.06118983 -0.17621943
-0.034270328 -0.061265904 -0.1762152
-0.034272879 -0.061341979 -0.17621097
-0.034275234 -0.061417967 -0.17621073
-0.034277044 -0.061491743 -0.17622043
-0.034279205 -0.061567646 -0.17622419
-0.034283124 -0.061644327 -0.17619199
-0.034286164 -0.061720621 -0.17617777
-0.034288615 -0.06179665 -0.17617553
-0.034290873 -0.061872602 -0.17617729
-0.034293231 -0.06194859 -0.17617705
-0.034295235 -0.062022448 -0.17618275
-0.034297336 -0.062096354 -0.17618647
-0.034300081 -0.062172517 -0.17617825
-0.034302633 -0.062248595 -0.17617399
-0.034304697 -0.062324449 -0.17617974
-0.034307092 -0.062398486 -0.17617747
-0.034311265 -0.062477253 -0.17614132
-0.034315631 -0.06255611 -0.17610118
-0.034320392 -0.062635131 -0.17605306
-0.034323625 -0.062711515 -0.17603485
-0.034326375 -0.062787674 -0.17602661
-0.034328863 -0.062861755 -0.17602234
-0.034331612 -0.062937915 -0.17601411
-0.034334261 -0.063014038 -0.17600787
-0.03433691 -0.063090153 -0.17600164
-0.034340438 -0.063166663 -0.17597744
-0.03434455 -0.063243434 -0.17594126
-0.034348138 -0.063321941 -0.17591709
-0.034351118 -0.06339623 -0.17590281
-0.03435412 -0.063474484 -0.17589064
-0.03435671 -0.063548602 -0.17588437
-0.034359649 -0.063624851 -0.17587215
-0.034362689 -0.063701145 -0.17585793
-0.034365181 -0.063775219 -0.17585364
-0.034368183 -0.063853472 -0.17584147
-0.03437259 -0.06393037 -0.17579928
-0.034379203 -0.064010218 -0.17571321
-0.034383375 -0.064088985 -0.17567706
-0.034387294 -0.064165667 -0.17564487
-0.034391955 -0.06424465 -0.17559874
-0.034395382 -0.064321116 -0.17557654
-0.034397878 -0.064395197 -0.17557225
-0.034400135 -0.064471141 -0.175574
-0.034403604 -0.064545646 -0.17554978
-0.034408946 -0.064624935 -0.17548966
-0.034412183 -0.064701319 -0.17547144
-0.034414381 -0.064775266 -0.17547315
-0.034417421 -0.064851552 -0.17545894
-0.034420948 -0.064928062 -0.17543474
-0.034424864 -0.065004751 -0.17540252
-0.034428101 -0.065081127 -0.17538431
-0.034430593 -0.065155201 -0.17538004
-0.034433436 -0.065231413 -0.1753698
-0.034436125 -0.065305576 -0.17536153
-0.034439165 -0.06538187 -0.1753473
-0.034442496 -0.06545829 -0.17532711
-0.034446511 -0.065535016 -0.17529291
-0.034451406 -0.06561213 -0.17524074
-0.034455225 -0.065688767 -0.17521054
-0.034459438 -0.065765582 -0.17517236
-0.034462515 -0.065839916 -0.17515609
-0.034465261 -0.065916076 -0.17514786
-0.034467854 -0.065990202 -0.17514157
