# .PCD v0.7 - Point Cloud Data file format
VERSION 0.7
FIELDS x y z
SIZE 4 4 4
TYPE F F F
COUNT 1 1 1
WIDTH 1269
HEIGHT 1
VIEWPOINT 0 0 0 1 0 0 0
POINTS 1269
DATA ascii
-0.035875823 -0.088658586 -0.18706524
-0.035878163 -0.088740483 -0.18706912
-0.03588064 -0.088820472 -0.18706897
-0.035883214 -0.088900506 -0.18706682
-0.035885751 -0.088982485 -0.18706673
-0.035887543 -0.089062169 -0.18708056
-0.03588926 -0.089145765 -0.18709847
-0.035891443 -0.08922562 -0.18710431
-0.035893783 -0.089307517 -0.18710822
-0.03589534 -0.089389071 -0.1871281
-0.035896804 -0.08947058 -0.18714994
-0.035898909 -0.089554347 -0.1871599
-0.035900705 -0.089634031 -0.18717372
-0.03590275 -0.089715794 -0.1871836
-0.035905089 -0.089797698 -0.18718749
-0.035907272 -0.089877553 -0.18719333
-0.03590899 -0.089961149 -0.18721126
-0.035910551 -0.090042695 -0.18723112
-0.035912167 -0.090126246 -0.18725105
-0.035914116 -0.090207979 -0.18726292
-0.03591558 -0.090289488 -0.1872848
-0.035917394 -0.090373121 -0.18730071
-0.03591948 -0.090452932 -0.18730855
-0.03592182 -0.090534836 -0.18731245
-0.035923965 -0.090616643 -0.18732034
-0.03592572 -0.090698287 -0.18733621
-0.035927534 -0.09078192 -0.18735212
-0.03592952 -0.090861693 -0.18736197
-0.035931431 -0.09094537 -0.1873759
-0.035933286 -0.091027051 -0.18738976
-0.035935137 -0.091108739 -0.18740365
-0.035936989 -0.09119042 -0.18741754
-0.035939425 -0.091272362 -0.18741943
-0.035942197 -0.091352478 -0.18741328
-0.035944477 -0.091432378 -0.18741713
-0.035946622 -0.091514185 -0.18742502
-0.035948962 -0.091596089 -0.18742891
-0.035950914 -0.091677815 -0.18744078
-0.03595224 -0.091761231 -0.18746671
-0.035953466 -0.091844611 -0.18749461
-0.035955846 -0.091924556 -0.18749645
-0.035958614 -0.092004672 -0.18749031
-0.035961151 -0.092086658 -0.18749022
-0.035963099 -0.092168376 -0.18750209
-0.035965379 -0.092248283 -0.18750595
-0.035967916 -0.092330262 -0.18750584
-0.035970062 -0.092412077 -0.18751374
-0.035972148 -0.092491895 -0.18752158
-0.035974879 -0.092573963 -0.18751746
-0.03597755 -0.092654034 -0.18751332
-0.03597983 -0.092733935 -0.18751718
-0.035982169 -0.092815831 -0.18752107
-0.035984743 -0.092895865 -0.18751892
-0.035986558 -0.092979506 -0.18753484
-0.035988215 -0.093061097 -0.18755272
-0.035990592 -0.093141042 -0.18755457
-0.035992894 -0.093224898 -0.1875605
-0.035994358 -0.093306407 -0.18758237
-0.035996463 -0.093390167 -0.1875923
-0.035999134 -0.093470246 -0.18758816
-0.036001515 -0.09355019 -0.18759
-0.036004186 -0.093630254 -0.18758586
-0.036006723 -0.09371224 -0.18758577
-0.036008671 -0.093793973 -0.18759766
-0.036010522 -0.093875654 -0.18761152
-0.036013059 -0.093957633 -0.18761143
-0.036015399 -0.094039537 -0.18761531
-0.036017779 -0.094119482 -0.18761715
-0.036020022 -0.094201334 -0.18762305
-0.036021639 -0.094284885 -0.18764296
-0.036024116 -0.094364867 -0.18764284
-0.036027275 -0.094445162 -0.1876287
-0.036029752 -0.094525144 -0.18762855
-0.036031567 -0.094608784 -0.18764448
-0.036033086 -0.09469229 -0.18766639
-0.036035035 -0.094774015 -0.18767828
-0.036036886 -0.094855703 -0.18769214
-0.0360387 -0.094939336 -0.18770808
-0.036040515 -0.095022976 -0.18772399
-0.036042135 -0.095106527 -0.1877439
-0.036044415 -0.095186427 -0.18774775
-0.036048103 -0.095264979 -0.1877216
-0.036051203 -0.095343269 -0.18770742
-0.036053348 -0.095425084 -0.18771531
-0.036055688 -0.095506981 -0.1877192
-0.036058165 -0.095586963 -0.18771905
-0.036060505 -0.095668867 -0.18772295
-0.036062978 -0.095748849 -0.1877228
-0.036064792 -0.095832489 -0.18773872
-0.036066938 -0.095914297 -0.18774661
-0.036069512 -0.095994323 -0.18774447
-0.036071949 -0.096076265 -0.18774636
-0.03607472 -0.096156389 -0.18774022
-0.036077257 -0.096238375 -0.18774012
-0.036079109 -0.096320055 -0.18775401
-0.03514979 -0.066596039 -0.18797345
-0.035151936 -0.066677853 -0.18798134
-0.035154022 -0.066757664 -0.18798918
-0.035155814 -0.066837348 -0.18800302
-0.035156436 -0.06691651 -0.18804082
-0.035155103 -0.066994809 -0.18811855
-0.035829458 -0.087556377 -0.18729544
-0.03583324 -0.087634973 -0.18726727
-0.035837844 -0.08771196 -0.18722109
-0.035842974 -0.087787203 -0.18716291
-0.035847086 -0.087863974 -0.18712671
-0.035851106 -0.0879407 -0.18709251
-0.035854265 -0.088020988 -0.18707839
-0.035857987 -0.088097587 -0.18705019
-0.035861675 -0.088176131 -0.18702403
-0.035864249 -0.088256165 -0.18702188
-0.035866197 -0.088337891 -0.18703377
-0.03586844 -0.088419743 -0.18703966
-0.035870526 -0.088499561 -0.18704751
-0.035872571 -0.088581324 -0.18705738
-0.035874657 -0.088661142 -0.18706523
-0.035876997 -0.088743038 -0.18706912
-0.035879474 -0.088823028 -0.18706897
-0.035882048 -0.088903055 -0.18706682
-0.035884582 -0.088985041 -0.18706672
-0.035886377 -0.089064725 -0.18708056
-0.035888091 -0.08914832 -0.18709847
-0.035890274 -0.089228176 -0.18710431
-0.035892613 -0.089310072 -0.18710822
-0.035894174 -0.089391626 -0.18712808
-0.035895634 -0.089473136 -0.18714994
-0.035897646 -0.089556858 -0.18716188
-0.035899535 -0.089636587 -0.18717371
-0.035901584 -0.089718357 -0.18718359
-0.035903923 -0.089800254 -0.18718749
-0.035906203 -0.089880154 -0.18719134
-0.03590782 -0.089963704 -0.18721125
-0.035909381 -0.090045258 -0.18723112
-0.035911001 -0.090128809 -0.18725103
-0.03591295 -0.090210527 -0.18726292
-0.035914313 -0.090291999 -0.18728679
-0.035916127 -0.090375632 -0.18730271
-0.03591831 -0.090455487 -0.18730855
-0.03592065 -0.090537384 -0.18731244
-0.035922796 -0.090619199 -0.18732032
-0.03592455 -0.090700842 -0.18733621
-0.035926364 -0.090784475 -0.18735212
-0.03592835 -0.090864241 -0.18736196
-0.035930261 -0.090947926 -0.1873759
-0.035932116 -0.091029607 -0.18738976
-0.035933968 -0.091111287 -0.18740365
-0.035935819 -0.091192976 -0.18741754
-0.035938255 -0.091274917 -0.18741941
-0.035941027 -0.091355033 -0.18741328
-0.03594321 -0.091434889 -0.18741913
-0.035945453 -0.091516741 -0.18742502
-0.035947792 -0.091598645 -0.18742892
-0.035949837 -0.091680408 -0.18743879
-0.035951067 -0.091763787 -0.1874667
-0.035952296 -0.091847166 -0.18749461
-0.03595477 -0.091927156 -0.18749446
-0.035957441 -0.092007227 -0.18749031
-0.035959978 -0.092089213 -0.18749021
-0.035961926 -0.092170939 -0.18750209
-0.035964169 -0.092252791 -0.18750799
-0.035966743 -0.092332825 -0.18750584
-0.035968889 -0.092414632 -0.18751372
-0.035970975 -0.092494443 -0.18752158
-0.035973705 -0.092576519 -0.18751746
-0.035976376 -0.09265659 -0.18751332
-0.035978656 -0.09273649 -0.18751718
-0.035980996 -0.092818394 -0.18752107
-0.03598357 -0.092898421 -0.18751892
-0.035985384 -0.092982054 -0.18753484
-0.035987042 -0.093063653 -0.18755272
-0.035989419 -0.093143597 -0.18755457
-0.035991721 -0.093227446 -0.1875605
-0.035993185 -0.093308955 -0.18758237
-0.03599529 -0.093392722 -0.1875923
-0.035997961 -0.093472801 -0.18758816
-0.036000341 -0.093552738 -0.18759
-0.036003012 -0.093632817 -0.18758586
-0.036005545 -0.093714803 -0.18758577
-0.036007497 -0.093796521 -0.18759765
-0.036009349 -0.09387821 -0.18761152
-0.036011882 -0.093960196 -0.18761143
-0.036014225 -0.094042093 -0.18761531
-0.036016602 -0.094122037 -0.18761715
-0.036018845 -0.094203889 -0.18762305
-0.036020465 -0.09428744 -0.18764296
-0.036022939 -0.09436743 -0.18764283
-0.036026098 -0.094447717 -0.18762869
-0.036028575 -0.094527707 -0.18762854
-0.036030389 -0.094611339 -0.18764448
-0.036031909 -0.094694853 -0.18766639
-0.036033861 -0.094776571 -0.18767826
-0.036035713 -0.094858259 -0.18769214
-0.036037527 -0.094941892 -0.18770806
-0.036039338 -0.095025532 -0.18772399
-0.036040958 -0.095109075 -0.1877439
-0.036043238 -0.095188983 -0.18774775
-0.036046922 -0.095267534 -0.18772158
-0.036050025 -0.095345825 -0.18770742
-0.036052167 -0.095427632 -0.18771531
-0.036054511 -0.095509537 -0.1877192
-0.036056984 -0.095589519 -0.18771905
-0.036059227 -0.095671371 -0.18772495
-0.036061764 -0.095753357 -0.18772483
-0.036063615 -0.095835045 -0.18773872
-0.036065664 -0.095916808 -0.1877486
-0.036068238 -0.095996842 -0.18774645
-0.036070675 -0.096078783 -0.18774834
-0.036073539 -0.096158944 -0.18774021
-0.036075979 -0.096240886 -0.18774211
-0.036077831 -0.096322566 -0.187756
-0.035148136 -0.066599354 -0.18797272
-0.035150278 -0.066681169 -0.18798062
-0.035152268 -0.066760935 -0.18799046
-0.035154156 -0.066840664 -0.18800229
-0.035154678 -0.066919789 -0.18804209
-0.035153445 -0.066998124 -0.18811783
-0.035827726 -0.0875597 -0.18729475
-0.035831355 -0.087636247 -0.18726856
-0.035836015 -0.087715231 -0.18722242
-0.035841145 -0.087790474 -0.18716422
-0.035845358 -0.08786729 -0.18712604
-0.035849277 -0.087943971 -0.18709382
-0.035852436 -0.088024259 -0.18707971
-0.035856258 -0.088100903 -0.18704951
-0.035859942 -0.088179454 -0.18702334
-0.03586242 -0.088259444 -0.18702321
-0.035864465 -0.088341206 -0.18703309
-0.035866551 -0.088421017 -0.18704093
-0.035868794 -0.088502876 -0.18704683
-0.035870742 -0.088584602 -0.18705869
-0.035872925 -0.088664457 -0.18706456
-0.035875265 -0.088746354 -0.18706843
-0.035877645 -0.088826299 -0.18707028
-0.035880215 -0.088906333 -0.18706815
-0.035882752 -0.088988319 -0.18706805
-0.035884544 -0.089067996 -0.18708187
-0.035886258 -0.089151591 -0.18709978
-0.035888441 -0.089231446 -0.18710563
-0.03589078 -0.089313343 -0.18710953
-0.035892438 -0.089394942 -0.18712741
-0.035893802 -0.089476407 -0.18715127
-0.035895906 -0.089560181 -0.18716121
-0.035897799 -0.089639902 -0.18717304
-0.035899747 -0.089721628 -0.18718491
-0.035902087 -0.089803524 -0.1871888
-0.035904367 -0.089883432 -0.18719265
-0.035905987 -0.089966975 -0.18721257
-0.035907544 -0.090048529 -0.18723245
-0.035909262 -0.090132125 -0.18725035
-0.03591121 -0.09021385 -0.18726224
-0.035912573 -0.090295315 -0.18728611
-0.035914388 -0.090378955 -0.18730202
-0.035916571 -0.09045881 -0.18730786
-0.035918813 -0.090540662 -0.18731377
-0.035920955 -0.090622477 -0.18732165
-0.035922807 -0.090704158 -0.18733552
-0.035924561 -0.090785801 -0.18735141
-0.03592651 -0.090867519 -0.18736328
-0.035928421 -0.090951204 -0.18737721
-0.035930276 -0.091032885 -0.18739109
-0.035932124 -0.091114566 -0.18740496
-0.035933979 -0.091196246 -0.18741885
-0.035936415 -0.091278188 -0.18742076
-0.035939183 -0.091358304 -0.1874146
-0.035941463 -0.091438204 -0.18741845
-0.035943706 -0.091520064 -0.18742433
-0.035945948 -0.091601916 -0.18743023
-0.035947993 -0.091683686 -0.18744013
-0.035949223 -0.091767065 -0.18746802
-0.035950452 -0.091850445 -0.18749592
-0.035952926 -0.091930427 -0.18749577
-0.035955597 -0.092010498 -0.18749164
-0.035958134 -0.092092484 -0.18749154
-0.035960082 -0.09217421 -0.18750341
-0.035962362 -0.09225411 -0.18750727
-0.035964899 -0.092336096 -0.18750715
-0.035967138 -0.092417948 -0.18751305
-0.035969224 -0.092497766 -0.18752089
-0.035971858 -0.092579797 -0.18751879
-0.035974529 -0.092659868 -0.18751466
-0.035976809 -0.092739761 -0.18751851
-0.035979148 -0.092821665 -0.18752238
-0.035981722 -0.092901692 -0.18752024
-0.035983536 -0.092985332 -0.18753617
-0.03598519 -0.093066931 -0.18755405
-0.035987668 -0.093146913 -0.1875539
-0.03598991 -0.093228772 -0.18755978
-0.035991333 -0.093312234 -0.1875837
-0.035993438 -0.093396001 -0.18759364
-0.035996206 -0.093476117 -0.1875875
-0.035998587 -0.093556061 -0.18758935
-0.036001161 -0.093636088 -0.18758719
-0.036003694 -0.093718074 -0.1875871
-0.036005642 -0.0937998 -0.18759897
-0.036007494 -0.09388148 -0.18761286
-0.036010128 -0.093963511 -0.18761075
-0.03601237 -0.094045363 -0.18761665
-0.036014747 -0.094125308 -0.18761849
-0.036016893 -0.094207123 -0.18762638
-0.03601861 -0.094290718 -0.1876443
-0.03602118 -0.094370745 -0.18764216
-0.036024243 -0.094450995 -0.18763003
-0.03602672 -0.094530977 -0.18762988
-0.036028631 -0.094614655 -0.1876438
-0.036030091 -0.094696164 -0.18766567
-0.036032099 -0.094779894 -0.18767759
-0.036033951 -0.094861574 -0.18769148
-0.036035668 -0.094945163 -0.18770939
-0.036037482 -0.095028803 -0.18772531
-0.036039196 -0.095112398 -0.18774325
-0.036041476 -0.095192298 -0.18774709
-0.036045067 -0.095270805 -0.18772292
-0.036048166 -0.095349096 -0.18770875
-0.036050409 -0.095430955 -0.18771464
-0.036052749 -0.095512852 -0.18771854
-0.036055125 -0.095592797 -0.18772039
-0.036057465 -0.095674694 -0.18772428
-0.036059942 -0.095754683 -0.18772413
-0.036061756 -0.095838316 -0.18774006
-0.036063898 -0.095920131 -0.18774794
-0.036066473 -0.096000157 -0.18774578
-0.036068909 -0.096082099 -0.18774769
-0.03607168 -0.096162215 -0.18774155
-0.036074214 -0.096244201 -0.18774144
-0.036076065 -0.096325889 -0.18775532
-0.035148565 -0.066588864 -0.18797553
-0.035150707 -0.066670679 -0.18798341
-0.035152793 -0.066750497 -0.18799125
-0.035154581 -0.066830173 -0.18800509
-0.0351553 -0.06690938 -0.18804088
-0.035153966 -0.066987678 -0.18811864
-0.035827909 -0.087549217 -0.18729746
-0.035831593 -0.087627769 -0.18727131
-0.035836291 -0.087704793 -0.18722314
-0.03584142 -0.087780036 -0.18716493
-0.035845533 -0.087856807 -0.18712875
-0.035849549 -0.087933533 -0.18709457
-0.035852708 -0.08801382 -0.18708044
-0.035856429 -0.08809042 -0.18705224
-0.035860114 -0.088168971 -0.18702608
-0.035862587 -0.088248953 -0.18702593
-0.035864536 -0.088330686 -0.1870378
-0.035866875 -0.088412583 -0.1870417
-0.035868958 -0.088492393 -0.18704954
-0.035871007 -0.088574164 -0.18705942
-0.035873089 -0.088653974 -0.18706727
-0.035875428 -0.088735878 -0.18707116
-0.035877906 -0.08881586 -0.18707101
-0.035880439 -0.088897847 -0.18707091
-0.035882816 -0.088977791 -0.18707275
-0.035884704 -0.08905752 -0.18708459
-0.035886418 -0.089141108 -0.18710253
-0.035888601 -0.089220971 -0.18710837
-0.035890941 -0.089302868 -0.18711224
-0.035892595 -0.089384459 -0.18713012
-0.035894059 -0.089465968 -0.187152
-0.035896063 -0.08954969 -0.18716392
-0.035897955 -0.089629427 -0.18717575
-0.03589996 -0.089713141 -0.18718769
-0.035902239 -0.089793041 -0.18719152
-0.035904519 -0.089872941 -0.18719536
-0.035906136 -0.089956492 -0.1872153
-0.035907794 -0.090038091 -0.18723315
-0.035909314 -0.090121597 -0.18725508
-0.035911359 -0.090203367 -0.18726495
-0.035912722 -0.090284832 -0.18728882
-0.035914537 -0.090368472 -0.18730474
-0.035916716 -0.090448327 -0.18731058
-0.035919055 -0.090530224 -0.18731448
-0.035921201 -0.090612039 -0.18732236
-0.035922952 -0.090693675 -0.18733823
-0.035924766 -0.090777315 -0.18735416
-0.035926752 -0.090857081 -0.187364
-0.035928663 -0.090940766 -0.18737793
-0.035930514 -0.091022447 -0.18739179
-0.035932366 -0.091104127 -0.18740568
-0.035934217 -0.091185808 -0.18741956
-0.035936654 -0.09126775 -0.18742147
-0.035939418 -0.091347866 -0.18741532
-0.035941698 -0.091427773 -0.18741916
-0.035943843 -0.091509581 -0.18742704
-0.035946183 -0.091591477 -0.18743095
-0.035948131 -0.091673203 -0.18744282
-0.035949357 -0.091756582 -0.18747073
-0.035950683 -0.091839999 -0.18749663
-0.03595306 -0.091919944 -0.18749848
-0.03595569 -0.092001975 -0.18749639
-0.035958264 -0.092082009 -0.18749425
-0.035960309 -0.092163771 -0.18750413
-0.035962552 -0.092245631 -0.18751001
-0.035965122 -0.092325658 -0.18750787
-0.035967268 -0.092407472 -0.18751577
-0.03596941 -0.09248928 -0.18752365
-0.035971984 -0.092569314 -0.18752149
-0.035974652 -0.092649385 -0.18751737
-0.035977032 -0.09272933 -0.18751922
-0.035979271 -0.092811182 -0.18752509
-0.035981845 -0.092891216 -0.18752295
-0.035983756 -0.092974894 -0.18753687
-0.035985313 -0.093056448 -0.18755674
-0.035987847 -0.093138434 -0.18755665
-0.035990089 -0.093220286 -0.18756253
-0.035991453 -0.093301751 -0.1875864
-0.035993654 -0.093385562 -0.18759432
-0.035996325 -0.093465641 -0.18759018
-0.035998702 -0.093545578 -0.18759203
-0.036001272 -0.093625605 -0.18758988
-0.036003906 -0.093707636 -0.1875878
-0.036005855 -0.093789361 -0.18759969
-0.036007706 -0.093871042 -0.18761355
-0.036010142 -0.093952984 -0.18761545
-0.036012579 -0.094034925 -0.18761735
-0.036014859 -0.094114825 -0.18762119
-0.036017098 -0.094196685 -0.18762708
-0.036018718 -0.094280235 -0.187647
-0.036021192 -0.094360217 -0.18764685
-0.036024351 -0.094440512 -0.18763272
-0.036026921 -0.094520539 -0.18763058
-0.036028638 -0.094604135 -0.1876485
-0.036030255 -0.094687685 -0.18766841
-0.036032204 -0.094769411 -0.1876803
-0.036034115 -0.094853096 -0.18769422
-0.036035769 -0.094934687 -0.18771209
-0.036037583 -0.095018327 -0.18772802
-0.036039297 -0.095101923 -0.18774593
-0.036041576 -0.095181823 -0.18774977
-0.036045164 -0.09526033 -0.18772562
-0.036048263 -0.09533862 -0.18771145
-0.036050506 -0.095420472 -0.18771735
-0.036052842 -0.095502369 -0.18772122
-0.036055218 -0.095582314 -0.18772307
-0.036057558 -0.095664218 -0.18772697
-0.036060095 -0.095746197 -0.18772687
-0.036061905 -0.095829837 -0.1877428
-0.036063951 -0.095911607 -0.18775266
-0.036066562 -0.095989682 -0.18774849
-0.036068998 -0.096071616 -0.18775037
-0.036071766 -0.096151739 -0.18774424
-0.036074303 -0.096233726 -0.18774414
-0.036076151 -0.096315406 -0.18775803
-0.035148855 -0.066588163 -0.18797165
-0.0351509 -0.066669933 -0.18798155
-0.03515289 -0.066749707 -0.18799138
-0.035154775 -0.066829436 -0.18800321
-0.035155494 -0.066908643 -0.188039
-0.035154063 -0.066986896 -0.18811876
-0.035828184 -0.087548517 -0.18729359
-0.035831708 -0.087625027 -0.18726939
-0.035836369 -0.087704003 -0.18722326
-0.035841536 -0.087777302 -0.18716303
-0.035845708 -0.087856069 -0.18712687
-0.035849724 -0.087932788 -0.18709269
-0.035852883 -0.088013075 -0.18707855
-0.035856605 -0.088089675 -0.18705036
-0.035860289 -0.088168226 -0.18702421
-0.035862762 -0.088248208 -0.18702404
-0.035864811 -0.088329986 -0.18703394
-0.035866991 -0.088409841 -0.18703978
-0.035869233 -0.088491693 -0.18704566
-0.035871182 -0.088573419 -0.18705755
-0.035873264 -0.088653237 -0.18706539
-0.035875604 -0.088735133 -0.18706928
-0.035878081 -0.088815115 -0.18706913
-0.035880554 -0.088895105 -0.187069
-0.035883088 -0.088977091 -0.18706888
-0.03588488 -0.089056775 -0.18708271
-0.035886694 -0.089140408 -0.18709864
-0.035888873 -0.089220271 -0.18710448
-0.035891116 -0.089302123 -0.18711038
-0.03589277 -0.089383714 -0.18712825
-0.03589423 -0.089465231 -0.18715012
-0.035896238 -0.089548953 -0.18716204
-0.035898127 -0.089628682 -0.18717387
-0.035900176 -0.089710444 -0.18718377
-0.035902414 -0.089792296 -0.18718965
-0.035904694 -0.089872204 -0.18719348
-0.035906315 -0.089955755 -0.18721342
-0.035907969 -0.090037346 -0.18723127
-0.035909586 -0.090120897 -0.1872512
-0.035911534 -0.090202622 -0.18726307
-0.035912994 -0.090284131 -0.18728495
-0.035914712 -0.090367727 -0.18730286
-0.035916891 -0.090447582 -0.18730871
-0.035919134 -0.090529442 -0.1873146
-0.035921372 -0.090611294 -0.18732049
-0.035923127 -0.090692937 -0.18733636
-0.035924979 -0.090774611 -0.18735024
-0.035926927 -0.090856344 -0.18736213
-0.035928741 -0.090939976 -0.18737805
-0.035930686 -0.091021702 -0.18738994
-0.03593244 -0.091103338 -0.18740579
-0.035934389 -0.091185063 -0.18741769
-0.035936765 -0.091265008 -0.18741953
-0.035939593 -0.091347128 -0.18741344
-0.035941873 -0.091427028 -0.18741728
-0.035944019 -0.091508836 -0.18742517
-0.035946257 -0.091590695 -0.18743107
-0.035948306 -0.091672465 -0.18744096
-0.035949629 -0.091755882 -0.18746686
-0.035950854 -0.091839254 -0.18749475
-0.035953231 -0.091919199 -0.1874966
-0.035955902 -0.091999277 -0.18749246
-0.035958476 -0.092079304 -0.18749031
-0.035960484 -0.092163026 -0.18750225
-0.035962764 -0.092242926 -0.18750609
-0.035965238 -0.092322916 -0.18750595
-0.035967536 -0.092406772 -0.18751189
-0.035969526 -0.092486545 -0.18752173
-0.035972252 -0.092568614 -0.18751763
-0.035974827 -0.09264864 -0.18751548
-0.035977203 -0.092728585 -0.18751733
-0.035979446 -0.092810445 -0.18752322
-0.035982016 -0.092890471 -0.18752107
-0.035983928 -0.092974156 -0.18753499
-0.035985582 -0.093055747 -0.18755287
-0.035988059 -0.093135729 -0.18755272
-0.035990201 -0.093217544 -0.18756062
-0.035991624 -0.093301013 -0.18758452
-0.035993826 -0.093384817 -0.18759245
-0.035996437 -0.093462899 -0.18758827
-0.035998873 -0.093544841 -0.18759015
-0.036001544 -0.093624905 -0.18758602
-0.036004078 -0.093706898 -0.18758592
-0.036006026 -0.093788624 -0.1875978
-0.036007877 -0.093870305 -0.18761167
-0.036010411 -0.093952283 -0.18761158
-0.036012691 -0.094032191 -0.18761542
-0.03601503 -0.094114088 -0.18761931
-0.036017273 -0.09419594 -0.1876252
-0.036018889 -0.09427949 -0.18764512
-0.03602146 -0.094359517 -0.18764298
-0.036024522 -0.094439767 -0.18763085
-0.036027096 -0.094519801 -0.18762869
-0.036028907 -0.094603434 -0.18764463
-0.036030367 -0.094684944 -0.18766649
-0.036032375 -0.094768666 -0.18767843
-0.036034226 -0.094850354 -0.1876923
-0.03603594 -0.094933942 -0.18771023
-0.036037754 -0.095017582 -0.18772614
-0.036039468 -0.095101178 -0.18774405
-0.036041748 -0.095181078 -0.1877479
-0.036045432 -0.095259629 -0.18772174
-0.036048532 -0.09533792 -0.18770757
-0.036050774 -0.095419772 -0.18771346
-0.036053013 -0.095501631 -0.18771935
-0.03605539 -0.095581569 -0.18772119
-0.036057729 -0.095663473 -0.1877251
-0.036060207 -0.095743455 -0.18772495
-0.036062114 -0.09582714 -0.18773887
-0.03606426 -0.095908947 -0.18774676
-0.03606683 -0.095988981 -0.18774462
-0.036069266 -0.096070923 -0.18774651
-0.036072034 -0.096151039 -0.18774036
-0.036074568 -0.096233025 -0.18774027
-0.036076419 -0.096314706 -0.18775415
-0.035148833 -0.066587411 -0.18797179
-0.035150979 -0.066669226 -0.18797967
-0.035152964 -0.066748992 -0.1879895
-0.035154756 -0.066828676 -0.18800335
-0.035155471 -0.066907883 -0.18803914
-0.035154045 -0.066986136 -0.18811888
-0.035828143 -0.087547757 -0.18729372
-0.035831671 -0.087624267 -0.18726951
-0.035836332 -0.08770325 -0.18722337
-0.035841595 -0.087776586 -0.18716115
-0.035845667 -0.087855309 -0.18712699
-0.035849784 -0.08793208 -0.18709081
-0.035852782 -0.088010326 -0.18707862
-0.035856564 -0.088088922 -0.18705049
-0.035860345 -0.088167511 -0.18702233
-0.035862822 -0.0882475 -0.18702218
-0.035864867 -0.08832927 -0.18703206
-0.03586705 -0.088409126 -0.18703789
-0.035869192 -0.088490941 -0.18704578
-0.035871141 -0.088572659 -0.18705767
-0.035873227 -0.088652477 -0.18706551
-0.035875663 -0.088734418 -0.1870674
-0.03587804 -0.088814363 -0.18706925
-0.03588061 -0.08889439 -0.18706711
-0.035883047 -0.088976331 -0.187069
-0.035884839 -0.089056015 -0.18708284
-0.035886653 -0.089139655 -0.18709876
-0.035888832 -0.089219511 -0.18710461
-0.035891172 -0.089301407 -0.18710849
-0.035892729 -0.089382961 -0.18712837
-0.03589429 -0.089464515 -0.18714824
-0.035896137 -0.089546196 -0.18716212
-0.035898186 -0.089627966 -0.187172
-0.035900135 -0.089709684 -0.18718389
-0.03590247 -0.089791588 -0.18718776
-0.035904653 -0.089871444 -0.18719362
-0.035906367 -0.089955039 -0.18721153
-0.035907928 -0.090036593 -0.18723139
-0.035909545 -0.090120144 -0.18725131
-0.03591159 -0.090201907 -0.18726121
-0.035912953 -0.090283379 -0.18728507
-0.035914764 -0.090367012 -0.18730099
-0.035916947 -0.090446867 -0.18730684
-0.035919189 -0.090528727 -0.18731272
-0.035921331 -0.090610534 -0.18732062
-0.035923183 -0.090692222 -0.18733449
-0.035924934 -0.090773858 -0.18735036
-0.035926886 -0.090855584 -0.18736225
-0.035928696 -0.090939224 -0.18737817
-0.035930645 -0.091020949 -0.18739004
-0.035932496 -0.09110263 -0.18740392
-0.035934348 -0.091184311 -0.18741781
-0.035936724 -0.091264255 -0.18741965
-0.035939649 -0.091346413 -0.18741156
-0.035941832 -0.091426268 -0.18741742
-0.035944071 -0.09150812 -0.18742329
-0.035946313 -0.09158998 -0.18742919
-0.035948202 -0.091669708 -0.18744102
-0.035949588 -0.091755122 -0.18746698
-0.035950813 -0.091838501 -0.18749487
-0.035953287 -0.091918491 -0.18749472
-0.035955861 -0.091998518 -0.18749258
-0.035958432 -0.092078552 -0.18749045
-0.035960536 -0.092162311 -0.18750036
-0.035962816 -0.092242219 -0.18750423
-0.035965294 -0.092322201 -0.18750407
-0.035967495 -0.092406012 -0.18751201
-0.035969578 -0.09248583 -0.18751985
-0.035972212 -0.092567861 -0.18751775
-0.035974883 -0.092647925 -0.1875136
-0.035977159 -0.092727825 -0.18751745
-0.035979498 -0.092809729 -0.18752134
-0.035982169 -0.092889801 -0.1875172
-0.035983924 -0.092971444 -0.18753308
-0.035985541 -0.093054995 -0.18755299
-0.035988014 -0.093134977 -0.18755284
-0.035990257 -0.093216829 -0.18755874
-0.035991579 -0.093300253 -0.18758464
-0.035993785 -0.093384065 -0.18759257
-0.035996489 -0.093462184 -0.1875864
-0.035998926 -0.093544126 -0.18758827
-0.0360015 -0.093624152 -0.18758614
-0.036003973 -0.093704134 -0.18758599
-0.036005981 -0.093787864 -0.18759792
-0.036007833 -0.093869545 -0.1876118
-0.036010306 -0.093949534 -0.18761164
-0.036012646 -0.094031431 -0.18761554
-0.036014985 -0.094113328 -0.18761943
-0.036017228 -0.094195187 -0.18762532
-0.036018845 -0.094278738 -0.18764524
-0.036021415 -0.094358765 -0.1876431
-0.036024477 -0.094439015 -0.18763095
-0.036027148 -0.094519086 -0.18762682
-0.036028862 -0.094602682 -0.18764475
-0.036030419 -0.094684228 -0.1876646
-0.036032427 -0.094767958 -0.18767655
-0.036034279 -0.094849639 -0.18769041
-0.036035895 -0.094933189 -0.18771033
-0.03603771 -0.095016822 -0.18772626
-0.03603946 -0.095098466 -0.18774213
-0.036041703 -0.095180318 -0.18774801
-0.036045484 -0.095258914 -0.18771987
-0.036048584 -0.095337205 -0.1877057
-0.036050726 -0.095419019 -0.18771358
-0.036053065 -0.095500916 -0.18771747
-0.036055345 -0.095580816 -0.18772131
-0.036057781 -0.095662758 -0.18772322
-0.036060255 -0.09574274 -0.18772307
-0.036062069 -0.09582638 -0.18773898
-0.036064211 -0.095908195 -0.18774688
-0.036066882 -0.095988266 -0.18774274
-0.036069222 -0.096070163 -0.18774663
-0.03607199 -0.096150279 -0.18774047
-0.036074523 -0.096232265 -0.18774039
-0.036076374 -0.096313953 -0.18775427
-0.035148498 -0.066586569 -0.18797579
-0.03515064 -0.066668376 -0.18798368
-0.035152726 -0.066748194 -0.1879915
-0.035154514 -0.066827878 -0.18800534
-0.03515533 -0.066907123 -0.18803915
-0.035153903 -0.066985384 -0.18811888
-0.035827886 -0.08754696 -0.18729572
-0.035831377 -0.087625422 -0.18727356
-0.035836171 -0.08770249 -0.18722339
-0.035841297 -0.087777741 -0.18716517
-0.035845414 -0.087854512 -0.18712899
-0.035849426 -0.087931231 -0.18709481
-0.035852585 -0.088011526 -0.18708068
-0.035856307 -0.088088118 -0.18705247
-0.035859991 -0.088166669 -0.18702632
-0.035862565 -0.088246703 -0.18702418
-0.035864513 -0.088328429 -0.18703605
-0.035866752 -0.088410281 -0.18704194
-0.035868838 -0.088490099 -0.18704978
-0.035870884 -0.088571861 -0.18705967
-0.035872966 -0.088651672 -0.18706751
-0.035875402 -0.088733613 -0.18706942
-0.035877779 -0.088813558 -0.18707126
-0.035880353 -0.088893592 -0.18706912
-0.03588279 -0.088975534 -0.187071
-0.035884678 -0.089055263 -0.18708283
-0.035886392 -0.089138851 -0.18710075
-0.035888575 -0.089218706 -0.18710661
-0.035890914 -0.08930061 -0.18711048
-0.035892472 -0.089382157 -0.18713036
-0.035893932 -0.089463674 -0.18715224
-0.03589594 -0.089547396 -0.18716416
-0.035897829 -0.089627124 -0.18717599
-0.035899874 -0.089708894 -0.18718588
-0.035902213 -0.089790791 -0.18718977
-0.035904396 -0.089870647 -0.1871956
-0.03590611 -0.089954242 -0.18721354
-0.035907667 -0.090035796 -0.1872334
-0.035909284 -0.090119347 -0.18725333
-0.035911232 -0.090201065 -0.1872652
-0.035912693 -0.090282574 -0.18728706
-0.035914507 -0.090366215 -0.18730298
-0.03591669 -0.09044607 -0.18730882
-0.035918929 -0.090527922 -0.18731472
-0.035921074 -0.090609737 -0.1873226
-0.035922825 -0.09069138 -0.18733849
-0.035924677 -0.090773061 -0.18735236
-0.035926722 -0.090854824 -0.18736225
-0.035928536 -0.090938464 -0.18737817
-0.035930388 -0.091020145 -0.18739204
-0.035932235 -0.091101825 -0.18740593
-0.035934087 -0.091183513 -0.1874198
-0.035936523 -0.091265455 -0.18742171
-0.035939291 -0.091345571 -0.18741557
-0.035941571 -0.091425471 -0.1874194
-0.035943713 -0.091507278 -0.18742728
-0.035946053 -0.091589183 -0.18743119
-0.035948098 -0.091670945 -0.18744107
-0.035949327 -0.091754325 -0.18746898
-0.035950553 -0.091837704 -0.18749687
-0.035952929 -0.091917649 -0.18749872
-0.03595566 -0.091999717 -0.18749464
-0.035958134 -0.092079706 -0.18749449
-0.035960179 -0.092161477 -0.18750437
-0.035962459 -0.092241377 -0.18750823
-0.035964992 -0.092323363 -0.18750811
-0.035967138 -0.09240517 -0.187516
-0.03596922 -0.092484988 -0.18752384
-0.035971854 -0.092567012 -0.18752174
-0.035974622 -0.092647135 -0.1875156
-0.035976898 -0.092727028 -0.18751946
-0.035979237 -0.092808932 -0.18752334
-0.035981812 -0.092888959 -0.18752119
-0.035983622 -0.092972599 -0.18753712
-0.03598528 -0.09305419 -0.18755499
-0.035987657 -0.093134135 -0.18755685
-0.035989955 -0.093217984 -0.18756278
-0.035991415 -0.093299493 -0.18758464
-0.03599352 -0.093383268 -0.18759458
-0.035996288 -0.093463384 -0.18758842
-0.035998665 -0.093543321 -0.18759029
-0.036001239 -0.093623355 -0.18758814
-0.036003772 -0.093705341 -0.18758804
-0.03600572 -0.093787067 -0.18759993
-0.036007572 -0.093868747 -0.18761379
-0.036010105 -0.093950734 -0.1876137
-0.036012445 -0.09403263 -0.18761759
-0.036014821 -0.094112575 -0.18761943
-0.036017064 -0.094194427 -0.18762532
-0.03601858 -0.094277933 -0.18764724
-0.036021058 -0.094357923 -0.18764709
-0.036024213 -0.09443821 -0.18763296
-0.036026787 -0.094518244 -0.18763083
-0.036028601 -0.094601884 -0.18764675
-0.036030121 -0.094685391 -0.18766865
-0.036032066 -0.094767109 -0.18768053
-0.036034018 -0.094848841 -0.18769242
-0.036035731 -0.094932429 -0.18771033
-0.036037542 -0.09501607 -0.18772626
-0.036039159 -0.095099621 -0.18774617
-0.036041439 -0.095179521 -0.18775001
-0.036045123 -0.095258072 -0.18772386
-0.036048222 -0.095336363 -0.18770969
-0.036050364 -0.09541817 -0.18771757
-0.036052704 -0.095500074 -0.18772148
-0.036055181 -0.095580056 -0.18772131
-0.036057517 -0.095661961 -0.18772522
-0.036059994 -0.095741943 -0.18772507
-0.036061708 -0.095825538 -0.18774298
-0.036063951 -0.09590739 -0.18774888
-0.036066521 -0.095987424 -0.18774673
-0.036068957 -0.096069366 -0.18774863
-0.036071725 -0.096149482 -0.18774247
-0.036074258 -0.096231468 -0.18774238
-0.03607611 -0.096313149 -0.18775627
-0.035148595 -0.066585809 -0.18797591
-0.035150737 -0.066667624 -0.1879838
-0.035152823 -0.066747434 -0.18799163
-0.035154711 -0.066827163 -0.18800348
-0.03515533 -0.066906326 -0.18804127
-0.035154 -0.066984624 -0.18811901
-0.035827965 -0.0875462 -0.18729584
-0.035831552 -0.087624714 -0.18727168
-0.035836153 -0.087701693 -0.18722551
-0.035841379 -0.087776981 -0.18716531
-0.035845492 -0.087853752 -0.18712911
-0.035849504 -0.087930478 -0.18709493
-0.035852663 -0.088010766 -0.1870808
-0.035856389 -0.088087365 -0.18705259
-0.035860069 -0.088165917 -0.18702644
-0.035862546 -0.088245898 -0.18702629
-0.035864592 -0.088327669 -0.18703617
-0.035866834 -0.088409528 -0.18704206
-0.035868917 -0.088489339 -0.18704991
-0.035870962 -0.088571109 -0.18705979
-0.035873145 -0.088650964 -0.18706563
-0.035875484 -0.088732861 -0.18706954
-0.035877861 -0.088812806 -0.18707138
-0.035880394 -0.088894792 -0.18707126
-0.035882771 -0.088974737 -0.18707311
-0.03588466 -0.089054465 -0.18708496
-0.035886474 -0.089138098 -0.18710087
-0.035888556 -0.089217909 -0.18710873
-0.035890993 -0.089299858 -0.18711062
-0.03589255 -0.089381404 -0.18713048
-0.03589401 -0.089462914 -0.18715236
-0.035896018 -0.089546636 -0.18716428
-0.035897907 -0.089626364 -0.18717611
-0.035899915 -0.089710087 -0.18718804
-0.035902195 -0.089789987 -0.18719189
-0.035904475 -0.089869887 -0.18719572
-0.035906188 -0.089953482 -0.18721366
-0.035907745 -0.090035036 -0.18723352
-0.035909362 -0.090118587 -0.18725345
-0.03591131 -0.090200312 -0.18726531
-0.035912771 -0.090281822 -0.18728718
-0.035914585 -0.090365455 -0.18730311
-0.035916764 -0.09044531 -0.18730895
-0.035919007 -0.090527169 -0.18731484
-0.035921149 -0.090608984 -0.18732274
-0.035923 -0.090690665 -0.18733661
-0.035924755 -0.090772301 -0.18735248
-0.035926703 -0.090854026 -0.18736437
-0.035928614 -0.090937711 -0.18737829
-0.035930462 -0.091019392 -0.18739218
-0.035932314 -0.091101073 -0.18740603
-0.035934165 -0.091182753 -0.18741992
-0.035936601 -0.091264695 -0.18742183
-0.035939369 -0.091344818 -0.18741569
-0.035941649 -0.091424718 -0.18741952
-0.035943888 -0.091506571 -0.1874254
-0.035946131 -0.091588423 -0.18743131
-0.035948079 -0.091670156 -0.1874432
-0.035949402 -0.091753572 -0.18746909
-0.035950631 -0.091836944 -0.18749699
-0.035953008 -0.091916889 -0.18749884
-0.035955735 -0.091998965 -0.18749475
-0.035958309 -0.092078999 -0.18749261
-0.035960257 -0.092160717 -0.18750449
-0.035962537 -0.092240617 -0.18750834
-0.03596507 -0.092322603 -0.18750823
-0.035967212 -0.092404418 -0.18751612
-0.035969354 -0.092486225 -0.18752401
-0.035971928 -0.092566259 -0.18752187
-0.035974599 -0.092646331 -0.18751773
-0.035976976 -0.092726275 -0.18751958
-0.035979316 -0.092808172 -0.18752345
-0.035981886 -0.092888199 -0.18752131
-0.035983797 -0.092971884 -0.18753524
-0.035985354 -0.093053438 -0.1875551
-0.035987731 -0.093133382 -0.18755695
-0.03599003 -0.093217231 -0.1875629
-0.035991393 -0.093298703 -0.18758675
-0.035993598 -0.093382508 -0.18759468
-0.035996363 -0.093462624 -0.18758856
-0.035998642 -0.093542531 -0.1875924
-0.036001313 -0.093622595 -0.18758826
-0.036003947 -0.093704626 -0.18758616
-0.036005892 -0.093786351 -0.18759805
-0.036007743 -0.093868032 -0.18761191
-0.03601018 -0.093949974 -0.18761382
-0.036012519 -0.09403187 -0.1876177
-0.036014799 -0.094111778 -0.18762155
-0.036016941 -0.094193593 -0.18762943
-0.036018655 -0.094277181 -0.18764736
-0.036021132 -0.094357163 -0.18764721
-0.036024287 -0.094437458 -0.1876331
-0.036026862 -0.094517484 -0.18763094
-0.036028676 -0.094601125 -0.18764687
-0.036030196 -0.094684631 -0.18766877
-0.03603214 -0.094766356 -0.18768065
-0.036034051 -0.094850041 -0.18769458
-0.036035709 -0.094931632 -0.18771246
-0.03603752 -0.095015272 -0.18772838
-0.036039136 -0.095098823 -0.18774828
-0.036041416 -0.095178723 -0.18775213
-0.036045101 -0.095257275 -0.18772599
-0.0360482 -0.095335566 -0.18771181
-0.036050439 -0.095417418 -0.18771769
-0.036052778 -0.095499322 -0.18772158
-0.036055252 -0.095579304 -0.18772143
-0.036057495 -0.095661163 -0.18772733
-0.036060028 -0.095743142 -0.18772723
-0.036061782 -0.095824786 -0.1877431
-0.036064021 -0.095906638 -0.187749
-0.036066595 -0.095986672 -0.18774685
-0.036069032 -0.096068613 -0.18774875
-0.036071703 -0.096148685 -0.18774459
-0.036074236 -0.096230671 -0.1877445
-0.036076084 -0.096312352 -0.18775839
-0.035148721 -0.066585511 -0.18797567
-0.035150863 -0.066667326 -0.18798356
-0.035152949 -0.066747136 -0.1879914
-0.035154838 -0.066826865 -0.18800324
-0.035155457 -0.066906027 -0.18804103
-0.035154127 -0.066984326 -0.18811879
-0.035828091 -0.087545909 -0.1872956
-0.035831679 -0.087624416 -0.18727145
-0.035836279 -0.087701395 -0.18722527
-0.035841502 -0.087776691 -0.18716507
-0.035845615 -0.087853462 -0.18712887
-0.035849631 -0.08793018 -0.18709469
-0.035852887 -0.088010512 -0.18707857
-0.035856511 -0.088087067 -0.18705235
-0.035860196 -0.088165618 -0.1870262
-0.035862766 -0.088245645 -0.18702406
-0.035864718 -0.088327371 -0.18703593
-0.035866898 -0.088407233 -0.18704177
-0.03586914 -0.088489085 -0.18704766
-0.035871089 -0.088570811 -0.18705955
-0.035873268 -0.088650666 -0.18706539
-0.035875607 -0.088732563 -0.1870693
-0.035877984 -0.088812508 -0.18707114
-0.035880558 -0.088892542 -0.187069
-0.035882898 -0.088974439 -0.18707287
-0.035884783 -0.089054167 -0.18708472
-0.035886597 -0.0891378 -0.18710063
-0.03588878 -0.089217655 -0.18710648
-0.035891116 -0.08929956 -0.18711038
-0.035892677 -0.089381106 -0.18713024
-0.035894137 -0.089462623 -0.18715212
-0.035896145 -0.089546338 -0.18716404
-0.03589813 -0.089626111 -0.18717387
-0.035900041 -0.089709796 -0.18718781
-0.035902418 -0.089789733 -0.18718965
-0.035904597 -0.089869589 -0.18719548
-0.035906315 -0.089953184 -0.18721342
-0.035907872 -0.090034738 -0.18723328
-0.035909489 -0.090118289 -0.18725321
-0.035911437 -0.090200014 -0.18726507
-0.035912897 -0.090281524 -0.18728694
-0.035914708 -0.090365164 -0.18730286
-0.035916891 -0.090445019 -0.18730871
-0.03591913 -0.090526879 -0.1873146
-0.035921276 -0.090608686 -0.18732248
-0.035923127 -0.090690367 -0.18733637
-0.035924878 -0.090772003 -0.18735224
-0.035926923 -0.090853773 -0.18736213
-0.035928737 -0.090937413 -0.18737805
-0.035930589 -0.091019094 -0.18739194
-0.03593244 -0.091100775 -0.18740579
-0.035934288 -0.091182455 -0.18741968
-0.035936724 -0.091264397 -0.18742159
-0.035939492 -0.09134452 -0.18741545
-0.035941772 -0.09142442 -0.18741928
-0.035944015 -0.091506273 -0.18742517
-0.035946254 -0.091588125 -0.18743107
-0.035948202 -0.091669858 -0.18744296
-0.035949528 -0.091753274 -0.18746886
-0.035950754 -0.091836654 -0.18749675
-0.035953131 -0.091916591 -0.1874986
-0.035955861 -0.091998667 -0.18749452
-0.035958432 -0.092078701 -0.18749237
-0.03596038 -0.092160419 -0.18750425
-0.03596266 -0.092240319 -0.18750811
-0.035965193 -0.092322305 -0.18750799
-0.035967339 -0.09240412 -0.18751588
-0.035969421 -0.092483938 -0.18752372
-0.035972051 -0.092565961 -0.18752164
-0.035974722 -0.092646033 -0.18751749
-0.035977099 -0.092725977 -0.18751934
-0.035979439 -0.092807874 -0.18752322
-0.03598211 -0.092887945 -0.18751909
-0.03598392 -0.092971593 -0.187535
-0.035985477 -0.09305314 -0.18755487
-0.035987854 -0.093133084 -0.18755671
-0.035990156 -0.093216941 -0.18756266
-0.035991617 -0.09329845 -0.18758452
-0.035993721 -0.09338221 -0.18759444
-0.035996489 -0.093462333 -0.18758832
-0.035998769 -0.093542233 -0.18759216
-0.036001436 -0.093622297 -0.18758802
-0.03600407 -0.093704328 -0.18758592
-0.036006019 -0.093786053 -0.18759781
-0.03600787 -0.093867742 -0.18761167
-0.036010403 -0.09394972 -0.18761158
-0.036012646 -0.09403158 -0.18761747
-0.036014922 -0.09411148 -0.18762131
-0.036017068 -0.094193295 -0.18762919
-0.036018781 -0.09427689 -0.18764712
-0.036021255 -0.094356872 -0.18764697
-0.036024414 -0.09443716 -0.18763286
-0.036026984 -0.094517186 -0.1876307
-0.036028799 -0.094600827 -0.18764663
-0.036030356 -0.094682381 -0.18766649
-0.036032267 -0.094766058 -0.18768041
-0.036034178 -0.094849743 -0.18769434
-0.036035832 -0.094931334 -0.18771221
-0.036037646 -0.095014974 -0.18772814
-0.03603936 -0.09509857 -0.18774605
-0.036041543 -0.095178425 -0.18775189
-0.036045223 -0.095256977 -0.18772575
-0.03604842 -0.095335312 -0.18770957
-0.036050566 -0.09541712 -0.18771745
-0.036053002 -0.095499068 -0.18771935
-0.036055379 -0.095579006 -0.18772119
-0.036057718 -0.09566091 -0.1877251
-0.036060192 -0.095740892 -0.18772495
-0.036061905 -0.095824488 -0.18774286
-0.036064148 -0.095906347 -0.18774876
-0.036066718 -0.095986374 -0.18774661
-0.036069155 -0.096068315 -0.18774851
-0.036071826 -0.096148387 -0.18774435
-0.036074359 -0.096230373 -0.18774426
-0.036076307 -0.096312098 -0.18775614
-0.035147768 -0.066589221 -0.18797076
-0.035149813 -0.066670991 -0.18798065
-0.035151899 -0.066750802 -0.18798849
-0.035153788 -0.066830531 -0.18800032
-0.035154503 -0.066909738 -0.18803611
-0.035153072 -0.066987991 -0.18811586
-0.035827186 -0.087549567 -0.18729272
-0.03583087 -0.087628119 -0.18726657
-0.035835475 -0.087705106 -0.18722039
-0.035840638 -0.087778389 -0.18716015
-0.035844713 -0.08785712 -0.18712601
-0.035848729 -0.087933838 -0.18709181
-0.035851888 -0.088014126 -0.18707769
-0.035855711 -0.08809077 -0.18704748
-0.035859395 -0.088169321 -0.18702134
-0.035861868 -0.088249311 -0.18702118
-0.035863817 -0.088331036 -0.18703306
-0.035866059 -0.088412888 -0.18703896
-0.035868242 -0.088492744 -0.1870448
-0.035870191 -0.088574469 -0.18705669
-0.035872277 -0.088654287 -0.18706453
-0.035874713 -0.088736229 -0.18706642
-0.03587709 -0.088816166 -0.18706828
-0.035879664 -0.0888962 -0.18706612
-0.035882197 -0.088978186 -0.18706602
-0.035883989 -0.08905787 -0.18707986
-0.035885707 -0.089141458 -0.18709776
-0.035887886 -0.089221314 -0.18710361
-0.035890225 -0.089303218 -0.1871075
-0.035891782 -0.089384764 -0.18712738
-0.035893247 -0.089466274 -0.18714926
-0.035895351 -0.089550048 -0.18715918
-0.03589724 -0.089629769 -0.18717101
-0.035899188 -0.089711495 -0.1871829
-0.035901528 -0.089793399 -0.18718678
-0.035903711 -0.089873254 -0.18719263
-0.035905425 -0.08995685 -0.18721054
-0.035906985 -0.090038396 -0.18723042
-0.035908602 -0.090121947 -0.18725035
-0.035910647 -0.090203717 -0.18726021
-0.035912011 -0.090285182 -0.18728408
-0.035913825 -0.090368822 -0.1873
-0.035916004 -0.090448678 -0.18730584
-0.035918247 -0.09053053 -0.18731174
-0.035920389 -0.090612344 -0.18731962
-0.035922244 -0.090694025 -0.18733349
-0.035923995 -0.090775669 -0.18734938
-0.035925943 -0.090857387 -0.18736127
-0.035927854 -0.090941072 -0.18737519
-0.035929706 -0.091022752 -0.18738906
-0.035931557 -0.091104433 -0.18740295
-0.035933409 -0.091186121 -0.18741682
-0.035935845 -0.091268063 -0.18741871
-0.035938613 -0.091348171 -0.18741259
-0.035940893 -0.091428079 -0.18741643
-0.035943039 -0.091509886 -0.1874243
-0.035945378 -0.091591783 -0.18742821
-0.035947423 -0.091673553 -0.18743809
-0.035948649 -0.091756932 -0.187466
-0.035949878 -0.091840312 -0.18749389
-0.035952352 -0.091920301 -0.18749376
-0.035955023 -0.092000373 -0.1874896
-0.035957556 -0.092082351 -0.18748951
-0.035959505 -0.092164084 -0.1875014
-0.035961784 -0.092243984 -0.18750525
-0.035964418 -0.092326008 -0.18750313
-0.03596656 -0.092407823 -0.18751103
-0.035968646 -0.092487633 -0.18751886
-0.03597128 -0.092569664 -0.18751675
-0.035973947 -0.092649736 -0.18751264
-0.035976227 -0.092729636 -0.18751648
-0.035978567 -0.092811532 -0.18752035
-0.035981141 -0.092891566 -0.18751822
-0.035982952 -0.092975199 -0.18753414
-0.035984609 -0.093056798 -0.18755202
-0.035987087 -0.093136787 -0.18755186
-0.035989288 -0.093220592 -0.1875598
-0.035990749 -0.093302101 -0.18758166
-0.035992853 -0.093385868 -0.1875916
-0.035995621 -0.093465984 -0.18758546
-0.035998002 -0.093545929 -0.18758731
-0.036000572 -0.093625963 -0.18758516
-0.036003105 -0.093707949 -0.18758506
-0.036005057 -0.093789667 -0.18759695
-0.036006905 -0.093871355 -0.18761081
-0.036009539 -0.093953386 -0.18760872
-0.036011782 -0.094035238 -0.1876146
-0.036014158 -0.094115183 -0.18761647
-0.036016401 -0.094197035 -0.18762234
-0.036018018 -0.094280586 -0.18764228
-0.036020491 -0.094360575 -0.18764213
-0.03602365 -0.094440863 -0.18762799
-0.036026128 -0.094520852 -0.18762785
-0.036027938 -0.094604485 -0.18764377
-0.036029458 -0.094687991 -0.18766567
-0.03603141 -0.094769716 -0.18767756
-0.036033355 -0.094851442 -0.18768944
-0.036035072 -0.094935037 -0.18770736
-0.036036886 -0.095018677 -0.18772328
-0.0360386 -0.095102265 -0.18774121
-0.036040783 -0.095182128 -0.18774703
-0.036044467 -0.09526068 -0.18772088
-0.036047567 -0.09533897 -0.18770671
-0.036049709 -0.095420778 -0.18771461
-0.036052048 -0.095502682 -0.1877185
-0.036054526 -0.095582664 -0.18771835
-0.036056865 -0.095664561 -0.18772224
-0.036059339 -0.09574455 -0.18772209
-0.036061153 -0.09582819 -0.187738
-0.036063295 -0.095909998 -0.1877459
-0.036065869 -0.095990032 -0.18774375
-0.036068305 -0.096071973 -0.18774566
-0.036071073 -0.09615209 -0.18773952
-0.03607361 -0.096234068 -0.1877394
-0.036075458 -0.096315756 -0.18775329
-0.035146601 -0.066589572 -0.18797079
-0.035148747 -0.066671386 -0.18797868
-0.035150733 -0.066751152 -0.18798852
-0.035152525 -0.066830836 -0.18800235
-0.03515324 -0.066910043 -0.18803814
-0.035151809 -0.066988304 -0.18811788
-0.035825923 -0.087549925 -0.18729275
-0.035829451 -0.087626427 -0.18726856
-0.035834111 -0.087705411 -0.18722242
-0.035839375 -0.087778747 -0.18716016
-0.035843451 -0.08785747 -0.18712604
-0.035847466 -0.087934196 -0.18709184
-0.035850566 -0.088012487 -0.18707767
-0.035854347 -0.088091083 -0.18704951
-0.035858132 -0.088169679 -0.18702134
-0.035860606 -0.088249661 -0.18702121
-0.035862554 -0.088331394 -0.18703309
-0.035864834 -0.088411286 -0.18703693
-0.035866976 -0.088493101 -0.18704483
-0.035868924 -0.088574827 -0.18705671
-0.03587101 -0.088654637 -0.18706454
-0.035873447 -0.088736579 -0.18706644
-0.03587592 -0.088816568 -0.1870663
-0.035878394 -0.088896558 -0.18706614
-0.03588083 -0.088978499 -0.18706805
-0.035882622 -0.089058183 -0.18708187
-0.035884436 -0.089141816 -0.18709779
-0.035886616 -0.089221671 -0.18710363
-0.035888858 -0.089303531 -0.18710953
-0.035890512 -0.089385122 -0.1871274
-0.035892069 -0.089466676 -0.18714727
-0.035893921 -0.089548357 -0.18716115
-0.03589597 -0.089630127 -0.18717103
-0.035897918 -0.089711852 -0.18718292
-0.035900354 -0.089793794 -0.18718481
-0.035902437 -0.089873612 -0.18719265
-0.03590415 -0.0899572 -0.18721056
-0.035905711 -0.090038754 -0.18723044
-0.035907328 -0.090122305 -0.18725035
-0.035909373 -0.090204075 -0.18726024
-0.035910737 -0.09028554 -0.18728411
-0.035912547 -0.09036918 -0.18730003
-0.035914633 -0.09044899 -0.18730786
-0.035916969 -0.090530887 -0.18731177
-0.035919115 -0.090612702 -0.18731965
-0.035920966 -0.090694383 -0.18733352
-0.035922717 -0.090776026 -0.18734941
-0.035924666 -0.090857744 -0.18736129
-0.03592648 -0.090941384 -0.18737721
-0.035928428 -0.09102311 -0.18738909
-0.035930276 -0.091104791 -0.18740296
-0.035932131 -0.091186479 -0.18741685
-0.035934508 -0.091266416 -0.1874187
-0.035937432 -0.091348574 -0.18741061
-0.035939712 -0.091428474 -0.18741444
-0.035941854 -0.091510288 -0.18742234
-0.035944097 -0.09159214 -0.18742824
-0.035945982 -0.091671869 -0.18744007
-0.035947368 -0.09175729 -0.18746603
-0.035948593 -0.09184067 -0.18749392
-0.03595107 -0.091920659 -0.18749377
-0.035953641 -0.092000686 -0.18749163
-0.035956215 -0.092080712 -0.18748948
-0.03595832 -0.092164479 -0.1874994
-0.0359606 -0.092244379 -0.18750326
-0.035962977 -0.092324324 -0.18750511
-0.035965275 -0.09240818 -0.18751106
-0.035967361 -0.092487991 -0.18751889
-0.035969991 -0.092570022 -0.18751678
-0.035972662 -0.092650093 -0.18751265
-0.035974942 -0.092729993 -0.1875165
-0.035977378 -0.092811935 -0.18751839
-0.035979949 -0.092891961 -0.18751624
-0.035981704 -0.092973605 -0.18753213
-0.03598332 -0.093057156 -0.18755203
-0.035985794 -0.093137145 -0.18755189
-0.03598794 -0.093218952 -0.18755978
-0.035989363 -0.093302414 -0.18758368
-0.035991564 -0.093386225 -0.18759161
-0.035994273 -0.093464345 -0.18758543
-0.035996709 -0.093546286 -0.18758732
-0.035999283 -0.09362632 -0.18758519
-0.036001854 -0.093706347 -0.18758303
-0.036003765 -0.093790025 -0.18759696
-0.036005616 -0.093871713 -0.18761083
-0.03600809 -0.093951702 -0.18761069
-0.036010429 -0.094033599 -0.18761459
-0.036012769 -0.094115496 -0.18761846
-0.036015008 -0.094197348 -0.18762437
-0.036016725 -0.094280943 -0.18764228
-0.036019199 -0.094360933 -0.18764214
-0.036022257 -0.094441175 -0.18763001
-0.036024831 -0.09452121 -0.18762785
-0.036026642 -0.094604842 -0.1876438
-0.036028199 -0.094686396 -0.18766364
-0.036030207 -0.094770119 -0.1876756
-0.036032058 -0.094851799 -0.18768945
-0.036033675 -0.09493535 -0.18770939
-0.036035489 -0.09501899 -0.18772531
-0.036037244 -0.095100626 -0.18774118
-0.036039583 -0.095182523 -0.18774506
-0.036043268 -0.095261082 -0.1877189
-0.036046363 -0.095339373 -0.18770474
-0.036048509 -0.09542118 -0.18771262
-0.036050849 -0.095503077 -0.18771651
-0.036053125 -0.095582977 -0.18772036
-0.036055565 -0.095664926 -0.18772227
-0.036058038 -0.095744908 -0.18772212
-0.036059849 -0.095828548 -0.18773803
-0.036061995 -0.095910355 -0.18774593
-0.036064662 -0.095990434 -0.18774179
-0.036067002 -0.096072331 -0.18774568
-0.036069769 -0.096152447 -0.18773952
-0.036072206 -0.096234389 -0.18774143
-0.036074154 -0.096316114 -0.18775332
-0.03520532 -0.066594668 -0.18798861
-0.035207465 -0.066676483 -0.18799648
-0.035209451 -0.066756248 -0.18800633
-0.035211243 -0.066835932 -0.18802017
-0.035211865 -0.066915095 -0.18805796
-0.035210531 -0.066993393 -0.18813568
-0.035884712 -0.087554969 -0.18731248
-0.035888337 -0.087631516 -0.18728629
-0.035893135 -0.087708592 -0.18723612
-0.035898164 -0.087783791 -0.18717992
-0.035902336 -0.087862559 -0.18714377
-0.035906356 -0.087939285 -0.18710959
-0.035909511 -0.088019572 -0.18709545
-0.035913236 -0.088096172 -0.18706726
-0.035917018 -0.08817476 -0.18703909
-0.035919495 -0.08825475 -0.18703896
-0.035921443 -0.088336475 -0.18705082
-0.035923626 -0.088416331 -0.18705668
-0.035925869 -0.08849819 -0.18706256
-0.035927817 -0.088579915 -0.18707444
-0.035929903 -0.088659726 -0.18708229
-0.035932243 -0.088741623 -0.18708618
-0.035934716 -0.088821612 -0.18708602
-0.035937387 -0.088901684 -0.18708187
