# .PCD v0.7 - Point Cloud Data file format
VERSION 0.7
FIELDS x y z
SIZE 4 4 4
TYPE F F F
COUNT 1 1 1
WIDTH 74
HEIGHT 1
VIEWPOINT 0 0 0 1 0 0 0
POINTS 74
DATA ascii
-0.060991377 -0.045545902 -0.17630753
-0.060993824 -0.045621932 -0.17630531
-0.060995534 -0.045695666 -0.17631701
-0.060997084 -0.045767352 -0.17633066
-0.061036345 -0.047116049 -0.17637792
-0.061038796 -0.047192082 -0.17637569
-0.060555976 -0.045613728 -0.1760098
-0.060558073 -0.045687634 -0.17601351
-0.060560621 -0.045763712 -0.17600928
-0.060564362 -0.045844261 -0.17598318
-0.060567554 -0.045922596 -0.17596701
-0.06057065 -0.04600089 -0.17595285
-0.060573488 -0.046077095 -0.17594263
-0.060574748 -0.04614865 -0.17596227
-0.060576003 -0.046220213 -0.17598191
-0.060577709 -0.046293944 -0.17599361
-0.060579907 -0.046367891 -0.17599532
-0.060581613 -0.046441622 -0.17600703
-0.06058332 -0.046515353 -0.17601871
-0.06058532 -0.046589211 -0.17602444
-0.06058722 -0.046663027 -0.17603214
-0.060588829 -0.046736717 -0.17604584
-0.060590379 -0.046808403 -0.1760595
-0.060593028 -0.046884526 -0.17605326
-0.060595673 -0.046960644 -0.17604703
-0.060598571 -0.047038849 -0.17603686
-0.060601119 -0.047114924 -0.17603263
-0.060602926 -0.047188699 -0.17604235
-0.060605019 -0.047262602 -0.17604604
-0.06060702 -0.047336463 -0.17605177
-0.060610764 -0.047417015 -0.17602566
-0.060614698 -0.047497652 -0.17599556
-0.060616698 -0.04757151 -0.17600125
-0.060618699 -0.047645375 -0.17600697
-0.060620893 -0.047719322 -0.1760087
-0.060622659 -0.04779505 -0.17602044
-0.060624406 -0.047866829 -0.1760301
-0.060625918 -0.04794047 -0.17604579
-0.060626626 -0.048009813 -0.17607537
-0.060628626 -0.048083674 -0.17608109
-0.06063123 -0.048161749 -0.17607689
-0.060633231 -0.04823561 -0.17608261
-0.060634684 -0.048307255 -0.17609826
-0.060636491 -0.048381027 -0.17610796
-0.060638588 -0.048454933 -0.17611167
-0.060641292 -0.048533052 -0.1761055
-0.060643781 -0.048607126 -0.17610122
-0.06064539 -0.048680816 -0.17611492
-0.060647096 -0.048754543 -0.17612661
-0.060649935 -0.048830751 -0.17611641
-0.060651742 -0.048904527 -0.17612609
-0.060653739 -0.048978388 -0.17613181
-0.060659286 -0.049132712 -0.17611541
-0.060661677 -0.049206749 -0.17611313
-0.060664028 -0.049282737 -0.17611289
-0.060666028 -0.049356595 -0.17611861
-0.060667638 -0.049430285 -0.17613229
-0.060669445 -0.049504057 -0.17614201
-0.060670797 -0.049575657 -0.17615965
-0.0606727 -0.049649477 -0.17616737
-0.060674954 -0.049725421 -0.17616913
-0.060677305 -0.049801409 -0.17616889
-0.060679305 -0.049875271 -0.17617458
-0.060680367 -0.049946744 -0.17619823
-0.060681626 -0.050018303 -0.17621788
-0.060688328 -0.050244141 -0.17622313
-0.06069072 -0.050318174 -0.17622083
-0.060693268 -0.050394252 -0.1762166
-0.060695816 -0.050470326 -0.17621239
-0.060697716 -0.050544146 -0.17622009
-0.060722515 -0.051369689 -0.17623325
-0.060724124 -0.051443376 -0.17624694
-0.060739204 -0.052035827 -0.17631263
-0.060741205 -0.052109689 -0.17631835
