# .PCD v0.7 - Point Cloud Data file format
VERSION 0.7
FIELDS x y z
SIZE 4 4 4
TYPE F F F
COUNT 1 1 1
WIDTH 1270
HEIGHT 1
VIEWPOINT 0 0 0 1 0 0 0
POINTS 1270
DATA ascii
-0.091406733 -0.082223743 -0.19017611
-0.091404572 -0.082143888 -0.19017026
-0.091401719 -0.082063727 -0.19017836
-0.091398582 -0.081983432 -0.19019249
-0.091395542 -0.081903182 -0.19020459
-0.091392398 -0.081822887 -0.1902187
-0.091389649 -0.081742771 -0.19022483
-0.09138719 -0.081662782 -0.19022495
-0.09138415 -0.081582531 -0.19023706
-0.09138111 -0.081502289 -0.19024917
-0.091378555 -0.081422254 -0.19025131
-0.091376685 -0.081342533 -0.19023946
-0.091374651 -0.081260763 -0.19022954
-0.091371804 -0.081180602 -0.19023767
-0.091368474 -0.081100218 -0.19025578
-0.091365524 -0.081020012 -0.19026588
-0.091363169 -0.080940068 -0.19026402
-0.091361098 -0.080860257 -0.19025615
-0.091358744 -0.080780312 -0.1902543
-0.091355734 -0.08069811 -0.19026437
-0.09135256 -0.080619767 -0.19028051
-0.091349907 -0.080539696 -0.19028464
-0.091347389 -0.08045771 -0.19028473
-0.091344833 -0.080377683 -0.19028684
-0.091342673 -0.080297828 -0.19028097
-0.091340601 -0.08021801 -0.19027314
-0.091338187 -0.080136068 -0.19027121
-0.091335438 -0.080055952 -0.19027734
-0.091332495 -0.079975747 -0.19028744
-0.09132994 -0.079895712 -0.19028959
-0.091327675 -0.079815812 -0.19028571
-0.091324925 -0.079735696 -0.19029184
-0.09132202 -0.079653539 -0.19029991
-0.091320053 -0.079573765 -0.19029005
-0.091317788 -0.079493865 -0.19028619
-0.091314942 -0.079413705 -0.19029431
-0.091312192 -0.079333588 -0.19030042
-0.091309443 -0.079253472 -0.19030654
-0.091307022 -0.079171523 -0.19030464
-0.091304958 -0.079091713 -0.19029677
-0.091303281 -0.079012081 -0.19028091
-0.091301352 -0.078930356 -0.19026902
-0.091298498 -0.078850195 -0.19027714
-0.091295362 -0.0787699 -0.19029126
-0.091293201 -0.078690045 -0.19028538
-0.09129113 -0.078610227 -0.19027753
-0.091289103 -0.078528464 -0.19026762
-0.091287427 -0.078448825 -0.19025177
-0.091285259 -0.078368969 -0.19024593
-0.091282651 -0.078286938 -0.190248
-0.091280192 -0.078206956 -0.19024813
-0.091278225 -0.078127183 -0.19023827
-0.091275997 -0.078045331 -0.19023237
-0.09127374 -0.077965431 -0.19022851
-0.091271669 -0.07788562 -0.19022064
-0.09126921 -0.077805631 -0.19022077
-0.091265976 -0.077725291 -0.19023688
-0.091262832 -0.077645004 -0.19025099
-0.091259986 -0.077564836 -0.1902591
-0.09125708 -0.077482678 -0.19026718
-0.091254622 -0.077402689 -0.19026731
-0.091252558 -0.077322878 -0.19025946
-0.09125039 -0.077243023 -0.19025359
-0.091248132 -0.077163123 -0.19024971
-0.091245808 -0.077081226 -0.19024581
-0.091243252 -0.077001192 -0.19024795
-0.091240607 -0.07692112 -0.19025207
-0.091238149 -0.076841131 -0.19025218
-0.091236413 -0.076759495 -0.1902363
-0.091235027 -0.07667999 -0.19021446
-0.091232866 -0.076600134 -0.19020858
-0.091230504 -0.07652019 -0.19020672
-0.091227792 -0.076438121 -0.1902108
-0.091224849 -0.076357916 -0.19022092
-0.0912221 -0.076277792 -0.19022703
-0.091220126 -0.076198027 -0.1902172
-0.091218159 -0.076118261 -0.19020733
-0.09121564 -0.076036274 -0.19020742
-0.0912126 -0.075956024 -0.19021952
-0.091209657 -0.075875819 -0.19022964
-0.091207199 -0.075795829 -0.19022977
-0.091204837 -0.075715885 -0.1902279
-0.09120252 -0.075633988 -0.19022399
-0.091200061 -0.075553998 -0.19022413
-0.091197506 -0.075473972 -0.19022626
-0.091195151 -0.075394027 -0.19022438
-0.091193274 -0.075314298 -0.19021253
-0.091190562 -0.07523223 -0.1902166
-0.09118782 -0.075152107 -0.19022273
-0.091185845 -0.075072341 -0.19021288
-0.091183484 -0.074992396 -0.190211
-0.091180936 -0.074912369 -0.19021313
-0.0911792 -0.074830733 -0.19019723
-0.091177322 -0.074751005 -0.1901854
-0.091174573 -0.074670888 -0.19019151
-0.091171086 -0.074588463 -0.19021156
-0.091168627 -0.074508481 -0.19021168
-0.091166168 -0.074428491 -0.19021182
-0.091163322 -0.07434833 -0.19021994
-0.091161005 -0.074266434 -0.19021603
-0.091159426 -0.074186839 -0.19019818
-0.091157258 -0.074106984 -0.19019231
-0.091155 -0.074027084 -0.19018845
-0.091152541 -0.073947094 -0.19018859
-0.091149829 -0.073865019 -0.19019267
-0.091147862 -0.073785253 -0.19018281
-0.091146082 -0.073705569 -0.19016895
-0.091143727 -0.073625632 -0.19016708
-0.091141075 -0.073545553 -0.19017121
-0.091138653 -0.073463611 -0.1901693
-0.091136977 -0.073383972 -0.19015345
-0.091135204 -0.073304296 -0.19013959
-0.091132648 -0.073224261 -0.19014172
-0.091129996 -0.07314419 -0.19014585
-0.091127776 -0.073062338 -0.19013995
-0.091126487 -0.07298287 -0.19011611
-0.09112481 -0.072903238 -0.19010025
-0.091122456 -0.072823294 -0.19009839
-0.0911199 -0.072743259 -0.19010052
-0.091117576 -0.072661363 -0.1900966
-0.091115117 -0.072581373 -0.19009674
-0.091112174 -0.072501168 -0.19010685
-0.091109328 -0.072421007 -0.19011497
-0.091106676 -0.072340935 -0.19011909
-0.091104649 -0.072259165 -0.19010919
-0.091102876 -0.072179481 -0.19009534
-0.091100611 -0.072099581 -0.19009149
-0.091098741 -0.07201986 -0.19007963
-0.091096476 -0.07193996 -0.19007576
-0.091093764 -0.071857885 -0.19007984
-0.091091216 -0.071777858 -0.19008195
-0.091088854 -0.071697913 -0.19008009
-0.091086105 -0.071617797 -0.19008622
-0.091083489 -0.071535766 -0.1900883
-0.091081329 -0.071455911 -0.19008243
-0.091078967 -0.071375966 -0.19008057
-0.091076218 -0.07129585 -0.19008669
-0.091073506 -0.071213774 -0.19009078
-0.091071635 -0.071134053 -0.19007891
-0.091069661 -0.07105428 -0.19006905
-0.09106721 -0.070974298 -0.19006918
-0.091065235 -0.070894524 -0.19005933
-0.091062918 -0.070812628 -0.19005542
-0.091059774 -0.070732333 -0.19006953
-0.091056928 -0.070652172 -0.19007765
-0.091054574 -0.070572227 -0.19007578
-0.091051765 -0.070490114 -0.19008185
-0.091049306 -0.070410125 -0.19008198
-0.091047138 -0.07033027 -0.19007611
-0.091044627 -0.070248283 -0.1900762
-0.091041878 -0.070168167 -0.19008233
-0.091039613 -0.070088267 -0.19007847
-0.091037549 -0.070008457 -0.1900706
-0.0910348 -0.069928333 -0.19007672
-0.091032185 -0.069846302 -0.19007879
-0.09102992 -0.069766402 -0.19007494
-0.091027364 -0.069686376 -0.19007707
-0.091025144 -0.069604516 -0.19007115
-0.091022782 -0.069524579 -0.19006929
-0.091019936 -0.069444418 -0.19007741
-0.091016933 -0.069362208 -0.19008747
-0.091014281 -0.069282137 -0.19009161
-0.091012016 -0.069202237 -0.19008774
-0.091010638 -0.069122732 -0.19006589
-0.091008663 -0.069042966 -0.19005604
-0.091005273 -0.068960585 -0.1900741
-0.09100233 -0.068880379 -0.19008422
-0.091000006 -0.068798475 -0.1900803
-0.090997644 -0.068718538 -0.19007844
-0.090995193 -0.068638548 -0.19007856
-0.090992928 -0.068558648 -0.1900747
-0.090990864 -0.068478838 -0.19006684
-0.090988539 -0.068396941 -0.19006294
-0.090985984 -0.068316907 -0.19006506
-0.09098392 -0.068237096 -0.19005719
-0.090981945 -0.068157323 -0.19004735
-0.090979591 -0.068077385 -0.19004548
-0.090977363 -0.067995526 -0.19003956
-0.090975203 -0.067915671 -0.1900337
-0.090973139 -0.06783586 -0.19002584
-0.090970874 -0.06775596 -0.19002199
-0.090968512 -0.067676015 -0.19002011
-0.090965904 -0.067593984 -0.1900222
-0.090963639 -0.067514092 -0.19001833
-0.090961181 -0.067434102 -0.19001845
-0.09095902 -0.067354247 -0.1900126
-0.090956949 -0.067274436 -0.19000474
-0.090954438 -0.06719245 -0.19000483
-0.090952076 -0.067112505 -0.19000295
-0.090950109 -0.06703274 -0.1899931
-0.090948433 -0.0669531 -0.18997726
-0.090945877 -0.066873066 -0.18997937
-0.090943262 -0.066791035 -0.18998146
-0.090941295 -0.066711269 -0.1899716
-0.090939224 -0.066631459 -0.18996374
-0.090937063 -0.066551603 -0.18995789
-0.090935089 -0.06647183 -0.18994802
-0.090933412 -0.066392198 -0.18993218
-0.090931058 -0.066312253 -0.18993032
-0.090928152 -0.066230088 -0.18993838
-0.090925887 -0.066150188 -0.18993452
-0.090924017 -0.066070467 -0.18992266
-0.090921849 -0.065990612 -0.1899168
-0.090919301 -0.065910578 -0.18991894
-0.090916783 -0.065828592 -0.18991901
-0.090914227 -0.065748565 -0.18992114
-0.090911672 -0.065668531 -0.18992326
-0.090909451 -0.065586679 -0.18991736
-0.09090738 -0.065506868 -0.1899095
-0.090905219 -0.065427013 -0.18990365
-0.090902857 -0.065347068 -0.18990177
-0.090900697 -0.065267213 -0.18989591
-0.090898372 -0.065185316 -0.18989199
-0.090896212 -0.065105461 -0.18988612
-0.090894043 -0.065025605 -0.18988028
-0.090891488 -0.064945571 -0.1898824
-0.090889134 -0.064865626 -0.18988052
-0.090886712 -0.064783685 -0.18987861
-0.09088435 -0.06470374 -0.18987675
-0.090882383 -0.064623974 -0.1898669
-0.090880215 -0.064544119 -0.18986103
-0.090878054 -0.064464264 -0.18985517
-0.090876088 -0.06438449 -0.18984531
-0.090874217 -0.064304769 -0.18983346
-0.090872087 -0.064222962 -0.18982555
-0.090869725 -0.064143017 -0.18982369
-0.090866879 -0.064062856 -0.18983181
-0.090863876 -0.063980646 -0.18984187
-0.09086097 -0.063898489 -0.18984994
-0.09085881 -0.063818634 -0.18984409
-0.090857029 -0.06373895 -0.18983023
-0.090855218 -0.063661225 -0.18981843
-0.090852998 -0.063579373 -0.18981251
-0.090850733 -0.063499473 -0.18980865
-0.090848766 -0.0634197 -0.1897988
-0.090846501 -0.0633398 -0.18979493
-0.090843499 -0.063257597 -0.189805
-0.090840846 -0.063177526 -0.18980911
-0.090838782 -0.063097715 -0.18980128
-0.090836555 -0.063015856 -0.18979536
-0.090834394 -0.062936001 -0.1897895
-0.09083233 -0.06285619 -0.18978164
-0.090829775 -0.062776156 -0.18978377
-0.090826765 -0.062693954 -0.18979384
-0.090824507 -0.062614053 -0.18978997
-0.090823025 -0.062534504 -0.18977013
-0.090821698 -0.062456999 -0.18974833
-0.090819187 -0.062375013 -0.18974841
-0.090816535 -0.062294938 -0.18975255
-0.090814076 -0.062214948 -0.18975267
-0.090811558 -0.062132962 -0.18975276
-0.090809003 -0.062052935 -0.18975487
-0.090806648 -0.061972991 -0.18975301
-0.09080448 -0.061893135 -0.18974715
-0.090801962 -0.061811149 -0.18974724
-0.090800092 -0.061731424 -0.18973538
-0.090798967 -0.061654005 -0.1897096
-0.090797089 -0.06157428 -0.18969774
-0.090794638 -0.061494295 -0.18969788
-0.09079212 -0.061412308 -0.18969795
-0.090789758 -0.061332364 -0.18969607
-0.090787694 -0.061252549 -0.18968824
-0.090785526 -0.061172694 -0.18968236
-0.090783015 -0.061090712 -0.18968245
-0.090780362 -0.061010636 -0.18968657
-0.090778038 -0.06092874 -0.18968266
-0.090775937 -0.060850881 -0.18967685
-0.090774007 -0.060769156 -0.18966495
-0.090772286 -0.060691476 -0.18965115
-0.090770066 -0.06060962 -0.18964523
-0.090767704 -0.060529679 -0.18964337
-0.090765253 -0.06044969 -0.1896435
-0.090762638 -0.060367659 -0.18964559
-0.090759985 -0.060287587 -0.1896497
-0.090757176 -0.060205467 -0.18965578
-0.090754911 -0.060125567 -0.18965191
-0.090752944 -0.060045801 -0.18964206
-0.090750776 -0.059965946 -0.1896362
-0.090748325 -0.059885956 -0.18963632
-0.090745516 -0.05980384 -0.1896424
-0.090742804 -0.059721768 -0.18964648
-0.090740249 -0.059641734 -0.1896486
-0.090737045 -0.059559442 -0.18966267
-0.090734437 -0.059477415 -0.18966475
-0.09073256 -0.05939769 -0.18965289
-0.090730749 -0.059319966 -0.18964109
-0.090729371 -0.05924046 -0.18961924
-0.090727299 -0.05916065 -0.18961139
-0.090724841 -0.05908066 -0.18961152
-0.090722233 -0.058998629 -0.1896136
-0.090719871 -0.058918685 -0.18961173
-0.090717606 -0.058838785 -0.18960786
-0.090715349 -0.058758888 -0.18960401
-0.090712734 -0.058676858 -0.18960609
-0.090710275 -0.058596872 -0.18960622
-0.090708405 -0.058517143 -0.18959436
-0.090706632 -0.058437467 -0.18958052
-0.09070456 -0.058357656 -0.18957265
-0.090701848 -0.05827558 -0.18957673
-0.090699397 -0.058195591 -0.18957685
-0.090697132 -0.058115691 -0.18957299
-0.090694621 -0.058033708 -0.18957308
-0.090691805 -0.057951592 -0.18957916
-0.090689644 -0.057871737 -0.18957329
-0.090687677 -0.057791967 -0.18956342
-0.090685219 -0.057711981 -0.18956357
-0.0906827 -0.057629995 -0.18956363
-0.09068054 -0.05755014 -0.18955778
-0.090678468 -0.057470325 -0.18954992
-0.090676308 -0.057390466 -0.18954405
-0.090673946 -0.057310525 -0.1895422
-0.090671979 -0.057230756 -0.18953234
-0.090669915 -0.057150945 -0.18952447
-0.090667203 -0.057068873 -0.18952855
-0.090665229 -0.056989104 -0.18951871
-0.090663612 -0.056911469 -0.18950289
-0.090661839 -0.056831785 -0.18948905
-0.090660065 -0.056752108 -0.18947519
-0.090658352 -0.056674421 -0.18946141
-0.090656027 -0.056592524 -0.18945748
-0.09065377 -0.056512624 -0.18945362
-0.090652347 -0.056435071 -0.18943383
-0.09065067 -0.056355439 -0.18941797
-0.090648405 -0.056275535 -0.18941411
-0.090646341 -0.056195728 -0.18940625
-0.090644374 -0.056115955 -0.1893964
-0.090642855 -0.056038365 -0.1893786
-0.090641178 -0.055958726 -0.18936275
-0.090638719 -0.055878736 -0.18936288
-0.090635717 -0.055796534 -0.18937296
-0.090633452 -0.055716634 -0.18936908
-0.090631776 -0.055636995 -0.18935324
-0.090629965 -0.05555927 -0.18934143
-0.090627991 -0.0554795 -0.18933158
-0.090626217 -0.05539982 -0.18931773
-0.090624347 -0.055320099 -0.18930587
-0.090622284 -0.055240285 -0.18929802
-0.090620115 -0.055160429 -0.18929216
-0.090618305 -0.055082705 -0.18928033
-0.090616919 -0.055003196 -0.18925852
-0.090615205 -0.054925516 -0.1892447
-0.090613432 -0.054845836 -0.18923086
-0.090611659 -0.054766156 -0.189217
-0.090609297 -0.054686211 -0.18921512
-0.090607233 -0.0546064 -0.18920729
-0.090605713 -0.054528803 -0.18918946
-0.090603545 -0.054448947 -0.18918362
-0.090600736 -0.054366831 -0.18918969
-0.090598121 -0.0542848 -0.18919177
-0.090595767 -0.054204859 -0.18918991
-0.090592861 -0.054122698 -0.18919797
-0.090589702 -0.05403845 -0.18921
-0.090586692 -0.053956244 -0.18922007
-0.090580881 -0.053866863 -0.18928391
-0.090577722 -0.053782616 -0.18929592
-0.090574227 -0.053700194 -0.18931597
-0.090569586 -0.053611338 -0.18935588
-0.091122687 -0.085537754 -0.19021815
-0.091122843 -0.085454993 -0.19016227
-0.09112411 -0.085370764 -0.19008237
-0.091127656 -0.085285582 -0.1899545
-0.091127813 -0.085202821 -0.18989861
-0.091126561 -0.085121408 -0.18987274
-0.091125019 -0.085039854 -0.18985285
-0.091123283 -0.084958225 -0.18983695
-0.091121309 -0.084878452 -0.1898271
-0.091119282 -0.084796689 -0.18981719
-0.091117114 -0.084716827 -0.18981133
-0.091114655 -0.084636845 -0.18981147
-0.0911121 -0.084556811 -0.1898136
-0.091108963 -0.084476516 -0.18982771
-0.091106206 -0.0843964 -0.18983382
-0.091104239 -0.084316634 -0.18982396
-0.091102168 -0.084236823 -0.18981612
-0.091098934 -0.084156483 -0.18983221
-0.091095164 -0.08407788 -0.18986034
-0.091091834 -0.083997503 -0.18987846
-0.091088884 -0.083917297 -0.18988857
-0.091085903 -0.083839044 -0.18990073
-0.091083445 -0.083759055 -0.18990088
-0.09108083 -0.083677024 -0.18990295
-0.091077551 -0.083598644 -0.1899211
-0.091073297 -0.083519824 -0.18995923
-0.091069572 -0.083439268 -0.18998532
-0.091066398 -0.083360933 -0.19000146
-0.091063157 -0.083280593 -0.19001758
-0.091060117 -0.083200343 -0.19002968
-0.091057457 -0.083120272 -0.19003381
-0.091054611 -0.083040103 -0.19004193
-0.091051728 -0.082961902 -0.19005209
-0.091048621 -0.082879648 -0.19006416
-0.091045544 -0.082801357 -0.19007832
-0.091042399 -0.082721062 -0.19009243
-0.091039553 -0.082640901 -0.19010055
-0.091036312 -0.082560562 -0.19011664
-0.091033176 -0.082480267 -0.19013076
-0.091030322 -0.082400106 -0.19013888
-0.091027573 -0.08231999 -0.190145
-0.091024727 -0.082239829 -0.19015312
-0.091021836 -0.08216162 -0.19016328
-0.09101864 -0.082079329 -0.19017735
-0.091015756 -0.08200112 -0.1901875
-0.091012843 -0.081918955 -0.19019558
-0.091010094 -0.081838839 -0.1902017
-0.091007501 -0.081760764 -0.19020587
-0.091004692 -0.081678644 -0.19021195
-0.091001846 -0.081598483 -0.19022006
-0.090998799 -0.081518233 -0.19023219
-0.090995662 -0.081437945 -0.19024628
-0.090992808 -0.081357777 -0.19025441
-0.09099035 -0.081277795 -0.19025454
-0.090987891 -0.081197806 -0.19025466
-0.090985335 -0.081117772 -0.1902568
-0.090982683 -0.0810377 -0.19026092
-0.090979934 -0.080957584 -0.19026703
-0.090977125 -0.080875464 -0.19027312
-0.090974569 -0.080795437 -0.19027524
-0.09097182 -0.080715314 -0.19028136
-0.090968773 -0.080635063 -0.19029348
-0.090966024 -0.080554947 -0.1902996
-0.090963371 -0.080474876 -0.19030371
-0.090960719 -0.080394797 -0.19030786
-0.090958066 -0.080314726 -0.19031197
-0.090955414 -0.080234647 -0.1903161
-0.090952754 -0.080154575 -0.19032022
-0.090950437 -0.080072679 -0.1903163
-0.090948366 -0.079992861 -0.19030845
-0.090945944 -0.079910919 -0.19030654
-0.090943255 -0.0798328 -0.19031271
-0.090940408 -0.079752639 -0.19032082
-0.090937696 -0.079670563 -0.1903249
-0.090935335 -0.079590626 -0.19032302
-0.090932876 -0.079510637 -0.19032316
-0.090930223 -0.079430558 -0.19032729
-0.090927474 -0.079350442 -0.19033341
-0.090924956 -0.079268456 -0.19033349
-0.090922497 -0.079188466 -0.19033362
-0.090920329 -0.079108611 -0.19032776
-0.090918787 -0.079027064 -0.19030789
-0.090916328 -0.078947082 -0.190308
-0.090913676 -0.078867003 -0.19031212
-0.090911709 -0.078787237 -0.19030228
-0.090910263 -0.078705728 -0.19028038
-0.090908684 -0.078626141 -0.19026254
-0.090906322 -0.078546196 -0.19026068
-0.090903804 -0.07846421 -0.19026075
-0.090901934 -0.078384481 -0.19024891
-0.090899996 -0.078302763 -0.190237
-0.090897635 -0.078222819 -0.19023514
-0.090895176 -0.078142829 -0.19023526
-0.090892822 -0.078062885 -0.19023341
-0.090890363 -0.077982903 -0.19023353
-0.090887159 -0.077900611 -0.1902476
-0.090884507 -0.077820532 -0.19025171
-0.090882145 -0.077740587 -0.19024985
-0.090879686 -0.077660605 -0.19024998
-0.090877324 -0.077580661 -0.19024812
-0.090875201 -0.077498846 -0.1902402
-0.090872742 -0.077418864 -0.19024034
-0.09087009 -0.077338785 -0.19024447
-0.090867244 -0.077258624 -0.19025259
-0.090864584 -0.077178553 -0.1902567
-0.090862364 -0.077096693 -0.1902508
-0.090859905 -0.077016711 -0.19025093
-0.090857059 -0.076936543 -0.19025904
-0.090854891 -0.076856688 -0.1902532
-0.090852529 -0.07677675 -0.19025132
-0.090849526 -0.076694541 -0.19026138
-0.090846971 -0.076614514 -0.19026351
-0.090845197 -0.07653483 -0.19024967
-0.090843029 -0.076454975 -0.19024381
-0.090839982 -0.076374725 -0.19025591
-0.090836495 -0.076292306 -0.19027597
-0.09083394 -0.076212272 -0.19027808
-0.090832554 -0.076132767 -0.19025627
-0.090830579 -0.076053001 -0.1902464
-0.090828158 -0.075971052 -0.19024448
-0.090825699 -0.07589107 -0.19024462
-0.090823047 -0.075810991 -0.19024874
-0.090820685 -0.075731054 -0.19024688
-0.090818368 -0.07564915 -0.19024298
-0.0908162 -0.075569294 -0.1902371
-0.090814136 -0.075489484 -0.19022924
-0.090811968 -0.075409628 -0.1902234
-0.0908098 -0.075329773 -0.19021752
-0.090807088 -0.075247698 -0.19022159
-0.090804242 -0.075167537 -0.19022971
-0.090801589 -0.075087465 -0.19023384
-0.09079913 -0.075007476 -0.19023398
-0.090797156 -0.07492771 -0.19022411
-0.090795323 -0.074846029 -0.19021022
-0.090793155 -0.074766174 -0.19020437
-0.090790801 -0.074686229 -0.1902025
-0.090787791 -0.074604027 -0.19021255
-0.090785138 -0.074523948 -0.19021669
-0.090783559 -0.074444354 -0.19019884
-0.090781391 -0.074364498 -0.19019297
-0.090778485 -0.074282341 -0.19020104
-0.090776317 -0.074202485 -0.1901952
-0.090774156 -0.07412263 -0.19018933
-0.090771891 -0.07404273 -0.19018546
-0.09076982 -0.073962919 -0.1901776
-0.090767406 -0.07388097 -0.19017568
-0.09076485 -0.073800944 -0.19017783
-0.090762682 -0.073721088 -0.19017196
-0.090760611 -0.073641278 -0.19016409
-0.090758249 -0.073561333 -0.19016224
-0.090755738 -0.073479347 -0.19016232
-0.090753183 -0.073399313 -0.19016445
-0.090751015 -0.073319457 -0.19015858
-0.090748943 -0.073239647 -0.19015072
-0.090746976 -0.073159881 -0.19014087
-0.090744652 -0.073077984 -0.19013697
-0.090742387 -0.072998084 -0.19013309
-0.090740032 -0.072918139 -0.19013122
-0.090737574 -0.07283815 -0.19013137
-0.090735152 -0.072756208 -0.19012944
-0.090732887 -0.072676308 -0.19012557
-0.090730138 -0.072596192 -0.19013169
-0.090727389 -0.072516069 -0.19013782
-0.090724967 -0.072434127 -0.1901359
-0.090722606 -0.07235419 -0.19013405
-0.090720341 -0.07227429 -0.19013017
-0.090717979 -0.072194345 -0.1901283
-0.090715326 -0.072114266 -0.19013244
-0.090712711 -0.072032243 -0.19013451
-0.090710059 -0.071952164 -0.19013864
-0.090707801 -0.071872264 -0.19013476
-0.090705827 -0.071792498 -0.19012493
-0.090703405 -0.071710557 -0.19012301
-0.090700947 -0.071630567 -0.19012314
-0.090698689 -0.071550667 -0.19011927
-0.090696365 -0.071468771 -0.19011536
-0.090694003 -0.071388826 -0.19011348
-0.09069135 -0.071308754 -0.19011761
-0.090688407 -0.071228549 -0.19012773
-0.090686433 -0.071148776 -0.19011787
-0.090684794 -0.071067184 -0.19009998
-0.090682432 -0.070987239 -0.19009811
-0.090679683 -0.070907123 -0.19010425
-0.090676777 -0.070824966 -0.19011232
-0.090673923 -0.070744798 -0.19012043
-0.090671271 -0.070664726 -0.19012456
-0.090668716 -0.0705847 -0.19012669
-0.0906661 -0.070502669 -0.19012876
-0.090663545 -0.070422634 -0.19013089
-0.090660699 -0.070342474 -0.190139
-0.090658084 -0.070260443 -0.19014108
-0.090656213 -0.070180722 -0.19012924
-0.090653755 -0.070100732 -0.19012937
-0.090650551 -0.07001844 -0.19014344
-0.090648293 -0.06993854 -0.19013956
-0.09064661 -0.069858901 -0.19012371
-0.090644054 -0.069778875 -0.19012584
-0.090640955 -0.069696628 -0.19013791
-0.090638496 -0.069616638 -0.19013804
-0.090636522 -0.069536872 -0.19012818
-0.09063381 -0.069454797 -0.19013226
-0.090631351 -0.069374807 -0.19013238
-0.090629287 -0.069294997 -0.19012453
-0.090627119 -0.069215141 -0.19011867
-0.090624757 -0.069135197 -0.19011679
-0.090622142 -0.069053166 -0.19011888
-0.090619393 -0.06897305 -0.19012502
-0.090616934 -0.06889306 -0.19012514
-0.090614714 -0.068811208 -0.19011922
-0.090612255 -0.068731219 -0.19011936
-0.090609699 -0.068651192 -0.19012149
-0.090607375 -0.068569288 -0.19011757
-0.090605207 -0.068489432 -0.1901117
-0.090602949 -0.068409532 -0.19010785
-0.090600096 -0.068329372 -0.19011596
-0.09059719 -0.068247214 -0.19012403
-0.090595126 -0.068167403 -0.19011618
-0.090593345 -0.068087719 -0.19010232
-0.090591475 -0.068007998 -0.19009048
-0.090590186 -0.067928538 -0.19006664
-0.090588994 -0.067849115 -0.1900408
-0.090586931 -0.067769304 -0.19003296
-0.090584762 -0.067689449 -0.19002709
-0.090582885 -0.067609727 -0.19001524
-0.090580821 -0.067529909 -0.19000739
-0.090578303 -0.067447923 -0.19000746
-0.090576135 -0.067368068 -0.19000159
-0.090574168 -0.067288302 -0.18999174
-0.090571418 -0.067208186 -0.18999785
-0.090568505 -0.067126021 -0.19000593
-0.090566047 -0.067046031 -0.19000608
-0.090563983 -0.066966221 -0.18999821
-0.090562209 -0.066886544 -0.18998437
-0.090559691 -0.066804558 -0.18998444
-0.090557329 -0.066724613 -0.18998256
-0.090555355 -0.066644847 -0.18997273
-0.090552799 -0.066564813 -0.18997484
-0.09055005 -0.066484697 -0.18998095
-0.090547338 -0.066402622 -0.18998504
-0.090545073 -0.066322722 -0.18998119
-0.090543397 -0.066243082 -0.18996534
-0.09054143 -0.066163316 -0.18995547
-0.090539165 -0.066083416 -0.18995161
-0.090536743 -0.066001475 -0.18994969
-0.090534776 -0.065921709 -0.18993986
-0.090532996 -0.065842025 -0.189926
-0.090530932 -0.065762214 -0.18991813
-0.090528473 -0.065682225 -0.18991828
-0.090525463 -0.065600023 -0.18992834
-0.09052252 -0.065519817 -0.18993846
-0.090520099 -0.065437876 -0.18993653
-0.090517841 -0.065357976 -0.18993267
-0.090515867 -0.06527821 -0.18992281
-0.0905139 -0.065198436 -0.18991297
-0.090511538 -0.065118499 -0.1899111
-0.090509214 -0.065036595 -0.18990718
-0.090506852 -0.06495665 -0.18990532
-0.090504587 -0.064876758 -0.18990144
-0.090502329 -0.064796858 -0.1898976
-0.09049987 -0.064716868 -0.18989772
-0.090497255 -0.064634837 -0.1898998
-0.090495087 -0.064554982 -0.18989393
-0.090493314 -0.064475298 -0.18988009
-0.090491146 -0.064395443 -0.18987423
-0.090488687 -0.064315461 -0.18987435
-0.090486072 -0.06423343 -0.18987644
-0.090483807 -0.06415353 -0.18987256
-0.090481646 -0.064073674 -0.18986672
-0.090479478 -0.063993819 -0.18986085
-0.090477251 -0.06391196 -0.18985495
-0.090474799 -0.063831978 -0.18985507
-0.090472139 -0.063751899 -0.18985921
-0.090469629 -0.06366992 -0.18985927
-0.090466969 -0.063589841 -0.1898634
-0.090464354 -0.06350781 -0.18986547
-0.090461701 -0.063427739 -0.18986961
-0.090458795 -0.063345574 -0.18987769
-0.090456143 -0.063265502 -0.1898818
-0.090453818 -0.063183606 -0.1898779
-0.090451755 -0.063103795 -0.18987003
-0.09044949 -0.063023895 -0.18986617
-0.090447128 -0.06294395 -0.18986431
-0.090444766 -0.062864006 -0.18986243
-0.090442643 -0.062782198 -0.18985453
-0.090440378 -0.062702298 -0.18985066
-0.090437919 -0.062622309 -0.18985079
-0.090435497 -0.062540367 -0.18984887
-0.090433687 -0.062462639 -0.18983707
-0.090431713 -0.062382869 -0.18982723
-0.090429299 -0.062300928 -0.18982531
-0.090426743 -0.062220898 -0.18982744
-0.090424225 -0.062138911 -0.18982752
-0.090421669 -0.062058881 -0.18982965
-0.090419695 -0.061979115 -0.18981978
-0.09041743 -0.061899215 -0.18981594
-0.090414822 -0.061817184 -0.18981799
-0.090412751 -0.061737373 -0.18981016
-0.09041068 -0.061657563 -0.18980229
-0.090408616 -0.061577749 -0.18979442
-0.090406738 -0.061498024 -0.18978257
-0.090404965 -0.061418343 -0.18976873
-0.090402991 -0.061338574 -0.18975887
-0.090400927 -0.061258763 -0.18975101
-0.090398759 -0.061178908 -0.18974516
-0.090396397 -0.061098963 -0.18974328
-0.090393983 -0.061017022 -0.18974137
-0.090392165 -0.060939297 -0.18972957
-0.090390198 -0.060859527 -0.18971971
-0.090386935 -0.060775235 -0.18973371
-0.090383798 -0.06069494 -0.18974784
-0.090381376 -0.060612999 -0.18974592
-0.090378918 -0.060533017 -0.18974605
-0.090376109 -0.060450897 -0.18975213
-0.090374134 -0.060371131 -0.18974227
-0.090372711 -0.060293578 -0.18972248
-0.090371422 -0.060214117 -0.18969864
-0.09036877 -0.060134042 -0.18970276
-0.090365276 -0.06005162 -0.18972282
-0.090362668 -0.059969589 -0.18972489
-0.090360403 -0.059889689 -0.18972103
-0.090357788 -0.059807658 -0.18972312
-0.090355232 -0.059727628 -0.18972525
-0.090353064 -0.059647772 -0.18971938
-0.090351485 -0.059568182 -0.18970153
-0.090349413 -0.059488367 -0.18969367
-0.090346508 -0.059406206 -0.18970174
-0.090343215 -0.05932387 -0.1897178
-0.090340599 -0.059241842 -0.18971989
-0.090339072 -0.059164248 -0.18970209
-0.090337589 -0.059084699 -0.18968226
-0.09033636 -0.059007235 -0.18965846
-0.090334296 -0.058927424 -0.18965061
-0.090331092 -0.058845129 -0.18966466
-0.090327993 -0.058762882 -0.18967673
-0.090325728 -0.058682982 -0.18967287
-0.090323702 -0.058601215 -0.18966296
-0.090321593 -0.058523357 -0.18965715
-0.090319172 -0.058441415 -0.18965524
-0.09031646 -0.058359344 -0.18965931
-0.090314001 -0.058279354 -0.18965945
-0.090312034 -0.058199584 -0.18964958
-0.090310059 -0.058119819 -0.18963973
-0.090307645 -0.058037877 -0.18963781
-0.090305187 -0.057957891 -0.18963796
-0.090302728 -0.057877902 -0.18963808
-0.0903005 -0.057796046 -0.18963218
-0.09029869 -0.057718322 -0.18962036
-0.090296462 -0.05763647 -0.18961444
-0.0902941 -0.057556525 -0.1896126
-0.09029223 -0.0574768 -0.18960074
-0.090290159 -0.057396986 -0.18959288
-0.090287797 -0.057317045 -0.18959102
-0.090285279 -0.057235058 -0.18959109
-0.090283312 -0.057155289 -0.18958125
-0.090281695 -0.057077654 -0.18956545
-0.090279527 -0.056997798 -0.18955958
-0.090277553 -0.056918029 -0.18954971
-0.090275876 -0.056838389 -0.18953387
-0.090274103 -0.056758709 -0.18952003
-0.090272382 -0.056681029 -0.18950623
-0.090270706 -0.05660139 -0.18949038
-0.090268895 -0.056523666 -0.18947858
-0.090266764 -0.056441855 -0.18947066
-0.090264797 -0.056362085 -0.18946081
-0.090263374 -0.056284532 -0.18944101
-0.090261593 -0.056204855 -0.18942717
-0.09025988 -0.056127172 -0.18941337
-0.090258203 -0.056047536 -0.18939751
-0.090255551 -0.055967458 -0.18940163
-0.090253286 -0.055887561 -0.18939778
-0.090251505 -0.055807881 -0.18938392
-0.090250082 -0.055730328 -0.18936414
-0.090248503 -0.055650733 -0.18934628
-0.090246789 -0.055573054 -0.18933249
-0.090244621 -0.055493198 -0.18932663
-0.090243235 -0.055413693 -0.18930478
-0.090241909 -0.055336185 -0.18928298
-0.090240389 -0.055258591 -0.18926519
-0.090238415 -0.055178821 -0.18925534
-0.090236545 -0.0550991 -0.18924348
-0.090234376 -0.055019241 -0.18923762
-0.090232313 -0.054939426 -0.18922976
-0.090230688 -0.054861791 -0.18921396
-0.090229362 -0.054784283 -0.18919218
-0.090227097 -0.054704383 -0.1891883
-0.090224132 -0.054620225 -0.18919633
-0.090221778 -0.05454028 -0.18919447
-0.090219997 -0.0544606 -0.18918061
-0.090217635 -0.054380655 -0.18917875
-0.090215079 -0.054300629 -0.18918088
-0.090212464 -0.054218598 -0.18918297
-0.090209268 -0.054136306 -0.18919702
-0.090206012 -0.054052014 -0.18921104
-0.090202361 -0.05396755 -0.18923303
-0.090197228 -0.053878471 -0.18928291
-0.090194032 -0.05379618 -0.18929699
-0.090190575 -0.053711802 -0.18931499
-0.090187117 -0.053627424 -0.18933299
-0.090110585 -0.053257816 -0.19068712
-0.090108462 -0.053176008 -0.19067921
-0.090106294 -0.053096149 -0.19067335
-0.090102293 -0.053009555 -0.19070131
-0.090713434 -0.085548937 -0.19010025
-0.090714946 -0.085466795 -0.19001642
-0.09071549 -0.085384205 -0.18995255
-0.090714961 -0.085301146 -0.18991062
-0.090714239 -0.08521799 -0.18987271
-0.090713181 -0.085136659 -0.18984285
-0.090711735 -0.085055158 -0.18982098
-0.090709865 -0.084975436 -0.18980911
-0.090707503 -0.084895492 -0.18980724
-0.090704948 -0.084815457 -0.18980938
-0.090702526 -0.084733516 -0.18980746
-0.090699933 -0.084655441 -0.18981165
-0.09069708 -0.084575281 -0.18981975
-0.090694562 -0.084493294 -0.18981983
-0.090692103 -0.084413305 -0.18981996
-0.090689257 -0.084333144 -0.18982808
-0.090686761 -0.084255114 -0.18983026
-0.090684921 -0.084173433 -0.18981636
-0.090682954 -0.084093668 -0.18980651
-0.090678893 -0.08401493 -0.18984063
-0.090674348 -0.083935976 -0.18988475
-0.090670586 -0.08385738 -0.18991289
-0.090667345 -0.08377704 -0.18992899
-0.090664111 -0.083696701 -0.1899451
-0.090661027 -0.08361841 -0.18995926
-0.090658024 -0.083536208 -0.18996933
-0.090655424 -0.083458126 -0.1899735
-0.090652481 -0.08337792 -0.18998361
-0.090649731 -0.083297804 -0.18998973
-0.090647265 -0.083217815 -0.18998986
-0.090644553 -0.083135746 -0.18999395
-0.09064167 -0.083057538 -0.19000411
-0.090638719 -0.082977332 -0.19001421
-0.090635188 -0.082896858 -0.19003633
-0.090632111 -0.082818568 -0.19005047
-0.090629593 -0.082736582 -0.19005057
-0.090627134 -0.082656592 -0.19005069
-0.090624481 -0.082576521 -0.1900548
-0.090621725 -0.082496405 -0.19006094
-0.090619072 -0.082416326 -0.19006506
-0.090616323 -0.08233621 -0.19007118
-0.090612598 -0.082255654 -0.19009727
-0.090609126 -0.082177185 -0.19011942
-0.090606369 -0.082097068 -0.19012554
-0.090604007 -0.082017124 -0.19012368
-0.090601593 -0.081935182 -0.19012177
-0.090598837 -0.081855059 -0.19012788
-0.090595759 -0.081776768 -0.19014204
-0.09059304 -0.081694692 -0.19014612
-0.090590291 -0.081614576 -0.19015223
-0.090587445 -0.081534415 -0.19016036
-0.090584695 -0.081454292 -0.19016647
-0.090581261 -0.08137387 -0.19018659
-0.090577826 -0.081293441 -0.19020668
-0.090575077 -0.081213325 -0.1902128
-0.090572715 -0.081133381 -0.19021094
-0.090570353 -0.081053436 -0.19020906
-0.090567894 -0.080973454 -0.19020921
-0.090565436 -0.080893464 -0.19020933
-0.090562485 -0.080813259 -0.19021945
-0.090559676 -0.080731139 -0.19022553
-0.090557605 -0.080651328 -0.19021767
-0.090555146 -0.080571346 -0.19021779
-0.090552203 -0.08049114 -0.19022791
-0.090549551 -0.080411062 -0.19023204
-0.090546601 -0.080330856 -0.19024216
-0.090543754 -0.080250695 -0.19025028
-0.090541393 -0.080170751 -0.1902484
-0.090538874 -0.080088764 -0.19024849
-0.090536609 -0.080008864 -0.19024462
-0.090534247 -0.07992892 -0.19024277
-0.090531692 -0.079848893 -0.19024488
-0.090528943 -0.079768777 -0.19025099
-0.090526327 -0.079686746 -0.19025308
-0.090523869 -0.079606757 -0.19025321
-0.09052141 -0.079526767 -0.19025335
-0.090519145 -0.079446867 -0.19024947
-0.09051688 -0.079366967 -0.19024561
-0.090514459 -0.079285026 -0.19024369
-0.090511806 -0.079204954 -0.19024783
-0.090509348 -0.079124965 -0.19024795
-0.090507179 -0.079045109 -0.1902421
-0.090504915 -0.078965209 -0.19023824
-0.090502493 -0.078883268 -0.19023632
-0.090500034 -0.078803279 -0.19023645
-0.090497874 -0.078723423 -0.19023058
-0.090495355 -0.078641437 -0.19023067
-0.090492405 -0.078561231 -0.19024079
-0.090489656 -0.078481115 -0.19024691
-0.090487294 -0.078401171 -0.19024503
-0.090485752 -0.078319624 -0.19022515
-0.090484172 -0.07824003 -0.1902073
-0.090481415 -0.078159913 -0.19021341
-0.090478666 -0.078079797 -0.19021955
-0.090476401 -0.077999897 -0.19021568
-0.09047398 -0.077917956 -0.19021377
-0.090471916 -0.077838138 -0.1902059
-0.090469941 -0.077758372 -0.19019607
-0.090467386 -0.077678345 -0.19019818
-0.09046483 -0.077598311 -0.1902003
-0.090462312 -0.077516325 -0.19020039
-0.09045966 -0.077436253 -0.19020453
-0.090457201 -0.077356264 -0.19020465
-0.090454936 -0.077276364 -0.19020078
-0.09045238 -0.07719633 -0.19020292
-0.09044937 -0.077114128 -0.19021299
-0.090446718 -0.077034056 -0.19021711
-0.090444453 -0.076954156 -0.19021323
-0.090442389 -0.076874346 -0.19020538
-0.090440124 -0.076794446 -0.19020152
-0.090437114 -0.076712236 -0.19021159
-0.090433881 -0.076631904 -0.19022769
-0.090431027 -0.076551735 -0.19023582
-0.090428963 -0.076471925 -0.19022796
-0.090426698 -0.076392025 -0.19022408
-0.090423793 -0.076309867 -0.19023216
-0.090421133 -0.076229788 -0.19023629
-0.090419166 -0.076150022 -0.19022644
-0.090416901 -0.076070122 -0.19022256
-0.090414673 -0.07598827 -0.19021666
-0.090412706 -0.075908504 -0.1902068
-0.090410441 -0.075828604 -0.19020295
-0.090408467 -0.075748831 -0.19019309
-0.09040644 -0.075667068 -0.19018318
-0.090403982 -0.075587079 -0.19018331
-0.090401717 -0.075507179 -0.19017944
-0.090399548 -0.075427324 -0.1901736
-0.09039709 -0.075347334 -0.19017372
-0.090394668 -0.075265393 -0.19017181
-0.090392403 -0.075185493 -0.19016795
-0.090389751 -0.075105421 -0.19017208
-0.090387098 -0.075025342 -0.19017619
-0.090384834 -0.07494545 -0.19017233
-0.090382315 -0.074863464 -0.1901724
-0.090379953 -0.074783519 -0.19017054
-0.090377688 -0.074703619 -0.19016668
-0.090374976 -0.074621543 -0.19017076
-0.090372518 -0.074541554 -0.19017088
-0.090370446 -0.074461743 -0.19016302
-0.090367891 -0.074381717 -0.19016516
-0.090365179 -0.074299641 -0.19016923
-0.090362623 -0.074219614 -0.19017136
-0.090360165 -0.074139625 -0.19017148
-0.090357609 -0.074059591 -0.19017363
-0.090355247 -0.073979646 -0.19017175
-0.090353221 -0.073897883 -0.19016185
-0.09035144 -0.073818199 -0.190148
-0.090349078 -0.073738255 -0.19014612
-0.090346716 -0.073658317 -0.19014427
-0.09034387 -0.073578149 -0.19015238
-0.090341061 -0.073496036 -0.19015846
-0.090338796 -0.073416136 -0.1901546
-0.090336531 -0.073336236 -0.19015074
-0.090334073 -0.073256247 -0.19015086
-0.090331651 -0.073174305 -0.19014895
-0.090329289 -0.073094361 -0.19014707
-0.090326734 -0.073014334 -0.19014922
-0.090324081 -0.072934255 -0.19015333
-0.090321563 -0.072852276 -0.19015342
-0.090319492 -0.072772458 -0.19014555
-0.090317622 -0.072692737 -0.19013371
-0.090315454 -0.072612882 -0.19012785
-0.090312995 -0.072532892 -0.19012797
-0.090311065 -0.072451167 -0.19011608
-0.090309285 -0.07237149 -0.19010222
-0.090307213 -0.07229168 -0.19009437
-0.090305343 -0.072211951 -0.19008252
-0.090303272 -0.07213214 -0.19007465
-0.09030056 -0.072050065 -0.19007874
-0.090297617 -0.071969859 -0.19008884
-0.090294763 -0.071889699 -0.19009697
-0.090292498 -0.071809798 -0.1900931
-0.090290628 -0.071730077 -0.19008124
-0.090288699 -0.071648352 -0.19006935
-0.090285942 -0.071568236 -0.19007547
-0.090282351 -0.071485765 -0.19009753
-0.090279505 -0.071405604 -0.19010565
-0.090277143 -0.07132566 -0.19010377
-0.090274684 -0.07124567 -0.1901039
-0.090272322 -0.071165733 -0.19010204
-0.090270393 -0.071084008 -0.19009015
-0.090267934 -0.071004018 -0.19009027
-0.09026508 -0.070923857 -0.19009839
-0.090262562 -0.070841871 -0.19009848
-0.090260006 -0.070761845 -0.1901006
-0.09025716 -0.070681676 -0.19010872
-0.090254351 -0.070599563 -0.1901148
-0.09025199 -0.070519619 -0.19011292
-0.090250015 -0.070439853 -0.19010308
-0.090247363 -0.070359774 -0.1901072
-0.090244457 -0.070277616 -0.19011527
-0.090242289 -0.070197761 -0.1901094
-0.090240218 -0.07011795 -0.19010155
-0.090237759 -0.070037961 -0.19010167
-0.090235494 -0.069958061 -0.19009781
-0.090233274 -0.069876209 -0.19009191
-0.090231106 -0.069796354 -0.19008604
-0.090229131 -0.06971658 -0.19007619
-0.090226866 -0.06963668 -0.19007233
-0.090224408 -0.069556698 -0.19007245
-0.09022209 -0.069474801 -0.19006854
-0.090219826 -0.069394901 -0.19006468
-0.090217464 -0.069314957 -0.19006282
-0.090214945 -0.06923297 -0.1900629
-0.090212584 -0.069153026 -0.19006103
-0.090210512 -0.069073215 -0.19005316
-0.090208739 -0.068993531 -0.19003932
-0.09020628 -0.068913549 -0.19003946
-0.090203375 -0.068831384 -0.19004753
-0.090200134 -0.068751045 -0.19006363
-0.090197518 -0.068669021 -0.19006571
-0.090195544 -0.068589248 -0.19005586
-0.090193376 -0.068509392 -0.19004999
-0.090191118 -0.068429492 -0.19004613
-0.090188071 -0.068349242 -0.19005825
-0.090185069 -0.06826704 -0.1900683
-0.090182997 -0.068187229 -0.19006045
-0.090181023 -0.068107456 -0.1900506
-0.090178803 -0.068025604 -0.19004469
-0.090176925 -0.067945883 -0.19003284
-0.090175152 -0.067866199 -0.19001898
-0.090173371 -0.067786522 -0.19000514
-0.090171203 -0.067706659 -0.18999928
-0.090168647 -0.067626633 -0.1900014
-0.090166584 -0.067546822 -0.18999353
-0.090164162 -0.067464881 -0.18999162
-0.090161413 -0.067384757 -0.18999775
-0.090159245 -0.067304902 -0.18999189
-0.090156823 -0.06722296 -0.18998998
-0.090154268 -0.067142934 -0.1899921
-0.090151906 -0.067062989 -0.18999022
-0.090149097 -0.066980869 -0.18999632
-0.090146542 -0.066900842 -0.18999845
-0.09014447 -0.066821031 -0.18999058
-0.090142496 -0.066741258 -0.18998073
-0.090140723 -0.066661581 -0.18996687
-0.090138458 -0.066581681 -0.18996301
-0.090135999 -0.066501692 -0.18996313
-0.090133674 -0.066419795 -0.18995923
-0.090131804 -0.066340066 -0.18994738
-0.09012983 -0.066260301 -0.18993753
-0.090127759 -0.06618049 -0.18992966
-0.090125792 -0.066100724 -0.18991981
-0.090123914 -0.066020995 -0.18990797
-0.090121754 -0.06594114 -0.1899021
-0.090119526 -0.065859288 -0.1898962
-0.090117708 -0.065781564 -0.18988439
-0.090115249 -0.065701574 -0.18988451
-0.09011244 -0.065619454 -0.18989059
-0.090109438 -0.065537252 -0.18990065
-0.090106785 -0.06545718 -0.18990478
-0.090104714 -0.065377362 -0.18989691
-0.090102643 -0.065297551 -0.18988907
-0.090100124 -0.065215565 -0.18988916
-0.090097763 -0.065135628 -0.18988729
-0.090095699 -0.06505581 -0.18987942
-0.090093531 -0.064975955 -0.18987355
-0.090090618 -0.064893797 -0.18988164
-0.090087868 -0.064813673 -0.18988775
-0.090085447 -0.064731732 -0.18988584
-0.090083286 -0.064651877 -0.18987998
-0.090081021 -0.064571977 -0.18987611
-0.090078756 -0.064492077 -0.18987226
-0.090076983 -0.0644124 -0.18985841
-0.090074815 -0.064332545 -0.18985254
-0.0900722 -0.064250514 -0.18985462
-0.090070225 -0.064170748 -0.18984476
-0.090067767 -0.064090759 -0.18984491
-0.090064466 -0.064008422 -0.18986097
-0.090061463 -0.06392622 -0.18987101
-0.090058908 -0.063846186 -0.18987314
-0.090056837 -0.063766375 -0.18986529
-0.09005487 -0.063686609 -0.18985543
-0.090052798 -0.063606799 -0.18984759
-0.090050377 -0.063524857 -0.18984567
-0.090047076 -0.063442513 -0.18986173
-0.090044037 -0.063362271 -0.18987384
-0.090041518 -0.063280284 -0.18987393
-0.090039253 -0.063200384 -0.18987006
-0.090036698 -0.06312035 -0.18987218
-0.090033986 -0.063038275 -0.18987626
-0.090031624 -0.062958337 -0.1898744
-0.090029649 -0.062878564 -0.18986455
-0.090027489 -0.062798709 -0.18985868
-0.09002497 -0.062716722 -0.18985876
-0.090022311 -0.062636651 -0.18986288
-0.090020441 -0.062556922 -0.18985105
-0.090019152 -0.062477462 -0.1898272
-0.090017378 -0.062397785 -0.18981335
-0.090015016 -0.062317841 -0.18981147
-0.090012655 -0.062237896 -0.18980961
-0.090010487 -0.062158041 -0.18980375
-0.090008028 -0.062078055 -0.18980388
-0.090005122 -0.061995894 -0.18981194
-0.090002112 -0.061913688 -0.18982203
-0.089999497 -0.061831661 -0.1898241
-0.089997724 -0.061751977 -0.18981025
-0.089995809 -0.061674207 -0.18980044
-0.089993387 -0.061592266 -0.18979853
-0.089991227 -0.061512411 -0.18979266
-0.089989543 -0.061432771 -0.18977682
-0.089987576 -0.061353005 -0.18976697
-0.089984916 -0.06127293 -0.1897711
-0.089982696 -0.061191075 -0.18976519
-0.089980878 -0.06111335 -0.18975338
-0.089978553 -0.061031453 -0.18974948
-0.089975804 -0.060951333 -0.18975559
-0.089973733 -0.060871519 -0.18974772
-0.089971863 -0.060791798 -0.18973589
-0.089969054 -0.060709678 -0.18974195
-0.089966141 -0.06062752 -0.18975003
-0.089964077 -0.060547709 -0.18974218
-0.089962453 -0.060470067 -0.18972637
-0.089960031 -0.060388125 -0.18972445
-0.089957282 -0.060308009 -0.18973058
-0.089954667 -0.060225978 -0.18973266
-0.089951955 -0.060143903 -0.18973672
-0.089949593 -0.060063962 -0.18973488
-0.089947425 -0.059984107 -0.18972901
-0.089945063 -0.059904162 -0.18972713
-0.089942448 -0.059822135 -0.18972921
-0.089939833 -0.059740104 -0.1897313
-0.089937925 -0.059662335 -0.18972149
-0.089936048 -0.05958261 -0.18970963
-0.089933977 -0.059502795 -0.18970178
-0.089931361 -0.059420768 -0.18970385
-0.089928553 -0.059338652 -0.18970993
-0.0899259 -0.059258576 -0.18971406
-0.089923576 -0.059176676 -0.18971014
-0.089921311 -0.05909678 -0.18970628
-0.08991915 -0.059016924 -0.18970042
-0.089917175 -0.058937155 -0.18969056
-0.08991491 -0.058857255 -0.18968672
-0.089912549 -0.05877731 -0.18968484
-0.089910679 -0.058697589 -0.18967299
-0.089908607 -0.058617774 -0.18966512
-0.089906186 -0.058535837 -0.1896632
-0.089904219 -0.058456063 -0.18965337
-0.089902051 -0.058376208 -0.1896475
-0.089899495 -0.058296181 -0.18964961
-0.089897268 -0.058214325 -0.18964371
-0.089895003 -0.058134422 -0.18963985
-0.089892194 -0.058052309 -0.18964592
-0.089889638 -0.057972275 -0.18964806
-0.089887217 -0.057890333 -0.18964614
-0.089884952 -0.057810437 -0.18964228
-0.089883178 -0.057730757 -0.18962842
-0.089881495 -0.057651117 -0.18961258
-0.08987923 -0.057571217 -0.18960871
-0.089876972 -0.057491317 -0.18960485
-0.08987461 -0.057411373 -0.18960297
-0.089872442 -0.057331517 -0.18959713
-0.089870214 -0.057249665 -0.18959121
-0.089868248 -0.057169899 -0.18958136
-0.089866079 -0.05709004 -0.18957549
-0.089863911 -0.057010181 -0.18956964
-0.089861743 -0.05693033 -0.18956378
-0.089859776 -0.05685056 -0.18955392
-0.089857802 -0.056770794 -0.18954405
-0.089856088 -0.056693107 -0.18953025
-0.089854501 -0.05661352 -0.1895124
-0.089852534 -0.056533746 -0.18950257
-0.08985056 -0.056453981 -0.1894927
-0.089848787 -0.0563743 -0.18947886
-0.089847259 -0.056296706 -0.18946105
-0.089845389 -0.056216978 -0.18944922
-0.08984293 -0.056136992 -0.18944934
-0.089840762 -0.05605714 -0.18944347
-0.089839086 -0.055977501 -0.18942763
-0.08983776 -0.055899993 -0.18940584
-0.089835979 -0.055820309 -0.18939199
-0.089834169 -0.055742584 -0.18938018
-0.089832678 -0.055663034 -0.18936034
-0.089831606 -0.055587616 -0.1893346
-0.089830771 -0.055510327 -0.18930283
-0.089829341 -0.055432778 -0.18928301
-0.089827761 -0.055353183 -0.18926519
-0.089826532 -0.05527572 -0.18924139
-0.089825012 -0.055198126 -0.18922359
-0.089823134 -0.055118404 -0.18921174
-0.089821167 -0.055038631 -0.18920189
-0.089819349 -0.054960907 -0.18919009
-0.089817375 -0.054881137 -0.18918023
-0.08981476 -0.05479911 -0.18918231
-0.089811951 -0.054716989 -0.18918838
-0.089809686 -0.054637093 -0.18918452
-0.089807071 -0.054555062 -0.1891866
-0.089804262 -0.054472946 -0.18919268
-0.089801706 -0.054392915 -0.1891948
-0.089798406 -0.054310579 -0.18921086
-0.089794703 -0.054224115 -0.18923283
-0.08979179 -0.054141954 -0.1892409
-0.089787751 -0.054057315 -0.18927088
-0.089783169 -0.053970452 -0.18931082
-0.089778975 -0.053883772 -0.18934277
-0.089774288 -0.053796872 -0.1893847
-0.089769505 -0.053709924 -0.18942863
-0.089762986 -0.053616282 -0.18950436
-0.09027195 -0.085564904 -0.19001424
-0.090272397 -0.085482277 -0.18995236
-0.090271443 -0.085400984 -0.18992049
-0.090270624 -0.085317791 -0.18988457
-0.090269759 -0.085236549 -0.18985072
-0.090268314 -0.085155047 -0.18982883
-0.090266965 -0.085073583 -0.18980494
-0.090265192 -0.084993906 -0.1897911
-0.09026283 -0.084913962 -0.18978924
-0.090260997 -0.084832281 -0.18977532
-0.090259157 -0.0847506 -0.18976143
-0.090256371 -0.084672436 -0.1897696
-0.09025313 -0.084592104 -0.18978572
-0.090249985 -0.084511809 -0.18979982
-0.090246908 -0.084433511 -0.18981397
-0.090244293 -0.08435148 -0.18981606
-0.090241596 -0.084273368 -0.18982223
-0.090238355 -0.084193029 -0.18983832
-0.090235122 -0.084112689 -0.18985444
-0.090232521 -0.084034614 -0.18985862
-0.090229809 -0.083952539 -0.1898627
-0.090227023 -0.083874375 -0.18987086
-0.090223879 -0.08379408 -0.18988496
-0.090220638 -0.083713748 -0.18990107
-0.090217263 -0.083635323 -0.18992122
-0.090213925 -0.083554938 -0.18993932
-0.090211175 -0.083474822 -0.18994544
-0.090208188 -0.083396569 -0.1899576
-0.090204656 -0.083316103 -0.1899797
-0.090201423 -0.083235763 -0.1899958
-0.090198472 -0.083155558 -0.19000593
-0.090195529 -0.083075352 -0.19001603
-0.090193264 -0.082995452 -0.19001219
-0.090190604 -0.082915381 -0.1900163
-0.090187468 -0.082835086 -0.1900304
-0.090184517 -0.08275488 -0.19004053
-0.090181962 -0.082674846 -0.19004264
-0.090179078 -0.082596637 -0.19005281
-0.090175934 -0.08251635 -0.19006692
-0.09017279 -0.082436055 -0.19008103
-0.090170041 -0.082355931 -0.19008715
-0.090167291 -0.082275815 -0.19009328
-0.090164438 -0.082195655 -0.1901014
-0.090161823 -0.082113624 -0.19010347
-0.090159461 -0.082033679 -0.19010161
-0.090156615 -0.081953518 -0.19010973
-0.090153866 -0.081873402 -0.19011584
-0.090151012 -0.081793241 -0.19012398
-0.090147868 -0.081712946 -0.19013807
-0.090144925 -0.081632741 -0.1901482
-0.090142079 -0.08155258 -0.19015631
-0.090139031 -0.08147233 -0.19016843
-0.090136282 -0.081392206 -0.19017455
-0.090134308 -0.08131244 -0.19016469
-0.090132043 -0.08123254 -0.19016083
-0.090128608 -0.081152119 -0.19018093
-0.090125568 -0.081071869 -0.19019303
-0.090123594 -0.080992103 -0.19018319
-0.090120979 -0.080910072 -0.19018526
-0.090118095 -0.080831863 -0.19019544
-0.090115085 -0.080749661 -0.1902055
-0.090112336 -0.080669537 -0.19021162
-0.090109579 -0.080589421 -0.19021773
-0.09010683 -0.080509305 -0.19022387
-0.090104178 -0.080429226 -0.19022799
-0.090101331 -0.080349065 -0.19023611
-0.090098768 -0.080269031 -0.19023824
-0.090096898 -0.08018931 -0.19022638
-0.09009438 -0.080107324 -0.19022647
-0.090091527 -0.080027163 -0.19023459
-0.090089269 -0.079947263 -0.19023071
-0.090087101 -0.079867408 -0.19022486
-0.090084352 -0.079787292 -0.19023097
-0.090081833 -0.079705305 -0.19023106
-0.090080053 -0.079625621 -0.19021721
-0.090077691 -0.079545677 -0.19021535
-0.090074256 -0.079465255 -0.19023545
-0.090071216 -0.079385005 -0.19024757
-0.090068795 -0.079303063 -0.19024564
-0.09006682 -0.079223298 -0.19023579
-0.09006495 -0.079143569 -0.19022393
-0.090062588 -0.079063624 -0.19022207
-0.09006013 -0.078983642 -0.1902222
-0.090058096 -0.078901872 -0.19021231
-0.090055443 -0.078821801 -0.19021642
-0.090052694 -0.078741677 -0.19022255
-0.09005037 -0.07865978 -0.19021863
-0.090048201 -0.078579925 -0.19021276
-0.090046033 -0.07850007 -0.19020692
-0.090043575 -0.07842008 -0.19020703
-0.090040766 -0.078337967 -0.19021311
-0.09003821 -0.078257933 -0.19021523
-0.090035945 -0.078178033 -0.19021139
-0.09003368 -0.078098133 -0.19020751
-0.090031318 -0.078018188 -0.19020565
-0.090028897 -0.077936247 -0.19020373
-0.090026535 -0.07785631 -0.19020186
-0.090024076 -0.07777632 -0.190202
-0.090022013 -0.07769651 -0.19019413
-0.090019353 -0.077616431 -0.19019827
-0.09001635 -0.077534229 -0.19020833
-0.090013504 -0.077454068 -0.19021645
-0.090011239 -0.077374168 -0.19021258
-0.090009555 -0.077294528 -0.19019674
-0.090007193 -0.077214584 -0.19019488
-0.090004288 -0.077132426 -0.19020294
-0.090002023 -0.077052526 -0.19019908
-0.089999661 -0.076972581 -0.1901972
-0.089997396 -0.076892681 -0.19019336
-0.089995235 -0.076812826 -0.19018748
-0.089992717 -0.07673084 -0.19018757
-0.08998996 -0.076650724 -0.19019368
-0.0899878 -0.076570868 -0.19018783
