# .PCD v0.7 - Point Cloud Data file format
VERSION 0.7
FIELDS x y z
SIZE 4 4 4
TYPE F F F
COUNT 1 1 1
WIDTH 1270
HEIGHT 1
VIEWPOINT 0 0 0 1 0 0 0
POINTS 1270
DATA ascii
0.051860072 -0.088728875 -0.080885142
0.051850408 -0.088650562 -0.080883905
0.051854596 -0.088576674 -0.080882095
0.051868834 -0.088501096 -0.080879755
0.051879019 -0.088427395 -0.080877654
0.051879264 -0.088351384 -0.080875985
0.051863551 -0.088274889 -0.080875091
0.051831923 -0.088195898 -0.08087492
0.051814266 -0.088117339 -0.080874071
0.051806532 -0.088041082 -0.080872789
0.051802807 -0.087964952 -0.080871314
0.051789075 -0.087888516 -0.080870323
0.051775366 -0.087812081 -0.080869325
0.05178161 -0.087736256 -0.080867372
0.051783808 -0.087662309 -0.080865659
0.051776074 -0.087586053 -0.080864377
0.051744498 -0.087505065 -0.080864154
0.051716805 -0.087428197 -0.080863833
0.051750951 -0.087355234 -0.080860578
0.051777042 -0.087284021 -0.080857754
0.051769316 -0.087207764 -0.080856472
0.051771566 -0.087131821 -0.080854706
0.051783748 -0.087058187 -0.080852509
0.051791988 -0.086982422 -0.08085046
0.051792249 -0.086906411 -0.080848791
0.051796436 -0.086832523 -0.08084698
0.051794693 -0.08675646 -0.080845408
0.051780984 -0.086680017 -0.080844417
0.051755339 -0.086601213 -0.080843955
0.051721714 -0.086522162 -0.080843881
0.051688083 -0.086443111 -0.080843799
0.051680356 -0.086366862 -0.080842517
0.051680543 -0.086292848 -0.080840901
0.051668882 -0.086214475 -0.080839761
0.051653169 -0.086137973 -0.080838867
0.05165337 -0.086063966 -0.08083725
0.051663607 -0.085988268 -0.080835097
0.051661812 -0.085914195 -0.080833577
0.05164814 -0.085835755 -0.080832534
0.051646352 -0.085761689 -0.080831014
0.051638618 -0.085685432 -0.080829732
0.051630892 -0.085609183 -0.080828443
0.051627152 -0.085533053 -0.080826975
0.051623419 -0.085456923 -0.0808255
0.051615685 -0.085380666 -0.080824219
0.051611893 -0.085306533 -0.080822788
0.051618144 -0.085230708 -0.080820836
0.051624328 -0.085156888 -0.080818921
0.051606677 -0.085078329 -0.080818079
0.051537104 -0.084998168 -0.080819733
0.0515154 -0.084921487 -0.080819122
0.051507667 -0.08484523 -0.080817841
0.05148796 -0.084768608 -0.080817141
0.051450334 -0.084689431 -0.080817252
0.051444545 -0.084615238 -0.080815919
0.051432818 -0.084538862 -0.080814831
0.051419109 -0.084462427 -0.08081384
0.051417358 -0.084386356 -0.080812268
0.051403642 -0.084309921 -0.080811277
0.051375948 -0.084233046 -0.080810957
0.051364228 -0.084156677 -0.080809869
0.05135449 -0.084080353 -0.080808684
0.051352695 -0.084006287 -0.080807157
0.051344961 -0.08393003 -0.080805875
0.051333241 -0.083853655 -0.080804788
0.051319525 -0.083777219 -0.080803789
0.051309794 -0.083700903 -0.080802605
0.051310003 -0.083626896 -0.080800988
0.051292278 -0.083550334 -0.080800183
0.05113896 -0.083463594 -0.080805786
0.051083378 -0.083383866 -0.080806769
0.051073648 -0.083307549 -0.080805585
0.051059864 -0.083233111 -0.080804639
0.051032238 -0.083154246 -0.080804273
0.051016457 -0.083079748 -0.080803424
0.051012725 -0.08300361 -0.080801949
0.050995 -0.082927056 -0.080801144
0.05096332 -0.082850061 -0.080801018
0.050941609 -0.08277338 -0.080800414
0.050927833 -0.082698941 -0.08079946
0.050916106 -0.082622558 -0.080798373
0.050888412 -0.08254569 -0.080798052
0.050876684 -0.082469314 -0.080796964
0.050862908 -0.082394876 -0.080796018
0.050831214 -0.082317889 -0.080795892
0.050811507 -0.082241267 -0.080795184
0.050809704 -0.082167193 -0.080793664
0.050801978 -0.082090937 -0.080792382
0.050790198 -0.082016557 -0.080791339
0.050750516 -0.081939325 -0.080791593
0.050698861 -0.081861719 -0.080792435
0.050667234 -0.081782728 -0.080792256
0.050645463 -0.081708044 -0.080791697
0.050625756 -0.081631422 -0.080790989
0.050617963 -0.081557162 -0.08078976
0.050626151 -0.081483401 -0.080787748
0.050632402 -0.081407577 -0.080785796
0.050624602 -0.081333324 -0.080784559
0.050616816 -0.081259064 -0.080783322
0.050624996 -0.081185304 -0.080781318
0.050645165 -0.081111908 -0.08077874
0.050669327 -0.081038639 -0.080775961
0.050703466 -0.080965675 -0.080772705
0.050735623 -0.080892652 -0.080769546
0.050771751 -0.080819748 -0.080766194
0.050823808 -0.08074934 -0.080762118
0.050883904 -0.080677174 -0.08075761
0.050963916 -0.080607623 -0.080752186
0.05109185 -0.080539547 -0.08074446
0.052307114 -0.080534965 -0.080684982
0.059617713 -0.080876134 -0.08033523
0.0596141 -0.080796003 -0.080333665
0.059638374 -0.080718733 -0.080330797
0.059674636 -0.080641836 -0.080327354
0.059714884 -0.080565058 -0.080323718
0.059745148 -0.080487974 -0.080320559
0.065741822 -0.060656566 -0.079596005
0.065718241 -0.060575824 -0.079595402
0.065670639 -0.060496345 -0.079595998
0.065644994 -0.060417537 -0.079595536
0.065647431 -0.060335595 -0.079593636
0.065677933 -0.060250517 -0.079590291
0.065714359 -0.060167618 -0.079586707
0.065722853 -0.060083866 -0.079584472
0.062884577 -0.059892435 -0.079718977
0.062848888 -0.059815321 -0.079719037
0.062795237 -0.059737653 -0.079719968
0.062747516 -0.059662167 -0.079720661
0.062685817 -0.059586249 -0.079722025
0.062658168 -0.059507385 -0.079721659
0.062640525 -0.059428826 -0.07972081
0.06262286 -0.059350267 -0.079719961
0.062617257 -0.059270076 -0.079718493
0.062611639 -0.059189886 -0.079717018
0.062604025 -0.059109636 -0.079715647
0.062608391 -0.059029754 -0.079713695
0.062612765 -0.058949873 -0.079711743
0.062621191 -0.058868118 -0.079709552
0.062629543 -0.058788355 -0.079707406
0.06263198 -0.058706414 -0.079705507
0.062622316 -0.058628101 -0.07970427
0.062620759 -0.058546036 -0.079702564
0.062635101 -0.058466464 -0.079700127
0.062653512 -0.058385011 -0.07969746
0.062681966 -0.05830187 -0.079694256
0.062698372 -0.05822036 -0.079691686
0.062702797 -0.058138479 -0.079689689
0.062713221 -0.058056787 -0.079687402
0.062731616 -0.057975337 -0.079684727
0.062750034 -0.057893883 -0.079682052
0.062760442 -0.057812188 -0.079679772
0.062760822 -0.057732183 -0.079678006
0.062767245 -0.057650365 -0.079675913
0.062785648 -0.057568915 -0.079673246
0.062800065 -0.057487339 -0.079670765
0.062818468 -0.057405889 -0.07966809
0.062844932 -0.057322688 -0.07966499
0.062865391 -0.057239302 -0.079662174
0.062891774 -0.057158098 -0.079659119
0.062916242 -0.057074834 -0.079656109
0.062928647 -0.056993201 -0.079653725
0.062935069 -0.056911379 -0.079651631
0.062937446 -0.056831438 -0.079649776
0.062931828 -0.056751247 -0.079648308
0.062914245 -0.056670688 -0.079647414
0.06292659 -0.056591056 -0.079645075
0.062967084 -0.056506284 -0.079641253
0.062987544 -0.056422897 -0.079638436
0.062995903 -0.056343138 -0.079636298
0.062988296 -0.056262888 -0.07963492
0.062986732 -0.05618082 -0.079633214
0.062995106 -0.056101061 -0.079631068
0.062993534 -0.056018997 -0.079629354
0.062991858 -0.05594093 -0.079627737
0.06299828 -0.055859111 -0.079625644
0.063022733 -0.055775847 -0.079622641
0.063045196 -0.05569252 -0.079619728
0.063061602 -0.055611011 -0.07961715
0.063076019 -0.055529438 -0.079614677
0.063074455 -0.055447374 -0.079612963
0.063066781 -0.05536912 -0.079611637
0.063069217 -0.055287179 -0.079609737
0.063061602 -0.055206928 -0.079608358
0.063057989 -0.055126801 -0.079606794
0.063072406 -0.055045228 -0.079604313
0.063090801 -0.054963779 -0.079601638
0.063101284 -0.054880083 -0.079599306
0.06310565 -0.054800205 -0.079597354
0.063108027 -0.05472026 -0.079595499
0.063116446 -0.054638501 -0.079593308
0.063126869 -0.054556802 -0.079591021
0.063141339 -0.054473232 -0.079588495
0.063151754 -0.054391541 -0.079586208
0.063158117 -0.054311715 -0.079584159
0.063166544 -0.05422996 -0.079581968
0.063176967 -0.054148264 -0.079579681
0.063187383 -0.054066569 -0.079577401
0.063197799 -0.053984873 -0.079575107
0.063204229 -0.053903051 -0.079573013
0.063200608 -0.053822927 -0.079571448
0.063196994 -0.053742796 -0.079569884
0.06319543 -0.053660732 -0.07956817
0.063199803 -0.05358085 -0.079566218
0.063208222 -0.053499095 -0.079564027
0.063216634 -0.053417336 -0.079561837
0.063229062 -0.0533357 -0.079559453
0.06322144 -0.053255454 -0.079558082
0.063227877 -0.053173631 -0.079555988
0.063260376 -0.053088617 -0.079552546
0.063274778 -0.053007044 -0.079550073
0.063273169 -0.052926976 -0.079548404
0.063279584 -0.052845158 -0.07954631
0.063280031 -0.052763153 -0.079544507
0.063280404 -0.052683152 -0.079542749
0.063300863 -0.052599765 -0.079539932
0.063335359 -0.052514806 -0.079536401
0.063363872 -0.052429669 -0.079533152
0.063386261 -0.052348338 -0.079530291
0.063398749 -0.052264705 -0.079527855
0.063387081 -0.052186333 -0.079526722
0.06337548 -0.05210596 -0.079525538
0.063379906 -0.052024078 -0.079523541
0.063386276 -0.051944256 -0.079521492
0.063384652 -0.051864192 -0.079519831
0.063371047 -0.051783755 -0.079518743
0.063355394 -0.051705256 -0.079517804
0.063355766 -0.051625255 -0.079516046
0.063366249 -0.051541559 -0.079513706
0.063370608 -0.051461678 -0.079511754
0.063385092 -0.051378109 -0.079509228
0.063397504 -0.051296473 -0.079506852
0.063393883 -0.051216342 -0.07950528
0.063380219 -0.051137909 -0.079504244
0.051570214 -0.10072783 -0.081166245
0.051572472 -0.10065189 -0.081164479
0.051568732 -0.10057576 -0.081163004
0.051566988 -0.10049969 -0.081161439
0.051581234 -0.10042411 -0.081159092
0.051609255 -0.10035495 -0.081156217
0.051617496 -0.1002792 -0.081154168
0.051599845 -0.10020064 -0.081153318
0.05161801 -0.10012718 -0.08115083
0.051630184 -0.10005354 -0.081148632
0.051636435 -0.099977717 -0.081146672
0.051642679 -0.099901892 -0.08114472
0.051648863 -0.099828072 -0.081142813
0.051663041 -0.09975449 -0.081140518
0.051683202 -0.099681094 -0.081137933
0.051699311 -0.099609576 -0.081135586
0.051695637 -0.099531449 -0.081134066
0.051691897 -0.099455319 -0.081132591
0.051702075 -0.099381618 -0.08113049
0.051720247 -0.099308163 -0.081128001
0.051597551 -0.099132344 -0.081130169
0.051599741 -0.099058405 -0.081128456
0.051621899 -0.098985069 -0.081125773
0.051618166 -0.098908938 -0.081124298
0.05161842 -0.098832928 -0.081122629
0.051630661 -0.098757289 -0.081120387
0.051644772 -0.098685712 -0.081118137
0.051643029 -0.098609641 -0.081116565
0.051643342 -0.098531634 -0.081114851
0.051629677 -0.098453201 -0.081113815
0.051612027 -0.098374642 -0.081112966
0.051610284 -0.098298572 -0.081111394
0.051606543 -0.098222442 -0.081109919
0.051614791 -0.098146677 -0.08110787
0.051622972 -0.098072916 -0.081105866
0.05160737 -0.09799242 -0.081104875
0.05160363 -0.09791629 -0.081103399
0.051601894 -0.09784022 -0.081101827
0.051572315 -0.097759292 -0.081101514
0.051552728 -0.097678676 -0.081100717
0.05154305 -0.097600363 -0.08109948
0.051523402 -0.097521737 -0.081098735
0.051513679 -0.097445428 -0.081097543
0.051505998 -0.097367175 -0.081096217
0.051500276 -0.097290978 -0.081094839
0.051502526 -0.097215034 -0.081093073
0.051516689 -0.09714146 -0.081090778
0.051534869 -0.097067997 -0.08108829
0.051551029 -0.096994482 -0.081085905
0.051563203 -0.09692084 -0.0810837
0.051547602 -0.096840352 -0.081082717
0.051519968 -0.09676148 -0.081082352
0.051518232 -0.09668541 -0.081080779
0.051512547 -0.096607223 -0.081079349
0.051502824 -0.096530907 -0.081078164
0.05150114 -0.09645284 -0.081076548
0.051509328 -0.096379071 -0.081074543
0.051521495 -0.096305437 -0.081072345
0.051529743 -0.096229672 -0.081070289
0.051514082 -0.096151173 -0.08106935
0.051506408 -0.096072927 -0.081068024
0.051492698 -0.095996484 -0.081067026
0.051473044 -0.095917866 -0.081066273
0.051469363 -0.095839739 -0.081064753
0.051473543 -0.095765844 -0.081062943
0.051473871 -0.095687844 -0.081061229
0.051472127 -0.095611773 -0.081059657
0.051486291 -0.095538199 -0.081057362
0.051502466 -0.095464677 -0.081054971
0.051520638 -0.095391221 -0.081052482
0.051522888 -0.095315278 -0.081050716
0.05150523 -0.095236719 -0.081049874
0.051489517 -0.095160216 -0.081048973
0.051487833 -0.095082149 -0.081047356
0.051484086 -0.095006019 -0.081045881
0.051480353 -0.094929889 -0.081044406
0.051480614 -0.094853878 -0.081042744
0.051482864 -0.094777934 -0.081040978
0.051483117 -0.094701923 -0.08103931
0.051471449 -0.094623551 -0.081038177
0.051451795 -0.094544932 -0.081037425
0.051446065 -0.094468743 -0.081036046
0.051442325 -0.094392613 -0.081034571
0.051446579 -0.094316721 -0.081032708
0.051460743 -0.094243146 -0.081030414
0.051466994 -0.094167322 -0.081028461
0.051465251 -0.094091251 -0.081026889
0.051471435 -0.094017431 -0.081024982
0.051489614 -0.093943968 -0.081022494
0.051507771 -0.093870521 -0.081020005
0.051522009 -0.093794942 -0.081017658
0.051520213 -0.093720868 -0.081016138
0.051514529 -0.093642674 -0.081014715
0.051518783 -0.09356679 -0.081012852
0.05152496 -0.09349297 -0.081010945
0.051527217 -0.093417019 -0.081009179
0.051529467 -0.093341075 -0.081007414
0.051535651 -0.093267255 -0.081005506
0.051545896 -0.093191549 -0.08100336
0.051556081 -0.093117848 -0.081001252
0.051564313 -0.093042091 -0.080999203
0.051568516 -0.092968203 -0.080997393
0.051538937 -0.092887275 -0.080997072
0.051485449 -0.092803612 -0.080997869
0.051467799 -0.092725053 -0.08099702
0.051468059 -0.092649043 -0.080995351
0.051484227 -0.092575528 -0.080992959
0.051510319 -0.092504315 -0.080990136
0.051522553 -0.092428677 -0.080987893
0.05152674 -0.092354789 -0.080986075
0.051536977 -0.092279091 -0.080983929
0.051545173 -0.092205331 -0.080981925
0.051533498 -0.092126951 -0.080980785
0.05151584 -0.092048392 -0.080979936
0.051512107 -0.091972262 -0.080978461
0.051508375 -0.091896132 -0.080976985
0.051512621 -0.091820255 -0.08097513
0.051522799 -0.091746546 -0.080973029
0.051531047 -0.091670781 -0.080970973
0.051533237 -0.091596842 -0.080969259
0.051529557 -0.091518708 -0.080967739
0.051525816 -0.091442578 -0.080966264
0.051516093 -0.091366261 -0.080965072
0.05146455 -0.091284662 -0.080965817
0.051464804 -0.091208652 -0.080964148
0.05145514 -0.091130339 -0.080962919
0.051447406 -0.091054082 -0.080961637
0.051443659 -0.090977952 -0.080960162
0.051439926 -0.090901822 -0.080958687
0.051446117 -0.090828001 -0.080956779
0.051460348 -0.090752423 -0.08095444
0.051458605 -0.090676352 -0.080952868
0.051426969 -0.090597361 -0.080952697
0.051417246 -0.090521052 -0.080951504
0.051419497 -0.090445101 -0.080949746
0.051425748 -0.090369284 -0.080947787
0.051429935 -0.090295397 -0.080945976
0.051442102 -0.090221755 -0.080943778
0.051464334 -0.090146422 -0.080941051
0.051476508 -0.090072781 -0.080938853
0.051488683 -0.089999139 -0.080936648
0.05149094 -0.089923196 -0.08093489
0.051467285 -0.08984445 -0.080934331
0.051447637 -0.089765832 -0.080933578
0.051425919 -0.08968915 -0.080932975
0.051414266 -0.08961077 -0.080931835
0.051434427 -0.089537382 -0.08092925
0.051460512 -0.089466169 -0.080926426
0.051466763 -0.089390345 -0.080924466
0.051461034 -0.089314148 -0.080923088
0.05145929 -0.089238085 -0.080921516
0.051465541 -0.08916226 -0.080919564
0.051467732 -0.089088313 -0.080917843
0.051469982 -0.08901237 -0.080916084
0.051452324 -0.088933811 -0.080915235
0.051440604 -0.088857427 -0.080914147
0.051444851 -0.088781543 -0.080912285
0.051441051 -0.088707417 -0.080910854
0.051453285 -0.088631779 -0.080908611
0.05147744 -0.088558502 -0.080905832
0.051489614 -0.088484861 -0.080903634
0.051495865 -0.088409036 -0.080901682
0.051490076 -0.088334844 -0.080900349
0.051462434 -0.088255979 -0.080899984
0.051452756 -0.088177666 -0.080898754
0.05144304 -0.08810135 -0.080897562
0.051423326 -0.088024728 -0.080896862
0.051403672 -0.087946109 -0.080896109
0.051395945 -0.087869853 -0.080894828
0.051410116 -0.087796278 -0.080892533
0.051418357 -0.087720513 -0.080890484
0.051420555 -0.087646566 -0.080888763
0.051424794 -0.087570682 -0.0808869
0.051425055 -0.087494671 -0.080885239
0.051421262 -0.087420546 -0.080883808
0.051389627 -0.087341554 -0.080883637
0.051395871 -0.08726573 -0.080881678
0.051402055 -0.08719191 -0.08087977
0.051386401 -0.08711341 -0.080878824
0.051378667 -0.087037154 -0.080877542
0.051378854 -0.086963147 -0.080875926
0.051383115 -0.086887263 -0.080874063
0.051397279 -0.086813681 -0.080871768
0.051411517 -0.086738102 -0.080869429
0.051389813 -0.086661421 -0.080868818
0.051342204 -0.086581938 -0.080869414
0.05132848 -0.086505502 -0.080868423
0.051312819 -0.086427003 -0.080867477
0.051299103 -0.086350568 -0.080866486
0.051291369 -0.086274311 -0.080865204
0.051289625 -0.086198241 -0.080863632
0.051295817 -0.08612442 -0.080861725
0.051309995 -0.086050838 -0.08085943
0.051318228 -0.085975081 -0.080857374
0.051308505 -0.085898764 -0.080856189
0.051268883 -0.085819528 -0.080856405
0.051235192 -0.085742474 -0.080856375
0.051235445 -0.08566647 -0.080854706
0.051235706 -0.085590459 -0.080853038
0.051233903 -0.085516393 -0.08085151
0.051238149 -0.085440509 -0.080849655
0.05123841 -0.085364498 -0.080847986
0.05123461 -0.085290365 -0.080846556
0.051228873 -0.085214175 -0.080845177
0.051225141 -0.085138045 -0.080843702
0.051219404 -0.085061848 -0.080842324
0.051173732 -0.084984429 -0.080842875
0.051112205 -0.084902525 -0.080844097
0.051106475 -0.084826328 -0.080842718
0.051086761 -0.084749706 -0.080842018
0.051063061 -0.084672958 -0.080841504
0.051061325 -0.084596895 -0.080839932
0.051067509 -0.084523067 -0.080838025
0.051067755 -0.084447064 -0.080836356
0.051057979 -0.084372744 -0.080835216
0.051038325 -0.084294125 -0.080834463
0.051004626 -0.084217072 -0.080834433
0.050966941 -0.084139898 -0.080834597
0.050953232 -0.084063455 -0.080833606
0.050943494 -0.083987147 -0.080832422
0.050937764 -0.08391095 -0.080831043
0.050925985 -0.08383657 -0.08083
0.050912261 -0.083760135 -0.080829009
0.050908521 -0.083684005 -0.080827534
0.050906725 -0.083609939 -0.080826007
0.050877087 -0.083531007 -0.080825739
0.050737686 -0.083446704 -0.080830716
0.05068209 -0.083366975 -0.080831699
0.05065839 -0.083290227 -0.080831192
0.05066064 -0.083214283 -0.080829427
0.05065684 -0.08314015 -0.080827996
0.050633132 -0.083063409 -0.080827489
0.050593466 -0.082986169 -0.080827743
0.050589718 -0.082910039 -0.080826268
0.050595902 -0.082836211 -0.08082436
0.050582193 -0.082759775 -0.080823369
0.050548494 -0.082682721 -0.08082334
0.050514802 -0.082605675 -0.08082331
0.050475135 -0.082528435 -0.080823563
0.050449431 -0.082451627 -0.080823153
0.050443687 -0.082375437 -0.080821775
0.050433904 -0.082301117 -0.080820635
0.050408199 -0.082224317 -0.080820218
0.050380506 -0.082147449 -0.080819897
0.050366715 -0.082073003 -0.080818951
0.050351001 -0.081996508 -0.080818057
0.05032929 -0.081919827 -0.080817446
0.050299533 -0.081844896 -0.080817267
0.050251931 -0.081765413 -0.080817871
0.05021625 -0.0816883 -0.080817938
0.050198473 -0.081613734 -0.080817178
0.050196677 -0.081539668 -0.080815658
0.05019293 -0.081463538 -0.080814183
0.050191134 -0.081389464 -0.080812655
0.050197318 -0.081315637 -0.080810748
0.0502095 -0.081242003 -0.08080855
0.050223671 -0.081168421 -0.080806255
0.050239839 -0.081094906 -0.080803864
0.050258011 -0.08102145 -0.080801375
0.050272174 -0.080947869 -0.08079908
0.050290354 -0.080874413 -0.080796592
0.050342463 -0.080802001 -0.080792464
0.05041647 -0.080732264 -0.080787331
0.050488502 -0.080662467 -0.080782287
0.050558582 -0.080590606 -0.080777295
0.050614625 -0.080520317 -0.080773026
0.06104669 -0.080803372 -0.080269046
0.061055049 -0.080723614 -0.0802669
0.061065406 -0.080643915 -0.080264658
0.061077699 -0.08056628 -0.080262363
0.065343827 -0.060645498 -0.079620041
0.065216064 -0.060573552 -0.07962472
0.065172449 -0.060494192 -0.079625122
0.065156847 -0.060413696 -0.079624139
0.065155283 -0.060331635 -0.079622425
0.065143682 -0.060251258 -0.07962124
0.062572233 -0.059958078 -0.079740606
0.062486514 -0.059883423 -0.079743177
0.062442839 -0.059806064 -0.079743624
0.062403157 -0.059728827 -0.079743885
0.062343456 -0.059652973 -0.079745151
0.06230177 -0.059575677 -0.079745509
0.062268093 -0.059498623 -0.079745479
0.062244445 -0.059419878 -0.07974492
0.062220797 -0.059341136 -0.079744361
0.062207133 -0.0592627 -0.079743318
0.062207505 -0.059182696 -0.07974156
0.06220594 -0.059100628 -0.079739854
0.062196277 -0.059022315 -0.079738617
0.062200703 -0.058940433 -0.07973662
0.062213048 -0.058860801 -0.079734281
0.062217489 -0.058778919 -0.079732284
0.062219858 -0.058698975 -0.079730429
0.062230274 -0.058617279 -0.079728141
0.062242687 -0.058535647 -0.079725757
0.06224905 -0.058455825 -0.079723701
0.062253423 -0.058375943 -0.079721749
0.062265828 -0.058294307 -0.079719365
0.062284239 -0.058212858 -0.079716697
0.062290661 -0.058131039 -0.079714596
0.06229908 -0.05804928 -0.079712406
0.06231343 -0.057969708 -0.079709969
0.0623319 -0.057886258 -0.07970725
0.062346309 -0.057804685 -0.079704769
0.062350675 -0.057724804 -0.079702817
0.062359087 -0.057643048 -0.079700626
0.062375493 -0.057561532 -0.079698049
0.062395953 -0.057478145 -0.079695232
0.06241437 -0.057396695 -0.079692565
0.06243477 -0.057315305 -0.079689793
0.06246122 -0.057232104 -0.079686686
0.062485673 -0.05714884 -0.079683676
0.062498085 -0.057067204 -0.079681292
0.062508501 -0.056985509 -0.079679005
0.062514864 -0.056905687 -0.079676956
0.062527284 -0.056824055 -0.079674572
0.062549733 -0.056740731 -0.079671659
0.062558152 -0.056658968 -0.079669468
0.062562525 -0.056579091 -0.079667516
0.062564954 -0.056497149 -0.079665616
0.062569313 -0.056417264 -0.079663664
0.062579736 -0.056335568 -0.079661369
0.062580176 -0.056253567 -0.079659566
0.062588535 -0.056173809 -0.079657421
0.062596947 -0.05609205 -0.07965523
0.06260138 -0.056010172 -0.079653226
0.062601753 -0.055930164 -0.079651468
0.062610179 -0.055848405 -0.079649277
0.062634565 -0.055767141 -0.079646312
0.062655024 -0.055683754 -0.079643503
0.062673435 -0.055602305 -0.079640828
0.0626899 -0.055518791 -0.079638205
0.062696323 -0.055436976 -0.079636104
0.062690645 -0.055358782 -0.079634681
0.062687092 -0.055276655 -0.079633072
0.062685467 -0.055196591 -0.079631403
0.062677793 -0.055118337 -0.079630077
0.062676229 -0.055036273 -0.079628363
0.062680595 -0.054956391 -0.079626411
0.062681034 -0.05487439 -0.079624608
0.062695436 -0.054792814 -0.079622127
0.06271784 -0.054711487 -0.079619259
0.062726252 -0.054629728 -0.079617068
0.062726632 -0.054549724 -0.07961531
0.062737107 -0.054466031 -0.07961297
0.062751517 -0.054384459 -0.079610497
0.062757887 -0.054304637 -0.07960844
0.062760316 -0.054222696 -0.079606541
0.062770724 -0.054141 -0.079604253
0.062791184 -0.054057613 -0.079601437
0.062803611 -0.053975977 -0.079599053
0.062810026 -0.053894158 -0.079596959
0.062810399 -0.053814154 -0.079595193
0.062810779 -0.05373415 -0.079593435
0.062811203 -0.053652145 -0.079591632
0.062821627 -0.053570449 -0.079589345
0.06283205 -0.053488754 -0.079587057
0.062838465 -0.053406935 -0.079584956
0.062848881 -0.05332524 -0.079582669
0.062853314 -0.053243358 -0.079580672
0.062851682 -0.05316329 -0.079579011
0.062854059 -0.053083349 -0.079577148
0.062864482 -0.053001653 -0.079574861
0.062884934 -0.052918263 -0.079572044
0.062899403 -0.052834693 -0.079569519
0.062905766 -0.052754872 -0.07956747
0.062906198 -0.05267287 -0.079565667
0.062910631 -0.052590989 -0.079563662
0.062933087 -0.052507665 -0.079560757
0.062955543 -0.052424338 -0.079557844
0.062955916 -0.052344333 -0.079556078
0.062984362 -0.052261192 -0.079552881
0.062992841 -0.052177433 -0.079550639
0.062985167 -0.052099183 -0.079549313
0.062975563 -0.05201887 -0.079548031
0.062967949 -0.051938619 -0.07954666
0.062982358 -0.051857047 -0.079544179
0.063000821 -0.0517736 -0.07954146
0.06299115 -0.051695284 -0.079540223
0.062977552 -0.051614851 -0.079539143
0.062963888 -0.051536411 -0.079538099
0.062962264 -0.051456347 -0.079536438
0.062968686 -0.051374529 -0.079534344
0.062975109 -0.05129271 -0.079532243
0.063005611 -0.051207632 -0.079528905
0.063001998 -0.051127501 -0.079527333
0.051229954 -0.10071977 -0.081189379
0.051224269 -0.10064158 -0.081187956
0.051222526 -0.10056551 -0.081186384
0.051222786 -0.1004895 -0.081184715
0.05123096 -0.10041574 -0.081182711
0.051251136 -0.10034235 -0.081180125
0.051271237 -0.10027095 -0.081177585
0.051291399 -0.10019755 -0.081174999
0.051299572 -0.10012379 -0.081172995
0.051307812 -0.10004803 -0.081170946
0.051310062 -0.099972084 -0.081169181
0.051296405 -0.099893644 -0.081168137
0.051294662 -0.099817574 -0.081166565
0.051284991 -0.099739268 -0.081165336
0.051283255 -0.099663198 -0.081163764
0.051295429 -0.099589556 -0.081161566
0.05131758 -0.09951622 -0.081158884
0.051339686 -0.099444889 -0.081156246
0.051330015 -0.099366575 -0.081155017
0.051294506 -0.099283464 -0.081154943
0.05127684 -0.099204905 -0.081154101
0.051281102 -0.099129021 -0.081152238
0.051281348 -0.09905301 -0.081150569
0.051277615 -0.09897688 -0.081149094
0.051267937 -0.098898567 -0.081147864
0.051266193 -0.098822504 -0.081146292
0.051266454 -0.098746493 -0.081144623
0.051270694 -0.098670609 -0.081142761
0.051276878 -0.098596781 -0.081140853
0.051235445 -0.098511495 -0.081141025
0.05121579 -0.098432869 -0.081140272
0.05122003 -0.098356992 -0.08113841
0.051230222 -0.098283291 -0.081136309
0.051240399 -0.098209582 -0.081134208
0.051248632 -0.098133817 -0.081132151
0.051250882 -0.098057881 -0.081130393
0.051237226 -0.097979441 -0.08112935
0.051239476 -0.09790349 -0.081127584
0.051241726 -0.097827546 -0.081125826
0.051220067 -0.097748861 -0.08112517
0.051192492 -0.097668 -0.081124753
0.051188812 -0.097589873 -0.081123233
0.051189072 -0.097513869 -0.081121564
0.051183328 -0.097437672 -0.081120186
0.051173665 -0.097359359 -0.081118956
0.051179849 -0.097285539 -0.081117049
0.051192082 -0.097209893 -0.081114799
0.051200263 -0.097136132 -0.081112795
0.051190592 -0.097057819 -0.081111565
0.05115702 -0.096976772 -0.081111439
0.051137365 -0.096898153 -0.081110686
0.051123753 -0.096817717 -0.081109606
0.051131949 -0.096743956 -0.081107594
0.051138133 -0.096670128 -0.081105687
0.051132455 -0.096591935 -0.081104264
0.051122785 -0.096513622 -0.081103027
0.051126972 -0.096439734 -0.081101216
0.051133215 -0.096363917 -0.081099257
0.051143393 -0.096290208 -0.081097156
0.05114764 -0.096214324 -0.081095293
0.051127993 -0.096135706 -0.081094541
0.051130243 -0.096059762 -0.081092782
0.05114641 -0.095986247 -0.081090391
0.051164575 -0.095912784 -0.081087902
0.051170811 -0.09583696 -0.081085943
0.051151164 -0.095758341 -0.08108519
0.051133506 -0.095679782 -0.081084348
0.051103927 -0.095598854 -0.081084028
0.051112108 -0.095525093 -0.081082024
0.05113028 -0.095451638 -0.081079535
0.051110685 -0.095371023 -0.081078738
0.051081106 -0.095290095 -0.081078425
0.051085293 -0.095216207 -0.081076607
0.051103458 -0.095142752 -0.081074119
0.051107705 -0.095066868 -0.081072263
0.05109404 -0.094988428 -0.08107122
0.051092297 -0.094912365 -0.081069648
0.051100478 -0.094838597 -0.081067644
0.051110663 -0.094764896 -0.081065543
0.051124893 -0.094689317 -0.081063196
0.051125146 -0.094613314 -0.081061527
0.051097564 -0.094532445 -0.081061117
0.051083848 -0.09445601 -0.081060126
0.051078103 -0.094379812 -0.081058748
0.05108235 -0.094303936 -0.081056885
0.051098518 -0.094230413 -0.081054494
0.051104762 -0.094154589 -0.081052542
0.05111295 -0.094080828 -0.08105053
0.051127121 -0.094007246 -0.081048235
0.051135361 -0.093931489 -0.081046186
0.051143542 -0.09385772 -0.081044175
0.051153779 -0.093782023 -0.081042029
0.051156029 -0.093706071 -0.081040263
0.051144302 -0.093629703 -0.081039175
0.051126651 -0.093551144 -0.081038326
0.051122911 -0.093475014 -0.081036851
0.051125161 -0.093399063 -0.081035092
0.051133402 -0.093323305 -0.081033036
0.051143579 -0.093249604 -0.081030935
0.051155813 -0.093173966 -0.081028685
0.051167987 -0.093100324 -0.081026487
0.051178165 -0.093026623 -0.081024386
0.051174432 -0.092950493 -0.081022911
0.051150784 -0.092871748 -0.081022352
0.051129192 -0.092791066 -0.081021652
0.051107541 -0.092712387 -0.081020996
0.051091887 -0.092633888 -0.081020057
0.051080152 -0.092557512 -0.081018962
0.051088393 -0.092481747 -0.081016913
0.051110551 -0.092408419 -0.081014231
0.051128715 -0.092334956 -0.081011742
0.051128976 -0.092258953 -0.081010073
0.051119253 -0.092182636 -0.081008889
0.051107526 -0.09210626 -0.081007801
0.051101841 -0.092028067 -0.081006378
0.051104091 -0.091952123 -0.081004612
0.051106341 -0.091876179 -0.081002846
0.051116526 -0.091802478 -0.081000745
0.051124699 -0.09172871 -0.080998734
0.051122963 -0.091652647 -0.080997169
0.051129207 -0.091576815 -0.08099521
0.051151365 -0.091503486 -0.080992527
0.051171526 -0.09143009 -0.080989942
0.051167786 -0.09135396 -0.080988467
0.051116243 -0.091272354 -0.080989212
0.051074684 -0.091191068 -0.08098948
0.051055036 -0.091112442 -0.080988728
0.051051289 -0.091036312 -0.080987252
0.05106546 -0.090962738 -0.080984958
0.051067717 -0.090886787 -0.080983192
0.051057987 -0.090810478 -0.080982007
0.05105824 -0.090734467 -0.080980338
0.051066481 -0.090658702 -0.080978282
0.051058747 -0.090582453 -0.080977
0.051060997 -0.090506509 -0.080975235
0.051073171 -0.090432867 -0.080973037
0.051077425 -0.090356976 -0.080971181
0.051075622 -0.09028291 -0.080969654
0.051069885 -0.090206712 -0.080968276
0.051076129 -0.090130895 -0.080966316
0.051088303 -0.090057254 -0.080964118
0.051086619 -0.089979187 -0.080962501
0.051074892 -0.089902811 -0.080961414
0.051081076 -0.089828983 -0.080959499
0.051079333 -0.089752913 -0.080957934
0.051063679 -0.089674421 -0.080956988
0.051063932 -0.08959841 -0.080955319
0.051082097 -0.089524955 -0.080952831
0.051098265 -0.089451432 -0.080950439
0.051106513 -0.089375675 -0.08094839
0.051106699 -0.089301661 -0.080946766
0.051102959 -0.089225531 -0.080945291
0.051089294 -0.089147098 -0.080944255
0.051077574 -0.089070722 -0.08094316
0.051085822 -0.088994965 -0.080941111
0.05110199 -0.088921443 -0.080938719
0.051106229 -0.088845558 -0.080936857
0.051112413 -0.088771731 -0.080934949
0.051108681 -0.088695601 -0.080933474
0.051100947 -0.088619351 -0.080932193
0.051099211 -0.088543281 -0.08093062
0.05110345 -0.088467397 -0.080928758
0.051113628 -0.088393696 -0.080926657
0.051115878 -0.088317752 -0.080924891
0.051112145 -0.088241622 -0.080923416
0.051098414 -0.088165179 -0.080922425
0.051076762 -0.088086501 -0.080921769
0.051051065 -0.088009693 -0.080921352
0.051039338 -0.087933317 -0.080920264
0.051037662 -0.08785525 -0.080918647
0.051045835 -0.087781489 -0.080916643
0.051056013 -0.08770778 -0.080914535
0.051066257 -0.087632082 -0.080912389
0.051072441 -0.087558255 -0.080910474
0.051070698 -0.087482192 -0.080908909
0.05106096 -0.087405875 -0.080907717
0.051045299 -0.087327376 -0.080906779
0.051009685 -0.087248266 -0.080906793
0.050997958 -0.08717189 -0.080905706
0.051012121 -0.087098308 -0.080903411
0.051022299 -0.087024607 -0.08090131
0.051012635 -0.086946294 -0.080900073
0.051008828 -0.08687216 -0.08089865
0.051015072 -0.086796343 -0.08089669
0.051017322 -0.086720392 -0.080894925
0.050995626 -0.086643711 -0.080894321
0.050944075 -0.086562112 -0.080895066
0.050930358 -0.086485669 -0.080894068
0.050920568 -0.086411357 -0.080892935
0.050900906 -0.086332738 -0.080892183
0.050897174 -0.086256608 -0.080890708
0.050907351 -0.086182907 -0.080888599
0.050915591 -0.086107142 -0.08088655
0.050911799 -0.086033009 -0.08088512
0.050902128 -0.085954696 -0.08088389
0.050886407 -0.085878193 -0.080882996
0.050884657 -0.08580213 -0.080881424
0.050878868 -0.08572793 -0.080880091
0.050873131 -0.08565174 -0.080878712
0.050867394 -0.085575551 -0.080877334
0.050855666 -0.085499175 -0.080876246
0.050849929 -0.085422985 -0.08087486
0.050850131 -0.085348979 -0.080873244
0.050860368 -0.085273273 -0.08087109
0.050868548 -0.085199513 -0.080869086
0.050864808 -0.085123383 -0.080867611
0.050827183 -0.085044205 -0.08086773
0.050755613 -0.084963992 -0.080869481
0.050731905 -0.084887244 -0.080868974
0.050716244 -0.084808744 -0.080868028
0.050706461 -0.084734432 -0.080866888
0.05069074 -0.08465793 -0.080865994
0.050679021 -0.084581554 -0.080864899
0.050681271 -0.08450561 -0.080863141
0.05068545 -0.084431723 -0.080861323
0.050685711 -0.084355719 -0.080859654
0.050673984 -0.084279343 -0.080858566
0.050634295 -0.084202103 -0.080858827
0.050592676 -0.084122807 -0.080859132
0.05057098 -0.084046125 -0.080858529
0.050563239 -0.083969869 -0.080857247
0.050555445 -0.083895616 -0.08085601
0.050541729 -0.083819181 -0.080855012
0.050527997 -0.083742745 -0.080854021
0.050522268 -0.083666548 -0.080852643
0.050514467 -0.083592296 -0.080851406
0.050464861 -0.083512753 -0.080852106
0.050353415 -0.083429307 -0.080855735
0.050313748 -0.083352074 -0.080855995
0.050306015 -0.083275817 -0.080854714
0.050298281 -0.083199568 -0.080853432
0.050286554 -0.083123192 -0.080852345
0.05026678 -0.083048567 -0.080851689
0.050237082 -0.08297164 -0.080851465
0.050231345 -0.082895443 -0.080850087
0.050215624 -0.082818948 -0.080849186
0.050189927 -0.08274214 -0.080848768
0.050160229 -0.082665212 -0.080848552
0.050118551 -0.082587913 -0.080848902
0.050098836 -0.082511291 -0.080848202
0.050079122 -0.082434669 -0.080847494
0.050041437 -0.082357496 -0.080847658
0.05002372 -0.082280934 -0.080846861
0.050017923 -0.082206741 -0.080845527
0.049998216 -0.082130119 -0.08084482
0.04998643 -0.082055748 -0.080843776
0.0499807 -0.08197955 -0.080842398
0.049939014 -0.081902258 -0.080842756
0.049873374 -0.081824221 -0.080844268
0.049845681 -0.081747353 -0.080843948
0.049839877 -0.08167316 -0.080842614
0.04983414 -0.081596971 -0.080841236
0.049824364 -0.081522651 -0.080840096
0.049810573 -0.081448212 -0.08083915
0.049796857 -0.081371777 -0.080838159
0.049801037 -0.081297889 -0.080836348
0.049805284 -0.081222005 -0.080834486
0.049807474 -0.081148058 -0.080832765
0.049827583 -0.081076659 -0.080830231
0.049867719 -0.081003882 -0.080826685
0.049901858 -0.080930918 -0.080823421
0.049922019 -0.080857523 -0.080820836
0.049948163 -0.080784313 -0.080817968
0.050000221 -0.080713898 -0.080813885
0.050066315 -0.080641918 -0.080809087
0.050144315 -0.0805723 -0.080803752
0.050250277 -0.080503546 -0.080797069
0.062617749 -0.080893964 -0.080200575
0.062610194 -0.080811717 -0.080199152
0.062596582 -0.08073128 -0.080198064
0.062594958 -0.080651209 -0.080196403
0.062617362 -0.080569886 -0.080193534
0.062667646 -0.080491416 -0.080189362
0.062767804 -0.080416478 -0.080182835
0.064206555 -0.060194626 -0.079672098
0.064237051 -0.060109548 -0.079668753
0.064233422 -0.060029417 -0.079667181
0.062165581 -0.059939809 -0.079766393
0.062095836 -0.059865646 -0.079768188
0.062036127 -0.059789795 -0.079769455
0.061998494 -0.059710622 -0.079769574
0.061948776 -0.05963508 -0.079770356
0.061887078 -0.059559166 -0.079771727
0.06185139 -0.059482053 -0.079771787
0.061827742 -0.059403311 -0.079771236
0.061808087 -0.059324689 -0.079770483
0.061800472 -0.059244439 -0.079769105
0.061800845 -0.059164435 -0.079767346
0.061803214 -0.05908449 -0.079765491
0.061811633 -0.059002735 -0.079763301
0.061824046 -0.058921099 -0.079760917
0.061828412 -0.058841217 -0.079758957
0.061826788 -0.05876115 -0.079757296
0.061829157 -0.058681205 -0.07975544
0.06184157 -0.058599573 -0.079753056
0.061851986 -0.058517877 -0.079750769
0.061858349 -0.058438055 -0.07974872
0.061864763 -0.058356237 -0.079746619
0.061875187 -0.058274541 -0.079744332
0.061883539 -0.058194779 -0.079742186
0.061895959 -0.058113143 -0.079739802
0.061912365 -0.058031633 -0.079737224
0.061928771 -0.05795012 -0.079734646
0.061947174 -0.057868671 -0.079731971
0.06195958 -0.057787038 -0.079729587
0.061964013 -0.057705157 -0.07972759
0.061980419 -0.057623643 -0.079725012
0.061988778 -0.057543885 -0.079722866
0.061993204 -0.057462007 -0.079720862
0.0620116 -0.057380553 -0.079718187
0.062030062 -0.057297103 -0.079715468
0.062044464 -0.05721553 -0.079712987
0.062078901 -0.057132572 -0.0797095
0.062091313 -0.057050936 -0.079707116
0.062083699 -0.056970689 -0.079705738
0.062098116 -0.056889117 -0.079703256
0.062118515 -0.056807727 -0.079700485
0.062128924 -0.056726027 -0.079698198
0.062141344 -0.056644395 -0.079695813
0.062151752 -0.056562696 -0.079693526
0.062166229 -0.056479126 -0.079691
0.062180638 -0.056397554 -0.079688519
0.062184997 -0.056317672 -0.07968656
0.062193416 -0.056235913 -0.079684369
0.06219779 -0.056156032 -0.079682417
0.062196225 -0.056073967 -0.079680704
0.062206641 -0.055992268 -0.079678416
0.062218994 -0.055912636 -0.079676077
0.062227406 -0.055830877 -0.079673886
0.062243871 -0.055747367 -0.079671264
0.062266335 -0.05566404 -0.079668351
0.062286727 -0.05558265 -0.079665579
0.062299147 -0.055501014 -0.079663195
0.062297523 -0.05542095 -0.079661533
0.062285915 -0.055340577 -0.079660349
0.062288284 -0.055260632 -0.079658493
0.062300697 -0.055179 -0.079656109
0.062309109 -0.055097237 -0.079653919
0.062307484 -0.055017173 -0.07965225
0.062307924 -0.054935172 -0.079650447
0.062308289 -0.054855164 -0.079648681
0.062306672 -0.0547751 -0.07964702
0.062315091 -0.054693341 -0.079644829
0.062323503 -0.054611586 -0.079642639
0.062323883 -0.054531582 -0.079640873
0.062332295 -0.054449823 -0.079638682
0.062346712 -0.05436825 -0.079636201
0.062353134 -0.054286428 -0.079634108
0.062373586 -0.054203041 -0.079631291
0.062402025 -0.0541199 -0.079628088
0.062412441 -0.054038204 -0.0796258
0.062418871 -0.053956382 -0.079623699
0.062415242 -0.053876258 -0.079622135
0.062411621 -0.053796127 -0.07962057
0.062404007 -0.053715877 -0.079619192
0.062400393 -0.05363575 -0.079617627
0.062408805 -0.053553991 -0.079615429
0.062423222 -0.053472418 -0.079612948
0.062423587 -0.053392418 -0.07961119
0.062419966 -0.053312287 -0.079609625
0.062424392 -0.053230405 -0.079607621
0.062434807 -0.053148709 -0.079605334
0.062445231 -0.053067014 -0.079603046
0.062453642 -0.052985258 -0.079600856
0.062466055 -0.052903622 -0.079598472
0.062476531 -0.05281993 -0.079596132
0.062480897 -0.052740045 -0.07959418
0.062487319 -0.052658226 -0.079592086
0.062499732 -0.05257659 -0.079589702
0.062532231 -0.052491575 -0.07958626
0.062554687 -0.052408248 -0.079583347
0.062565103 -0.052326553 -0.07958106
0.062565483 -0.052246548 -0.079579294
0.062555864 -0.052166235 -0.07957802
0.062544256 -0.052085862 -0.079576835
0.062536642 -0.052005611 -0.079575464
0.062535018 -0.051925544 -0.079573795
0.062551424 -0.051844031 -0.079571217
0.06256789 -0.051760525 -0.079568595
0.062566265 -0.051680453 -0.079566933
0.062572688 -0.051598638 -0.079564832
0.062575117 -0.051516697 -0.079562932
0.062577486 -0.051436752 -0.079561077
0.062581912 -0.05135487 -0.079559073
0.062580295 -0.051274806 -0.079557411
0.062584713 -0.051192924 -0.079555415
0.06259913 -0.051111352 -0.079552934
0.050813735 -0.10070163 -0.081207536
0.050833896 -0.10062823 -0.081204951
0.05084607 -0.10055459 -0.081202753
0.050856248 -0.10048089 -0.081200644
0.050872415 -0.10040738 -0.081198253
0.05088459 -0.10033374 -0.081196055
0.050888836 -0.10025784 -0.081194192
0.050899014 -0.10018414 -0.081192091
0.050905265 -0.10010833 -0.081190139
0.050889604 -0.10002983 -0.081189193
0.050889857 -0.099953815 -0.081187524
0.050900094 -0.099878117 -0.081185378
0.050908275 -0.099804357 -0.081183366
0.050916456 -0.099730596 -0.081181362
0.050922699 -0.099654764 -0.081179403
0.05092895 -0.099578947 -0.081177451
0.050939128 -0.099505246 -0.08117535
0.050963216 -0.099433973 -0.081172615
0.050983377 -0.09936057 -0.08117003
0.050979644 -0.09928444 -0.081168555
0.050930217 -0.099198908 -0.081169114
0.05092454 -0.099120714 -0.081167683
0.05089695 -0.099039853 -0.081167273
0.050865382 -0.098958865 -0.081167057
0.050863639 -0.098882794 -0.081165485
0.050875805 -0.098809153 -0.081163287
0.05088605 -0.098733455 -0.081161134
0.050890297 -0.098657571 -0.081159279
0.050892487 -0.098583624 -0.081157558
0.050898731 -0.098507799 -0.081155598
0.050902985 -0.098431915 -0.081153743
0.050887324 -0.098353416 -0.081152797
0.050871663 -0.098274916 -0.081151858
0.050867982 -0.09819679 -0.081150331
0.050872229 -0.098120905 -0.081148475
0.050878413 -0.098047078 -0.081146561
0.050886653 -0.09797132 -0.081144512
0.050892845 -0.097897492 -0.081142597
0.050889105 -0.097821362 -0.081141122
0.050845668 -0.097736008 -0.08114139
0.050802171 -0.097652659 -0.081141703
0.050800428 -0.097576588 -0.081140131
0.050808609 -0.09750282 -0.081138127
0.050812855 -0.097426936 -0.081136264
0.050809175 -0.097348809 -0.081134744
0.05079551 -0.097270377 -0.081133708
0.05079177 -0.097194239 -0.081132233
0.050819859 -0.097123094 -0.081129305
0.05083403 -0.097049512 -0.08112701
0.050816372 -0.096970953 -0.081126161
0.050798722 -0.096892394 -0.081125319
0.050797038 -0.096814327 -0.081123702
0.050797291 -0.096738324 -0.081122033
0.050773643 -0.096659578 -0.081121475
0.050756045 -0.096579023 -0.08112058
0.05076623 -0.096505314 -0.081118479
0.050774463 -0.096429557 -0.081116423
0.050758801 -0.096351057 -0.081115484
0.050759003 -0.096277051 -0.08111386
0.050771229 -0.096201405 -0.08111161
0.050763503 -0.096125156 -0.081110328
0.050745897 -0.0960446 -0.081109434
0.050734177 -0.095968224 -0.081108347
0.050740421 -0.0958924 -0.081106395
0.050746664 -0.095816575 -0.081104435
0.050754845 -0.095742814 -0.081102431
0.050757095 -0.09566687 -0.081100665
0.050749362 -0.095590614 -0.081099384
0.050741687 -0.09551236 -0.081098057
0.050759852 -0.095438905 -0.081095569
0.050768048 -0.095365144 -0.081093557
0.05076436 -0.09528701 -0.081092037
0.050768547 -0.09521313 -0.081090227
0.050776787 -0.095137365 -0.08108817
0.050779037 -0.095061421 -0.081086405
0.050777294 -0.094985351 -0.081084833
0.050773554 -0.094909221 -0.081083357
0.050775804 -0.09483327 -0.081081599
0.050785989 -0.094759569 -0.08107949
0.050798215 -0.09468393 -0.081077248
0.050812393 -0.094610348 -0.081074953
0.050804719 -0.094532102 -0.081073627
0.050765157 -0.094450869 -0.081073791
0.050741509 -0.094372123 -0.081073232
0.050739773 -0.094296053 -0.08107166
0.050750002 -0.094220355 -0.081069514
0.050746262 -0.094144225 -0.081068039
0.050728612 -0.094065666 -0.08106719
0.050742775 -0.093992084 -0.081064895
0.050747029 -0.0939162 -0.081063032
0.050741285 -0.09384001 -0.081061654
0.050747536 -0.093764186 -0.081059702
0.050763704 -0.093690671 -0.08105731
0.050773889 -0.09361697 -0.081055202
0.050778128 -0.093541086 -0.081053346
0.050780378 -0.093465135 -0.081051581
0.050780639 -0.093389131 -0.081049912
0.050784819 -0.093315244 -0.081048101
0.050795056 -0.093239546 -0.081045948
0.05079931 -0.093163654 -0.081044093
0.050797567 -0.093087584 -0.081042513
0.050787836 -0.093011275 -0.081041329
0.050776176 -0.092932895 -0.081040196
0.050762445 -0.092856459 -0.081039205
0.050738864 -0.092775717 -0.081038594
0.050693303 -0.092694305 -0.081039056
0.050693564 -0.092618294 -0.081037387
0.050715715 -0.092544958 -0.081034705
0.050735876 -0.09247157 -0.08103212
0.050746061 -0.092397869 -0.081030019
0.050758295 -0.092322223 -0.081027769
0.05076848 -0.092248522 -0.081025667
0.050764732 -0.092172392 -0.081024192
0.050762989 -0.092096321 -0.08102262
0.050765239 -0.092020378 -0.081020862
0.050753571 -0.091942005 -0.081019722
0.050749831 -0.091865875 -0.081018247
0.050760016 -0.091792166 -0.081016146
0.050774187 -0.091718592 -0.081013851
0.05078043 -0.091642767 -0.081011891
0.050778687 -0.091566697 -0.081010319
0.050773017 -0.09148851 -0.081008896
0.050777197 -0.091414623 -0.081007086
0.05077146 -0.091338426 -0.081005707
0.050678164 -0.09124954 -0.08100833
0.050678417 -0.091173537 -0.081006661
0.050694585 -0.091100022 -0.081004269
0.05070477 -0.091026321 -0.081002168
0.05070702 -0.09095037 -0.081000403
0.050715201 -0.090876609 -0.080998398
0.050737359 -0.090803273 -0.080995716
0.050751589 -0.090727694 -0.080993377
0.050755776 -0.090653807 -0.080991566
0.050738119 -0.090575248 -0.080990717
0.050740369 -0.090499304 -0.080988951
0.050728641 -0.090422928 -0.080987863
0.050720908 -0.090346679 -0.080986582
0.050727159 -0.090270855 -0.080984622
0.05073534 -0.090197086 -0.080982618
0.050747573 -0.090121448 -0.080980368
0.050769739 -0.090048119 -0.080977693
0.050785907 -0.089974597 -0.080975294
0.050786152 -0.089898586 -0.080973633
0.050768435 -0.089822032 -0.080972828
0.050746791 -0.089743346 -0.080972172
0.05073905 -0.089667097 -0.080970891
0.05073338 -0.089588903 -0.080969468
0.05072964 -0.089512773 -0.080967993
0.050733835 -0.089438885 -0.080966182
0.050736085 -0.089362942 -0.080964416
0.050732344 -0.089286812 -0.080962941
0.050738581 -0.089210987 -0.080960982
0.050762735 -0.089137718 -0.080958202
0.050790824 -0.089066565 -0.080955282
0.050799064 -0.088990808 -0.080953233
0.050791338 -0.088914551 -0.080951944
0.050787605 -0.088838421 -0.080950469
0.050783858 -0.088762291 -0.080949001
0.050780118 -0.088686161 -0.080947526
0.050774381 -0.088609964 -0.080946147
0.050768651 -0.088533774 -0.080944762
0.050776884 -0.088458017 -0.080942713
0.050791062 -0.088384435 -0.080940418
0.050801232 -0.088310733 -0.080938317
0.050811477 -0.088235036 -0.080936164
0.050791763 -0.088158414 -0.080935463
0.050722316 -0.088074259 -0.080937028
0.050704591 -0.087997697 -0.080936223
0.050706841 -0.087921754 -0.080934465
0.05072102 -0.087848172 -0.080932163
0.050735243 -0.087772593 -0.080929823
0.050739437 -0.087698705 -0.080928013
0.050739683 -0.087622702 -0.080926344
0.050739944 -0.087546691 -0.080924675
0.050744191 -0.087470807 -0.080922812
0.050738402 -0.087396614 -0.080921479
0.050722741 -0.087318122 -0.08092054
0.050713003 -0.087241799 -0.080919355
0.050707266 -0.087165609 -0.080917977
0.050701536 -0.087089419 -0.080916598
0.050693795 -0.08701317 -0.080915317
0.050686061 -0.086936913 -0.080914028
0.050682329 -0.086860783 -0.08091256
0.05068852 -0.086786956 -0.080910645
0.050694764 -0.086711131 -0.080908686
0.05069501 -0.086635128 -0.080907024
0.050663382 -0.086556137 -0.080906853
0.050603785 -0.086476289 -0.080908023
0.05057615 -0.086397424 -0.080907658
0.050558433 -0.086320862 -0.080906861
0.05055669 -0.086244792 -0.080905288
0.050556943 -0.086168788 -0.08090362
0.050549209 -0.086092532 -0.080902338
0.050539471 -0.086016215 -0.080901153
0.050527759 -0.085939839 -0.080900066
0.050518028 -0.085863531 -0.080898881
0.050514281 -0.085787401 -0.080897406
0.050506555 -0.085711144 -0.080896124
0.050492831 -0.085634708 -0.080895126
0.050481103 -0.085558333 -0.080894038
0.050481297 -0.085484318 -0.080892414
0.050493523 -0.08540868 -0.080890171
0.050503708 -0.085334979 -0.08088807
0.050505966 -0.085259035 -0.080886304
0.05050616 -0.085185021 -0.08088468
0.050502412 -0.085108891 -0.080883205
0.050480708 -0.08503221 -0.080882601
0.050431103 -0.084952667 -0.080883294
0.050387487 -0.084873311 -0.080883697
0.050369777 -0.084796757 -0.080882899
0.050354056 -0.084720254 -0.080882005
0.050340325 -0.084643818 -0.080881007
0.050326608 -0.084567375 -0.080880016
0.050322868 -0.084491245 -0.080878541
0.050325058 -0.084417298 -0.080876827
0.050303347 -0.084340617 -0.080876216
0.050263725 -0.08426138 -0.080876425
0.050242022 -0.084184699 -0.080875821
0.050220311 -0.084108017 -0.08087521
0.050210573 -0.084031701 -0.080874026
0.050202847 -0.083955452 -0.080872744
0.050187126 -0.083878949 -0.08087185
0.050181381 -0.08380276 -0.080870472
0.050179586 -0.083728686 -0.080868945
0.050167859 -0.08365231 -0.080867857
0.050150149 -0.083575748 -0.080867052
0.050112456 -0.083498575 -0.080867216
0.049995087 -0.083412945 -0.080871098
0.04993543 -0.083335102 -0.08087232
0.04991772 -0.083258539 -0.080871515
0.049915977 -0.083182469 -0.080869943
0.049906246 -0.083106153 -0.080868758
0.04989446 -0.083031781 -0.080867715
0.049880743 -0.082955338 -0.080866724
0.049859032 -0.082878657 -0.080866113
0.049831331 -0.082801789 -0.0808658
0.049813613 -0.082725227 -0.080864996
0.049793899 -0.082648605 -0.080864295
0.049760208 -0.082571559 -0.080864266
0.049726523 -0.082494505 -0.080864228
0.049686834 -0.082417265 -0.080864489
0.049667127 -0.082340643 -0.080863789
0.049653344 -0.082266212 -0.080862843
0.04962565 -0.082189336 -0.080862522
0.049605936 -0.082112715 -0.080861814
0.049604125 -0.082038648 -0.080860294
0.049598388 -0.081962459 -0.080858916
0.049578615 -0.081887834 -0.080858253
0.049525015 -0.081808165 -0.08085914
0.049483344 -0.081730872 -0.080859497
0.049473554 -0.081656553 -0.080858357
0.049459837 -0.081580117 -0.080857366
0.049448043 -0.081505738 -0.080856323
0.049436316 -0.081429362 -0.080855235
0.04943452 -0.081355296 -0.080853708
0.049434714 -0.081281282 -0.080852091
0.049436964 -0.081205338 -0.080850326
0.049445137 -0.081131577 -0.080848314
0.049461253 -0.081060052 -0.080845974
0.049475491 -0.080984481 -0.080843627
0.049499646 -0.080911204 -0.080840856
0.049533725 -0.080840237 -0.080837637
0.04958383 -0.080767766 -0.080833614
0.049651861 -0.080697842 -0.080828756
