# .PCD v0.7 - Point Cloud Data file format
VERSION 0.7
FIELDS x y z
SIZE 4 4 4
TYPE F F F
COUNT 1 1 1
WIDTH 1288
HEIGHT 1
VIEWPOINT 0 0 0 1 0 0 0
POINTS 1288
DATA ascii
-0.032392979 0.024495816 -0.18783306
-0.032389686 0.02457815 -0.18784913
-0.032387078 0.024660181 -0.18785121
-0.032385249 0.024741862 -0.18783732
-0.03238387 0.024821367 -0.18781547
-0.032381844 0.024903135 -0.18780558
-0.032379527 0.024985034 -0.18780166
-0.032377113 0.025066976 -0.18779975
-0.032374796 0.025148872 -0.18779585
-0.032372087 0.025230946 -0.18779993
-0.03236977 0.025312845 -0.18779603
-0.032368198 0.025392439 -0.18777817
-0.032365881 0.025474336 -0.18777427
-0.032363661 0.025556192 -0.18776837
-0.032361634 0.02563796 -0.18775846
-0.032359026 0.025719989 -0.18776055
-0.032356612 0.025801932 -0.18775864
-0.032354198 0.025883874 -0.18775672
-0.032351393 0.02596599 -0.1877628
-0.032347649 0.026050499 -0.1877868
-0.032345138 0.026132485 -0.18778689
-0.032343112 0.026214253 -0.18777698
-0.032340698 0.026296195 -0.18777508
-0.032338537 0.02637605 -0.18776922
-0.032336418 0.026457861 -0.18776131
-0.032333709 0.026539935 -0.18776539
-0.032331139 0.02662392 -0.18776543
-0.032328881 0.02670382 -0.18776157
-0.032326173 0.026785892 -0.18776566
-0.032323405 0.026869964 -0.18776968
-0.032321189 0.02695182 -0.18776378
-0.032318674 0.027033806 -0.18776387
-0.03231661 0.027113618 -0.187756
-0.032314684 0.027195342 -0.18774411
-0.032312661 0.027277108 -0.18773422
-0.032310247 0.02735905 -0.18773231
-0.032307245 0.027441256 -0.18774238
-0.032304734 0.027523242 -0.18774246
-0.032302417 0.027605139 -0.18773854
-0.032299068 0.027689474 -0.18775457
-0.032295812 0.027773764 -0.18776858
-0.032293495 0.027855663 -0.18776467
-0.032291725 0.027935345 -0.18775083
-0.032290246 0.028014895 -0.187731
-0.032288712 0.028096443 -0.1877111
-0.032287039 0.02817608 -0.18769526
-0.032284819 0.028257934 -0.18768935
-0.032282405 0.028339878 -0.18768744
-0.032280438 0.028419646 -0.18767759
-0.032278512 0.028501369 -0.18766569
-0.032276392 0.02858318 -0.18765779
-0.032274619 0.02866286 -0.18764395
-0.032272499 0.028744671 -0.18763603
-0.032270629 0.028824398 -0.18762419
-0.0322688 0.028906077 -0.18761028
-0.032266192 0.028988108 -0.18761238
-0.032263327 0.029072223 -0.1876184
-0.032260817 0.029154209 -0.18761849
-0.032257818 0.029236414 -0.18762857
-0.032255109 0.029318487 -0.18763264
-0.032253377 0.029400121 -0.18761675
-0.032252192 0.029479541 -0.18759091
-0.032250911 0.029559003 -0.18756709
-0.032250077 0.029636294 -0.18753532
-0.032249086 0.029715626 -0.18750548
-0.032247961 0.029793045 -0.1874797
-0.032245938 0.029874813 -0.18746981
-0.032244168 0.029954493 -0.18745595
-0.032242142 0.030036261 -0.18744606
-0.032239728 0.030118205 -0.18744415
-0.032237764 0.030197972 -0.18743429
-0.032236129 0.030279564 -0.1874164
-0.032234907 0.030357029 -0.18739262
-0.032233465 0.030438535 -0.18737072
-0.032231793 0.030518172 -0.18735489
-0.03222983 0.03059794 -0.18734503
-0.032227803 0.030679706 -0.18733513
-0.032226231 0.030759301 -0.18731728
-0.032224558 0.03083894 -0.18730144
-0.032222886 0.030918576 -0.1872856
-0.0322216 0.03099804 -0.18726176
-0.03222071 0.031077327 -0.18722995
-0.032219779 0.031154661 -0.18720016
-0.032218106 0.031234298 -0.18718432
-0.032216433 0.031313933 -0.18716848
-0.032215346 0.031393312 -0.18714064
-0.032214161 0.031472728 -0.1871148
-0.032212742 0.031550281 -0.18709502
-0.03221111 0.031631872 -0.18707713
-0.032209594 0.03170947 -0.18705934
-0.032207765 0.031791151 -0.18704545
-0.032205448 0.031873047 -0.18704152
-0.032203287 0.031952903 -0.18703568
-0.032201555 0.032034539 -0.1870198
-0.032200038 0.032112136 -0.187002
-0.032198209 0.032193817 -0.18698809
-0.032195501 0.032275885 -0.18699217
-0.032191858 0.032360353 -0.18701419
-0.032188252 0.032446772 -0.18703416
-0.032184802 0.03253115 -0.18705216
-0.032181509 0.032613486 -0.18706822
-0.032178003 0.032699864 -0.18708619
-0.032174356 0.032784328 -0.18710819
-0.032169875 0.032871142 -0.18714613
-0.032164197 0.032962434 -0.18720596
-0.032160204 0.033049028 -0.1872339
-0.032157049 0.033133276 -0.18724592
-0.033180058 -0.0016369633 -0.1879458
-0.033181503 -0.0015488639 -0.18785983
-0.033180397 -0.0014655339 -0.18782991
-0.033180207 -0.0013806438 -0.18777996
-0.033180445 -0.0012939721 -0.18772
-0.03317957 -0.0012087766 -0.18768403
-0.033178367 -0.0011254046 -0.18765613
-0.033176675 -0.0010418147 -0.18763819
-0.033174649 -0.00096004829 -0.1876283
-0.033172861 -0.0008764118 -0.18761235
-0.033171225 -0.00079481862 -0.18759446
-0.033169005 -0.00071296655 -0.18758854
-0.033166494 -0.00063097943 -0.18758865
-0.033163983 -0.00054899324 -0.18758872
-0.033161238 -0.00046887528 -0.18759486
-0.033158727 -0.00038688909 -0.18759492
-0.033155881 -0.00030672736 -0.18760306
-0.03315226 -0.00022621453 -0.18762717
-0.033149414 -0.00014605373 -0.18763527
-0.033147428 -6.2329695e-05 -0.18762334
-0.033145696 1.9305386e-05 -0.18760744
-0.033143282 0.00010124687 -0.18760553
-0.033139952 0.00018162839 -0.18762362
-0.033135511 0.00026053563 -0.18766576
-0.033131886 0.0003410466 -0.18768986
-0.033129141 0.00042116549 -0.18769598
-0.0331246 0.0005001165 -0.18774009
-0.033119962 0.00057910942 -0.18778621
-0.033117119 0.00065927207 -0.18779433
-0.033114802 0.00074117072 -0.18779042
-0.033112485 0.00082306936 -0.1877865
-0.033110265 0.00090492424 -0.1877806
-0.033107657 0.00098695327 -0.18778268
-0.033104617 0.0010672025 -0.1877948
-0.033101812 0.00114932 -0.18780088
-0.033098776 0.0012295693 -0.18781298
-0.033095248 0.0013100374 -0.1878351
-0.033091821 0.0013904618 -0.18785518
-0.033089504 0.0014723614 -0.18785129
-0.033086993 0.0015543457 -0.18785137
-0.033083953 0.0016345959 -0.1878635
-0.033080816 0.001714889 -0.18787761
-0.033077914 0.0017970493 -0.18788567
-0.033075362 0.0018770806 -0.18788782
-0.033072658 0.0019591544 -0.18789189
-0.033069327 0.002039535 -0.18790999
-0.033065606 0.0021200906 -0.1879361
-0.033061787 0.0022006892 -0.18796417
-0.03305855 0.0022810269 -0.18798029
-0.033056039 0.0023630112 -0.18798037
-0.033053782 0.0024429131 -0.18797651
-0.033051893 0.0025265906 -0.18796256
-0.033049773 0.0026084017 -0.18795466
-0.033047065 0.0026904754 -0.18795875
-0.03304432 0.0027705934 -0.18796487
-0.033041418 0.0028527547 -0.18797293
-0.033038769 0.0029328289 -0.18797708
-0.033036064 0.0030149017 -0.18798116
-0.03303355 0.0030968878 -0.18798125
-0.033030748 0.0031790053 -0.18798731
-0.033027902 0.0032591671 -0.18799543
-0.033025686 0.0033410229 -0.18798953
-0.033023991 0.0034246128 -0.18797159
-0.033021148 0.0035047755 -0.18797971
-0.033017758 0.0035871537 -0.18799777
-0.033014525 0.0036674924 -0.18801388
-0.033011388 0.0037477845 -0.18802801
-0.033008195 0.0038300771 -0.18804207
-0.033005349 0.0039102379 -0.18805018
-0.033002742 0.0039922679 -0.18805227
-0.033000618 0.004074079 -0.18804437
-0.032998987 0.0041556722 -0.18802647
-0.032996804 0.0042394809 -0.18801853
-0.032994255 0.0043195123 -0.18802066
-0.032991685 0.0044034971 -0.18802069
-0.032989759 0.0044852206 -0.18800879
-0.032987539 0.0045670746 -0.18800288
-0.032984927 0.0046491046 -0.18800497
-0.032982573 0.0047290483 -0.18800311
-0.032980196 0.0048129456 -0.18799916
-0.032978367 0.0048946259 -0.18798527
-0.032976832 0.0049761739 -0.18796536
-0.032974612 0.0050580278 -0.18795946
-0.032971576 0.0051382789 -0.18797158
-0.032967795 0.0052208332 -0.18799764
-0.032964267 0.0053013004 -0.18801972
-0.032961424 0.0053814631 -0.18802786
-0.03295872 0.0054635354 -0.18803193
-0.032956596 0.005545347 -0.18802403
-0.032954905 0.0056289379 -0.1880061
-0.032952745 0.0057087946 -0.18800023
-0.032950621 0.0057906047 -0.18799233
-0.032948539 0.0058743712 -0.18798238
-0.032946516 0.0059561376 -0.18797249
-0.032944392 0.0060379487 -0.18796459
-0.032942176 0.006119804 -0.18795869
-0.032939956 0.0062016593 -0.18795277
-0.032937344 0.0062836888 -0.18795486
-0.032934796 0.0063637188 -0.18795699
-0.032932479 0.0064456179 -0.18795308
-0.032929771 0.0065276911 -0.18795715
-0.032927066 0.0066097649 -0.18796125
-0.03292422 0.0066899266 -0.18796936
-0.032921515 0.0067719999 -0.18797344
-0.032919586 0.0068537239 -0.18796155
-0.032917075 0.0069357092 -0.18796162
-0.03291345 0.0070162211 -0.18798572
-0.032910258 0.0070985132 -0.18799978
-0.032907844 0.0071804556 -0.18799788
-0.032905817 0.0072622225 -0.18798798
-0.032904185 0.0073438147 -0.18797009
-0.032902159 0.0074255825 -0.18796019
-0.032899845 0.0075074811 -0.18795627
-0.032897819 0.007589248 -0.18794638
-0.032895308 0.0076712342 -0.18794647
-0.0328926 0.0077533075 -0.18795055
-0.032890383 0.0078351619 -0.18794464
-0.032888457 0.0079168864 -0.18793273
-0.032885943 0.0079988716 -0.18793283
-0.032883335 0.0080809006 -0.18793491
-0.032881174 0.0081607569 -0.18792906
-0.03287866 0.0082427431 -0.18792914
-0.032876149 0.0083247293 -0.18792921
-0.032873638 0.0084067145 -0.1879293
-0.032870542 0.0084889634 -0.18794137
-0.032867502 0.0085692126 -0.18795349
-0.032864366 0.0086495057 -0.1879676
-0.032861657 0.0087315794 -0.18797168
-0.032859731 0.008813303 -0.18795979
-0.032857709 0.0088950703 -0.1879499
-0.032855295 0.0089770127 -0.18794799
-0.032852978 0.0090589104 -0.18794405
-0.032850269 0.0091409842 -0.18794815
-0.032847524 0.0092211021 -0.18795426
-0.032844722 0.0093032196 -0.18796036
-0.032842793 0.0093849432 -0.18794845
-0.032840867 0.0094666667 -0.18793656
-0.032839037 0.0095483465 -0.18792266
-0.03283643 0.0096303765 -0.18792474
-0.032833431 0.0097125806 -0.18793482
-0.032831013 0.009794523 -0.18793291
-0.032827977 0.0098747723 -0.18794501
-0.032824684 0.0099571086 -0.18796109
-0.032821782 0.010039268 -0.18796915
-0.032818452 0.010119649 -0.18798727
-0.032815453 0.010201854 -0.18799734
-0.032813426 0.010283621 -0.18798743
-0.032811109 0.01036552 -0.18798353
-0.032808501 0.010447549 -0.1879856
-0.032806087 0.010529491 -0.18798369
-0.032803867 0.010611346 -0.18797779
-0.032801904 0.010691115 -0.18796793
-0.032800015 0.010774793 -0.18795398
-0.03279756 0.010854781 -0.18795413
-0.032794658 0.010936941 -0.1879622
-0.03279205 0.011018971 -0.18796429
-0.03278954 0.011100956 -0.18796436
-0.032787222 0.011182855 -0.18796046
-0.032785099 0.011264666 -0.18795255
-0.032782685 0.011346608 -0.18795064
-0.032779843 0.01142677 -0.18795878
-0.032776453 0.011509149 -0.18797684
-0.032773256 0.011591442 -0.18799089
-0.032770317 0.011671647 -0.18800101
-0.032767024 0.011753983 -0.18801707
-0.032764122 0.011836143 -0.18802515
-0.032761902 0.011917998 -0.18801925
-0.032759685 0.011999853 -0.18801335
-0.032756977 0.012081927 -0.18801741
-0.032754466 0.012163912 -0.1880175
-0.032752208 0.012243812 -0.18801364
-0.032749597 0.012325842 -0.18801573
-0.032746792 0.012407959 -0.18802179
-0.032743599 0.01249025 -0.18803588
-0.032740403 0.012572543 -0.18804993
-0.032738477 0.012654266 -0.18803804
-0.032736901 0.01273386 -0.1880202
-0.032734293 0.01281589 -0.18802227
-0.032731682 0.012897919 -0.18802434
-0.032729171 0.012979905 -0.18802445
-0.032725587 0.013062372 -0.18804649
-0.032721903 0.013144882 -0.18807055
-0.032719586 0.01322678 -0.18806663
-0.032716937 0.013306855 -0.18807077
-0.032713745 0.013389147 -0.18808484
-0.03271123 0.013471133 -0.18808492
-0.032709014 0.013552988 -0.18807901
-0.03270689 0.013634799 -0.1880711
-0.032705158 0.013716435 -0.18805522
-0.032703232 0.013798159 -0.18804333
-0.032700915 0.013880057 -0.18803942
-0.032698501 0.013961999 -0.1880375
-0.03269599 0.014043985 -0.18803759
-0.032693535 0.014123973 -0.18803772
-0.032691162 0.01420787 -0.18803376
-0.032689489 0.014287507 -0.1880179
-0.03268766 0.014369187 -0.18800402
-0.032684952 0.01445126 -0.1880081
-0.032681368 0.014533726 -0.18803015
-0.032678075 0.014616063 -0.18804622
-0.032674979 0.014698311 -0.18805829
-0.032672271 0.014780384 -0.18806237
-0.032668296 0.014863025 -0.18809241
-0.03266393 0.014945842 -0.18813044
-0.032661222 0.015027915 -0.18813452
-0.032659259 0.015107684 -0.18812466
-0.032657333 0.015189407 -0.18811277
-0.032655697 0.015271001 -0.18809488
-0.032653674 0.015352767 -0.18808499
-0.032651551 0.015434578 -0.18807709
-0.032649234 0.015516477 -0.18807316
-0.032647114 0.015598288 -0.18806526
-0.0326447 0.015680229 -0.18806335
-0.032642089 0.01576226 -0.18806544
-0.032639384 0.015844332 -0.18806952
-0.032636832 0.015924364 -0.18807165
-0.032634906 0.016006088 -0.18805975
-0.032633271 0.016087679 -0.18804187
-0.032630857 0.016169623 -0.18803996
-0.032628052 0.016251739 -0.18804604
-0.032625053 0.016333943 -0.18805611
-0.032622054 0.016416147 -0.18806618
-0.032619543 0.016498134 -0.18806626
-0.032616738 0.01658025 -0.18807234
-0.032613639 0.016662499 -0.18808441
-0.032611422 0.016744353 -0.18807849
-0.032609649 0.016824035 -0.18806465
-0.03260747 0.016907845 -0.18805671
-0.032605506 0.016987614 -0.18804684
-0.032603577 0.017069336 -0.18803495
-0.03260136 0.017151192 -0.18802905
-0.032599337 0.017232958 -0.18801914
-0.032596823 0.017314944 -0.18801925
-0.032594115 0.017397018 -0.1880233
-0.032591604 0.017479004 -0.18802339
-0.032589678 0.017560728 -0.1880115
-0.032588005 0.017640365 -0.18799566
-0.032585688 0.017722264 -0.18799174
-0.032582983 0.017804336 -0.18799582
-0.032580372 0.017886367 -0.18799791
-0.032577373 0.017968571 -0.18800798
-0.03257408 0.018050905 -0.18802404
-0.032570984 0.018133156 -0.18803611
-0.032568082 0.018215315 -0.18804419
-0.032565512 0.0182993 -0.18804422
-0.032563739 0.01837898 -0.18803039
-0.032561522 0.018460836 -0.18802446
-0.032558717 0.018542953 -0.18803054
-0.0325564 0.018624851 -0.18802664
-0.032554377 0.01870662 -0.18801674
-0.032552548 0.018788299 -0.18800285
-0.032550093 0.018868286 -0.18800297
-0.032546449 0.01895275 -0.18802498
-0.032543451 0.019034956 -0.18803506
-0.03254094 0.019116942 -0.18803513
-0.03253901 0.019198664 -0.18802324
-0.032537341 0.019278303 -0.1880074
-0.032535121 0.019360159 -0.18800148
-0.032532804 0.019442055 -0.18799758
-0.03253039 0.019523997 -0.18799567
-0.032527976 0.01960594 -0.18799376
-0.032525364 0.019687969 -0.18799585
-0.032522559 0.019770086 -0.18800193
-0.032519855 0.019852161 -0.18800601
-0.03251734 0.019934146 -0.18800607
-0.032514926 0.020016089 -0.18800417
-0.032513 0.020097811 -0.18799227
-0.032511171 0.020179491 -0.18797839
-0.03250901 0.020259347 -0.18797252
-0.032506693 0.020341245 -0.18796861
-0.03250438 0.020423144 -0.18796471
-0.032501865 0.02050513 -0.1879648
-0.032499354 0.020587116 -0.18796487
-0.032496843 0.020669103 -0.18796498
-0.032494135 0.020751175 -0.18796904
-0.032492209 0.0208329 -0.18795715
-0.032490186 0.020914666 -0.18794724
-0.032487772 0.020996608 -0.18794534
-0.032485064 0.021078682 -0.18794942
-0.032482356 0.021160755 -0.1879535
-0.032479551 0.021242872 -0.18795958
-0.032476746 0.021324988 -0.18796565
-0.032474138 0.021407019 -0.18796773
-0.032471724 0.021488961 -0.18796581
-0.032469116 0.021570992 -0.1879679
-0.032466993 0.021652801 -0.18796
-0.032465905 0.021732178 -0.18793218
-0.032464564 0.021813639 -0.18790829
-0.032462697 0.021893363 -0.18789645
-0.032460574 0.021975175 -0.18788853
-0.032458551 0.022056941 -0.18787864
-0.032456879 0.02213658 -0.1878628
-0.032455049 0.022218259 -0.1878489
-0.032452732 0.022300158 -0.18784499
-0.032450318 0.022382099 -0.18784308
-0.032447807 0.022464085 -0.18784317
-0.032445002 0.022546202 -0.18784925
-0.032442197 0.022628319 -0.18785532
-0.032439392 0.022710435 -0.18786141
-0.032436237 0.022794683 -0.18787342
-0.032433726 0.022876669 -0.18787351
-0.032431215 0.022958655 -0.1878736
-0.032428995 0.023040511 -0.18786769
-0.032427516 0.023120061 -0.18784785
-0.032424908 0.023202088 -0.18784994
-0.032422494 0.023284031 -0.18784803
-0.032420821 0.023363668 -0.18783218
-0.032418251 0.023447655 -0.18783221
-0.032415543 0.023529727 -0.18783629
-0.032413423 0.023611538 -0.18782839
-0.032411065 0.023691483 -0.18782651
-0.032408457 0.023773512 -0.1878286
-0.032406431 0.02385528 -0.18781871
-0.032404896 0.023936827 -0.18779883
-0.03240303 0.024016552 -0.18778697
-0.032400068 0.02410071 -0.187795
-0.032397714 0.024180654 -0.18779314
-0.032395396 0.024262553 -0.18778923
-0.032392241 0.024346801 -0.18780124
-0.032389238 0.024429005 -0.18781132
-0.032385692 0.024513427 -0.18783131
-0.032381915 0.02459598 -0.18785737
-0.03237905 0.024680097 -0.18786341
-0.032377183 0.024759822 -0.18785155
-0.032376036 0.024841195 -0.18782368
-0.032374363 0.024920832 -0.18780783
-0.032371853 0.025002819 -0.18780792
-0.032369535 0.025084715 -0.18780401
-0.032367218 0.025166616 -0.18780011
-0.032364707 0.025248602 -0.1878002
-0.03236239 0.025330501 -0.18779629
-0.03236017 0.025412355 -0.18779038
-0.032357853 0.025494253 -0.18778647
-0.032355536 0.025576152 -0.18778256
-0.032353766 0.025655832 -0.18776871
-0.032351255 0.025737818 -0.1877688
-0.032348547 0.025819892 -0.18777287
-0.032346524 0.02590166 -0.18776298
-0.03234411 0.025983602 -0.18776107
-0.032340854 0.026067892 -0.18777508
-0.032337856 0.026150096 -0.18778516
-0.032335442 0.026232038 -0.18778324
-0.032333322 0.026313849 -0.18777534
-0.032331102 0.026395703 -0.18776944
-0.032328784 0.026477601 -0.18776552
-0.032326173 0.026559632 -0.18776762
-0.032323819 0.026639575 -0.18776575
-0.032321442 0.026723472 -0.18776178
-0.03231854 0.026805632 -0.18776986
-0.032315835 0.026887707 -0.18777394
-0.032313615 0.026969561 -0.18776804
-0.032311104 0.027051548 -0.18776813
-0.03230869 0.027133491 -0.18776621
-0.032306664 0.027215257 -0.18775631
-0.032305092 0.027294852 -0.18773848
-0.032302871 0.027376706 -0.18773258
-0.032299969 0.027458867 -0.18774065
-0.032297105 0.027542982 -0.18774667
-0.032294594 0.027624968 -0.18774676
-0.032291692 0.02770713 -0.18775484
-0.032288145 0.027791549 -0.18777484
-0.032285534 0.027873579 -0.18777692
-0.032283805 0.027955215 -0.18776104
-0.032281935 0.02803494 -0.18774918
-0.032280106 0.028116621 -0.18773529
-0.032278728 0.028196126 -0.18771344
-0.032276958 0.028275808 -0.18769962
-0.032274835 0.028357619 -0.18769169
-0.032272618 0.028439473 -0.1876858
-0.032270592 0.028521242 -0.18767589
-0.032268628 0.028601009 -0.18766604
-0.032266703 0.028682733 -0.18765414
-0.032264482 0.028764589 -0.18764824
-0.032262418 0.028844399 -0.18764038
-0.032260686 0.028926037 -0.18762448
-0.032258272 0.029007979 -0.18762258
-0.032255568 0.029090052 -0.18762666
-0.03225325 0.029171951 -0.18762276
-0.032250445 0.029254068 -0.18762884
-0.032247387 0.02933827 -0.18763885
-0.032245517 0.029417995 -0.18762702
-0.032244042 0.029497545 -0.18760717
-0.03224276 0.029577009 -0.18758333
-0.032241769 0.029656339 -0.18755351
-0.032240778 0.029735671 -0.18752368
-0.03223975 0.029813047 -0.18749589
-0.032238178 0.029892644 -0.18747807
-0.032236055 0.029974453 -0.18747014
-0.032233935 0.030056264 -0.18746226
-0.032231715 0.030138118 -0.18745634
-0.032229848 0.030217845 -0.18744449
-0.03222831 0.030299393 -0.1874246
-0.032226894 0.030376945 -0.18740481
-0.032225512 0.030456452 -0.18738298
-0.03222394 0.030536044 -0.18736514
-0.03222201 0.030617768 -0.18735324
-0.032219891 0.030699581 -0.18734534
-0.032218218 0.030779216 -0.1873295
-0.032216895 0.030856725 -0.1873077
-0.032214969 0.03093845 -0.18729581
-0.032213297 0.031018084 -0.18727997
-0.032212112 0.031097505 -0.18725413
-0.032211378 0.031174751 -0.18722036
-0.032210387 0.031254083 -0.18719053
-0.032208715 0.031333718 -0.18717469
-0.032207239 0.031413272 -0.18715484
-0.032205857 0.031492777 -0.18713301
-0.032204479 0.031572282 -0.18711117
-0.032203354 0.031649701 -0.18708539
-0.032201972 0.03172921 -0.18706356
-0.032200299 0.031808846 -0.18704772
-0.032197788 0.031890832 -0.18704781
-0.032195471 0.031972732 -0.18704389
-0.032193899 0.032052327 -0.18702605
-0.032192323 0.032131918 -0.1870082
-0.032190006 0.032213815 -0.1870043
-0.032187689 0.032295719 -0.18700039
-0.032184437 0.032380007 -0.1870144
-0.03218089 0.03246443 -0.18703443
-0.032177441 0.032548808 -0.18705243
-0.032174088 0.032633141 -0.18706845
-0.032170445 0.032717604 -0.18709046
-0.032166548 0.032804158 -0.18711641
-0.032162257 0.032890882 -0.18715036
-0.032157131 0.032979958 -0.18720023
-0.032152295 0.033068903 -0.18724412
-0.03214914 0.033153147 -0.18725613
-0.032145847 0.033235483 -0.18727219
-0.033194646 -0.0016522026 -0.18797754
-0.033196617 -0.0015623663 -0.18787953
-0.033196028 -0.0014773002 -0.18783759
-0.03319554 -0.0013922788 -0.18779364
-0.033195578 -0.0013055205 -0.18773766
-0.033195186 -0.0012205429 -0.18769172
-0.033194266 -0.0011373023 -0.1876578
-0.033192959 -0.0010538865 -0.18763188
-0.033191066 -0.00097020902 -0.18761793
-0.033188939 -0.00088839699 -0.18761005
-0.033187103 -0.0008067172 -0.18759614
-0.033185404 -0.00072312728 -0.1875782
-0.033183277 -0.00064131524 -0.1875703
-0.033180527 -0.00056119915 -0.18757644
-0.033177618 -0.00047903694 -0.1875845
-0.033175062 -0.00039900653 -0.18758664
-0.033172544 -0.00031702127 -0.18758672
-0.033169307 -0.00023668353 -0.18760282
-0.033165969 -0.00015630387 -0.18762094
-0.033163551 -7.4361451e-05 -0.18761903
-0.033161912 7.2317198e-06 -0.18760112
-0.033160016 9.090919e-05 -0.1875872
-0.033157069 0.00017111469 -0.1875973
-0.033152916 0.00024989061 -0.18763342
-0.033148896 0.00033057667 -0.18766552
-0.033145949 0.00041078217 -0.18767563
-0.033142515 0.0004912056 -0.18769574
-0.033137638 0.00056833401 -0.1877479
-0.033133913 0.00064888783 -0.18777399
-0.033131201 0.00073096156 -0.18777806
-0.033128936 0.00081086159 -0.18777421
-0.033126749 0.00089467131 -0.18776625
-0.033124231 0.00097665563 -0.18776634
-0.033121288 0.0010568621 -0.18777646
-0.033118241 0.0011371113 -0.18778858
-0.033115432 0.0012192279 -0.18779466
-0.033112098 0.0012996085 -0.18781276
-0.03310876 0.0013799891 -0.18783087
-0.033105813 0.0014601955 -0.18784098
-0.033103198 0.0015422245 -0.18784307
-0.033100486 0.0016242974 -0.18784714
-0.033097737 0.0017044153 -0.18785328
-0.03309473 0.0017866204 -0.18786334
-0.03309159 0.0018669125 -0.18787745
-0.033088837 0.0019470314 -0.18788359
-0.033086028 0.0020291479 -0.18788965
-0.03308269 0.0021095295 -0.18790776
-0.033078868 0.002190128 -0.18793584
-0.033075199 0.002268685 -0.187962
-0.033072487 0.0023507578 -0.18796608
-0.033070162 0.0024326565 -0.18796216
-0.033067744 0.002514598 -0.18796025
-0.033065423 0.0025964957 -0.18795633
-0.033063196 0.0026783505 -0.18795043
-0.033060778 0.002760293 -0.18794852
-0.033057928 0.0028404547 -0.18795665
-0.033054922 0.0029226597 -0.18796672
-0.033052072 0.0030028205 -0.18797484
-0.033049848 0.0030846763 -0.18796894
-0.033047661 0.0031684861 -0.18796098
-0.033044815 0.0032486469 -0.1879691
-0.033042006 0.0033307644 -0.18797518
-0.033040073 0.0034124879 -0.18796328
-0.033037849 0.0034943409 -0.18795738
-0.033034548 0.0035766773 -0.18797344
-0.033031311 0.0036570141 -0.18798953
-0.03302817 0.0037373081 -0.18800366
-0.033025026 0.0038176002 -0.18801777
-0.033021927 0.0038998481 -0.18802984
-0.033019017 0.0039820094 -0.18803792
-0.033016559 0.0040619951 -0.18803805
-0.033014566 0.0041457191 -0.1880261
-0.033012733 0.004227397 -0.18801221
-0.033010412 0.0043092957 -0.18800831
-0.033007797 0.0043913256 -0.18801039
-0.033005863 0.0044730483 -0.18799847
-0.033004031 0.004554729 -0.18798459
-0.033001415 0.0046367589 -0.18798667
-0.032998603 0.0047188746 -0.18799275
-0.032996379 0.0048007295 -0.18798685
-0.032994445 0.004882453 -0.18797494
-0.032992415 0.0049642203 -0.18796504
-0.032990191 0.0050460743 -0.18795913
-0.032987773 0.0051280158 -0.18795723
-0.032984473 0.0052103521 -0.18797329
-0.032980904 0.0052888654 -0.18799743
-0.032977801 0.0053711124 -0.1880095
-0.032974895 0.0054532737 -0.18801758
-0.032972436 0.0055332603 -0.18801771
-0.032970738 0.0056168525 -0.18799978
-0.032969099 0.0056984434 -0.18798189
-0.032967068 0.0057802107 -0.18797198
-0.032964844 0.0058620656 -0.18796608
-0.03296252 0.0059439638 -0.18796217
-0.032960296 0.0060258186 -0.18795626
-0.032958265 0.0061075855 -0.18794636
-0.032956041 0.0061894404 -0.18794045
-0.032953426 0.0062714694 -0.18794253
-0.032950714 0.0063535431 -0.18794662
-0.03294839 0.0064354418 -0.18794271
-0.032946069 0.0065173395 -0.18793881
-0.032943219 0.0065975017 -0.18794692
-0.03294012 0.0066797491 -0.18795899
-0.032937463 0.0067598242 -0.18796313
-0.032935277 0.006843633 -0.18795517
-0.032933112 0.0069234893 -0.1879493
-0.032929912 0.0070057819 -0.18796337
-0.032926671 0.0070861178 -0.18797949
-0.032924056 0.0071681477 -0.18798156
-0.032921735 0.0072500454 -0.18797766
-0.032919902 0.0073317252 -0.18796375
-0.032918006 0.0074154036 -0.18794982
-0.032915745 0.0074953027 -0.18794596
-0.032913521 0.007577158 -0.18794006
-0.032911725 0.0076607922 -0.18792412
-0.032908972 0.0077409102 -0.18793023
-0.03290616 0.0078230277 -0.18793631
-0.032904133 0.0079047941 -0.18792641
-0.032901712 0.0079867365 -0.1879245
-0.032899097 0.0080687664 -0.18792659
-0.032896873 0.0081506204 -0.18792067
-0.032894649 0.0082324753 -0.18791477
-0.03289213 0.0083144614 -0.18791486
-0.032889478 0.0083945356 -0.18791899
-0.032886766 0.0084766084 -0.18792307
-0.032883622 0.0085569015 -0.18793717
-0.032880422 0.0086391931 -0.18795124
-0.032877807 0.0087212231 -0.18795332
-0.032875679 0.0088030333 -0.18794543
-0.032873359 0.0088849319 -0.18794151
-0.032871135 0.0089667868 -0.18793562
-0.032868907 0.0090486417 -0.1879297
-0.032866254 0.0091287158 -0.18793383
-0.032863248 0.00921092 -0.18794391
-0.032860536 0.0092929937 -0.18794799
-0.032858312 0.0093748476 -0.18794207
-0.032856576 0.0094564836 -0.18792619
-0.032854643 0.0095382072 -0.18791428
-0.032852184 0.0096181948 -0.18791442
-0.032849278 0.0097003542 -0.18792248
-0.032846857 0.0097822966 -0.18792057
-0.032844242 0.0098643266 -0.18792266
-0.032840807 0.00994475 -0.18794277
-0.032837704 0.010026999 -0.18795483
-0.032834604 0.010109246 -0.1879669
-0.032831267 0.010189626 -0.187985
-0.032829039 0.010271481 -0.1879791
-0.032826915 0.010353292 -0.1879712
-0.032824591 0.01043519 -0.18796729
-0.032822073 0.010517176 -0.18796737
-0.032819457 0.010599206 -0.18796945
-0.032817233 0.01068106 -0.18796355
-0.032815304 0.010762784 -0.18795165
-0.032813177 0.010844594 -0.18794376
-0.032810461 0.010926668 -0.18794784
-0.032807615 0.011006829 -0.18795595
-0.032805488 0.011088641 -0.18794805
-0.032803066 0.011170583 -0.18794614
-0.032800354 0.011252656 -0.18795022
-0.032798324 0.011334423 -0.18794031
-0.032796003 0.011416321 -0.18793641
-0.0327929 0.011498569 -0.18794847
-0.032789368 0.011579037 -0.18797058
-0.032786071 0.011661372 -0.18798664
-0.032782868 0.011743664 -0.18800071
-0.03277963 0.011824001 -0.18801682
-0.032777015 0.011906031 -0.1880189
-0.032775179 0.01198771 -0.188005
-0.032773249 0.012069434 -0.18799311
-0.03277044 0.012151551 -0.18799919
-0.032767627 0.012233667 -0.18800525
-0.032765012 0.012315696 -0.18800734
-0.032762554 0.012395684 -0.18800747
-0.03275945 0.012477932 -0.18801954
-0.032756351 0.012560179 -0.18803161
-0.032753833 0.012642166 -0.1880317
-0.032752097 0.012723802 -0.1880158
-0.032749966 0.012805612 -0.18800791
-0.03274741 0.012885643 -0.18801004
-0.032744993 0.012967585 -0.18800813
-0.032742083 0.013049746 -0.18801619
-0.032738104 0.013132387 -0.18804623
-0.032735001 0.013214635 -0.1880583
-0.032732774 0.01329649 -0.18805239
-0.032729674 0.013378737 -0.18806446
-0.032726727 0.013458943 -0.18807459
-0.0327245 0.013540798 -0.18806869
-0.032722373 0.013622609 -0.18806078
-0.032720149 0.013704463 -0.18805487
-0.032718219 0.013786186 -0.18804297
-0.032716088 0.013867998 -0.18803507
-0.032713864 0.013949852 -0.18802917
-0.03271164 0.014031706 -0.18802324
-0.032709025 0.014113736 -0.18802534
-0.03270641 0.014195765 -0.18802741
-0.032704439 0.014275534 -0.18801756
-0.032702643 0.014359169 -0.18800163
-0.032700282 0.014439112 -0.18799976
-0.032697376 0.014521273 -0.18800783
-0.032694075 0.014603608 -0.1880239
-0.032690682 0.014685987 -0.18804196
-0.032687776 0.014768148 -0.18805003
-0.032684673 0.014850396 -0.1880621
-0.032680497 0.014933124 -0.18809614
-0.032677002 0.015015547 -0.18811619
-0.032674544 0.015095534 -0.18811633
-0.032672454 0.0151793 -0.18810637
-0.032670874 0.015258893 -0.18808854
-0.032669138 0.015340529 -0.18807265
-0.032666817 0.015422428 -0.18806873
-0.032664783 0.015504195 -0.18805884
-0.032662559 0.01558605 -0.18805294
-0.032660142 0.015667992 -0.18805102
-0.032657329 0.015750108 -0.18805709
-0.032654423 0.01583227 -0.18806517
-0.032651905 0.015914254 -0.18806526
-0.032649972 0.015995977 -0.18805337
-0.032648589 0.016075484 -0.18803152
-0.032646362 0.01615734 -0.18802562
-0.032643553 0.016239457 -0.1880317
-0.032640744 0.016321573 -0.18803777
-0.032637641 0.01640382 -0.18804984
-0.032635026 0.016485851 -0.18805192
-0.032632604 0.016567793 -0.18805
-0.032629501 0.01665004 -0.18806207
-0.032626692 0.016732156 -0.18806815
-0.032624662 0.016813925 -0.18805826
-0.032622535 0.016895734 -0.18805036
-0.032620274 0.016975634 -0.18804649
-0.032618731 0.017057184 -0.18802661
-0.032616895 0.017138863 -0.18801272
-0.032614477 0.017220804 -0.18801081
-0.032611959 0.017302791 -0.18801087
-0.032609344 0.01738482 -0.18801296
-0.032606825 0.017466806 -0.18801305
-0.032604601 0.017548662 -0.18800715
-0.032602865 0.017630298 -0.18799126
-0.032600798 0.017710108 -0.18798339
-0.032598279 0.017792094 -0.18798348
-0.032595467 0.017874211 -0.18798956
-0.032592658 0.017956328 -0.18799564
-0.032589849 0.018038444 -0.18800172
-0.032586548 0.018120781 -0.18801779
-0.032583348 0.018203072 -0.18803185
-0.032580577 0.018287145 -0.18803588
-0.032578606 0.018366912 -0.18802601
-0.032576773 0.018448591 -0.18801212
-0.032574158 0.018530622 -0.18801421
-0.032571346 0.018612739 -0.18802029
-0.032569319 0.018694505 -0.18801038
-0.032567482 0.018776186 -0.18799649
-0.032565065 0.018858127 -0.18799457
-0.032562155 0.018940289 -0.18800265
-0.032559052 0.019022536 -0.18801472
-0.03255605 0.01910474 -0.18802479
-0.032553919 0.019186551 -0.18801689
-0.032551989 0.019268274 -0.18800499
-0.032549821 0.01934813 -0.18799913
-0.032547597 0.019429985 -0.18799323
-0.03254547 0.019511797 -0.18798533
-0.032543343 0.019593608 -0.18797742
-0.032540727 0.019675635 -0.18797952
-0.032537721 0.019757841 -0.18798956
-0.032534912 0.019839957 -0.18799566
-0.032532491 0.019921899 -0.18799374
-0.032530267 0.020003755 -0.18798783
-0.032527752 0.020085739 -0.18798792
-0.032525722 0.020167507 -0.18797803
-0.032523945 0.020247187 -0.18796417
-0.032521427 0.020329174 -0.18796426
-0.032519106 0.02041107 -0.18796036
-0.032516882 0.020492926 -0.18795444
-0.032514557 0.020574823 -0.18795054
-0.032511748 0.020656941 -0.18795662
-0.032509133 0.02073897 -0.18795869
-0.0325073 0.020820651 -0.1879448
-0.032505367 0.020902373 -0.18793291
-0.032502849 0.020984359 -0.187933
-0.032500196 0.021064434 -0.18793711
-0.032497328 0.021148549 -0.18794315
-0.032494616 0.021230623 -0.18794721
-0.032491803 0.02131274 -0.18795329
-0.032489188 0.021394769 -0.18795538
-0.03248677 0.021476712 -0.18795347
-0.032484349 0.021558654 -0.18795156
-0.032482028 0.02164055 -0.18794766
-0.032480545 0.0217201 -0.18792781
-0.0324791 0.021801606 -0.18790592
-0.032477226 0.021881331 -0.18789408
-0.032475587 0.021962924 -0.18787619
-0.032473851 0.022044558 -0.18786031
-0.032471724 0.022126369 -0.18785238
-0.032469556 0.022206226 -0.18784654
-0.032467529 0.022287993 -0.18783663
-0.032465499 0.022369761 -0.18782674
-0.032463174 0.022451658 -0.18782282
-0.032460269 0.022533819 -0.1878309
-0.032457165 0.022616066 -0.18784297
-0.032454453 0.022698142 -0.18784705
-0.032451484 0.0227823 -0.18785506
-0.032448772 0.022864372 -0.18785915
-0.032446157 0.022946402 -0.18786123
-0.032443836 0.023028301 -0.18785733
-0.032442253 0.023107894 -0.18783948
-0.032439835 0.023189837 -0.18783757
-0.032437123 0.023271909 -0.18784165
-0.032435287 0.023353588 -0.18782777
-0.032432772 0.023435574 -0.18782786
-0.032430157 0.023517603 -0.18782993
-0.032428127 0.023599371 -0.18782003
-0.032425959 0.023679227 -0.18781418
-0.032423444 0.023761213 -0.18781425
-0.032421216 0.023843069 -0.18780835
-0.032419637 0.023922661 -0.18779051
-0.032417901 0.024004297 -0.1877746
-0.032415383 0.024086284 -0.18777469
-0.032412477 0.024168443 -0.18778276
-0.032410152 0.024250342 -0.18777886
-0.032407247 0.024332501 -0.18778694
-0.032404181 0.024416706 -0.18779695
-0.032400981 0.024498997 -0.18781102
-0.03239733 0.024583463 -0.18783304
-0.032394227 0.02466571 -0.18784511
-0.032391712 0.024747696 -0.1878452
-0.032390069 0.024829287 -0.1878273
-0.032388687 0.024908794 -0.18780546
-0.03238656 0.024990605 -0.18779756
-0.032384332 0.025072459 -0.18779165
-0.032381915 0.025154401 -0.18778974
-0.032379493 0.025236344 -0.18778783
-0.032377269 0.025318198 -0.18778193
-0.032375045 0.025400054 -0.18777601
-0.03237243 0.025482083 -0.1877781
-0.032370068 0.025562026 -0.18777624
-0.032368235 0.025643706 -0.18776235
-0.032365717 0.025725693 -0.18776242
-0.032363102 0.02580772 -0.18776451
-0.032361168 0.025889443 -0.1877526
-0.032358944 0.025971297 -0.1877467
-0.032355938 0.026053503 -0.18775678
-0.032352485 0.026137881 -0.18777479
-0.032349773 0.026219953 -0.18777886
-0.032347646 0.026301764 -0.18777096
-0.032345772 0.026381489 -0.18775913
-0.032343548 0.026463345 -0.18775322
-0.032340735 0.026545461 -0.18775928
-0.032338355 0.026629357 -0.18775533
-0.03233619 0.026709212 -0.18774948
-0.032333672 0.026791198 -0.18774956
-0.032330707 0.026875358 -0.18775758
-0.032328092 0.026957387 -0.18775967
-0.032325476 0.027039416 -0.18776175
-0.032322958 0.027121402 -0.18776184
-0.032320987 0.027201172 -0.18775198
-0.032319151 0.027282851 -0.18773809
-0.032317474 0.027362488 -0.18772224
-0.032314897 0.027446473 -0.18772228
-0.032311797 0.027528722 -0.18773434
-0.032309279 0.027610706 -0.18773444
-0.032306664 0.027692735 -0.18773651
-0.03230311 0.027777158 -0.18775652
-0.03229985 0.027861446 -0.18777055
-0.032297723 0.027943257 -0.18776265
-0.032296047 0.028022896 -0.18774679
-0.032294311 0.028104533 -0.18773091
-0.032292925 0.028184038 -0.18770906
-0.032291345 0.028263632 -0.18769121
-0.032289315 0.028345399 -0.18768133
-0.032287147 0.028425256 -0.18767548
-0.03228502 0.028507065 -0.18766758
-0.032282893 0.028588876 -0.18765965
-0.032280669 0.028670732 -0.18765375
-0.032278541 0.028752541 -0.18764585
-0.032276571 0.028832311 -0.18763599
-0.032274932 0.028913902 -0.18761811
-0.032273252 0.028993541 -0.18760227
-0.03227054 0.029075613 -0.18760633
-0.032267671 0.02915973 -0.18761238
-0.032264862 0.029241845 -0.18761846
-0.032261796 0.029326048 -0.18762848
-0.032259241 0.02940608 -0.18763061
-0.032257993 0.029487496 -0.18760473
-0.032256957 0.029564872 -0.18757695
-0.032255769 0.029644292 -0.18755111
-0.032254674 0.029723668 -0.18752329
-0.032253485 0.029803086 -0.18749747
-0.032252196 0.029882548 -0.18747362
-0.032250322 0.029962273 -0.18746178
-0.032248195 0.030044084 -0.18745387
-0.032246068 0.030125896 -0.18744597
-0.032243904 0.030205753 -0.18744011
-0.032242071 0.030287432 -0.18742621
-0.032240745 0.03036494 -0.18740442
-0.032239299 0.030446444 -0.18738255
-0.032237817 0.030525994 -0.1873627
-0.03223604 0.030605676 -0.18734886
-0.032234069 0.030685443 -0.18733901
-0.032232039 0.030767212 -0.1873291
-0.032230362 0.030846847 -0.18731326
-0.032228686 0.030926486 -0.1872974
-0.032227006 0.031006124 -0.18728156
-0.032225464 0.031087672 -0.18726167
-0.032224722 0.031164916 -0.1872279
-0.032224081 0.031242119 -0.18719214
-0.032222793 0.031321581 -0.1871683
-0.032221016 0.031401262 -0.18715444
-0.032219827 0.031480685 -0.18712863
-0.032218695 0.031558104 -0.18710285
-0.032216862 0.031639781 -0.18708894
-0.032215632 0.031717245 -0.18706515
-0.03221415 0.031796798 -0.18704534
-0.03221212 0.031878561 -0.18703541
-0.032209408 0.031960636 -0.18703949
-0.032207474 0.032042358 -0.1870276
-0.032206148 0.032119866 -0.18700582
-0.032204762 0.032199375 -0.18698397
-0.032202344 0.032281317 -0.18698207
-0.032198988 0.03236565 -0.18699807
-0.032195337 0.032450113 -0.18702009
-0.032191981 0.03253445 -0.1870361
-0.032188624 0.032618783 -0.18705213
-0.032185264 0.032703117 -0.18706813
-0.032181811 0.032787494 -0.18708615
-0.03217781 0.032874089 -0.1871141
-0.032172285 0.032963339 -0.18717197
-0.032167543 0.033052236 -0.18721385
-0.032163993 0.033136658 -0.18723387
-0.032160535 0.033221036 -0.18725187
-0.032157376 0.033305284 -0.18726391
-0.033203136 -0.0016632918 -0.18798706
-0.033204377 -0.001575103 -0.18790507
-0.033205193 -0.001488694 -0.18783313
-0.033203881 -0.0014052782 -0.1878072
-0.033203583 -0.0013203453 -0.18775927
-0.033204142 -0.0012318511 -0.18769126
-0.033202536 -0.0011483049 -0.18767133
-0.033201516 -0.0010650177 -0.18763942
-0.033200108 -0.00098155905 -0.18761548
-0.033197977 -0.00089974888 -0.18760759
-0.033196177 -0.00081611425 -0.18759164
-0.033194631 -0.00073456578 -0.18757176
-0.033192441 -0.00065075792 -0.18756381
-0.033189688 -0.00057063811 -0.18756993
-0.033187032 -0.00049056392 -0.18757406
-0.033184409 -0.00040853489 -0.18757614
-0.033182085 -0.00032663718 -0.18757223
-0.033179272 -0.00024451967 -0.18757832
-0.03317599 -0.00016613863 -0.18759647
-0.033173174 -8.4021129e-05 -0.18760253
-0.033170655 -2.0358711e-06 -0.18760262
-0.033168815 7.9642981e-05 -0.18758872
-0.033166684 0.00016145408 -0.18758082
-0.033163052 0.00024196506 -0.18760492
-0.033158794 0.00032078475 -0.18764305
-0.03315565 0.00040107779 -0.18765716
-0.033152934 0.00048315059 -0.18766123
-0.033148482 0.0005620569 -0.18770336
-0.033143893 0.00063905213 -0.18774951
-0.033141039 0.00071921386 -0.18775764
-0.033138424 0.00080124289 -0.18775971
-0.033135608 0.00088335946 -0.18776581
-0.033133283 0.00096525811 -0.18776189
-0.033130858 0.0010471996 -0.18775998
-0.033127714 0.0011274936 -0.18777409
-0.033124469 0.0012078295 -0.18779019
-0.033121657 0.001289946 -0.18779626
-0.033118609 0.0013701953 -0.18780839
-0.033115368 0.001450533 -0.1878245
-0.033112749 0.0015325611 -0.18782657
-0.033110227 0.0016145464 -0.18782666
-0.033107571 0.0016946215 -0.18783079
-0.033104658 0.0017767809 -0.18783887
-0.033101417 0.0018571187 -0.18785498
-0.033098172 0.0019374555 -0.1878711
-0.033095457 0.0020195283 -0.18787515
-0.033092313 0.0020998204 -0.18788928
-0.033088874 0.0021802448 -0.18790938
-0.033084948 0.002260888 -0.18793947
-0.033081707 0.0023412239 -0.18795559
-0.033079378 0.0024231225 -0.18795168
-0.033076957 0.0025050649 -0.18794976
-0.033074629 0.0025869627 -0.18794584
-0.033072401 0.0026688175 -0.18793994
-0.033070233 0.0027486729 -0.18793409
-0.033067748 0.002832613 -0.18793213
-0.033064701 0.0029128622 -0.18794423
-0.033061262 0.0029932857 -0.18796435
-0.033058643 0.0030753165 -0.18796642
-0.033056807 0.0031569963 -0.18795252
-0.033054575 0.0032388503 -0.18794662
-0.033051569 0.0033210535 -0.18795669
-0.033048812 0.0034011733 -0.18796282
-0.033046488 0.0034830719 -0.18795893
-0.03304426 0.0035649249 -0.18795301
-0.033041153 0.0036471728 -0.18796508
-0.033037908 0.0037275106 -0.18798119
-0.033034801 0.0038097566 -0.18799326
-0.033031657 0.0038900506 -0.18800735
-0.03302861 0.0039702998 -0.18801948
-0.033025701 0.0040524602 -0.18802755
-0.033023566 0.0041342713 -0.18801965
-0.033021867 0.0042178612 -0.18800172
-0.03301993 0.0042995848 -0.1879898
-0.033017173 0.0043797027 -0.18799594
-0.033014555 0.0044617318 -0.18799803
-0.033012718 0.0045434125 -0.18798412
-0.033010624 0.0046271775 -0.18797418
-0.033007968 0.0047072526 -0.18797831
-0.033005446 0.0047892369 -0.18797839
-0.033003122 0.0048711356 -0.18797448
-0.033001222 0.004954813 -0.18796054
-0.032999579 0.0050364062 -0.18794265
-0.032997057 0.005118391 -0.18794274
-0.03299401 0.0051986407 -0.18795484
-0.032990575 0.0052790656 -0.18797496
-0.032987077 0.0053614881 -0.18799502
-0.032984223 0.0054416489 -0.18800312
-0.032981604 0.0055236788 -0.18800522
-0.032979377 0.0056055337 -0.18799931
-0.032977734 0.005687126 -0.18798143
-0.032975897 0.0057688048 -0.18796754
-0.0329739 0.0058525279 -0.18795559
-0.032971576 0.0059344242 -0.18795167
-0.03296921 0.006014368 -0.18794981
-0.03296702 0.0060981782 -0.18794185
-0.032965083 0.0061799008 -0.18792996
-0.032962758 0.0062617995 -0.18792605
-0.032960102 0.0063418737 -0.18793018
-0.032957677 0.0064238152 -0.18792826
-0.032955352 0.0065057138 -0.18792436
-0.032952342 0.0065879188 -0.18793443
-0.032949295 0.0066681672 -0.18794656
-0.032946579 0.00675024 -0.18795063
-0.032944251 0.0068321386 -0.18794671
-0.032942023 0.0069139916 -0.18794081
-0.032939307 0.0069960654 -0.18794489
-0.032936063 0.0070764027 -0.187961
-0.032932956 0.0071586501 -0.18797307
-0.032930594 0.0072385939 -0.1879712
-0.0329285 0.0073223589 -0.18796125
-0.032926466 0.0074041262 -0.18795136
-0.032924432 0.0074858936 -0.18794146
-0.032922205 0.0075677475 -0.18793556
-0.032920465 0.007649384 -0.18791966
-0.032918431 0.0077311508 -0.18790975
-0.032915518 0.0078133112 -0.18791783
-0.032912802 0.007895384 -0.18792191
-0.032910828 0.0079751527 -0.18791206
-0.032908406 0.0080570951 -0.18791014
-0.032905884 0.0081390804 -0.18791023
-0.032903753 0.0082208905 -0.18790233
-0.032901134 0.0083029196 -0.18790442
-0.032898515 0.0083849495 -0.1879065
-0.032895856 0.0084650237 -0.18791062
-0.032892946 0.0085471841 -0.18791869
-0.032889742 0.0086294757 -0.18793276
-0.032886695 0.008709725 -0.18794487
-0.032884367 0.0087916227 -0.18794097
-0.032882333 0.00887339 -0.18793106
-0.032880008 0.0089552887 -0.18792716
-0.032877486 0.0090372739 -0.18792725
-0.032875162 0.0091191716 -0.18792333
-0.032872602 0.009199203 -0.18792546
-0.032869495 0.0092814509 -0.18793753
-0.032866776 0.0093635237 -0.18794161
-0.032864939 0.0094452035 -0.18792772
-0.03286349 0.0095267082 -0.18790585
-0.032861557 0.0096084317 -0.18789394
-0.032858741 0.0096905483 -0.18790001
-0.032856025 0.0097726211 -0.18790409
-0.032853562 0.0098526087 -0.18790422
-0.032850359 0.0099349003 -0.18791829
-0.032847058 0.010017235 -0.18793434
-0.032844204 0.010097397 -0.18794248
-0.03284061 0.010179863 -0.18796453
-0.032837465 0.010260156 -0.18797864
-0.032835372 0.010343922 -0.1879687
-0.032833397 0.01042369 -0.18795884
-0.032831267 0.010505501 -0.18795094
-0.032828648 0.01058753 -0.18795303
-0.032826126 0.010669516 -0.18795311
-0.032824192 0.010751239 -0.18794122
-0.032822255 0.010832963 -0.1879293
-0.032819636 0.010914992 -0.18793139
-0.032816727 0.010997152 -0.18793947
-0.032814167 0.011077183 -0.1879416
-0.032811549 0.011159212 -0.18794367
-0.032809123 0.011241154 -0.18794176
-0.032806799 0.011323052 -0.18793786
-0.032804471 0.01140495 -0.18793395
-0.032801852 0.011486979 -0.18793604
-0.032798942 0.01156914 -0.1879441
-0.032795601 0.011649521 -0.18796222
-0.0327923 0.011731856 -0.18797827
-0.032788899 0.011814235 -0.18799633
-0.032786146 0.011894353 -0.18800247
-0.032783918 0.011976207 -0.18799655
-0.032781783 0.012058018 -0.18798865
-0.032779265 0.012140004 -0.18798873
-0.032776549 0.012222077 -0.18799281
-0.032774124 0.012304018 -0.1879909
-0.032771602 0.012386004 -0.18799099
-0.032768846 0.012466122 -0.1879971
-0.032765642 0.012548414 -0.18801117
-0.032762438 0.012630705 -0.18802524
-0.03276021 0.01271256 -0.18801934
-0.032758567 0.012794152 -0.18800145
-0.032756142 0.012876093 -0.18799955
-0.03275378 0.012956037 -0.18799767
-0.032751296 0.013039977 -0.1879957
-0.032747664 0.013120489 -0.18801981
-0.032744266 0.013202868 -0.18803787
-0.032741744 0.013284854 -0.18803796
-0.032738928 0.01336697 -0.18804403
-0.032735724 0.013449262 -0.18805811
-0.032732874 0.013529424 -0.18806621
-0.032730587 0.013613276 -0.18806027
-0.032728709 0.013693001 -0.18804842
-0.032726772 0.013774725 -0.18803653
-0.032724641 0.013856536 -0.1880286
-0.032722414 0.01393839 -0.1880227
-0.032720085 0.014020288 -0.1880188
-0.032717563 0.014102274 -0.18801889
-0.032715045 0.014184259 -0.18801898
-0.03271262 0.014266201 -0.18801706
-0.03271094 0.014345839 -0.18800122
-0.03270904 0.014429517 -0.18798727
-0.03270648 0.014509548 -0.1879894
-0.032703277 0.014591839 -0.18800347
-0.032699976 0.014674175 -0.18801953
-0.032696772 0.014756465 -0.1880336
-0.032693762 0.014838669 -0.18804367
-0.032690071 0.01492118 -0.18806772
-0.032685988 0.015003866 -0.18809976
-0.032683272 0.015085937 -0.18810384
-0.032681394 0.015165662 -0.18809199
-0.032679401 0.015249385 -0.18808004
-0.032677718 0.015329022 -0.18806419
-0.032675683 0.015410788 -0.18805429
-0.032673553 0.015492599 -0.1880464
-0.032670934 0.015574628 -0.18804848
-0.032668512 0.015656572 -0.18804657
-0.032666184 0.015738469 -0.18804266
-0.032663468 0.015820542 -0.18804674
-0.032660849 0.015902571 -0.18804881
-0.032658488 0.015982514 -0.18804696
-0.032656394 0.016066279 -0.18803701
-0.032654908 0.016145829 -0.18801717
-0.032652482 0.016227772 -0.18801525
-0.032649767 0.016309844 -0.18801934
-0.032646757 0.016392048 -0.18802941
-0.032643553 0.01647434 -0.18804348
-0.032641031 0.016556326 -0.18804356
-0.032638412 0.016638355 -0.18804564
-0.032635599 0.016720472 -0.18805172
-0.032633271 0.016802371 -0.18804781
-0.032631043 0.016884224 -0.1880419
-0.032628521 0.016966211 -0.18804199
-0.032626744 0.017045893 -0.18802814
-0.032625005 0.017127529 -0.18801224
-0.032623067 0.01720925 -0.18800035
-0.03262084 0.017291106 -0.18799445
-0.032618221 0.017373133 -0.18799652
-0.032615405 0.01745525 -0.1880026
-0.032612883 0.017537236 -0.18800269
-0.032611106 0.017616918 -0.18798885
-0.032609366 0.017698554 -0.18797295
-0.032607134 0.017780408 -0.18796703
-0.032604322 0.017862525 -0.18797313
-0.032601606 0.017944599 -0.18797719
-0.032598693 0.018026758 -0.18798527
-0.032595687 0.018108962 -0.18799534
-0.032592483 0.018191254 -0.18800941
-0.032589376 0.018273503 -0.18802148
-0.032586753 0.018355532 -0.18802357
-0.03258482 0.018437255 -0.18801168
-0.032582592 0.018519109 -0.18800575
-0.032579973 0.018601138 -0.18800785
-0.032577645 0.018683037 -0.18800393
-0.032575712 0.01876476 -0.18799204
-0.032573834 0.018844485 -0.18798018
-0.032571059 0.018928556 -0.18798423
-0.032567464 0.019011023 -0.18800628
-0.032564357 0.019093271 -0.18801834
-0.032561932 0.019175213 -0.18801643
-0.032560095 0.019256892 -0.18800253
-0.032558158 0.019338615 -0.18799064
-0.032556087 0.019418428 -0.18798278
-0.032553956 0.019500237 -0.18797487
-0.032551631 0.019582137 -0.18797097
-0.032549012 0.019664165 -0.18797305
-0.032546394 0.019746196 -0.18797514
-0.03254348 0.019828357 -0.18798321
-0.032540571 0.019910514 -0.18799129
-0.032538243 0.019992415 -0.18798737
-0.032536112 0.020074224 -0.18797946
-0.032534078 0.020155992 -0.18796957
-0.032532398 0.02023563 -0.18795373
-0.03253017 0.020317484 -0.18794781
-0.032527745 0.020399425 -0.1879459
-0.03252542 0.020481324 -0.187942
-0.032522801 0.020563353 -0.18794408
-0.032520182 0.020645382 -0.18794617
-0.032517854 0.020727281 -0.18794227
-0.032515626 0.020809134 -0.18793634
-0.032513652 0.020888902 -0.1879265
-0.03251107 0.020972887 -0.18792653
-0.032508355 0.021054961 -0.18793061
-0.032505602 0.021135079 -0.18793672
-0.032502923 0.021219106 -0.18793876
-0.032500304 0.021301135 -0.18794085
-0.032497294 0.02138334 -0.18795092
-0.032494873 0.021465283 -0.18794902
-0.032492898 0.021545049 -0.18793917
-0.03249051 0.021628946 -0.1879352
-0.032488439 0.021708759 -0.18792734
-0.032487188 0.021790177 -0.18790147
-0.032485798 0.021869682 -0.18787964
-0.032483961 0.021951362 -0.18786573
-0.032481633 0.022033261 -0.18786183
-0.032479309 0.02211516 -0.18785793
-0.032477371 0.022196881 -0.18784603
-0.032475591 0.022276564 -0.18783218
-0.032473657 0.022358287 -0.18782029
-0.03247143 0.022440141 -0.18781438
-0.03246887 0.022520171 -0.1878165
-0.032465898 0.022604331 -0.18782452
-0.032463182 0.022686403 -0.18782862
-0.032460369 0.02276852 -0.18783468
-0.032457162 0.022850811 -0.18784875
-0.032454837 0.02293271 -0.18784484
-0.032452315 0.023014694 -0.18784493
-0.032449502 0.023096811 -0.18785101
-0.032447565 0.023178536 -0.18783912
-0.032445144 0.023260478 -0.18783721
-0.032443304 0.023342159 -0.1878233
-0.032441817 0.023421707 -0.18780346
-0.032439396 0.023503648 -0.18780154
-0.032436676 0.023585722 -0.18780562
-0.032434352 0.02366762 -0.18780172
-0.032431733 0.02374965 -0.1878038
-0.032429505 0.023831503 -0.1877979
-0.032427471 0.023913272 -0.18778799
-0.032425791 0.023992907 -0.18777215
-0.032423854 0.024074631 -0.18776026
-0.032420844 0.024156835 -0.18777034
-0.032418225 0.024238866 -0.18777241
-0.032416094 0.024320677 -0.18776451
-0.032412987 0.024402924 -0.18777657
-0.032409918 0.024487127 -0.18778661
-0.032406423 0.024569549 -0.18780667
-0.032402866 0.024653971 -0.18782666
-0.032400053 0.024736088 -0.18783274
