# .PCD v0.7 - Point Cloud Data file format
VERSION 0.7
FIELDS x y z
SIZE 4 4 4
TYPE F F F
COUNT 1 1 1
WIDTH 1270
HEIGHT 1
VIEWPOINT 0 0 0 1 0 0 0
POINTS 1270
DATA ascii
-0.028588034 -0.083175533 -0.17606869
-0.02858657 -0.083099939 -0.17605093
-0.028584091 -0.083025858 -0.17605521
-0.028581258 -0.082949653 -0.17606542
-0.02857917 -0.082875744 -0.1760617
-0.028577216 -0.082799934 -0.17605394
-0.02857507 -0.082724027 -0.17605019
-0.028572883 -0.08265008 -0.17604846
-0.028570637 -0.082574137 -0.1760467
-0.02856845 -0.08250019 -0.17604497
-0.028566107 -0.082424201 -0.17604519
-0.028564544 -0.082348555 -0.17602944
-0.028563863 -0.082273312 -0.17599571
-0.028562926 -0.082195975 -0.17596595
-0.028561462 -0.082120374 -0.1759482
-0.028559413 -0.082044519 -0.17594245
-0.028557226 -0.081970572 -0.17594072
-0.028554549 -0.081896409 -0.17594898
-0.028551875 -0.081822239 -0.17595725
-0.028549923 -0.081746422 -0.17594948
-0.02854885 -0.081671 -0.17592376
-0.028547717 -0.081593581 -0.17589797
-0.028545726 -0.081519723 -0.17589226
-0.028543187 -0.081443645 -0.17589648
-0.028540805 -0.081369609 -0.17589875
-0.028539537 -0.081294097 -0.175877
-0.028538268 -0.081218585 -0.17585528
-0.02853612 -0.081142686 -0.17585149
-0.028533835 -0.081068695 -0.17585178
-0.02853198 -0.080992922 -0.17584202
-0.028529501 -0.080918841 -0.17584629
-0.028528331 -0.080843374 -0.17582256
-0.028527454 -0.080768041 -0.17579283
-0.028525598 -0.080692269 -0.17578307
-0.028524661 -0.080614939 -0.1757533
-0.028523881 -0.080539644 -0.17572156
-0.028522026 -0.080463871 -0.17571181
-0.028519645 -0.080389835 -0.17571408
-0.028516773 -0.080315582 -0.17572634
-0.028514098 -0.080241419 -0.17573461
-0.028511951 -0.080165513 -0.17573082
-0.028510351 -0.080091827 -0.17571713
-0.02850957 -0.080016539 -0.17568541
-0.028508928 -0.079939336 -0.17564964
-0.028507326 -0.079865649 -0.17563593
-0.028505081 -0.079789706 -0.17563418
-0.028503383 -0.079715975 -0.17562246
-0.028502213 -0.079640508 -0.17559871
-0.028500162 -0.079564646 -0.17559296
-0.028497487 -0.079490483 -0.17560121
-0.028495006 -0.079416402 -0.17560549
-0.028493349 -0.079340719 -0.17559174
-0.028496554 -0.079263262 -0.17547604
-0.028495383 -0.079187796 -0.17545231
-0.028493527 -0.079112023 -0.17544255
-0.02849183 -0.079038292 -0.17543083
-0.028490171 -0.078962609 -0.1754171
-0.028489392 -0.078887321 -0.17538536
-0.028488122 -0.078811809 -0.17536363
-0.028486621 -0.078738168 -0.17534792
-0.028485548 -0.078662746 -0.17532218
-0.028484376 -0.078587279 -0.17529845
-0.028482189 -0.078513332 -0.17529672
-0.028480336 -0.078437559 -0.17528698
-0.028480239 -0.078362569 -0.17524126
-0.028480671 -0.078285851 -0.17518353
-0.028479656 -0.078212425 -0.17515783
-0.028478486 -0.078136958 -0.17513411
-0.02847751 -0.078061581 -0.17510638
-0.02847595 -0.077985935 -0.17509061
-0.028473958 -0.077912077 -0.1750849
-0.028471967 -0.077838212 -0.1750792
-0.028470796 -0.077762753 -0.17505544
-0.028469723 -0.077687323 -0.17502972
-0.028469529 -0.077612296 -0.174986
-0.028469922 -0.077537529 -0.1749303
-0.028468654 -0.077462018 -0.17490858
-0.028466038 -0.077389851 -0.17491689
-0.028463596 -0.077313818 -0.17491911
-0.028461605 -0.07723996 -0.17491341
-0.028459515 -0.077166051 -0.17490968
-0.028457526 -0.077092193 -0.17490396
-0.028455144 -0.077018157 -0.17490624
-0.028452409 -0.076941997 -0.17491445
-0.028449792 -0.076869823 -0.17492276
-0.028446961 -0.076793619 -0.17493299
-0.028444443 -0.076721497 -0.17493929
-0.028440692 -0.07664685 -0.17496952
-0.028436648 -0.076572075 -0.17500573
-0.028432371 -0.076499164 -0.17504799
-0.028427839 -0.076424167 -0.17509422
-0.028422095 -0.076350607 -0.17516643
-0.028415335 -0.07627856 -0.17526066
-0.029137664 -0.095675275 -0.17660972
-0.029135182 -0.095601201 -0.17661399
-0.0291327 -0.095527127 -0.17661825
-0.02913012 -0.095453002 -0.17662452
-0.029127579 -0.095376924 -0.17662874
-0.029125096 -0.09530285 -0.17663302
-0.02912242 -0.095228679 -0.17664129
-0.029120229 -0.095154732 -0.17663956
-0.02911884 -0.095075227 -0.17661771
-0.029116983 -0.094999455 -0.17660797
-0.029114831 -0.094923556 -0.1766042
-0.029112682 -0.094847649 -0.17660043
-0.029110726 -0.094771832 -0.17659268
-0.029108575 -0.094695933 -0.17658891
-0.029105371 -0.094623499 -0.1766092
-0.02910246 -0.094551206 -0.17662349
-0.029099919 -0.094475128 -0.17662773
-0.029097339 -0.094401002 -0.17663398
-0.029094525 -0.094328746 -0.17664629
-0.029092081 -0.09425272 -0.17664853
-0.029091902 -0.094171777 -0.17660068
-0.029089518 -0.094097741 -0.17660296
-0.029086646 -0.094023496 -0.17661521
-0.029084591 -0.093947634 -0.17660946
-0.029082149 -0.093871593 -0.17661168
-0.029079666 -0.09379752 -0.17661595
-0.029077379 -0.093723528 -0.17661622
-0.029075131 -0.093647584 -0.17661446
-0.029072259 -0.093573332 -0.17662671
-0.029070634 -0.093495689 -0.17661092
-0.029072387 -0.093411669 -0.17652105
-0.02907129 -0.093332291 -0.17649323
-0.029068613 -0.093258128 -0.17650148
-0.029065507 -0.093185745 -0.17651978
-0.02906283 -0.093111575 -0.17652804
-0.029060248 -0.093037456 -0.17653431
-0.029057084 -0.09296307 -0.17655256
-0.029054895 -0.092889123 -0.17655084
-0.029053075 -0.092811398 -0.17653903
-0.0290503 -0.09273719 -0.17654929
-0.029047096 -0.092664763 -0.17656958
-0.029043501 -0.092592157 -0.17659786
-0.02904008 -0.092440739 -0.17657237
-0.029037537 -0.092364669 -0.17657658
-0.029035054 -0.092290588 -0.17658086
-0.029032573 -0.092216507 -0.17658514
-0.029030129 -0.092140481 -0.17658736
-0.02902755 -0.092066355 -0.17659363
-0.029025165 -0.091992319 -0.1765959
-0.029023308 -0.091916546 -0.17658614
-0.029022211 -0.091837168 -0.17655832
-0.029020451 -0.09176144 -0.17654656
-0.029018398 -0.091685586 -0.17654079
-0.029016383 -0.091607772 -0.17653298
-0.029014194 -0.091533825 -0.17653127
-0.029012239 -0.091458008 -0.17652351
-0.029010087 -0.091382101 -0.17651975
-0.029007314 -0.091307893 -0.17653
-0.029004635 -0.09123373 -0.17653827
-0.029001432 -0.091161303 -0.17655855
-0.028998364 -0.091086961 -0.17657481
-0.028996604 -0.091011234 -0.17656305
-0.028996091 -0.090932116 -0.17652325
-0.028994175 -0.090854347 -0.17651346
-0.02899179 -0.090780318 -0.17651573
-0.028989445 -0.090704322 -0.17651594
-0.028987061 -0.090630293 -0.17651823
-0.02898448 -0.090556167 -0.17652449
-0.028981939 -0.090480089 -0.17652872
-0.028979164 -0.090405881 -0.17653897
-0.028976915 -0.09032993 -0.17653722
-0.028976601 -0.090250909 -0.17649341
-0.02897566 -0.090173572 -0.17646363
-0.028973939 -0.090095893 -0.17644984
-0.028971946 -0.090022027 -0.17644411
-0.028970322 -0.089944392 -0.17642832
-0.028968561 -0.089868665 -0.17641658
-0.028965922 -0.089792542 -0.17642279
-0.028963011 -0.089720242 -0.17643708
-0.028960334 -0.089646079 -0.17644535
-0.028957792 -0.089570001 -0.17644958
-0.02895613 -0.089494318 -0.17643583
-0.028954273 -0.089418545 -0.17642607
-0.028951595 -0.089344382 -0.17643434
-0.028949443 -0.089268476 -0.17643057
-0.028947391 -0.089192614 -0.1764248
-0.028945338 -0.08911676 -0.17641905
-0.028943677 -0.089041077 -0.1764053
-0.02894133 -0.088965088 -0.17640552
-0.028939042 -0.088891096 -0.1764058
-0.028936697 -0.088815108 -0.17640603
-0.028934352 -0.088739112 -0.17640626
-0.028932357 -0.088665254 -0.17640054
-0.028930206 -0.088589355 -0.17639677
-0.028927861 -0.088513359 -0.17639701
-0.028925709 -0.08843746 -0.17639324
-0.028923852 -0.088361688 -0.17638347
-0.028921664 -0.088287741 -0.17638175
-0.028918985 -0.08821357 -0.17639002
-0.028916739 -0.088137627 -0.17638826
-0.028914684 -0.088061765 -0.17638248
-0.0289123 -0.087987736 -0.17638478
-0.02890976 -0.087911658 -0.17638898
-0.028907472 -0.087837666 -0.17638926
-0.028905518 -0.087761849 -0.1763815
-0.028903464 -0.087685987 -0.17637575
-0.028901119 -0.087609999 -0.17637599
-0.028898733 -0.087535962 -0.17637825
-0.028896388 -0.087459974 -0.17637847
-0.028893907 -0.087385893 -0.17638274
-0.028891325 -0.087311774 -0.17638901
-0.028888453 -0.087237522 -0.17640126
-0.028885972 -0.087163448 -0.17640553
-0.028885791 -0.087082505 -0.17635769
-0.028884422 -0.087006949 -0.17633796
-0.028882604 -0.086929224 -0.17632616
-0.028881233 -0.086853676 -0.17630641
-0.028879277 -0.086777858 -0.17629865
-0.028877031 -0.086701915 -0.17629689
-0.028875172 -0.086626142 -0.17628711
-0.028873216 -0.086550325 -0.17627937
-0.028871028 -0.086476378 -0.17627764
-0.028868254 -0.086402163 -0.1762879
-0.028865613 -0.086326048 -0.17629412
-0.02886362 -0.086252183 -0.1762884
-0.028861275 -0.086176194 -0.17628863
-0.0288585 -0.086101986 -0.17629892
-0.028856017 -0.086027905 -0.17630318
-0.028853867 -0.085952006 -0.17629939
-0.028851677 -0.085878059 -0.17629768
-0.028849233 -0.085802026 -0.1762999
-0.02884718 -0.085726164 -0.17629415
-0.028845323 -0.085650392 -0.17628439
-0.028843759 -0.085574754 -0.17626864
-0.028842194 -0.085499115 -0.1762529
-0.028839849 -0.085423119 -0.17625311
-0.028837267 -0.085349001 -0.1762594
-0.028834883 -0.085274965 -0.17626166
-0.028832342 -0.085198887 -0.1762659
-0.028829861 -0.085124813 -0.17627016
-0.028827514 -0.085048825 -0.17627038
-0.028825423 -0.084974915 -0.17626667
-0.028823175 -0.084898971 -0.1762649
-0.02882079 -0.084824935 -0.17626718
-0.028818015 -0.084750727 -0.17627743
-0.028816059 -0.08467491 -0.17626967
-0.028814435 -0.084597275 -0.17625389
-0.02881215 -0.084523283 -0.17625415
-0.028809471 -0.084449112 -0.17626241
-0.02880732 -0.084373213 -0.17625865
-0.028805267 -0.084297352 -0.17625289
-0.028802689 -0.084223233 -0.17625916
-0.028800108 -0.084149107 -0.17626542
-0.028797371 -0.084072948 -0.17627363
-0.028794987 -0.083998911 -0.17627591
-0.02879313 -0.083923139 -0.17626615
-0.028792385 -0.083845891 -0.17623237
-0.028792616 -0.083769083 -0.17617863
-0.028790662 -0.083693266 -0.17617089
-0.028788902 -0.083617538 -0.17615913
-0.028786654 -0.083541587 -0.17615736
-0.028783487 -0.083467208 -0.17617562
-0.028780712 -0.083393 -0.17618588
-0.028778855 -0.083317228 -0.17617612
-0.028776763 -0.083243325 -0.17617239
-0.028773988 -0.083169118 -0.17618266
-0.028771311 -0.083094947 -0.17619091
-0.02876916 -0.083019048 -0.17618716
-0.028767888 -0.082943536 -0.1761654
-0.028766226 -0.082867853 -0.17615166
-0.028764173 -0.082791992 -0.17614591
-0.028762512 -0.082716309 -0.17613214
-0.028760321 -0.082642362 -0.17613041
-0.02875739 -0.082566112 -0.17614263
-0.028754283 -0.082493722 -0.17616093
-0.028752133 -0.082417823 -0.17615718
-0.028752072 -0.082340881 -0.17610942
-0.028751913 -0.082263894 -0.17606369
-0.028750055 -0.082188122 -0.17605391
-0.028748002 -0.08211226 -0.17604816
-0.028745852 -0.082036361 -0.17604439
-0.028743956 -0.081962541 -0.17603667
-0.028742293 -0.081886858 -0.17602292
-0.028740827 -0.081811264 -0.17600518
-0.028738579 -0.081735313 -0.17600341
-0.028735803 -0.081661105 -0.17601368
-0.028733946 -0.081585333 -0.1760039
-0.028732575 -0.081509784 -0.17598417
-0.028730778 -0.081436008 -0.17597446
-0.028728433 -0.08136002 -0.1759747
-0.028726146 -0.081286028 -0.17597497
-0.028724287 -0.081210256 -0.17596522
-0.028722137 -0.081134349 -0.17596143
-0.028719947 -0.081060402 -0.17595972
-0.028718285 -0.080984719 -0.17594597
-0.028716624 -0.080909036 -0.17593223
-0.028714962 -0.080833353 -0.17591846
-0.028713299 -0.080757663 -0.17590472
-0.02871193 -0.080682114 -0.17588498
-0.028710756 -0.080606647 -0.17586124
-0.028710987 -0.080529839 -0.17580751
-0.028710106 -0.080454499 -0.17577778
-0.028707333 -0.080380291 -0.17578803
-0.028703287 -0.080305517 -0.17582425
-0.028700706 -0.080231391 -0.17583051
-0.028699143 -0.080155753 -0.17581478
-0.028697247 -0.080081932 -0.17580706
-0.028695974 -0.080006428 -0.17578533
-0.028695192 -0.079931132 -0.17575359
-0.028694311 -0.0798558 -0.17572387
-0.028693076 -0.079778329 -0.17570007
-0.028690498 -0.07970421 -0.17570636
-0.028688308 -0.079630263 -0.17570463
-0.028686939 -0.079554707 -0.17568488
-0.028685765 -0.07947924 -0.17566115
-0.028683772 -0.079405382 -0.17565542
-0.028682206 -0.079329744 -0.17563969
-0.028682439 -0.079252928 -0.17558596
-0.02868234 -0.079177946 -0.17554024
-0.028681654 -0.079102695 -0.17550652
-0.028680481 -0.079027228 -0.17548278
-0.02867911 -0.078951672 -0.17546304
-0.028677352 -0.078875944 -0.17545128
-0.028675064 -0.078801952 -0.17545156
-0.028673071 -0.078728095 -0.17544585
-0.028671507 -0.078652456 -0.17543009
-0.028670235 -0.078576945 -0.17540836
-0.028669354 -0.078501612 -0.17537864
-0.028667789 -0.078425966 -0.17536287
-0.028667396 -0.078350849 -0.17532316
-0.028667785 -0.078276083 -0.17526747
-0.028667295 -0.078200921 -0.17522976
-0.02866661 -0.078125671 -0.17519604
-0.028664555 -0.078049809 -0.17519027
-0.028662758 -0.077976041 -0.17518055
-0.028661292 -0.07790044 -0.17516282
-0.02865959 -0.077826709 -0.17515111
-0.028657891 -0.077752985 -0.1751394
-0.028656911 -0.077677608 -0.17511168
-0.02865652 -0.077602483 -0.17507195
-0.02865554 -0.077527106 -0.17504422
-0.02865505 -0.077451944 -0.17500651
-0.028653642 -0.077378348 -0.17498881
-0.028651198 -0.077302314 -0.17499104
-0.028649205 -0.077228457 -0.17498532
-0.02864721 -0.077154592 -0.1749796
-0.028645022 -0.077080645 -0.17497787
-0.028642539 -0.077006564 -0.17498216
-0.028639998 -0.076930493 -0.17498638
-0.028637674 -0.076858453 -0.17498869
-0.028634742 -0.076782204 -0.17500091
-0.028631244 -0.076709643 -0.17502719
-0.028627492 -0.076634996 -0.17505743
-0.028623115 -0.076562047 -0.17510168
-0.02861907 -0.076487273 -0.17513791
-0.028615221 -0.076412581 -0.17517014
-0.028610453 -0.076339453 -0.17522238
-0.028603792 -0.076267451 -0.17531462
-0.028598476 -0.076192111 -0.1753768
-0.029364169 -0.095676139 -0.17669448
-0.02936149 -0.095601968 -0.17670277
-0.029358618 -0.095527716 -0.17671502
-0.029356133 -0.095453635 -0.17671928
-0.029353885 -0.095377691 -0.17671752
-0.029351303 -0.095303565 -0.17672378
-0.029348392 -0.095231272 -0.17673808
-0.02934509 -0.0951588 -0.17676038
-0.029342508 -0.095084675 -0.17676663
-0.029340981 -0.095007077 -0.17674884
-0.029340174 -0.094927832 -0.17671503
-0.029338785 -0.094848327 -0.1766932
-0.029336827 -0.09477251 -0.17668544
-0.029334636 -0.094698563 -0.17668372
-0.029331997 -0.094622448 -0.17668995
-0.029329319 -0.094548278 -0.17669821
-0.029326737 -0.094474159 -0.17670447
-0.029323826 -0.094401859 -0.17671877
-0.029320523 -0.094329387 -0.17674106
-0.029317025 -0.094256826 -0.17676735
-0.029314775 -0.094180882 -0.17676558
-0.029312195 -0.094106756 -0.17677185
-0.029310005 -0.094032809 -0.17677012
-0.029304504 -0.093801588 -0.17673677
-0.02930245 -0.093725726 -0.17673101
-0.029300395 -0.093649872 -0.17672524
-0.029298244 -0.093573965 -0.17672148
-0.029295996 -0.093498021 -0.17671973
-0.029294956 -0.09342064 -0.17669193
-0.029295202 -0.093337923 -0.17663407
-0.029293871 -0.093260415 -0.17661229
-0.029291816 -0.093184561 -0.17660651
-0.029288845 -0.093110263 -0.17662077
-0.029286167 -0.093036093 -0.17662904
-0.029283352 -0.092963845 -0.17664135
-0.029280908 -0.092887804 -0.17664357
-0.029278327 -0.092813686 -0.17664984
-0.029275121 -0.092741258 -0.17667013
-0.029271819 -0.092668787 -0.17669243
-0.029269043 -0.092594571 -0.17670268
-0.029267516 -0.092516981 -0.17668489
-0.02926638 -0.092439562 -0.17665911
-0.029264031 -0.092363566 -0.17665935
-0.029261548 -0.092289492 -0.17666361
-0.029259104 -0.092213452 -0.17666584
-0.029257147 -0.092137642 -0.17665806
-0.029255912 -0.092060179 -0.17663428
-0.029253233 -0.091986008 -0.17664255
-0.029250126 -0.091913626 -0.17666085
-0.029248111 -0.091835812 -0.17665304
-0.029247168 -0.091758475 -0.17662327
-0.029246364 -0.09167923 -0.17658946
-0.02924349 -0.091604978 -0.17660171
-0.029241007 -0.091530897 -0.17660598
-0.029238952 -0.091455042 -0.17660022
-0.029236605 -0.091379046 -0.17660046
-0.029234219 -0.091305017 -0.17660272
-0.029231248 -0.09123072 -0.17661698
-0.029229097 -0.091154814 -0.17661321
-0.029227238 -0.091079041 -0.17660347
-0.029224755 -0.091004968 -0.17660773
-0.02922231 -0.090928935 -0.17660996
-0.029219534 -0.090854727 -0.17662022
-0.029216856 -0.090780556 -0.17662847
-0.029214997 -0.090704784 -0.17661873
-0.029212514 -0.09063071 -0.17662299
-0.029210264 -0.090554759 -0.17662123
-0.029208113 -0.09047886 -0.17661746
-0.029205862 -0.090402916 -0.17661569
-0.029204004 -0.090327144 -0.17660594
-0.029204212 -0.090246379 -0.17655009
-0.029202159 -0.090170518 -0.17654434
-0.029199714 -0.090094484 -0.17654657
-0.029197427 -0.090020493 -0.17654684
-0.029195372 -0.089944638 -0.17654108
-0.029193513 -0.089868866 -0.17653131
-0.029191362 -0.089792967 -0.17652756
-0.029189404 -0.08971715 -0.17651981
-0.029187154 -0.089641199 -0.17651804
-0.029184906 -0.089565255 -0.17651626
-0.029182715 -0.089491308 -0.17651455
-0.029180232 -0.089417227 -0.17651881
-0.02917769 -0.089341149 -0.17652303
-0.029176123 -0.08926551 -0.17650729
-0.029174108 -0.089187697 -0.17649949
-0.02917143 -0.089113533 -0.17650774
-0.02916885 -0.089039408 -0.17651403
-0.029166464 -0.088965371 -0.17651629
-0.029164311 -0.088889472 -0.17651251
-0.029162686 -0.08881183 -0.17649673
-0.029160827 -0.088736057 -0.17648697
-0.029158968 -0.088660285 -0.17647722
-0.02915711 -0.088584512 -0.17646746
-0.029155154 -0.088508703 -0.1764597
-0.029152904 -0.088432759 -0.17645794
-0.029149933 -0.088358462 -0.17647219
-0.029147644 -0.08828447 -0.17647246
-0.029145883 -0.088208735 -0.17646071
-0.029143438 -0.088132709 -0.17646293
-0.029140467 -0.088058412 -0.17647719
-0.029137788 -0.087984242 -0.17648545
-0.029135209 -0.087910123 -0.17649172
-0.029132724 -0.087836042 -0.176496
-0.029130572 -0.087760143 -0.17649221
-0.029129241 -0.087682635 -0.17647044
-0.029128201 -0.087605253 -0.17644265
-0.029125718 -0.087531179 -0.17644694
-0.029123371 -0.087455183 -0.17644715
-0.029121414 -0.087379374 -0.1764394
-0.029119067 -0.087303385 -0.17643963
-0.029116292 -0.08722917 -0.17644989
-0.029113613 -0.087155007 -0.17645815
-0.029111227 -0.08708097 -0.17646043
-0.029110286 -0.087003633 -0.17643066
-0.029109675 -0.086924478 -0.17639285
-0.029108208 -0.086848885 -0.17637509
-0.029106054 -0.086772978 -0.17637134
-0.029103318 -0.086696818 -0.17637956
-0.029101128 -0.086622864 -0.17637783
-0.029099366 -0.086547136 -0.17636608
-0.029097019 -0.086471148 -0.1763663
-0.029094107 -0.086398855 -0.1763806
-0.029090745 -0.086324379 -0.17640285
-0.029088691 -0.086248524 -0.17639709
-0.029087223 -0.086172923 -0.17637935
-0.029085169 -0.086097069 -0.17637357
-0.029082822 -0.086021073 -0.17637381
-0.029080436 -0.085947044 -0.17637607
-0.029077854 -0.085872918 -0.17638236
-0.029075019 -0.085796714 -0.17639257
-0.029072303 -0.085724503 -0.17640287
-0.029069761 -0.085648425 -0.1764071
-0.029067609 -0.085572526 -0.17640333
-0.029065944 -0.085496835 -0.17638959
-0.029064476 -0.085421242 -0.17637184
-0.029063046 -0.085343689 -0.17635205
-0.02906115 -0.085269868 -0.17634434
-0.029059095 -0.085194014 -0.17633858
-0.029057041 -0.085118152 -0.17633282
-0.029054889 -0.085042253 -0.17632905
-0.029053031 -0.084966481 -0.1763193
-0.029050548 -0.0848924 -0.17632356
-0.029047282 -0.084817976 -0.1763438
-0.029044215 -0.084743634 -0.17636007
-0.029041829 -0.084669597 -0.17636234
-0.029039774 -0.084593743 -0.17635657
-0.029038012 -0.084518015 -0.17634481
-0.029036447 -0.08444237 -0.17632908
-0.029034492 -0.08436656 -0.17632131
-0.029032143 -0.084290564 -0.17632154
-0.02902966 -0.08421649 -0.1763258
-0.029027177 -0.084142409 -0.17633009
-0.029024538 -0.084066287 -0.1763363
-0.02902176 -0.083992079 -0.17634657
-0.029019317 -0.083916046 -0.17634879
-0.029018532 -0.083840758 -0.17631707
-0.029017394 -0.083763331 -0.17629129
-0.029016024 -0.083687782 -0.17627153
-0.029014068 -0.083611965 -0.17626378
-0.029011428 -0.083535843 -0.17627001
-0.029009335 -0.08346194 -0.17626628
-0.029007476 -0.083386168 -0.17625652
-0.029005324 -0.083310261 -0.17625275
-0.029003134 -0.083236314 -0.17625104
-0.029001275 -0.083160549 -0.17624128
-0.028999513 -0.083084814 -0.17622954
-0.028997518 -0.083010957 -0.17622381
-0.028995074 -0.082934923 -0.17622605
-0.028992396 -0.08286076 -0.1762343
-0.028990146 -0.082784809 -0.17623255
-0.028988052 -0.082710907 -0.17622882
-0.028985804 -0.082634963 -0.17622705
-0.028983457 -0.082558975 -0.17622727
-0.028981168 -0.082484983 -0.17622755
-0.028978724 -0.08240895 -0.17622977
-0.028977022 -0.082335219 -0.17621806
-0.028975651 -0.082259662 -0.17619833
-0.028974319 -0.082182154 -0.17617655
-0.02897324 -0.082106732 -0.17615081
-0.028971579 -0.082031049 -0.17613706
-0.028969621 -0.081955232 -0.17612931
-0.028967861 -0.081879504 -0.17611755
-0.028966293 -0.081803866 -0.1761018
-0.028964397 -0.081730045 -0.17609408
-0.028962245 -0.081654146 -0.17609033
-0.028960386 -0.081578374 -0.17608057
-0.028958723 -0.081502691 -0.17606682
-0.028956765 -0.081426874 -0.17605905
-0.028954674 -0.081352971 -0.17605534
-0.028952619 -0.08127711 -0.17604958
-0.028951248 -0.081201553 -0.17602983
-0.028949682 -0.081125915 -0.17601408
-0.028947199 -0.081051834 -0.17601836
-0.02894452 -0.080977671 -0.17602661
-0.028942272 -0.080901727 -0.17602485
-0.028941486 -0.080826432 -0.17599313
-0.028941227 -0.080749407 -0.17594936
-0.02893937 -0.080673635 -0.17593962
-0.02893718 -0.080599688 -0.17593789
-0.028935125 -0.080523826 -0.17593212
-0.028933266 -0.080448054 -0.17592236
-0.028931564 -0.080374323 -0.17591067
-0.028929509 -0.080298468 -0.1759049
-0.028927125 -0.080224432 -0.17590718
-0.028924972 -0.080148526 -0.17590341
-0.02892321 -0.080072798 -0.17589167
-0.02892223 -0.07999742 -0.17586392
-0.028921446 -0.079922132 -0.17583221
-0.028920174 -0.079846621 -0.17581046
-0.028918704 -0.07977102 -0.17579272
-0.028917823 -0.079695687 -0.17576298
-0.028916549 -0.079620175 -0.17574126
-0.028914884 -0.079544492 -0.1757275
-0.028912596 -0.0794705 -0.17572778
-0.028910113 -0.079396419 -0.17573205
-0.028908255 -0.079320647 -0.1757223
-0.028908055 -0.079245619 -0.17567858
-0.028909398 -0.079167336 -0.17560083
-0.028908907 -0.079092175 -0.17556311
-0.028907634 -0.079016663 -0.17554137
-0.028905248 -0.078942627 -0.17554364
-0.028903155 -0.078868724 -0.17553993
-0.028901687 -0.078793123 -0.17552218
-0.028900512 -0.078717656 -0.17549846
-0.028899336 -0.07864219 -0.1754747
-0.028898062 -0.078566685 -0.17545298
-0.028897181 -0.078491345 -0.17542325
-0.028896298 -0.078416012 -0.17539351
-0.028895611 -0.078340761 -0.17535979
-0.028894825 -0.078265473 -0.17532808
-0.028893124 -0.078191742 -0.17531636
-0.028891947 -0.078116275 -0.17529261
-0.028891066 -0.078040943 -0.1752629
-0.0288895 -0.077965297 -0.17524715
-0.028888091 -0.0778917 -0.17522946
-0.028886817 -0.077816188 -0.1752077
-0.028885018 -0.077742413 -0.17519799
-0.028884858 -0.077665433 -0.17515224
-0.028884755 -0.077590443 -0.17510654
-0.02888364 -0.077516973 -0.17508285
-0.028882658 -0.077441595 -0.17505512
-0.028880663 -0.077367738 -0.17504941
-0.028877985 -0.077293567 -0.17505768
-0.02887599 -0.07721971 -0.17505196
-0.028874621 -0.077144153 -0.17503221
-0.028872527 -0.077070251 -0.1750285
-0.028869752 -0.076996043 -0.17503875
-0.028866878 -0.076921791 -0.17505102
-0.028864296 -0.076847672 -0.17505729
-0.028861716 -0.076773547 -0.17506355
-0.028858647 -0.076699205 -0.17507979
-0.028854698 -0.076624475 -0.17511404
-0.028850615 -0.076551653 -0.1751523
-0.028847057 -0.076477095 -0.17517853
-0.028842427 -0.076402061 -0.17522673
-0.028836586 -0.076328449 -0.17530096
-0.028830647 -0.0762548 -0.17537718
-0.028822912 -0.076182321 -0.17549138
-0.029593963 -0.095670089 -0.17672902
-0.029591186 -0.095595881 -0.17673931
-0.02958798 -0.095523447 -0.1767596
-0.02958573 -0.095447503 -0.17675783
-0.029583577 -0.095371604 -0.17675406
-0.029580859 -0.095299393 -0.17676437
-0.029578218 -0.09522327 -0.17677058
-0.029575109 -0.095150888 -0.17678888
-0.029572295 -0.095078632 -0.17680119
-0.029570045 -0.095002681 -0.17679942
-0.029569237 -0.094923437 -0.17676561
-0.029566986 -0.094847493 -0.17676383
-0.029566705 -0.094766513 -0.176718
-0.029565275 -0.094688959 -0.17669821
-0.029561874 -0.094616443 -0.1767225
-0.029558765 -0.094544053 -0.1767408
-0.029556748 -0.094466239 -0.17673299
-0.029554458 -0.094392255 -0.17673326
-0.029551545 -0.094319955 -0.17674756
-0.029548572 -0.094245657 -0.17676181
-0.029545894 -0.094171494 -0.17677009
-0.029543545 -0.094095498 -0.1767703
-0.02954188 -0.094019815 -0.17675656
-0.029539825 -0.093943961 -0.17675079
-0.029536853 -0.093869664 -0.17676505
-0.029534603 -0.09379372 -0.17676328
-0.029532937 -0.093718037 -0.17674953
-0.029530259 -0.093643866 -0.17675781
-0.02952791 -0.093567878 -0.17675802
-0.029525425 -0.093493797 -0.17676231
-0.029522454 -0.0934195 -0.17677656
-0.02952069 -0.093343772 -0.1767648
-0.029521033 -0.0932611 -0.17670493
-0.029519174 -0.093185328 -0.17669517
-0.029517353 -0.093107596 -0.17668337
-0.029515101 -0.09303166 -0.17668161
-0.029512618 -0.092957571 -0.17668587
-0.029510366 -0.092881627 -0.17668411
-0.029508507 -0.092805862 -0.17667437
-0.029506549 -0.092730045 -0.17666659
-0.0295042 -0.092654049 -0.17666683
-0.029501228 -0.092579752 -0.17668107
-0.029497301 -0.092508979 -0.1767174
-0.02949468 -0.092436813 -0.17672572
-0.029492958 -0.092359126 -0.17671192
-0.029491428 -0.092281535 -0.17669412
-0.029488845 -0.092207409 -0.17670038
-0.029486595 -0.092131466 -0.17669863
-0.029484833 -0.092055738 -0.17668685
-0.029482776 -0.091979876 -0.1766811
-0.029480819 -0.091904059 -0.17667335
-0.029480673 -0.091821164 -0.17662346
-0.029479008 -0.091745481 -0.17660971
-0.029476134 -0.091671228 -0.17662197
-0.02947326 -0.091596976 -0.17663422
-0.029470971 -0.091522992 -0.17663451
-0.029468194 -0.091448776 -0.17664476
-0.029465748 -0.091372743 -0.17664699
-0.02946379 -0.091296926 -0.17663923
-0.029461501 -0.091222942 -0.1766395
-0.02945853 -0.091148645 -0.17665377
-0.029455129 -0.091076128 -0.17667805
-0.029452879 -0.091000184 -0.17667627
-0.029450295 -0.090926059 -0.17668256
-0.029447421 -0.090851806 -0.17669481
-0.029445367 -0.090775944 -0.17668904
-0.029444559 -0.0906967 -0.17665523
-0.029442992 -0.090621062 -0.17663948
-0.02944074 -0.090545118 -0.17663771
-0.029438257 -0.090471029 -0.176642
-0.029435908 -0.090395048 -0.17664221
-0.029434379 -0.09031745 -0.17662442
-0.029432226 -0.090241551 -0.17662066
-0.02943138 -0.090164259 -0.17658889
-0.029430144 -0.090086788 -0.17656511
-0.029427601 -0.090010718 -0.17656934
-0.029426463 -0.089933291 -0.17654355
-0.029425129 -0.089855783 -0.17652178
-0.02942284 -0.089781791 -0.17652205
-0.029420063 -0.089707583 -0.1765323
-0.029418007 -0.089631721 -0.17652655
-0.029415952 -0.089555867 -0.17652078
-0.029413078 -0.089481615 -0.17653304
-0.029410299 -0.089407399 -0.1765433
-0.029409064 -0.089329943 -0.17651951
-0.029407827 -0.089252472 -0.17649573
-0.02940587 -0.089176655 -0.17648798
-0.029403619 -0.089100711 -0.17648621
-0.029401232 -0.089026675 -0.17648849
-0.029398885 -0.088950686 -0.1764887
-0.029396595 -0.088876694 -0.17648898
-0.029394247 -0.088800706 -0.1764892
-0.029391861 -0.08872667 -0.1764915
-0.029389806 -0.088650815 -0.17648572
-0.02938775 -0.088574953 -0.17647997
-0.029385693 -0.088499099 -0.1764742
-0.029383834 -0.088423327 -0.17646444
-0.029381584 -0.088347375 -0.17646268
-0.029378708 -0.088273123 -0.17647493
-0.029375639 -0.088198781 -0.17649119
-0.029372921 -0.088126577 -0.1765015
-0.029370282 -0.088050455 -0.17650773
-0.029368518 -0.087974727 -0.17649597
-0.029366853 -0.087899044 -0.17648222
-0.029364603 -0.087823093 -0.17648044
-0.029362548 -0.087747239 -0.17647469
-0.029360883 -0.087671548 -0.17646094
-0.029358827 -0.087595694 -0.17645517
-0.029356673 -0.087519795 -0.17645141
-0.029354131 -0.087443717 -0.17645563
-0.029351842 -0.087369725 -0.17645591
-0.029349592 -0.087293774 -0.17645413
-0.029347204 -0.087219745 -0.17645642
-0.02934505 -0.087143838 -0.17645264
-0.029342996 -0.087067977 -0.17644688
-0.029341526 -0.086992383 -0.17642915
-0.029339898 -0.086914748 -0.17641336
-0.029338039 -0.086838976 -0.17640358
-0.0293369 -0.086761549 -0.1763778
-0.029335041 -0.086685777 -0.17636806
-0.02933236 -0.086611614 -0.17637631
-0.029329719 -0.086535491 -0.17638254
-0.029327529 -0.086461544 -0.17638081
-0.029324654 -0.086387292 -0.17639308
-0.029322267 -0.086313255 -0.17639536
-0.029321032 -0.086235791 -0.17637157
-0.029318975 -0.086159937 -0.17636579
-0.029316686 -0.086085945 -0.17636609
-0.02931424 -0.086009905 -0.17636831
-0.029311659 -0.085935786 -0.17637458
-0.029309273 -0.08586175 -0.17637685
-0.029306924 -0.085785761 -0.17637709
-0.029304245 -0.085711598 -0.17638534
-0.029301761 -0.085637517 -0.1763896
-0.029299023 -0.085561357 -0.17639783
-0.029296538 -0.085487276 -0.17640209
-0.029294483 -0.085411415 -0.17639634
-0.029293014 -0.085335821 -0.17637859
-0.029291445 -0.085260183 -0.17636284
-0.029289819 -0.08518254 -0.17634705
-0.029288348 -0.085106947 -0.17632931
-0.029286293 -0.085031085 -0.17632353
-0.029284531 -0.084955357 -0.17631179
-0.029283255 -0.084879845 -0.17629005
-0.029280324 -0.084803596 -0.17630227
-0.029276336 -0.084730819 -0.17633854
-0.029274046 -0.084656827 -0.17633882
-0.02927248 -0.084581181 -0.17632307
-0.029270716 -0.084505454 -0.17631131
-0.029268369 -0.084429465 -0.17631154
-0.029265884 -0.084355392 -0.17631581
-0.029263439 -0.084279358 -0.17631803
-0.029261053 -0.084205322 -0.17632031
-0.029258508 -0.084129244 -0.17632455
-0.029255927 -0.084055126 -0.1763308
-0.029253248 -0.083980955 -0.17633907
-0.029250998 -0.083905011 -0.1763373
-0.029249527 -0.083829418 -0.17631955
-0.029248349 -0.083753943 -0.17629582
-0.029246822 -0.083676353 -0.17627802
-0.029245742 -0.083600923 -0.17625231
-0.0292447 -0.083523549 -0.17622453
-0.029242354 -0.083447561 -0.17622474
-0.029239537 -0.083375305 -0.17623705
-0.029236799 -0.083299145 -0.17624527
-0.029234217 -0.083225019 -0.17625153
-0.029231772 -0.083148986 -0.17625377
-0.029230068 -0.083075255 -0.17624205
-0.029228404 -0.082999572 -0.17622831
-0.029225957 -0.082923539 -0.17623052
-0.029223472 -0.082849458 -0.17623481
-0.029221807 -0.082773775 -0.17622104
-0.029219752 -0.082697921 -0.17621529
-0.029217269 -0.082623839 -0.17621955
-0.029214725 -0.082547761 -0.17622378
-0.029211909 -0.082475513 -0.17623609
-0.029208682 -0.08239913 -0.1762543
-0.029206492 -0.082325175 -0.17625257
-0.029206231 -0.082248151 -0.17620882
-0.02920519 -0.08217077 -0.17618105
-0.029203584 -0.082097083 -0.17616734
-0.029201861 -0.082019404 -0.17615354
-0.029200256 -0.081945717 -0.17613983
-0.029199019 -0.081868254 -0.17611605
-0.029197354 -0.081792563 -0.1761023
-0.029195454 -0.08171875 -0.17609459
-0.029192813 -0.081642628 -0.17610081
-0.029190231 -0.081568509 -0.17610708
-0.029188665 -0.081492871 -0.17609133
-0.029187623 -0.081415489 -0.17606355
-0.029186213 -0.081341892 -0.17604585
-0.029184684 -0.081264295 -0.17602807
-0.029182687 -0.081190437 -0.17602235
-0.029180009 -0.081116267 -0.17603061
-0.029177759 -0.081040323 -0.17602885
-0.029176287 -0.080964722 -0.17601109
-0.029175539 -0.080887482 -0.17597732
-0.02917606 -0.0808108 -0.1759176
-0.029174492 -0.080735154 -0.17590186
-0.029171716 -0.080660947 -0.17591211
-0.029169036 -0.080586784 -0.17592038
-0.029166982 -0.080510922 -0.17591462
-0.029165376 -0.080437236 -0.17590091
-0.029163416 -0.080361426 -0.17589316
-0.029161265 -0.080285519 -0.17588939
-0.029159365 -0.080211699 -0.17588168
-0.029157506 -0.080135934 -0.17587191
-0.029155411 -0.080062024 -0.17586821
-0.029153649 -0.079986297 -0.17585646
-0.02915296 -0.079911053 -0.17582273
-0.029151978 -0.079835668 -0.17579499
-0.029150605 -0.079760119 -0.17577526
-0.029148648 -0.079684302 -0.1757675
-0.029147042 -0.079610616 -0.1757538
-0.029145611 -0.079533063 -0.175734
-0.029144004 -0.079459377 -0.1757203
-0.029142145 -0.079383604 -0.17571054
-0.029141651 -0.079308443 -0.17567283
-0.029142855 -0.079232067 -0.17559911
-0.029141776 -0.079156645 -0.17557338
-0.029140696 -0.079081222 -0.17554766
-0.02913985 -0.07900393 -0.17551588
-0.029138342 -0.078930289 -0.17550017
-0.029136775 -0.07885465 -0.17548442
-0.029135305 -0.078779049 -0.17546669
-0.029133113 -0.078705102 -0.17546496
-0.029130531 -0.078630984 -0.17547123
-0.029128438 -0.078557074 -0.17546751
-0.029127065 -0.078481525 -0.17544776
-0.029126279 -0.07840623 -0.17541605
-0.029125981 -0.078331158 -0.17537433
-0.029125525 -0.078254044 -0.17533457
-0.029125128 -0.078178927 -0.17529485
-0.029124927 -0.078103893 -0.17525116
-0.029123165 -0.078028165 -0.17523938
-0.029122144 -0.077954739 -0.17521371
-0.029121162 -0.077879362 -0.17518598
-0.029120376 -0.077804066 -0.17515427
-0.029119063 -0.077730514 -0.17513457
-0.029117495 -0.077654876 -0.17511882
-0.029116318 -0.077579409 -0.17509508
-0.029115435 -0.077504069 -0.17506534
-0.029114122 -0.077430516 -0.17504565
-0.029112846 -0.077355005 -0.17502391
-0.029111339 -0.077281363 -0.17500821
-0.029109245 -0.077207461 -0.1750045
-0.029107384 -0.077131689 -0.17499474
-0.029105194 -0.077057742 -0.17499301
-0.029102709 -0.07698366 -0.1749973
-0.029099833 -0.076909408 -0.17500955
-0.029096765 -0.076835066 -0.17502581
-0.029094184 -0.076760948 -0.17503206
-0.0290916 -0.076686822 -0.17503834
-0.029087126 -0.076613829 -0.17508459
-0.029082203 -0.07653866 -0.1751388
-0.029078022 -0.0764658 -0.17517906
-0.029072765 -0.076392449 -0.17524129
-0.02906833 -0.076317504 -0.1752855
-0.029063562 -0.076244377 -0.17533775
-0.029979002 -0.095645577 -0.17673409
-0.029976128 -0.095571324 -0.17674634
-0.029973119 -0.095498987 -0.17676264
-0.029970247 -0.095424734 -0.17677489
-0.029967668 -0.095350608 -0.17678118
-0.029964892 -0.0952764 -0.17679143
-0.029961923 -0.095202103 -0.17680568
-0.029958816 -0.095129721 -0.17682397
-0.029955672 -0.095059291 -0.17684431
-0.029953228 -0.094983257 -0.17684655
-0.029952658 -0.094902143 -0.17680669
-0.029953629 -0.094817773 -0.17673279
-0.029951576 -0.094741911 -0.17672703
-0.0299489 -0.094667748 -0.1767353
-0.029946124 -0.09459354 -0.17674556
-0.02994374 -0.094519503 -0.17674783
-0.029941102 -0.094443381 -0.17675406
-0.029938092 -0.094371043 -0.17677036
-0.029934987 -0.094298661 -0.17678866
-0.029932212 -0.094224446 -0.1767989
-0.029929925 -0.094150454 -0.17679918
-0.029928634 -0.094070993 -0.17677534
-0.029926777 -0.093995221 -0.17676559
-0.029925017 -0.093919493 -0.17675385
-0.029922573 -0.09384346 -0.17675605
-0.029919896 -0.093769297 -0.17676432
-0.029917549 -0.093693301 -0.17676456
-0.029914737 -0.093621053 -0.17677686
-0.029912157 -0.093546927 -0.17678311
-0.029909713 -0.093470894 -0.17678535
-0.029907856 -0.093395121 -0.1767756
-0.029906856 -0.093315788 -0.17674577
-0.029905954 -0.093236499 -0.17671396
-0.029905248 -0.093157299 -0.17667815
-0.029902708 -0.093081221 -0.17668237
-0.029899992 -0.09300901 -0.17669266
-0.029897217 -0.092934802 -0.17670293
-0.029894248 -0.092860505 -0.17671719
-0.029891472 -0.092786297 -0.17672744
-0.029889088 -0.092712261 -0.17672972
-0.029887464 -0.092634618 -0.17671394
-0.02988584 -0.092556983 -0.17669813
-0.029883455 -0.092482947 -0.17670041
-0.02988117 -0.092408955 -0.17670068
-0.029878335 -0.092332751 -0.1767109
-0.029875718 -0.092260584 -0.17671922
-0.029873606 -0.092182726 -0.17671341
-0.029871553 -0.092106864 -0.17670763
-0.029869072 -0.09203279 -0.17671192
-0.029866297 -0.091958575 -0.17672217
-0.029863425 -0.09188433 -0.17673442
-0.029860845 -0.091810204 -0.17674069
-0.029860763 -0.091729306 -0.17669085
-0.029860349 -0.091650233 -0.17664905
-0.029859154 -0.091570817 -0.17662323
-0.029856769 -0.091496781 -0.17662549
-0.029853567 -0.091424353 -0.17664579
-0.029850986 -0.091350228 -0.17665204
-0.029848836 -0.091274329 -0.17664829
-0.029845769 -0.091199994 -0.17666455
-0.029842993 -0.091125779 -0.1766748
-0.029840609 -0.091051742 -0.17667708
-0.029838167 -0.090975709 -0.1766793
-0.029835489 -0.090901546 -0.17668757
-0.029833339 -0.090825647 -0.1766838
-0.029832007 -0.090748131 -0.176662
-0.029830873 -0.090670712 -0.17663623
-0.029829113 -0.090594985 -0.17662448
-0.029826865 -0.090519041 -0.17662272
-0.029823894 -0.090444744 -0.17663696
-0.029821021 -0.090370491 -0.17664921
-0.029818773 -0.09029454 -0.17664745
-0.029818323 -0.090217426 -0.1766077
-0.029817946 -0.090136401 -0.17656384
-0.02981599 -0.090060584 -0.17655608
-0.029813841 -0.089984685 -0.17655233
-0.029812412 -0.089907132 -0.17653252
-0.029810946 -0.089831531 -0.17651477
-0.029809088 -0.089755759 -0.17650503
-0.029806547 -0.089679688 -0.17650925
-0.029803539 -0.089607343 -0.17652555
-0.029800706 -0.089531139 -0.17653576
-0.02979953 -0.089455672 -0.17651203
-0.029798493 -0.08937829 -0.17648426
-0.029796772 -0.08930061 -0.17647046
-0.029794095 -0.08922644 -0.17647871
-0.02979132 -0.089152232 -0.17648897
-0.029788975 -0.089076243 -0.1764892
-0.029786784 -0.089002296 -0.17648748
-0.029784244 -0.088926218 -0.17649171
-0.029781235 -0.088853881 -0.17650801
-0.029778987 -0.08877793 -0.17650622
-0.029778048 -0.0887006 -0.17647646
-0.029776813 -0.088623136 -0.17645267
-0.029774565 -0.088547185 -0.17645091
-0.029772084 -0.088473111 -0.17645518
-0.029769935 -0.088397205 -0.17645141
-0.029767647 -0.088323213 -0.17645168
-0.029764969 -0.08824905 -0.17645995
-0.029762331 -0.088172927 -0.17646617
-0.029760376 -0.08809711 -0.17645842
-0.029758031 -0.088021122 -0.17645864
-0.029755939 -0.08794722 -0.17645492
-0.029754082 -0.087871447 -0.17644517
-0.02975193 -0.087795548 -0.1764414
-0.029749684 -0.087719597 -0.17643963
-0.029747533 -0.087643698 -0.17643587
-0.029744856 -0.087569535 -0.17644414
-0.029742178 -0.087495364 -0.1764524
-0.029740321 -0.087419592 -0.17644262
-0.029738132 -0.087345645 -0.17644091
-0.0297352 -0.087269396 -0.17645313
-0.029732523 -0.087195225 -0.1764614
-0.029730568 -0.087119415 -0.17645362
-0.02972953 -0.087042034 -0.17642586
-0.029728394 -0.086964615 -0.17640007
-0.029727064 -0.086887106 -0.17637828
-0.029725071 -0.086813241 -0.17637256
-0.029722724 -0.086737253 -0.1763728
-0.029720146 -0.086663134 -0.17637905
-0.029717468 -0.086588964 -0.17638734
-0.02971483 -0.086512849 -0.17639354
-0.029712249 -0.086438723 -0.17639981
-0.029709768 -0.086364649 -0.17640409
-0.029708106 -0.086288959 -0.17639033
-0.029706638 -0.086213365 -0.17637259
-0.029704293 -0.086137377 -0.17637283
-0.029702045 -0.086061426 -0.17637105
-0.029699855 -0.085987478 -0.17636934
-0.029696982 -0.085913226 -0.17638159
-0.02969411 -0.085838974 -0.17639385
-0.029691473 -0.085762858 -0.17640007
-0.02968899 -0.085688777 -0.17640433
-0.029686509 -0.085614696 -0.1764086
-0.02968426 -0.085538752 -0.17640683
-0.029682599 -0.085463069 -0.17639309
-0.02968156 -0.085385688 -0.17636532
-0.029680621 -0.085308358 -0.17633554
-0.029679056 -0.085232712 -0.17631978
-0.029676709 -0.085156724 -0.17632002
-0.029674424 -0.085082732 -0.17632028
-0.029672664 -0.085007004 -0.17630853
-0.029670611 -0.08493115 -0.17630278
-0.02966764 -0.084856853 -0.17631702
-0.029664475 -0.084782466 -0.17633528
-0.029662287 -0.084708519 -0.17633355
-0.029660955 -0.084631011 -0.17631176
-0.02965939 -0.084555373 -0.17629603
-0.029657241 -0.084479466 -0.17629226
-0.029654758 -0.084405385 -0.17629653
-0.029652609 -0.084329486 -0.17629275
-0.02965036 -0.084253542 -0.17629099
-0.029647781 -0.084179416 -0.17629725
-0.029644869 -0.084107116 -0.17631155
-0.029641841 -0.084030822 -0.17632577
-0.029639261 -0.083956704 -0.17633203
-0.029637305 -0.083880886 -0.17632428
-0.029637147 -0.0838039 -0.17627853
-0.029636402 -0.083726652 -0.17624475
-0.029634934 -0.083651058 -0.176227
-0.02963298 -0.083575241 -0.17621924
-0.02963122 -0.083499514 -0.17620748
-0.029629558 -0.083423831 -0.17619374
-0.029627075 -0.083349749 -0.17619801
-0.029624144 -0.0832735 -0.17621022
-0.029621858 -0.083199508 -0.17621049
-0.02961961 -0.083123565 -0.17620873
-0.029617518 -0.083049655 -0.17620501
-0.029615134 -0.082975626 -0.17620729
-0.029612301 -0.082899414 -0.1762175
-0.029610112 -0.082825467 -0.17621577
-0.029608253 -0.082749695 -0.17620602
-0.029605869 -0.082675666 -0.17620829
-0.0296029 -0.082601368 -0.17622255
-0.029600359 -0.082525291 -0.17622676
-0.029598072 -0.082451299 -0.17622705
-0.0295952 -0.082377046 -0.17623931
-0.02959262 -0.082302921 -0.17624557
-0.029592363 -0.082225889 -0.17620181
-0.029592341 -0.082146995 -0.17615202
-0.029591165 -0.082071528 -0.17612828
-0.029589504 -0.081995845 -0.17611453
-0.029587647 -0.081920072 -0.17610478
-0.029585458 -0.081846125 -0.17610306
-0.029582918 -0.081770048 -0.17610729
-0.029580727 -0.081696101 -0.17610556
-0.029578578 -0.081620201 -0.1761018
-0.029576585 -0.081546336 -0.17609608
-0.029574238 -0.081470348 -0.17609629
-0.029573884 -0.081393279 -0.17605454
-0.029572222 -0.081317589 -0.1760408
-0.029570131 -0.081243686 -0.17603707
-0.029568274 -0.081167914 -0.17602733
-0.029566122 -0.081092015 -0.17602354
-0.029564129 -0.08101815 -0.17601782
-0.029563053 -0.080942735 -0.1759921
-0.029561624 -0.080865182 -0.17597231
-0.029561134 -0.080790021 -0.17593458
-0.029559178 -0.080714203 -0.17592683
-0.029557223 -0.080638386 -0.17591909
-0.029555757 -0.080562785 -0.17590132
-0.029554056 -0.080489062 -0.17588963
-0.029552296 -0.080413334 -0.17587787
-0.0295504 -0.080339514 -0.17587015
-0.029548738 -0.080263831 -0.17585641
-0.029546686 -0.080187969 -0.17585064
-0.029544301 -0.080113932 -0.17585292
-0.029542442 -0.080038168 -0.17584315
-0.02954166 -0.079962872 -0.17581144
-0.029539999 -0.079887189 -0.17579769
-0.029538102 -0.079813369 -0.17578997
-0.029536966 -0.07973595 -0.17576419
-0.029536281 -0.079660699 -0.17573047
-0.029535204 -0.079585277 -0.17570472
-0.029533211 -0.079511419 -0.17569901
-0.029531743 -0.079435818 -0.17568126
-0.029530765 -0.07936044 -0.17565353
-0.029529786 -0.079285063 -0.1756258
-0.029530214 -0.079208337 -0.17556807
-0.029529821 -0.07913322 -0.17552835
-0.029528353 -0.079057626 -0.17551062
-0.029526692 -0.078981943 -0.17549685
-0.029525518 -0.078906476 -0.17547312
-0.029524695 -0.078833133 -0.17544344
-0.029523034 -0.07875745 -0.1754297
-0.029520746 -0.078683458 -0.17542997
-0.029518597 -0.078607559 -0.1754262
-0.029516406 -0.078533612 -0.17542449
-0.029514413 -0.078459755 -0.17541876
-0.029512849 -0.078384109 -0.17540303
-0.02951275 -0.078309126 -0.17535731
-0.02951308 -0.078232355 -0.17530158
-0.029513272 -0.078157499 -0.17524987
-0.029512685 -0.078082293 -0.17521416
-0.029511021 -0.07800661 -0.1752004
-0.029509224 -0.077932835 -0.17519069
-0.029507756 -0.077857241 -0.17517295
-0.029506288 -0.07778164 -0.17515521
-0.029504882 -0.077708043 -0.1751375
-0.029504821 -0.077631101 -0.17508975
-0.029504683 -0.07755807 -0.17504609
-0.029502727 -0.077482253 -0.17503834
-0.029501123 -0.077408567 -0.17502463
-0.029500438 -0.077333324 -0.17499089
-0.029499069 -0.077257767 -0.17497116
-0.029497465 -0.077184081 -0.17495745
-0.029495472 -0.077110223 -0.17495175
-0.029492892 -0.077036098 -0.17495801
-0.029490216 -0.076961935 -0.17496628
-0.029487342 -0.076887682 -0.17497852
-0.02948408 -0.076813251 -0.17499878
-0.029480817 -0.076738827 -0.17501903
-0.029477613 -0.0766664 -0.17503932
-0.029473862 -0.076591752 -0.17506954
-0.029469915 -0.076517023 -0.17510378
-0.029465931 -0.076444238 -0.17514005
-0.029461104 -0.076369114 -0.17519224
-0.029456338 -0.076295994 -0.1752445
-0.02945118 -0.076222688 -0.17530473
-0.030419871 -0.095634066 -0.17683193
-0.030417487 -0.095560029 -0.17683421
-0.03041481 -0.095485866 -0.17684248
-0.030412428 -0.09541183 -0.17684475
-0.03041018 -0.095335886 -0.17684297
-0.030407503 -0.095261723 -0.17685124
-0.030404964 -0.095185637 -0.17685546
-0.030402385 -0.095111519 -0.17686173
-0.030399807 -0.095037401 -0.17686799
-0.030397559 -0.09496145 -0.17686623
-0.030395703 -0.094885677 -0.17685646
-0.030394411 -0.094806217 -0.17683265
-0.030392652 -0.094730489 -0.17682089
-0.030390171 -0.094656408 -0.17682514
-0.030387495 -0.094582245 -0.17683342
-0.030384818 -0.094508082 -0.17684168
-0.030382279 -0.094432004 -0.17684591
-0.030379798 -0.094357923 -0.17685017
-0.030378371 -0.09428037 -0.17683038
-0.030376844 -0.094202772 -0.17681259
-0.030374169 -0.094128609 -0.17682084
-0.030371785 -0.09405458 -0.17682312
-0.030370064 -0.093976893 -0.17680933
-0.030367583 -0.093902811 -0.1768136
-0.03036524 -0.093826823 -0.17681383
-0.030363051 -0.093752876 -0.17681211
-0.030359887 -0.093678489 -0.17683035
-0.030356586 -0.093606018 -0.17685264
-0.030353479 -0.093533635 -0.17687094
-0.030350901 -0.093459517 -0.1768772
-0.030349376 -0.093381919 -0.17685941
-0.030347558 -0.093304187 -0.17684761
-0.030345077 -0.093230113 -0.17685188
-0.03034283 -0.093154162 -0.17685011
-0.030340876 -0.093078353 -0.17684236
-0.030340267 -0.09299919 -0.17680454
-0.030338217 -0.092923328 -0.17679879
-0.030335246 -0.092849039 -0.17681304
-0.030332435 -0.092776783 -0.17682534
-0.03033009 -0.092700794 -0.17682558
-0.030327549 -0.092624716 -0.17682979
-0.030325264 -0.092550725 -0.17683007
-0.030323016 -0.092474774 -0.17682829
-0.030320633 -0.092400745 -0.17683057
-0.03031862 -0.092322931 -0.17682277
-0.030316958 -0.092247248 -0.17680901
-0.030315042 -0.092169479 -0.17679921
-0.030312756 -0.092095479 -0.17679949
-0.030310374 -0.09202145 -0.17680177
-0.030308126 -0.091945499 -0.1768
-0.030304532 -0.091872901 -0.17682827
-0.030301465 -0.091798559 -0.17684454
-0.030300759 -0.091719359 -0.17680871
-0.03030064 -0.091640413 -0.17676091
-0.030298101 -0.091564342 -0.17676514
-0.030295815 -0.091490343 -0.17676541
-0.030293703 -0.091412492 -0.1767596
-0.03029171 -0.091338634 -0.17675389
-0.030289033 -0.091264464 -0.17676216
-0.030286396 -0.091188341 -0.17676838
-0.030283388 -0.091116004 -0.17678466
-0.030281141 -0.091040052 -0.17678291
-0.030279715 -0.090962499 -0.17676312
-0.030278385 -0.090884998 -0.17674133
-0.030276431 -0.090809181 -0.17673358
-0.030274378 -0.09073332 -0.1767278
-0.03027256 -0.090655595 -0.17671601
-0.030271191 -0.090580039 -0.17669627
-0.030269237 -0.090504229 -0.17668851
-0.030266404 -0.090428017 -0.17669871
-0.03026369 -0.090355806 -0.17670903
-0.030261872 -0.090278082 -0.17669722
-0.030260738 -0.090200663 -0.17667145
-0.030260131 -0.0901215 -0.17663364
-0.030258898 -0.090044037 -0.17660984
-0.030257139 -0.089968309 -0.1765981
-0.030254696 -0.089892276 -0.17660031
-0.030252352 -0.089816287 -0.17660055
-0.030250262 -0.089742377 -0.17659682
-0.030247722 -0.089666307 -0.17660105
-0.030245572 -0.0895904 -0.1765973
-0.030244144 -0.089512847 -0.17657751
-0.030242775 -0.089437291 -0.17655776
-0.030240823 -0.089361481 -0.17655
-0.030238282 -0.089285403 -0.17655423
-0.030235898 -0.089211367 -0.1765565
-0.030233748 -0.089135468 -0.17655273
-0.030231267 -0.089061387 -0.176557
-0.030228786 -0.088987306 -0.17656127
-0.030226734 -0.088911444 -0.17655551
-0.030224683 -0.08883559 -0.17654973
-0.030222045 -0.088759467 -0.17655596
-0.030219272 -0.088685259 -0.17656623
-0.030217804 -0.088609666 -0.17654848
-0.030216904 -0.088530377 -0.17651665
-0.030215243 -0.088454686 -0.17650291
-0.030212762 -0.088380612 -0.17650717
-0.030210223 -0.088304535 -0.17651141
-0.030207936 -0.088230543 -0.17651168
-0.030205883 -0.088154688 -0.17650592
-0.03020354 -0.088078693 -0.17650613
-0.030200571 -0.088004395 -0.17652041
-0.030197268 -0.087931924 -0.1765427
-0.030194398 -0.087857671 -0.17655495
-0.030192541 -0.087781899 -0.17654519
-0.030192422 -0.08770296 -0.1764974
-0.030190896 -0.087625362 -0.17647961
-0.030187791 -0.08755298 -0.17649791
-0.030185018 -0.087478772 -0.17650816
-0.030182965 -0.08740291 -0.17650241
-0.030180816 -0.087327011 -0.17649862
-0.030178139 -0.08725284 -0.17650691
-0.030175561 -0.087178722 -0.17651317
-0.030173704 -0.08710295 -0.17650342
-0.030171983 -0.08702527 -0.17648961
-0.030170029 -0.086949453 -0.17648184
-0.030168368 -0.086873762 -0.17646809
-0.030166414 -0.086797953 -0.17646033
-0.030163933 -0.086723872 -0.1764646
-0.030161491 -0.086647838 -0.17646682
-0.030159205 -0.086573847 -0.17646709
-0.030156957 -0.086497903 -0.17646533
-0.030154416 -0.086421825 -0.17646956
-0.030151799 -0.086349659 -0.17647788
-0.030149259 -0.086273581 -0.1764821
-0.030147208 -0.086197719 -0.17647633
-0.030145254 -0.086121902 -0.17646858
-0.030143164 -0.086048 -0.17646486
-0.03014072 -0.085971966 -0.17646706
-0.030138474 -0.085896023 -0.1764653
-0.030136481 -0.085822165 -0.17645958
-0.030134564 -0.085744388 -0.17644979
-0.030132279 -0.085670397 -0.17645006
-0.030129701 -0.085596278 -0.17645633
-0.030127745 -0.085520461 -0.17644858
-0.03012792 -0.085441656 -0.17639479
-0.030127509 -0.085362583 -0.17635298
-0.030125417 -0.085288674 -0.17634925
-0.030122643 -0.085214466 -0.17635953
-0.03011981 -0.085138261 -0.17636973
-0.030117525 -0.08506427 -0.17637001
-0.030114751 -0.084990062 -0.17638028
