# .PCD v0.7 - Point Cloud Data file format
VERSION 0.7
FIELDS x y z
SIZE 4 4 4
TYPE F F F
COUNT 1 1 1
WIDTH 1270
HEIGHT 1
VIEWPOINT 0 0 0 1 0 0 0
POINTS 1270
DATA ascii
-0.058947459 -0.045659781 -0.17614378
-0.05894981 -0.045735769 -0.17614354
-0.058952454 -0.045811888 -0.17613731
-0.058955252 -0.045890052 -0.17612913
-0.058957152 -0.045963868 -0.17613685
-0.058958955 -0.046037644 -0.17614654
-0.058962695 -0.046118192 -0.17612043
-0.058966275 -0.046196699 -0.17609628
-0.058968723 -0.046272736 -0.17609404
-0.058970723 -0.046346597 -0.17609975
-0.058972817 -0.0464205 -0.17610347
-0.058975421 -0.046498574 -0.17609927
-0.058977421 -0.046572439 -0.17610499
-0.058978677 -0.046643995 -0.17612463
-0.058980126 -0.04671564 -0.17614028
-0.058981828 -0.04678937 -0.17615198
-0.058983143 -0.04686293 -0.17617166
-0.058984693 -0.046934616 -0.17618532
-0.058987532 -0.047010824 -0.17617509
-0.058990877 -0.047091201 -0.17615698
-0.058993522 -0.04716732 -0.17615074
-0.058996163 -0.047243439 -0.17614451
-0.058998711 -0.047319517 -0.17614029
-0.059000611 -0.047393333 -0.176148
-0.059002608 -0.047467194 -0.1761537
-0.059005506 -0.0475454 -0.17614353
-0.059008989 -0.047623865 -0.17612137
-0.059013121 -0.047704589 -0.17608729
-0.059016116 -0.047782838 -0.1760751
-0.05901866 -0.047858916 -0.17607087
-0.059020855 -0.047932863 -0.17607258
-0.059022658 -0.048006639 -0.17608228
-0.059024557 -0.048080456 -0.17609
-0.059027005 -0.048156485 -0.17608777
-0.059029061 -0.048232347 -0.17609352
-0.05903051 -0.048303992 -0.17610916
-0.059032217 -0.048377723 -0.17612085
-0.059033569 -0.048449323 -0.17613851
-0.059035175 -0.048523013 -0.1761522
-0.059038464 -0.048601389 -0.17613403
-0.059041657 -0.048679724 -0.17611787
-0.059044395 -0.048755892 -0.17610964
-0.059048329 -0.048836526 -0.17607954
-0.059051812 -0.048914991 -0.1760574
-0.059053615 -0.048988767 -0.17606708
-0.059055164 -0.049060453 -0.17608073
-0.059058063 -0.049138658 -0.17607057
-0.059061937 -0.049217299 -0.17604041
-0.059064835 -0.049295504 -0.17603025
-0.059067283 -0.049371533 -0.17602801
-0.059069574 -0.049445529 -0.17602772
-0.059072569 -0.049523778 -0.17601556
-0.059075054 -0.049597852 -0.17601126
-0.05907676 -0.049671583 -0.17602298
-0.059078269 -0.049745228 -0.17603867
-0.059079327 -0.049816702 -0.1760623
-0.059080388 -0.049888171 -0.17608595
-0.059082288 -0.049961988 -0.17609364
-0.059084382 -0.050035894 -0.17609736
-0.059086442 -0.050111752 -0.17610312
-0.059089083 -0.050187871 -0.17609689
-0.05909247 -0.050266296 -0.17607671
-0.059095111 -0.050342415 -0.1760705
-0.059098244 -0.050418749 -0.17605428
-0.059101533 -0.05049713 -0.17603612
-0.059104174 -0.050573252 -0.17602989
-0.059106916 -0.050649412 -0.17602167
-0.059110947 -0.050730094 -0.17598957
-0.059115566 -0.050811037 -0.17594549
-0.059118953 -0.050889459 -0.17592531
-0.059121594 -0.050965577 -0.17591909
-0.059124045 -0.051041611 -0.17591685
-0.059125945 -0.051115431 -0.17592457
-0.059127744 -0.051189203 -0.17593427
-0.059129745 -0.051263064 -0.17593998
-0.059131548 -0.05133684 -0.17594966
-0.059133545 -0.051410697 -0.17595538
-0.059135251 -0.051484428 -0.1759671
-0.059136599 -0.051556028 -0.17598474
-0.059138209 -0.051629718 -0.17599842
-0.059139814 -0.051703405 -0.17601213
-0.059141912 -0.051777311 -0.17601584
-0.0591451 -0.051855646 -0.17599967
-0.05914833 -0.051932026 -0.17598146
-0.059151717 -0.052010447 -0.17596129
-0.059157275 -0.052093778 -0.1758993
-0.059162691 -0.052179024 -0.17584132
-0.059166372 -0.052257571 -0.17581517
-0.059169151 -0.052331783 -0.17580491
-0.059171405 -0.052407727 -0.17580667
-0.059172757 -0.05247933 -0.17582431
-0.05917491 -0.052555233 -0.17582807
-0.059177008 -0.052629136 -0.17583176
-0.05917871 -0.052702866 -0.17584348
-0.059180319 -0.052776553 -0.17585717
-0.059181672 -0.052848153 -0.17587481
-0.059182439 -0.0529195 -0.17590444
-0.059183497 -0.052990966 -0.17592809
-0.059185043 -0.053062655 -0.17594174
-0.059186358 -0.053136215 -0.17596142
-0.059187517 -0.053207729 -0.17598306
-0.059189476 -0.053283542 -0.17599081
-0.059191767 -0.053357538 -0.17599052
-0.0591948 -0.053433828 -0.17597631
-0.059198089 -0.053512208 -0.17595816
-0.059203096 -0.053593323 -0.17590608
-0.059207421 -0.053674132 -0.17586799
-0.059210163 -0.053750299 -0.17585976
-0.059213001 -0.053826503 -0.17584954
-0.059215195 -0.05390045 -0.17585126
-0.059217386 -0.053974397 -0.17585297
-0.059219543 -0.054050304 -0.17585671
-0.05922154 -0.054124162 -0.17586243
-0.059223928 -0.054198198 -0.17586014
-0.059226278 -0.054274186 -0.17585993
-0.059228275 -0.054348048 -0.17586562
-0.059229687 -0.054421648 -0.17588332
-0.059230357 -0.054492947 -0.17591494
-0.05923171 -0.054564551 -0.17593259
-0.059233315 -0.054638237 -0.1759463
-0.059234474 -0.054709751 -0.17596792
-0.059236079 -0.054783441 -0.17598163
-0.059237786 -0.054857168 -0.17599332
-0.059240077 -0.05493116 -0.17599303
-0.059243754 -0.055009712 -0.17596689
-0.059248667 -0.055090785 -0.17591682
-0.059252441 -0.055169381 -0.17588866
-0.059255183 -0.055245541 -0.17588043
-0.059257574 -0.055319577 -0.17587815
-0.059259374 -0.055393353 -0.17588785
-0.059261374 -0.055467211 -0.17589357
-0.059264272 -0.055545419 -0.17588338
-0.059267402 -0.055621754 -0.17586717
-0.059270438 -0.055698045 -0.17585295
-0.059272729 -0.055772036 -0.17585269
-0.059274822 -0.055845942 -0.17585638
-0.059277076 -0.05592189 -0.17585814
-0.059278525 -0.055993535 -0.17587379
-0.05927974 -0.05606705 -0.17589548
-0.059281349 -0.056140736 -0.17590918
-0.059282504 -0.05621225 -0.17593081
-0.05928392 -0.056285851 -0.1759485
-0.05928582 -0.056359671 -0.17595622
-0.05928801 -0.056433618 -0.17595792
-0.059290752 -0.056509778 -0.17594971
-0.059294529 -0.056588374 -0.17592156
-0.059298247 -0.056664973 -0.17589337
-0.059301477 -0.056741353 -0.17587516
-0.059304021 -0.056817427 -0.17587091
-0.059306566 -0.056893505 -0.17586668
-0.059308954 -0.056967538 -0.1758644
-0.059311405 -0.057043571 -0.17586216
-0.059314534 -0.05711991 -0.17584595
-0.059317119 -0.057194032 -0.17583969
-0.059319273 -0.057269931 -0.17584343
-0.059321761 -0.057344012 -0.17583916
-0.0593246 -0.057420217 -0.17582893
-0.0593265 -0.057494037 -0.17583665
-0.0593284 -0.05756785 -0.17584434
-0.059329908 -0.057641495 -0.17586005
-0.059330773 -0.057712883 -0.17588767
-0.059332088 -0.057786439 -0.17590736
-0.059333693 -0.057860125 -0.17592105
-0.059335142 -0.05793177 -0.1759367
-0.059337299 -0.058007672 -0.17594045
-0.059340429 -0.058084011 -0.17592424
-0.059343111 -0.058158174 -0.17591599
-0.059345655 -0.058234252 -0.17591175
-0.059348337 -0.058308415 -0.17590347
-0.059350982 -0.058384538 -0.17589724
-0.059353076 -0.05845844 -0.17590097
-0.059355624 -0.058534518 -0.17589673
-0.05935856 -0.058610767 -0.17588452
-0.059361435 -0.05868502 -0.17587224
-0.059364177 -0.058761179 -0.17586401
-0.05936721 -0.058837473 -0.1758498
-0.059370048 -0.058913682 -0.17583957
-0.059372243 -0.058987629 -0.1758413
-0.059373945 -0.05906136 -0.17585298
-0.059375651 -0.059135091 -0.1758647
-0.059377298 -0.059206821 -0.17587635
-0.059378963 -0.059282508 -0.17589009
-0.059380315 -0.059354112 -0.17590773
-0.05938163 -0.059427667 -0.17592743
-0.059383627 -0.059501529 -0.17593312
-0.059386015 -0.059575565 -0.17593086
-0.05938866 -0.05965168 -0.17592463
-0.059391245 -0.059725802 -0.17591836
-0.059394181 -0.059802052 -0.17590614
-0.059396919 -0.059878215 -0.1758979
-0.05939921 -0.059952207 -0.17589763
-0.059401307 -0.060026109 -0.17590132
-0.059403561 -0.060102057 -0.1759031
-0.059405949 -0.060176093 -0.17590082
-0.059408139 -0.06025004 -0.17590253
-0.059411176 -0.060326334 -0.1758883
-0.059414599 -0.060402799 -0.1758661
-0.059417438 -0.060479008 -0.17585589
-0.059419241 -0.060552783 -0.17586559
-0.059420943 -0.060626511 -0.17587729
-0.059423137 -0.060700458 -0.175879
-0.059425138 -0.060774319 -0.17588471
-0.059426744 -0.060848005 -0.1758984
-0.059428349 -0.060921695 -0.17591211
-0.059430152 -0.060995467 -0.1759218
-0.059432052 -0.061069287 -0.17592952
-0.059434343 -0.061143279 -0.17592922
-0.059436832 -0.061217353 -0.17592496
-0.059438828 -0.061291214 -0.17593065
-0.059440885 -0.061367076 -0.17593643
-0.059443664 -0.061441284 -0.17592615
-0.059447736 -0.06152001 -0.175892
-0.059450906 -0.061594389 -0.17587376
-0.059453096 -0.061668336 -0.17587546
-0.059454802 -0.061742067 -0.17588717
-0.059456605 -0.061815843 -0.17589685
-0.059458662 -0.061891701 -0.17590263
-0.059463061 -0.061968602 -0.17586043
-0.05946815 -0.062045805 -0.17580429
-0.059470791 -0.062121928 -0.17579806
-0.059472986 -0.062195875 -0.17579979
-0.059474789 -0.06226965 -0.17580947
-0.059476882 -0.062343553 -0.1758132
-0.059479468 -0.062417675 -0.17580691
-0.059481621 -0.062493578 -0.17581066
-0.059483618 -0.062567435 -0.17581637
-0.059485909 -0.062641427 -0.17581609
-0.059488103 -0.062715374 -0.1758178
-0.059490688 -0.0627895 -0.17581153
-0.059494209 -0.06286601 -0.17578733
-0.059497245 -0.062942304 -0.17577311
-0.059500024 -0.063016511 -0.17576283
-0.059502665 -0.063092627 -0.17575662
-0.059505444 -0.063166834 -0.17574635
-0.05950848 -0.063243128 -0.17573214
-0.059511356 -0.063317381 -0.17571987
-0.0595139 -0.063393459 -0.17571563
-0.059516191 -0.06346745 -0.17571536
-0.059520047 -0.063542135 -0.17568311
-0.059524409 -0.063620992 -0.17564298
-0.059527677 -0.063695416 -0.17562273
-0.059531003 -0.063771844 -0.17560253
-0.059532747 -0.063843615 -0.17561218
-0.059534743 -0.063917473 -0.17561787
-0.059537485 -0.06399364 -0.17560965
-0.059539482 -0.064067498 -0.17561537
-0.059541482 -0.064141363 -0.17562109
-0.059543673 -0.06421531 -0.17562279
-0.059545573 -0.064289123 -0.17563049
-0.059547864 -0.064363115 -0.17563021
-0.059550449 -0.06443724 -0.17562394
-0.059552349 -0.064511053 -0.17563164
-0.059554543 -0.064585 -0.17563336
-0.059557226 -0.064659171 -0.17562509
-0.05955977 -0.064735241 -0.17562085
-0.059561964 -0.064809196 -0.17562257
-0.059563275 -0.064882748 -0.17564225
-0.059564337 -0.064954221 -0.1756659
-0.059565648 -0.065027781 -0.17568558
-0.059567355 -0.065101512 -0.17569728
-0.059567925 -0.065172762 -0.17573091
-0.059568264 -0.065245889 -0.17577057
-0.059568796 -0.065319099 -0.17580622
-0.059569463 -0.065390393 -0.17583786
-0.059569899 -0.065463558 -0.17587551
-0.059569787 -0.06553451 -0.17592312
-0.059570026 -0.065607592 -0.17596477
-0.059570655 -0.065680847 -0.17599845
-0.059570055 -0.065751575 -0.17605603
-0.059568185 -0.065821752 -0.17613959
-0.059562251 -0.065888137 -0.17630497
-0.059469786 -0.066020615 -0.17830619
-0.059471156 -0.066096172 -0.17832592
-0.059471201 -0.066169165 -0.17837158
-0.059234496 -0.045667112 -0.17604697
-0.059236944 -0.045743149 -0.17604473
-0.059239585 -0.045819268 -0.1760385
-0.059242032 -0.045895301 -0.17603627
-0.059244677 -0.045971423 -0.17603004
-0.059247769 -0.046049714 -0.17601587
-0.059251055 -0.046128094 -0.1759977
-0.059254892 -0.046208687 -0.1759696
-0.059257731 -0.046284892 -0.17595938
-0.059260078 -0.046360884 -0.17595914
-0.059261527 -0.046432525 -0.17597479
-0.059262842 -0.046506085 -0.17599449
-0.059264287 -0.046577729 -0.17601013
-0.059265994 -0.04665146 -0.17602183
-0.059267443 -0.046723105 -0.17603748
-0.059268694 -0.046794664 -0.17605712
-0.059270203 -0.046868309 -0.17607281
-0.059272103 -0.046942126 -0.17608052
-0.059274748 -0.047018245 -0.1760743
-0.059277739 -0.047096491 -0.17606211
-0.059280578 -0.047172703 -0.1760519
-0.059283122 -0.047248777 -0.17604765
-0.05928557 -0.04732481 -0.17604542
-0.059287664 -0.047398716 -0.17604914
-0.059290465 -0.047476873 -0.17604096
-0.059294887 -0.04755773 -0.17600088
-0.059299465 -0.047640629 -0.17595884
-0.059302948 -0.047719091 -0.17593667
-0.059305198 -0.047795042 -0.17593844
-0.059306357 -0.047866553 -0.17596008
-0.059307158 -0.04793594 -0.17598766
-0.059309117 -0.048011757 -0.17599541
-0.059312053 -0.048088007 -0.17598319
-0.059314501 -0.04816404 -0.17598096
-0.059315752 -0.048235599 -0.1760006
-0.05931681 -0.048307069 -0.17602424
-0.059318516 -0.0483808 -0.17603594
-0.059319671 -0.048452314 -0.17605758
-0.059321668 -0.048526175 -0.1760633
-0.059324507 -0.048602384 -0.17605308
-0.059326757 -0.048678327 -0.17605484
-0.05933024 -0.048756793 -0.17603266
-0.059334077 -0.04883739 -0.17600456
-0.059337758 -0.048915945 -0.17597842
-0.059343275 -0.049001228 -0.17591844
-0.059348438 -0.049084388 -0.17586443
-0.059351239 -0.049162544 -0.17585625
-0.059352785 -0.049234238 -0.17586991
-0.059354879 -0.04930814 -0.17587361
-0.059357326 -0.049384177 -0.17587137
-0.059359226 -0.04945799 -0.17587909
-0.059361026 -0.049531765 -0.17588879
-0.05936189 -0.049603149 -0.17591643
-0.0593624 -0.049672406 -0.17594999
-0.059364103 -0.049746133 -0.17596169
-0.0593661 -0.049819998 -0.1759674
-0.059367608 -0.04989364 -0.1759831
-0.059368316 -0.049962986 -0.17601268
-0.059369665 -0.050034583 -0.17603034
-0.059372466 -0.050112747 -0.17602214
-0.059375595 -0.050189085 -0.17600593
-0.059378982 -0.050267506 -0.17598577
-0.059384204 -0.050352663 -0.1759318
-0.059389569 -0.050435908 -0.17587379
-0.059393503 -0.050516546 -0.17584369
-0.059396181 -0.050590709 -0.1758354
-0.059398532 -0.050666697 -0.17583518
-0.059400976 -0.05074273 -0.17583294
-0.059403464 -0.050816812 -0.17582867
-0.059405323 -0.050892584 -0.17583841
-0.05940732 -0.050966442 -0.17584412
-0.059409611 -0.051040433 -0.17584383
-0.059411861 -0.051116381 -0.17584559
-0.059413508 -0.051188111 -0.17585725
-0.059415113 -0.051261798 -0.17587095
-0.059416365 -0.05133336 -0.17589059
-0.059417583 -0.051406872 -0.17591228
-0.059419028 -0.05147852 -0.17592794
-0.059420187 -0.051550031 -0.17594957
-0.059421696 -0.051623676 -0.17596525
-0.059424043 -0.051699664 -0.17596503
-0.059427723 -0.05177822 -0.17593887
-0.059434023 -0.051863849 -0.17586294
-0.059438188 -0.05194262 -0.17582679
-0.059441086 -0.052020825 -0.17581661
-0.059444021 -0.052097078 -0.17580439
-0.059446763 -0.052173242 -0.17579618
-0.059449501 -0.052249402 -0.17578796
-0.059451889 -0.052323438 -0.17578566
-0.059454788 -0.05240164 -0.1757755
-0.059457622 -0.052477848 -0.17576526
-0.059459329 -0.052551579 -0.17577696
-0.059460778 -0.052623227 -0.17579262
-0.059462678 -0.05269704 -0.17580032
-0.05946438 -0.052770775 -0.17581202
-0.059465829 -0.052842416 -0.17582767
-0.059467141 -0.052915975 -0.17584735
-0.059468299 -0.05298749 -0.17586899
-0.059469905 -0.05306118 -0.1758827
-0.059471257 -0.05313278 -0.17590034
-0.059472863 -0.053206466 -0.17591403
-0.059475698 -0.053282671 -0.17590381
-0.059479281 -0.053361181 -0.17587966
-0.059482314 -0.053437475 -0.17586544
-0.059484955 -0.053513594 -0.17585921
-0.059487246 -0.053587586 -0.17585893
-0.059489399 -0.053663488 -0.1758627
-0.059491884 -0.053737566 -0.17585841
-0.059494626 -0.053813733 -0.17585018
-0.059497364 -0.053889893 -0.17584196
-0.059500203 -0.053966098 -0.17583174
-0.059503101 -0.054044306 -0.17582157
-0.059505194 -0.054118209 -0.17582527
-0.059507094 -0.054192025 -0.17583299
-0.059508994 -0.054265842 -0.17584069
-0.059510991 -0.054339707 -0.1758464
-0.059512891 -0.054413524 -0.1758541
-0.059514046 -0.054485038 -0.17587574
-0.059515007 -0.054556467 -0.17590138
-0.059516318 -0.054630022 -0.17592105
-0.059517924 -0.054703709 -0.17593476
-0.059519824 -0.054777525 -0.17594247
-0.059522308 -0.054851606 -0.17593819
-0.059525497 -0.054929942 -0.17592202
-0.059528336 -0.055006146 -0.1759118
-0.059530824 -0.055080228 -0.17590752
-0.059533268 -0.055156261 -0.17590529
-0.059536107 -0.055232465 -0.17589507
-0.059538946 -0.05530867 -0.17588484
-0.05954143 -0.055382751 -0.17588057
-0.059544168 -0.055458911 -0.17587236
-0.059547007 -0.055535119 -0.17586212
-0.059549652 -0.055611238 -0.17585589
-0.059552588 -0.055687487 -0.17584369
-0.05955562 -0.055763781 -0.17582947
-0.05955781 -0.055837728 -0.17583117
-0.059559517 -0.055911459 -0.17584288
-0.059561122 -0.055985149 -0.17585656
-0.059562374 -0.056056708 -0.17587622
-0.059563298 -0.056130089 -0.17590389
-0.05956465 -0.056201693 -0.17592153
-0.059566256 -0.056275379 -0.17593524
-0.059568055 -0.056349151 -0.17594492
-0.059570991 -0.056425404 -0.17593272
-0.059574414 -0.056501869 -0.1759105
-0.059577156 -0.056578033 -0.17590228
-0.059579603 -0.056654066 -0.17590004
-0.059582282 -0.056728233 -0.17589179
-0.059585221 -0.056804482 -0.17587957
-0.059588056 -0.056880686 -0.17586935
-0.05959025 -0.056954637 -0.17587104
-0.059592403 -0.057030536 -0.17587481
-0.059595436 -0.05710683 -0.1758606
-0.059599154 -0.05718343 -0.17583239
-0.059601113 -0.057259247 -0.17584015
-0.059602756 -0.057330977 -0.17585179
-0.059604909 -0.05740688 -0.17585556
-0.0596072 -0.057480872 -0.17585528
-0.059609491 -0.057554863 -0.175855
-0.059611097 -0.05762855 -0.17586869
-0.059612215 -0.05770202 -0.17589238
-0.059613273 -0.057773493 -0.17591602
-0.059614878 -0.057847179 -0.17592971
-0.059616581 -0.05792091 -0.17594141
-0.059618186 -0.057994597 -0.1759551
-0.059620284 -0.058068499 -0.17595881
-0.059623219 -0.058144748 -0.17594659
-0.059626542 -0.058221176 -0.17592639
-0.059630066 -0.058297686 -0.17590219
-0.059632804 -0.058373846 -0.17589396
-0.059634704 -0.058447666 -0.17590168
-0.059636507 -0.058521442 -0.17591137
-0.059638407 -0.058595255 -0.17591909
-0.059640404 -0.058669116 -0.17592478
-0.059643339 -0.058745369 -0.17591256
-0.059647445 -0.05882214 -0.17587638
-0.059650283 -0.058898345 -0.17586616
-0.059652086 -0.05897212 -0.17587587
-0.059653983 -0.059045937 -0.17588356
-0.059655983 -0.059119798 -0.17588928
-0.059657782 -0.05919357 -0.175899
-0.059659388 -0.05926726 -0.17591268
-0.059660703 -0.059340816 -0.17593238
-0.059662152 -0.059412461 -0.17594802
-0.059664305 -0.059488364 -0.17595178
-0.059666596 -0.059562355 -0.17595148
-0.059668943 -0.059638344 -0.17595126
-0.05967094 -0.059712205 -0.17595696
-0.059673231 -0.059786197 -0.17595668
-0.059675969 -0.05986236 -0.17594846
-0.059677966 -0.059936218 -0.17595416
-0.059679963 -0.060010083 -0.17595989
-0.059682548 -0.060084201 -0.1759536
-0.059684154 -0.060157888 -0.17596731
-0.059685566 -0.060231492 -0.17598498
-0.059687562 -0.06030535 -0.1759907
-0.059691925 -0.060384206 -0.17595056
-0.059695348 -0.060460676 -0.17592835
-0.059697051 -0.060534406 -0.17594007
-0.059699792 -0.06061057 -0.17593184
-0.059702471 -0.060684733 -0.17592356
-0.059703883 -0.060758334 -0.17594126
-0.059705488 -0.06083202 -0.17595495
-0.059706841 -0.060903624 -0.1759726
-0.059708152 -0.06097718 -0.17599228
-0.059710249 -0.061051086 -0.17599599
-0.059712596 -0.061127074 -0.17599577
-0.059714984 -0.061201107 -0.17599347
-0.059717469 -0.061275184 -0.17598921
-0.059720114 -0.061351307 -0.17598298
-0.059722792 -0.06142547 -0.1759747
-0.059725437 -0.061501589 -0.17596847
-0.059727628 -0.061575539 -0.1759702
-0.059729721 -0.061649442 -0.17597391
-0.059731819 -0.061723344 -0.17597762
-0.059733912 -0.06179725 -0.17598131
-0.059737142 -0.06187363 -0.1759631
-0.059741993 -0.061952703 -0.17591301
-0.059746001 -0.062029433 -0.17587881
-0.059748586 -0.062103555 -0.17587253
-0.059750777 -0.062177502 -0.17587425
-0.059753519 -0.062253661 -0.17586602
-0.059756298 -0.062327873 -0.17585576
-0.059758645 -0.062403861 -0.17585552
-0.059760056 -0.062477462 -0.17587321
-0.059761114 -0.062548935 -0.17589685
-0.059762917 -0.062622711 -0.17590654
-0.059765205 -0.062696695 -0.17590627
-0.059767652 -0.062772729 -0.17590404
-0.059769649 -0.062846594 -0.17590974
-0.059772722 -0.062920928 -0.17589349
-0.059775949 -0.062997311 -0.17587528
-0.059778437 -0.063071385 -0.17587098
-0.059781566 -0.063147724 -0.17585477
-0.059784051 -0.063221805 -0.17585051
-0.059786499 -0.063297838 -0.17584828
-0.059789084 -0.063371956 -0.17584199
-0.059791569 -0.063446037 -0.17583773
-0.059794992 -0.063522503 -0.17581552
-0.059800722 -0.063601971 -0.17574742
-0.059803694 -0.06367626 -0.17573315
-0.059805792 -0.063750163 -0.17573687
-0.059808079 -0.063824154 -0.17573658
-0.059810858 -0.063898362 -0.17572632
-0.059813794 -0.063974619 -0.17571411
-0.059816573 -0.064048827 -0.17570384
-0.059818827 -0.06412477 -0.1757056
-0.059820667 -0.064196587 -0.17571326
-0.059821881 -0.064270101 -0.17573494
-0.059822902 -0.064343527 -0.17576061
-0.059825093 -0.064417474 -0.17576233
-0.05982748 -0.06449151 -0.17576006
-0.059829965 -0.064565592 -0.17575577
-0.059832256 -0.064639583 -0.17575549
-0.059834152 -0.064713396 -0.17576319
-0.059835859 -0.064787127 -0.1757749
-0.059837759 -0.064860947 -0.17578261
-0.059838094 -0.064934067 -0.17582226
-0.059838954 -0.065005451 -0.1758499
-0.059840817 -0.065081224 -0.17585963
-0.059841875 -0.065152697 -0.17588328
-0.059842307 -0.065225862 -0.17592093
-0.059842292 -0.065296859 -0.17596656
-0.059842139 -0.065369762 -0.1760162
-0.059842866 -0.065443061 -0.17604786
-0.059843335 -0.065514274 -0.17608348
-0.05975328 -0.066083699 -0.17831263
-0.059458841 -0.045654669 -0.17603528
-0.059460543 -0.0457284 -0.17604698
-0.059462443 -0.045802217 -0.17605469
-0.059467513 -0.045885332 -0.17600267
-0.059473384 -0.045972746 -0.17593676
-0.059476126 -0.046048909 -0.17592853
-0.05947873 -0.046126984 -0.17592433
-0.059481021 -0.046200976 -0.17592406
-0.059483372 -0.046276964 -0.17592382
-0.059484977 -0.04635065 -0.17593753
-0.059486426 -0.046422295 -0.17595318
-0.059487876 -0.046493944 -0.17596883
-0.059489287 -0.046567544 -0.17598651
-0.059490636 -0.046639144 -0.17600416
-0.059491891 -0.046710704 -0.17602381
-0.059492499 -0.046780001 -0.17605537
-0.059493814 -0.046853557 -0.17607507
-0.059496455 -0.04692968 -0.17606884
-0.059499197 -0.04700584 -0.17606062
-0.059501842 -0.047081962 -0.17605439
-0.059505127 -0.047160342 -0.17603621
-0.059508964 -0.047240935 -0.17600812
-0.059514876 -0.047326393 -0.17594019
-0.05952055 -0.047413725 -0.17587826
-0.059523486 -0.047489975 -0.17586604
-0.059525486 -0.047563836 -0.17587174
-0.059527542 -0.047639694 -0.1758775
-0.059529442 -0.047713511 -0.1758852
-0.059530988 -0.0477852 -0.17589885
-0.0595324 -0.047858797 -0.17591655
-0.059533753 -0.047930405 -0.1759342
-0.059535652 -0.048004217 -0.1759419
-0.059537552 -0.048078038 -0.1759496
-0.059538901 -0.048149638 -0.17596725
-0.059540216 -0.048223197 -0.17598695
-0.059541471 -0.048294753 -0.17600659
-0.059542529 -0.048366226 -0.17603022
-0.059544232 -0.048439957 -0.17604192
-0.059546717 -0.048514031 -0.17603764
-0.059549615 -0.04859224 -0.17602748
-0.059552904 -0.04867062 -0.1760093
-0.059558425 -0.048755903 -0.17594934
-0.059563883 -0.048839193 -0.17588933
-0.059566528 -0.048915312 -0.1758831
-0.059568681 -0.048991214 -0.17588687
-0.059571423 -0.049067378 -0.17587863
-0.059574809 -0.049145803 -0.17585847
-0.05957745 -0.049221918 -0.17585224
-0.05957935 -0.049295738 -0.17585996
-0.059580605 -0.049367294 -0.1758796
-0.059582308 -0.049441025 -0.17589128
-0.059584305 -0.049514886 -0.175897
-0.059585914 -0.049588576 -0.17591071
-0.059587166 -0.049660131 -0.17593035
-0.059588421 -0.04973169 -0.17594999
-0.059590027 -0.04980538 -0.17596368
-0.059591476 -0.049877025 -0.17597932
-0.059592791 -0.049950581 -0.17599902
-0.059594337 -0.050022267 -0.17601268
-0.059596591 -0.050098214 -0.17601444
-0.059600271 -0.050176769 -0.17598829
-0.059606727 -0.05026444 -0.17591038
-0.05960986 -0.050340779 -0.17589417
-0.059612501 -0.050416902 -0.17588794
-0.059615597 -0.050495192 -0.17587379
-0.059618726 -0.050571531 -0.17585757
-0.059622172 -0.050651949 -0.17583744
-0.059625305 -0.050728284 -0.17582124
-0.059627753 -0.050804321 -0.17581901
-0.059629846 -0.050878223 -0.17582271
-0.059631452 -0.050951913 -0.17583641
-0.059633002 -0.051023602 -0.17585006
-0.059635449 -0.051099632 -0.17584783
-0.059637349 -0.051173449 -0.17585555
-0.059638407 -0.051244922 -0.17587918
-0.059639663 -0.051316477 -0.17589882
-0.059641268 -0.051390167 -0.17591251
-0.059642777 -0.051463813 -0.17592821
-0.059643932 -0.051535323 -0.17594984
-0.059645638 -0.051609054 -0.17596155
-0.059649121 -0.051687524 -0.17593938
-0.059654579 -0.05177081 -0.17587939
-0.059657808 -0.05184719 -0.17586118
-0.059660159 -0.051923178 -0.17586093
-0.059662703 -0.051999256 -0.17585671
-0.059665445 -0.05207542 -0.17584848
-0.05966799 -0.052151494 -0.17584425
-0.059670575 -0.052225616 -0.17583798
-0.05967351 -0.052301869 -0.17582576
-0.059676994 -0.052380335 -0.1758036
-0.059679832 -0.052456543 -0.17579338
-0.059681989 -0.052532442 -0.17579713
-0.059683729 -0.052604221 -0.17580679
-0.059685729 -0.052678078 -0.1758125
-0.059687685 -0.052753896 -0.17582026
-0.059689235 -0.052825585 -0.17583391
-0.059690546 -0.052899137 -0.1758536
-0.059691995 -0.052970786 -0.17586924
-0.059693605 -0.053044476 -0.17588294
-0.059694856 -0.053116031 -0.17590258
-0.059696659 -0.053189807 -0.17591229
-0.059699107 -0.05326584 -0.17591006
-0.059701651 -0.053341914 -0.17590582
-0.059704881 -0.053418294 -0.17588761
-0.059708074 -0.053496629 -0.17587143
-0.059710167 -0.053570535 -0.17587516
-0.059711874 -0.053644266 -0.17588685
-0.059713516 -0.053715996 -0.17589851
-0.05971567 -0.053791899 -0.17590228
-0.05971935 -0.053870454 -0.17587611
-0.059723224 -0.053949092 -0.17584597
-0.059725869 -0.05402521 -0.17583975
-0.059728161 -0.054099202 -0.17583945
-0.059730157 -0.054173063 -0.17584516
-0.059731763 -0.05424675 -0.17585886
-0.059733115 -0.05431835 -0.1758765
-0.059734624 -0.054391995 -0.1758922
-0.059736326 -0.054465726 -0.1759039
-0.059737679 -0.054537326 -0.17592154
-0.059738249 -0.054608583 -0.17595518
-0.059739113 -0.054679967 -0.1759828
-0.059741657 -0.054756045 -0.17597857
-0.059745338 -0.054834597 -0.17595242
-0.059748273 -0.054910846 -0.1759402
-0.059751112 -0.054987051 -0.17592999
-0.059754245 -0.055063389 -0.17591377
-0.059756339 -0.055137295 -0.17591748
-0.059758045 -0.055211022 -0.17592919
-0.059759945 -0.055284843 -0.17593689
-0.059761941 -0.0553587 -0.1759426
-0.059764877 -0.055434953 -0.17593038
-0.059768558 -0.055513505 -0.17590421
-0.059771102 -0.055589579 -0.17589998
-0.059773587 -0.05566366 -0.17589572
-0.059777074 -0.055742126 -0.17587356
-0.059779361 -0.055816114 -0.17587328
-0.059780676 -0.055889674 -0.17589296
-0.059782125 -0.055961318 -0.17590861
-0.059783537 -0.056034919 -0.1759263
-0.059784949 -0.056108519 -0.175944
-0.059786495 -0.056180209 -0.17595765
-0.059788648 -0.056256108 -0.17596141
-0.059791036 -0.056330144 -0.17595913
-0.059793778 -0.056406308 -0.1759509
-0.059796423 -0.056482427 -0.17594469
-0.059799105 -0.05655659 -0.1759364
-0.059802197 -0.056634884 -0.17592224
-0.059804879 -0.056709051 -0.17591396
-0.059807129 -0.056784995 -0.17591572
-0.059809517 -0.056859031 -0.17591345
-0.059812162 -0.05693515 -0.17590722
-0.059814453 -0.057009142 -0.17590693
-0.05981645 -0.057083003 -0.17591265
-0.059819289 -0.057159208 -0.17590243
-0.059823357 -0.057237934 -0.17586829
-0.059825905 -0.057314012 -0.17586406
-0.05982751 -0.057387698 -0.17587775
-0.059829056 -0.057459388 -0.1758914
-0.059830565 -0.057533033 -0.17590709
-0.059831783 -0.057606544 -0.17592877
-0.059833035 -0.057678103 -0.17594841
-0.059834838 -0.057751875 -0.17595813
-0.059836444 -0.057825565 -0.17597182
-0.059837699 -0.057897121 -0.17599146
-0.05983901 -0.05797068 -0.17601115
-0.059841007 -0.058044538 -0.17601687
-0.05984414 -0.058120877 -0.17600065
-0.059846785 -0.058196995 -0.17599443
-0.059849173 -0.058271028 -0.17599215
-0.059852012 -0.058347236 -0.17598192
-0.059854947 -0.058423489 -0.17596969
-0.059857238 -0.058497481 -0.17596942
-0.059859138 -0.058571294 -0.17597714
-0.059861489 -0.058647286 -0.17597689
-0.059864912 -0.058723751 -0.17595468
-0.059867594 -0.058797918 -0.17594641
-0.059870433 -0.058874123 -0.17593619
-0.059873562 -0.058950461 -0.17591998
-0.059875168 -0.059024148 -0.17593367
-0.059876386 -0.059097663 -0.17595536
-0.059877932 -0.059169352 -0.175969
-0.059879344 -0.059242949 -0.17598671
-0.059880167 -0.059316292 -0.17601639
-0.059881717 -0.059387978 -0.17603004
-0.059884358 -0.059464097 -0.17602381
-0.059887197 -0.059540305 -0.17601359
-0.059889194 -0.059614167 -0.1760193
-0.05989119 -0.059688028 -0.176025
-0.059893385 -0.059761975 -0.17602672
-0.059895538 -0.059837878 -0.17603047
-0.059897732 -0.059911825 -0.17603219
-0.059899826 -0.059985727 -0.17603591
-0.059901532 -0.060059458 -0.17604761
-0.059903529 -0.060133323 -0.17605332
-0.059906073 -0.060209397 -0.17604908
-0.059908755 -0.060283564 -0.1760408
-0.059912629 -0.060362201 -0.17601067
-0.059916057 -0.06043867 -0.17598847
-0.059917212 -0.060510185 -0.1760101
-0.05991872 -0.06058383 -0.17602578
-0.059921756 -0.06066012 -0.17601158
-0.059923656 -0.060733937 -0.17601928
-0.059924576 -0.060807321 -0.17604697
-0.059925441 -0.060878705 -0.17607459
-0.059927143 -0.060952436 -0.17608629
-0.059929337 -0.061026383 -0.17608801
-0.059931882 -0.061102461 -0.17608377
-0.059934173 -0.061176449 -0.17608351
-0.059937149 -0.061250746 -0.17606923
-0.059939887 -0.06132691 -0.176061
-0.059942082 -0.061400857 -0.17606272
-0.059944529 -0.06147689 -0.1760605
-0.059946723 -0.061550841 -0.1760622
-0.059948619 -0.061624654 -0.17606992
-0.05995062 -0.061698515 -0.17607562
-0.059952714 -0.061772421 -0.17607933
-0.05995477 -0.061848283 -0.17608508
-0.059959173 -0.06192518 -0.17604291
-0.059965298 -0.06200482 -0.17596683
-0.059967842 -0.062080897 -0.1759626
-0.059968803 -0.062152326 -0.17598823
-0.059971932 -0.062228661 -0.17597201
-0.059973933 -0.062302522 -0.17597772
-0.059975833 -0.062376339 -0.17598543
-0.059977438 -0.062450025 -0.17599913
-0.059979923 -0.062524103 -0.17599486
-0.059981626 -0.062597834 -0.17600656
-0.059982646 -0.062671259 -0.17603223
-0.059985034 -0.062745295 -0.17602995
-0.059987385 -0.062821284 -0.17602971
-0.059995294 -0.063045688 -0.17600894
-0.059999306 -0.063122422 -0.17597476
-0.06000312 -0.063199058 -0.17594457
-0.060005605 -0.063273139 -0.17594029
-0.060007408 -0.063346907 -0.17594999
-0.060009308 -0.063420728 -0.17595769
-0.060012087 -0.063494936 -0.17594743
-0.060030565 -0.06394887 -0.17585406
-0.060032465 -0.06402269 -0.17586176
-0.060034268 -0.064096466 -0.17587146
-0.060036361 -0.064170368 -0.17587517
-0.060039237 -0.064244621 -0.17586291
-0.060041137 -0.064318441 -0.17587063
-0.060042646 -0.064392082 -0.1758863
-0.060046934 -0.064539932 -0.17589174
-0.060049225 -0.064613923 -0.17589146
-0.060050733 -0.064687565 -0.17590715
-0.060053654 -0.064834811 -0.17594054
-0.060054477 -0.064908154 -0.1759702
-0.060055245 -0.064979494 -0.17599984
-0.060055971 -0.065052792 -0.1760315
-0.059644096 -0.045635313 -0.17605335
-0.059650227 -0.045724809 -0.17598349
-0.059656687 -0.045812488 -0.17590559
-0.059659332 -0.04588861 -0.17589936
-0.059660941 -0.045962296 -0.17591305
-0.059661262 -0.04603146 -0.17595062
-0.059662227 -0.046102889 -0.17597626
-0.059664328 -0.046176795 -0.17597997
-0.059667069 -0.046252958 -0.17597175
-0.059669718 -0.046329077 -0.17596552
-0.059671815 -0.046402983 -0.17596923
-0.059673134 -0.046476539 -0.17598891
-0.059674039 -0.046545967 -0.1760145
-0.059674554 -0.046615228 -0.17604807
-0.059675518 -0.046686649 -0.17607372
-0.059676874 -0.046758257 -0.17609136
-0.059679031 -0.046834156 -0.17609513
-0.059681583 -0.046910234 -0.1760909
-0.059683681 -0.046984136 -0.17609461
-0.059686325 -0.047060259 -0.17608836
-0.059691206 -0.047143288 -0.17604035
-0.059696786 -0.047230572 -0.17598042
-0.059700076 -0.047308944 -0.17596227
-0.059703015 -0.047385197 -0.17595004
-0.05970576 -0.047461361 -0.17594182
-0.059708212 -0.047537394 -0.17593959
-0.059711017 -0.047615558 -0.17593139
-0.059713114 -0.04768946 -0.17593512
-0.059714273 -0.047760975 -0.17595676
-0.059715338 -0.047832444 -0.17598039
-0.059716694 -0.047904048 -0.17599803
-0.059718851 -0.047979951 -0.17600179
-0.059721243 -0.048053984 -0.17599952
-0.059722856 -0.048127674 -0.17601322
-0.05972372 -0.048199058 -0.17604086
-0.05972537 -0.048270788 -0.17605251
-0.059727527 -0.048346691 -0.17605625
-0.05972898 -0.048418336 -0.17607191
-0.05973069 -0.048492067 -0.17608361
-0.059733436 -0.04856823 -0.17607537
-0.059737567 -0.048648953 -0.17604128
-0.059742894 -0.048734151 -0.17598531
-0.059747025 -0.048814878 -0.17595121
-0.059750319 -0.048893258 -0.17593306
-0.059752416 -0.04896716 -0.17593676
-0.059754964 -0.049043238 -0.17593253
-0.059758257 -0.049121618 -0.17591438
-0.059760649 -0.049195647 -0.1759121
-0.059762456 -0.049269423 -0.1759218
-0.059764065 -0.049343109 -0.17593549
-0.059765872 -0.049416885 -0.17594519
-0.059768066 -0.049490832 -0.17594691
-0.059769873 -0.049564607 -0.17595661
-0.059770938 -0.049636077 -0.17598024
-0.059772253 -0.049709633 -0.17599994
-0.059773706 -0.049781278 -0.17601559
-0.059775218 -0.049854927 -0.17603128
-0.059776675 -0.049926568 -0.17604692
-0.05977793 -0.049998127 -0.17606658
-0.05978132 -0.050076552 -0.17604642
-0.059787333 -0.050162055 -0.17597646
-0.059790038 -0.05024017 -0.17597027
-0.059792038 -0.050314032 -0.17597598
-0.059794527 -0.050388109 -0.17597172
-0.059797332 -0.050466269 -0.17596352
-0.059799429 -0.050540175 -0.17596725
-0.059802078 -0.050616294 -0.17596102
-0.059806209 -0.050697017 -0.17592692
-0.059810381 -0.050775789 -0.17589077
-0.05981338 -0.050854035 -0.17587861
-0.059815928 -0.050930113 -0.17587438
-0.059817638 -0.051003844 -0.17588608
-0.059819091 -0.051075488 -0.17590173
-0.0598207 -0.051149175 -0.17591542
-0.059822153 -0.051220819 -0.17593107
-0.059823863 -0.05129455 -0.17594278
-0.059825182 -0.05136811 -0.17596246
-0.059826087 -0.051437538 -0.17598805
-0.059827402 -0.051511094 -0.17600775
-0.059829112 -0.051584825 -0.17601943
-0.059832342 -0.051661205 -0.17600122
-0.059836477 -0.051741928 -0.17596713
-0.059839614 -0.051818267 -0.17595091
-0.059842553 -0.051894516 -0.1759387
-0.059845101 -0.051970594 -0.17593446
-0.059848294 -0.052048929 -0.17591831
-0.059851136 -0.052125134 -0.17590809
-0.059853688 -0.052201211 -0.17590386
-0.059856527 -0.052277416 -0.17589363
-0.059859272 -0.05235358 -0.17588541
-0.059862114 -0.052429788 -0.17587517
-0.059865151 -0.052506082 -0.17586097
-0.059867252 -0.052579984 -0.17586467
-0.059868958 -0.052653715 -0.17587638
-0.059870861 -0.052727535 -0.17588408
-0.059872471 -0.052801222 -0.17589778
-0.059873633 -0.052872732 -0.17591941
-0.059874598 -0.052944161 -0.17594504
-0.059875757 -0.053015679 -0.17596668
-0.059877172 -0.053089276 -0.17598438
-0.059879176 -0.053163141 -0.17599009
-0.059882369 -0.053241473 -0.17597392
-0.059885308 -0.053317726 -0.1759617
-0.059887409 -0.053391628 -0.17596541
-0.059889957 -0.053467706 -0.17596118
-0.059892602 -0.053543821 -0.17595497
-0.0598948 -0.053617772 -0.17595667
-0.059896603 -0.053691544 -0.17596638
-0.059899058 -0.053767577 -0.17596415
-0.059902485 -0.053844046 -0.17594194
-0.059905678 -0.053922381 -0.17592576
-0.05990852 -0.053998586 -0.17591554
-0.059911557 -0.05407488 -0.17590132
-0.059913754 -0.054148827 -0.17590305
-0.059915267 -0.054222472 -0.17591874
-0.059916526 -0.054294031 -0.17593838
-0.059917845 -0.054367587 -0.17595807
-0.059919257 -0.054441188 -0.17597577
-0.059920907 -0.054512918 -0.17598742
-0.059922323 -0.054586519 -0.17600511
-0.059923932 -0.054660209 -0.1760188
-0.059925541 -0.054733895 -0.1760325
-0.059927739 -0.054807842 -0.17603421
-0.059930131 -0.054881874 -0.17603193
-0.059932288 -0.054957777 -0.1760357
-0.059934191 -0.055031598 -0.17604339
-0.059936389 -0.055105545 -0.17604512
-0.059939232 -0.055181749 -0.1760349
-0.059942465 -0.055258129 -0.17601669
-0.059944917 -0.055334162 -0.17601445
-0.059946623 -0.055407893 -0.17602614
-0.059948623 -0.055481754 -0.17603186
-0.059951954 -0.055558175 -0.17601165
-0.059954897 -0.055634428 -0.17599943
-0.059958287 -0.055712849 -0.17597926
-0.059960578 -0.055786841 -0.17597899
-0.059961993 -0.055860437 -0.17599668
-0.059963703 -0.055934168 -0.17600837
-0.059965607 -0.056007989 -0.17601609
-0.05996741 -0.056081764 -0.17602579
-0.05996912 -0.056155495 -0.17603749
-0.059970926 -0.056229264 -0.17604719
-0.059972633 -0.056302998 -0.17605889
-0.059975024 -0.056377031 -0.17605661
-0.059977964 -0.05645328 -0.1760444
-0.0599811 -0.056529619 -0.17602818
-0.059983846 -0.056605782 -0.17601995
-0.059986785 -0.056682032 -0.17600775
-0.059988882 -0.056755938 -0.17601144
-0.059990592 -0.056829665 -0.17602314
-0.059992652 -0.056905523 -0.17602891
-0.059995044 -0.056979559 -0.17602661
-0.059997141 -0.057053462 -0.17603034
-0.060000628 -0.057131927 -0.17600818
-0.060003765 -0.057208266 -0.17599195
-0.06000651 -0.05728443 -0.17598373
-0.060008705 -0.057358377 -0.17598546
-0.060009927 -0.057431892 -0.17600714
-0.06001167 -0.057503663 -0.17601681
-0.060013182 -0.057577308 -0.17603248
-0.060014501 -0.057650864 -0.17605218
-0.060016014 -0.057724509 -0.17606787
-0.060017724 -0.05779824 -0.17607957
-0.06001937 -0.057869971 -0.17609122
-0.060021725 -0.057945959 -0.17609099
-0.060024567 -0.058022168 -0.17608076
-0.060026471 -0.058095984 -0.17608847
-0.06002818 -0.058169715 -0.17610016
-0.06003008 -0.058243532 -0.17610788
-0.060032476 -0.058317568 -0.17610559
-0.060035121 -0.058393687 -0.17609937
-0.060037669 -0.058469765 -0.17609514
-0.060039669 -0.058543622 -0.17610085
-0.060041964 -0.058617614 -0.17610055
-0.060044806 -0.058693819 -0.17609036
-0.060047843 -0.058770116 -0.17607613
-0.06005137 -0.058846626 -0.17605191
-0.060054116 -0.05892279 -0.1760437
-0.060056116 -0.058996648 -0.17604941
-0.060057178 -0.059068121 -0.17607304
-0.060058299 -0.059141591 -0.17609674
-0.060059715 -0.059215192 -0.17611441
-0.060061522 -0.059288964 -0.17612413
-0.060063817 -0.059362955 -0.17612383
-0.06006572 -0.059436772 -0.17613155
-0.060066588 -0.05950816 -0.17615917
-0.060068745 -0.059584059 -0.17616293
-0.060071331 -0.059658181 -0.17615665
-0.060073685 -0.059734173 -0.17615643
-0.060075395 -0.059807904 -0.17616813
-0.060076907 -0.059881546 -0.17618382
-0.060079005 -0.059955448 -0.17618753
-0.060080618 -0.060029138 -0.17620122
-0.060082812 -0.060103085 -0.17620294
-0.060085263 -0.060179114 -0.17620072
-0.06008707 -0.06025289 -0.17621042
-0.06010028 -0.060629535 -0.17617719
-0.060105979 -0.060921982 -0.1762459
-0.060107589 -0.060995668 -0.17625961
-0.060109496 -0.061069489 -0.1762673
-0.060110714 -0.061143 -0.17628899
-0.060114142 -0.061219469 -0.17626679
-0.060116436 -0.061293457 -0.17626652
-0.060119182 -0.06136962 -0.17625828
-0.060122512 -0.061446045 -0.17623809
-0.060125098 -0.061520167 -0.1762318
-0.060127586 -0.061594244 -0.17622752
-0.060129941 -0.061670233 -0.17622729
-0.060131844 -0.061744049 -0.17623499
-0.06013326 -0.06181765 -0.17625268
-0.060159232 -0.062568769 -0.17619418
-0.060159612 -0.062639937 -0.17623179
-0.06018544 -0.063318014 -0.17612962
-0.059876643 -0.04563722 -0.17599043
-0.059879839 -0.045715552 -0.17597425
-0.059883133 -0.045793932 -0.1759561
-0.059885334 -0.045867875 -0.17595781
-0.059887592 -0.045943823 -0.17595957
-0.059889205 -0.046017513 -0.17597327
-0.059890762 -0.046089202 -0.17598692
-0.059893019 -0.046165146 -0.17598867
-0.059895217 -0.046239093 -0.1759904
-0.059897475 -0.04631504 -0.17599216
-0.059899285 -0.046388812 -0.17600185
-0.059900548 -0.046460371 -0.17602149
-0.059901811 -0.046531931 -0.17604113
-0.059902973 -0.046603445 -0.17606276
-0.059904587 -0.046677135 -0.17607647
-0.059906434 -0.046748951 -0.17608413
-0.059908397 -0.046824768 -0.17609188
-0.059910305 -0.046898585 -0.1760996
-0.059912857 -0.046974659 -0.17609537
-0.059916697 -0.047055252 -0.17606725
-0.059919834 -0.047131591 -0.17605104
-0.059922289 -0.047207624 -0.17604882
-0.059925035 -0.047283787 -0.17604057
-0.059928037 -0.047362037 -0.1760284
-0.059931137 -0.047440328 -0.17601423
-0.059934724 -0.047518834 -0.17599007
-0.059937824 -0.047597125 -0.1759759
-0.059940375 -0.047673203 -0.17597167
-0.05994267 -0.047747195 -0.17597139
-0.05994409 -0.047820792 -0.17598908
-0.059944902 -0.047890183 -0.17601666
-0.059946612 -0.04796391 -0.17602837
-0.059949066 -0.048039943 -0.17602614
-0.059950717 -0.048111677 -0.17603779
-0.059951589 -0.048183061 -0.17606542
-0.059952557 -0.04825449 -0.17609105
-0.059954073 -0.048328131 -0.17610675
-0.059955627 -0.048399821 -0.17612039
-0.059958279 -0.048475944 -0.17611416
-0.059962019 -0.048556492 -0.17608805
-0.059965804 -0.048635088 -0.1760599
-0.059969157 -0.048715465 -0.17604178
-0.059972197 -0.048791759 -0.17602757
-0.059974648 -0.048867792 -0.17602533
-0.059977103 -0.048943825 -0.1760231
-0.059979402 -0.049017813 -0.17602283
-0.059982304 -0.049096018 -0.17601264
-0.05998544 -0.049172357 -0.17599642
-0.05998854 -0.049250647 -0.17598227
-0.059991188 -0.049326763 -0.17597602
-0.059992842 -0.049398497 -0.17598768
-0.059994064 -0.049472012 -0.17600936
-0.059995424 -0.049543612 -0.176027
-0.059997134 -0.049617343 -0.17603871
-0.059998944 -0.049691118 -0.17604841
-0.060000401 -0.049762763 -0.17606404
-0.060001623 -0.049836278 -0.17608574
-0.060003079 -0.049907923 -0.17610139
-0.060005281 -0.04998187 -0.1761031
-0.060008574 -0.05006025 -0.17608494
-0.060011867 -0.050138626 -0.17606677
-0.060014516 -0.050214745 -0.17606054
-0.060016874 -0.050290734 -0.17606032
-0.060018878 -0.050364599 -0.17606601
-0.060021233 -0.050440587 -0.17606577
-0.060024567 -0.050517008 -0.17604557
-0.060027372 -0.050595172 -0.17603739
-0.060029473 -0.050669074 -0.1760411
-0.060033549 -0.050747801 -0.17600696
-0.060037293 -0.050828353 -0.17598085
-0.060039941 -0.050904471 -0.17597462
-0.060042493 -0.050980546 -0.17597039
-0.060044594 -0.051054448 -0.1759741
-0.060046405 -0.051128224 -0.17598382
-0.060048115 -0.051201954 -0.1759955
-0.060050119 -0.051275816 -0.17600122
-0.060051635 -0.051349461 -0.1760169
-0.060052447 -0.051418845 -0.17604449
-0.060054354 -0.051492665 -0.1760522
-0.06005716 -0.051570825 -0.17604402
-0.060059357 -0.051644772 -0.17604573
-0.060061458 -0.051718675 -0.17604944
-0.060063913 -0.051794708 -0.17604721
-0.060066562 -0.05187083 -0.17604098
-0.060069699 -0.051947165 -0.17602476
-0.060072444 -0.052023329 -0.17601654
-0.060075253 -0.052101489 -0.17600834
-0.060077257 -0.05217535 -0.17601407
-0.060079649 -0.052249387 -0.17601177
-0.06008314 -0.052327849 -0.17598963
-0.060086433 -0.052406229 -0.17597145
-0.060089082 -0.052482344 -0.17596522
-0.06009138 -0.052556336 -0.17596495
-0.060093384 -0.052630201 -0.17597064
-0.060095448 -0.052706059 -0.17597641
-0.060096808 -0.052777659 -0.17599405
-0.060098324 -0.052851304 -0.17600974
-0.060100228 -0.052925121 -0.17601745
-0.060101978 -0.052996896 -0.17602712
-0.060103945 -0.053072713 -0.17603487
-0.060105655 -0.053146444 -0.17604657
-0.060106821 -0.053217959 -0.17606819
-0.060108081 -0.053289514 -0.17608783
-0.06011112 -0.053365812 -0.17607361
-0.060114123 -0.053444058 -0.17606145
-0.060116515 -0.053518094 -0.17605917
-0.060118873 -0.053594083 -0.17605893
-0.060120974 -0.053667985 -0.17606264
-0.060122978 -0.053741846 -0.17606835
-0.060125239 -0.053817794 -0.17607011
-0.060127985 -0.053893954 -0.17606188
-0.060131475 -0.053972419 -0.17603973
-0.060134415 -0.054048672 -0.17602751
-0.060136419 -0.05412253 -0.1760332
-0.060137838 -0.05419613 -0.1760509
-0.060139745 -0.054269947 -0.17605861
-0.060141359 -0.054343633 -0.1760723
-0.060143009 -0.054415368 -0.17608395
-0.060144819 -0.054489143 -0.17609367
-0.060146336 -0.054562785 -0.17610936
-0.060147755 -0.054636385 -0.17612705
-0.060149465 -0.054710116 -0.17613874
-0.06015186 -0.054784149 -0.17613646
-0.060154509 -0.054860272 -0.17613024
-0.060156513 -0.054934129 -0.17613594
-0.06015842 -0.055007949 -0.17614365
-0.060160678 -0.055083893 -0.1761454
-0.060162976 -0.055157885 -0.17614512
-0.060165271 -0.055231877 -0.17614484
-0.060167626 -0.055307865 -0.1761446
-0.06016963 -0.055381723 -0.17615032
-0.060171049 -0.055455327 -0.17616801
-0.060172763 -0.055529058 -0.17617971
-0.060176641 -0.055607695 -0.17614955
-0.060180422 -0.055686291 -0.17612141
-0.060182624 -0.055760238 -0.17612311
-0.06018443 -0.05583401 -0.17613283
-0.060186531 -0.055907916 -0.17613654
-0.060188148 -0.055981603 -0.17615023
-0.060189858 -0.056055333 -0.17616193
-0.060191471 -0.056129023 -0.17617562
-0.060193673 -0.05620297 -0.17617734
-0.06019593 -0.056278914 -0.1761791
-0.060197387 -0.056350559 -0.17619474
-0.060199548 -0.056426462 -0.17619851
-0.060202293 -0.056502625 -0.17619027
-0.060204592 -0.056576617 -0.17618999
-0.060206398 -0.056650389 -0.1761997
-0.060208112 -0.05672412 -0.17621139
-0.060210466 -0.056800112 -0.17621115
-0.060213055 -0.056874231 -0.17620489
-0.060214926 -0.056950003 -0.17621464
-0.060216736 -0.057023779 -0.17622434
-0.060219713 -0.057098072 -0.17621008
-0.060223009 -0.057176452 -0.1761919
-0.06023261 -0.057476543 -0.17618486
-0.060234025 -0.05755014 -0.17620257
-0.060235836 -0.057623915 -0.17621227
-0.060236804 -0.057695344 -0.1762379
-0.06023832 -0.057768986 -0.17625359
-0.06024003 -0.057842717 -0.17626528
-0.060242876 -0.057918925 -0.17625506
-0.060245465 -0.057993047 -0.17624879
-0.060246494 -0.058066472 -0.17627448
-0.060247168 -0.058137771 -0.1763061
-0.060248684 -0.058211416 -0.17632179
-0.060251433 -0.058287576 -0.17631355
-0.060254022 -0.058361698 -0.17630729
-0.060256377 -0.058437686 -0.17630705
-0.060258187 -0.058511462 -0.17631677
-0.0602598 -0.058585148 -0.17633045
-0.060261805 -0.05865901 -0.17633617
-0.060263611 -0.058732785 -0.17634585
-0.060380641 -0.062259749 -0.17617583
-0.060381513 -0.062331133 -0.17620346
-0.06038215 -0.062404387 -0.17623714
-0.060383495 -0.062834911 -0.17648488
-0.060385656 -0.062910818 -0.17648864
-0.06038766 -0.062984675 -0.17649435
-0.060389373 -0.063058406 -0.17650604
-0.060163841 -0.045621183 -0.17602283
-0.060166549 -0.045699302 -0.17601664
-0.060169686 -0.045775637 -0.17600042
-0.060172334 -0.04585176 -0.17599419
-0.060175434 -0.04593005 -0.17598003
-0.060178433 -0.046008296 -0.17596784
-0.06018202 -0.046086807 -0.1759437
-0.060184572 -0.046162885 -0.17593947
-0.060186088 -0.046236526 -0.17595516
-0.060186997 -0.046305958 -0.17598075
-0.060188316 -0.046379514 -0.17600045
-0.06019032 -0.046453372 -0.17600614
-0.060191873 -0.046525065 -0.17601979
-0.060192842 -0.04659649 -0.17604542
-0.06019371 -0.046667874 -0.17607304
-0.060195167 -0.046739522 -0.17608871
-0.060197424 -0.04681547 -0.17609046
-0.060200818 -0.046893887 -0.1760703
-0.060203955 -0.046970226 -0.17605409
-0.060206857 -0.047048431 -0.17604391
-0.060209505 -0.04712455 -0.17603768
-0.060211413 -0.04719837 -0.17604539
-0.060213316 -0.047272183 -0.17605311
-0.060216319 -0.047350433 -0.17604092
-0.060219161 -0.047426641 -0.1760307
-0.06022181 -0.047502756 -0.17602447
-0.060224909 -0.047581051 -0.1760103
-0.060227752 -0.047657259 -0.17600007
-0.060230851 -0.04773555 -0.1759859
-0.060233399 -0.047811627 -0.17598167
-0.060234856 -0.047883268 -0.17599732
-0.060235985 -0.047956742 -0.17602101
-0.060237437 -0.048028387 -0.17603666
-0.060238797 -0.048099987 -0.1760543
-0.060240217 -0.048173588 -0.17607197
-0.060241573 -0.048245192 -0.17608963
-0.060243282 -0.048318923 -0.17610133
-0.060245581 -0.048392911 -0.17610106
-0.060248386 -0.048471075 -0.17609286
-0.060251422 -0.048547365 -0.17607865
-0.060253426 -0.048621226 -0.17608437
-0.060255393 -0.048697039 -0.17609212
-0.060258433 -0.048773333 -0.1760779
-0.060260981 -0.048849411 -0.17607367
-0.060262695 -0.048923142 -0.17608537
-0.060264502 -0.048996918 -0.17609507
-0.06026715 -0.049073033 -0.17608884
-0.060270637 -0.049151503 -0.17606667
-0.060273677 -0.049227796 -0.17605247
-0.06027668 -0.049306042 -0.17604029
-0.060278878 -0.04937999 -0.17604199
-0.060280588 -0.04945372 -0.1760537
-0.060282845 -0.049529668 -0.17605546
-0.060284946 -0.04960357 -0.17605916
-0.060286012 -0.049675044 -0.1760828
-0.060287178 -0.049746558 -0.17610446
-0.060288496 -0.049820114 -0.17612413
-0.060289308 -0.049889501 -0.17615172
-0.060290821 -0.049963146 -0.17616741
-0.060293373 -0.050039221 -0.17616318
-0.060296215 -0.050115429 -0.17615294
-0.060298868 -0.050191544 -0.17614673
-0.060301222 -0.050267536 -0.17614649
-0.060303614 -0.050341569 -0.17614421
-0.060306069 -0.050417602 -0.17614198
-0.060308326 -0.05049355 -0.17614374
-0.060310427 -0.050567456 -0.17614745
-0.060312334 -0.050641272 -0.17615515
-0.060314339 -0.050715134 -0.17616086
-0.060318567 -0.050795898 -0.17612478
-0.060322899 -0.050876711 -0.17608668
-0.060326543 -0.050957218 -0.17606255
-0.060328938 -0.051031254 -0.17606029
-0.060330648 -0.051104981 -0.17607199
-0.060332455 -0.051178757 -0.17608169
-0.060334168 -0.051252484 -0.1760934
-0.060335681 -0.05132613 -0.17610908
-0.060337882 -0.05140008 -0.1761108
-0.060340334 -0.05147611 -0.17610857
-0.060342338 -0.051549971 -0.17611428
-0.060344048 -0.051623702 -0.17612597
-0.060346503 -0.051699735 -0.17612374
-0.060349345 -0.05177594 -0.17611352
-0.060352188 -0.051852148 -0.17610329
-0.060354739 -0.051928222 -0.17609906
