# .PCD v0.7 - Point Cloud Data file format
VERSION 0.7
FIELDS x y z
SIZE 4 4 4
TYPE F F F
COUNT 1 1 1
WIDTH 1298
HEIGHT 1
VIEWPOINT 0 0 0 1 0 0 0
POINTS 1298
DATA ascii
-0.13024309 -0.038859837 -0.26963213
-0.13024034 -0.038783997 -0.26962635
-0.1302375 -0.038706169 -0.26962051
-0.13023476 -0.038628377 -0.2696127
-0.13023201 -0.038552541 -0.26960692
-0.13022856 -0.038476404 -0.26961511
-0.13022511 -0.038402222 -0.26962534
-0.13022196 -0.038326211 -0.26962754
-0.130219 -0.03825029 -0.26962575
-0.13021615 -0.038174413 -0.26962197
-0.13021311 -0.038096491 -0.26962012
-0.13020997 -0.038020484 -0.26962233
-0.13020702 -0.037944563 -0.26962054
-0.13020419 -0.03786673 -0.2696147
-0.13020132 -0.03779085 -0.26961094
-0.13019848 -0.037714973 -0.26960716
-0.13019542 -0.037639007 -0.26960737
-0.13019218 -0.037562959 -0.26961154
-0.13018954 -0.037485212 -0.26960173
-0.1301868 -0.037407421 -0.26959389
-0.13018355 -0.037331369 -0.2695981
-0.1301809 -0.037255578 -0.26959032
-0.13017786 -0.03717766 -0.26958847
-0.1301745 -0.037103519 -0.26959673
-0.13017125 -0.037027467 -0.26960093
-0.13016832 -0.036949594 -0.26959708
-0.13016537 -0.036873668 -0.2695953
-0.13016212 -0.03679762 -0.2695995
-0.13015898 -0.03672161 -0.2696017
-0.13015622 -0.036645778 -0.26959592
-0.13015328 -0.0365679 -0.26959211
-0.13015023 -0.036491938 -0.26959229
-0.13014698 -0.036415882 -0.26959649
-0.13014384 -0.036339875 -0.26959869
-0.13014129 -0.036262169 -0.26958689
-0.13013904 -0.036184598 -0.26956907
-0.13013612 -0.036106724 -0.26956522
-0.13013265 -0.036032543 -0.26957548
-0.13012922 -0.035956401 -0.26958367
-0.13012655 -0.03588061 -0.26957589
-0.13012342 -0.035802647 -0.26957604
-0.13012005 -0.035728507 -0.2695843
-0.13011691 -0.035652496 -0.2695865
-0.13011417 -0.035574712 -0.26957867
-0.13011153 -0.035496965 -0.26956883
-0.13010868 -0.035421085 -0.26956505
-0.13010553 -0.035345078 -0.26956725
-0.13010229 -0.035269026 -0.26957145
-0.13009866 -0.035192803 -0.26958364
-0.1300955 -0.035116792 -0.26958585
-0.13009265 -0.035040915 -0.26958206
-0.13008949 -0.034964904 -0.26958427
-0.13008638 -0.034886941 -0.26958442
-0.1300846 -0.034809586 -0.26955664
-0.1300872 -0.034718454 -0.26942658
-0.13009076 -0.034627758 -0.26927659
-0.13009003 -0.034544967 -0.26922268
-0.13008818 -0.034465611 -0.26919484
-0.13008712 -0.034386605 -0.26915103
-0.13008589 -0.034305554 -0.26910916
-0.13008483 -0.034226548 -0.26906532
-0.13008328 -0.034147322 -0.26903147
-0.13008143 -0.034067966 -0.26900363
-0.13007969 -0.033988658 -0.2689738
-0.13007754 -0.033911128 -0.26895398
-0.1300751 -0.033833466 -0.26894015
-0.13007265 -0.033755809 -0.26892635
-0.13007 -0.033678062 -0.26891652
-0.13006724 -0.033602227 -0.26891074
-0.1300648 -0.033524565 -0.26889691
-0.13006246 -0.033446949 -0.26888108
-0.1300593 -0.033370942 -0.26888329
-0.13005635 -0.03329502 -0.2688815
-0.13005351 -0.033219144 -0.26887771
-0.13005054 -0.033143222 -0.26887593
-0.1300475 -0.033067256 -0.26887614
-0.13004406 -0.032991119 -0.26888433
-0.1300406 -0.032916933 -0.26889458
-0.13003775 -0.032839101 -0.26888874
-0.13003491 -0.032763224 -0.26888496
-0.13003194 -0.032687303 -0.26888317
-0.1300289 -0.03261134 -0.26888338
-0.13002546 -0.032535199 -0.26889157
-0.1300219 -0.032460973 -0.26890379
-0.13001846 -0.032384835 -0.26891202
-0.13001601 -0.032307174 -0.26889819
-0.13001375 -0.032231558 -0.26888242
-0.13001071 -0.032153636 -0.26888058
-0.13000786 -0.03207776 -0.26887679
-0.13000561 -0.032000184 -0.26885897
-0.13000426 -0.031921048 -0.26882115
-0.13000181 -0.031843387 -0.26880732
-0.12999806 -0.031769074 -0.26882356
-0.12999462 -0.031692937 -0.26883176
-0.12999155 -0.031618927 -0.26883399
-0.12998852 -0.031541005 -0.26883215
-0.12998596 -0.031465258 -0.26882237
-0.12998381 -0.031385776 -0.26880053
-0.12998177 -0.03130829 -0.26877871
-0.12997991 -0.031230889 -0.26875293
-0.12997794 -0.031153444 -0.26872912
-0.12997599 -0.031076001 -0.26870531
-0.12997393 -0.030998517 -0.26868349
-0.12997289 -0.030917553 -0.26863763
-0.12997411 -0.03083563 -0.26854378
-0.12997426 -0.030753233 -0.2684719
-0.12997308 -0.030676134 -0.26843214
-0.12997083 -0.030598562 -0.26841432
-0.12996906 -0.030521207 -0.26838651
-0.12996781 -0.030442111 -0.26834667
-0.12996656 -0.030363016 -0.26830685
-0.1299645 -0.03028553 -0.26828504
-0.12996225 -0.030207956 -0.26826721
-0.12996008 -0.030132381 -0.26824945
-0.12995832 -0.030055026 -0.26822165
-0.12995824 -0.029974494 -0.26815581
-0.12995997 -0.029890835 -0.26804993
-0.12995861 -0.029811697 -0.26801211
-0.12995663 -0.02973621 -0.26799035
-0.12995587 -0.02965733 -0.26794052
-0.1299556 -0.029576713 -0.26787868
-0.12995474 -0.029497791 -0.26783088
-0.12995477 -0.029417304 -0.26776302
-0.12995729 -0.029333992 -0.26764119
-0.12996307 -0.029246243 -0.26744729
-0.12996399 -0.029164191 -0.26735944
-0.12996331 -0.029087311 -0.26730967
-0.12996224 -0.029008303 -0.26726583
-0.1299706 -0.028917769 -0.26701593
-0.1299724 -0.028836107 -0.26691008
-0.12997153 -0.028757185 -0.26686227
-0.12997097 -0.028678395 -0.26680845
-0.12997724 -0.028590862 -0.26660457
-0.12998024 -0.028507764 -0.26647276
-0.12997876 -0.028430536 -0.26643896
-0.12997887 -0.028352048 -0.26637116
-0.12997878 -0.028273474 -0.26630735
-0.1299783 -0.028194726 -0.26625156
-0.12997773 -0.028115934 -0.26619774
-0.12997656 -0.028038837 -0.26615798
-0.12997627 -0.027960174 -0.26609817
-0.12997629 -0.027881643 -0.26603237
-0.1299742 -0.027806111 -0.26601261
-0.13001081 -0.027681004 -0.26514447
-0.13000724 -0.027608734 -0.26515871
-0.13000478 -0.027533028 -0.26514697
-0.13000369 -0.027455974 -0.26510516
-0.1300035 -0.027379312 -0.26504543
-0.13000409 -0.027301038 -0.26496765
-0.13008039 -0.027134653 -0.2632373
-0.13007879 -0.027059339 -0.26320755
-0.13007799 -0.026984368 -0.26316184
-0.13007718 -0.0269094 -0.26311609
-0.13007618 -0.026834344 -0.26307437
-0.13012005 -0.026708534 -0.26205432
-0.13027868 -0.02645698 -0.25853562
-0.13027386 -0.026390053 -0.25857997
-0.1302675 -0.026322432 -0.25865632
-0.13042222 -0.026012203 -0.25517017
-0.13041979 -0.025942404 -0.25516254
-0.13041686 -0.025874346 -0.25516692
-0.13049816 -0.025649317 -0.25328335
-0.1304969 -0.025580037 -0.25325173
-0.13049872 -0.025506238 -0.25315207
-0.13050044 -0.025434349 -0.25305647
-0.13050017 -0.02536355 -0.25300285
-0.13050395 -0.02528866 -0.25286123
-0.13051169 -0.025211591 -0.2526356
-0.13051587 -0.025136877 -0.25248599
-0.13051629 -0.025066379 -0.25241837
-0.13051581 -0.024997447 -0.2523708
-0.13051614 -0.024926908 -0.25230518
-0.13051586 -0.024858061 -0.25225362
-0.13051459 -0.024788784 -0.252222
-0.13051334 -0.024719507 -0.25219041
-0.13051257 -0.024650443 -0.25214881
-0.1305117 -0.024581339 -0.25210923
-0.13051026 -0.024511972 -0.2520816
-0.13050897 -0.024444651 -0.25205204
-0.1305083 -0.024375632 -0.25200847
-0.13050774 -0.024304701 -0.25196081
-0.13050756 -0.024235899 -0.25190726
-0.13050638 -0.024168618 -0.2518757
-0.13050492 -0.024099253 -0.25184807
-0.13050444 -0.024030322 -0.25180048
-0.13050358 -0.023961216 -0.2517609
-0.13050222 -0.023891896 -0.25173128
-0.13050154 -0.023824831 -0.25168973
-0.13050096 -0.023755856 -0.25164416
-0.13049999 -0.023686707 -0.25160655
-0.13049893 -0.023617515 -0.25157097
-0.13049765 -0.023550192 -0.25154141
-0.13049628 -0.023482826 -0.25151384
-0.13049434 -0.023413245 -0.2514962
-0.13049228 -0.023345575 -0.25148264
-0.13049071 -0.023278121 -0.25145906
-0.13048905 -0.023210624 -0.25143749
-0.13048679 -0.023142867 -0.25142789
-0.13048445 -0.023075067 -0.25142029
-0.13048267 -0.023007527 -0.25140071
-0.13048062 -0.022939857 -0.25138715
-0.13047837 -0.0228721 -0.25137755
-0.13047661 -0.02280456 -0.25135797
-0.13047522 -0.022737192 -0.25133041
-0.13047308 -0.022669479 -0.25131881
-0.13047004 -0.022601377 -0.25132519
-0.1304667 -0.022535099 -0.25133964
-0.13046326 -0.022468777 -0.25135607
-0.13046032 -0.022400718 -0.25136045
-0.13045777 -0.02233283 -0.25135684
-0.13045482 -0.022266725 -0.25136328
-0.13045108 -0.022200275 -0.25138569
-0.13044745 -0.022133866 -0.2514061
-0.13044442 -0.022065762 -0.25141248
-0.13044168 -0.021997791 -0.25141287
-0.13043873 -0.021931686 -0.25141931
-0.13043511 -0.021863323 -0.25143769
-0.13043225 -0.02179726 -0.25144213
-0.13042991 -0.021729462 -0.25143453
-0.13042697 -0.021661401 -0.25143892
-0.13042381 -0.02159521 -0.25144935
-0.1304206 -0.02152702 -0.25145975
-0.13041696 -0.021460611 -0.25148016
-0.13041313 -0.021394119 -0.25150454
-0.13041 -0.021325972 -0.25151294
-0.13040784 -0.021258259 -0.25150135
-0.13040479 -0.021192109 -0.25150979
-0.13040106 -0.021125659 -0.2515322
-0.13039783 -0.021057468 -0.25154257
-0.13039507 -0.02099145 -0.25154501
-0.13039213 -0.020923391 -0.25154942
-0.13038909 -0.020855287 -0.2515558
-0.13038644 -0.020789312 -0.25155625
-0.1303837 -0.020721339 -0.25155663
-0.13038135 -0.02065354 -0.25154904
-0.1303792 -0.020585828 -0.25153744
-0.13037615 -0.020519678 -0.25154591
-0.13037224 -0.020451186 -0.25157025
-0.13036889 -0.020384908 -0.25158468
-0.13036557 -0.020316675 -0.25159705
-0.13036251 -0.020250527 -0.25160548
-0.13035977 -0.020182554 -0.25160587
-0.13035762 -0.020114839 -0.25159431
-0.13035546 -0.020047126 -0.25158268
-0.1303526 -0.019981064 -0.25158715
-0.13034968 -0.019913005 -0.25159153
-0.13034675 -0.019844946 -0.25159591
-0.13034388 -0.019778883 -0.25160035
-0.13034172 -0.01971117 -0.25158876
-0.13033958 -0.019643458 -0.2515772
-0.13033684 -0.019575484 -0.25157759
-0.13033409 -0.019507511 -0.25157797
-0.13033143 -0.019441536 -0.25157842
-0.13032889 -0.01937365 -0.25157481
-0.13032615 -0.019305676 -0.25157523
-0.13032292 -0.019237487 -0.2515856
-0.13032036 -0.019171555 -0.25158405
-0.13031791 -0.019103711 -0.25157845
-0.13031536 -0.019035826 -0.25157484
-0.13031261 -0.018969808 -0.25157729
-0.13030986 -0.018901834 -0.25157768
-0.13030751 -0.018834034 -0.25157008
-0.13030536 -0.018766321 -0.25155848
-0.13030308 -0.01870052 -0.25155094
-0.13030025 -0.018632503 -0.25155336
-0.13029742 -0.018564485 -0.25155574
-0.13029477 -0.018496556 -0.25155413
-0.13029259 -0.018430797 -0.25154459
-0.13029054 -0.018363127 -0.251531
-0.13028771 -0.018295111 -0.25153339
-0.13028516 -0.018227225 -0.25152981
-0.13028328 -0.018161595 -0.25151426
-0.13028103 -0.018093839 -0.25150469
-0.13027829 -0.018025866 -0.25150508
-0.13027582 -0.017959978 -0.25150153
-0.13027328 -0.017892091 -0.25149792
-0.13027054 -0.017824119 -0.25149831
-0.13026807 -0.01775823 -0.25149477
-0.13026612 -0.017690603 -0.25147921
-0.13026366 -0.01762276 -0.25147361
-0.13026102 -0.017554831 -0.251472
-0.13025886 -0.017487116 -0.2514604
-0.13025679 -0.0174214 -0.25144887
-0.13025396 -0.017353386 -0.25145125
-0.13025111 -0.017285369 -0.25145364
-0.13024886 -0.017217612 -0.25144407
-0.13024707 -0.017152026 -0.25142652
-0.13024493 -0.017084314 -0.25141495
-0.13024208 -0.017016297 -0.25141734
-0.13023952 -0.016950365 -0.25141579
-0.13023737 -0.016882651 -0.2514042
-0.1302354 -0.016815025 -0.25138861
-0.13023333 -0.016749309 -0.25137708
-0.13023049 -0.016681293 -0.25137946
-0.13022746 -0.016613191 -0.25138587
-0.13022541 -0.016545519 -0.25137228
-0.13022323 -0.01647976 -0.25136271
-0.1302204 -0.016411744 -0.25136513
-0.13021716 -0.016343556 -0.2513755
-0.13021421 -0.016277451 -0.25138193
-0.13021186 -0.016209651 -0.25137433
-0.13020971 -0.016141938 -0.25136274
-0.13020754 -0.016076179 -0.2513532
-0.13020538 -0.016008465 -0.25134161
-0.13020301 -0.01594262 -0.25133607
-0.13020027 -0.015874647 -0.25133646
-0.13019714 -0.0158065 -0.25134486
-0.13019431 -0.015738484 -0.25134724
-0.13019203 -0.015672682 -0.2513397
-0.13018958 -0.015604839 -0.2513341
-0.13018665 -0.01553678 -0.25133848
-0.13018292 -0.015470328 -0.25136089
-0.1301793 -0.015401965 -0.25137928
-0.13017626 -0.015333863 -0.25138566
-0.13017313 -0.015265716 -0.25139403
-0.1301702 -0.015197657 -0.25139844
-0.13016735 -0.015131595 -0.25140285
-0.13016392 -0.015063319 -0.25141725
-0.1301609 -0.014995215 -0.25142366
-0.13015774 -0.014929025 -0.25143406
-0.1301548 -0.014860964 -0.25143847
-0.13015217 -0.014793035 -0.25143686
-0.13014893 -0.014724845 -0.25144723
-0.13014552 -0.014656569 -0.25146163
-0.13014188 -0.014590161 -0.25148201
-0.13013721 -0.014519367 -0.25152031
-0.13013288 -0.014452657 -0.25155473
-0.13012908 -0.014384207 -0.25157708
-0.13012585 -0.014316018 -0.25158745
-0.13012263 -0.014247828 -0.25159782
-0.13011824 -0.014179119 -0.25163218
-0.13011393 -0.014110453 -0.25166455
-0.13010934 -0.014041658 -0.25170287
-0.13010427 -0.013970691 -0.25174916
-0.13010007 -0.013902068 -0.25177953
-0.13009587 -0.013833446 -0.25180987
-0.13009255 -0.013765213 -0.25182223
-0.13008921 -0.013698936 -0.25183666
-0.13008425 -0.013628012 -0.25188094
-0.13007878 -0.013558826 -0.25193727
-0.13007343 -0.01348773 -0.25198954
-0.13006708 -0.013418155 -0.25206384
-0.13006133 -0.013346885 -0.2521241
-0.13005579 -0.013275702 -0.25218037
-0.13004993 -0.013206343 -0.25224468
-0.13004507 -0.013135463 -0.25228697
-0.13004106 -0.013066927 -0.25231332
-0.13003647 -0.012998132 -0.25235167
-0.13003044 -0.012926732 -0.25241792
-0.1300243 -0.01285529 -0.25248617
-0.1300173 -0.012783457 -0.25257239
-0.13001107 -0.01271197 -0.25264263
-0.13000301 -0.012637706 -0.25274879
-0.12999775 -0.012566654 -0.25279906
-0.12999181 -0.012495298 -0.25286335
-0.1299846 -0.012423378 -0.25295356
-0.12997828 -0.012351848 -0.2530258
-0.12996973 -0.012277368 -0.25314194
-0.12996079 -0.012202716 -0.25326604
-0.12995146 -0.012127889 -0.25339818
-0.12994623 -0.012054881 -0.2534464
-0.1291468 -0.0089785401 -0.26755291
-0.12914538 -0.0089052655 -0.26752123
-0.12914117 -0.0088287815 -0.2675454
-0.12913463 -0.0087493034 -0.26761544
-0.12912752 -0.0086676115 -0.26769546
-0.12912293 -0.0085889995 -0.26772559
-0.12911899 -0.0085126441 -0.26774377
-0.12911016 -0.0084282178 -0.26785767
-0.12909986 -0.0083431425 -0.26800153
-0.12909016 -0.0082563721 -0.26813135
-0.1290762 -0.0081657423 -0.26834702
-0.12906994 -0.0080863945 -0.2684111
-0.12906738 -0.0080106463 -0.26840132
-0.12906481 -0.0079348972 -0.26839155
-0.12906186 -0.0078589758 -0.26838973
-0.12905826 -0.0077807968 -0.26839989
-0.12905462 -0.0077045718 -0.26841208
-0.12905176 -0.0076286942 -0.2684083
-0.12904862 -0.0075526852 -0.2684105
-0.12904431 -0.0074742045 -0.26843461
-0.12903991 -0.0073956782 -0.26846075
-0.12903608 -0.0073193666 -0.26847693
-0.12903228 -0.0072411001 -0.26849106
-0.12902874 -0.0071649197 -0.26850128
-0.1290251 -0.0070886947 -0.26851344
-0.12902158 -0.0070105596 -0.26852161
-0.12901814 -0.0069344211 -0.2685298
-0.12901413 -0.0068560699 -0.26854792
-0.12900992 -0.0067795841 -0.26857209
-0.12900612 -0.0067013185 -0.26858625
-0.1290023 -0.0066230521 -0.26860037
-0.12899886 -0.0065469146 -0.26860857
-0.12899591 -0.0064709941 -0.26860678
-0.12899305 -0.0063951146 -0.268603
-0.12898973 -0.0063170651 -0.26860717
-0.1289859 -0.0062407553 -0.26862335
-0.12898074 -0.0061599277 -0.26866341
-0.12897451 -0.0060786251 -0.26872543
-0.12896954 -0.0059998399 -0.26876354
-0.12896515 -0.0059193596 -0.26878759
-0.12896048 -0.0058407048 -0.26881972
-0.12895358 -0.0057571456 -0.26889369
-0.12894735 -0.0056758411 -0.26895571
-0.1289424 -0.005595102 -0.26899177
-0.12893829 -0.005516706 -0.26901191
-0.12893495 -0.0054406114 -0.26901811
-0.12893105 -0.0053623021 -0.26903424
-0.12892753 -0.005284166 -0.26904237
-0.12892437 -0.0052081579 -0.26904458
-0.12892105 -0.0051301094 -0.26904875
-0.1289178 -0.0050540576 -0.26905295
-0.12891476 -0.0049780924 -0.26905316
-0.12891182 -0.0049002171 -0.26904932
-0.12890925 -0.0048264228 -0.2690416
-0.1289065 -0.0047486331 -0.26903376
-0.12890345 -0.0046726679 -0.26903397
-0.1289003 -0.0045966599 -0.26903617
-0.12889744 -0.0045207823 -0.26903239
-0.12889479 -0.0044449903 -0.26902461
-0.12889166 -0.0043670284 -0.26902476
-0.12888841 -0.0042909756 -0.26902896
-0.12888555 -0.004215098 -0.26902518
-0.12888309 -0.0041393936 -0.2690134
-0.12888023 -0.004063515 -0.26900962
-0.12887721 -0.003985595 -0.26900777
-0.12887426 -0.0039096735 -0.26900598
-0.12887082 -0.0038335361 -0.26901418
-0.12886769 -0.0037555732 -0.26901436
-0.12886493 -0.0036797384 -0.26900855
-0.12886187 -0.0036037732 -0.26900876
-0.12885846 -0.0035256799 -0.26901492
-0.1288553 -0.0034496728 -0.2690171
-0.12885237 -0.0033717966 -0.26901329
-0.12884989 -0.0032980461 -0.26900357
-0.12884696 -0.0032201698 -0.26899973
-0.1288439 -0.0031442055 -0.26899993
-0.12884095 -0.0030682832 -0.26899815
-0.12883782 -0.0029903213 -0.2689983
-0.12883449 -0.0029142257 -0.26900449
-0.12883145 -0.0028363056 -0.26900265
-0.12882888 -0.0027605584 -0.26899287
-0.12882555 -0.0026844637 -0.26899907
-0.12882203 -0.0026063286 -0.26900721
-0.12881966 -0.0025306661 -0.26899347
-0.12881739 -0.0024550473 -0.2689777
-0.12881464 -0.0023792125 -0.26897192
-0.12881224 -0.0023055058 -0.26896018
-0.12880921 -0.0022275858 -0.26895833
-0.1288055 -0.002149363 -0.26897049
-0.12880225 -0.0020733131 -0.26897466
-0.12879959 -0.0019975202 -0.26896691
-0.12879655 -0.001921556 -0.26896709
-0.12879331 -0.0018435493 -0.26896927
-0.12879075 -0.0017678011 -0.26895949
-0.1287881 -0.0016920082 -0.26895171
-0.12878478 -0.0016139597 -0.26895586
-0.12878133 -0.0015378222 -0.26896405
-0.1287782 -0.0014598593 -0.26896423
-0.12877545 -0.0013840254 -0.26895842
-0.12877221 -0.0013060179 -0.2689606
-0.12876907 -0.0012300108 -0.2689628
-0.1287667 -0.0011543483 -0.26894903
-0.12876414 -0.0010786001 -0.26893926
-0.12876099 -0.0010025911 -0.26894146
-0.12875767 -0.00092454441 -0.2689456
-0.12875481 -0.00084866397 -0.26894182
-0.12875159 -0.00077065825 -0.26894397
-0.12874864 -0.00069473684 -0.26894218
-0.12874588 -0.00061890297 -0.2689364
-0.12874313 -0.00054306723 -0.26893061
-0.12874016 -0.00046714582 -0.26892883
-0.12873684 -0.00038909726 -0.26893297
-0.12873389 -0.00031317584 -0.26893118
-0.12873094 -0.00023725443 -0.26892939
-0.12872781 -0.00015928969 -0.26892954
-0.12872505 -8.3455816e-05 -0.26892376
-0.1287223 -7.621944e-06 -0.26891798
-0.12871917 7.0340931e-05 -0.26891816
-0.12871592 0.00014639273 -0.26892236
-0.12871251 0.00022448599 -0.2689285
-0.12870938 0.00030244887 -0.26892865
-0.12870651 0.00037832744 -0.26892489
-0.12870346 0.0004542917 -0.26892507
-0.12870061 0.00053017028 -0.26892132
-0.12869777 0.00060800277 -0.26891547
-0.12869492 0.00068388134 -0.26891166
-0.12869217 0.00075971521 -0.26890588
-0.12868969 0.00083542056 -0.26889414
-0.12868655 0.00091142952 -0.26889631
-0.12868266 0.00099169277 -0.26891041
-0.1286796 0.001067657 -0.26891062
-0.12867714 0.0011433642 -0.26889884
-0.12867458 0.0012191124 -0.26888907
-0.12867153 0.0012950767 -0.26888928
-0.1286682 0.0013731252 -0.26889342
-0.12866469 0.0014512613 -0.26890159
-0.12866147 0.0015292671 -0.26890373
-0.12865937 0.0016028434 -0.26888603
-0.12865691 0.0016785488 -0.26887423
-0.12865348 0.0017566402 -0.2688804
-0.12864901 0.001837166 -0.26890647
-0.12864549 0.0019153021 -0.26891461
-0.12864359 0.0019887909 -0.26889291
-0.1286412 0.0020624995 -0.26888117
-0.12863798 0.0021405071 -0.26888335
-0.12863512 0.002216382 -0.26887953
-0.1286321 0.002294302 -0.26887771
-0.12862885 0.0023703538 -0.26888192
-0.12862581 0.0024482738 -0.26888007
-0.12862296 0.0025241524 -0.26887628
-0.12861991 0.0026001167 -0.26887649
-0.12861688 0.0026780348 -0.26887465
-0.12861413 0.0027538706 -0.26886886
-0.12861127 0.0028297491 -0.26886508
-0.12860803 0.0029077567 -0.26886725
-0.12860499 0.002983721 -0.26886743
-0.12860186 0.003061682 -0.26886761
-0.128599 0.0031375606 -0.26886383
-0.12859625 0.0032133963 -0.26885805
-0.12859349 0.0032892302 -0.26885223
-0.12859063 0.0033651087 -0.26884848
-0.1285879 0.0034428984 -0.26884064
-0.12858523 0.0035186894 -0.26883286
-0.12858228 0.0035946108 -0.26883107
-0.12857857 0.0036728345 -0.2688432
-0.12857534 0.0037508421 -0.26884538
-0.12857258 0.0038266759 -0.2688396
-0.12856954 0.0039026402 -0.26883978
-0.12856641 0.0039806031 -0.26883996
-0.12856375 0.0040563941 -0.26883218
-0.12856099 0.004132228 -0.26882637
-0.12855747 0.0042103659 -0.26883453
-0.12855385 0.0042885449 -0.26884466
-0.1285511 0.0043643788 -0.26883888
-0.12854844 0.0044401716 -0.2688311
-0.12854531 0.0045181327 -0.26883125
-0.12854226 0.0045940988 -0.26883149
-0.12853923 0.0046720188 -0.26882964
-0.12853628 0.0047479402 -0.26882786
-0.12853315 0.0048259031 -0.268828
-0.12852991 0.004901953 -0.26883221
-0.1285264 0.0049820449 -0.26883832
-0.12852365 0.0050578807 -0.26883253
-0.12852135 0.0051315427 -0.2688188
-0.1285186 0.0052073766 -0.26881301
-0.12851557 0.0052852966 -0.2688112
-0.12851232 0.0053613503 -0.2688154
-0.128509 0.0054393969 -0.26881954
-0.12850577 0.0055174045 -0.26882172
-0.12850311 0.0055931956 -0.26881391
-0.12850036 0.0056690313 -0.26880813
-0.12849712 0.005747037 -0.26881027
-0.12849417 0.0058229584 -0.26880848
-0.12849122 0.0058988798 -0.2688067
-0.12848829 0.005976757 -0.26880288
-0.12848553 0.006052589 -0.2687971
-0.12848239 0.006128598 -0.2687993
-0.12847953 0.0062044784 -0.26879549
-0.1284764 0.0062824395 -0.26879567
-0.12847307 0.0063604899 -0.26879984
-0.12847032 0.0064363256 -0.26879403
-0.12846813 0.0065099429 -0.26877832
-0.128465 0.0065879077 -0.2687785
-0.12846175 0.0066639576 -0.26878268
-0.12845843 0.006742008 -0.26878685
-0.12845521 0.0068200156 -0.26878899
-0.12845245 0.0068958476 -0.26878321
-0.12844989 0.0069715958 -0.26877344
-0.12844674 0.0070476066 -0.26877564
-0.1284437 0.0071255267 -0.26877379
-0.12844065 0.0072014909 -0.268774
-0.12843734 0.0072795413 -0.26877815
-0.12843478 0.0073552877 -0.26876837
-0.12843211 0.0074310787 -0.26876059
-0.12842925 0.0075069573 -0.26875681
-0.1284263 0.0075828787 -0.26875502
-0.12842347 0.0076607112 -0.26874918
-0.12842061 0.0077365916 -0.26874542
-0.12841755 0.0078125559 -0.2687456
-0.12841433 0.0078905616 -0.26874778
-0.12841158 0.0079663955 -0.26874197
-0.12840872 0.008042274 -0.26873821
-0.1284055 0.0081202798 -0.26874036
-0.12840244 0.0081962459 -0.26874056
-0.12839903 0.0082743373 -0.2687467
-0.1283958 0.008352343 -0.26874888
-0.12839267 0.0084303059 -0.26874903
-0.12838896 0.0085085295 -0.26876116
-0.13030152 -0.040309053 -0.26965612
-0.13029897 -0.040231347 -0.26964429
-0.13029642 -0.040153645 -0.26963246
-0.13029338 -0.040077683 -0.2696327
-0.13029034 -0.039999761 -0.26963085
-0.13028727 -0.039925754 -0.26963308
-0.13028403 -0.039849702 -0.26963729
-0.13028079 -0.03977365 -0.26964152
-0.13027743 -0.03969951 -0.26964974
-0.13027449 -0.039621636 -0.2696459
-0.13027194 -0.03954393 -0.26963407
-0.13026911 -0.039466098 -0.26962826
-0.13026625 -0.039390221 -0.26962447
-0.13026318 -0.039316207 -0.26962674
-0.13026015 -0.039238289 -0.26962489
-0.1302574 -0.039162457 -0.26961911
-0.13025405 -0.03908636 -0.26962531
-0.1302503 -0.039012048 -0.26964152
-0.13024725 -0.038936082 -0.26964173
-0.13024451 -0.038858294 -0.26963389
-0.13024184 -0.038782503 -0.26962611
-0.13023901 -0.038704671 -0.2696203
-0.13023627 -0.038626879 -0.26961246
-0.13023342 -0.038551003 -0.26960868
-0.13022998 -0.038474862 -0.26961687
-0.13022652 -0.03840068 -0.26962709
-0.13022347 -0.038324714 -0.26962733
-0.13022041 -0.038248751 -0.26962751
-0.13021766 -0.038172916 -0.26962173
-0.13021463 -0.038094997 -0.26961991
-0.13021147 -0.038018987 -0.26962212
-0.13020843 -0.03794302 -0.26962233
-0.13020566 -0.037867188 -0.26961654
-0.13020283 -0.037789356 -0.2696107
-0.13019997 -0.037713476 -0.26960692
-0.13019693 -0.037637513 -0.26960713
-0.13019358 -0.037561417 -0.26961333
-0.13019094 -0.03748367 -0.26960349
-0.1301882 -0.037405882 -0.26959568
-0.13018505 -0.037329875 -0.26959789
-0.1301823 -0.037254039 -0.26959211
-0.13017927 -0.037176117 -0.26959026
-0.1301759 -0.037101977 -0.26959848
-0.13017276 -0.037025973 -0.26960069
-0.13016982 -0.036948096 -0.26959687
-0.13016677 -0.03687213 -0.26959708
-0.13016352 -0.036796078 -0.26960129
-0.13016047 -0.036720112 -0.26960146
-0.13015771 -0.03664428 -0.26959571
-0.13015477 -0.036566403 -0.26959187
-0.13015173 -0.03649044 -0.26959208
-0.13014849 -0.036414389 -0.26959628
-0.13014524 -0.036338337 -0.26960048
-0.13014279 -0.036260672 -0.26958665
-0.13014054 -0.0361831 -0.26956886
-0.13013761 -0.03610523 -0.26956502
-0.13013415 -0.036031045 -0.26957524
-0.1301306 -0.035954863 -0.26958543
-0.13012795 -0.035879068 -0.26957768
-0.13012491 -0.03580115 -0.26957583
-0.13012145 -0.035726964 -0.26958606
-0.1301184 -0.035651002 -0.26958627
-0.13011557 -0.03557317 -0.26958045
-0.13011302 -0.035495467 -0.26956862
-0.13011007 -0.035419546 -0.26956683
-0.13010702 -0.03534358 -0.26956704
-0.13010368 -0.035267487 -0.26957324
-0.13010015 -0.035191305 -0.2695834
-0.1300969 -0.035115253 -0.26958764
-0.13009414 -0.035039417 -0.26958185
-0.13009098 -0.03496341 -0.26958406
-0.13008785 -0.034885447 -0.26958421
-0.13008602 -0.034806095 -0.26955634
-0.13008869 -0.034716956 -0.26942638
-0.13009225 -0.03462626 -0.26927638
-0.13009159 -0.034545466 -0.2692225
-0.13008966 -0.034466073 -0.26919666
-0.13008851 -0.034385063 -0.26915279
-0.13008738 -0.034304056 -0.26910892
-0.13008632 -0.03422505 -0.26906508
-0.13008477 -0.034145825 -0.26903126
-0.13008292 -0.034066468 -0.26900342
-0.13008118 -0.033987161 -0.26897359
-0.13007903 -0.03390963 -0.26895377
-0.13007657 -0.033831969 -0.26893994
-0.13007413 -0.033754312 -0.26892614
-0.13007139 -0.03367652 -0.26891831
-0.13006863 -0.033600688 -0.26891249
-0.13006629 -0.033523068 -0.2688967
-0.13006385 -0.03344541 -0.26888287
-0.13006069 -0.033369403 -0.26888508
-0.13005774 -0.033293482 -0.26888329
-0.13005488 -0.033217601 -0.2688795
-0.13005193 -0.03314168 -0.26887771
-0.13004898 -0.033065759 -0.26887593
-0.13004544 -0.032989576 -0.26888612
-0.13004208 -0.032915436 -0.26889437
-0.13003914 -0.032837562 -0.26889053
-0.13003638 -0.032761727 -0.26888475
-0.13003343 -0.032685805 -0.26888296
-0.13003027 -0.032609798 -0.26888514
-0.13002694 -0.032533702 -0.26889136
-0.13002338 -0.032459475 -0.26890358
-0.13001993 -0.032383338 -0.26891178
-0.13001749 -0.03230568 -0.26889795
-0.13001512 -0.032230016 -0.26888418
-0.13001209 -0.032152098 -0.26888236
-0.13000934 -0.032076262 -0.26887655
-0.13000709 -0.03199869 -0.26885876
-0.13000573 -0.03191955 -0.26882094
-0.13000318 -0.031841848 -0.26880911
-0.12999953 -0.031767577 -0.26882333
-0.12999609 -0.031691439 -0.26883155
-0.12999292 -0.031617384 -0.26883578
-0.12998979 -0.031539425 -0.26883596
-0.12998742 -0.031463765 -0.26882216
-0.1299852 -0.031384233 -0.26880231
-0.12998323 -0.031306792 -0.2687785
-0.12998128 -0.031229349 -0.26875469
-0.12997931 -0.031151906 -0.26873088
-0.12997736 -0.031074461 -0.2687071
-0.12997541 -0.030997019 -0.26868328
-0.12997437 -0.030916056 -0.26863742
-0.12997557 -0.030834133 -0.26854357
-0.12997572 -0.030751735 -0.26847169
-0.12997454 -0.030674638 -0.2684319
-0.1299722 -0.03059702 -0.26841611
-0.12997043 -0.030519666 -0.2683883
-0.12996918 -0.030440569 -0.26834846
-0.12996793 -0.030361475 -0.26830864
-0.12996596 -0.030284032 -0.26828483
-0.12996362 -0.030206416 -0.268269
-0.12996145 -0.030130841 -0.26825124
-0.12995978 -0.030053526 -0.26822144
-0.12995961 -0.029972954 -0.2681576
-0.12996134 -0.029889293 -0.26805171
-0.12996009 -0.029810198 -0.2680119
-0.12995811 -0.02973471 -0.26799011
-0.12995724 -0.029655788 -0.26794231
-0.12995708 -0.029575214 -0.26787847
-0.12995611 -0.029496249 -0.26783264
-0.12995614 -0.029415764 -0.26776481
-0.12995864 -0.029332448 -0.26764297
-0.12996443 -0.029244699 -0.26744908
-0.12996545 -0.02916269 -0.2673592
-0.12996466 -0.029085767 -0.26731145
-0.12996361 -0.029006759 -0.26726761
-0.12997206 -0.02891627 -0.2670157
-0.12997387 -0.028834607 -0.2669099
-0.1299729 -0.028755642 -0.26686406
-0.12997232 -0.028676849 -0.26681024
-0.1299787 -0.02858936 -0.26660436
-0.12998159 -0.028506219 -0.26647455
-0.12998012 -0.028428992 -0.26644075
-0.12998033 -0.028350547 -0.26637095
-0.12998015 -0.028271928 -0.26630914
-0.12997976 -0.028193222 -0.26625136
-0.12997919 -0.028114431 -0.26619753
-0.12997802 -0.028037334 -0.26615775
-0.12997763 -0.027958628 -0.26609996
-0.12997772 -0.027882095 -0.26603422
-0.12997566 -0.027804608 -0.2660124
-0.13001229 -0.027679499 -0.26514423
-0.1300087 -0.027607229 -0.26515853
-0.13000613 -0.02753148 -0.26514876
-0.13000514 -0.027456425 -0.26510701
-0.13000496 -0.027377807 -0.26504523
-0.13000555 -0.027299533 -0.26496744
-0.13008176 -0.027133102 -0.26323909
-0.13008027 -0.02705783 -0.26320735
-0.13007936 -0.026982818 -0.26316363
-0.13007855 -0.026907848 -0.26311788
-0.13007765 -0.026832836 -0.26307416
-0.13012141 -0.026706979 -0.26205611
-0.13028005 -0.026455417 -0.25853741
-0.13027534 -0.026388535 -0.25857979
-0.13026898 -0.026320916 -0.25865611
-0.13027133 -0.02624342 -0.25854239
-0.13042361 -0.026010634 -0.25517198
-0.13042128 -0.02594088 -0.25516233
-0.13041835 -0.025872819 -0.25516674
-0.13049974 -0.02564783 -0.25328115
-0.13049838 -0.025578508 -0.25325155
-0.13050021 -0.025504706 -0.25315189
-0.13050191 -0.025432818 -0.25305629
-0.13050175 -0.025362061 -0.25300068
-0.13050544 -0.025287129 -0.25286102
-0.13051328 -0.025210105 -0.25263339
-0.13051745 -0.025135389 -0.25248379
-0.13051778 -0.025064848 -0.25241819
-0.1305173 -0.024995916 -0.2523706
-0.13051762 -0.024925375 -0.252305
-0.13051733 -0.02485653 -0.25225341
-0.13051617 -0.024787296 -0.2522198
-0.13051483 -0.024717974 -0.2521902
-0.13051406 -0.024648912 -0.2521486
-0.13051309 -0.024579763 -0.25211102
-0.13051164 -0.024510399 -0.25208342
-0.13051045 -0.024443118 -0.25205183
-0.13050978 -0.024374099 -0.25200826
-0.13050923 -0.024303168 -0.25196064
-0.13050903 -0.024234366 -0.25190705
-0.13050786 -0.024167087 -0.25187549
-0.13050641 -0.024097722 -0.25184786
-0.13050593 -0.024028789 -0.2518003
-0.13050506 -0.023959685 -0.25176069
-0.13050379 -0.023892362 -0.25173116
-0.13050301 -0.023823299 -0.25168955
-0.13050243 -0.023754323 -0.25164396
-0.13050148 -0.023685174 -0.25160637
-0.13050032 -0.02361594 -0.25157276
-0.13049904 -0.023548616 -0.25154319
-0.13049775 -0.023481291 -0.25151363
-0.13049582 -0.02341171 -0.25149602
-0.13049376 -0.02334404 -0.25148243
-0.1304922 -0.023276586 -0.25145885
-0.13049053 -0.023209091 -0.25143728
-0.13048817 -0.023141291 -0.25142968
-0.13048592 -0.023073534 -0.25142011
-0.13048415 -0.023005994 -0.25140053
-0.13048209 -0.022938322 -0.25138694
-0.13047975 -0.022870524 -0.25137934
-0.13047808 -0.022803027 -0.25135779
-0.1304767 -0.022735659 -0.25133023
-0.13047445 -0.022667903 -0.25132063
-0.13047151 -0.022599842 -0.25132501
-0.13046817 -0.022533566 -0.25133944
-0.13046473 -0.022467244 -0.25135586
-0.1304618 -0.022399183 -0.25136024
-0.13045925 -0.022331297 -0.25135666
-0.13045619 -0.022265149 -0.25136507
-0.13045247 -0.022198698 -0.25138748
-0.13044883 -0.022132291 -0.25140792
-0.13044579 -0.022064187 -0.2514143
-0.13044316 -0.021996258 -0.25141269
-0.13044019 -0.021930153 -0.25141913
-0.13043658 -0.02186179 -0.25143749
-0.13043372 -0.021795727 -0.25144196
-0.13043137 -0.021727929 -0.25143433
-0.13042843 -0.02165987 -0.25143874
-0.13042529 -0.021593677 -0.25144917
-0.13042206 -0.021525487 -0.25145954
-0.13041842 -0.02145908 -0.25147995
-0.1304145 -0.021392541 -0.25150636
-0.13041146 -0.021324439 -0.25151277
-0.13040921 -0.021256682 -0.25150317
-0.13040626 -0.021190576 -0.25150961
-0.13040252 -0.021124126 -0.25153202
-0.1303992 -0.021055892 -0.25154439
-0.13039653 -0.020989917 -0.25154483
-0.13039359 -0.020921858 -0.25154921
-0.13039047 -0.020853711 -0.25155759
-0.1303879 -0.020787781 -0.25155604
-0.13038516 -0.020719808 -0.25155646
-0.13038281 -0.020652007 -0.25154886
-0.13038066 -0.020584295 -0.25153726
-0.1303775 -0.020518102 -0.25154769
-0.1303736 -0.02044961 -0.25157207
-0.13037026 -0.020383332 -0.25158647
-0.13036703 -0.020315142 -0.25159687
-0.13036388 -0.020248951 -0.2516073
-0.13036114 -0.020180978 -0.25160769
-0.13035908 -0.020113308 -0.2515941
-0.13035683 -0.020045551 -0.2515845
-0.13035397 -0.01997949 -0.25158894
-0.13035113 -0.019911474 -0.25159132
-0.1303481 -0.01984337 -0.25159773
-0.13034524 -0.019777309 -0.25160217
-0.13034318 -0.019709639 -0.25158858
-0.13034102 -0.019641925 -0.25157699
-0.1303383 -0.019573953 -0.25157738
-0.13033555 -0.019505979 -0.25157779
-0.1303328 -0.01943996 -0.25158024
-0.13033025 -0.019372074 -0.25157663
-0.13032751 -0.0193041 -0.25157702
-0.13032438 -0.019235956 -0.25158542
-0.13032171 -0.019169979 -0.25158584
-0.13031927 -0.019102138 -0.25158024
-0.13031672 -0.01903425 -0.25157666
-0.13031405 -0.018968275 -0.25157711
-0.13031133 -0.018900301 -0.2515775
-0.13030897 -0.018832501 -0.2515699
-0.13030681 -0.018764788 -0.2515583
-0.13030455 -0.018698987 -0.25155076
-0.1303017 -0.01863097 -0.25155315
-0.13029887 -0.018562954 -0.25155556
-0.1302962 -0.018496979 -0.25155601
-0.13029395 -0.018429223 -0.25154641
-0.13029189 -0.018361552 -0.25153282
-0.13028906 -0.018293535 -0.25153521
-0.13028651 -0.018225649 -0.2515316
-0.13028464 -0.018160021 -0.25151607
-0.13028237 -0.018092263 -0.25150651
-0.13027973 -0.018024335 -0.2515049
-0.13027717 -0.017958403 -0.25150335
-0.13027473 -0.01789056 -0.25149775
-0.13027188 -0.017822543 -0.25150013
-0.13026951 -0.017756697 -0.25149459
-0.13026746 -0.017689027 -0.251481
-0.1302651 -0.017621228 -0.25147343
-0.13026246 -0.017553298 -0.25147182
-0.1302603 -0.017485585 -0.25146022
-0.13025814 -0.017419826 -0.25145066
-0.1302554 -0.017351853 -0.25145108
-0.13025256 -0.017283836 -0.25145346
-0.13025022 -0.017216036 -0.25144586
-0.13024852 -0.017150495 -0.25142634
-0.13024627 -0.017082738 -0.25141674
-0.13024352 -0.017014764 -0.25141716
-0.13024096 -0.016948832 -0.25141561
-0.13023871 -0.016881077 -0.25140601
-0.13023685 -0.016813492 -0.25138843
-0.13023478 -0.016747778 -0.25137687
-0.13023184 -0.016679717 -0.25138128
-0.1302288 -0.016611615 -0.25138766
-0.13022675 -0.016543945 -0.25137407
-0.13022467 -0.016478229 -0.25136253
-0.13022174 -0.01641017 -0.25136691
-0.13021861 -0.016342023 -0.25137532
-0.13021556 -0.016275875 -0.25138375
-0.13021331 -0.01620812 -0.25137416
-0.13021114 -0.016140405 -0.25136256
-0.13020897 -0.016074646 -0.25135303
-0.13020681 -0.016006934 -0.25134143
-0.13020444 -0.015941089 -0.25133589
-0.13020161 -0.015873073 -0.2513383
-0.13019848 -0.015804926 -0.25134668
-0.13019565 -0.01573691 -0.25134906
-0.13019337 -0.015671108 -0.25134152
-0.13019092 -0.015603264 -0.25133592
-0.13018799 -0.015535205 -0.25134033
-0.13018435 -0.015468797 -0.25136071
-0.13018073 -0.015400434 -0.2513791
-0.1301776 -0.015332287 -0.25138748
-0.13017458 -0.015264185 -0.25139385
-0.13017164 -0.015196125 -0.25139827
-0.13016868 -0.015130021 -0.2514047
-0.13016526 -0.015061744 -0.25141907
-0.13016222 -0.014993642 -0.25142545
-0.13015908 -0.01492745 -0.25143588
-0.13015623 -0.014859433 -0.25143826
-0.13015349 -0.014791461 -0.25143868
-0.13015036 -0.014723314 -0.25144705
-0.13014695 -0.014655038 -0.25146145
-0.13014321 -0.014588587 -0.25148386
-0.13013864 -0.014517836 -0.25152016
-0.13013431 -0.014451126 -0.25155455
-0.13013051 -0.014382676 -0.2515769
-0.13012728 -0.014314487 -0.25158727
-0.13012396 -0.014246254 -0.25159967
-0.13011965 -0.014177589 -0.251632
-0.13011536 -0.014108922 -0.25166434
-0.13011077 -0.014040127 -0.2517027
-0.1301056 -0.013969118 -0.25175098
-0.1301015 -0.013900538 -0.25177932
-0.1300972 -0.013831872 -0.25181168
-0.13009387 -0.01376364 -0.25182405
-0.13009062 -0.013697404 -0.25183648
-0.13008566 -0.013626482 -0.25188076
-0.13008019 -0.013557296 -0.25193709
-0.13007484 -0.0134862 -0.25198936
-0.13006832 -0.013414584 -0.2520656
-0.13006276 -0.013345355 -0.25212392
-0.13005722 -0.013274172 -0.25218019
-0.13005134 -0.013204814 -0.2522445
-0.13004638 -0.013133891 -0.25228879
-0.13004248 -0.013065399 -0.25231314
-0.13003789 -0.012996603 -0.25235149
-0.13003175 -0.01292516 -0.25241974
-0.13002571 -0.01285376 -0.25248599
-0.13001871 -0.012781928 -0.25257221
-0.13001248 -0.012710443 -0.25264245
-0.13000432 -0.012636136 -0.25275061
-0.12999907 -0.012565083 -0.25280088
-0.12999313 -0.012493726 -0.25286517
-0.12998593 -0.012421807 -0.25295538
-0.12997979 -0.012350365 -0.25302362
-0.12997134 -0.012275929 -0.25313777
-0.12996201 -0.012201102 -0.25326988
-0.12995277 -0.01212632 -0.2534
-0.12994754 -0.012053312 -0.25344822
-0.12914678 -0.008976439 -0.26758072
-0.12914664 -0.0089037279 -0.26752305
-0.12914251 -0.0088272868 -0.26754522
-0.12913597 -0.0087478096 -0.26761529
-0.12912887 -0.0086661167 -0.26769528
-0.12912427 -0.0085875047 -0.26772541
-0.12912035 -0.0085111503 -0.26774359
-0.1291115 -0.0084267249 -0.26785749
-0.12910111 -0.0083416058 -0.26800334
-0.1290915 -0.0082548782 -0.2681312
-0.12907743 -0.0081642065 -0.26834884
-0.12907112 -0.0080828601 -0.26841289
-0.12906855 -0.008007112 -0.26840308
-0.12906606 -0.0079333615 -0.26839334
-0.12906311 -0.00785744 -0.26839155
-0.12905949 -0.0077792611 -0.26840171
-0.12905596 -0.0077030789 -0.2684119
-0.1290531 -0.0076272013 -0.26840812
-0.12904985 -0.0075511504 -0.26841232
-0.12904565 -0.0074727116 -0.26843444
-0.12904117 -0.0073941424 -0.26846257
-0.12903742 -0.0073178746 -0.26847675
-0.12903361 -0.0072396081 -0.26849091
-0.12902997 -0.0071633849 -0.2685031
-0.12902626 -0.0070851613 -0.26851523
-0.12902273 -0.007008981 -0.26852542
-0.12901938 -0.0069328863 -0.26853162
-0.12901539 -0.0068545341 -0.26854974
-0.12901126 -0.0067780931 -0.26857194
-0.12900744 -0.0066998266 -0.26858607
-0.12900363 -0.006621561 -0.26860023
-0.1290001 -0.0065453798 -0.26861042
-0.12899724 -0.0064695021 -0.26860663
-0.12899429 -0.0063935807 -0.26860482
-0.12899096 -0.0063155303 -0.26860899
-0.12898713 -0.0062392196 -0.26862517
-0.12898198 -0.0061583938 -0.26866522
-0.12897584 -0.0060771341 -0.26872525
-0.12897086 -0.0059983488 -0.26876336
-0.1289665 -0.0059178686 -0.26878744
-0.1289618 -0.0058392137 -0.26881957
-0.12895492 -0.0057556536 -0.26889351
-0.12894869 -0.0056743501 -0.26895553
-0.12894373 -0.0055936109 -0.26899159
-0.12893961 -0.005515215 -0.26901174
-0.12893617 -0.0054390784 -0.26901993
-0.12893227 -0.0053607682 -0.26903605
-0.12892884 -0.0052826758 -0.26904222
-0.12892561 -0.005206624 -0.26904643
-0.12892228 -0.0051285755 -0.2690506
-0.12891912 -0.0050525665 -0.26905277
-0.12891608 -0.0049766023 -0.26905298
-0.12891315 -0.004898726 -0.26904917
-0.12891047 -0.0048248889 -0.26904342
-0.12890773 -0.0047470992 -0.26903558
-0.12890467 -0.0046711341 -0.26903579
-0.12890163 -0.0045951698 -0.269036
-0.12889877 -0.0045192912 -0.26903221
-0.1288961 -0.0044435002 -0.26902443
-0.12889297 -0.0043655373 -0.26902461
-0.12888974 -0.0042894855 -0.26902878
-0.12888688 -0.0042136069 -0.269025
-0.12888432 -0.0041378597 -0.26901522
-0.12888145 -0.0040619811 -0.26901144
-0.12887852 -0.0039841039 -0.26900762
-0.12887548 -0.0039081406 -0.2690078
-0.12887213 -0.0038320459 -0.269014
-0.12886891 -0.0037540402 -0.26901618
-0.12886624 -0.0036782473 -0.2690084
-0.12886319 -0.0036022831 -0.26900861
-0.12885967 -0.003524147 -0.26901674
-0.12885652 -0.0034481399 -0.26901895
-0.12885369 -0.0033703055 -0.26901314
-0.1288511 -0.0032965131 -0.26900539
-0.12884818 -0.0032186359 -0.26900154
-0.12884521 -0.0031427145 -0.26899976
-0.12884226 -0.0030667931 -0.26899797
-0.12883914 -0.0029888311 -0.26899815
-0.1288358 -0.0029127356 -0.26900434
-0.12883267 -0.0028347727 -0.26900449
-0.12883019 -0.0027590683 -0.26899272
-0.12882686 -0.0026829736 -0.26899892
-0.12882324 -0.0026047947 -0.26900905
-0.12882087 -0.0025291322 -0.26899529
-0.1288186 -0.0024535144 -0.26897952
-0.12881584 -0.0023776796 -0.26897374
-0.12881355 -0.0023040157 -0.26896
-0.12881052 -0.0022260956 -0.26895815
-0.12880681 -0.0021478739 -0.26897031
-0.12880357 -0.0020718221 -0.26897451
-0.1288009 -0.001996031 -0.26896673
-0.12879784 -0.0019200658 -0.26896694
-0.12879463 -0.0018420592 -0.26896912
-0.12879196 -0.0017662682 -0.26896134
-0.12878931 -0.0016904771 -0.26895353
-0.12878607 -0.0016124696 -0.26895571
-0.12878254 -0.0015362892 -0.2689659
-0.1287795 -0.0014583692 -0.26896405
-0.12877665 -0.0013824925 -0.26896027
-0.12877342 -0.0013044849 -0.26896241
-0.12877038 -0.0012285206 -0.26896262
-0.12876791 -0.0011528153 -0.26895085
-0.12876534 -0.0010770671 -0.26894107
-0.12876229 -0.0010011028 -0.26894128
-0.12875897 -0.00092305429 -0.26894546
-0.12875602 -0.00084713101 -0.26894367
-0.1287528 -0.0007691253 -0.26894581
-0.12874994 -0.00069324858 -0.26894203
-0.12874708 -0.00061737001 -0.26893824
-0.12874442 -0.00054157712 -0.26893044
-0.12874137 -0.00046561286 -0.26893067
-0.12873814 -0.00038760714 -0.26893282
-0.12873518 -0.00031168573 -0.26893103
-0.12873216 -0.00023376569 -0.26892918
-0.1287291 -0.00015780143 -0.26892939
-0.12872635 -8.19657e-05 -0.26892361
-0.12872359 -6.1318278e-06 -0.26891783
-0.12872046 7.1831048e-05 -0.26891801
-0.12871721 0.00014788099 -0.26892221
-0.1287138 0.00022597425 -0.26892835
-0.12871067 0.00030393712 -0.2689285
-0.12870781 0.0003798157 -0.26892471
-0.12870476 0.00045578182 -0.26892492
-0.12870191 0.00053166039 -0.26892114
-0.12869897 0.00060953572 -0.26891729
-0.12869611 0.00068541244 -0.26891351
-0.12869336 0.00076124817 -0.26890773
-0.12869099 0.00083690882 -0.26889396
-0.12868784 0.00091291778 -0.26889616
-0.12868385 0.00099322572 -0.26891226
-0.1286809 0.0010691453 -0.26891047
-0.12867834 0.0011448953 -0.26890069
-0.12867577 0.0012206435 -0.26889092
-0.12867282 0.0012965649 -0.26888913
-0.1286695 0.0013746154 -0.26889327
-0.12866588 0.0014527943 -0.26890343
-0.12866275 0.0015307553 -0.26890358
-0.12866066 0.0016043335 -0.26888585
-0.12865819 0.001680037 -0.26887408
-0.12865467 0.001758175 -0.26888222
-0.1286502 0.0018386971 -0.26890832
-0.12864678 0.0019167904 -0.26891446
-0.12864488 0.001990281 -0.26889277
-0.1286424 0.0020640306 -0.26888302
-0.12863927 0.0021419954 -0.26888317
-0.1286364 0.0022178739 -0.26887938
-0.12863338 0.0022957921 -0.26887757
-0.12863013 0.002371842 -0.26888174
-0.12862711 0.0024497621 -0.26887992
-0.12862425 0.0025256407 -0.26887614
-0.12862119 0.0026016049 -0.26887634
-0.12861806 0.0026795678 -0.26887649
-0.1286153 0.0027554017 -0.26887071
-0.12861244 0.0028312821 -0.26886693
-0.12860931 0.002909245 -0.26886708
-0.12860627 0.0029852092 -0.26886728
-0.12860315 0.0030631721 -0.26886746
-0.12860028 0.0031390488 -0.26886368
-0.12859753 0.0032148845 -0.2688579
-0.12859467 0.0032907613 -0.26885408
-0.12859191 0.003366597 -0.2688483
-0.12858908 0.0034444313 -0.26884249
-0.12858641 0.0035202242 -0.26883471
-0.12858346 0.0035961438 -0.26883292
-0.12857985 0.0036743227 -0.26884305
-0.12857652 0.0037523732 -0.26884723
-0.12857376 0.0038282089 -0.26884142
-0.12857074 0.0039061271 -0.2688396
-0.12856768 0.0039820913 -0.26883981
-0.12856503 0.0040578824 -0.26883203
-0.12856227 0.0041337181 -0.26882625
-0.12855874 0.0042118542 -0.26883438
-0.12855513 0.0042900331 -0.26884454
-0.12855238 0.0043658689 -0.26883873
-0.12854971 0.0044416599 -0.26883096
-0.12854658 0.0045196209 -0.26883113
-0.12854353 0.0045955889 -0.26883134
-0.1285405 0.0046735071 -0.26882949
-0.12853745 0.0047494732 -0.2688297
-0.12853442 0.0048273914 -0.26882786
-0.12853117 0.0049034432 -0.26883206
-0.12852767 0.0049835332 -0.26883817
-0.12852482 0.0050594117 -0.26883438
-0.12852253 0.0051330756 -0.26882064
-0.12851977 0.0052089076 -0.26881486
-0.12851673 0.0052868277 -0.26881304
-0.12851351 0.0053648353 -0.26881519
-0.12851016 0.0054409299 -0.26882139
-0.12850705 0.0055188928 -0.26882154
-0.12850428 0.0055947267 -0.26881576
-0.12850152 0.0056705624 -0.26880997
-0.12849839 0.0057485253 -0.26881015
-0.12849544 0.0058244467 -0.26880836
-0.12849249 0.0059003681 -0.26880658
-0.12848955 0.0059782453 -0.26880273
-0.12848669 0.006054122 -0.26879895
-0.12848365 0.0061300863 -0.26879916
-0.12848061 0.0062080063 -0.26879731
-0.12847766 0.0062839277 -0.26879552
-0.12847424 0.006362021 -0.26880169
-0.12847158 0.006437812 -0.26879388
-0.12846939 0.0065114312 -0.26877818
-0.12846626 0.0065893959 -0.26877832
-0.12846301 0.0066654459 -0.26878256
-0.12845969 0.0067434963 -0.2687867
-0.12845637 0.0068215448 -0.26879084
-0.1284537 0.0068973359 -0.26878306
-0.12845114 0.0069730841 -0.26877329
-0.12844799 0.0070490949 -0.26877549
-0.12844497 0.0071270149 -0.26877365
-0.12844191 0.0072029792 -0.26877385
-0.12843868 0.007280983 -0.26877603
-0.12843603 0.0073567759 -0.26876825
-0.12843336 0.007432567 -0.26876044
-0.12843052 0.0075084455 -0.26875669
-0.12842755 0.0075843669 -0.2687549
-0.12842472 0.0076621994 -0.26874906
-0.12842186 0.007738078 -0.26874524
-0.12841882 0.0078140423 -0.26874548
-0.12841558 0.0078920498 -0.26874763
-0.12841283 0.0079678837 -0.26874185
-0.12840997 0.0080437623 -0.26873806
-0.12840675 0.0081217661 -0.26874021
-0.12840369 0.0081977323 -0.26874042
-0.12840028 0.0082758255 -0.26874655
-0.12839705 0.0083538312 -0.26874873
-0.12839383 0.0084318388 -0.26875091
-0.12839021 0.0085100159 -0.26876104
-0.13030051 -0.040310524 -0.26965636
-0.13029806 -0.040232863 -0.26964253
-0.13029543 -0.040155113 -0.2696327
-0.13029237 -0.04007915 -0.26963291
-0.13028933 -0.040001232 -0.26963109
-0.13028626 -0.039927222 -0.26963332
-0.13028301 -0.039851174 -0.26963753
-0.13027978 -0.039775118 -0.26964173
-0.13027641 -0.039700978 -0.26964998
-0.13027358 -0.039623145 -0.26964414
-0.13027103 -0.039545443 -0.26963234
-0.1302681 -0.039467566 -0.26962847
-0.13026515 -0.039391644 -0.26962668
-0.13026208 -0.039317638 -0.26962894
-0.13025923 -0.039239801 -0.2696231
-0.1302564 -0.039161969 -0.26961729
-0.13025294 -0.039087787 -0.26962751
-0.13024928 -0.039013516 -0.26964176
-0.13024624 -0.038937554 -0.26964197
-0.13024339 -0.038859718 -0.26963612
-0.13024074 -0.03878393 -0.26962835
-0.13023789 -0.038706094 -0.2696225
-0.13023525 -0.038628351 -0.2696127
-0.1302325 -0.038552515 -0.26960692
-0.13022895 -0.038476333 -0.26961711
-0.13022541 -0.038402107 -0.26962936
-0.13022225 -0.0383261 -0.26963156
-0.1302193 -0.038250178 -0.26962978
-0.13021654 -0.038174339 -0.26962397
-0.13021351 -0.03809642 -0.26962215
-0.13021044 -0.038022414 -0.26962438
-0.13020732 -0.037944451 -0.26962453
-0.13020465 -0.037868656 -0.26961678
-0.13020182 -0.037790824 -0.26961094
-0.13019885 -0.037714902 -0.26960915
-0.13019581 -0.03763894 -0.26960936
-0.13019256 -0.037562884 -0.26961356
-0.13018993 -0.037485138 -0.26960373
-0.13018718 -0.03740735 -0.26959589
-0.13018394 -0.037331298 -0.26960009
-0.13018118 -0.037255466 -0.26959431
-0.13017824 -0.037177589 -0.2695905
-0.13017479 -0.037103407 -0.26960072
-0.13017163 -0.037027396 -0.26960292
-0.1301688 -0.036949567 -0.26959711
-0.13016574 -0.036873598 -0.26959729
-0.1301624 -0.036797505 -0.26960349
-0.13015933 -0.036723495 -0.26960576
-0.13015659 -0.036645707 -0.26959792
-0.13015366 -0.03656783 -0.2695941
-0.1301506 -0.036491863 -0.26959431
-0.13014737 -0.036415815 -0.26959848
-0.13014412 -0.03633976 -0.26960272
-0.13014168 -0.036262102 -0.26958889
-0.13013951 -0.036184572 -0.26956907
-0.13013658 -0.036106698 -0.26956522
-0.13013302 -0.036032468 -0.26957747
-0.13012958 -0.035956331 -0.26958567
-0.13012692 -0.035880543 -0.26957789
-0.13012388 -0.035802621 -0.26957607
-0.13012053 -0.035728481 -0.2695843
-0.13011737 -0.035652474 -0.2695865
-0.13011464 -0.035574682 -0.26957867
-0.13011199 -0.035496935 -0.26956886
-0.13010904 -0.035421014 -0.26956707
-0.13010599 -0.035345051 -0.26956725
-0.13010265 -0.035268955 -0.26957345
-0.13009912 -0.035192773 -0.26958364
-0.13009587 -0.035116721 -0.26958787
-0.13009301 -0.035040848 -0.26958406
-0.13008976 -0.034964792 -0.26958829
-0.13008681 -0.034888871 -0.2695865
-0.13008496 -0.034809515 -0.26955864
-0.13008764 -0.034718428 -0.26942661
-0.13009122 -0.034627728 -0.26927662
-0.13009049 -0.034544941 -0.26922271
-0.13008864 -0.034465589 -0.26919484
-0.13008758 -0.034386579 -0.26915103
-0.13008632 -0.034307484 -0.26911122
-0.13008519 -0.034226477 -0.26906732
-0.13008364 -0.034147251 -0.26903349
-0.13008189 -0.03406794 -0.26900363
-0.13008015 -0.033988632 -0.2689738
-0.1300779 -0.033911057 -0.26895598
-0.13007545 -0.033833399 -0.26894218
-0.13007301 -0.033755738 -0.26892835
-0.13007036 -0.033677991 -0.26891851
-0.1300676 -0.033602156 -0.26891273
-0.13006526 -0.033524539 -0.26889691
-0.1300628 -0.033446878 -0.26888311
-0.13005966 -0.033370875 -0.26888531
-0.1300568 -0.033294994 -0.2688815
-0.13005385 -0.033219073 -0.26887971
-0.1300509 -0.033143152 -0.26887792
-0.13004795 -0.03306723 -0.26887614
-0.1300444 -0.032991048 -0.26888633
-0.13004094 -0.032916863 -0.26889658
-0.13003811 -0.03283903 -0.26889074
-0.13003536 -0.032763198 -0.26888496
-0.1300323 -0.032687232 -0.26888517
