# .PCD v0.7 - Point Cloud Data file format
VERSION 0.7
FIELDS x y z
SIZE 4 4 4
TYPE F F F
COUNT 1 1 1
WIDTH 1264
HEIGHT 1
VIEWPOINT 0 0 0 1 0 0 0
POINTS 1264
DATA ascii
-0.029913407 -0.00052252971 -0.26368123
-0.029910695 -0.00044278614 -0.26367134
-0.029907906 -0.00036104396 -0.26366141
-0.029904611 -0.00028103963 -0.26366353
-0.029900942 -0.00019890815 -0.26367158
-0.029897861 -0.00011703558 -0.26366764
-0.029894877 -3.5207719e-05 -0.26366171
-0.029891405 4.6838075e-05 -0.2636658
-0.029887641 0.00012901425 -0.26367584
-0.029884636 0.0002088882 -0.26367193
-0.029881848 0.00029063039 -0.26366204
-0.029879039 0.00037041865 -0.26365414
-0.02987586 0.00045233406 -0.26365221
-0.029872486 0.00053433515 -0.26365426
-0.029869482 0.00061421096 -0.26365039
-0.029866206 0.00069616921 -0.26365045
-0.029862734 0.00077821501 -0.2636545
-0.029859554 0.00086013041 -0.26365256
-0.029856453 0.0009400472 -0.26365069
-0.029852785 0.0010221805 -0.26365873
-0.02984941 0.0011041835 -0.26366079
-0.029846134 0.0011861417 -0.26366085
-0.029842664 0.0012681875 -0.2636649
-0.029839756 0.0013480186 -0.26365903
-0.029836968 0.001429759 -0.26364911
-0.029833397 0.0015118476 -0.26365516
-0.029829731 0.0015939828 -0.26366323
-0.029827116 0.0016736798 -0.26365134
-0.029824601 0.0017533377 -0.26363748
-0.029820953 0.0018374268 -0.26364347
-0.029817091 0.0019196458 -0.26365554
-0.029814186 0.0019994751 -0.26364964
-0.029811494 0.0020811763 -0.26363772
-0.02980773 0.0021633487 -0.26364776
-0.029803302 0.0022477843 -0.26366976
-0.029799927 0.0023297872 -0.26367182
-0.029797314 0.0024094861 -0.26365995
-0.029794231 0.0024913605 -0.26365602
-0.029790759 0.0025734045 -0.26366007
-0.02978719 0.002655495 -0.26366612
-0.029784478 0.0027352385 -0.26365626
-0.029782157 0.0028148089 -0.26363838
-0.029779077 0.0028966796 -0.26363444
-0.029775897 0.0029785968 -0.26363251
-0.029772328 0.0030606855 -0.26363856
-0.029769324 0.0031405594 -0.26363468
-0.029766807 0.0032202173 -0.26362079
-0.029764585 0.0032997429 -0.26360095
-0.029761776 0.0033795331 -0.26359308
-0.029758323 0.0034635309 -0.26359507
-0.029754754 0.0035456214 -0.26360112
-0.029751457 0.0036256257 -0.26360324
-0.029748376 0.0037074983 -0.26359931
-0.02974586 0.0037871543 -0.26358545
-0.029743344 0.0038668122 -0.26357156
-0.029740456 0.0039485954 -0.26356363
-0.029737355 0.004028514 -0.26356176
-0.029734176 0.0041104294 -0.26355982
-0.029730802 0.0041924324 -0.26356187
-0.029727427 0.0042744353 -0.26356393
-0.029724248 0.0043563507 -0.26356202
-0.029721439 0.0044361372 -0.26355413
-0.029718729 0.0045158826 -0.26354426
-0.029715646 0.0045977533 -0.26354033
-0.029712077 0.0046798419 -0.26354638
-0.029708898 0.0047617573 -0.26354444
-0.02970648 0.0048413724 -0.26352859
-0.029703768 0.0049211178 -0.26351869
-0.0297001 0.0050032493 -0.26352674
-0.029696161 0.0050874669 -0.26353875
-0.029692417 0.0051715951 -0.26354676
-0.029689219 0.0052515566 -0.26354685
-0.029686037 0.005333472 -0.26354492
-0.029682664 0.005415475 -0.263547
-0.029679017 0.0054995622 -0.26355299
-0.029675741 0.0055815205 -0.26355305
-0.029672541 0.005661482 -0.26355317
-0.029669188 0.0057454389 -0.26355317
-0.02966628 0.00582527 -0.2635473
-0.029663198 0.0059071407 -0.26354337
-0.029659629 0.0059892312 -0.26354942
-0.02965606 0.0060713179 -0.26355547
-0.029652979 0.0061531924 -0.26355153
-0.029649995 0.0062350221 -0.26354563
-0.029647088 0.0063148532 -0.26353973
-0.029644005 0.0063967239 -0.2635358
-0.029640535 0.0064787716 -0.26353985
-0.029637452 0.0065606404 -0.26353592
-0.02963445 0.0066405162 -0.26353204
-0.029630899 0.0067245606 -0.26353604
-0.029627526 0.0068065599 -0.26353812
-0.029624619 0.0068863928 -0.26353222
-0.029621635 0.0069682207 -0.26352632
-0.029618455 0.0070501361 -0.26352435
-0.029614983 0.0071321819 -0.26352841
-0.029611511 0.0072142296 -0.26353249
-0.02960843 0.0072961003 -0.26352856
-0.029605446 0.0073779281 -0.26352262
-0.029602345 0.0074578468 -0.26352072
-0.029599069 0.0075398032 -0.26352078
-0.029595595 0.0076218508 -0.26352486
-0.029592514 0.0077037234 -0.26352093
-0.029589901 0.0077834241 -0.26350904
-0.029586818 0.0078652948 -0.2635051
-0.029583346 0.0079473425 -0.26350915
-0.029579408 0.0080315582 -0.26352119
-0.02957613 0.0081135165 -0.26352122
-0.029573146 0.0081953462 -0.26351529
-0.029570241 0.0082751755 -0.26350942
-0.02956716 0.0083570499 -0.26350549
-0.029564273 0.0084388349 -0.26349756
-0.029561367 0.008518666 -0.26349169
-0.029557817 0.0086027086 -0.26349568
-0.029554345 0.0086847544 -0.26349977
-0.02955097 0.0087667573 -0.26350182
-0.029547498 0.0088488031 -0.26350588
-0.029544417 0.0089306738 -0.26350194
-0.029541804 0.0090103745 -0.26349005
-0.02953882 0.0090922043 -0.26348412
-0.02953564 0.0091741178 -0.26348221
-0.029532168 0.0092561655 -0.26348627
-0.029528696 0.0093382113 -0.26349032
-0.029525245 0.009422211 -0.26349235
-0.029522436 0.0095019992 -0.26348445
-0.02951945 0.0095838271 -0.26347852
-0.029515881 0.0096659157 -0.26348457
-0.029513072 0.0097457021 -0.2634767
-0.029510383 0.0098274034 -0.26346478
-0.029507104 0.0099093597 -0.26346484
-0.029503731 0.0099913646 -0.26346689
-0.029500747 0.010073192 -0.26346096
-0.029497743 0.010153066 -0.26345709
-0.029494466 0.010235025 -0.26345715
-0.02949119 0.010316987 -0.26345721
-0.029487737 0.010400984 -0.26345924
-0.029484071 0.010483118 -0.26346728
-0.029480988 0.010564988 -0.26346332
-0.029478472 0.010644646 -0.26344949
-0.029475391 0.010726519 -0.26344556
-0.029472115 0.010808477 -0.26344562
-0.029468447 0.010890611 -0.26345366
-0.029465366 0.010972483 -0.26344973
-0.029462382 0.011054309 -0.2634438
-0.02945891 0.011136357 -0.26344785
-0.029455164 0.011220489 -0.26345587
-0.029451517 0.011304574 -0.26346186
-0.031488296 -0.040610388 -0.26427203
-0.031484727 -0.040528297 -0.26427811
-0.03148143 -0.040448293 -0.2642802
-0.031477958 -0.040366247 -0.26428425
-0.031474877 -0.040284373 -0.26428032
-0.031471796 -0.040202502 -0.26427639
-0.031468909 -0.040120717 -0.26426846
-0.031465221 -0.040040538 -0.26427856
-0.031461634 -0.039960407 -0.26428667
-0.031458355 -0.039878443 -0.26428673
-0.03145498 -0.039796446 -0.26428878
-0.031452093 -0.039714657 -0.26428086
-0.031448819 -0.0396327 -0.26428092
-0.031445522 -0.039552696 -0.26428303
-0.031442557 -0.039468911 -0.26427507
-0.031439379 -0.039386995 -0.26427311
-0.031436197 -0.03930508 -0.2642712
-0.031433508 -0.03922338 -0.26425928
-0.03143033 -0.039141469 -0.26425734
-0.031427052 -0.039059509 -0.2642574
-0.03142358 -0.038977463 -0.26426145
-0.031420305 -0.038895503 -0.26426151
-0.031417321 -0.038813673 -0.26425558
-0.031413928 -0.038733624 -0.2642597
-0.031410649 -0.038651668 -0.26425976
-0.031407256 -0.038571618 -0.26426387
-0.031404 -0.038487706 -0.26426187
-0.031401504 -0.038406096 -0.26424596
-0.031398322 -0.038324177 -0.26424402
-0.031394344 -0.038243867 -0.26426011
-0.031390559 -0.038163651 -0.26427221
-0.031387165 -0.038083602 -0.2642763
-0.031384397 -0.037999906 -0.26426435
-0.031381216 -0.037917994 -0.26426241
-0.031377822 -0.037837945 -0.26426649
-0.031374644 -0.037756026 -0.26426458
-0.031371679 -0.037672244 -0.2642566
-0.031368189 -0.037592154 -0.26426271
-0.031365007 -0.037510239 -0.26426077
-0.031362142 -0.037426498 -0.26425081
-0.031359255 -0.037344713 -0.26424289
-0.031355765 -0.037264623 -0.26424897
-0.031352077 -0.037184443 -0.26425907
-0.031349093 -0.037102614 -0.26425314
-0.031346619 -0.037019052 -0.2642352
-0.031343341 -0.036937088 -0.26423526
-0.031339947 -0.036857042 -0.26423934
-0.031336356 -0.036776908 -0.26424745
-0.03133228 -0.036696553 -0.26426554
-0.0313292 -0.036614683 -0.2642616
-0.031326704 -0.036533069 -0.26424569
-0.031323936 -0.036449373 -0.26423371
-0.031320658 -0.036367416 -0.26423377
-0.031317361 -0.036287412 -0.26423588
-0.031313986 -0.036205411 -0.26423794
-0.031310495 -0.036125317 -0.26424405
-0.031307727 -0.036041625 -0.26423207
-0.031305443 -0.035958141 -0.26421013
-0.03130246 -0.035876311 -0.2642042
-0.031299263 -0.035796352 -0.26420429
-0.031295381 -0.035716087 -0.26421839
-0.0312915 -0.035635822 -0.26423249
-0.031288125 -0.03555382 -0.26423454
-0.031285532 -0.035472166 -0.26422063
-0.031282742 -0.035390422 -0.2642107
-0.031278662 -0.035310071 -0.26422879
-0.031275094 -0.035227984 -0.26423484
-0.031273104 -0.035144635 -0.26420689
-0.031270318 -0.035062894 -0.26419696
-0.031267039 -0.03498093 -0.26419702
-0.031263959 -0.034899063 -0.26419309
-0.031260662 -0.034819059 -0.2641952
-0.031256683 -0.034738749 -0.2642113
-0.031253405 -0.034656789 -0.26421136
-0.031250812 -0.034575135 -0.26419744
-0.031247828 -0.034493305 -0.26419151
-0.031244162 -0.034411173 -0.26419955
-0.031240065 -0.034332778 -0.2642197
-0.03123669 -0.034250773 -0.26422176
-0.031233491 -0.034170814 -0.26422185
-0.031230215 -0.034088854 -0.26422191
-0.031227328 -0.034007069 -0.26421398
-0.031224344 -0.033925239 -0.26420808
-0.031221263 -0.033843368 -0.26420414
-0.031218182 -0.033761498 -0.26420021
-0.031214982 -0.033681534 -0.26420033
-0.031212019 -0.033597752 -0.26419234
-0.031209912 -0.033516314 -0.26416844
-0.03120644 -0.033434268 -0.26417249
-0.031202754 -0.033354089 -0.2641826
-0.031199068 -0.033273913 -0.2641927
-0.03119579 -0.033191953 -0.26419276
-0.031192591 -0.033111993 -0.26419285
-0.031189196 -0.033031948 -0.26419696
-0.031186018 -0.032950029 -0.26419502
-0.031182937 -0.032868154 -0.26419109
-0.03118005 -0.032786373 -0.26418316
-0.031177359 -0.032704674 -0.26417124
-0.031174082 -0.032622717 -0.2641713
-0.031170394 -0.032542534 -0.26418141
-0.031167196 -0.032462575 -0.26418149
-0.031164136 -0.032378748 -0.26417553
-0.031160545 -0.032298617 -0.26418364
-0.031157736 -0.032218829 -0.26417577
-0.031154577 -0.032134958 -0.26417178
-0.031151086 -0.032054864 -0.26417789
-0.031147398 -0.031974688 -0.26418796
-0.03114461 -0.031892944 -0.26417804
-0.031141821 -0.031811204 -0.26416814
-0.031138446 -0.031729199 -0.2641702
-0.031135052 -0.03164915 -0.26417428
-0.031132361 -0.031567454 -0.26416236
-0.031129593 -0.031483758 -0.26415041
-0.031126589 -0.031403884 -0.26414651
-0.031123312 -0.031321928 -0.26414657
-0.031120133 -0.031240009 -0.26414466
-0.031116955 -0.031158095 -0.26414269
-0.031113755 -0.031078134 -0.26414281
-0.031110264 -0.030998044 -0.26414892
-0.031106401 -0.030915823 -0.26416096
-0.0311033 -0.030835908 -0.26415908
-0.031100316 -0.030754076 -0.26415315
-0.031097528 -0.030672334 -0.26414323
-0.031094035 -0.030592244 -0.26414931
-0.031090466 -0.030510155 -0.26415539
-0.031087559 -0.030430324 -0.26414949
-0.031084888 -0.030346673 -0.26413554
-0.031081885 -0.030266795 -0.26413167
-0.031078393 -0.030186705 -0.26413774
-0.031074921 -0.030104659 -0.2641418
-0.031071723 -0.0300247 -0.26414192
-0.031068543 -0.029942784 -0.26413998
-0.031065656 -0.029860999 -0.26413205
-0.031062262 -0.02978095 -0.26413617
-0.031058986 -0.02969899 -0.26413622
-0.031056197 -0.02961725 -0.2641263
-0.031053018 -0.029535335 -0.26412436
-0.031049429 -0.0294552 -0.26413244
-0.031046228 -0.02937524 -0.26413256
-0.031043343 -0.029293455 -0.26412463
-0.031040261 -0.029211581 -0.26412073
-0.031037081 -0.029129665 -0.26411879
-0.031033374 -0.029051442 -0.26413092
-0.031029806 -0.028969353 -0.26413697
-0.031027114 -0.028887656 -0.26412505
-0.031024326 -0.028805912 -0.26411512
-0.031021029 -0.028725907 -0.26411724
-0.031017557 -0.028643861 -0.26412129
-0.031014455 -0.028563945 -0.26411942
-0.031010984 -0.028481899 -0.26412347
-0.031007785 -0.028401937 -0.26412356
-0.031004898 -0.028320152 -0.26411563
-0.031001817 -0.028238282 -0.2641117
-0.030998716 -0.028158363 -0.26410982
-0.030995732 -0.028076533 -0.26410389
-0.030992649 -0.027994663 -0.26409996
-0.030989276 -0.027912661 -0.26410204
-0.030985687 -0.027832527 -0.26411012
-0.030982487 -0.027752565 -0.26411024
-0.030979211 -0.027670605 -0.2641103
-0.030976109 -0.027590688 -0.26410842
-0.030973125 -0.02750886 -0.26410249
-0.030969946 -0.027426943 -0.26410055
-0.030966748 -0.027346984 -0.26410064
-0.030963372 -0.027264981 -0.2641027
-0.030960174 -0.027185019 -0.26410282
-0.030957287 -0.027103234 -0.26409489
-0.030953914 -0.027021233 -0.26409695
-0.03095052 -0.026941184 -0.26410106
-0.030947242 -0.026859228 -0.26410112
-0.030944433 -0.026779437 -0.26409325
-0.030941645 -0.026697695 -0.26408333
-0.030938465 -0.026615782 -0.26408139
-0.030934682 -0.026535559 -0.26409349
-0.030931482 -0.0264556 -0.26409358
-0.030929182 -0.026374074 -0.26407367
-0.030926099 -0.026292201 -0.26406974
-0.030922629 -0.026210155 -0.26407379
-0.03091982 -0.026130367 -0.26406592
-0.030916641 -0.026048452 -0.26406398
-0.030913441 -0.025968492 -0.2640641
-0.030910067 -0.025886489 -0.26406616
-0.030906575 -0.025806399 -0.26407224
-0.030903278 -0.025726393 -0.26407439
-0.030900197 -0.025644522 -0.26407042
-0.030897213 -0.025562694 -0.26406449
-0.03089413 -0.025480822 -0.26406056
-0.030890932 -0.02540086 -0.26406068
-0.030887753 -0.025318945 -0.26405874
-0.030884653 -0.025239026 -0.26405686
-0.030881181 -0.025156982 -0.26406091
-0.030877786 -0.025076933 -0.26406503
-0.030874802 -0.024995103 -0.2640591
-0.0308717 -0.024915189 -0.26405722
-0.030868229 -0.024833141 -0.26406127
-0.030865029 -0.024753181 -0.26406139
-0.030862456 -0.024669573 -0.26404542
-0.030859355 -0.024589654 -0.26404351
-0.030855667 -0.024509475 -0.26405361
-0.030852001 -0.024427343 -0.26406166
-0.030848606 -0.024347296 -0.26406577
-0.030846402 -0.024265815 -0.26404387
-0.030843712 -0.024184115 -0.26403195
-0.030840416 -0.024104111 -0.26403403
-0.030837236 -0.024022195 -0.26403213
-0.030834232 -0.023942322 -0.26402822
-0.03083076 -0.023860276 -0.2640323
-0.030827561 -0.023780314 -0.26403239
-0.030824069 -0.023700222 -0.2640385
-0.030820793 -0.023618266 -0.26403856
-0.030818101 -0.023536565 -0.26402664
-0.030814825 -0.023454607 -0.2640267
-0.030811431 -0.023374559 -0.26403081
-0.030808426 -0.023294685 -0.26402694
-0.030805249 -0.02321277 -0.26402497
-0.030801658 -0.023132635 -0.26403308
-0.03079848 -0.02305072 -0.26403114
-0.030795671 -0.022970933 -0.26402327
-0.030792296 -0.022888931 -0.26402533
-0.03078861 -0.022808753 -0.26403543
-0.030785508 -0.022728834 -0.26403356
-0.030782934 -0.022645224 -0.26401758
-0.030780029 -0.022565395 -0.26401168
-0.030776829 -0.022485433 -0.2640118
-0.030773649 -0.022403518 -0.26400986
-0.030770568 -0.022321645 -0.26400593
-0.030767467 -0.022241727 -0.26400405
-0.030763995 -0.022159683 -0.2640081
-0.030760406 -0.022079548 -0.26401621
-0.03075703 -0.021997545 -0.26401827
-0.03075432 -0.021917801 -0.2640084
-0.030751336 -0.021835972 -0.26400247
-0.030748233 -0.021756055 -0.26400056
-0.030744959 -0.021674097 -0.26400065
-0.030741563 -0.021594048 -0.26400474
-0.03073819 -0.021512046 -0.26400679
-0.030735206 -0.021430217 -0.26400086
-0.0307323 -0.021350387 -0.26399499
-0.0307291 -0.021270426 -0.26399511
-0.030725921 -0.021188511 -0.26399317
-0.03072284 -0.021106638 -0.26398924
-0.030719835 -0.021026764 -0.26398537
-0.030716559 -0.020944804 -0.2639854
-0.030713165 -0.020864757 -0.26398951
-0.030709673 -0.020784667 -0.26399562
-0.030706104 -0.020702578 -0.26400167
-0.030703412 -0.020620879 -0.26398975
-0.030700896 -0.020541221 -0.26397589
-0.030697599 -0.020461217 -0.26397797
-0.030693835 -0.02037904 -0.26398805
-0.030690538 -0.020299036 -0.26399013
-0.030687749 -0.020217296 -0.26398021
-0.030684961 -0.020135552 -0.26397029
-0.030681664 -0.020055549 -0.2639724
-0.030678075 -0.019975414 -0.26398051
-0.030674895 -0.019893499 -0.26397857
-0.03067201 -0.019811714 -0.26397064
-0.030668907 -0.019731795 -0.26396877
-0.030665904 -0.019651921 -0.26396486
-0.030662529 -0.019569919 -0.26396692
-0.030659232 -0.019489914 -0.26396903
-0.030656151 -0.019408043 -0.2639651
-0.030652661 -0.019327952 -0.26397121
-0.030649189 -0.019245906 -0.26397526
-0.030646184 -0.019166032 -0.26397139
-0.030643102 -0.019084159 -0.26396745
-0.030640118 -0.019002331 -0.26396152
-0.03063692 -0.01892237 -0.26396161
-0.030633623 -0.018842366 -0.26396373
-0.03063054 -0.018760493 -0.2639598
-0.030627634 -0.018680662 -0.26395392
-0.030624066 -0.018598573 -0.26395997
-0.030620672 -0.018518526 -0.26396406
-0.03061798 -0.018436827 -0.26395214
-0.030615386 -0.018355172 -0.26393825
-0.030611992 -0.018275125 -0.26394233
-0.030608131 -0.018192906 -0.2639544
-0.030604834 -0.018112902 -0.26395649
-0.030602025 -0.018033113 -0.26394862
-0.030599138 -0.017951328 -0.26394069
-0.030595958 -0.017869413 -0.26393875
-0.03059276 -0.017789451 -0.26393884
-0.030589581 -0.017707536 -0.26393694
-0.030586479 -0.017627619 -0.26393503
-0.030583007 -0.017545573 -0.26393908
-0.030579906 -0.017465655 -0.26393721
-0.030576922 -0.017383827 -0.26393127
-0.030573431 -0.017303735 -0.26393738
-0.030570036 -0.017223688 -0.2639415
-0.030567151 -0.017141903 -0.26393354
-0.030564146 -0.017062029 -0.26392967
-0.030560575 -0.01697994 -0.26393574
-0.030557768 -0.016900152 -0.26392785
-0.030555077 -0.016818453 -0.26391593
-0.030551605 -0.016736407 -0.26391998
-0.030547917 -0.016656229 -0.26393008
-0.030544445 -0.016574183 -0.26393414
-0.030541442 -0.01649431 -0.26393026
-0.03053873 -0.016414566 -0.26392037
-0.030535942 -0.016332824 -0.26391044
-0.030532841 -0.016252907 -0.26390857
-0.030529564 -0.016170947 -0.26390862
-0.030526366 -0.016090987 -0.26390874
-0.030523283 -0.016009115 -0.26390481
-0.03051989 -0.015929066 -0.26390892
-0.030516418 -0.015847022 -0.26391298
-0.030513335 -0.015765149 -0.26390904
-0.030510332 -0.015685275 -0.26390517
-0.030507229 -0.015605357 -0.26390326
-0.030503955 -0.015523398 -0.26390332
-0.030500559 -0.01544335 -0.26390743
-0.030496892 -0.015361218 -0.26391548
-0.030493986 -0.015281387 -0.26390961
-0.030491393 -0.015199732 -0.26389569
-0.030488584 -0.015119945 -0.26388779
-0.030485209 -0.015037943 -0.26388985
-0.030481836 -0.01495594 -0.26389191
-0.030478831 -0.014876066 -0.26388803
-0.030475631 -0.014796105 -0.26388815
-0.030472551 -0.014714233 -0.26388422
-0.030469645 -0.014634402 -0.26387835
-0.03046627 -0.0145524 -0.26388037
-0.030462876 -0.014472352 -0.26388448
-0.030459404 -0.014390307 -0.26388854
-0.030456323 -0.014308434 -0.2638846
-0.030453514 -0.014228647 -0.26387674
-0.030450335 -0.014146731 -0.2638748
-0.030446649 -0.014066553 -0.2638849
-0.030443449 -0.013986592 -0.26388502
-0.030440368 -0.013904721 -0.26388109
-0.030437071 -0.013824716 -0.26388317
-0.030433696 -0.013742713 -0.26388526
-0.030430986 -0.01366297 -0.26387537
-0.03042849 -0.013581358 -0.26385945
-0.030425681 -0.013501571 -0.26385158
-0.030422306 -0.013419569 -0.26385364
-0.030419126 -0.013337653 -0.2638517
-0.030415928 -0.013257692 -0.26385182
-0.030412532 -0.013177644 -0.26385593
-0.030409258 -0.013095685 -0.26385596
-0.030406155 -0.013015768 -0.26385409
-0.030402878 -0.012933808 -0.26385415
-0.030399211 -0.012851676 -0.26386219
-0.030395914 -0.012771672 -0.26386431
-0.030392736 -0.012689756 -0.26386237
-0.030389732 -0.012609882 -0.2638585
-0.030386358 -0.012527879 -0.26386055
-0.030383257 -0.012447963 -0.26385868
-0.030380253 -0.012368088 -0.26385477
-0.030377269 -0.012286259 -0.26384884
-0.030374089 -0.012204343 -0.2638469
-0.030370597 -0.012124253 -0.26385301
-0.030367419 -0.012042337 -0.26385108
-0.030364512 -0.011962506 -0.26384521
-0.030361138 -0.011880504 -0.26384726
-0.030357938 -0.011800542 -0.26384735
-0.030354664 -0.011718584 -0.26384741
-0.030351464 -0.011638624 -0.26384753
-0.030348383 -0.011556751 -0.2638436
-0.030345475 -0.01147692 -0.26383772
-0.030342296 -0.011395005 -0.26383579
-0.030339098 -0.011315044 -0.26383591
-0.030335821 -0.011233085 -0.26383597
-0.03033272 -0.011153167 -0.26383406
-0.030329833 -0.011071382 -0.26382613
-0.030326732 -0.010991464 -0.26382425
-0.03032326 -0.010909419 -0.26382831
-0.030319592 -0.010827286 -0.26383638
-0.030316101 -0.010747195 -0.26384246
-0.030312825 -0.010665236 -0.26384252
-0.030309917 -0.010585406 -0.26383665
-0.030307129 -0.010503664 -0.26382673
-0.030304417 -0.010423919 -0.26381683
-0.030301219 -0.010343959 -0.26381695
-0.030297747 -0.010261913 -0.26382101
-0.030294862 -0.010180128 -0.26381308
-0.030291758 -0.01010021 -0.2638112
-0.030288093 -0.010018078 -0.26381925
-0.030284893 -0.0099381171 -0.26381937
-0.030281715 -0.0098562017 -0.26381743
-0.030278612 -0.009776284 -0.26381552
-0.030275531 -0.0096944114 -0.26381162
-0.030272352 -0.009612496 -0.26380968
-0.030269347 -0.0095326221 -0.26380581
-0.030266071 -0.0094506629 -0.26380587
-0.030262873 -0.0093707014 -0.26380596
-0.030259693 -0.009288786 -0.26380402
-0.030256689 -0.009208912 -0.26380014
-0.030253783 -0.0091290819 -0.26379424
-0.030250408 -0.0090470798 -0.26379633
-0.030246839 -0.0089649903 -0.26380238
-0.030244127 -0.0088852458 -0.26379251
-0.030241242 -0.0088034607 -0.26378459
-0.030237652 -0.008723326 -0.26379266
-0.030233888 -0.0086411498 -0.26380271
-0.030230515 -0.0085591488 -0.26380479
-0.03022714 -0.0084771458 -0.26380682
-0.030223843 -0.0083971415 -0.26380894
-0.030220741 -0.0083172247 -0.26380706
-0.030217757 -0.008235395 -0.26380113
-0.030214675 -0.0081535224 -0.26379719
-0.030210912 -0.0080713481 -0.26380724
-0.030207906 -0.0079914732 -0.26380336
-0.030205099 -0.0079116859 -0.2637955
-0.030201919 -0.0078297704 -0.26379356
-0.030199014 -0.0077499393 -0.26378766
-0.030195735 -0.0076679811 -0.26378772
-0.030192263 -0.0075859353 -0.2637918
-0.030189162 -0.0075060176 -0.26378989
-0.030186277 -0.0074242316 -0.26378196
-0.030183468 -0.0073444443 -0.2637741
-0.030180484 -0.0072626155 -0.26376817
-0.030177383 -0.0071826987 -0.26376629
-0.030174008 -0.0071006957 -0.26376832
-0.030170439 -0.0070186071 -0.26377439
-0.030166946 -0.0069385162 -0.26378047
-0.030164257 -0.0068568178 -0.26376855
-0.030161642 -0.006777117 -0.26375669
-0.030158248 -0.0066970689 -0.26376081
-0.03015421 -0.0066128084 -0.26377481
-0.030150915 -0.0065328041 -0.2637769
-0.030147832 -0.0064509325 -0.26377296
-0.030144829 -0.0063710585 -0.26376909
-0.030141747 -0.006289186 -0.26376516
-0.030138373 -0.006207183 -0.26376721
-0.030134782 -0.0061270492 -0.26377532
-0.030131508 -0.00604509 -0.26377538
-0.030128796 -0.0059653465 -0.26376548
-0.030126279 -0.0058856886 -0.26375163
-0.0301231 -0.0058037722 -0.26374969
-0.03011914 -0.0057215113 -0.26376373
-0.03011567 -0.0056394655 -0.26376778
-0.030112958 -0.0055597201 -0.26375791
-0.030109877 -0.0054778494 -0.26375398
-0.030106502 -0.0053958474 -0.26375604
-0.030103108 -0.0053157983 -0.26376015
-0.030099832 -0.0052338401 -0.26376021
-0.030096827 -0.0051539652 -0.26375633
-0.030093744 -0.0050720926 -0.2637524
-0.030090645 -0.0049921758 -0.26375049
-0.030087367 -0.0049102167 -0.26375055
-0.03008409 -0.0048282575 -0.26375061
-0.030080989 -0.0047483407 -0.26374874
-0.030078005 -0.004666511 -0.2637428
-0.030075001 -0.004586638 -0.26373893
-0.03007192 -0.0045047663 -0.263735
-0.030068643 -0.0044228062 -0.26373506
-0.03006525 -0.004342759 -0.26373917
-0.030061875 -0.0042607561 -0.26374123
-0.030058697 -0.0041788407 -0.26373929
-0.0300554 -0.0040988373 -0.2637414
-0.030052025 -0.0040168343 -0.26374346
-0.030048845 -0.0039349189 -0.26374152
-0.030045647 -0.0038549583 -0.26374161
-0.030041903 -0.0037708282 -0.26374963
-0.0300388 -0.0036909096 -0.26374775
-0.030035915 -0.0036091246 -0.26373982
-0.030032618 -0.0035291202 -0.26374191
-0.030029809 -0.0034493338 -0.26373404
-0.030027021 -0.0033675916 -0.26372412
-0.030023918 -0.003287673 -0.26372224
-0.03002074 -0.0032057585 -0.2637203
-0.030017365 -0.0031237565 -0.26372236
-0.030013992 -0.0030417535 -0.26372442
-0.030010421 -0.002959664 -0.26373047
-0.030007223 -0.0028797034 -0.26373059
-0.030004434 -0.0027979612 -0.26372066
-0.030001234 -0.0027180016 -0.26372075
-0.029997861 -0.0026359977 -0.26372284
-0.029994974 -0.0025542127 -0.26371491
-0.029992361 -0.0024745129 -0.26370305
-0.029989455 -0.0023946809 -0.26369715
-0.029986179 -0.0023127217 -0.26369721
-0.029982511 -0.0022305911 -0.26370525
-0.029979136 -0.0021485873 -0.26370731
-0.029975742 -0.0020685401 -0.26371142
-0.02997227 -0.0019864952 -0.26371548
-0.029969383 -0.0019047093 -0.26370755
-0.02996638 -0.0018248344 -0.26370367
-0.029962713 -0.0017427038 -0.26371172
-0.029959632 -0.0016608303 -0.26370779
-0.029956724 -0.0015809992 -0.26370192
-0.029953351 -0.0014989972 -0.26370397
-0.029950444 -0.0014191661 -0.2636981
-0.029947851 -0.0013375115 -0.26368415
-0.029944554 -0.0012575071 -0.26368627
-0.02994081 -0.001173377 -0.26369429
-0.02993761 -0.0010934155 -0.26369441
-0.029934626 -0.0010115867 -0.26368845
-0.029931448 -0.00092967134 -0.26368654
-0.029928248 -0.00084971078 -0.26368663
-0.029924875 -0.00076770782 -0.26368868
-0.0299215 -0.00068570673 -0.26369077
-0.029918496 -0.00060583092 -0.26368687
-0.029915512 -0.00052400306 -0.26368093
-0.029912703 -0.00044421479 -0.26367307
-0.029909914 -0.00036247447 -0.26366314
-0.029906541 -0.00028047152 -0.2636652
-0.029903049 -0.00020037964 -0.26367128
-0.029899968 -0.00011850707 -0.26366737
-0.029896885 -3.6636367e-05 -0.26366341
-0.029893413 4.5409426e-05 -0.26366749
-0.029889748 0.00012754276 -0.26367554
-0.029886743 0.00020741671 -0.26367167
-0.029883955 0.00028915703 -0.26366174
-0.029881146 0.00036894716 -0.26365384
-0.029877869 0.00045090355 -0.26365393
-0.029874593 0.00053286366 -0.26365396
-0.029871589 0.00061273761 -0.26365009
-0.029868312 0.00069469586 -0.26365015
-0.029864743 0.00077678449 -0.2636562
-0.029861564 0.0008586999 -0.26365429
-0.029858463 0.00093861856 -0.26365238
-0.029854892 0.0010207072 -0.26365843
-0.029851519 0.0011027101 -0.26366049
-0.029848143 0.0011847131 -0.26366258
-0.02984477 0.0012667142 -0.2636646
-0.029841863 0.0013465453 -0.26365876
-0.029839074 0.0014282875 -0.26364881
-0.029835505 0.0015103761 -0.26365489
-0.029831741 0.0015925523 -0.26366493
-0.029829128 0.001672253 -0.26365304
-0.029826611 0.0017519109 -0.26363918
-0.029823061 0.0018359534 -0.26364321
-0.029819101 0.0019182172 -0.26365721
-0.029816195 0.0019980464 -0.26365134
-0.029813603 0.0020797029 -0.26363742
-0.029809739 0.0021619219 -0.26364946
-0.029805312 0.0022463538 -0.26367146
-0.029802036 0.0023283139 -0.26367152
-0.029799422 0.0024080146 -0.26365966
-0.029796341 0.0024898872 -0.26365572
-0.029792869 0.002571933 -0.26365978
-0.029789299 0.0026540235 -0.26366583
-0.029786589 0.0027337633 -0.26365596
-0.029784169 0.0028133802 -0.26364008
-0.029781088 0.0028952509 -0.26363614
-0.029778007 0.0029771235 -0.26363221
-0.029774439 0.0030592121 -0.26363826
-0.029771434 0.0031390879 -0.26363438
-0.029768918 0.0032187458 -0.26362053
-0.029766694 0.0032982714 -0.26360065
-0.029763788 0.0033781026 -0.26359478
-0.029760433 0.0034620594 -0.26359481
-0.029756766 0.0035441928 -0.26360285
-0.029753393 0.0036261939 -0.26360491
-0.029750485 0.0037060268 -0.26359904
-0.029747874 0.0037857238 -0.26358715
-0.029745279 0.0038673803 -0.26357323
-0.02974247 0.0039471686 -0.26356536
-0.029739466 0.0040270425 -0.26356146
-0.029736189 0.0041090008 -0.26356152
-0.029732913 0.0041909609 -0.26356161
-0.029729538 0.0042729601 -0.26356363
-0.02972636 0.0043548774 -0.26356173
-0.029723551 0.0044346657 -0.26355383
-0.029720839 0.0045144092 -0.26354396
-0.029717661 0.0045963228 -0.26354203
-0.029714091 0.0046784151 -0.26354808
-0.02971101 0.0047602858 -0.26354414
-0.02970859 0.004839899 -0.26352829
-0.029705781 0.0049196873 -0.26352039
-0.029702213 0.0050017759 -0.26352644
-0.029698176 0.0050860364 -0.26354045
-0.029694529 0.0051701237 -0.26354647
-0.029691232 0.005250128 -0.26354855
-0.029687975 0.005334042 -0.26354659
-0.02968468 0.0054140463 -0.2635487
-0.029681033 0.0054981317 -0.26355469
-0.029677756 0.0055800918 -0.26355475
-0.029674577 0.0056620091 -0.26355281
-0.0296713 0.0057439655 -0.26355287
-0.029668296 0.0058238413 -0.263549
-0.029665312 0.0059056692 -0.26354307
-0.029661644 0.0059878007 -0.26355112
-0.029658172 0.0060698465 -0.26355517
-0.029655091 0.006151719 -0.26355124
-0.029652108 0.0062335469 -0.2635453
-0.029649202 0.0063133799 -0.26353943
-0.029646022 0.0063952934 -0.2635375
-0.029642649 0.0064772964 -0.26353955
-0.029639566 0.0065591689 -0.26353562
-0.029636562 0.0066390447 -0.26353174
-0.029632915 0.0067231301 -0.26353776
-0.02962964 0.0068050884 -0.26353779
-0.029626636 0.0068849623 -0.26353392
-0.029623749 0.0069667473 -0.26352599
-0.029620569 0.0070486646 -0.26352406
-0.029617 0.0071307514 -0.26353011
-0.029613625 0.0072127562 -0.26353216
-0.029610544 0.0072946288 -0.26352826
-0.02960756 0.0073764548 -0.26352233
-0.029604459 0.0074563734 -0.26352042
-0.029601008 0.007540375 -0.26352245
-0.029597633 0.0076223761 -0.2635245
-0.02959463 0.00770225 -0.26352063
-0.029591918 0.0077819955 -0.26351073
-0.029588934 0.0078638215 -0.2635048
-0.029585287 0.0079479106 -0.26351082
-0.029581523 0.0080300849 -0.26352087
-0.029578246 0.0081120431 -0.26352093
-0.029575262 0.0081938747 -0.263515
-0.029572356 0.008273704 -0.26350912
-0.029569274 0.0083555765 -0.26350519
-0.02956629 0.0084374044 -0.26349926
-0.029563384 0.0085172374 -0.26349336
-0.029559834 0.0086012799 -0.26349738
-0.029556461 0.0086832829 -0.26349944
-0.029553086 0.008765284 -0.2635015
-0.029549342 0.0088494141 -0.26350951
-0.029546436 0.008929247 -0.26350361
-0.029543821 0.009008944 -0.26349175
-0.029540936 0.0090907309 -0.26348382
-0.029537659 0.009172691 -0.26348388
-0.029534187 0.009254735 -0.26348794
-0.029530812 0.0093367379 -0.26349002
-0.029527362 0.0094207376 -0.26349202
-0.029524554 0.0095005259 -0.26348412
-0.029521568 0.0095823538 -0.26347822
-0.029517999 0.0096644424 -0.26348427
-0.02951519 0.0097442307 -0.26347637
-0.029512402 0.0098259728 -0.26346645
-0.029509125 0.009907933 -0.26346654
-0.02950575 0.009989934 -0.26346859
-0.029502865 0.010071719 -0.26346064
-0.02949986 0.010151595 -0.26345676
-0.029496584 0.010233551 -0.26345682
-0.029493306 0.010315513 -0.26345691
-0.029489856 0.010399511 -0.26345891
-0.029486189 0.010481644 -0.26346695
-0.029483108 0.010563517 -0.26346302
-0.029480396 0.010643259 -0.26345316
-0.029477509 0.010725046 -0.26344523
-0.029474232 0.010807006 -0.26344529
-0.029470488 0.010891134 -0.2634533
-0.029467484 0.01097101 -0.2634494
-0.029464403 0.01105288 -0.26344547
-0.029460931 0.011134926 -0.26344955
-0.029457185 0.011219058 -0.26345754
-0.029453812 0.011301057 -0.26345959
-0.031485803 -0.040606454 -0.2642706
-0.031482212 -0.040526316 -0.26427871
-0.031478915 -0.040446315 -0.2642808
-0.031475443 -0.040364265 -0.26428485
-0.031472363 -0.040282395 -0.26428092
-0.031469282 -0.040200524 -0.26427698
-0.031466298 -0.040118694 -0.26427105
-0.03146271 -0.04003856 -0.26427916
-0.031459216 -0.03995847 -0.26428527
-0.031455941 -0.039876509 -0.26428533
-0.031452663 -0.039794549 -0.26428539
-0.031449582 -0.039712679 -0.26428145
-0.031446308 -0.039630719 -0.26428151
-0.031442914 -0.039550669 -0.26428562
-0.031440046 -0.039466932 -0.26427564
-0.031436868 -0.039385017 -0.2642737
-0.03143369 -0.039303102 -0.2642718
-0.0314309 -0.039221361 -0.26426184
-0.031427819 -0.039139487 -0.26425794
-0.031424545 -0.03905753 -0.264258
-0.031421073 -0.038975485 -0.26426205
-0.031417795 -0.038893525 -0.26426211
-0.031414811 -0.038811699 -0.26425618
-0.031411417 -0.03873165 -0.26426029
-0.031408142 -0.038649689 -0.26426035
-0.031404749 -0.03856964 -0.26426446
-0.031401493 -0.038485728 -0.26426247
-0.0313989 -0.038404074 -0.26424855
-0.031395815 -0.038322203 -0.26424462
-0.031391934 -0.038241938 -0.26425871
-0.031388052 -0.038161673 -0.26427281
-0.03138468 -0.038079668 -0.26427487
-0.031381793 -0.037997887 -0.26426691
-0.031378713 -0.037916012 -0.264263
-0.031375319 -0.037835963 -0.26426709
-0.031372137 -0.037754048 -0.26426518
-0.031369176 -0.037670262 -0.26425719
-0.031365879 -0.037590262 -0.26425931
-0.031362601 -0.037508301 -0.26425937
-0.031359736 -0.037424561 -0.26424938
-0.031356752 -0.037342735 -0.26424348
-0.031353261 -0.037262641 -0.26424956
-0.031349674 -0.037182506 -0.26425767
-0.031346589 -0.037100635 -0.26425374
-0.031344213 -0.037017114 -0.26423377
-0.031340837 -0.03693511 -0.26423582
-0.031337347 -0.03685502 -0.26424193
-0.031333856 -0.036774926 -0.26424804
-0.031329878 -0.03669462 -0.26426414
-0.031326793 -0.036612749 -0.26426017
-0.0313242 -0.036531091 -0.26424628
-0.031321336 -0.036447354 -0.2642363
-0.031318061 -0.036365394 -0.26423636
-0.031314861 -0.03628543 -0.26423648
-0.031311486 -0.036203429 -0.26423854
-0.031308092 -0.036123384 -0.26424265
-0.031305127 -0.036039598 -0.26423466
-0.031302944 -0.035956163 -0.2642107
-0.031299964 -0.035874333 -0.2642048
-0.031296764 -0.035794374 -0.26420489
-0.031292882 -0.035714108 -0.26421899
-0.031289 -0.035633843 -0.26423308
-0.031285625 -0.035551842 -0.26423514
-0.031283032 -0.035470188 -0.26422122
-0.031280167 -0.035386447 -0.26421124
-0.03127636 -0.035308179 -0.26422536
-0.031272598 -0.035226002 -0.26423544
-0.031270608 -0.035142656 -0.26420748
-0.031267822 -0.035060912 -0.26419756
-0.031264544 -0.034978952 -0.26419762
-0.031261463 -0.034897082 -0.26419368
-0.031258188 -0.034815121 -0.26419377
-0.031254187 -0.034736767 -0.26421189
-0.031250913 -0.034654811 -0.26421195
-0.031248318 -0.034573153 -0.26419804
-0.031245433 -0.034491368 -0.26419011
-0.031241668 -0.034409195 -0.26420015
-0.031237571 -0.0343308 -0.2642203
-0.031234197 -0.034248792 -0.26422235
-0.031230997 -0.034168832 -0.26422244
-0.031227723 -0.034086876 -0.2642225
-0.031224836 -0.034005091 -0.26421458
-0.031221852 -0.033923261 -0.26420867
-0.031218771 -0.03384139 -0.26420474
-0.03121569 -0.033759519 -0.26420081
-0.03121249 -0.033679556 -0.2642009
-0.031209527 -0.033595771 -0.26419294
-0.031207422 -0.033514332 -0.26416904
-0.03120395 -0.03343229 -0.26417309
-0.031200264 -0.033352111 -0.26418316
-0.031196674 -0.033271976 -0.26419127
-0.031193301 -0.033189975 -0.26419336
-0.031190004 -0.03310997 -0.26419544
-0.031186707 -0.033029966 -0.26419756
-0.031183627 -0.032948092 -0.26419362
-0.031180447 -0.03286618 -0.26419169
-0.031177562 -0.032784395 -0.26418376
-0.03117487 -0.032702692 -0.26417184
-0.031171594 -0.032620735 -0.2641719
-0.031167908 -0.032540556 -0.264182
-0.031164728 -0.032458641 -0.26418006
-0.031161647 -0.03237677 -0.26417613
-0.031158058 -0.032296635 -0.26418424
-0.031155249 -0.032216847 -0.26417637
-0.031152092 -0.032132976 -0.26417238
-0.031148599 -0.032052886 -0.26417845
-0.031144913 -0.031972706 -0.26418856
-0.031142319 -0.031891055 -0.26417464
-0.031139433 -0.03180927 -0.26416671
-0.031136058 -0.031727266 -0.2641688
-0.031132568 -0.031647172 -0.26417488
-0.031129876 -0.031565476 -0.26416296
-0.031127108 -0.03148178 -0.26415101
-0.031124007 -0.031401861 -0.26414913
-0.031120827 -0.031319946 -0.26414716
-0.031117747 -0.031238072 -0.26414323
-0.03111447 -0.031156115 -0.26414332
-0.031111369 -0.031076197 -0.26414141
-0.03110778 -0.030996064 -0.26414952
-0.031103918 -0.030913841 -0.26416156
-0.031100817 -0.030833926 -0.26415968
-0.03109793 -0.030752141 -0.26415175
-0.031095045 -0.030670356 -0.26414382
-0.031091552 -0.030590264 -0.2641499
-0.031087983 -0.030508175 -0.26415598
-0.031085175 -0.030428387 -0.26414812
-0.031082407 -0.030344691 -0.26413614
-0.031079404 -0.030264817 -0.26413226
-0.031075912 -0.030184723 -0.26413834
-0.03107244 -0.030102681 -0.26414239
-0.031069241 -0.030022718 -0.26414251
-0.031066064 -0.029940803 -0.26414058
-0.031063177 -0.029859019 -0.26413265
-0.031059783 -0.029778972 -0.26413676
-0.031056507 -0.029697012 -0.26413682
-0.031053815 -0.029615313 -0.2641249
-0.031050539 -0.029533355 -0.26412496
-0.031046949 -0.02945322 -0.26413307
-0.031043751 -0.029373258 -0.26413316
-0.031040866 -0.029291473 -0.26412523
-0.031037783 -0.029209601 -0.26412129
-0.031034604 -0.029127685 -0.26411939
-0.031030897 -0.029049462 -0.26413152
-0.031027328 -0.028967373 -0.26413757
-0.031024639 -0.028885674 -0.26412565
-0.03102185 -0.028803933 -0.26411572
-0.031018553 -0.028723929 -0.26411784
-0.031015081 -0.028641883 -0.26412189
-0.03101198 -0.028561965 -0.26412001
-0.031008508 -0.028479919 -0.26412407
-0.03100531 -0.028399959 -0.26412416
-0.031002425 -0.028318174 -0.26411623
-0.030999342 -0.0282363 -0.26411232
-0.030996241 -0.028156383 -0.26411042
-0.03099316 -0.02807451 -0.26410651
-0.030990176 -0.027992683 -0.26410055
-0.030986704 -0.027910635 -0.2641046
-0.030983213 -0.027830545 -0.26411071
-0.030980013 -0.027750585 -0.26411083
-0.030976739 -0.027668625 -0.26411089
-0.030973637 -0.02758871 -0.26410902
-0.030970654 -0.02750688 -0.26410308
-0.030967474 -0.027424965 -0.26410115
-0.030964276 -0.027345004 -0.26410127
-0.030960903 -0.027263001 -0.26410329
-0.030957799 -0.027183082 -0.26410142
-0.030954815 -0.027101254 -0.26409549
-0.030951442 -0.027019251 -0.26409754
-0.030948048 -0.026939204 -0.26410165
-0.03094485 -0.026859242 -0.26410177
-0.030941963 -0.026777457 -0.26409385
-0.030939175 -0.026695715 -0.26408392
-0.030935997 -0.026613802 -0.26408198
-0.030932212 -0.026533579 -0.26409408
-0.030929014 -0.026453618 -0.26409417
-0.030926615 -0.026372049 -0.26407626
-0.030923631 -0.026290221 -0.26407033
-0.030920159 -0.026208175 -0.26407439
-0.03091735 -0.026128389 -0.26406652
-0.030914269 -0.026046516 -0.26406258
-0.030911071 -0.025966555 -0.2640627
-0.030907599 -0.025884509 -0.26406676
-0.030904109 -0.025804419 -0.26407287
-0.030900812 -0.025724415 -0.26407498
-0.030897828 -0.025642585 -0.26406902
-0.030894747 -0.025560714 -0.26406509
-0.030891666 -0.02547884 -0.26406115
-0.030888468 -0.02539888 -0.26406127
-0.030885288 -0.025316965 -0.26405933
-0.030882187 -0.025237046 -0.26405746
-0.030878715 -0.025155 -0.26406151
-0.030875321 -0.025074953 -0.26406562
-0.030872434 -0.024993168 -0.2640577
-0.030869236 -0.024913207 -0.26405782
-0.030865764 -0.024831161 -0.26406187
-0.030862663 -0.024751244 -0.26405996
-0.030859992 -0.024667591 -0.26404601
-0.030856891 -0.024587672 -0.26404411
-0.030853204 -0.024507495 -0.26405421
-0.030849636 -0.024425406 -0.26406026
-0.030846145 -0.024345316 -0.26406637
-0.030843843 -0.02426379 -0.26404646
-0.03084125 -0.024182135 -0.26403254
-0.030837953 -0.024102131 -0.26403466
-0.030834775 -0.024020215 -0.26403272
-0.030831771 -0.02394034 -0.26402885
-0.030828398 -0.023858339 -0.2640309
-0.030825101 -0.023778334 -0.26403302
-0.03082161 -0.023698242 -0.2640391
-0.030818332 -0.023616284 -0.26403916
-0.030815642 -0.023534585 -0.26402724
-0.030812366 -0.023452625 -0.2640273
-0.030808972 -0.023372579 -0.26403141
-0.030805968 -0.023292705 -0.26402754
-0.030802788 -0.02321079 -0.2640256
-0.030799199 -0.023130655 -0.26403368
-0.030796118 -0.023048783 -0.26402974
-0.030793309 -0.022968994 -0.26402187
-0.030789839 -0.022886949 -0.26402593
-0.030786153 -0.022806771 -0.26403603
-0.03078305 -0.022726852 -0.26403415
-0.030780477 -0.022643244 -0.26401818
-0.030777572 -0.022563413 -0.26401228
-0.030774372 -0.022483453 -0.2640124
-0.030771192 -0.022401538 -0.26401049
-0.030768111 -0.022319665 -0.26400653
-0.030765012 -0.022239747 -0.26400465
-0.03076154 -0.022157701 -0.2640087
-0.030757951 -0.022077568 -0.26401681
-0.030754576 -0.021995565 -0.26401886
-0.030751768 -0.021915777 -0.264011
-0.030748881 -0.021833992 -0.26400307
-0.03074578 -0.021754075 -0.26400119
-0.030742407 -0.021672072 -0.26400322
-0.030739013 -0.021592025 -0.26400733
-0.030735735 -0.021510065 -0.26400739
-0.030732753 -0.021428237 -0.26400149
-0.030729847 -0.021348406 -0.26399559
-0.030726647 -0.021268446 -0.26399571
-0.030723469 -0.021186531 -0.26399377
-0.030720387 -0.021104656 -0.26398984
-0.030717384 -0.021024782 -0.26398593
-0.030714108 -0.020942824 -0.26398602
-0.030710714 -0.020862777 -0.2639901
-0.030707221 -0.020782685 -0.26399621
-0.030703751 -0.020700641 -0.26400027
-0.030700961 -0.020618897 -0.26399034
-0.030698447 -0.020539241 -0.26397648
-0.03069515 -0.020459235 -0.2639786
-0.030691288 -0.020377018 -0.26399064
-0.030688088 -0.020297056 -0.26399073
-0.0306853 -0.020215314 -0.26398081
-0.030682512 -0.020133572 -0.26397091
-0.030679313 -0.020053612 -0.263971
-0.030675627 -0.019973433 -0.2639811
-0.030672545 -0.01989156 -0.26397717
-0.030669561 -0.019809732 -0.26397124
-0.030666459 -0.019729814 -0.26396936
-0.030663457 -0.01964994 -0.26396546
-0.03066018 -0.019567981 -0.26396555
-0.030656787 -0.019487934 -0.26396963
-0.030653607 -0.019406019 -0.26396769
-0.030650213 -0.01932597 -0.26397181
-0.030646741 -0.019243926 -0.26397586
-0.030643739 -0.01916405 -0.26397198
-0.030640656 -0.019082177 -0.26396805
-0.030637674 -0.01900035 -0.26396212
-0.030634573 -0.018920433 -0.26396024
-0.030631177 -0.018840384 -0.26396433
-0.030628096 -0.018758513 -0.26396039
-0.030625191 -0.018678682 -0.26395452
-0.030621622 -0.018596591 -0.26396057
-0.030618228 -0.018516544 -0.26396468
-0.030615635 -0.01843489 -0.26395077
-0.030612944 -0.01835319 -0.26393884
-0.030609647 -0.018273186 -0.26394093
-0.030605689 -0.018190924 -0.26395497
-0.030602392 -0.01811092 -0.26395708
-0.030599583 -0.018031131 -0.26394922
-0.030596696 -0.017949346 -0.26394129
-0.030593518 -0.017867431 -0.26393935
-0.030590318 -0.01778747 -0.26393947
-0.03058714 -0.017705554 -0.26393753
-0.030584039 -0.017625637 -0.26393563
-0.030580567 -0.017543592 -0.26393968
-0.030577466 -0.017463675 -0.2639378
-0.030574482 -0.017381845 -0.26393187
-0.030571088 -0.017301798 -0.26393598
-0.030567694 -0.017221749 -0.2639401
-0.030564807 -0.017139964 -0.26393217
-0.030561805 -0.01706009 -0.26392826
-0.030558236 -0.016978001 -0.26393431
-0.03055533 -0.01689817 -0.26392844
-0.030552639 -0.016816471 -0.26391652
-0.030549265 -0.01673447 -0.26391858
-0.030545481 -0.016654247 -0.26393068
-0.030542009 -0.016572203 -0.26393473
-0.030539004 -0.016492328 -0.26393086
-0.030536391 -0.016412627 -0.263919
-0.030533506 -0.016330842 -0.26391104
-0.030530501 -0.016250968 -0.26390716
-0.030527128 -0.016168965 -0.26390922
-0.03052393 -0.016089005 -0.26390934
-0.03052075 -0.01600709 -0.2639074
-0.030517453 -0.015927086 -0.26390952
-0.030513884 -0.015844995 -0.26391557
-0.030510901 -0.015763167 -0.26390964
-0.030507995 -0.015683336 -0.26390374
-0.030504797 -0.015603376 -0.26390386
-0.030501518 -0.015521416 -0.26390392
-0.030498125 -0.015441368 -0.26390803
-0.030494556 -0.01535928 -0.26391408
-0.030491553 -0.015279406 -0.2639102
-0.03048896 -0.01519775 -0.26389629
-0.030486152 -0.015117963 -0.26388842
-0.030482776 -0.015035961 -0.26389048
-0.030479403 -0.014953958 -0.26389253
-0.030476399 -0.014874084 -0.26388863
-0.030473201 -0.014794123 -0.26388875
-0.03047012 -0.014712251 -0.26388481
-0.030467212 -0.014632421 -0.26387894
-0.030463839 -0.014550418 -0.263881
-0.030460445 -0.01447037 -0.26388508
-0.030456973 -0.014388325 -0.26388916
-0.030453892 -0.014306452 -0.2638852
-0.030451084 -0.014226665 -0.26387733
-0.030447904 -0.014144749 -0.2638754
-0.030444218 -0.014064571 -0.2638855
-0.03044102 -0.01398461 -0.26388562
-0.030437939 -0.013902739 -0.26388168
-0.030434642 -0.013822734 -0.26388377
-0.030431267 -0.013740731 -0.26388586
-0.030428557 -0.013660988 -0.26387596
-0.030426061 -0.013579376 -0.26386005
-0.030423252 -0.013499589 -0.26385218
-0.030419976 -0.01341763 -0.26385224
-0.030416798 -0.013335714 -0.2638503
-0.030413501 -0.01325571 -0.26385242
-0.030410107 -0.013175663 -0.26385653
-0.030406831 -0.013093703 -0.26385659
-0.030403826 -0.013013829 -0.26385272
-0.030400453 -0.012931827 -0.26385474
-0.030396786 -0.012849694 -0.26386279
-0.030393489 -0.01276969 -0.2638649
-0.030390408 -0.012687817 -0.26386097
-0.030387405 -0.012607943 -0.2638571
-0.03038403 -0.012525941 -0.26385915
-0.030380931 -0.012446024 -0.26385728
-0.030377926 -0.01236615 -0.26385337
-0.030374844 -0.012284277 -0.26384944
-0.030371666 -0.012202362 -0.26384753
-0.030368175 -0.012122271 -0.26385361
-0.030364996 -0.012040355 -0.26385167
-0.030362187 -0.011960568 -0.2638438
-0.030358715 -0.011878522 -0.26384786
-0.030355517 -0.011798561 -0.26384798
-0.030352339 -0.011716645 -0.26384604
-0.030349042 -0.011636641 -0.26384813
-0.030346058 -0.011554813 -0.26384223
-0.030343054 -0.011474938 -0.26383832
-0.030339874 -0.011393023 -0.26383638
-0.030336676 -0.011313062 -0.2638365
-0.0303334 -0.011231103 -0.26383656
-0.030330298 -0.011151185 -0.26383469
-0.030327413 -0.0110694 -0.26382676
-0.030324312 -0.010989483 -0.26382488
-0.03032084 -0.010907437 -0.26382893
-0.030317271 -0.010825347 -0.26383498
-0.030313779 -0.010745257 -0.26384109
-0.030310504 -0.010663298 -0.26384115
-0.0303075 -0.010583423 -0.26383725
-0.030304711 -0.010501682 -0.26382732
-0.030301999 -0.010421937 -0.26381746
-0.030298801 -0.010341977 -0.26381755
-0.030295428 -0.010259974 -0.26381963
-0.030292444 -0.010178145 -0.2638137
-0.030289341 -0.010098228 -0.2638118
-0.030285675 -0.010016096 -0.26381987
-0.030282477 -0.0099361343 -0.26381996
-0.030279297 -0.0098542189 -0.26381803
-0.030276198 -0.0097743021 -0.26381615
-0.030273115 -0.0096924296 -0.26381221
-0.030269936 -0.0096105132 -0.26381028
-0.030266933 -0.0095306393 -0.2638064
-0.030263754 -0.0094487239 -0.26380447
-0.030260459 -0.0093687195 -0.26380655
-0.030257279 -0.0092868041 -0.26380461
-0.030254275 -0.0092069302 -0.26380074
-0.030251369 -0.0091270991 -0.26379487
-0.030247996 -0.009045097 -0.26379693
-0.030244524 -0.0089630513 -0.26380098
-0.030241715 -0.0088832639 -0.26379311
-0.03023883 -0.008801478 -0.26378518
-0.03023524 -0.0087213442 -0.26379329
-0.030231476 -0.008639168 -0.26380333
-0.030228101 -0.008557166 -0.26380539
-0.030224727 -0.008475164 -0.26380745
-0.030221431 -0.0083951596 -0.26380956
-0.030218329 -0.0083152419 -0.26380765
-0.030215444 -0.0082334559 -0.26379973
-0.030212265 -0.0081515405 -0.26379779
-0.030208502 -0.0080693653 -0.26380783
-0.030205594 -0.0079895342 -0.26380196
-0.030202689 -0.0079097031 -0.26379609
-0.030199509 -0.0078277877 -0.26379415
-0.030196603 -0.0077479566 -0.26378828
-0.030193426 -0.0076660411 -0.26378632
-0.030189855 -0.0075839525 -0.2637924
-0.030186754 -0.0075040348 -0.26379049
-0.030183868 -0.0074222498 -0.26378256
-0.03018106 -0.0073424624 -0.26377469
-0.030178076 -0.0072606336 -0.26376876
-0.030174974 -0.007180715 -0.26376688
-0.030171601 -0.0070987139 -0.26376894
-0.030168032 -0.0070166243 -0.26377499
-0.03016454 -0.0069365334 -0.2637811
-0.03016185 -0.006854835 -0.26376918
-0.030159235 -0.0067751333 -0.26375729
-0.030155841 -0.0066950861 -0.2637614
-0.030151904 -0.0066108694 -0.26377338
-0.030148508 -0.0065308213 -0.26377749
-0.030145427 -0.0064489497 -0.26377356
-0.030142423 -0.0063690757 -0.26376969
-0.030139342 -0.0062872032 -0.26376575
-0.030136066 -0.006205244 -0.26376581
-0.030132379 -0.0061250664 -0.26377591
-0.030129103 -0.0060431063 -0.26377597
-0.030126393 -0.0059633637 -0.26376611
-0.030123876 -0.0058837049 -0.26375222
-0.030120697 -0.0058017895 -0.26375031
-0.030116739 -0.0057195285 -0.26376435
-0.030113267 -0.0056374827 -0.26376837
-0.030110555 -0.0055577373 -0.26375854
-0.030107573 -0.0054759104 -0.26375258
-0.030104276 -0.0053959042 -0.2637547
-0.030100804 -0.0053138584 -0.26375875
-0.030097429 -0.0052318573 -0.26376081
-0.030094426 -0.0051519824 -0.26375693
-0.030091442 -0.0050701536 -0.263751
-0.030088244 -0.0049901921 -0.26375112
-0.030084968 -0.0049082339 -0.26375115
-0.030081691 -0.0048262756 -0.26375124
-0.03007859 -0.004746357 -0.26374936
-0.030075509 -0.0046644853 -0.26374543
-0.030072603 -0.0045846552 -0.26373953
-0.030069521 -0.0045027826 -0.26373559
-0.030066244 -0.0044208234 -0.26373565
-0.030062947 -0.00434082 -0.26373777
-0.030059477 -0.0042587733 -0.26374182
-0.030056298 -0.0041768579 -0.26373988
-0.030053001 -0.0040968535 -0.263742
-0.030049628 -0.0040148515 -0.26374406
-0.030046448 -0.0039329361 -0.26374212
-0.03004325 -0.0038529746 -0.26374224
-0.030039506 -0.0037688445 -0.26375023
-0.030036502 -0.0036889706 -0.26374635
-0.030033518 -0.0036071409 -0.26374042
-0.030030221 -0.0035271375 -0.26374254
-0.030027414 -0.0034473501 -0.26373464
-0.030024722 -0.0033656517 -0.26372272
-0.030021621 -0.003285734 -0.26372084
-0.030018345 -0.0032037748 -0.2637209
-0.030015068 -0.0031218156 -0.26372096
-0.030011598 -0.0030397708 -0.26372504
-0.030008027 -0.0029576812 -0.26373106
-0.030004829 -0.0028777206 -0.26373118
-0.030001942 -0.0027959356 -0.26372325
-0.029998939 -0.0027160607 -0.26371938
-0.029995564 -0.0026340587 -0.26372144
-0.02999258 -0.0025522299 -0.26371551
-0.029989969 -0.0024725292 -0.26370364
-0.02998716 -0.0023927419 -0.26369578
-0.029983785 -0.0023107389 -0.2636978
-0.029980216 -0.0022286503 -0.26370388
-0.029976744 -0.0021466054 -0.26370794
-0.029973449 -0.0020665992 -0.26371002
-0.02996988 -0.0019845115 -0.2637161
-0.029966993 -0.0019027265 -0.26370817
