# .PCD v0.7 - Point Cloud Data file format
VERSION 0.7
FIELDS x y z
SIZE 4 4 4
TYPE F F F
COUNT 1 1 1
WIDTH 1463
HEIGHT 1
VIEWPOINT 0 0 0 1 0 0 0
POINTS 1463
DATA ascii
1.5451019 -0.75807172 0.21403046
1.5450305 -0.75805527 0.21404088
1.544961 -0.7580393 0.21405101
1.5448897 -0.75802374 0.2140632
1.5448201 -0.75800598 0.21406975
1.5447485 -0.75798684 0.21407482
1.544679 -0.75796992 0.21408316
1.5446097 -0.75795484 0.21409507
1.5445383 -0.75793928 0.21410728
1.5444689 -0.7579242 0.2141192
1.5443974 -0.75790507 0.21412425
1.5443258 -0.75788593 0.2141293
1.5442562 -0.75786811 0.21413586
1.5441848 -0.75785166 0.21414629
1.5441154 -0.75783658 0.21415818
1.544044 -0.75782102 0.21417038
1.5439746 -0.75780594 0.21418229
1.5439053 -0.75779176 0.214196
1.543834 -0.7577762 0.21420819
1.5437644 -0.75775933 0.21421655
1.5436928 -0.7577402 0.2142216
1.5436232 -0.75772148 0.21422637
1.5435519 -0.75770593 0.21423857
1.5434824 -0.75769085 0.21425048
1.543411 -0.75767261 0.21425733
1.5433395 -0.75765437 0.21426417
1.5432699 -0.75763565 0.21426895
1.5431982 -0.75761563 0.21427222
1.5431266 -0.7575956 0.21427549
1.5430571 -0.75757778 0.21428207
1.5429856 -0.75756043 0.21429068
1.5429162 -0.75754446 0.21430081
1.5428445 -0.75752443 0.21430409
1.5427729 -0.75750434 0.21430737
1.5427014 -0.75748432 0.21431065
1.5426295 -0.75745976 0.21430498
1.5425576 -0.75743616 0.21430111
1.5424838 -0.75741112 0.21429574
1.5418873 -0.75541449 0.21063504
1.5418111 -0.75538093 0.21061389
1.541725 -0.75530869 0.21052071
1.5416435 -0.75524807 0.21044837
1.5412158 -0.75402302 0.20823988
1.5411499 -0.75403541 0.20830506
1.5410895 -0.75407755 0.20842677
1.5410312 -0.7541219 0.20855178
1.5409682 -0.75415099 0.2086488
1.5408998 -0.75415301 0.20869461
1.5408266 -0.75413793 0.20870888
1.5407511 -0.75411701 0.20871271
1.5406777 -0.7540983 0.20871983
1.5406022 -0.75407648 0.20872189
1.5405284 -0.75405329 0.20872009
1.5407753 -0.75534338 0.21117002
1.5407041 -0.75533146 0.21118936
1.5406351 -0.75532359 0.21121554
1.5405643 -0.75531614 0.21124381
1.540493 -0.75530243 0.21125956
1.5404197 -0.75528467 0.21126847
1.540346 -0.75526327 0.21127024
1.5402725 -0.75524276 0.21127379
1.5402009 -0.75522274 0.21127707
1.5401276 -0.75520581 0.21128777
1.5400542 -0.75518805 0.21129668
1.5399828 -0.7551716 0.21130708
1.5399095 -0.75515473 0.21131778
1.5398381 -0.75513738 0.21132641
1.5397644 -0.75511599 0.21132818
1.5396909 -0.75509459 0.21132994
1.5396175 -0.75507772 0.21134064
1.5395442 -0.75506085 0.21135134
1.5394729 -0.75504619 0.21136531
1.5394019 -0.75503516 0.21138643
1.5393307 -0.75502235 0.21140398
1.5392573 -0.75500369 0.2114111
1.5391836 -0.7549814 0.21141109
1.5391102 -0.75496268 0.21141821
1.5390388 -0.75494713 0.2114304
1.5389655 -0.75492936 0.21143931
1.5388919 -0.75490975 0.21144466
1.5388185 -0.7548911 0.21145177
1.5387471 -0.75487286 0.21145862
1.5386734 -0.75485057 0.21145861
1.5385977 -0.75482601 0.21145532
1.5385243 -0.75480735 0.21146244
1.5384506 -0.75478417 0.21146062
1.5383723 -0.75474834 0.21143618
1.5382962 -0.75471568 0.21141684
1.5382179 -0.75467992 0.2113924
1.5381397 -0.75464499 0.21136974
1.5380616 -0.75461102 0.21134888
1.5356383 -0.75243211 0.20843489
1.5355675 -0.75242555 0.20846494
1.53549 -0.75240237 0.20846549
1.5356649 -0.75317889 0.20992401
1.5356553 -0.75337142 0.21031794
1.5356666 -0.7536301 0.21083246
1.5356238 -0.75371182 0.21102332
1.5357565 -0.75435323 0.21223527
1.5357437 -0.75452459 0.21258843
1.5357659 -0.75480622 0.21314259
1.5357833 -0.75507164 0.21366698
1.5357773 -0.75526321 0.21405679
1.535774 -0.7554661 0.2144677
1.5357796 -0.75569236 0.21492034
1.5357689 -0.75586772 0.21528035
1.5357695 -0.75607234 0.21569251
1.5357788 -0.75629681 0.21613923
1.5357748 -0.75648886 0.21652873
1.5357653 -0.75665206 0.21686348
1.535761 -0.75683868 0.21724229
1.5357492 -0.75699514 0.21756482
1.5357355 -0.75715023 0.21788587
1.5357262 -0.75731707 0.21822776
1.5357211 -0.75749105 0.21858157
1.5357186 -0.7576763 0.21895653
1.5357111 -0.75783998 0.219291
1.5357054 -0.75800496 0.21962696
1.5356935 -0.75815779 0.21994238
1.5356898 -0.75832236 0.22027628
1.5356866 -0.75849587 0.22062802
1.5356761 -0.75864196 0.22092888
1.5356665 -0.75880247 0.22125828
1.5356539 -0.75894719 0.22155762
1.5356394 -0.75908881 0.22185189
1.5356293 -0.75924027 0.22216344
1.535619 -0.75939083 0.2224732
1.5356085 -0.75953692 0.22277403
1.5356003 -0.75968885 0.22308531
1.5355965 -0.75985163 0.22341564
1.535586 -0.75999677 0.22371471
1.5355704 -0.76012123 0.22397506
1.5355573 -0.76025516 0.224253
1.5355425 -0.76039314 0.22454011
1.5355254 -0.76052439 0.22481504
1.5355129 -0.76066822 0.2251126
1.5355028 -0.76082057 0.22542593
1.5354946 -0.76097345 0.22573897
1.5354797 -0.7611087 0.22602075
1.535462 -0.76123089 0.22627783
1.5354536 -0.76137924 0.22658196
1.535436 -0.76150239 0.22684082
1.5772451 -0.76682752 0.20664501
1.5771738 -0.76681477 0.20666264
1.5771025 -0.76679838 0.20667312
1.5770329 -0.76677966 0.20667796
1.5769615 -0.76676416 0.20669022
1.5768903 -0.76675051 0.20670605
1.5768188 -0.76673228 0.20671298
1.5767493 -0.7667172 0.20672497
1.5766782 -0.76670355 0.2067408
1.5766068 -0.7666862 0.20674947
1.5765371 -0.76666939 0.2067579
1.5764642 -0.76665795 0.20677936
1.5763912 -0.76664656 0.20680082
1.5763216 -0.76662874 0.20680745
1.576252 -0.76660919 0.20681053
1.5761806 -0.7665928 0.20682101
1.5761093 -0.76657909 0.20683682
1.5760398 -0.76656222 0.20684525
1.5759701 -0.76654267 0.20684832
1.5758986 -0.76652443 0.20685524
1.5758274 -0.76651073 0.20687106
1.5757563 -0.76649976 0.20689224
1.575685 -0.76648521 0.20690629
1.5756135 -0.76646698 0.2069132
1.5755439 -0.76644921 0.20691983
1.5754726 -0.76643372 0.2069321
1.5754013 -0.76642001 0.20694794
1.5753318 -0.76640314 0.20695634
1.5752604 -0.76638585 0.20696504
1.5751891 -0.76637125 0.2069791
1.5751178 -0.76635575 0.20699134
1.5750465 -0.766343 0.20700896
1.5749754 -0.76633018 0.20702659
1.574904 -0.76631379 0.20703706
1.5748343 -0.76629424 0.20704013
1.5747631 -0.76627874 0.20705238
1.5746918 -0.76626593 0.20706999
1.5746205 -0.76625133 0.20708406
1.574551 -0.76623356 0.20709068
1.5744795 -0.76621538 0.2070976
1.5744101 -0.7662003 0.20710959
1.5743387 -0.76618391 0.20712006
1.5742691 -0.76616526 0.20712492
1.5741993 -0.76614565 0.20712799
1.5741279 -0.76612741 0.2071349
1.5740584 -0.76611149 0.20714509
1.5739869 -0.76609415 0.2071538
1.5739174 -0.76607728 0.20716222
1.5738461 -0.76606178 0.20717448
1.5737747 -0.76604629 0.20718676
1.5737034 -0.76603079 0.20719901
1.5736338 -0.76601303 0.20720564
1.5735643 -0.76599526 0.20721227
1.573493 -0.76598155 0.20722811
1.5734199 -0.76596928 0.20724778
1.5733486 -0.76595467 0.20726183
1.5732791 -0.76593691 0.20726846
1.5732096 -0.76592004 0.20727688
1.5731382 -0.76590365 0.20728736
1.5730668 -0.76588815 0.20729962
1.5729955 -0.76587266 0.20731188
1.572926 -0.76585668 0.20732209
1.5728546 -0.76584029 0.20733257
1.5727853 -0.76582432 0.20734276
1.5727139 -0.76580793 0.20735323
1.5726426 -0.76579422 0.20736909
1.5725714 -0.76578051 0.20738491
1.5725001 -0.76576596 0.20739895
1.5724305 -0.76574814 0.2074056
1.572359 -0.76572907 0.20741072
1.5722893 -0.76571131 0.20741735
1.5722179 -0.76569486 0.20742783
1.5721467 -0.76568031 0.2074419
1.5720773 -0.76566523 0.20745386
1.572006 -0.76565063 0.20746791
1.5719346 -0.76563513 0.20748016
1.571865 -0.76561648 0.20748502
1.5717937 -0.76560009 0.20749551
1.5717224 -0.76558638 0.20751134
1.5716528 -0.76556772 0.20751619
1.571583 -0.76554632 0.20751569
1.5715133 -0.76552671 0.20751876
1.5714419 -0.76551032 0.20752925
1.5713707 -0.76549846 0.20754863
1.5712996 -0.76548564 0.20756626
1.5712281 -0.76546925 0.20757674
1.5711569 -0.76545376 0.207589
1.5710875 -0.76543874 0.20760097
1.5710179 -0.76542091 0.20760761
1.5709465 -0.76540363 0.2076163
1.570877 -0.76538676 0.20762473
1.5708057 -0.76537216 0.20763877
1.5707344 -0.76535851 0.2076546
1.5706631 -0.7653439 0.20766863
1.5705917 -0.76532751 0.20767912
1.5705222 -0.76531065 0.20768754
1.5704507 -0.76529241 0.20769446
1.5703813 -0.76527828 0.20770822
1.57031 -0.76526368 0.20772226
1.5702386 -0.76524639 0.20773096
1.5701691 -0.76522952 0.20773938
1.5700977 -0.76521307 0.20774987
1.5700264 -0.76519853 0.20776391
1.5699553 -0.76518756 0.2077851
1.5698839 -0.76517206 0.20779735
1.5698144 -0.76515424 0.20780398
1.569743 -0.76513696 0.20781268
1.5696735 -0.76512098 0.20782289
1.569604 -0.76510412 0.20783129
1.5695325 -0.76508683 0.20784
1.5694631 -0.76507086 0.20785019
1.5693917 -0.76505536 0.20786247
1.5693204 -0.76503986 0.20787472
1.5692509 -0.76502299 0.20788315
1.5691794 -0.76500481 0.20789006
1.5691099 -0.76498973 0.20790204
1.5690368 -0.7649765 0.20791994
1.5689657 -0.76496375 0.20793754
1.5688962 -0.76494688 0.20794596
1.5688264 -0.76492637 0.20794725
1.568755 -0.76490998 0.20795773
1.5686855 -0.76489401 0.20796794
1.5686142 -0.76487851 0.20798019
1.568543 -0.76486391 0.20799424
1.5684735 -0.76484799 0.20800444
1.5684022 -0.7648325 0.20801671
1.5683308 -0.764817 0.20802897
1.5682614 -0.76480103 0.20803916
1.5681918 -0.76478416 0.20804758
1.5681204 -0.76476592 0.2080545
1.5680509 -0.76474905 0.20806292
1.5679795 -0.76473266 0.20807339
1.5679082 -0.76471806 0.20808744
1.5678388 -0.76470482 0.20810299
1.5677674 -0.76468754 0.20811167
1.5676978 -0.76466978 0.20811832
1.5676264 -0.76465333 0.20812881
1.5675551 -0.76463783 0.20814107
1.5674856 -0.76462102 0.20814949
1.567416 -0.7646023 0.20815434
1.5673445 -0.76458591 0.20816481
1.5672733 -0.7645722 0.20818064
1.567202 -0.76455766 0.20819469
1.5671327 -0.76454437 0.20821023
1.5670612 -0.76452619 0.20821714
1.5669917 -0.76450843 0.20822379
1.5669205 -0.76449656 0.20824318
1.5668492 -0.76448286 0.20825902
1.5667797 -0.76446509 0.20826563
1.5667082 -0.76444775 0.20827433
1.5666388 -0.76443273 0.20828632
1.5665678 -0.76442087 0.20830572
1.5664964 -0.76440537 0.20831798
1.5664268 -0.76438576 0.20832105
1.566357 -0.76436526 0.20832235
1.5662855 -0.76434708 0.20832926
1.5662142 -0.76433337 0.20834509
1.5661448 -0.76431835 0.20835707
1.5660734 -0.764301 0.20836577
1.5660039 -0.76428413 0.20837417
1.5659325 -0.76426774 0.20838466
1.565863 -0.76425177 0.20839486
1.5657917 -0.76423812 0.20841068
1.5657223 -0.76422304 0.20842266
1.5656508 -0.76420391 0.2084278
1.5655814 -0.76418978 0.20844156
1.5655084 -0.76417744 0.20846124
1.5654391 -0.76416421 0.2084768
1.5653695 -0.76414555 0.20848164
1.5652978 -0.76412553 0.20848499
1.5652283 -0.76410955 0.2084952
1.5651571 -0.76409495 0.20850924
1.5650876 -0.76407808 0.20851766
1.5650163 -0.76406348 0.20853171
1.5649451 -0.76405072 0.20854932
1.5648756 -0.76403296 0.20855594
1.5648059 -0.76401335 0.20855901
1.5647346 -0.76399785 0.20857129
1.5646634 -0.76398689 0.20859244
1.564594 -0.76397097 0.20860265
1.5645224 -0.76395094 0.208606
1.564453 -0.76393586 0.20861799
1.5643818 -0.76392311 0.2086356
1.5643123 -0.76390713 0.20864579
1.5642407 -0.76388711 0.20864916
1.5641712 -0.76386935 0.20865577
1.5640999 -0.76385564 0.20867161
1.5640287 -0.76384288 0.20868921
1.5639594 -0.76382869 0.20870298
1.5638881 -0.7638132 0.20871525
1.5638186 -0.76379633 0.20872366
1.5637473 -0.76378179 0.20873772
1.5636778 -0.76376581 0.20874791
1.5636061 -0.76374578 0.20875126
1.5635366 -0.76372981 0.20876145
1.5634655 -0.76371706 0.20877907
1.5633942 -0.76370245 0.20879313
1.5633247 -0.76368558 0.20880154
1.5632552 -0.76366782 0.20880815
1.5631838 -0.76365232 0.20882043
1.5631126 -0.76363862 0.20883626
1.5630431 -0.7636236 0.20884824
1.5629717 -0.76360625 0.20885694
1.5629022 -0.76359028 0.20886713
1.5628309 -0.76357478 0.20887941
1.5627614 -0.76355886 0.2088896
1.5626918 -0.76354015 0.20889446
1.5626204 -0.76352376 0.20890494
1.5625509 -0.76350778 0.20891514
1.5624794 -0.76348776 0.20891848
1.5624099 -0.76347089 0.2089269
1.5623386 -0.76345634 0.20894095
1.5622692 -0.76344305 0.20895649
1.5621998 -0.76342803 0.20896849
1.5621284 -0.76341164 0.20897897
1.5620589 -0.76339567 0.20898917
1.5619876 -0.76337928 0.20899963
1.5619164 -0.76336557 0.20901546
1.5618471 -0.76335233 0.20903102
1.5617756 -0.76333505 0.20903972
1.5617061 -0.76331723 0.20904635
1.5616347 -0.76330084 0.20905682
1.5615652 -0.76328486 0.20906702
1.5614957 -0.76326799 0.20907545
1.5614243 -0.7632525 0.2090877
1.561355 -0.76323837 0.20910147
1.5612835 -0.76322109 0.20911017
1.5612137 -0.76320058 0.20911145
1.5611442 -0.76318371 0.20911987
1.5610729 -0.76316822 0.20913213
1.5610036 -0.76315314 0.20914412
1.5609323 -0.76314038 0.20916173
1.560861 -0.76312578 0.20917577
1.5607915 -0.76310891 0.20918418
1.5607202 -0.76309431 0.20919824
1.5606508 -0.76307929 0.20921022
1.5605795 -0.76306379 0.2092225
1.5605102 -0.7630496 0.20923623
1.5604405 -0.76303184 0.20924288
1.5603691 -0.76301455 0.20925158
1.5602996 -0.76299858 0.20926178
1.560228 -0.76297855 0.20926513
1.5601583 -0.76295811 0.20926642
1.5600888 -0.76294124 0.20927483
1.5600175 -0.76292574 0.20928711
1.559948 -0.76290888 0.20929551
1.5598764 -0.76289153 0.20930421
1.5598074 -0.76288193 0.20932689
1.5597364 -0.76287276 0.20935163
1.5596672 -0.76286042 0.20936896
1.5595956 -0.76284039 0.20937231
1.5595257 -0.7628172 0.20936824
1.5594561 -0.76279944 0.20937487
1.5593867 -0.76278526 0.20938864
1.5593156 -0.76277161 0.20940447
1.5592444 -0.76275879 0.20942208
1.5591749 -0.76274288 0.20943227
1.5591052 -0.76272327 0.20943534
1.5590336 -0.76270413 0.20944048
1.5589644 -0.7626909 0.20945603
1.5588931 -0.7626763 0.20947009
1.5588235 -0.76265854 0.20947671
1.558754 -0.76264256 0.2094869
1.5586826 -0.76262528 0.2094956
1.5586131 -0.76260841 0.20950402
1.5585419 -0.76259565 0.20952165
1.5584725 -0.76258242 0.20953718
1.5584012 -0.76256692 0.20954946
1.5583318 -0.76255184 0.20956144
1.5582604 -0.76253545 0.20957191
1.5581908 -0.76251769 0.20957854
1.5581213 -0.76249993 0.20958517
1.5580499 -0.76248437 0.20959744
1.5579807 -0.76247114 0.209613
1.5579091 -0.76245385 0.20962168
1.5578394 -0.76243246 0.20962119
1.5577698 -0.7624138 0.20962605
1.5576985 -0.7623992 0.20964009
1.5576293 -0.76238775 0.20965919
1.5575581 -0.76237315 0.20967324
1.5574887 -0.76235992 0.20968878
1.5574174 -0.76234442 0.20970106
1.5573478 -0.76232576 0.20970592
1.5572783 -0.7623089 0.20971432
1.5572069 -0.7622934 0.2097266
1.5571374 -0.76227742 0.20973679
1.5570679 -0.76226056 0.2097452
1.5569965 -0.76224416 0.20975569
1.556927 -0.7622273 0.20976409
1.5568575 -0.76221132 0.2097743
1.5567862 -0.76219493 0.20978478
1.5567167 -0.76217896 0.20979497
1.5566454 -0.76216435 0.20980904
1.5565759 -0.76214844 0.20981923
1.5565068 -0.762137 0.20983833
1.5564355 -0.76212329 0.20985416
1.5563658 -0.76210374 0.20985723
1.5562962 -0.76208502 0.20986208
1.5562249 -0.76207048 0.20987612
1.5561556 -0.76205629 0.20988989
1.556084 -0.76203901 0.20989859
1.5560145 -0.76202124 0.20990524
1.5559452 -0.76200706 0.20991898
1.5558739 -0.76199245 0.20993303
1.5558044 -0.76197565 0.20994145
1.5557348 -0.76195693 0.2099463
1.5556635 -0.76194328 0.20996213
1.5555942 -0.76192999 0.20997769
1.5555246 -0.76191133 0.20998251
1.5554529 -0.76189131 0.20998588
1.5553837 -0.76187807 0.21000142
1.5553124 -0.76186436 0.21001726
1.555243 -0.76184845 0.21002746
1.5551734 -0.76183158 0.21003586
1.5551021 -0.76181698 0.21004991
1.5550327 -0.7618019 0.21006191
1.5549613 -0.76178551 0.21007238
1.5548918 -0.76176864 0.2100808
1.5548224 -0.76175356 0.21009278
1.5547512 -0.76173991 0.21010861
1.5546818 -0.76172394 0.2101188
1.5546104 -0.76170754 0.21012929
1.5545408 -0.76169068 0.2101377
1.5544711 -0.76167202 0.21014255
1.5543998 -0.76165557 0.21015304
1.5543306 -0.76164323 0.21017036
1.5542613 -0.76163089 0.21018769
1.5541899 -0.7616145 0.21019816
1.5541204 -0.76159763 0.21020658
1.5540509 -0.76158077 0.210215
1.5539793 -0.76156074 0.21021836
1.5539098 -0.76154387 0.21022677
1.5538384 -0.76152837 0.21023902
1.553769 -0.76151246 0.21024923
1.5536995 -0.76149738 0.21026123
1.5536282 -0.76148188 0.21027347
1.5535588 -0.76146775 0.21028724
1.5534894 -0.76145357 0.21030101
1.553418 -0.76143628 0.2103097
1.5533485 -0.76142031 0.21031991
1.553279 -0.76140255 0.21032654
1.5532074 -0.76138252 0.21032989
1.553138 -0.76136839 0.21034366
1.5530688 -0.76135606 0.21036097
1.5529974 -0.76133966 0.21037146
1.552928 -0.76132458 0.21038345
1.5528566 -0.76130819 0.21039394
1.5527869 -0.76128948 0.21039878
1.5527173 -0.76127172 0.21040541
1.552646 -0.76125622 0.21041767
1.5525767 -0.76124209 0.21043144
1.5525053 -0.7612257 0.21044192
1.5524359 -0.76120973 0.21045212
1.5523664 -0.76119375 0.21046233
1.552295 -0.76117736 0.21047279
1.5522255 -0.76116139 0.210483
1.5521561 -0.76114637 0.21049497
1.5520848 -0.76113266 0.21051082
1.5520155 -0.76111853 0.21052456
1.5519462 -0.76110435 0.21053833
1.5518746 -0.76108706 0.21054703
1.5518051 -0.76107019 0.21055543
1.5517358 -0.76105422 0.21056564
1.5516641 -0.76103508 0.21057078
1.5515946 -0.76101732 0.21057741
1.5515233 -0.76100278 0.21059147
1.5514538 -0.7609868 0.21060166
1.5513843 -0.76096994 0.21061008
1.551313 -0.76095533 0.21062413
1.5512437 -0.76094121 0.21063788
1.5511744 -0.76092792 0.21065344
1.551103 -0.76091152 0.21066391
1.5510335 -0.76089561 0.21067411
1.5509641 -0.76088053 0.21068609
1.5508927 -0.76086414 0.21069658
1.5508233 -0.76084906 0.21070856
1.5507517 -0.76082993 0.21071368
1.5506821 -0.76081127 0.21071854
1.5506128 -0.76079714 0.21073231
1.5505415 -0.76078343 0.21074814
1.5504723 -0.7607711 0.21076547
1.5504028 -0.76075512 0.21077567
1.5503315 -0.76073873 0.21078613
1.5502619 -0.76072097 0.21079278
1.5501904 -0.76070458 0.21080326
1.5501209 -0.7606886 0.21081346
1.5500516 -0.76067352 0.21082544
1.5499803 -0.76065898 0.21083948
1.5499107 -0.76064122 0.21084611
1.5498412 -0.7606234 0.21085274
1.5497698 -0.7606079 0.21086502
1.5497004 -0.76059198 0.21087521
1.549629 -0.76057553 0.2108857
1.5495595 -0.76055872 0.21089411
1.5494899 -0.7605409 0.21090075
1.5494184 -0.76052451 0.21091123
1.5493491 -0.76051039 0.21092498
1.5492798 -0.7604962 0.21093875
1.5492083 -0.76047802 0.21094567
1.5491388 -0.76046294 0.21095765
1.5490695 -0.76044881 0.21097142
1.5489981 -0.76043242 0.21098191
1.5489285 -0.76041371 0.21098675
1.5488571 -0.76039732 0.21099722
1.5487876 -0.76038134 0.21100743
1.5487183 -0.76036811 0.21102297
1.548647 -0.76035446 0.2110388
1.5485775 -0.76033664 0.21104543
1.5485059 -0.76031756 0.21105057
1.5484365 -0.76030159 0.21106076
1.5483651 -0.76028609 0.21107304
1.5482956 -0.76027012 0.21108323
1.5482264 -0.76025599 0.21109699
1.548157 -0.76024181 0.21111076
1.5480855 -0.76022363 0.21111767
1.548016 -0.76020765 0.21112788
1.5479447 -0.76019216 0.21114014
1.5478753 -0.76017708 0.21115211
1.5478058 -0.76016116 0.21116231
1.5477344 -0.76014382 0.21117102
1.5476648 -0.76012605 0.21117765
1.5475932 -0.76010787 0.21118456
1.5475239 -0.7600919 0.21119475
1.5474526 -0.76007915 0.21121237
1.5473832 -0.76006407 0.21122435
1.5473137 -0.7600472 0.21123278
1.5472425 -0.76003444 0.21125039
1.5471731 -0.76002026 0.21126415
1.5471035 -0.76000249 0.21127078
1.5470322 -0.7599861 0.21128127
1.5469629 -0.75997192 0.21129502
1.5468913 -0.75995374 0.21130195
1.5468216 -0.75993323 0.21130323
1.5467501 -0.7599141 0.21130836
1.5466808 -0.75990176 0.21132569
1.5466117 -0.75989127 0.21134658
1.5465424 -0.75987893 0.21136391
1.546471 -0.75986254 0.2113744
1.5464014 -0.75984472 0.21138102
1.54633 -0.75982744 0.21138972
1.5462605 -0.75981057 0.21139814
1.5461888 -0.75979054 0.21140149
1.5461193 -0.75977367 0.21140991
1.546048 -0.75975907 0.21142396
1.5459787 -0.75974405 0.21143594
1.5459092 -0.75972807 0.21144614
1.5458379 -0.75971347 0.21146017
1.5457685 -0.75969934 0.21147394
1.5456971 -0.75968111 0.21148086
1.5456274 -0.75966245 0.21148571
1.5455559 -0.75964516 0.21149442
1.5454867 -0.75963187 0.21150996
1.5454152 -0.75961459 0.21151866
1.5453458 -0.75959951 0.21153064
1.5452744 -0.75958312 0.21154112
1.5452049 -0.75956625 0.21154955
1.5451334 -0.75954711 0.21155468
1.5450639 -0.75953031 0.21156308
1.5449944 -0.75951523 0.21157506
1.5449231 -0.75949973 0.21158734
1.5448537 -0.75948465 0.21159932
1.5447822 -0.75946558 0.21160445
1.5447105 -0.75944644 0.21160959
1.544641 -0.75942868 0.21161622
1.5445696 -0.75941229 0.21162671
1.5445001 -0.75939721 0.21163869
1.5444288 -0.75938261 0.21165273
1.5443594 -0.75936663 0.21166293
1.5442901 -0.75935251 0.21167669
1.5442188 -0.75933701 0.21168895
1.5441493 -0.75932103 0.21169916
1.5440776 -0.75930101 0.2117025
1.544008 -0.75928235 0.21170735
1.5439367 -0.75926685 0.21171963
1.5438672 -0.75925177 0.2117316
1.5437958 -0.75923359 0.21173851
1.5437243 -0.75921535 0.21174544
1.5436547 -0.75919759 0.21175206
1.543583 -0.75917667 0.21175364
1.5435114 -0.75915664 0.211757
1.5434419 -0.75913888 0.21176362
1.5433704 -0.75912154 0.21177232
1.543301 -0.75910556 0.21178252
1.5432293 -0.75908554 0.21178588
1.5431577 -0.75906557 0.21178924
1.5430862 -0.75904644 0.21179436
1.5430143 -0.75902188 0.2117888
1.5429424 -0.75899732 0.21178325
1.5428686 -0.75897139 0.21177618
1.5422703 -0.7569657 0.20812073
1.5421941 -0.75693297 0.20810148
1.5421081 -0.75686049 0.20800853
1.5420264 -0.75680065 0.20793815
1.5415243 -0.75526106 0.20515831
1.5415319 -0.75558269 0.20579809
1.5414716 -0.75562513 0.20591971
1.5414133 -0.75566888 0.20604286
1.5413502 -0.7556982 0.20613982
1.5412819 -0.75570035 0.20618567
1.5412086 -0.75568533 0.2062
1.5411352 -0.75566578 0.2062054
1.5410597 -0.75564575 0.2062111
1.5409843 -0.75562394 0.20621324
1.5409106 -0.75560164 0.20621333
1.5411586 -0.75689697 0.20865813
1.5410874 -0.75688511 0.20867752
1.5410184 -0.7568773 0.20870376
1.5409476 -0.75686997 0.20873207
1.5408764 -0.75685716 0.20874967
1.5408028 -0.75683761 0.20875509
1.5407293 -0.75681716 0.20875873
1.5406559 -0.75679666 0.20876235
1.5405842 -0.75677752 0.2087675
1.5405108 -0.75675887 0.2087747
1.5404375 -0.75674117 0.20878369
1.5403661 -0.75672472 0.20879415
1.5402927 -0.7567088 0.20880671
1.5402213 -0.75669146 0.2088154
1.5401478 -0.75667012 0.20881726
1.5400741 -0.75664872 0.20881912
1.5400008 -0.75663191 0.20882988
1.5399275 -0.75661504 0.20884064
1.5398562 -0.75660044 0.20885468
1.5397851 -0.75658947 0.20887586
1.5397139 -0.75657582 0.20889169
1.5396405 -0.75655806 0.20890068
1.5395669 -0.75653577 0.20890075
1.5394934 -0.75651711 0.20890795
1.5394222 -0.75650162 0.20892021
1.5393487 -0.75648385 0.20892918
1.5392753 -0.7564643 0.20893461
1.5392017 -0.75644475 0.20894003
1.5391303 -0.75642741 0.20894873
1.5390567 -0.75640512 0.20894879
1.538981 -0.75638062 0.2089456
1.5389075 -0.75636196 0.20895278
1.5388339 -0.75633878 0.20895109
1.5387557 -0.75630289 0.20892677
1.5386795 -0.75627023 0.20890751
1.5386012 -0.75623345 0.20888141
1.538523 -0.75619942 0.20886067
1.5384448 -0.75616449 0.20883814
1.53602 -0.75397861 0.20593062
1.5359492 -0.75397217 0.20596069
1.5358719 -0.75394988 0.2059631
1.5360473 -0.7547282 0.20741606
1.5360359 -0.75492215 0.20781156
1.5360497 -0.75518709 0.20833406
1.5360069 -0.75526935 0.20852473
1.5361401 -0.75591016 0.20972788
1.5361253 -0.75608009 0.21007735
1.53615 -0.75636721 0.21063763
1.5361675 -0.75663215 0.2111578
1.5361617 -0.75682378 0.21154533
1.5361586 -0.75702858 0.21195753
1.5361644 -0.75725508 0.2124078
1.5361559 -0.75743359 0.21277067
1.5361567 -0.75764018 0.21318409
1.5361642 -0.75786352 0.21362695
1.5361603 -0.75805563 0.2140142
1.5361511 -0.75822055 0.21435033
1.5361469 -0.75840813 0.21472865
1.5361353 -0.75856537 0.21505082
1.5361216 -0.75872129 0.21537146
1.5361125 -0.75888985 0.21571472
1.5361077 -0.75906384 0.21606633
1.5361053 -0.75925004 0.21644081
1.5360979 -0.75941455 0.21677488
1.5360925 -0.75958037 0.21711043
1.5360826 -0.75973535 0.21742696
1.5360771 -0.75989938 0.21775895
1.536074 -0.76007295 0.21810849
1.5360638 -0.76022065 0.21841076
1.5360544 -0.76038289 0.21874154
1.536042 -0.76052749 0.21903872
1.5360274 -0.76066887 0.21933088
1.5360175 -0.76082295 0.2196456
1.5360074 -0.76097345 0.21995321
1.5359972 -0.76112115 0.22025548
1.535989 -0.76127386 0.22056638
1.5359854 -0.76143652 0.22089452
1.5359749 -0.76158249 0.22119322
1.5359595 -0.7617076 0.22145326
1.5359465 -0.76184219 0.22173086
1.5359318 -0.76198089 0.22201766
1.5359149 -0.76211369 0.22229403
1.5359025 -0.76225829 0.22259122
1.5358925 -0.76241058 0.22290242
1.5358845 -0.76256418 0.22321507
1.5358697 -0.76270014 0.22349653
1.5358522 -0.76282305 0.22375329
1.5358438 -0.76297212 0.22405706
1.5358264 -0.76309586 0.22431561
1.5777304 -0.76877588 0.20340368
1.5776592 -0.76876312 0.20342138
1.577588 -0.76874679 0.20343195
1.5775182 -0.76872814 0.20343688
1.5774469 -0.7687127 0.20344925
1.5773758 -0.76869905 0.20346515
1.5773042 -0.76868087 0.20347217
1.5772347 -0.76866496 0.20348245
1.5771636 -0.76865226 0.20350014
1.5770922 -0.76863497 0.20350893
1.5770227 -0.76861817 0.20351744
1.5769496 -0.76860684 0.20353897
1.5768765 -0.76859456 0.20355871
1.576807 -0.76857775 0.20356722
1.5767374 -0.7685582 0.2035704
1.576666 -0.76854181 0.20358098
1.5765947 -0.76852733 0.20359509
1.5765252 -0.76851141 0.20360538
1.5764556 -0.7684918 0.20360854
1.5763841 -0.76847273 0.20361377
1.5763128 -0.76846004 0.20363146
1.5762417 -0.76844913 0.20365271
1.5761704 -0.76843458 0.20366684
1.576099 -0.7684164 0.20367385
1.5760294 -0.76839775 0.2036788
1.5759581 -0.76838326 0.20369291
1.5758868 -0.76836962 0.20370883
1.5758173 -0.76835281 0.20371734
1.5757459 -0.76833552 0.20372614
1.5756747 -0.76832098 0.20374027
1.5756032 -0.76830554 0.20375261
1.5755321 -0.76829284 0.20377031
1.575461 -0.76828104 0.20378977
1.5753895 -0.76826376 0.20379856
1.5753199 -0.76824421 0.20380172
1.5752485 -0.76822782 0.2038123
1.5751773 -0.76821512 0.20382999
1.575106 -0.76820058 0.20384412
1.5750365 -0.76818377 0.20385262
1.574965 -0.76816559 0.20385963
1.5748956 -0.76815057 0.2038717
1.5748242 -0.76813424 0.20388228
1.5747546 -0.76811558 0.20388722
1.5746849 -0.76809603 0.20389038
1.5746135 -0.76807785 0.20389739
1.574544 -0.76806194 0.20390767
1.5744725 -0.76804465 0.20391646
1.5744029 -0.76802784 0.20392498
1.5743316 -0.76801234 0.20393732
1.5742604 -0.76799691 0.20394967
1.5741889 -0.76798147 0.20396203
1.5741194 -0.76796377 0.20396875
1.5740498 -0.767946 0.20397547
1.5739785 -0.76793236 0.20399138
1.5739056 -0.76792014 0.20401114
1.5738343 -0.76790559 0.20402527
1.5737647 -0.76788783 0.20403199
1.5736952 -0.76787102 0.2040405
1.5736238 -0.76785469 0.20405108
1.5735525 -0.76783925 0.20406342
1.5734811 -0.76782376 0.20407577
1.5734117 -0.76780784 0.20408607
1.5733403 -0.76779151 0.20409662
1.5732708 -0.7677756 0.20410691
1.5731994 -0.76775926 0.20411748
1.5731281 -0.76774472 0.2041316
1.5730569 -0.76773202 0.20414931
1.5729856 -0.76771653 0.20416164
1.572916 -0.76769882 0.20416838
1.5728445 -0.76768064 0.20417538
1.5727749 -0.76766199 0.20418033
1.5727035 -0.7676456 0.20419091
1.5726323 -0.76763201 0.20420682
1.5725629 -0.76761699 0.20421886
1.5724915 -0.76760155 0.20423123
1.5724202 -0.76758701 0.20424536
1.5723506 -0.76756835 0.20425031
1.5722792 -0.76755202 0.20426087
1.572208 -0.76753837 0.20427679
1.5721383 -0.76751882 0.20427996
1.5720686 -0.76749837 0.20428133
1.571999 -0.76747876 0.2042845
1.5719275 -0.76746243 0.20429507
1.5718564 -0.76745063 0.20431454
1.5717852 -0.76743698 0.20433044
1.5717139 -0.76742154 0.20434281
1.5716425 -0.76740611 0.20435515
1.5715731 -0.76739109 0.20436722
1.5715035 -0.76737338 0.20437396
1.5714321 -0.7673561 0.20438273
1.5713626 -0.76733929 0.20439124
1.5712913 -0.76732475 0.20440537
1.57122 -0.7673111 0.20442128
1.5711488 -0.76729655 0.20443541
1.5710775 -0.76728022 0.20444599
1.5710078 -0.76726341 0.20445448
1.5709364 -0.76724523 0.20446149
1.5708671 -0.76723111 0.20447534
1.5707958 -0.76721656 0.20448947
1.5707244 -0.76719934 0.20449826
1.5706547 -0.76718247 0.20450675
1.5705835 -0.76716614 0.20451733
1.5705122 -0.76715159 0.20453146
1.570441 -0.76714069 0.20455271
1.5703697 -0.76712525 0.20456505
1.5703001 -0.76710659 0.20457001
1.5702287 -0.76709026 0.20458058
1.5701592 -0.76707435 0.20459086
1.5700897 -0.76705754 0.20459937
1.5700183 -0.76704025 0.20460816
1.5699488 -0.76702434 0.20461845
1.5698775 -0.7670089 0.20463079
1.5698061 -0.7669934 0.20464315
1.5697366 -0.76697659 0.20465165
1.5696651 -0.76695842 0.20465866
1.5695957 -0.76694345 0.20467073
1.5695226 -0.76693028 0.2046887
1.5694515 -0.76691759 0.20470639
1.569382 -0.76690072 0.20471489
1.5693122 -0.76688027 0.20471628
1.5692408 -0.76686388 0.20472685
1.5691713 -0.76684797 0.20473714
1.5691 -0.76683253 0.20474948
1.5690287 -0.76681799 0.20476362
1.5689592 -0.76680207 0.2047739
1.5688879 -0.76678663 0.20478626
1.5688165 -0.7667712 0.20479861
1.5687472 -0.76675528 0.20480889
1.5686777 -0.76673847 0.2048174
1.5686061 -0.76672029 0.20482442
1.5685366 -0.76670343 0.20483291
1.5684652 -0.7666871 0.20484348
1.5683939 -0.76667255 0.20485762
1.5683247 -0.76665938 0.20487323
1.5682532 -0.76664209 0.20488203
1.5681837 -0.76662439 0.20488875
1.5681123 -0.766608 0.20489931
1.5680408 -0.76659256 0.20491168
1.5679713 -0.76657575 0.20492017
1.5679017 -0.7665571 0.20492512
1.5678303 -0.76654071 0.2049357
1.567759 -0.76652622 0.20494983
1.5676879 -0.76651257 0.20496574
1.5676185 -0.7664994 0.20498136
1.5675471 -0.76648122 0.20498836
1.5674775 -0.76646346 0.2049951
1.5674064 -0.76645166 0.20501456
1.5673351 -0.76643807 0.20503047
1.5672655 -0.7664203 0.20503719
1.5671941 -0.76640302 0.20504598
1.5671247 -0.76638806 0.20505805
1.5670536 -0.76637626 0.20507751
1.5669823 -0.76636076 0.20508987
1.5669125 -0.76634121 0.20509304
1.5668428 -0.76632077 0.20509443
1.5667714 -0.76630259 0.20510143
1.5667001 -0.76628894 0.20511734
1.5666307 -0.76627392 0.20512941
1.5665593 -0.76625669 0.20513821
1.5664897 -0.76623982 0.2051467
1.5664183 -0.76622349 0.20515728
1.5663489 -0.76620758 0.20516756
1.5662776 -0.76619393 0.20518348
1.5662082 -0.76617897 0.20519553
1.5661367 -0.76615983 0.20520076
1.5660673 -0.76614577 0.20521462
1.5659943 -0.76613355 0.20523436
1.565925 -0.76612031 0.20524999
1.5658554 -0.76610172 0.20525494
1.5657837 -0.76608169 0.20525838
1.5657144 -0.76606578 0.20526868
1.5656431 -0.76605123 0.20528281
1.5655735 -0.76603442 0.2052913
1.5655022 -0.76601899 0.20530367
1.565431 -0.76600718 0.20532313
1.5653615 -0.76598942 0.20532985
1.5652918 -0.76596987 0.20533302
1.5652205 -0.76595443 0.20534536
1.5651494 -0.76594353 0.20536661
1.5650799 -0.76592761 0.20537689
1.5650083 -0.76590759 0.20538035
1.5649389 -0.76589262 0.20539242
1.5648677 -0.76587987 0.20541011
1.5647982 -0.76586396 0.2054204
1.5647267 -0.76584399 0.20542383
1.5646571 -0.76582623 0.20543057
1.5645858 -0.76581168 0.20544469
1.5645146 -0.76579899 0.2054624
1.5644454 -0.76578581 0.20547801
1.564374 -0.76577038 0.20549035
1.5643045 -0.76575351 0.20549887
1.5642332 -0.76573902 0.205513
1.5641638 -0.76572311 0.20552328
1.5640941 -0.7657035 0.20552644
1.5640227 -0.76568717 0.20553702
1.5639515 -0.76567447 0.20555471
1.5638802 -0.76565993 0.20556885
1.5638107 -0.76564306 0.20557734
1.5637411 -0.76562536 0.20558406
1.5636698 -0.76560992 0.20559642
1.5635986 -0.76559627 0.20561233
1.5635291 -0.76558125 0.20562439
1.5634577 -0.76556402 0.20563318
1.5633882 -0.76554811 0.20564348
1.5633169 -0.76553357 0.2056576
1.5632474 -0.76551676 0.2056661
1.5631778 -0.7654981 0.20567104
1.5631064 -0.76548171 0.20568162
1.563037 -0.7654658 0.2056919
1.5629654 -0.76544583 0.20569536
1.5628959 -0.76542896 0.20570385
1.5628246 -0.76541442 0.20571798
1.5627553 -0.76540124 0.20573361
1.5626858 -0.76538628 0.20574568
1.5626144 -0.765369 0.20575446
1.5625451 -0.76535398 0.20576653
1.5624737 -0.76533765 0.20577711
1.5624024 -0.765324 0.20579302
1.5623331 -0.76531082 0.20580864
1.5622617 -0.76529354 0.20581743
1.5621921 -0.76527584 0.20582415
1.5621207 -0.76525944 0.20583472
1.5620513 -0.76524353 0.20584501
1.5619817 -0.76522672 0.20585352
1.5619104 -0.76521128 0.20586586
1.561841 -0.76519716 0.20587972
1.5617696 -0.76517987 0.20588849
1.5616999 -0.76515943 0.20588988
1.5616304 -0.76514262 0.2058984
1.561559 -0.76512718 0.20591074
1.5614896 -0.76511216 0.20592281
1.5614184 -0.76509947 0.20594049
1.5613471 -0.76508492 0.20595463
1.5612776 -0.76506805 0.20596313
1.5612063 -0.76505357 0.20597726
1.561137 -0.76503855 0.20598933
1.5610656 -0.76502311 0.20600167
1.5609962 -0.76500809 0.20601374
1.5609267 -0.76499128 0.20602225
1.5608553 -0.764974 0.20603104
1.5607858 -0.76495808 0.20604132
1.5607141 -0.76493806 0.20604476
1.5606444 -0.76491761 0.20604616
1.5605749 -0.7649008 0.20605467
1.5605036 -0.76488531 0.20606701
1.560434 -0.7648676 0.20607373
1.5603626 -0.76485121 0.20608431
1.5602936 -0.76484168 0.20610705
1.5602226 -0.76483262 0.20613186
1.5601534 -0.76482034 0.20614927
1.5600817 -0.76480037 0.20615271
1.5600119 -0.76477712 0.20614876
1.5599422 -0.76475942 0.20615549
1.5598729 -0.7647453 0.20616934
1.5598017 -0.76473171 0.20618525
1.5597305 -0.76471901 0.20620292
1.559661 -0.76470309 0.20621321
1.5595914 -0.76468349 0.20621638
1.5595198 -0.76466441 0.20622161
1.5594505 -0.76465124 0.20623724
1.5593792 -0.7646367 0.20625137
1.5593096 -0.76461899 0.20625809
1.5592402 -0.76460302 0.20626837
1.5591687 -0.76458579 0.20627716
1.5590992 -0.76456892 0.20628569
1.559028 -0.76455623 0.20630336
1.5589588 -0.76454306 0.20631899
1.5588875 -0.76452762 0.20633134
1.558818 -0.7645126 0.20634341
1.5587466 -0.76449627 0.20635396
1.5586771 -0.7644785 0.2063607
1.5586075 -0.7644608 0.20636743
1.5585362 -0.7644453 0.20637977
1.5584669 -0.76443213 0.20639539
1.5583955 -0.7644158 0.20640597
1.5583256 -0.76439351 0.20640379
1.558256 -0.76437485 0.20640874
1.5581847 -0.76436031 0.20642287
1.5581155 -0.76434892 0.20644206
1.5580442 -0.76433444 0.20645618
1.5579749 -0.76432121 0.2064718
1.5579036 -0.76430577 0.20648415
1.557834 -0.76428711 0.20648912
1.5577644 -0.76427031 0.20649761
1.5576931 -0.76425487 0.20650996
1.5576236 -0.76423895 0.20652024
1.5575541 -0.76422215 0.20652875
1.5574827 -0.76420575 0.20653932
1.5574132 -0.76418895 0.20654783
1.5573437 -0.76417303 0.20655811
1.5572724 -0.76415664 0.20656869
1.5572029 -0.76414073 0.20657897
1.5571316 -0.76412624 0.2065931
1.5570621 -0.76411033 0.20660338
1.556993 -0.76409894 0.20662257
1.5569217 -0.76408529 0.20663847
1.5568521 -0.76406574 0.20664164
1.5567825 -0.76404709 0.20664659
1.5567112 -0.76403254 0.20666072
1.5566419 -0.76401937 0.20667633
1.5565704 -0.76400119 0.20668335
1.5565009 -0.76398438 0.20669186
1.5564314 -0.76396936 0.20670392
1.5563601 -0.76395482 0.20671804
1.5562906 -0.76393712 0.20672478
1.556221 -0.76391935 0.2067315
1.5561498 -0.76390576 0.20674741
1.5560805 -0.76389253 0.20676303
1.5560108 -0.76387393 0.20676798
1.5559393 -0.76385391 0.20677143
1.5558699 -0.76383984 0.20678528
1.5557988 -0.76382709 0.20680296
1.5557293 -0.76381117 0.20681325
1.5556598 -0.76379436 0.20682174
1.5555885 -0.76377982 0.20683588
1.5555191 -0.7637648 0.20684795
1.5554477 -0.76374847 0.20685852
1.5553782 -0.76373166 0.20686702
1.5553088 -0.76371753 0.20688087
1.5552377 -0.76370394 0.20689678
1.5551682 -0.76368803 0.20690706
1.5550967 -0.76367164 0.20691763
1.5550271 -0.76365393 0.20692435
1.5549575 -0.76363528 0.2069293
1.5548861 -0.76361889 0.20693988
1.554817 -0.76360661 0.20695728
1.5547477 -0.76359439 0.20697469
1.5546763 -0.763578 0.20698525
1.5546068 -0.76356119 0.20699376
1.5545373 -0.76354438 0.20700227
1.5544657 -0.76352435 0.20700571
1.5543962 -0.76350754 0.20701423
1.5543247 -0.76349205 0.20702657
1.5542554 -0.76347613 0.20703685
1.5541859 -0.76346117 0.20704892
1.5541146 -0.76344573 0.20706128
1.5540453 -0.7634325 0.20707689
1.5539758 -0.76341754 0.20708895
1.5539044 -0.76340026 0.20709774
1.5538349 -0.76338434 0.20710804
1.5537654 -0.76336658 0.20711476
1.5536938 -0.76334661 0.20711821
1.5536244 -0.76333249 0.20713206
1.5535553 -0.76332021 0.20714946
1.5534838 -0.76330388 0.20716003
1.5534143 -0.76328886 0.2071721
1.5533431 -0.76327252 0.20718268
1.5532734 -0.76325476 0.2071894
1.5532038 -0.76323611 0.20719433
1.5531324 -0.76322067 0.2072067
1.5530632 -0.7632066 0.20722054
1.5529917 -0.76319021 0.2072311
1.5529222 -0.7631743 0.20724139
1.5528527 -0.76315838 0.20725167
1.5527815 -0.76314205 0.20726225
1.552712 -0.76312613 0.20727253
1.5526426 -0.76311111 0.2072846
1.5525713 -0.76309752 0.2073005
1.5525019 -0.7630834 0.20731434
1.5524327 -0.76306933 0.20732819
1.5523611 -0.76305205 0.20733698
1.5522916 -0.76303524 0.20734549
1.5522221 -0.76301932 0.20735577
1.5521506 -0.76300019 0.20736101
1.5520811 -0.76298338 0.20736951
1.5520098 -0.76296794 0.20738186
1.5519403 -0.76295203 0.20739214
1.5518708 -0.76293522 0.20740065
1.5517995 -0.76292068 0.20741478
1.5517302 -0.76290655 0.20742862
1.5516609 -0.76289338 0.20744425
1.5515895 -0.76287705 0.20745482
1.55152 -0.76286113 0.2074651
1.5514506 -0.76284611 0.20747717
1.5513792 -0.76282978 0.20748773
1.5513098 -0.76281476 0.2074998
1.5512383 -0.76279563 0.20750503
1.5511687 -0.76277703 0.20750998
1.5510993 -0.7627629 0.20752382
1.551028 -0.76274931 0.20753974
1.5509588 -0.76273704 0.20755714
1.5508894 -0.76272112 0.20756742
1.550818 -0.76270473 0.20757799
1.5507483 -0.76268703 0.20758471
1.5506769 -0.76267064 0.20759529
1.5506076 -0.76265472 0.20760557
1.5505382 -0.7626397 0.20761764
1.5504669 -0.76262522 0.20763177
1.5503973 -0.76260746 0.20763849
1.5503278 -0.76259065 0.207647
1.5502564 -0.76257426 0.20765756
1.5501869 -0.76255834 0.20766786
1.5501155 -0.76254201 0.20767842
1.550046 -0.7625252 0.20768693
1.5499765 -0.76250744 0.20769365
1.5499051 -0.76249111 0.20770422
1.5498357 -0.76247698 0.20771807
1.5497663 -0.76246291 0.2077319
1.5496948 -0.76244473 0.20773894
1.5496254 -0.76242971 0.20775098
1.549556 -0.76241559 0.20776483
1.5494847 -0.76239926 0.2077754
1.5494151 -0.7623806 0.20778036
1.5493437 -0.76236427 0.20779093
1.5492742 -0.76234835 0.20780121
1.5492049 -0.76233518 0.20781682
1.5491337 -0.76232153 0.20783272
1.5490642 -0.76230377 0.20783946
1.5489925 -0.7622847 0.20784469
1.5489231 -0.76226878 0.20785499
1.5488517 -0.76225334 0.20786732
1.5487823 -0.76223743 0.20787761
1.548713 -0.7622233 0.20789146
1.5486436 -0.76220924 0.20790529
1.5485721 -0.76219106 0.20791231
1.5485027 -0.76217514 0.20792261
1.5484313 -0.76215971 0.20793495
1.5483619 -0.76214468 0.20794702
1.5482924 -0.76212877 0.2079573
1.548221 -0.76211149 0.20796609
1.5481514 -0.76209378 0.20797282
1.5480798 -0.7620756 0.20797983
1.5480105 -0.76205969 0.20799011
1.5479393 -0.76204693 0.20800781
1.5478699 -0.76203197 0.20801985
1.5478003 -0.7620151 0.20802838
1.5477291 -0.76200241 0.20804605
1.5476599 -0.76198834 0.20805991
1.5475903 -0.76197058 0.20806663
1.5475188 -0.76195425 0.20807719
1.5474495 -0.76194012 0.20809104
1.5473781 -0.76192194 0.20809805
1.5473083 -0.76190239 0.20810121
1.5472367 -0.76188236 0.20810467
1.5471674 -0.76187015 0.20812207
1.5470984 -0.76185966 0.20814303
1.5470291 -0.76184738 0.20816043
1.5469577 -0.76183105 0.20817101
1.5468881 -0.76181328 0.20817775
1.5468167 -0.76179695 0.2081883
1.5467472 -0.76178014 0.20819682
1.5466756 -0.76175922 0.20819849
1.5466061 -0.76174235 0.20820698
1.5465348 -0.76172787 0.20822112
1.5464653 -0.76171196 0.2082314
1.5463959 -0.76169693 0.20824347
1.5463246 -0.76168239 0.20825759
1.5462552 -0.76166737 0.20826967
1.5461837 -0.76165009 0.20827845
1.5461141 -0.76163149 0.20828339
1.5460428 -0.7616151 0.20829397
1.5459734 -0.76160103 0.20830782
1.545902 -0.76158464 0.20831838
1.5458325 -0.76156873 0.20832866
1.5457612 -0.76155329 0.20834102
1.5456916 -0.76153558 0.20834774
1.5456201 -0.76151645 0.20835298
1.5455506 -0.76149964 0.20836149
1.5454811 -0.76148373 0.20837177
1.5454098 -0.76146919 0.20838591
1.5453404 -0.76145416 0.20839795
1.5452689 -0.76143509 0.2084032
1.5451972 -0.76141602 0.20840843
1.5451277 -0.76139826 0.20841515
1.5450563 -0.76138192 0.20842573
1.544987 -0.7613669 0.20843779
1.5449157 -0.76135236 0.20845193
1.5448462 -0.76133645 0.20846221
1.5447768 -0.76132238 0.20847605
1.5447054 -0.76130599 0.20848662
1.544636 -0.76129007 0.2084969
1.5445645 -0.761271 0.20850214
1.5444947 -0.76125234 0.20850709
1.5444235 -0.76123691 0.20851943
1.5443541 -0.76122189 0.2085315
1.5442826 -0.76120371 0.2085385
1.544211 -0.76118553 0.20854552
1.5441414 -0.76116687 0.20855047
1.5440698 -0.7611469 0.20855391
1.5439982 -0.76112688 0.20855737
1.5439286 -0.76110911 0.2085641
1.5438571 -0.76109093 0.20857111
1.5437877 -0.76107502 0.20858139
1.5437161 -0.76105595 0.20858663
1.5436445 -0.76103687 0.20859185
1.5435729 -0.76101685 0.20859531
1.543501 -0.76099139 0.20858809
1.5434291 -0.76096684 0.20858264
1.5433553 -0.7609418 0.20857748
1.5427548 -0.75892276 0.20492518
1.5426787 -0.75889182 0.20490962
1.5425925 -0.75881904 0.20481694
1.5425109 -0.75875902 0.2047468
1.5420808 -0.75751972 0.20254216
1.5420148 -0.75753248 0.2026073
1.5419548 -0.75757718 0.20273241
1.5418965 -0.75762135 0.20285544
1.5418336 -0.75765097 0.20295233
1.5417652 -0.7576533 0.20299821
1.541692 -0.75763834 0.20301262
1.5416185 -0.75761878 0.20301813
1.5415431 -0.75759882 0.20302394
1.5414677 -0.7575779 0.20302796
1.5413939 -0.75755382 0.2030246
1.5416433 -0.75885779 0.20546691
1.5415722 -0.75884598 0.20548639
1.5415032 -0.75883824 0.20551267
1.5414324 -0.75883102 0.20554104
1.5413612 -0.75881833 0.20555873
1.5412878 -0.75879878 0.20556426
1.5412142 -0.75877833 0.20556799
1.5411406 -0.758757 0.20556995
1.541069 -0.75873786 0.20557517
1.5409957 -0.75872016 0.20558426
1.5409223 -0.75870246 0.20559332
1.5408509 -0.75868607 0.2056039
1.5407777 -0.75867021 0.20561653
1.5407062 -0.75865293 0.20562533
1.5406326 -0.75863159 0.20562729
1.5405591 -0.75861025 0.20562926
1.5404856 -0.75859344 0.20564011
1.5404123 -0.75857663 0.20565096
1.540341 -0.75856209 0.20566508
1.54027 -0.75855118 0.20568635
1.5401988 -0.75853759 0.20570225
1.5401254 -0.75851989 0.20571131
1.5400518 -0.7584976 0.20571151
1.5399784 -0.758479 0.2057188
1.539907 -0.7584635 0.20573115
1.5398337 -0.7584458 0.20574023
1.5397601 -0.75842631 0.20574576
1.5396867 -0.75840765 0.20575304
1.5396152 -0.75838947 0.20576006
1.5395416 -0.75836813 0.20576203
1.5394659 -0.75834268 0.20575714
1.5393924 -0.75832313 0.20576265
1.5393187 -0.7583009 0.20576283
1.5392404 -0.75826406 0.20573691
1.5391642 -0.75823134 0.2057178
1.539086 -0.7581954 0.20569363
1.5390078 -0.75816131 0.20567304
1.5389296 -0.75812721 0.20565243
1.536503 -0.75593162 0.20275134
1.5364323 -0.75592524 0.20278148
1.5363548 -0.75590301 0.202784
1.5365311 -0.75668502 0.2042326
1.5365219 -0.75688249 0.20463076
1.536534 -0.75714594 0.20514736
1.5364914 -0.75722969 0.20533957
1.5366232 -0.75787383 0.2065409
1.5366108 -0.75804716 0.20689309
1.5366356 -0.75833511 0.20745069
1.5366535 -0.75860173 0.20796999
1.536648 -0.75879461 0.20835692
1.5366452 -0.75900072 0.20876846
1.5366511 -0.75922865 0.20921801
1.5366409 -0.75940698 0.20957881
1.5366441 -0.75961804 0.20999661
1.5366517 -0.75984091 0.21043521
1.536648 -0.76003426 0.21082185
1.536639 -0.76019937 0.21115568
1.5366352 -0.76038998 0.21153697
1.5366237 -0.76054823 0.21185863
1.5366101 -0.76070333 0.21217524
1.5366013 -0.76087302 0.21251798
1.5365967 -0.76104903 0.21287079
1.5365945 -0.76123643 0.21324468
1.5365874 -0.76140195 0.21357822
1.5365822 -0.7615698 0.21391505
1.5365725 -0.76172489 0.21422929
1.5365671 -0.76188993 0.21456078
1.5365642 -0.76206458 0.21490976
1.5365541 -0.76221329 0.21521156
1.5365449 -0.76237655 0.21554181
1.5365326 -0.7625221 0.21583857
1.5365185 -0.76266533 0.21613204
1.5365087 -0.76281953 0.21644452
1.5364987 -0.76297098 0.21675164
1.5364885 -0.76311874 0.21705167
1.5364807 -0.76327336 0.21736386
1.5364772 -0.76343703 0.21769148
1.536467 -0.76358396 0.21798973
1.5364517 -0.7637099 0.21824938
1.5364389 -0.76384628 0.21852833
1.5364244 -0.76398587 0.2188147
1.5364076 -0.76411778 0.21908709
1.5363954 -0.76426333 0.21938384
1.5363855 -0.76441747 0.21969631
1.5363778 -0.76457208 0.22000849
1.536363 -0.76470804 0.22028774
1.5363457 -0.76483172 0.22054413
1.5363376 -0.7649827 0.2208492
1.5363203 -0.76510727 0.22110736
1.5782161 -0.77072042 0.20014542
1.5781449 -0.77070689 0.20016141
1.5780735 -0.77069145 0.20017385
1.5780039 -0.7706719 0.20017712
1.5779326 -0.77065748 0.20019133
1.5778613 -0.77064389 0.20020732
1.5777899 -0.77062571 0.20021442
1.5777204 -0.77060986 0.20022479
1.5776492 -0.77059722 0.20024256
1.5775778 -0.77057999 0.20025145
1.5775082 -0.77056319 0.20026004
1.5774353 -0.77055198 0.20028165
1.5773623 -0.77054071 0.20030326
1.5772927 -0.77052301 0.20031007
1.5772231 -0.77050346 0.20031333
1.5771517 -0.77048713 0.200324
1.5770805 -0.7704736 0.20033997
1.5770109 -0.77045679 0.20034859
1.5769413 -0.77043724 0.20035183
1.5768697 -0.77041912 0.20035896
1.5767986 -0.77040553 0.20037493
1.5767275 -0.77039474 0.20039625
1.5766562 -0.77038026 0.20041047
1.5765847 -0.77036214 0.20041758
1.5765151 -0.77034348 0.20042261
1.5764438 -0.7703281 0.20043504
1.5763726 -0.77031547 0.20045282
1.576303 -0.77029866 0.20046142
1.5762316 -0.77028143 0.2004703
1.5761603 -0.77026695 0.20048451
1.576089 -0.77025157 0.20049694
1.5760179 -0.77023894 0.2005147
1.5759467 -0.7702263 0.20053247
1.5758753 -0.77020997 0.20054314
1.5758055 -0.77019042 0.2005464
1.5757343 -0.77017415 0.20055705
1.5756631 -0.77016151 0.20057483
1.5755918 -0.77014703 0.20058903
1.5755223 -0.77013022 0.20059763
1.5754508 -0.7701121 0.20060474
1.5753814 -0.77009714 0.2006169
1.57531 -0.7700808 0.20062755
1.5752404 -0.77006221 0.2006326
1.5751706 -0.77004266 0.20063585
1.5750991 -0.77002448 0.20064296
1.5750297 -0.77000862 0.20065333
1.5749582 -0.7699914 0.20066223
1.5748887 -0.76997459 0.20067081
1.5748174 -0.76995921 0.20068325
1.5747461 -0.76994383 0.20069569
1.5746747 -0.7699284 0.20070812
1.5746052 -0.76991069 0.20071495
1.5745356 -0.76989299 0.20072176
1.5744643 -0.76987946 0.20073774
1.5743914 -0.7698673 0.20075756
1.5743201 -0.76985282 0.20077178
1.5742505 -0.76983511 0.2007786
1.574181 -0.76981831 0.2007872
1.5741096 -0.76980197 0.20079786
1.5740383 -0.7697866 0.2008103
1.573967 -0.76977122 0.20082274
1.5738975 -0.76975536 0.20083311
1.5738261 -0.76973903 0.20084377
1.5737566 -0.76972318 0.20085414
1.5736852 -0.76970685 0.20086479
1.573614 -0.76969332 0.20088078
1.5735428 -0.76967973 0.20089677
1.5734714 -0.76966435 0.2009092
1.5734019 -0.76964664 0.20091602
1.5733304 -0.76962847 0.20092314
1.5732608 -0.76960987 0.20092818
1.5731894 -0.76959354 0.20093884
1.5731181 -0.76958001 0.20095482
1.5730487 -0.76956505 0.20096697
1.5729774 -0.76954961 0.20097941
1.5729061 -0.76953518 0.20099363
1.5728365 -0.76951653 0.20099866
1.5727651 -0.76950026 0.20100932
1.5726939 -0.76948667 0.20102531
1.5726242 -0.76946712 0.20102859
1.5725545 -0.76944667 0.20103008
1.5724849 -0.76942712 0.20103332
1.5724134 -0.76941085 0.20104399
1.5723423 -0.76939911 0.20106353
1.5722711 -0.76938552 0.20107952
1.5721997 -0.76937014 0.20109196
1.5721284 -0.76935476 0.2011044
1.572059 -0.7693398 0.20111655
1.5719894 -0.7693221 0.20112336
1.571918 -0.76930487 0.20113224
1.5718485 -0.76928806 0.20114084
1.5717772 -0.76927358 0.20115505
1.5717059 -0.76926005 0.20117104
1.5716347 -0.76924556 0.20118526
1.5715634 -0.76922923 0.20119591
1.5714939 -0.76921242 0.20120451
1.5714223 -0.7691943 0.20121162
1.571353 -0.76918024 0.20122553
1.5712817 -0.76916581 0.20123975
1.5712103 -0.76914859 0.20124863
1.5711408 -0.76913178 0.20125723
1.5710694 -0.76911545 0.20126788
1.5709981 -0.76910096 0.2012821
1.570927 -0.76909018 0.20130342
1.5708556 -0.7690748 0.20131585
1.5707861 -0.7690571 0.20132267
1.5707147 -0.76903987 0.20133156
1.5706452 -0.76902395 0.20134193
1.5705757 -0.76900721 0.20135053
1.5705042 -0.76898998 0.20135941
1.5704348 -0.76897407 0.20136978
1.5703634 -0.76895869 0.20138222
1.5702921 -0.76894331 0.20139465
1.5702226 -0.7689265 0.20140325
1.5701511 -0.76890838 0.20141035
1.5700817 -0.76889342 0.2014225
1.5700086 -0.76888031 0.20144054
1.5699375 -0.76886767 0.20145831
1.5698678 -0.76884997 0.20146513
1.5697982 -0.76883042 0.20146841
1.5697268 -0.76881415 0.20147906
1.5696573 -0.76879823 0.20148943
1.569586 -0.76878285 0.20150186
1.5695148 -0.76876837 0.20151608
1.5694453 -0.76875252 0.20152645
1.569374 -0.76873714 0.20153889
1.5693026 -0.7687217 0.20155132
1.5692332 -0.76870584 0.20156169
1.5691637 -0.76868904 0.2015703
1.5690922 -0.76867092 0.2015774
1.5690227 -0.76865411 0.20158598
1.5689512 -0.76863784 0.20159665
1.56888 -0.76862335 0.20161086
1.5688107 -0.76861024 0.20162657
1.5687392 -0.76859301 0.20163545
