# .PCD v0.7 - Point Cloud Data file format
VERSION 0.7
FIELDS x y z
SIZE 4 4 4
TYPE F F F
COUNT 1 1 1
WIDTH 1324
HEIGHT 1
VIEWPOINT 0 0 0 1 0 0 0
POINTS 1324
DATA ascii
-0.11069145 0.01470041 -0.21727407
-0.11068854 0.014778286 -0.21727023
-0.11068581 0.014854122 -0.21726444
-0.11068279 0.014930088 -0.21726462
-0.11067954 0.015004187 -0.21727088
-0.11067633 0.01508024 -0.21727507
-0.1106732 0.015156249 -0.21727726
-0.11067028 0.015232171 -0.21727547
-0.11066696 0.015308268 -0.21728165
-0.11066354 0.015384408 -0.21728984
-0.11066071 0.015460286 -0.21728605
-0.11065789 0.015536165 -0.21728225
-0.11065486 0.015612131 -0.21728244
-0.11065222 0.015687922 -0.21727467
-0.1106492 0.015763888 -0.21727486
-0.11064608 0.015839897 -0.21727705
-0.11064305 0.015915863 -0.21727726
-0.11063974 0.01599196 -0.21728344
-0.1106369 0.016067838 -0.21727964
-0.11063446 0.016143544 -0.21726787
-0.11063164 0.016219422 -0.21726407
-0.11062802 0.016295649 -0.21727625
-0.11062471 0.016371746 -0.21728244
-0.11062217 0.016447494 -0.21727265
-0.11061934 0.016523372 -0.21726885
-0.11061621 0.016599383 -0.21727106
-0.11061368 0.01667513 -0.21726127
-0.11061114 0.016750878 -0.21725148
-0.11060792 0.016826931 -0.21725568
-0.11060451 0.016903071 -0.21726386
-0.11060127 0.01697717 -0.21727011
-0.11059836 0.017055046 -0.21726626
-0.11059551 0.01712897 -0.2172645
-0.11059241 0.017206935 -0.21726467
-0.11058946 0.017280903 -0.21726492
-0.11058653 0.017356824 -0.21726312
-0.11058431 0.017434398 -0.2172453
-0.11058185 0.017508147 -0.21723555
-0.11057865 0.017586155 -0.21723771
-0.110576 0.017659992 -0.21723196
-0.11057287 0.017736001 -0.21723415
-0.11056955 0.017812097 -0.21724033
-0.11056643 0.017888106 -0.21724254
-0.11056292 0.01796429 -0.21725273
-0.11055951 0.018040432 -0.21726091
-0.11055648 0.018116396 -0.21726111
-0.11055365 0.018192276 -0.21725732
-0.11055092 0.01826811 -0.21725152
-0.11054789 0.018344076 -0.21725172
-0.11054477 0.018420085 -0.21725392
-0.11054175 0.018496051 -0.21725412
-0.11053911 0.018571844 -0.21724632
-0.11053599 0.018647853 -0.21724853
-0.11053257 0.018723993 -0.21725672
-0.11052994 0.018799786 -0.21724892
-0.11052731 0.018875577 -0.21724114
-0.11052457 0.018951412 -0.21723534
-0.11052145 0.019027421 -0.21723753
-0.11051823 0.019103473 -0.21724173
-0.11051491 0.01917957 -0.21724792
-0.11051188 0.019255536 -0.21724813
-0.11050886 0.019331502 -0.21724832
-0.11050564 0.019407555 -0.21725251
-0.11050271 0.019483477 -0.2172507
-0.11049979 0.0195594 -0.21724892
-0.11049715 0.019635191 -0.21724112
-0.11049442 0.019711027 -0.21723533
-0.1104911 0.019787123 -0.21724153
-0.11048779 0.01986322 -0.21724772
-0.11048525 0.019938968 -0.21723793
-0.11048272 0.020014716 -0.21722814
-0.11047979 0.020090638 -0.21722634
-0.11047667 0.020166647 -0.21722853
-0.11047393 0.020242482 -0.21722275
-0.11047129 0.020318275 -0.21721496
-0.11046798 0.02039437 -0.21722116
-0.11046436 0.020470599 -0.21723333
-0.11046105 0.020546693 -0.21723953
-0.11045842 0.020622486 -0.21723174
-0.11045627 0.020698059 -0.21721396
-0.11045381 0.020771811 -0.21720421
-0.1104508 0.020849731 -0.21720237
-0.11044788 0.020925652 -0.21720058
-0.11044466 0.021001706 -0.21720478
-0.11044085 0.02107802 -0.21722095
-0.11043763 0.021154072 -0.21722513
-0.11043499 0.021229865 -0.21721736
-0.11043217 0.021305744 -0.21721356
-0.11042905 0.021381753 -0.21721575
-0.11042582 0.021457806 -0.21721995
-0.110423 0.021533685 -0.21721615
-0.11042007 0.021609608 -0.21721435
-0.11041724 0.021685485 -0.21721056
-0.11041421 0.021761451 -0.21721075
-0.11041148 0.021837287 -0.21720496
-0.11040875 0.021913122 -0.21719918
-0.11040562 0.021989131 -0.21720137
-0.1104029 0.022064967 -0.21719557
-0.11040026 0.022140758 -0.21718779
-0.11039743 0.022216637 -0.21718399
-0.11039449 0.022290606 -0.21718425
-0.11039118 0.022368656 -0.21718839
-0.11038747 0.022444926 -0.21720257
-0.11038387 0.022521153 -0.21721473
-0.11038123 0.022596946 -0.21720695
-0.11037879 0.022672649 -0.21719518
-0.11037548 0.022748746 -0.21720135
-0.11037177 0.022825018 -0.21721554
-0.11036845 0.022901114 -0.21722174
-0.11036572 0.02297695 -0.21721594
-0.11036298 0.023052786 -0.21721014
-0.11036006 0.023128707 -0.21720836
-0.11035703 0.023204673 -0.21720853
-0.11035364 0.023282766 -0.2172147
-0.11035052 0.023358777 -0.21721688
-0.1103473 0.023434829 -0.21722108
-0.11034407 0.023510883 -0.21722528
-0.11034115 0.023586804 -0.21722348
-0.11033832 0.023662683 -0.21721968
-0.11033588 0.023738388 -0.21720791
-0.11033342 0.023812138 -0.21719816
-0.11033032 0.0238901 -0.21719831
-0.11032768 0.023965893 -0.21719052
-0.11032485 0.024041772 -0.21718672
-0.11032163 0.024117826 -0.21719092
-0.11031822 0.024193965 -0.21719912
-0.11031597 0.024269583 -0.21718332
-0.110314 0.024343114 -0.21716361
-0.11031061 0.024421209 -0.21716975
-0.11030739 0.024497263 -0.21717393
-0.11030446 0.024573185 -0.21717215
-0.11030134 0.024649195 -0.21717434
-0.11029802 0.024725292 -0.21718054
-0.11029451 0.024801474 -0.21719071
-0.11029119 0.024877571 -0.21719691
-0.11028826 0.024953492 -0.21719511
-0.11028486 0.025031589 -0.21720126
-0.11028165 0.025107641 -0.21720544
-0.11027862 0.025183607 -0.21720564
-0.11027521 0.025259746 -0.21721384
-0.11027189 0.025335843 -0.21722004
-0.11026945 0.025411546 -0.21720824
-0.11026799 0.025486816 -0.21717648
-0.1102666 0.025560088 -0.21714479
-0.11026348 0.025636097 -0.21714696
-0.1102597 0.025714366 -0.2171611
-0.11025667 0.025790332 -0.2171613
-0.11025384 0.02586621 -0.21715751
-0.11025042 0.025942352 -0.21716569
-0.11024711 0.026018446 -0.21717189
-0.11024389 0.0260945 -0.21717608
-0.11024039 0.026172638 -0.21718422
-0.11023717 0.02624869 -0.21718842
-0.11023405 0.026324701 -0.21719062
-0.11023112 0.026400622 -0.21718882
-0.11022839 0.026476458 -0.21718302
-0.11022566 0.026552293 -0.21717723
-0.11022312 0.02662804 -0.21716744
-0.11022019 0.026703965 -0.21716565
-0.1102168 0.026782058 -0.21717179
-0.11021358 0.026858112 -0.21717599
-0.11021095 0.026933903 -0.21716818
-0.11020831 0.027009694 -0.2171604
-0.11020509 0.027085748 -0.21716461
-0.11020158 0.02716193 -0.21717477
-0.11019845 0.027237941 -0.21717697
-0.11019535 0.027315903 -0.21717712
-0.11019252 0.027391784 -0.21717334
-0.1101898 0.027467618 -0.21716754
-0.11018687 0.027543541 -0.21716574
-0.11018394 0.027619462 -0.21716395
-0.11018082 0.027695473 -0.21716614
-0.11017779 0.027771438 -0.21716633
-0.11017467 0.027847447 -0.21716854
-0.11017137 0.027925499 -0.21717268
-0.11016825 0.028001508 -0.21717489
-0.11016551 0.028077342 -0.21716909
-0.11016298 0.028153092 -0.2171593
-0.11016034 0.028228883 -0.21715152
-0.11015732 0.028304849 -0.2171517
-0.110154 0.028380945 -0.2171579
-0.11015051 0.028459083 -0.21716604
-0.110147 0.028535265 -0.21717623
-0.1101436 0.028613362 -0.21718237
-0.11014058 0.028689327 -0.21718258
-0.11013802 0.028763121 -0.21717483
-0.11013568 0.028838784 -0.21716104
-0.11013304 0.028914575 -0.21715325
-0.11012974 0.028992625 -0.21715739
-0.11012672 0.029068589 -0.2171576
-0.11012409 0.029144382 -0.21714982
-0.11012145 0.029220173 -0.21714202
-0.11011899 0.029293925 -0.21713227
-0.11011638 0.029371671 -0.21712245
-0.11011335 0.029447636 -0.21712264
-0.11010975 0.029523864 -0.21713483
-0.11010586 0.029602174 -0.21715096
-0.11010264 0.029678229 -0.21715516
-0.11009964 0.029756147 -0.21715331
-0.11009651 0.029832158 -0.21715552
-0.1100932 0.029908255 -0.2171617
-0.11009056 0.029984046 -0.21715391
-0.11008773 0.030059924 -0.21715012
-0.11008473 0.030137844 -0.21714827
-0.11008207 0.030211683 -0.21714252
-0.11007915 0.030287605 -0.21714072
-0.11007575 0.030365698 -0.21714687
-0.11007263 0.030441709 -0.21714906
-0.11006943 0.030519716 -0.21715121
-0.1100666 0.030595593 -0.21714741
-0.11006367 0.030671516 -0.21714562
-0.11006045 0.03074757 -0.21714981
-0.11005762 0.030823449 -0.21714601
-0.11005462 0.030901369 -0.21714418
-0.11005186 0.030975249 -0.21714044
-0.11004943 0.031050954 -0.21712863
-0.11004689 0.031126702 -0.21711886
-0.11004376 0.031202711 -0.21712106
-0.11004028 0.031280849 -0.2171292
-0.11003678 0.031358987 -0.21713734
-0.11003366 0.031434998 -0.21713953
-0.11003083 0.031510875 -0.21713573
-0.1100281 0.031586714 -0.21712993
-0.11002527 0.031662591 -0.21712615
-0.11002207 0.031740598 -0.21712829
-0.11001924 0.031816475 -0.21712449
-0.11001621 0.031892441 -0.2171247
-0.11001309 0.031968452 -0.21712689
-0.11001009 0.03204637 -0.21712506
-0.11000753 0.032120164 -0.21711731
-0.11000489 0.032195956 -0.21710952
-0.11000189 0.032273877 -0.21710768
-0.10999838 0.03235006 -0.21711785
-0.10999508 0.032428112 -0.217122
-0.10999225 0.032503992 -0.2171182
-0.10998923 0.032579958 -0.21711841
-0.10998593 0.032658007 -0.21712255
-0.10998261 0.032734104 -0.21712875
-0.10997922 0.032812197 -0.21713489
-0.10997649 0.032888032 -0.2171291
-0.10997365 0.032963913 -0.2171253
-0.10997063 0.033039875 -0.21712551
-0.1099681 0.033115625 -0.2171157
-0.10996565 0.033191331 -0.21710393
-0.10996293 0.033267166 -0.21709815
-0.10995951 0.033343308 -0.21710631
-0.10995612 0.033421401 -0.21711248
-0.10995319 0.033497322 -0.21711066
-0.10995074 0.033573028 -0.21709889
-0.10994811 0.033648819 -0.21709111
-0.10994433 0.033727087 -0.21710524
-0.10994093 0.033805184 -0.21711138
-0.1099382 0.033881016 -0.21710558
-0.10993508 0.033957027 -0.21710777
-0.10993188 0.034035034 -0.21710992
-0.10992924 0.034110826 -0.21710214
-0.10992631 0.034186751 -0.21710032
-0.10992339 0.034262672 -0.21709853
-0.10992037 0.034338638 -0.21709874
-0.10991736 0.034416556 -0.21709689
-0.10991482 0.034492306 -0.21708712
-0.10991199 0.034568183 -0.21708331
-0.10990887 0.034644194 -0.21708551
-0.10990538 0.034722328 -0.21709365
-0.10990188 0.03480047 -0.21710178
-0.10989886 0.034876436 -0.21710199
-0.10989613 0.034952268 -0.21709619
-0.1098932 0.035028189 -0.21709439
-0.10989047 0.035104029 -0.21708861
-0.10988756 0.035181902 -0.21708477
-0.10988454 0.035257868 -0.21708496
-0.10988124 0.035335921 -0.21708912
-0.10987812 0.035411932 -0.21709131
-0.10987549 0.035487719 -0.21708351
-0.10987275 0.035563558 -0.21707773
-0.10986935 0.035641652 -0.21708387
-0.10986613 0.035717703 -0.21708807
-0.10986274 0.0357958 -0.2170942
-0.10986011 0.035871591 -0.2170864
-0.10985747 0.035947382 -0.21707863
-0.10985444 0.036023349 -0.21707882
-0.10985125 0.036101356 -0.21708098
-0.10984861 0.036177147 -0.21707319
-0.10984568 0.036253069 -0.21707138
-0.10984239 0.036331117 -0.21707553
-0.10983927 0.036407132 -0.21707773
-0.10983597 0.03648518 -0.21708187
-0.10983294 0.036561146 -0.21708208
-0.10983031 0.036636937 -0.21707428
-0.10982767 0.036712728 -0.2170665
-0.10982448 0.036790736 -0.21706864
-0.10982126 0.036866792 -0.21707283
-0.10981815 0.036944754 -0.21707299
-0.10981532 0.037020631 -0.21706918
-0.10981259 0.037096471 -0.2170634
-0.10980939 0.037174474 -0.21706554
-0.10980608 0.037250575 -0.21707174
-0.10980288 0.037328579 -0.21707389
-0.10980015 0.037404414 -0.21706811
-0.10979702 0.037480421 -0.2170703
-0.10979363 0.037558518 -0.21707645
-0.10979043 0.037636526 -0.21707858
-0.1097876 0.037712403 -0.21707478
-0.10978506 0.037788153 -0.21706501
-0.1097825 0.037861947 -0.21705726
-0.10977931 0.037939955 -0.2170594
-0.10977601 0.038018003 -0.21706355
-0.10977308 0.038093925 -0.21706176
-0.10976988 0.038171936 -0.2170639
-0.10976676 0.038247943 -0.21706611
-0.10976412 0.038323738 -0.21705833
-0.1097611 0.0383997 -0.21705851
-0.1097578 0.038477752 -0.21706265
-0.10975507 0.038553588 -0.21705687
-0.10975243 0.038629379 -0.21704908
-0.10974943 0.038707297 -0.21704723
-0.1097464 0.038783267 -0.21704744
-0.10974348 0.038859189 -0.21704563
-0.10974028 0.038937196 -0.21704778
-0.10973679 0.03901533 -0.21705592
-0.10973376 0.0390913 -0.21705613
-0.10973112 0.039167091 -0.21704835
-0.10972859 0.039242838 -0.21703854
-0.10972566 0.039318763 -0.21703675
-0.10972217 0.039396897 -0.21704489
-0.10971907 0.03947486 -0.21704504
-0.10971633 0.039550699 -0.21703926
-0.10971311 0.039626755 -0.21704344
-0.10970972 0.039704844 -0.2170496
-0.1097068 0.039780766 -0.21704778
-0.10970388 0.039858647 -0.21704394
-0.10970086 0.039934613 -0.21704414
-0.10969766 0.04001262 -0.21704629
-0.10969437 0.040090669 -0.21705043
-0.1096919 0.040164419 -0.2170407
-0.10968956 0.040240079 -0.21702692
-0.10968627 0.040318131 -0.21703106
-0.10968249 0.0403964 -0.21704519
-0.10967965 0.040472277 -0.2170414
-0.10967682 0.040548161 -0.21703762
-0.10967316 0.040628336 -0.21704769
-0.10966994 0.040704392 -0.21705189
-0.1096673 0.040780179 -0.2170441
-0.10966457 0.040856019 -0.2170383
-0.10966154 0.040931985 -0.21703851
-0.10965883 0.041009769 -0.21703067
-0.10965647 0.041083477 -0.21701893
-0.10965298 0.041161615 -0.21702707
-0.10964911 0.041241884 -0.21704116
-0.10964609 0.04131785 -0.21704136
-0.10964346 0.041393638 -0.21703357
-0.10964082 0.041469432 -0.21702579
-0.1096377 0.041545443 -0.21702799
-0.1096343 0.041623536 -0.21703412
-0.10963111 0.041701544 -0.21703628
-0.10962808 0.04177751 -0.21703647
-0.10962535 0.041853346 -0.21703067
-0.10962196 0.041931439 -0.21703681
-0.10961885 0.042009402 -0.21703696
-0.10961622 0.042085193 -0.21702918
-0.10961405 0.042158812 -0.21701345
-0.10961141 0.042234607 -0.21700567
-0.10960792 0.042312745 -0.21701381
-0.10960434 0.042390928 -0.21702394
-0.1096017 0.042466715 -0.21701616
-0.10959887 0.042542595 -0.21701235
-0.10959548 0.042620689 -0.2170185
-0.10959189 0.042698871 -0.21702863
-0.10958859 0.042776924 -0.21703279
-0.10958586 0.042852759 -0.21702698
-0.10958266 0.042930767 -0.21702914
-0.10957963 0.043006733 -0.21702933
-0.1095767 0.043082654 -0.21702754
-0.1095736 0.043160617 -0.21702769
-0.10957097 0.043236408 -0.21701992
-0.10956804 0.043312334 -0.21701811
-0.10956455 0.043390468 -0.21702625
-0.11147865 -0.0052924268 -0.21742487
-0.11147562 -0.0052164625 -0.21742506
-0.11147279 -0.0051405802 -0.21742126
-0.11147008 -0.0050627925 -0.21741343
-0.11146696 -0.0049867835 -0.21741563
-0.11146433 -0.0049109925 -0.21740784
-0.11146162 -0.0048332009 -0.2174
-0.11145847 -0.0047591478 -0.21740425
-0.11145545 -0.0046831816 -0.21740443
-0.11145233 -0.0046071708 -0.21740663
-0.1114493 -0.0045312047 -0.21740684
-0.11144637 -0.0044552833 -0.21740504
-0.11144335 -0.0043793172 -0.21740523
-0.11144001 -0.0043051746 -0.21741347
-0.11143699 -0.0042292103 -0.21741366
-0.11143427 -0.0041514207 -0.21740583
-0.11143103 -0.0040773209 -0.21741207
-0.11142772 -0.0040012263 -0.21741827
-0.11142479 -0.003925303 -0.21741647
-0.11142196 -0.0038494226 -0.21741267
-0.11141934 -0.0037716776 -0.21740283
-0.11141651 -0.003695799 -0.21739903
-0.11141339 -0.0036197901 -0.21740124
-0.11141046 -0.0035438668 -0.21739943
-0.11140734 -0.0034678597 -0.21740162
-0.1114041 -0.00339376 -0.21740788
-0.11140066 -0.0033195745 -0.2174181
-0.11139735 -0.0032434762 -0.2174243
-0.11139442 -0.0031675547 -0.2174225
-0.11139159 -0.0030916762 -0.2174187
-0.11138878 -0.0030138418 -0.21741286
-0.11138596 -0.0029379651 -0.21740907
-0.11138283 -0.0028619543 -0.21741126
-0.11138 -0.0027860776 -0.21740746
-0.11137717 -0.0027101971 -0.21740368
-0.11137444 -0.0026343632 -0.21739787
-0.11137112 -0.0025582649 -0.21740407
-0.1113679 -0.0024822131 -0.21740827
-0.11136517 -0.0024063792 -0.21740247
-0.11136205 -0.0023303665 -0.21740468
-0.11135883 -0.0022543147 -0.21740887
-0.111356 -0.0021784361 -0.21740507
-0.11135288 -0.002102429 -0.21740726
-0.11134983 -0.002028415 -0.21740951
-0.11134683 -0.0019504949 -0.21740766
-0.11134429 -0.0018747468 -0.21739787
-0.11134148 -0.0017969124 -0.21739204
-0.11133804 -0.0017227288 -0.21740226
-0.11133432 -0.0016484112 -0.21741849
-0.11133129 -0.001572445 -0.21741869
-0.11132877 -0.0014947429 -0.21740687
-0.11132585 -0.0014188215 -0.21740505
-0.11132243 -0.0013426822 -0.21741325
-0.11131948 -0.0012687147 -0.2174135
-0.11131677 -0.001190925 -0.21740566
-0.11131425 -0.0011132229 -0.21739383
-0.11131132 -0.0010372996 -0.21739203
-0.11130789 -0.0009631142 -0.21740226
-0.11130486 -0.00088714808 -0.21740246
-0.11130186 -0.00080922805 -0.21740061
-0.11129893 -0.00073330477 -0.21739882
-0.11129601 -0.00065738335 -0.21739702
-0.11129267 -0.00058324076 -0.21740526
-0.11128964 -0.00050727464 -0.21740547
-0.11128683 -0.00042944215 -0.21739963
-0.111284 -0.00035356358 -0.21739583
-0.11128098 -0.00027759932 -0.21739602
-0.11127795 -0.00020162947 -0.21739623
-0.11127532 -0.00012583844 -0.21738844
-0.11127241 -4.7963113e-05 -0.21738459
-0.11126919 2.8088689e-05 -0.21738878
-0.11126617 0.00010405667 -0.21738899
-0.11126314 0.00018002093 -0.21738918
-0.1112599 0.00025412068 -0.21739542
-0.11125688 0.0003300868 -0.21739562
-0.11125416 0.00040787645 -0.21738778
-0.11125134 0.00048375502 -0.217384
-0.11124841 0.00055967644 -0.21738219
-0.11124529 0.0006356854 -0.21738438
-0.11124217 0.00071169622 -0.21738657
-0.11123914 0.00078766048 -0.21738678
-0.11123633 0.0008654967 -0.21738094
-0.111233 0.00093963742 -0.21738918
-0.11122946 0.0010138657 -0.21740142
-0.11122645 0.0010917876 -0.21739957
-0.11122362 0.0011676662 -0.21739577
-0.1112209 0.0012435 -0.21738997
-0.11121828 0.001321245 -0.21738014
-0.11121535 0.0013971701 -0.21737835
-0.11121223 0.0014731772 -0.21738054
-0.1112094 0.0015490558 -0.21737674
-0.11120618 0.0016251113 -0.21738094
-0.11120306 0.0017011203 -0.21738315
-0.11120013 0.0017770417 -0.21738133
-0.11119701 0.0018530497 -0.21738353
-0.11119369 0.0019291472 -0.21738973
-0.11119066 0.0020051142 -0.21738993
-0.11118764 0.0020810785 -0.21739012
-0.11118481 0.0021569589 -0.21738634
-0.1111819 0.0022348352 -0.21738249
-0.11117887 0.0023108004 -0.2173827
-0.11117605 0.002386678 -0.21737888
-0.11117312 0.0024626013 -0.2173771
-0.11117 0.0025386112 -0.21737929
-0.11116707 0.0026145326 -0.21737748
-0.11116415 0.0026904559 -0.2173757
-0.11116124 0.0027683331 -0.21737185
-0.11115831 0.0028442545 -0.21737006
-0.11115519 0.0029202625 -0.21737225
-0.11115216 0.0029962314 -0.21737245
-0.11114933 0.0030721091 -0.21736866
-0.11114602 0.0031482046 -0.21737483
-0.11114258 0.003222391 -0.21738508
-0.11113975 0.0032982705 -0.21738128
-0.11113694 0.0033761011 -0.21737544
-0.11113431 0.003451894 -0.21736765
-0.11113159 0.0035296855 -0.21735981
-0.11112857 0.0036056507 -0.21736002
-0.11112545 0.0036816588 -0.21736221
-0.11112262 0.0037575364 -0.21735841
-0.11111988 0.003833374 -0.21735263
-0.11111666 0.0039094258 -0.21735682
-0.11111306 0.0039856527 -0.21736899
-0.11110991 0.0040597077 -0.21737325
-0.11110739 0.0041374108 -0.21736142
-0.11110447 0.0042133331 -0.2173596
-0.11110115 0.0042894296 -0.2173658
-0.11109793 0.0043654824 -0.21737
-0.1110952 0.0044413172 -0.21736421
-0.11109239 0.0045191515 -0.21735837
-0.11108934 0.0045931619 -0.21736062
-0.11108634 0.0046710819 -0.21735877
-0.11108351 0.0047469614 -0.21735497
-0.11108058 0.0048228838 -0.21735317
-0.11107726 0.0048989803 -0.21735936
-0.11107414 0.0049749892 -0.21736157
-0.1110715 0.0050507812 -0.21735378
-0.11106877 0.005126616 -0.21734798
-0.11106565 0.0052026259 -0.21735018
-0.11106233 0.0052787215 -0.21735635
-0.11105902 0.0053548189 -0.21736255
-0.1110558 0.0054308716 -0.21736676
-0.11105287 0.005506794 -0.21736495
-0.11105004 0.0055826735 -0.21736115
-0.11104711 0.0056585949 -0.21735936
-0.11104389 0.0057346486 -0.21736355
-0.11104067 0.0058107013 -0.21736774
-0.11103813 0.0058864485 -0.21735796
-0.11103532 0.0059642829 -0.21735212
-0.11103211 0.0060403347 -0.21735631
-0.11102908 0.0061163008 -0.2173565
-0.11102654 0.006192049 -0.21734673
-0.11102381 0.0062678847 -0.21734093
-0.11102069 0.0063438937 -0.21734312
-0.11101757 0.0064199036 -0.21734533
-0.11101444 0.0064959135 -0.21734752
-0.11101122 0.0065719653 -0.2173517
-0.1110082 0.0066479314 -0.21735191
-0.11100517 0.0067238966 -0.21735212
-0.11100205 0.0067999065 -0.21735431
-0.11099903 0.0068758726 -0.21735451
-0.11099612 0.0069537498 -0.21735066
-0.11099298 0.0070278049 -0.21735491
-0.11098966 0.0071039004 -0.21736109
-0.11098704 0.0071816472 -0.21735126
-0.11098441 0.0072574383 -0.21734348
-0.11098129 0.0073334482 -0.21734568
-0.11097846 0.0074093267 -0.21734187
-0.11097544 0.0074852919 -0.21734208
-0.11097241 0.007561259 -0.21734229
-0.11096968 0.0076370928 -0.21733648
-0.11096694 0.0077129286 -0.21733069
-0.11096363 0.0077890251 -0.21733689
-0.11096051 0.007865034 -0.21733908
-0.11095767 0.0079409145 -0.21733528
-0.11095465 0.0080168787 -0.21733549
-0.11095192 0.0080927145 -0.2173297
-0.11094901 0.0081705907 -0.21732585
-0.11094616 0.0082445154 -0.21732411
-0.11094296 0.008322522 -0.21732624
-0.11093962 0.0083966646 -0.21733448
-0.11093669 0.008472587 -0.21733269
-0.11093386 0.0085484665 -0.21732889
-0.11093055 0.008624563 -0.21733508
-0.11092723 0.0087006595 -0.21734127
-0.1109245 0.0087764943 -0.21733548
-0.11092149 0.0088544143 -0.21733363
-0.11091866 0.0089302929 -0.21732983
-0.11091593 0.0090061286 -0.21732405
-0.110913 0.009082051 -0.21732225
-0.11091018 0.0091579296 -0.21731845
-0.11090706 0.0092339385 -0.21732065
-0.11090383 0.0093099922 -0.21732484
-0.1109008 0.0093859583 -0.21732505
-0.11089768 0.0094619673 -0.21732724
-0.11089466 0.0095379334 -0.21732745
-0.11089154 0.0096139414 -0.21732964
-0.11088841 0.0096899522 -0.21733183
-0.11088539 0.0097659174 -0.21733204
-0.11088236 0.0098418836 -0.21733223
-0.11087944 0.0099178059 -0.21733043
-0.11087651 0.0099937273 -0.21732864
-0.11087348 0.010069694 -0.21732883
-0.11087066 0.010145572 -0.21732503
-0.11086773 0.010221494 -0.21732324
-0.1108649 0.010297375 -0.21731944
-0.11086207 0.010373252 -0.21731564
-0.11085914 0.010449176 -0.21731386
-0.11085612 0.010525141 -0.21731406
-0.11085338 0.010600976 -0.21730825
-0.11085056 0.010676855 -0.21730447
-0.11084743 0.010752864 -0.21730667
-0.1108444 0.01082883 -0.21730685
-0.11084148 0.010904752 -0.21730506
-0.11083855 0.010980675 -0.21730328
-0.11083534 0.011056729 -0.21730745
-0.11083221 0.011132737 -0.21730965
-0.11082929 0.011208659 -0.21730787
-0.11082626 0.011284625 -0.21730804
-0.11082324 0.011360591 -0.21730825
-0.11082041 0.01143647 -0.21730447
-0.11081728 0.011512479 -0.21730667
-0.11081396 0.011588575 -0.21731284
-0.11081084 0.011664584 -0.21731505
-0.11080791 0.011740508 -0.21731324
-0.11080489 0.011816474 -0.21731344
-0.11080157 0.01189257 -0.21731964
-0.11079904 0.011968317 -0.21730986
-0.11079688 0.012043891 -0.21729207
-0.11079386 0.012119858 -0.21729228
-0.11079074 0.012195867 -0.21729447
-0.11078812 0.012273613 -0.21728463
-0.11078499 0.012347668 -0.21728888
-0.11078157 0.012423808 -0.21729706
-0.11077844 0.012499818 -0.21729925
-0.11077532 0.012575827 -0.21730146
-0.11077201 0.012651923 -0.21730766
-0.11076849 0.012728107 -0.21731783
-0.11076537 0.012804116 -0.21732002
-0.11076293 0.012879821 -0.21730825
-0.11076029 0.012955613 -0.21730046
-0.11075727 0.013031579 -0.21730065
-0.11075424 0.013107545 -0.21730086
-0.11075132 0.013183466 -0.21729906
-0.11074819 0.013259476 -0.21730125
-0.11074507 0.013335485 -0.21730345
-0.11074244 0.013411277 -0.21729566
-0.1107398 0.013487069 -0.21728787
-0.11073717 0.01356286 -0.21728007
-0.11073424 0.013638783 -0.21727827
-0.11073083 0.013714923 -0.21728647
-0.11072732 0.013791106 -0.21729666
-0.11072429 0.013867073 -0.21729687
-0.11072144 0.013940996 -0.21729511
-0.11071834 0.01401896 -0.21729526
-0.11071529 0.014092972 -0.21729749
-0.11071229 0.014170892 -0.21729566
-0.11070965 0.014246684 -0.21728787
-0.110707 0.014320521 -0.21728213
-0.11070389 0.014398485 -0.21728227
-0.11070095 0.014472453 -0.21728253
-0.11069814 0.014550285 -0.21727669
-0.11069521 0.014626209 -0.21727489
-0.11069226 0.014700176 -0.21727513
-0.11068945 0.01477801 -0.21726929
-0.11068672 0.014853844 -0.21726349
-0.1106836 0.014929854 -0.2172657
-0.11068036 0.015003953 -0.21727192
-0.11067714 0.015080005 -0.21727613
-0.11067411 0.015155971 -0.21727633
-0.11067109 0.015231937 -0.21727651
-0.11066787 0.01530799 -0.21728072
-0.11066446 0.01538413 -0.21728891
-0.11066163 0.015460009 -0.21728511
-0.1106587 0.015535931 -0.21728331
-0.11065577 0.015611853 -0.21728152
-0.11065313 0.015687644 -0.21727373
-0.11065011 0.015763611 -0.21727392
-0.11064699 0.01583962 -0.21727613
-0.11064386 0.015915629 -0.21727832
-0.11064065 0.015991682 -0.2172825
-0.11063772 0.016067605 -0.21728072
-0.11063538 0.016143266 -0.21726693
-0.11063255 0.016219145 -0.21726313
-0.11062884 0.016295414 -0.21727732
-0.11062552 0.016371513 -0.21728352
-0.11062308 0.016447216 -0.21727172
-0.11062016 0.01652314 -0.21726993
-0.11061713 0.016599104 -0.21727012
-0.11061459 0.016674854 -0.21726033
-0.11061196 0.016750645 -0.21725255
-0.11060883 0.016826654 -0.21725474
-0.11060532 0.016902838 -0.21726492
-0.11060208 0.016976936 -0.21727118
-0.11059918 0.017054813 -0.21726733
-0.11059632 0.017128738 -0.21726558
-0.11059332 0.017206658 -0.21726373
-0.11059037 0.017280625 -0.21726398
-0.11058745 0.017356548 -0.21726218
-0.11058522 0.01743412 -0.21724436
-0.11058276 0.01750787 -0.21723461
-0.11057956 0.017585877 -0.21723676
-0.11057691 0.017659714 -0.21723102
-0.11057378 0.017735723 -0.21723321
-0.11057037 0.017811865 -0.21724141
-0.11056724 0.017887874 -0.21724361
-0.11056373 0.017964058 -0.21725377
-0.11056032 0.018040197 -0.21726197
-0.11055739 0.018116118 -0.21726018
-0.11055446 0.018192042 -0.21725838
-0.11055173 0.018267877 -0.21725258
-0.1105488 0.018343799 -0.21725079
-0.11054558 0.018419852 -0.21725498
-0.11054265 0.018495774 -0.21725318
-0.11054002 0.018571567 -0.2172454
-0.1105369 0.018647576 -0.21724759
-0.11053348 0.018723715 -0.21725579
-0.11053075 0.018799551 -0.21724999
-0.11052822 0.018875299 -0.2172402
-0.11052538 0.018951178 -0.2172364
-0.11052236 0.019027144 -0.21723661
-0.11051914 0.019103196 -0.21724081
-0.11051583 0.019179292 -0.21724698
-0.1105127 0.019255303 -0.21724918
-0.11050968 0.019331267 -0.21724939
-0.11050655 0.019407278 -0.21725157
-0.11050352 0.019483242 -0.21725178
-0.1105006 0.019559165 -0.21724999
-0.11049797 0.019634956 -0.21724218
-0.11049533 0.019710749 -0.2172344
-0.11049192 0.019786889 -0.2172426
-0.1104886 0.019862985 -0.21724878
-0.11048616 0.019938691 -0.217237
-0.11048362 0.020014439 -0.21722722
-0.1104806 0.020090405 -0.21722743
-0.11047748 0.020166414 -0.2172296
-0.11047474 0.020242248 -0.21722382
-0.11047211 0.020318041 -0.21721603
-0.11046889 0.020394092 -0.21722022
-0.11046518 0.020470364 -0.2172344
-0.11046186 0.020546461 -0.2172406
-0.11045922 0.020622252 -0.21723279
-0.11045708 0.020697827 -0.21721503
-0.11045472 0.020771533 -0.21720329
-0.11045152 0.020849541 -0.21720544
-0.11044879 0.020925375 -0.21719965
-0.11044547 0.021001471 -0.21720585
-0.11044166 0.021077786 -0.21722202
-0.11043844 0.021153839 -0.21722621
-0.11043581 0.02122963 -0.21721843
-0.11043298 0.021305509 -0.21721463
-0.11042985 0.02138152 -0.21721682
-0.11042673 0.021457527 -0.21721902
-0.1104238 0.02153345 -0.21721722
-0.11042088 0.021609373 -0.21721542
-0.11041815 0.021685209 -0.21720964
-0.11041512 0.021761173 -0.21720983
-0.11041239 0.021837009 -0.21720403
-0.11040956 0.021912888 -0.21720025
-0.11040653 0.021988854 -0.21720044
-0.1104037 0.022064732 -0.21719664
-0.11040117 0.022140481 -0.21718685
-0.11039834 0.022216359 -0.21718307
-0.11039539 0.022290327 -0.21718331
-0.11039209 0.022368379 -0.21718746
-0.11038838 0.022444649 -0.21720164
-0.11038478 0.022520876 -0.21721381
-0.11038214 0.022596668 -0.21720603
-0.11037961 0.022672415 -0.21719624
-0.11037628 0.022748511 -0.21720244
-0.11037268 0.022824738 -0.21721461
-0.11036936 0.022900835 -0.21722081
-0.11036653 0.022976715 -0.21721701
-0.11036389 0.023052506 -0.21720922
-0.11036097 0.023128428 -0.21720743
-0.11035784 0.023204438 -0.21720962
-0.11035455 0.023282489 -0.21721376
-0.11035143 0.023358498 -0.21721596
-0.1103482 0.023434551 -0.21722016
-0.11034498 0.023510603 -0.21722436
-0.11034196 0.023586569 -0.21722454
-0.11033922 0.023662405 -0.21721876
-0.11033679 0.02373811 -0.21720697
-0.11033423 0.023811903 -0.21719924
-0.11033122 0.023889825 -0.21719739
-0.1103284 0.023965701 -0.2171936
-0.11032576 0.024041494 -0.2171858
-0.11032254 0.024117548 -0.21719
-0.11031913 0.024193687 -0.21719819
-0.11031688 0.024269305 -0.2171824
-0.11031481 0.02434288 -0.21716468
-0.11031152 0.024420932 -0.21716882
-0.1103082 0.024497028 -0.21717501
-0.11030527 0.02457295 -0.21717322
-0.11030215 0.024648961 -0.21717542
-0.11029893 0.024725012 -0.2171796
-0.11029532 0.024801239 -0.21719179
-0.110292 0.024877336 -0.21719798
-0.11028907 0.024953257 -0.2171962
-0.11028568 0.025031354 -0.21720234
-0.11028246 0.025107406 -0.21720652
-0.11027953 0.025183327 -0.21720472
-0.11027612 0.025259469 -0.21721292
-0.11027279 0.025335565 -0.21721911
-0.11027036 0.025411269 -0.21720731
-0.11026889 0.025486538 -0.21717556
-0.11026751 0.025559809 -0.21714386
-0.11026438 0.02563582 -0.21714604
-0.1102606 0.025714088 -0.21716018
-0.11025757 0.025790054 -0.21716037
-0.11025474 0.025865933 -0.21715659
-0.11025133 0.025942072 -0.21716477
-0.11024801 0.026018169 -0.21717097
-0.1102448 0.026094222 -0.21717516
-0.1102413 0.026172359 -0.21718329
-0.11023808 0.026248414 -0.21718749
-0.11023496 0.026324421 -0.2171897
-0.11023203 0.026400344 -0.2171879
-0.1102293 0.02647618 -0.2171821
-0.11022656 0.026552014 -0.2171763
-0.11022393 0.026627805 -0.21716851
-0.1102211 0.026703686 -0.21716473
-0.11021771 0.026781779 -0.21717086
-0.11021439 0.026857877 -0.21717706
-0.11021175 0.026933668 -0.21716927
-0.11020912 0.027009459 -0.21716148
-0.1102059 0.027085513 -0.21716568
-0.11020248 0.027161652 -0.21717386
-0.11019936 0.027237661 -0.21717605
-0.11019617 0.027315669 -0.2171782
-0.11019343 0.027391504 -0.21717241
-0.1101907 0.02746734 -0.21716662
-0.11018777 0.027543262 -0.21716481
-0.11018484 0.027619185 -0.21716303
-0.11018172 0.027695194 -0.21716522
-0.11017869 0.02777116 -0.21716543
-0.11017557 0.027847171 -0.21716762
-0.11017218 0.027925264 -0.21717376
-0.11016916 0.02800123 -0.21717396
-0.11016633 0.028077107 -0.21717016
-0.11016388 0.028152812 -0.21715838
-0.11016125 0.028228603 -0.2171506
-0.11015813 0.028304614 -0.21715279
-0.11015491 0.028380666 -0.21715698
-0.11015142 0.028458804 -0.21716511
-0.1101478 0.028535031 -0.2171773
-0.11014441 0.028613126 -0.21718344
-0.11014139 0.028689092 -0.21718365
-0.11013875 0.028764885 -0.21717586
-0.11013658 0.028838504 -0.21716014
-0.11013385 0.02891434 -0.21715432
-0.11013056 0.028992388 -0.2171585
-0.11012763 0.029068312 -0.21715669
-0.11012499 0.029144105 -0.2171489
-0.11012236 0.029219896 -0.21714111
-0.11011989 0.029293645 -0.21713136
-0.11011729 0.029371392 -0.21712153
-0.11011426 0.029447356 -0.21712174
-0.11011055 0.029523628 -0.21713591
-0.11010667 0.029601939 -0.21715203
-0.11010355 0.02967795 -0.21715423
-0.11010054 0.02975587 -0.21715239
-0.11009732 0.029831924 -0.21715659
-0.1100941 0.029907975 -0.21716078
-0.11009147 0.029983766 -0.21715298
-0.11008864 0.030059647 -0.2171492
-0.11008553 0.03013761 -0.21714935
-0.11008298 0.030211404 -0.2171416
-0.11008005 0.030287325 -0.21713981
-0.11007666 0.030365421 -0.21714595
-0.11007354 0.030441429 -0.21714815
-0.11007033 0.030519437 -0.2171503
-0.1100674 0.030595358 -0.2171485
-0.11006458 0.030671239 -0.2171447
-0.11006135 0.030747291 -0.21714889
-0.11005853 0.030823169 -0.2171451
-0.11005552 0.030901091 -0.21714325
-0.11005277 0.030974971 -0.21713951
-0.11005033 0.031050675 -0.21712771
-0.11004779 0.031126425 -0.21711794
-0.11004467 0.031202434 -0.21712014
-0.11004118 0.03128057 -0.21712828
-0.11003768 0.031358711 -0.21713641
-0.11003456 0.031434719 -0.21713862
-0.11003173 0.031510599 -0.21713482
-0.110029 0.031586431 -0.21712902
-0.11002617 0.031662311 -0.21712524
-0.11002287 0.03174036 -0.21712938
-0.11002005 0.03181624 -0.21712558
-0.11001712 0.031892166 -0.21712378
-0.110014 0.031968173 -0.21712598
-0.11001099 0.032046095 -0.21712413
-0.11000836 0.032121882 -0.21711633
-0.1100058 0.03219568 -0.21710861
-0.1100027 0.032273643 -0.21710876
-0.10999928 0.03234978 -0.21711695
-0.10999598 0.032427832 -0.21712109
-0.10999306 0.032503754 -0.21711929
-0.10999003 0.03257972 -0.21711949
-0.10998683 0.032657728 -0.21712163
-0.10998342 0.032733869 -0.21712983
-0.10998012 0.032811917 -0.21713397
-0.10997739 0.032887757 -0.21712819
-0.10997446 0.032963678 -0.21712638
-0.10997136 0.033041641 -0.21712652
-0.109969 0.03311535 -0.21711479
-0.10996656 0.033191051 -0.217103
-0.10996373 0.033266932 -0.21709922
-0.10996041 0.033343025 -0.2171054
-0.10995702 0.033421122 -0.21711156
-0.10995399 0.033497088 -0.21711177
-0.10995155 0.033572793 -0.21709996
-0.10994902 0.033648539 -0.21709019
-0.10994523 0.033726811 -0.21710432
-0.10994183 0.033804901 -0.21711046
-0.10993901 0.033880781 -0.21710666
-0.10993598 0.033956748 -0.21710686
-0.10993278 0.034034755 -0.21710901
-0.10993005 0.034110591 -0.21710321
-0.10992722 0.034186468 -0.21709943
-0.1099242 0.034262434 -0.21709962
-0.10992127 0.034338355 -0.21709782
-0.10991826 0.034416277 -0.21709597
-0.10991563 0.034492068 -0.21708819
-0.1099128 0.034567948 -0.21708441
-0.10990968 0.034643956 -0.2170866
-0.10990628 0.034722053 -0.21709274
-0.10990279 0.03480019 -0.21710087
-0.10989986 0.034876112 -0.21709907
-0.10989703 0.034951992 -0.21709529
-0.1098941 0.035027914 -0.21709348
-0.1098913 0.03510575 -0.21708766
-0.10988846 0.035181627 -0.21708384
-0.10988534 0.035257634 -0.21708605
-0.10988204 0.035335682 -0.21709019
-0.10987892 0.035411693 -0.21709239
-0.10987639 0.035487443 -0.2170826
-0.10987365 0.035563279 -0.21707681
-0.10987025 0.035641372 -0.21708295
-0.10986704 0.035717428 -0.21708715
-0.10986365 0.035795521 -0.21709329
-0.10986101 0.035871312 -0.21708551
-0.10985837 0.035947107 -0.21707772
-0.10985544 0.036023028 -0.21707591
-0.10985215 0.036101077 -0.21708006
-0.10984942 0.036176912 -0.21707428
-0.10984649 0.036252834 -0.21707247
-0.10984329 0.036330841 -0.21707462
-0.10984017 0.036406852 -0.21707682
-0.10983687 0.036484905 -0.21708095
-0.10983384 0.036560871 -0.21708116
-0.10983121 0.036636658 -0.21707337
-0.10982858 0.036712453 -0.21706557
-0.10982538 0.03679046 -0.21706773
-0.10982206 0.036866553 -0.21707392
-0.10981905 0.036944475 -0.21707207
-0.10981622 0.037020355 -0.21706828
-0.1098134 0.037096232 -0.2170645
-0.10981029 0.037174195 -0.21706463
-0.10980698 0.037250295 -0.21707083
-0.10980378 0.037328303 -0.21707298
-0.10980095 0.03740418 -0.21706918
-0.10979792 0.037480146 -0.21706939
-0.10979443 0.037558284 -0.21707752
-0.10979123 0.037636291 -0.21707967
-0.1097884 0.037712168 -0.21707588
-0.10978596 0.037787873 -0.2170641
-0.1097834 0.037861668 -0.21705636
-0.10978011 0.03793972 -0.21706051
-0.10977691 0.038017727 -0.21706265
-0.10977398 0.038093649 -0.21706085
-0.10977078 0.038171656 -0.21706299
-0.10976766 0.038247664 -0.21706519
-0.10976502 0.038323458 -0.21705741
-0.109762 0.038399421 -0.21705762
-0.1097587 0.038477473 -0.21706176
-0.10975597 0.038553305 -0.21705596
-0.10975333 0.0386291 -0.21704817
-0.10975023 0.038707063 -0.21704833
-0.10974721 0.038783029 -0.21704853
-0.10974428 0.03885895 -0.21704672
-0.10974108 0.038936961 -0.21704887
-0.10973759 0.039015099 -0.21705702
-0.10973466 0.039091021 -0.21705522
-0.10973202 0.039166808 -0.21704742
-0.10972939 0.039242603 -0.21703964
-0.10972656 0.03931848 -0.21703583
-0.10972307 0.039396621 -0.21704398
-0.10971997 0.039474584 -0.21704414
-0.10971714 0.039550461 -0.21704033
-0.10971392 0.039626516 -0.21704453
-0.10971062 0.039704569 -0.21704867
-0.10970769 0.03978049 -0.21704689
-0.10970479 0.039858367 -0.21704304
-0.10970176 0.03993433 -0.21704325
-0.10969856 0.040012337 -0.2170454
-0.10969526 0.04009039 -0.21704954
-0.10969271 0.040164184 -0.21704179
-0.10969037 0.040239841 -0.21702802
-0.10968707 0.040317893 -0.21703215
-0.10968348 0.040396076 -0.2170423
-0.10968056 0.040472001 -0.21704049
-0.10967772 0.040547878 -0.21703671
-0.10967406 0.040628057 -0.2170468
-0.10967083 0.040704109 -0.217051
-0.1096682 0.040779904 -0.21704319
-0.10966547 0.040855736 -0.21703741
-0.10966227 0.040933743 -0.21703956
-0.10965963 0.041009534 -0.21703176
-0.10965737 0.041083198 -0.21701804
-0.10965388 0.041161336 -0.21702617
-0.10964992 0.041241646 -0.21704225
-0.10964699 0.041317567 -0.21704045
-0.10964435 0.041393362 -0.21703267
-0.10964172 0.041469153 -0.21702489
-0.1096385 0.041545205 -0.21702906
-0.10963511 0.041623302 -0.21703522
-0.10963201 0.041701265 -0.21703537
-0.10962898 0.041777231 -0.21703556
-0.10962625 0.041853063 -0.21702978
-0.10962285 0.04193116 -0.21703592
-0.10961975 0.042009123 -0.21703607
-0.10961702 0.042084958 -0.21703029
-0.10961495 0.042158537 -0.21701255
-0.10961232 0.042234328 -0.21700476
-0.10960872 0.04231251 -0.21701491
-0.10960513 0.042390689 -0.21702504
-0.1096025 0.04246648 -0.21701725
-0.10959967 0.042542361 -0.21701345
-0.10959637 0.042620413 -0.21701759
-0.10959268 0.042698637 -0.21702972
-0.10958939 0.042776689 -0.21703388
-0.10958666 0.042852521 -0.21702808
-0.10958356 0.042930484 -0.21702823
-0.10958043 0.043006495 -0.21703044
-0.1095776 0.043082371 -0.21702664
-0.10957441 0.043160379 -0.21702878
-0.10957177 0.043236174 -0.21702099
-0.10956894 0.04331205 -0.2170172
-0.10956544 0.043390192 -0.21702534
-0.11147808 -0.0052916948 -0.21742541
-0.11147525 -0.0052158162 -0.21742161
-0.11147232 -0.0051398911 -0.2174198
-0.11146951 -0.0050620604 -0.21741396
-0.11146649 -0.0049860943 -0.21741417
-0.11146386 -0.0049103033 -0.21740636
-0.11146105 -0.0048324689 -0.21740055
-0.111458 -0.0047584586 -0.21740279
-0.11145498 -0.0046824925 -0.21740298
-0.11145186 -0.0046064816 -0.21740517
-0.11144883 -0.0045305155 -0.21740538
-0.111446 -0.0044546388 -0.21740158
-0.11144288 -0.004378628 -0.21740377
-0.11143954 -0.0043044854 -0.21741201
-0.11143652 -0.0042285211 -0.2174122
-0.11143371 -0.0041506886 -0.21740636
-0.11143049 -0.0040746331 -0.21741056
-0.11142715 -0.0040004924 -0.2174188
-0.11142422 -0.003924571 -0.217417
-0.11142149 -0.0038487334 -0.21741121
-0.11141878 -0.0037709437 -0.21740337
-0.11141605 -0.0036951099 -0.21739757
-0.11141293 -0.0036191009 -0.21739978
-0.11141 -0.0035431776 -0.21739797
-0.11140688 -0.0034671705 -0.21740018
-0.11140364 -0.0033930708 -0.21740641
-0.11140012 -0.0033168867 -0.2174166
-0.11139688 -0.003242787 -0.21742284
-0.11139396 -0.0031668656 -0.21742103
-0.11139103 -0.0030909423 -0.21741924
-0.11138822 -0.0030131098 -0.2174134
-0.11138549 -0.0029372759 -0.21740761
-0.11138227 -0.0028612223 -0.2174118
-0.11137953 -0.0027853884 -0.217406
-0.1113767 -0.0027095079 -0.21740222
-0.11137387 -0.0026336294 -0.21739841
-0.11137056 -0.0025575329 -0.2174046
-0.11136734 -0.0024814811 -0.21740881
-0.11136471 -0.00240569 -0.21740101
-0.11136158 -0.0023296773 -0.2174032
-0.11135836 -0.0022536255 -0.21740741
-0.11135554 -0.002177747 -0.21740361
-0.11135241 -0.002101738 -0.2174058
-0.11134928 -0.002025729 -0.217408
-0.11134636 -0.0019498058 -0.21740621
-0.11134382 -0.0018740576 -0.21739641
-0.11134101 -0.0017962232 -0.21739057
-0.11133758 -0.0017220397 -0.21740082
-0.11133375 -0.0016476791 -0.21741903
-0.11133083 -0.0015717559 -0.21741723
-0.11132821 -0.001494009 -0.21740739
-0.11132529 -0.0014180876 -0.21740559
-0.11132197 -0.001341993 -0.21741179
-0.11131902 -0.0012680255 -0.21741202
-0.11131621 -0.0011901911 -0.21740618
-0.11131369 -0.001112489 -0.21739435
-0.11131077 -0.0010365658 -0.21739256
-0.11130743 -0.00096242316 -0.21740079
-0.11130431 -0.00088641606 -0.21740299
-0.1113013 -0.00080849603 -0.21740115
-0.11129847 -0.00073261559 -0.21739736
-0.11129545 -0.00065665133 -0.21739754
-0.11129221 -0.00058255158 -0.2174038
-0.11128918 -0.00050658546 -0.21740399
-0.11128628 -0.00042870827 -0.21740015
-0.11128344 -0.00035282969 -0.21739635
-0.11128052 -0.00027690828 -0.21739456
-0.1112776 -0.00020098314 -0.21739276
-0.11127479 -0.00012315065 -0.21738692
-0.11127196 -4.7273934e-05 -0.21738312
-0.11126874 2.8777868e-05 -0.21738732
-0.11126571 0.00010474585 -0.21738751
-0.11126259 0.00018075481 -0.2173897
-0.11125945 0.00025480986 -0.21739395
-0.11125625 0.00033281744 -0.2173961
-0.11125361 0.00040860847 -0.2173883
-0.11125088 0.0004844442 -0.21738252
-0.11124785 0.00056041032 -0.21738273
-0.11124483 0.00063637458 -0.21738291
-0.11124171 0.0007123854 -0.21738511
-0.11123878 0.00078830682 -0.21738333
-0.11123587 0.00086618587 -0.21737947
-0.11123253 0.0009403266 -0.21738771
-0.111229 0.0010145549 -0.21739992
-0.111226 0.0010924768 -0.21739809
-0.11122307 0.0011683982 -0.21739629
-0.11122026 0.0012462325 -0.21739045
-0.11121772 0.0013219789 -0.21738067
-0.1112148 0.0013979021 -0.21737887
-0.11121187 0.0014738236 -0.21737707
-0.11120885 0.0015497878 -0.21737726
-0.11120562 0.0016258433 -0.21738146
-0.11120261 0.0017018095 -0.21738166
-0.11119968 0.0017777309 -0.21737987
-0.11119646 0.0018537827 -0.21738406
-0.11119323 0.0019298363 -0.21738826
-0.11119021 0.0020058034 -0.21738845
-0.11118718 0.0020817686 -0.21738866
-0.11118436 0.0021576481 -0.21738485
-0.11118145 0.0022355244 -0.21738102
-0.11117843 0.0023114895 -0.21738121
-0.1111755 0.002387411 -0.21737941
-0.11117267 0.0024632905 -0.21737562
-0.11116955 0.0025393013 -0.21737781
-0.11116662 0.0026152227 -0.21737602
-0.11116369 0.002691146 -0.21737422
-0.11116078 0.0027690222 -0.21737036
-0.11115786 0.0028449437 -0.21736857
-0.11115474 0.0029209517 -0.21737078
-0.11115171 0.0029969206 -0.21737097
-0.11114888 0.0030727983 -0.21736717
-0.11114547 0.0031489376 -0.21737537
-0.11114213 0.0032230802 -0.21738359
-0.1111392 0.0032990035 -0.21738181
-0.11113649 0.0033767913 -0.21737397
-0.11113386 0.0034525841 -0.21736617
-0.11113115 0.0035303747 -0.21735835
-0.11112812 0.0036063399 -0.21735853
-0.111125 0.0036823489 -0.21736073
-0.11112217 0.0037582265 -0.21735694
-0.11111943 0.0038340632 -0.21735114
-0.11111614 0.0039121136 -0.2173553
-0.11111251 0.0039863866 -0.21736953
-0.11110938 0.0040623955 -0.2173717
-0.11110685 0.0041381437 -0.21736193
-0.11110402 0.0042140223 -0.21735814
-0.11110061 0.0042901626 -0.21736631
-0.11109748 0.0043661725 -0.21736851
-0.11109475 0.0044420073 -0.21736273
-0.11109194 0.0045198407 -0.21735689
-0.11108889 0.004593851 -0.21735913
-0.11108589 0.004671772 -0.21735728
-0.11108306 0.0047476506 -0.21735349
-0.11108013 0.0048235729 -0.21735169
-0.11107682 0.0048996694 -0.21735787
-0.1110737 0.0049756793 -0.21736008
-0.11107106 0.0050514713 -0.21735229
-0.11106833 0.0051273061 -0.21734649
-0.11106521 0.005203316 -0.21734869
-0.11106189 0.0052794106 -0.21735489
-0.11105867 0.0053554652 -0.21735907
-0.11105535 0.0054315617 -0.21736526
-0.11105242 0.0055074841 -0.21736348
-0.1110495 0.0055834064 -0.21736166
-0.11104666 0.0056592841 -0.21735787
-0.11104345 0.0057353377 -0.21736208
-0.11104023 0.0058113914 -0.21736625
-0.11103769 0.0058871377 -0.21735647
-0.11103489 0.0059649721 -0.21735063
-0.11103156 0.0060410686 -0.21735683
-0.11102863 0.0061169909 -0.21735503
-0.1110261 0.0061927382 -0.21734524
-0.11102327 0.0062686177 -0.21734145
-0.11102015 0.0063446276 -0.21734364
-0.11101703 0.0064206365 -0.21734583
-0.1110139 0.0064966464 -0.21734804
-0.11101078 0.0065726545 -0.21735023
-0.11100766 0.0066486653 -0.21735242
-0.11100464 0.0067246296 -0.21735263
-0.11100161 0.0068005957 -0.21735282
-0.11099849 0.0068766065 -0.21735501
-0.11099568 0.006954439 -0.21734917
-0.11099254 0.007028494 -0.21735343
-0.11098922 0.0071045905 -0.2173596
-0.11098661 0.0071823373 -0.21734978
-0.11098387 0.0072581712 -0.21734399
-0.11098094 0.0073340945 -0.2173422
-0.11097801 0.0074100168 -0.21734039
-0.11097499 0.007485982 -0.21734059
-0.11097187 0.0075619919 -0.21734279
-0.11096924 0.007637783 -0.217335
-0.11096641 0.0077136615 -0.2173312
-0.11096309 0.007789758 -0.2173374
-0.11096007 0.0078657242 -0.21733758
-0.11095714 0.0079416474 -0.21733579
-0.11095421 0.0080175688 -0.21733399
-0.1109513 0.008095446 -0.21733016
-0.11094847 0.0081713237 -0.21732636
-0.11094572 0.0082452055 -0.2173226
-0.11094252 0.0083232122 -0.21732476
-0.11093918 0.0083973547 -0.21733299
-0.11093608 0.0084753195 -0.21733314
-0.11093325 0.0085511971 -0.21732935
-0.11093001 0.0086252959 -0.21733558
-0.1109267 0.0087013924 -0.21734178
-0.11092396 0.0087772273 -0.21733598
-0.11092096 0.0088551473 -0.21733414
-0.11091813 0.0089310268 -0.21733034
-0.1109155 0.0090068188 -0.21732256
-0.11091257 0.0090827402 -0.21732076
-0.11090983 0.0091585759 -0.21731496
-0.11090662 0.0092346286 -0.21731916
-0.1109034 0.0093106814 -0.21732335
-0.11090037 0.0093866475 -0.21732354
-0.11089725 0.0094626574 -0.21732575
-0.11089423 0.0095386226 -0.21732594
-0.11089101 0.0096146753 -0.21733014
-0.11088789 0.0096906852 -0.21733233
-0.11088486 0.0097666513 -0.21733254
-0.11088193 0.0098425737 -0.21733074
-0.110879 0.009918496 -0.21732894
-0.11087598 0.0099944612 -0.21732914
-0.11087305 0.010070384 -0.21732734
-0.11087022 0.010146262 -0.21732354
-0.11086729 0.010222184 -0.21732175
-0.11086447 0.010298064 -0.21731795
-0.11086154 0.010373985 -0.21731615
-0.11085861 0.010449909 -0.21731436
-0.11085568 0.01052583 -0.21731256
-0.11085295 0.010601666 -0.21730676
-0.11085002 0.010677589 -0.21730497
-0.1108469 0.010753597 -0.21730717
-0.11084397 0.010829519 -0.21730536
-0.11084105 0.010905442 -0.21730357
-0.11083812 0.010981364 -0.21730177
-0.1108349 0.011057418 -0.21730596
-0.11083168 0.011133471 -0.21731016
-0.11082885 0.011209349 -0.21730636
-0.11082573 0.011285359 -0.21730855
-0.11082271 0.011361324 -0.21730876
-0.11081997 0.01143716 -0.21730296
-0.11081685 0.011513169 -0.21730515
-0.11081354 0.011589265 -0.21731135
-0.11081031 0.011665318 -0.21731554
-0.11080739 0.011741241 -0.21731374
-0.11080456 0.01181712 -0.21730995
-0.11080114 0.011893259 -0.21731815
-0.11079851 0.011969051 -0.21731034
-0.11079646 0.012044582 -0.21729058
-0.11079343 0.012120548 -0.21729077
-0.11079031 0.012196558 -0.21729296
-0.1107877 0.012274303 -0.21728313
-0.11078455 0.012348358 -0.21728739
-0.11078114 0.012424498 -0.21729556
-0.11077812 0.012500464 -0.21729577
-0.1107749 0.012576517 -0.21729997
-0.11077157 0.012652613 -0.21730614
-0.11076806 0.012728797 -0.21731633
-0.11076494 0.012804806 -0.21731853
-0.1107625 0.012880511 -0.21730673
-0.11075987 0.012956303 -0.21729895
-0.11075684 0.013032269 -0.21729916
-0.11075372 0.013108278 -0.21730134
-0.11075079 0.0131842 -0.21729955
-0.11074777 0.013260166 -0.21729976
-0.11074465 0.013336175 -0.21730193
-0.11074191 0.013412011 -0.21729615
-0.11073928 0.013487803 -0.21728837
-0.11073674 0.013563551 -0.21727857
-0.11073391 0.01363943 -0.21727479
-0.1107304 0.013715613 -0.21728498
-0.11072689 0.013791796 -0.21729515
-0.11072387 0.013867762 -0.21729535
-0.11072101 0.013941687 -0.21729359
-0.11071791 0.01401965 -0.21729375
-0.11071487 0.014093662 -0.21729599
-0.11071177 0.014171625 -0.21729615
-0.11070913 0.014247417 -0.21728836
-0.11070649 0.014323209 -0.21728057
-0.11070337 0.014399219 -0.21728277
-0.11070043 0.014473186 -0.21728301
-0.11069772 0.014550976 -0.21727517
-0.11069479 0.014626898 -0.21727338
-0.11069184 0.014700866 -0.21727362
-0.11068893 0.014778743 -0.21726978
-0.1106862 0.014854578 -0.217264
-0.11068317 0.014930544 -0.21726418
-0.11067994 0.015004643 -0.21727043
-0.11067671 0.015080696 -0.21727462
-0.11067359 0.015156705 -0.21727681
-0.11067067 0.015232627 -0.21727502
-0.11066744 0.01530868 -0.21727921
-0.11066403 0.015384819 -0.21728739
-0.1106612 0.015460699 -0.21728361
-0.11065827 0.015536621 -0.2172818
-0.11065525 0.015612587 -0.217282
-0.11065271 0.015688336 -0.21727222
-0.11064969 0.015764302 -0.21727242
-0.11064657 0.015840311 -0.21727461
-0.11064345 0.01591632 -0.21727681
-0.11064013 0.015992416 -0.217283
-0.1106373 0.016068295 -0.2172792
-0.11063486 0.016144 -0.21726742
-0.11063203 0.016219879 -0.21726362
-0.11062842 0.016296105 -0.2172758
-0.1106252 0.016372159 -0.21728
-0.11062266 0.016447907 -0.21727021
-0.11061974 0.016523829 -0.21726841
-0.11061671 0.016599795 -0.21726862
-0.11061417 0.016675543 -0.21725883
-0.11061154 0.016751334 -0.21725103
-0.11060841 0.016827345 -0.21725324
-0.1106049 0.016903527 -0.21726342
-0.11060166 0.016977627 -0.21726966
-0.11059876 0.017055502 -0.21726581
-0.1105959 0.017129427 -0.21726406
-0.1105928 0.017207392 -0.21726422
-0.11058985 0.017281359 -0.21726447
-0.11058703 0.017357238 -0.21726066
-0.1105848 0.017434809 -0.21724284
-0.11058234 0.017508559 -0.21723311
-0.11057904 0.017586611 -0.21723725
-0.11057639 0.017660448 -0.21723151
-0.11057337 0.017736414 -0.21723171
-0.11056995 0.017812554 -0.21723989
-0.11056683 0.017888563 -0.21724209
-0.11056332 0.017964747 -0.21725228
