# .PCD v0.7 - Point Cloud Data file format
VERSION 0.7
FIELDS x y z
SIZE 4 4 4
TYPE F F F
COUNT 1 1 1
WIDTH 1285
HEIGHT 1
VIEWPOINT 0 0 0 1 0 0 0
POINTS 1285
DATA ascii
-0.02388753 0.030526988 -0.26224113
-0.023884051 0.030607078 -0.26224723
-0.023880649 0.030685173 -0.2622534
-0.02387717 0.030765265 -0.26225948
-0.023873493 0.030845445 -0.26226959
-0.023869701 0.030923711 -0.26228371
-0.023866124 0.031003846 -0.26229182
-0.02386282 0.031081896 -0.26229596
-0.023859926 0.031161726 -0.26229006
-0.023857577 0.031237388 -0.26227629
-0.023855053 0.031315092 -0.26226449
-0.023852335 0.03139288 -0.26225665
-0.023848757 0.031473018 -0.26226473
-0.023845084 0.031553194 -0.26227483
-0.023841778 0.031631246 -0.26227897
-0.023838865 0.03170912 -0.26227516
-0.02383597 0.031788953 -0.26226926
-0.023832861 0.031866916 -0.26226944
-0.023829773 0.031946834 -0.26226753
-0.02382637 0.032024927 -0.26227367
-0.023822792 0.032105066 -0.26228178
-0.023819216 0.032185197 -0.26228988
-0.023816204 0.032263119 -0.26228803
-0.023813875 0.032340735 -0.26227221
-0.023811722 0.03241631 -0.26225445
-0.023809101 0.032494057 -0.26224461
-0.023805818 0.032574061 -0.26224673
-0.023802415 0.032652155 -0.26225287
-0.023798641 0.032732375 -0.26226497
-0.023795359 0.032812383 -0.26226705
-0.023792716 0.032888174 -0.26225927
-0.023789529 0.032968134 -0.26225939
-0.023786323 0.033046141 -0.26226154
-0.023783332 0.033126019 -0.26225767
-0.023780515 0.033203851 -0.26225182
-0.0237776 0.033281729 -0.26224798
-0.023774784 0.033359557 -0.26224214
-0.023772065 0.033437349 -0.26223433
-0.023768587 0.033517443 -0.26224041
-0.023764912 0.033597618 -0.26225051
-0.023761997 0.033675496 -0.26224667
-0.023759473 0.033753201 -0.26223487
-0.023756832 0.033828992 -0.26222706
-0.023753744 0.033908911 -0.26222518
-0.023750536 0.033986919 -0.26222733
-0.023747252 0.034066923 -0.26222944
-0.02374424 0.034144841 -0.26222759
-0.023741327 0.034222718 -0.26222375
-0.023738433 0.034302548 -0.26221788
-0.023735421 0.034380469 -0.26221603
-0.023732312 0.034458432 -0.26221621
-0.023729593 0.03453622 -0.26220837
-0.023726679 0.034614097 -0.26220453
-0.023723297 0.034694146 -0.26220864
-0.023719817 0.03477424 -0.26221472
-0.023716534 0.034854244 -0.26221684
-0.023713522 0.034932163 -0.26221499
-0.02371051 0.035010085 -0.26221317
-0.023707595 0.035087962 -0.26220933
-0.023704603 0.035167836 -0.26220542
-0.023701886 0.035245627 -0.26219761
-0.023698971 0.035323501 -0.26219377
-0.023696154 0.035401337 -0.26218793
-0.023692969 0.035481296 -0.26218802
-0.023689957 0.035559215 -0.2621862
-0.02368675 0.035637222 -0.26218835
-0.023683367 0.035717271 -0.26219243
-0.023680454 0.035795148 -0.26218861
-0.023677638 0.035872981 -0.26218277
-0.023674646 0.035952859 -0.2621789
-0.023671634 0.036030777 -0.26217705
-0.023668623 0.036108695 -0.2621752
-0.023665534 0.036188614 -0.26217332
-0.023662327 0.036266625 -0.26217547
-0.023659043 0.036346629 -0.26217759
-0.023655932 0.036424592 -0.26217774
-0.023653116 0.036502425 -0.26217192
-0.0236503 0.036580257 -0.26216608
-0.023647407 0.03666009 -0.26216018
-0.023644688 0.036737878 -0.26215237
-0.023641676 0.0368158 -0.26215053
-0.023638295 0.036895849 -0.26215461
-0.023635184 0.036973812 -0.26215479
-0.023631997 0.037053771 -0.26215488
-0.023628792 0.037131779 -0.26215702
-0.023625508 0.037211783 -0.26215914
-0.023622494 0.037289701 -0.26215732
-0.023619484 0.037367623 -0.26215547
-0.023616765 0.037445415 -0.26214764
-0.023614144 0.037523162 -0.2621378
-0.023611153 0.037603036 -0.2621339
-0.023607945 0.037681043 -0.26213607
-0.023604564 0.037761092 -0.26214015
-0.023601552 0.03783901 -0.26213834
-0.023598833 0.037916802 -0.2621305
-0.02359594 0.037996631 -0.2621246
-0.023592636 0.03807468 -0.26212877
-0.023589155 0.038154773 -0.26213485
-0.023586046 0.038232736 -0.26213503
-0.023582762 0.038312741 -0.26213712
-0.023578327 0.038395219 -0.26216117
-0.023572173 0.03848239 -0.26221704
-0.02356725 0.038565092 -0.26225108
-0.023562074 0.038651824 -0.26228696
-0.025780685 -0.0065456051 -0.26304731
-0.025777793 -0.006465774 -0.26304144
-0.025774663 -0.0063897651 -0.26304364
-0.025771478 -0.0063098036 -0.26304373
-0.025769485 -0.0062284097 -0.26301783
-0.025766788 -0.0061486643 -0.26300794
-0.025762897 -0.0060703531 -0.26302409
-0.025759377 -0.0059941709 -0.26303428
-0.025756465 -0.0059162937 -0.26303044
-0.025753377 -0.0058363751 -0.26302856
-0.025750268 -0.0057584103 -0.26302871
-0.025746964 -0.0056803599 -0.26303285
-0.025743466 -0.0056022238 -0.26304102
-0.025740454 -0.0055243056 -0.26303917
-0.025738677 -0.0054410398 -0.26300722
-0.025736175 -0.0053613838 -0.26299334
-0.025732676 -0.0052832477 -0.2630015
-0.025729587 -0.005203329 -0.26299959
-0.025727281 -0.0051237568 -0.26298174
-0.025724292 -0.0050438847 -0.26297787
-0.025721181 -0.00496592 -0.26297802
-0.025717683 -0.0048877839 -0.26298615
-0.02571387 -0.0048114713 -0.26300234
-0.025710568 -0.004733419 -0.26300651
-0.025707165 -0.0046553258 -0.26301265
-0.025703548 -0.0045791008 -0.26302481
-0.025700264 -0.0044990946 -0.26302695
-0.025696959 -0.0044210441 -0.2630311
-0.025693636 -0.0043449495 -0.26303726
-0.025690645 -0.0042650737 -0.26303339
-0.025688555 -0.004183637 -0.26300949
-0.025685975 -0.0041019805 -0.26299557
-0.025683161 -0.0040241461 -0.26298973
-0.02568068 -0.0039425343 -0.26297382
-0.025677472 -0.0038645286 -0.26297599
-0.025673367 -0.0037880857 -0.26299813
-0.025669847 -0.0037119016 -0.26300836
-0.025666662 -0.0036319401 -0.26300845
-0.025663748 -0.0035540629 -0.2630046
-0.025660563 -0.0034741014 -0.26300472
-0.025657238 -0.0033980068 -0.26301092
-0.02565415 -0.00331809 -0.26300901
-0.025651354 -0.0032383017 -0.26300114
-0.025648344 -0.0031603798 -0.2629993
-0.025645159 -0.0030804183 -0.26299942
-0.025642246 -0.003002543 -0.26299557
-0.025639452 -0.0029227547 -0.26298767
-0.025636753 -0.0028430112 -0.26297784
-0.025633644 -0.0027650464 -0.26297796
-0.025629951 -0.0026868209 -0.26299012
-0.025627136 -0.0026089884 -0.26298428
-0.025624242 -0.0025291592 -0.26297837
-0.025620744 -0.0024510212 -0.26298654
-0.025617342 -0.002372928 -0.26299268
-0.025614232 -0.0022949632 -0.26299286
-0.025610734 -0.0022168271 -0.26300099
-0.025607625 -0.0021388642 -0.26300114
-0.025604635 -0.0020589884 -0.26299727
-0.025601819 -0.0019811541 -0.26299143
-0.025598731 -0.0019012392 -0.26298952
-0.025595916 -0.0018234029 -0.26298371
-0.025592925 -0.0017435271 -0.26297981
-0.025589427 -0.001665391 -0.26298797
-0.025586024 -0.0015872978 -0.26299411
-0.025583426 -0.0015075952 -0.26298225
-0.025580827 -0.0014278963 -0.26297036
-0.02557762 -0.0013498887 -0.2629725
-0.02557412 -0.0012717526 -0.26298064
-0.025570914 -0.0011937451 -0.26298282
-0.025567923 -0.0011138692 -0.26297894
-0.025565108 -0.0010360368 -0.2629731
-0.025562432 -0.00095433742 -0.26296118
-0.025559323 -0.00087637454 -0.26296133
-0.025555922 -0.00079828128 -0.26296747
-0.025552716 -0.00072027184 -0.26296964
-0.025549822 -0.00064044073 -0.26296374
-0.025547124 -0.00056069717 -0.26295388
-0.025544114 -0.00048277713 -0.26295203
-0.025540421 -0.00040455349 -0.26296416
-0.025537213 -0.00032654591 -0.26296631
-0.025534105 -0.00024858303 -0.26296645
-0.025531115 -0.00016870722 -0.26296258
-0.025528103 -9.0787187e-05 -0.26296073
-0.025524898 -1.2783334e-05 -0.26296291
-0.025521908 6.7092478e-05 -0.262959
-0.025519308 0.0001467932 -0.26294714
-0.025516493 0.00022462755 -0.2629413
-0.025513405 0.00030454621 -0.26293942
-0.025510199 0.00038255192 -0.26294157
-0.025506582 0.00045878068 -0.26295376
-0.025503278 0.00053682923 -0.26295793
-0.025500385 0.00061666034 -0.26295203
-0.025497492 0.00069649145 -0.26294616
-0.025493972 0.00077267364 -0.26295632
-0.025491372 0.00085237622 -0.26294446
-0.025488989 0.00093394332 -0.26292655
-0.025486076 0.0010118205 -0.2629227
-0.025482869 0.0010898262 -0.26292485
-0.025479859 0.0011677463 -0.26292303
-0.025476575 0.0012477543 -0.26292512
-0.025473174 0.0013258457 -0.26293129
-0.025469676 0.0014039837 -0.26293942
-0.025466956 0.0014817733 -0.26293159
-0.025464553 0.0015613884 -0.26291573
-0.025461562 0.0016412633 -0.26291183
-0.025457945 0.0017174883 -0.26292402
-0.025454465 0.0017975811 -0.26293012
-0.025451651 0.0018754117 -0.26292428
-0.025448855 0.0019552 -0.26291642
-0.025446452 0.002034815 -0.26290053
-0.025443636 0.0021126484 -0.26289469
-0.025440156 0.0021927394 -0.26290083
-0.025436951 0.0022707479 -0.26290298
-0.025434038 0.0023486242 -0.2628991
-0.025430735 0.0024266746 -0.26290327
-0.025427528 0.0025046812 -0.26290542
-0.025424127 0.0025827754 -0.26291156
-0.025420627 0.0026609115 -0.26291972
-0.025417421 0.0027389191 -0.26292187
-0.025414724 0.0028186636 -0.26291201
-0.025411732 0.0028985376 -0.2629081
-0.025408819 0.0029764138 -0.26290429
-0.025405809 0.0030543339 -0.26290244
-0.025403013 0.003134124 -0.26289454
-0.025400219 0.0032139104 -0.26288667
-0.025397306 0.0032917876 -0.26288283
-0.025394198 0.0033697523 -0.26288301
-0.025390796 0.0034478456 -0.26288915
-0.025387784 0.0035257647 -0.2628873
-0.025384698 0.0036056833 -0.26288539
-0.025381686 0.0036836034 -0.26288357
-0.025378577 0.0037615672 -0.26288372
-0.025375372 0.0038395738 -0.26288587
-0.025372284 0.0039194925 -0.26288399
-0.02536937 0.0039973687 -0.26288015
-0.025366165 0.0040753745 -0.26288229
-0.025362764 0.0041534686 -0.26288846
-0.025359871 0.0042333007 -0.26288256
-0.025357055 0.0043111341 -0.26287675
-0.025353946 0.004389097 -0.2628769
-0.02535074 0.0044671036 -0.26287904
-0.025347555 0.0045470661 -0.26287916
-0.02534464 0.0046249414 -0.26287532
-0.025341533 0.0047029061 -0.26287547
-0.025338229 0.0047809556 -0.26287961
-0.025335023 0.0048589632 -0.26288176
-0.025332324 0.0049387068 -0.26287192
-0.025329314 0.0050166268 -0.26287007
-0.025325816 0.0050947648 -0.26287821
-0.025322825 0.0051746396 -0.26287431
-0.025320107 0.0052524293 -0.2628665
-0.025317311 0.0053322176 -0.2628586
-0.025314398 0.0054100938 -0.26285475
-0.0253109 0.0054882299 -0.26286292
-0.0253074 0.0055663688 -0.26287106
-0.025305094 0.0056459401 -0.26285321
-0.025302593 0.005725597 -0.26283932
-0.025299484 0.0058035608 -0.2628395
-0.025296278 0.0058815675 -0.26284164
-0.025292875 0.0059596617 -0.26284778
-0.02528967 0.0060376674 -0.26284993
-0.025286581 0.006117586 -0.26284805
-0.025283376 0.0061955936 -0.2628502
-0.025280463 0.006273469 -0.26284635
-0.025277765 0.0063532144 -0.26283649
-0.025274754 0.0064311344 -0.26283464
-0.02527106 0.006509359 -0.26284677
-0.025268245 0.0065871915 -0.26284093
-0.025265526 0.0066649811 -0.26283312
-0.025262536 0.006744856 -0.26282924
-0.025259428 0.0068228189 -0.26282939
-0.02525622 0.0069008265 -0.26283154
-0.025253017 0.006978834 -0.26283368
-0.025250103 0.0070567103 -0.26282984
-0.025247112 0.0071365843 -0.26282597
-0.025244102 0.0072145043 -0.26282412
-0.025241189 0.0072923824 -0.2628203
-0.025238197 0.0073722564 -0.2628164
-0.025234677 0.0074484395 -0.26282659
-0.025231296 0.0075284876 -0.2628307
-0.025228677 0.0076062335 -0.26282087
-0.025225785 0.0076860646 -0.262815
-0.025222655 0.0077620745 -0.26281717
-0.025219157 0.0078402115 -0.26282531
-0.025215775 0.0079202596 -0.26282942
-0.025213057 0.0079980493 -0.26282158
-0.02521036 0.0080777938 -0.26281172
-0.025207251 0.0081557566 -0.2628119
-0.025204046 0.0082337651 -0.26281404
-0.025201229 0.0083115976 -0.2628082
-0.025198121 0.0083895614 -0.26280835
-0.025194839 0.0084695658 -0.26281047
-0.025191827 0.0085474858 -0.26280862
-0.025189012 0.0086253202 -0.26280278
-0.025186 0.0087032402 -0.26280093
-0.025183011 0.0087831141 -0.26279706
-0.025179902 0.0088610779 -0.26279721
-0.025176696 0.0089390846 -0.26279935
-0.025173977 0.0090168742 -0.26279154
-0.025171379 0.0090965759 -0.26277965
-0.025168074 0.0091746263 -0.26278383
-0.025164673 0.0092527196 -0.26278996
-0.025161564 0.0093306825 -0.26279011
-0.025158359 0.00940869 -0.26279229
-0.025155347 0.0094866101 -0.26279044
-0.025152456 0.0095664421 -0.26278454
-0.025149152 0.0096444916 -0.26278871
-0.025145944 0.0097224982 -0.26279086
-0.025143325 0.009800246 -0.26278102
-0.025140509 0.0098780785 -0.26277518
-0.025137108 0.0099561727 -0.26278132
-0.025133608 0.01003431 -0.26278949
-0.025130207 0.010112405 -0.26279563
-0.025127489 0.010190193 -0.26278779
-0.025124889 0.010269895 -0.26277593
-0.02512227 0.010347641 -0.26276609
-0.025119182 0.010427559 -0.26276422
-0.025116172 0.010505479 -0.26276237
-0.025113061 0.010583444 -0.26276252
-0.025109759 0.010661494 -0.26276666
-0.025106747 0.010739412 -0.26276481
-0.025103638 0.010817376 -0.26276499
-0.025100531 0.01089534 -0.26276514
-0.025097638 0.010975171 -0.26275927
-0.025094919 0.011052961 -0.26275143
-0.025091812 0.011130924 -0.26275158
-0.025088724 0.011210843 -0.2627497
-0.025085907 0.011288676 -0.26274386
-0.025082897 0.011366596 -0.26274201
-0.025079593 0.011444647 -0.26274616
-0.025076387 0.011522654 -0.26274833
-0.025073688 0.011602398 -0.26273844
-0.025070678 0.011680318 -0.26273662
-0.025067061 0.011756544 -0.26274878
-0.025063582 0.011836636 -0.26275489
-0.025060669 0.011914513 -0.26275104
-0.025058441 0.011992086 -0.26273322
-0.025055625 0.012069919 -0.26272741
-0.02505232 0.012147969 -0.26273155
-0.025049135 0.01222793 -0.26273167
-0.025046125 0.012305851 -0.26272982
-0.0250437 0.01238351 -0.262716
-0.025040904 0.012463299 -0.26270813
-0.025037287 0.012539525 -0.26272029
-0.025033906 0.012619573 -0.2627244
-0.025031287 0.01269732 -0.26271456
-0.025028275 0.012775239 -0.26271275
-0.025025265 0.01285316 -0.2627109
-0.025022449 0.012930993 -0.26270506
-0.02501934 0.013008956 -0.26270521
-0.025015939 0.01308705 -0.26271138
-0.025012558 0.013167098 -0.26271546
-0.025009429 0.013243107 -0.26271766
-0.025006417 0.013321027 -0.26271582
-0.025003428 0.013400901 -0.26271194
-0.025000123 0.013478952 -0.26271611
-0.024996821 0.013557003 -0.26272023
-0.024993908 0.013634879 -0.26271641
-0.024991482 0.013712538 -0.26270258
-0.024988491 0.013792413 -0.26269871
-0.024985578 0.01387029 -0.26269487
-0.024982763 0.013948124 -0.26268902
-0.024979655 0.014026088 -0.26268917
-0.024976254 0.014104181 -0.26269531
-0.024972949 0.014182231 -0.26269948
-0.024970133 0.014260065 -0.26269364
-0.024967631 0.014339723 -0.26267976
-0.024964426 0.014417729 -0.26268193
-0.024960928 0.014495866 -0.26269007
-0.024958111 0.0145737 -0.26268423
-0.024955295 0.014651533 -0.26267838
-0.024951991 0.014729583 -0.26268256
-0.02494859 0.014807677 -0.2626887
-0.024945483 0.014885641 -0.26268885
-0.024942786 0.014965385 -0.26267898
-0.024939969 0.015043218 -0.26267314
-0.024937056 0.015121095 -0.2626693
-0.024934143 0.015198972 -0.26266545
-0.024930742 0.015277065 -0.26267162
-0.02492734 0.01535516 -0.26267776
-0.024924427 0.015433036 -0.26267391
-0.024921924 0.015512694 -0.26266006
-0.024919109 0.015590527 -0.26265422
-0.024916001 0.015668491 -0.26265436
-0.024912892 0.015746454 -0.26265454
-0.024909979 0.015824331 -0.2626507
-0.024906598 0.015904378 -0.26265478
-0.024903664 0.015980301 -0.26265299
-0.02490085 0.016058134 -0.26264715
-0.024897859 0.01613801 -0.26264328
-0.024894554 0.01621606 -0.26264745
-0.02489125 0.016294111 -0.26265156
-0.02488824 0.016372031 -0.26264974
-0.024885522 0.01644982 -0.26264191
-0.024882708 0.016527653 -0.26263607
-0.024879891 0.016605487 -0.26263022
-0.0248769 0.016685361 -0.26262635
-0.024873793 0.016763324 -0.2626265
-0.024871074 0.016841115 -0.26261866
-0.024868552 0.016918818 -0.26260686
-0.024865542 0.016996738 -0.26260501
-0.024862042 0.017074876 -0.26261315
-0.024858739 0.017152926 -0.26261729
-0.024855727 0.017230846 -0.26261547
-0.024852347 0.017310893 -0.26261955
-0.024849141 0.017388901 -0.2626217
-0.024846032 0.017466864 -0.26262188
-0.02484302 0.017544784 -0.26262003
-0.024840109 0.017622661 -0.26261619
-0.024837293 0.017700493 -0.26261038
-0.024834283 0.017778415 -0.26260853
-0.024831096 0.017858377 -0.26260865
-0.024828084 0.017936297 -0.2626068
-0.024825172 0.018014172 -0.26260296
-0.024821967 0.01809218 -0.2626051
-0.024819052 0.018170057 -0.26260126
-0.024816237 0.018247889 -0.26259542
-0.024813227 0.018325809 -0.2625936
-0.024810119 0.018403774 -0.26259375
-0.02480703 0.018483691 -0.26259184
-0.02480441 0.018561438 -0.26258203
-0.024801301 0.018639401 -0.26258218
-0.024797801 0.018717539 -0.26259032
-0.024794206 0.018795719 -0.26260048
-0.024791585 0.018873466 -0.26259065
-0.024789061 0.018951168 -0.26257882
-0.024785779 0.019031174 -0.26258093
-0.024782475 0.019109223 -0.26258507
-0.024779269 0.019187231 -0.26258722
-0.024776161 0.019265193 -0.26258737
-0.024773052 0.019343158 -0.26258755
-0.024770042 0.019421078 -0.2625857
-0.024767421 0.019498825 -0.26257586
-0.024764704 0.019576615 -0.26256806
-0.024761811 0.019656446 -0.26256216
-0.024758801 0.019734366 -0.26256031
-0.024755888 0.019812243 -0.26255646
-0.024752975 0.019890118 -0.26255262
-0.024750061 0.019967996 -0.2625488
-0.024746953 0.02004596 -0.26254895
-0.024743648 0.020124011 -0.2625531
-0.024740659 0.020203885 -0.26254922
-0.024737647 0.020281805 -0.26254737
-0.024734832 0.020359639 -0.26254153
-0.024732407 0.020437298 -0.2625277
-0.024729103 0.020515349 -0.26253188
-0.024725605 0.020593485 -0.26254001
-0.024722593 0.020671405 -0.26253816
-0.02471968 0.020749282 -0.26253432
-0.024716495 0.020829244 -0.26253444
-0.024713386 0.020907206 -0.26253462
-0.02471057 0.020985041 -0.26252878
-0.024707852 0.02106283 -0.26252094
-0.024705134 0.02114062 -0.2625131
-0.024702124 0.02121854 -0.26251125
-0.024698624 0.021296676 -0.26251942
-0.024695048 0.021376813 -0.2625275
-0.024692135 0.021454688 -0.26252368
-0.02468932 0.021532523 -0.26251784
-0.024686407 0.0216104 -0.262514
-0.024683103 0.02168845 -0.26251817
-0.024679918 0.021768412 -0.26251826
-0.024677373 0.02184416 -0.26250845
-0.024674559 0.021921992 -0.26250264
-0.024671178 0.022002041 -0.26250672
-0.024667874 0.022080092 -0.2625109
-0.024664667 0.022158097 -0.26251304
-0.024661753 0.022235975 -0.26250923
-0.024659231 0.022313679 -0.26249737
-0.024656046 0.02239364 -0.26249748
-0.024652742 0.022471691 -0.26250163
-0.024649244 0.022549827 -0.26250976
-0.024646036 0.022627834 -0.26251194
-0.024643417 0.022705581 -0.2625021
-0.024640698 0.022783371 -0.26249427
-0.024637785 0.022861248 -0.26249045
-0.024634894 0.022941079 -0.26248455
-0.024632273 0.023018826 -0.26247472
-0.024629261 0.023096746 -0.26247287
-0.024625568 0.023174969 -0.26248503
-0.024622167 0.023253063 -0.26249117
-0.024619371 0.023332851 -0.2624833
-0.024616554 0.023410685 -0.26247746
-0.024613818 0.023486519 -0.26247168
-0.024610827 0.023566395 -0.26246777
-0.024607522 0.023644444 -0.26247194
-0.02460422 0.023722496 -0.26247609
-0.024600644 0.023802631 -0.26248419
-0.024597924 0.02388042 -0.26247635
-0.02459511 0.023958253 -0.26247051
-0.024591805 0.024036303 -0.26247466
-0.0245886 0.024114311 -0.2624768
-0.024585687 0.024192188 -0.26247299
-0.024582677 0.024270106 -0.26247114
-0.024579784 0.024349939 -0.26246527
-0.024577163 0.024427686 -0.26245543
-0.024574542 0.024505431 -0.2624456
-0.024571825 0.02458322 -0.26243776
-0.024568716 0.024661185 -0.26243794
-0.02456551 0.024739191 -0.26244009
-0.024562305 0.024817199 -0.26244223
-0.024558533 0.024897421 -0.26245433
-0.024555326 0.024975428 -0.26245648
-0.024552511 0.025053261 -0.26245064
-0.024549697 0.025131095 -0.26244479
-0.024546977 0.025208883 -0.26243699
-0.024544086 0.025288716 -0.26243109
-0.024541367 0.025366506 -0.26242325
-0.02453826 0.025444468 -0.2624234
-0.024535149 0.025522433 -0.26242357
-0.024532042 0.025600396 -0.26242372
-0.02452866 0.025680445 -0.26242784
-0.024525259 0.025758538 -0.26243398
-0.02452215 0.025836501 -0.26243412
-0.024518965 0.025916463 -0.26243424
-0.024515955 0.025994383 -0.2624324
-0.024512943 0.026072303 -0.26243055
-0.02451003 0.02615018 -0.26242673
-0.024507215 0.026228014 -0.26242089
-0.024504498 0.026305804 -0.26241305
-0.024501681 0.026383637 -0.26240724
-0.024498593 0.026463553 -0.26240534
-0.024495192 0.026541648 -0.26241148
-0.024491888 0.026619699 -0.26241565
-0.024488781 0.026697662 -0.2624158
-0.024486061 0.026775453 -0.26240796
-0.024483364 0.026855197 -0.26239806
-0.024480451 0.026933074 -0.26239425
-0.024477344 0.027011037 -0.2623944
-0.024474233 0.027089 -0.26239455
-0.024471028 0.027167007 -0.26239669
-0.024468038 0.027246881 -0.26239282
-0.024465026 0.027324803 -0.26239097
-0.024462016 0.027402721 -0.26238912
-0.024459004 0.027480643 -0.26238728
-0.024456091 0.027558519 -0.26238346
-0.024453277 0.027636353 -0.26237762
-0.024450462 0.027714185 -0.26237178
-0.024447646 0.027792018 -0.26236594
-0.024444655 0.027871894 -0.26236206
-0.024441352 0.027949944 -0.26236624
-0.024437774 0.028030079 -0.26237431
-0.024434373 0.028108174 -0.26238048
-0.024431266 0.028186137 -0.26238063
-0.024427494 0.028266359 -0.2623927
-0.024423994 0.028344495 -0.26240087
-0.02442071 0.0284245 -0.26240295
-0.024417037 0.028504679 -0.26241305
-0.024413146 0.02858299 -0.26242918
-0.024409961 0.028662952 -0.2624293
-0.024407711 0.028738569 -0.26241353
-0.024405189 0.028816272 -0.2624017
-0.024402004 0.028896235 -0.26240182
-0.024399091 0.02897411 -0.26239797
-0.024396569 0.029051814 -0.26238614
-0.024394143 0.029129473 -0.26237231
-0.024390936 0.029207481 -0.26237446
-0.024388414 0.029285183 -0.26236266
-0.02438511 0.029363234 -0.2623668
-0.02438212 0.029443109 -0.2623629
-0.024381023 0.029516252 -0.26232523
-0.024380628 0.029591046 -0.26227149
-0.024378497 0.029668575 -0.26225168
-0.024374802 0.029746799 -0.26226383
-0.02437103 0.029827021 -0.2622759
-0.024367355 0.029907199 -0.26228601
-0.024365107 0.029982816 -0.26227024
-0.024362681 0.030060478 -0.26225641
-0.024359964 0.030138267 -0.26224858
-0.024357051 0.030216143 -0.26224473
-0.024354039 0.030294064 -0.26224291
-0.024350952 0.030373983 -0.26224101
-0.024347354 0.030452162 -0.26225114
-0.024343485 0.030532427 -0.26226524
-0.024339616 0.030612692 -0.26227933
-0.024335941 0.030692872 -0.26228943
-0.024332441 0.030771008 -0.26229757
-0.024328964 0.0308511 -0.26230368
-0.024325855 0.030929064 -0.26230383
-0.024323333 0.031006768 -0.262292
-0.024320712 0.031084513 -0.26228216
-0.024317799 0.031162389 -0.26227832
-0.024314322 0.031242482 -0.26228443
-0.024311017 0.031320531 -0.26228857
-0.024308026 0.031400405 -0.2622847
-0.024305016 0.031478327 -0.26228285
-0.024302006 0.031556249 -0.262281
-0.024298623 0.031636298 -0.26228511
-0.024295222 0.031714387 -0.26229128
-0.024292406 0.031792223 -0.26228544
-0.024289787 0.03186997 -0.26227561
-0.024286699 0.031949885 -0.26227373
-0.024283493 0.032027893 -0.26227587
-0.024280578 0.03210577 -0.26227203
-0.024277393 0.032185733 -0.26227215
-0.024274383 0.032263651 -0.2622703
-0.024271568 0.032341488 -0.26226446
-0.024268653 0.032419361 -0.26226062
-0.024265546 0.032497324 -0.26226079
-0.024262458 0.032577246 -0.26225889
-0.024259251 0.03265525 -0.26226103
-0.024255969 0.032735255 -0.26226315
-0.024253055 0.032813132 -0.2622593
-0.024250338 0.032890923 -0.2622515
-0.02424762 0.032968711 -0.26224366
-0.024244512 0.033046678 -0.26224381
-0.024241228 0.033126682 -0.26224592
-0.024238022 0.03320469 -0.26224807
-0.024234543 0.03328478 -0.26225418
-0.024231065 0.03336487 -0.26226026
-0.024228346 0.033442661 -0.26225245
-0.024225727 0.033520408 -0.26224262
-0.024222715 0.033598326 -0.26224077
-0.024219431 0.03367833 -0.26224285
-0.024216518 0.033756211 -0.26223904
-0.024213977 0.033831958 -0.26222926
-0.024211181 0.033911746 -0.26222137
-0.024207976 0.033989754 -0.26222354
-0.024204202 0.034069974 -0.26223561
-0.024200823 0.034150023 -0.26223972
-0.024197908 0.0342279 -0.26223588
-0.024194995 0.034305774 -0.26223204
-0.024192277 0.034383565 -0.2622242
-0.024189658 0.034461312 -0.26221439
-0.024186375 0.034541316 -0.26221648
-0.024182973 0.03461941 -0.26222265
-0.02417969 0.034699418 -0.26222473
-0.024176581 0.034777381 -0.26222491
-0.024173396 0.03485734 -0.262225
-0.024170579 0.034935176 -0.26221919
-0.024167862 0.035012968 -0.26221132
-0.024165045 0.035090797 -0.26220551
-0.024162035 0.035168715 -0.26220366
-0.02415885 0.035248678 -0.26220378
-0.024155643 0.035326686 -0.26220593
-0.024152633 0.035404608 -0.26220408
-0.024149349 0.035484612 -0.2622062
-0.024145871 0.035564702 -0.26221231
-0.02414286 0.035642624 -0.26221046
-0.024140142 0.035720412 -0.26220262
-0.024137229 0.035798289 -0.26219878
-0.024134336 0.035878122 -0.2621929
-0.024131618 0.035955913 -0.26218507
-0.024128901 0.036033701 -0.26217723
-0.024125988 0.036111578 -0.26217341
-0.024122683 0.036189631 -0.26217756
-0.024119303 0.036269676 -0.26218164
-0.024116214 0.036349595 -0.26217976
-0.024113204 0.036427513 -0.26217791
-0.024110096 0.036505476 -0.26217809
-0.02410691 0.036585435 -0.26217818
-0.024103899 0.036663357 -0.26217633
-0.024101084 0.03674119 -0.26217049
-0.024097996 0.036821112 -0.26216862
-0.024094887 0.036899075 -0.26216879
-0.024091974 0.036976952 -0.26216495
-0.024088886 0.037056871 -0.26216304
-0.024085876 0.037134789 -0.2621612
-0.024083059 0.037212621 -0.26215538
-0.024080049 0.037290543 -0.26215354
-0.024076765 0.037370548 -0.26215565
-0.024073482 0.037450552 -0.26215774
-0.024070667 0.037528388 -0.2621519
-0.024067655 0.037606306 -0.26215008
-0.024064742 0.03768418 -0.26214623
-0.024061928 0.037762016 -0.26214039
-0.024058741 0.037841976 -0.26214051
-0.02405536 0.037922025 -0.26214463
-0.02405235 0.037999947 -0.26214278
-0.024049534 0.038077779 -0.26213694
-0.024046816 0.038155571 -0.26212913
-0.024043903 0.038233444 -0.26212525
-0.024040131 0.038313664 -0.26213735
-0.024034858 0.038400449 -0.26217526
-0.024028979 0.038485534 -0.26222721
-0.024023587 0.0385704 -0.26226917
-0.024018293 0.038655229 -0.26230913
-0.02621706 -0.0065328181 -0.26307672
-0.026214363 -0.0064530764 -0.26306683
-0.026211157 -0.0063750688 -0.26306897
-0.026208049 -0.0062971059 -0.26306915
-0.026205156 -0.006217273 -0.26306325
-0.026202049 -0.0061393101 -0.26306343
-0.026198961 -0.0060593933 -0.26306152
-0.026195951 -0.0059814733 -0.26305968
-0.026192646 -0.0059034228 -0.26306385
-0.026189245 -0.0058253277 -0.26306999
-0.026185844 -0.0057472344 -0.26307613
-0.026182542 -0.005669184 -0.2630803
-0.026179941 -0.0055894814 -0.26306841
-0.026177559 -0.0055079143 -0.2630505
-0.026174471 -0.0054279957 -0.26304862
-0.026171558 -0.0053501185 -0.26304477
-0.026168667 -0.0052702874 -0.26303887
-0.026166067 -0.0051905867 -0.26302701
-0.026163567 -0.0051109288 -0.26301312
-0.026160263 -0.0050328784 -0.2630173
-0.026156373 -0.0049545672 -0.26303345
-0.026153557 -0.0048767347 -0.26302761
-0.026150666 -0.0047969036 -0.26302171
-0.026147049 -0.0047206748 -0.2630339
-0.026143549 -0.0046425406 -0.26304203
-0.026140343 -0.004564533 -0.26304421
-0.026137354 -0.0044846591 -0.2630403
-0.026134754 -0.0044049565 -0.26302844
-0.026131863 -0.0043251272 -0.26302254
-0.026128754 -0.0042471625 -0.26302272
-0.026125645 -0.0041691996 -0.26302287
-0.026122559 -0.004089281 -0.26302099
-0.026119061 -0.0040111449 -0.26302913
-0.026115637 -0.0039350037 -0.26303732
-0.026112551 -0.003855085 -0.26303542
-0.026109539 -0.003777165 -0.2630336
-0.026106549 -0.003697291 -0.26302969
-0.026103441 -0.0036193281 -0.26302987
-0.026100237 -0.0035413206 -0.26303202
-0.026096953 -0.0034613162 -0.26303411
-0.026093747 -0.0033833086 -0.26303628
-0.026090659 -0.0033033919 -0.26303437
-0.026087746 -0.0032255165 -0.26303053
-0.026084444 -0.0031474661 -0.2630347
-0.026081357 -0.0030675475 -0.26303279
-0.026078541 -0.0029897112 -0.26302698
-0.026075648 -0.0029098801 -0.26302108
-0.026072659 -0.0028300062 -0.26301721
-0.026069649 -0.0027520861 -0.26301536
-0.026066344 -0.0026740357 -0.2630195
-0.026062747 -0.0025958549 -0.26302966
-0.026059346 -0.0025177617 -0.2630358
-0.026056238 -0.0024397988 -0.26303595
-0.026053326 -0.0023619216 -0.26303214
-0.026050337 -0.0022820458 -0.26302823
-0.026047327 -0.0022041276 -0.26302642
-0.026044335 -0.0021242518 -0.26302251
-0.026041444 -0.0020444188 -0.26301664
-0.026038531 -0.0019665435 -0.2630128
-0.026035737 -0.0018867571 -0.2630049
-0.026032941 -0.001806967 -0.26299703
-0.026029736 -0.0017289612 -0.26299918
-0.026026238 -0.0016508233 -0.26300734
-0.026022717 -0.001574643 -0.26301751
-0.026019435 -0.0014946368 -0.26301962
-0.026016228 -0.0014166292 -0.26302177
-0.026013121 -0.0013386644 -0.26302195
-0.026010228 -0.0012588352 -0.26301605
-0.026007336 -0.0011790022 -0.26301017
-0.026004424 -0.0011011269 -0.26300633
-0.026001532 -0.0010212939 -0.26300046
-0.025998639 -0.00094146468 -0.26299459
-0.025995433 -0.0008634571 -0.26299673
-0.025992129 -0.00078540668 -0.26300088
-0.025989022 -0.0007074438 -0.26300102
-0.025986031 -0.00062756799 -0.26299715
-0.02598314 -0.00054773875 -0.26299125
-0.025980325 -0.00046990439 -0.26298544
-0.025977237 -0.00038998574 -0.26298353
-0.025974227 -0.00031206384 -0.26298171
-0.025971118 -0.00023410097 -0.26298186
-0.025967933 -0.00015413947 -0.26298195
-0.025964728 -7.6131895e-05 -0.26298413
-0.025961718 1.7862767e-06 -0.26298228
-0.025958512 7.9791993e-05 -0.26298442
-0.025955327 0.00015975535 -0.26298454
-0.025952727 0.00023945607 -0.26297265
-0.025949912 0.00031729043 -0.26296681
-0.025947019 0.00039711967 -0.26296094
-0.025943814 0.00047512725 -0.26296312
-0.025940511 0.00055317581 -0.26296723
-0.02593752 0.00063305348 -0.26296335
-0.025934607 0.00071093068 -0.26295954
-0.0259315 0.00078889355 -0.26295969
-0.025928315 0.00086885318 -0.26295978
-0.025925498 0.00094668753 -0.26295397
-0.025922511 0.0010265633 -0.26295006
-0.025919184 0.001102658 -0.26295626
-0.025915589 0.0011808388 -0.26296642
-0.025912501 0.0012607565 -0.26296452
-0.025909686 0.0013385899 -0.26295868
-0.025906501 0.0014185496 -0.26295879
-0.025903296 0.001496559 -0.26296094
-0.025900187 0.0015745219 -0.26296109
-0.025896786 0.0016526161 -0.26296723
-0.025893992 0.0017324043 -0.26295936
-0.025891392 0.001812106 -0.2629475
-0.025888382 0.0018900242 -0.26294565
-0.025885275 0.001967987 -0.2629458
-0.025882773 0.0020476459 -0.26293194
-0.025879782 0.0021275207 -0.26292807
-0.025876381 0.0022056149 -0.26293421
-0.025872882 0.002283752 -0.26294234
-0.025869677 0.0023617605 -0.26294452
-0.025866881 0.0024415469 -0.26293662
-0.025864165 0.0025193365 -0.26292878
-0.025860861 0.0025973869 -0.26293296
-0.025857363 0.002675524 -0.26294109
-0.02585445 0.0027534012 -0.26293725
-0.02585146 0.0028332761 -0.26293337
-0.025848351 0.0029112399 -0.26293352
-0.025844971 0.002991287 -0.26293764
-0.02584235 0.0030690329 -0.2629278
-0.025839556 0.0031488212 -0.2629199
-0.025836546 0.0032267431 -0.26291808
-0.025833633 0.0033046193 -0.26291424
-0.025830232 0.0033827126 -0.26292038
-0.02582683 0.0034608059 -0.26292652
-0.025824036 0.0035405941 -0.26291865
-0.025821123 0.0036184704 -0.26291481
-0.025818134 0.0036983453 -0.26291093
-0.025815025 0.00377631 -0.26291108
-0.025811918 0.0038542729 -0.26291123
-0.025808908 0.0039321929 -0.26290941
-0.02580582 0.0040121116 -0.26290751
-0.02580281 0.0040900297 -0.26290566
-0.025799604 0.0041680383 -0.2629078
-0.025796399 0.0042460449 -0.26290998
-0.02579329 0.0043240078 -0.26291013
-0.025790203 0.0044039264 -0.26290825
-0.025786996 0.0044819331 -0.2629104
-0.025783692 0.0045599844 -0.26291454
-0.025780996 0.004639728 -0.26290467
-0.025778279 0.0047175176 -0.26289684
-0.025774974 0.0047955681 -0.26290101
-0.025771769 0.0048735756 -0.26290315
-0.025768682 0.0049534943 -0.26290125
-0.025765574 0.0050314572 -0.26290143
-0.02576266 0.0051093344 -0.26289758
-0.025759475 0.0051892949 -0.26289767
-0.025756173 0.0052673453 -0.26290184
-0.025753455 0.0053451359 -0.262894
-0.025750855 0.0054248376 -0.26288211
-0.025748041 0.0055026701 -0.26287627
-0.02574466 0.0055827182 -0.26288038
-0.025741357 0.0056607686 -0.26288456
-0.025738347 0.0057386886 -0.26288271
-0.02573565 0.0058184341 -0.26287282
-0.025732443 0.0058964407 -0.26287499
-0.025728945 0.0059745777 -0.26288313
-0.025725739 0.0060525835 -0.26288527
-0.025722729 0.0061305054 -0.26288342
-0.025719717 0.0062084254 -0.26288161
-0.025716806 0.0062863017 -0.26287776
-0.025713718 0.0063662194 -0.26287585
-0.025710609 0.0064441822 -0.26287603
-0.025707306 0.0065222336 -0.26288018
-0.025704294 0.0066001536 -0.26287833
-0.0257015 0.006679941 -0.26287046
-0.02569849 0.006757861 -0.26286861
-0.02569548 0.006835781 -0.26286677
-0.025692588 0.0069156121 -0.26286089
-0.025689479 0.0069935769 -0.26286104
-0.025686078 0.0070716701 -0.26286721
-0.025682775 0.0071497206 -0.26287135
-0.025680058 0.0072275102 -0.26286352
-0.025677556 0.007307169 -0.26284963
-0.025674742 0.0073850024 -0.26284382
-0.025671437 0.0074630519 -0.26284796
-0.025668057 0.0075431 -0.26285207
-0.025665047 0.0076210201 -0.26285022
-0.025662135 0.0076988973 -0.26284638
-0.025659319 0.0077767307 -0.26284054
-0.025656309 0.0078546507 -0.26283872
-0.025653124 0.0079346122 -0.26283881
-0.025649723 0.0080127055 -0.26284498
-0.025646614 0.0080906702 -0.26284513
-0.025643799 0.0081685036 -0.26283929
-0.025641005 0.008248291 -0.26283139
-0.025637897 0.0083262548 -0.26283157
-0.025634887 0.0084041748 -0.26282972
-0.025631582 0.0084822243 -0.26283386
-0.025628496 0.008562143 -0.26283199
-0.025625875 0.0086398898 -0.26282215
-0.025622962 0.008717766 -0.26281831
-0.02561966 0.0087958165 -0.26282245
-0.02561667 0.0088756923 -0.26281857
-0.025613757 0.0089535685 -0.26281476
-0.025610551 0.0090315742 -0.26281691
-0.02560715 0.0091096684 -0.26282305
-0.025604041 0.0091876322 -0.26282322
-0.025601052 0.0092675071 -0.26281932
-0.025598042 0.0093454272 -0.26281747
-0.025594737 0.0094234776 -0.26282161
-0.02559202 0.0095012672 -0.26281381
-0.025589401 0.009579014 -0.26280397
-0.025586313 0.0096589318 -0.26280206
-0.025583204 0.0097368956 -0.26280224
-0.025579706 0.0098150326 -0.26281038
-0.025576599 0.0098929964 -0.26281053
-0.025573978 0.0099707432 -0.26280069
-0.02557089 0.010050661 -0.26279882
-0.025567979 0.010128537 -0.26279497
-0.025565162 0.010206371 -0.26278913
-0.02556186 0.010284422 -0.2627933
-0.025558263 0.010362603 -0.26280344
-0.025555253 0.010440521 -0.26280159
-0.025552437 0.010518355 -0.26279575
-0.025549427 0.010596275 -0.2627939
-0.025546633 0.010676064 -0.26278603
-0.025543427 0.01075407 -0.26278818
-0.025540026 0.010832164 -0.26279435
-0.025537016 0.010910084 -0.2627925
-0.025534298 0.010987874 -0.26278466
-0.025531504 0.011067662 -0.26277679
-0.025528394 0.011145625 -0.26277694
-0.025524994 0.011223719 -0.26278308
-0.025522277 0.011301509 -0.26277524
-0.02551958 0.011381254 -0.26276538
-0.025516178 0.011459347 -0.26277152
-0.025512876 0.011537397 -0.26277566
-0.025509767 0.011615361 -0.26277584
-0.025506658 0.011693325 -0.26277599
-0.025503648 0.011771245 -0.26277417
-0.025501147 0.011850903 -0.26276028
-0.025498429 0.011928692 -0.26275244
-0.025495028 0.012006787 -0.26275858
-0.025491431 0.012084967 -0.26276875
-0.025488226 0.012162974 -0.26277089
-0.025485119 0.012240937 -0.26277104
-0.025482323 0.012320725 -0.26276317
-0.025479509 0.012398559 -0.26275733
-0.025476303 0.012476565 -0.26275948
-0.025473097 0.012554573 -0.26276162
-0.025469989 0.012632536 -0.2627618
-0.025466979 0.012710457 -0.26275995
-0.025464185 0.012790244 -0.26275209
-0.025461271 0.01286812 -0.26274824
-0.025458846 0.012945781 -0.26273441
-0.025456324 0.013023484 -0.26272258
-0.025452923 0.013101578 -0.26272872
-0.025449738 0.013181539 -0.26272884
-0.025446631 0.013259502 -0.26272899
-0.025443209 0.013335641 -0.26273718
-0.02543973 0.013415733 -0.26274329
-0.025436915 0.013493567 -0.26273745
-0.025434297 0.013571314 -0.26272762
-0.025431287 0.013649233 -0.26272577
-0.025427787 0.013727371 -0.26273394
-0.025424581 0.013805378 -0.26273608
-0.025421571 0.013883298 -0.26273423
-0.025418775 0.013963086 -0.26272637
-0.025416644 0.014040615 -0.26270655
-0.025413927 0.014118405 -0.26269871
-0.025409743 0.014196846 -0.26272085
-0.025405854 0.014275157 -0.26273698
-0.025403138 0.014352947 -0.26272917
-0.025400538 0.014432648 -0.26271725
-0.02539782 0.014510438 -0.26270944
-0.025395397 0.014588097 -0.26269561
-0.025392093 0.014666148 -0.26269978
-0.0253883 0.014744415 -0.26271391
-0.02538529 0.014822336 -0.26271206
-0.025382672 0.014900082 -0.26270223
-0.025379974 0.014979826 -0.26269236
-0.025377257 0.015057616 -0.26268452
-0.025374148 0.01513558 -0.26268467
-0.02537065 0.015213717 -0.26269281
-0.025367152 0.015291855 -0.26270097
-0.025363944 0.015369861 -0.26270312
-0.025360642 0.015447912 -0.26270729
-0.025357554 0.01552783 -0.26270539
-0.025354642 0.015605707 -0.26270154
-0.025351435 0.015683712 -0.26270369
-0.025348719 0.015761504 -0.26269588
-0.025346685 0.015838988 -0.26267403
-0.025344184 0.015918646 -0.26266021
-0.025341075 0.015996611 -0.26266032
-0.025337752 0.016072705 -0.26266652
-0.025334079 0.016152885 -0.26267663
-0.02533097 0.016230848 -0.26267678
-0.025328349 0.016308594 -0.26266694
-0.025325827 0.016386298 -0.26265514
-0.02532272 0.016464261 -0.26265529
-0.025318831 0.016542573 -0.26267141
-0.025315624 0.01662058 -0.26267356
-0.025313318 0.01670015 -0.26265571
-0.025310894 0.01677781 -0.26264188
-0.025307981 0.016855687 -0.26263803
-0.025304481 0.016933823 -0.2626462
-0.025300886 0.017012004 -0.26265633
-0.025297681 0.017090011 -0.26265848
-0.025294768 0.017167889 -0.26265466
-0.025291855 0.017245764 -0.26265079
-0.025288669 0.017325725 -0.26265091
-0.025285268 0.017403821 -0.26265708
-0.025282355 0.017481696 -0.26265323
-0.025279637 0.017559487 -0.26264539
-0.025276335 0.017637538 -0.26264954
-0.025273325 0.017715458 -0.26264769
-0.025270803 0.01779316 -0.26263589
-0.025268007 0.017872948 -0.26262799
-0.025264997 0.017950868 -0.26262617
-0.025261499 0.018029006 -0.26263431
-0.025258293 0.018107012 -0.26263645
-0.025255576 0.018184802 -0.26262861
-0.025252566 0.018262722 -0.26262677
-0.025249261 0.018340772 -0.26263094
-0.025246348 0.018418649 -0.26262709
-0.025243262 0.018498568 -0.26262522
-0.025240153 0.018576531 -0.26262537
-0.02523724 0.018654408 -0.26262152
-0.025234718 0.018732112 -0.26260969
-0.025231903 0.018809944 -0.26260385
-0.025228795 0.018887907 -0.26260403
-0.025225688 0.018965872 -0.26260418
-0.025222404 0.019045876 -0.26260629
-0.025219394 0.019123796 -0.26260445
-0.025216579 0.019201629 -0.2625986
-0.025213471 0.019279594 -0.26259875
-0.025210362 0.019357556 -0.26259893
-0.025207255 0.019435521 -0.26259905
-0.025204342 0.019513397 -0.26259524
-0.025201235 0.019591361 -0.26259539
-0.025198048 0.019671323 -0.2625955
-0.02519533 0.019749112 -0.26258767
-0.025192419 0.01982699 -0.26258382
-0.025189018 0.019905083 -0.26258999
-0.025185812 0.01998309 -0.26259214
-0.025183095 0.02006088 -0.2625843
-0.02518028 0.020138713 -0.26257846
-0.025177192 0.020218631 -0.26257658
-0.025174474 0.020296421 -0.26256874
-0.025171366 0.020374384 -0.26256889
-0.025167964 0.020452479 -0.26257503
-0.025164858 0.020530442 -0.26257521
-0.025162237 0.020608189 -0.26256537
-0.025159519 0.020685978 -0.26255754
-0.025156412 0.020763941 -0.26255769
-0.025152933 0.020844033 -0.26256379
-0.025149727 0.020922041 -0.26256597
-0.025146913 0.020999875 -0.26256013
-0.025144294 0.02107762 -0.26255029
-0.025141576 0.02115541 -0.26254246
-0.025138564 0.021233331 -0.26254061
-0.025135066 0.021311468 -0.26254874
-0.025131587 0.021391559 -0.26255485
-0.025128772 0.021469392 -0.26254904
-0.025125762 0.021547314 -0.26254719
-0.025122849 0.021625189 -0.26254335
-0.025119938 0.021703066 -0.26253951
-0.025116753 0.021783028 -0.26253963
-0.025113741 0.021860948 -0.26253778
-0.025111102 0.021936741 -0.26252997
-0.025107818 0.022016745 -0.26253211
-0.025104515 0.022094795 -0.26253623
-0.025101406 0.022172758 -0.26253641
-0.025098201 0.022250766 -0.26253855
-0.025095191 0.022328686 -0.2625367
-0.025092494 0.02240843 -0.26252684
-0.025089581 0.022486307 -0.262523
-0.025086474 0.02256427 -0.26252317
-0.025083952 0.022641974 -0.26251134
-0.02508143 0.022719678 -0.26249951
-0.025078418 0.022797596 -0.26249766
-0.025075408 0.022875518 -0.26249582
-0.025072223 0.022955477 -0.26249593
-0.02506892 0.02303353 -0.26250008
-0.025065811 0.023111492 -0.26250023
-0.025062606 0.0231895 -0.2625024
-0.025059497 0.023267463 -0.26250255
-0.025056213 0.023347467 -0.26250464
-0.025053106 0.02342543 -0.26250482
-0.025049999 0.023503395 -0.26250497
-0.025046891 0.02358136 -0.26250511
-0.025043977 0.023659235 -0.2625013
-0.025040889 0.023739154 -0.26249939
-0.025037782 0.023817116 -0.26249957
-0.02503477 0.023895036 -0.26249772
-0.02503176 0.023972956 -0.26249588
-0.025028653 0.024050921 -0.26249602
-0.025025837 0.024128754 -0.26249018
-0.025023315 0.024206458 -0.26247835
-0.025020599 0.024284247 -0.26247054
-0.025017491 0.02436221 -0.26247069
-0.025014577 0.024440087 -0.26246685
-0.025011491 0.024520006 -0.26246497
-0.025007991 0.024598142 -0.26247311
-0.025004491 0.02467628 -0.26248124
-0.025001405 0.024756197 -0.26247936
-0.024998395 0.024834119 -0.26247752
-0.024995677 0.024911907 -0.26246968
-0.024993058 0.024989653 -0.26245987
-0.024989754 0.025067706 -0.26246402
-0.02498645 0.025145754 -0.26246816
-0.02498346 0.02522563 -0.26246428
-0.024980158 0.02530368 -0.26246843
-0.02497695 0.025381688 -0.26247057
-0.024974037 0.025459565 -0.26246676
-0.024971049 0.025539439 -0.26246285
-0.024968136 0.025617316 -0.26245901
-0.024965126 0.025695235 -0.26245719
-0.024962213 0.025773112 -0.26245335
-0.024959203 0.025851034 -0.2624515
-0.024956387 0.025928866 -0.26244566
-0.024953572 0.026006699 -0.26243985
-0.024950484 0.026086617 -0.26243794
-0.024947865 0.026164364 -0.2624281
-0.024944954 0.026242241 -0.26242426
-0.024941649 0.02632029 -0.26242843
-0.024938053 0.026398472 -0.26243857
-0.024934769 0.026478477 -0.26244068
-0.024931954 0.026556309 -0.26243484
-0.024928944 0.026634229 -0.26243299
-0.02492613 0.026712064 -0.26242715
-0.024923509 0.026789811 -0.26241735
-0.024920324 0.026869772 -0.26241744
-0.024916824 0.026947908 -0.2624256
-0.024913618 0.027025916 -0.26242775
-0.024910901 0.027103703 -0.26241991
-0.024907989 0.027181583 -0.26241606
-0.024905 0.027261456 -0.26241219
-0.024901891 0.027339421 -0.26241234
-0.024898978 0.027417297 -0.26240849
-0.024895968 0.027495217 -0.26240665
-0.024892567 0.027573312 -0.26241282
-0.024889283 0.027653316 -0.26241493
-0.02488637 0.027731191 -0.26241109
-0.024883751 0.027808938 -0.26240122
-0.024881229 0.027886642 -0.26238942
-0.024878316 0.027964519 -0.26238558
-0.024874739 0.028044654 -0.26239368
-0.02487085 0.028122965 -0.26240981
-0.024867177 0.028203143 -0.26241991
-0.024863308 0.028283408 -0.26243401
-0.024859712 0.028361589 -0.26244414
-0.024857385 0.028439205 -0.26242831
-0.024855547 0.028516605 -0.2624025
-0.024853103 0.028592309 -0.26239073
-0.024849819 0.028672315 -0.26239285
-0.024846809 0.028750235 -0.262391
-0.024842549 0.028830674 -0.26241308
-0.024838289 0.028911114 -0.26243517
-0.02483481 0.028991206 -0.26244125
-0.024832755 0.029066736 -0.26242149
-0.024830431 0.029144352 -0.26240566
-0.024827909 0.029222056 -0.26239383
-0.024825387 0.029299758 -0.262382
-0.024822669 0.029377548 -0.26237419
-0.024819365 0.029455598 -0.26237833
-0.024815397 0.029535908 -0.26239443
-0.024812877 0.02961361 -0.2623826
-0.024811506 0.029688839 -0.26234883
-0.024808791 0.029766629 -0.26234102
-0.024805604 0.02984659 -0.26234111
-0.024803549 0.029922122 -0.26232135
-0.024800463 0.030002039 -0.26231945
-0.024797354 0.030080002 -0.26231962
-0.024794636 0.030157793 -0.26231179
-0.024792213 0.030235453 -0.26229796
-0.024789769 0.030311158 -0.26228619
-0.024786778 0.030391032 -0.26228231
-0.024783475 0.030469082 -0.26228645
-0.024779975 0.03054722 -0.26229459
-0.02477603 0.030629484 -0.26230863
-0.024772726 0.030707534 -0.26231277
-0.024769617 0.030785497 -0.26231295
-0.024766237 0.030865546 -0.26231706
-0.024763227 0.030943464 -0.26231521
-0.024760412 0.031021301 -0.26230937
-0.0247574 0.031099219 -0.26230752
-0.024754215 0.03117918 -0.26230764
-0.024750814 0.031257275 -0.26231378
-0.024747804 0.031335194 -0.26231194
-0.024744716 0.031415112 -0.26231006
-0.024741706 0.031493034 -0.26230821
-0.02473852 0.031572994 -0.26230833
-0.024735413 0.031650957 -0.26230848
-0.024732109 0.031729009 -0.26231262
-0.024728728 0.031809054 -0.26231673
-0.024725523 0.031887062 -0.26231891
-0.024722533 0.03196694 -0.26231501
-0.024719816 0.032044727 -0.26230717
-0.024717174 0.032120518 -0.26229939
-0.024713892 0.032200523 -0.2623015
-0.024710512 0.032280572 -0.26230562
-0.024707306 0.032358579 -0.26230776
-0.024704687 0.032436326 -0.26229793
-0.024702165 0.032514028 -0.2622861
-0.024699057 0.032591995 -0.26228625
-0.024695676 0.03267204 -0.26229036
-0.024692295 0.032752089 -0.26229447
-0.024689283 0.032830007 -0.26229262
-0.024686273 0.032907929 -0.26229078
-0.024683459 0.032985762 -0.26228493
-0.024680449 0.033063684 -0.26228309
-0.024677068 0.033143733 -0.2622872
-0.024673862 0.033221737 -0.26228935
-0.024670774 0.033301659 -0.26228747
-0.024668155 0.033379402 -0.26227763
-0.02466571 0.033455111 -0.26226586
-0.024662428 0.033535115 -0.26226795
-0.024658753 0.033615291 -0.26227808
-0.024655743 0.033693213 -0.26227623
-0.024652634 0.033771176 -0.26227638
-0.024649449 0.033851139 -0.26227647
-0.024646733 0.033928927 -0.26226866
-0.024643723 0.034006849 -0.26226681
-0.02464034 0.034086898 -0.26227093
-0.024637233 0.034164861 -0.26227108
-0.02463432 0.034242734 -0.26226723
-0.024631428 0.034322567 -0.26226136
-0.02462871 0.034400359 -0.26225352
-0.024625603 0.034478322 -0.26225367
-0.024622124 0.034558415 -0.26225978
-0.024619114 0.034636334 -0.26225793
-0.024616297 0.034714166 -0.26225209
-0.024613386 0.034792043 -0.26224825
-0.024610201 0.034872003 -0.26224837
-0.024606995 0.03495001 -0.26225051
-0.02460381 0.03502997 -0.26225063
-0.024600701 0.035107937 -0.26225078
-0.024598081 0.035185684 -0.26224095
-0.024595365 0.035263471 -0.26223314
-0.024592277 0.03534339 -0.26223123
-0.02458917 0.035421357 -0.26223141
-0.024585886 0.035501357 -0.2622335
-0.024582876 0.035579279 -0.26223165
-0.024580158 0.035657067 -0.26222384
-0.02457705 0.035735033 -0.26222399
-0.024573963 0.035814952 -0.26222211
-0.024570854 0.035892915 -0.26222223
-0.024567941 0.035970792 -0.26221842
-0.024565147 0.03605058 -0.26221055
-0.024562137 0.036128499 -0.2622087
-0.024558932 0.036206506 -0.26221085
-0.024555746 0.036286466 -0.26221097
-0.024552638 0.036364429 -0.26221111
-0.024549648 0.036444306 -0.26220724
-0.024546638 0.036522225 -0.26220539
-0.024543725 0.036600102 -0.26220155
-0.024540812 0.036677979 -0.2621977
-0.024537627 0.036757942 -0.26219782
-0.024534617 0.03683586 -0.26219597
-0.024531333 0.036915869 -0.26219809
-0.024528323 0.036993787 -0.26219624
-0.024525508 0.037071619 -0.2621904
-0.024522791 0.037149407 -0.26218256
-0.024520073 0.037227198 -0.26217473
-0.024516964 0.037305161 -0.2621749
-0.024513584 0.03738521 -0.26217902
-0.024510203 0.037465259 -0.2621831
-0.0245069 0.037543312 -0.26218724
-0.024504008 0.037623141 -0.26218137
-0.024501389 0.037700888 -0.26217154
-0.024498476 0.037778765 -0.26216769
-0.024495367 0.037856728 -0.26216787
-0.024492281 0.037936646 -0.26216596
-0.024489367 0.038014524 -0.26216215
-0.024486454 0.038092397 -0.26215827
-0.024483269 0.038172361 -0.26215839
-0.024479594 0.03825254 -0.2621685
-0.024475258 0.038334973 -0.26219052
-0.024470335 0.038417675 -0.26222456
-0.024464671 0.03850463 -0.26227045
-0.024457932 0.038592063 -0.26233831
-0.026643462 -0.0065172818 -0.26311994
-0.026639964 -0.0064391457 -0.26312807
-0.026637267 -0.0063594002 -0.26311821
-0.026634788 -0.0062777884 -0.26310229
-0.026631875 -0.0061999112 -0.26309845
-0.026629198 -0.0061182119 -0.26308653
-0.026626287 -0.0060403347 -0.26308268
-0.026622787 -0.0059621986 -0.26309082
-0.026619073 -0.0058859289 -0.26310501
-0.026615771 -0.0058078803 -0.26310915
-0.026612664 -0.0057299137 -0.26310933
-0.026609262 -0.0056518205 -0.26311547
-0.02660637 -0.0055719912 -0.26310959
-0.026603675 -0.0054922458 -0.2630997
-0.026600881 -0.0054124575 -0.26309183
-0.026597675 -0.0053344499 -0.26309398
-0.026594391 -0.0052544475 -0.26309609
-0.026591284 -0.0051764827 -0.26309624
-0.026587982 -0.0050984323 -0.26310039
-0.026584581 -0.005020339 -0.26310652
-0.026581375 -0.0049423315 -0.2631087
-0.026578678 -0.0048625879 -0.26309884
-0.026575787 -0.0047827549 -0.26309294
-0.026573578 -0.0047032274 -0.26307309
-0.026570804 -0.0046214871 -0.26306313
-0.026566973 -0.0045471266 -0.26308137
-0.026563592 -0.0044670776 -0.26308548
-0.026561091 -0.0043874215 -0.2630716
