# .PCD v0.7 - Point Cloud Data file format
VERSION 0.7
FIELDS x y z
SIZE 4 4 4
TYPE F F F
COUNT 1 1 1
WIDTH 1270
HEIGHT 1
VIEWPOINT 0 0 0 1 0 0 0
POINTS 1270
DATA ascii
-0.019343475 -0.062533513 -0.24222584
-0.019340733 -0.062467497 -0.24222828
-0.019338109 -0.062399566 -0.24222668
-0.019335583 -0.06233168 -0.24222305
-0.019333154 -0.062263839 -0.24221747
-0.019330315 -0.062197775 -0.24222189
-0.019327398 -0.062129714 -0.24222629
-0.019324774 -0.062061783 -0.24222468
-0.019321935 -0.061995719 -0.2422291
-0.019319115 -0.061927702 -0.24223149
-0.019316785 -0.061859902 -0.24222389
-0.019314356 -0.061792061 -0.2422183
-0.019312024 -0.06172426 -0.2422107
-0.019309478 -0.061658327 -0.24220914
-0.019306464 -0.061590225 -0.24221551
-0.019303646 -0.061522204 -0.2422179
-0.019301293 -0.06145636 -0.24221236
-0.019298963 -0.06138856 -0.24220476
-0.019296631 -0.061320759 -0.24219716
-0.019294398 -0.061253004 -0.24218756
-0.019291872 -0.061185118 -0.24218395
-0.019288935 -0.061119009 -0.24219039
-0.019285824 -0.061050862 -0.24219877
-0.019282788 -0.060984712 -0.2422072
-0.01927997 -0.060916696 -0.24220957
-0.019277249 -0.06084872 -0.24220997
-0.019274604 -0.060782745 -0.24221039
-0.019272273 -0.060714945 -0.2422028
-0.019270137 -0.060647234 -0.24219123
-0.019268196 -0.060579605 -0.24217562
-0.019265963 -0.06051185 -0.24216603
-0.019262753 -0.060443658 -0.24217641
-0.01925962 -0.060377467 -0.24218681
-0.019257095 -0.060309578 -0.24218324
-0.019254861 -0.060241822 -0.24217363
-0.01925212 -0.060175803 -0.24217606
-0.019249203 -0.060107742 -0.24218044
-0.019246385 -0.060039725 -0.24218282
-0.019243643 -0.059973706 -0.24218526
-0.019241311 -0.059905905 -0.24217767
-0.019239174 -0.059838191 -0.24216607
-0.019236648 -0.059770305 -0.24216247
-0.019233733 -0.059702247 -0.24216685
-0.019230893 -0.059636183 -0.24217129
-0.019228172 -0.059568208 -0.24217167
-0.019225547 -0.059500277 -0.24217007
-0.019222805 -0.059434257 -0.24217251
-0.01922028 -0.059366371 -0.2421689
-0.019218242 -0.059298702 -0.24215531
-0.01921591 -0.059230901 -0.24214771
-0.019212972 -0.059164796 -0.24215415
-0.019209959 -0.059096694 -0.24216053
-0.019206848 -0.059028544 -0.2421689
-0.019204399 -0.058962654 -0.24216536
-0.019202165 -0.058894899 -0.24215575
-0.019199638 -0.058827013 -0.24215215
-0.019196916 -0.058759037 -0.24215254
-0.019194294 -0.058691107 -0.24215093
-0.019191746 -0.058625177 -0.24214937
-0.019188635 -0.058557026 -0.24215774
-0.019185795 -0.058490966 -0.24216218
-0.019182781 -0.05842286 -0.24216856
-0.019179864 -0.058354799 -0.24217296
-0.019177414 -0.058288909 -0.24216938
-0.019174792 -0.058220979 -0.24216777
-0.019172557 -0.058153223 -0.2421582
-0.019170813 -0.058085684 -0.24213861
-0.019168872 -0.058018059 -0.24212302
-0.019166423 -0.057952169 -0.24211946
-0.019163311 -0.057884023 -0.24212784
-0.019160101 -0.057815831 -0.24213822
-0.019156775 -0.057749551 -0.24215263
-0.019153761 -0.057681445 -0.24215901
-0.019151624 -0.057613734 -0.24214742
-0.019150347 -0.057548366 -0.24211991
-0.019148698 -0.057480872 -0.24209833
-0.019145684 -0.057412766 -0.24210471
-0.019142572 -0.057344619 -0.24211308
-0.01913983 -0.0572786 -0.24211553
-0.019137012 -0.057210583 -0.24211791
-0.019133803 -0.057142392 -0.24212828
-0.019131158 -0.057076413 -0.24212871
-0.019129217 -0.057008788 -0.24211314
-0.019126592 -0.056940857 -0.24211153
-0.019123461 -0.056874666 -0.24212195
-0.01912074 -0.056806691 -0.24212234
-0.019117726 -0.056738589 -0.24212871
-0.019114517 -0.056670398 -0.2421391
-0.019112261 -0.056604594 -0.24213155
-0.019110126 -0.056536879 -0.24211997
-0.01910721 -0.056468822 -0.24212433
-0.019104097 -0.056400672 -0.24213271
-0.019101746 -0.056334827 -0.24212715
-0.019099025 -0.056266852 -0.24212755
-0.019096207 -0.056198835 -0.24212994
-0.019093679 -0.056130949 -0.24212633
-0.019090645 -0.056064799 -0.24213476
-0.019087728 -0.055996738 -0.24213913
-0.019085398 -0.055928938 -0.24213155
-0.019083045 -0.055863094 -0.24212599
-0.01908052 -0.055795208 -0.24212238
-0.019077994 -0.055727318 -0.24211878
-0.019074881 -0.055659171 -0.24212717
-0.019071652 -0.055592936 -0.24213958
-0.01906893 -0.05552496 -0.24213997
-0.019066405 -0.055457074 -0.24213636
-0.019064073 -0.055389274 -0.24212876
-0.019061623 -0.055323385 -0.24212521
-0.019058708 -0.055255324 -0.24212959
-0.019055888 -0.055187307 -0.24213198
-0.019053459 -0.055119462 -0.24212638
-0.019051109 -0.055053618 -0.24212083
-0.019048387 -0.054985646 -0.24212122
-0.019045763 -0.054917715 -0.24211961
-0.019043021 -0.054851696 -0.24212205
-0.019039715 -0.05478346 -0.24213442
-0.019036602 -0.054715313 -0.2421428
-0.019034173 -0.054647468 -0.24213719
-0.019032016 -0.054581709 -0.24212764
-0.019029882 -0.054513998 -0.24211606
-0.019031433 -0.05444989 -0.24203062
-0.019557629 -0.066161409 -0.24072218
-0.01955598 -0.066093914 -0.24070062
-0.019552262 -0.066027462 -0.24072301
-0.019546142 -0.065965831 -0.24079949
-0.019536467 -0.06590654 -0.24095196
-0.019525699 -0.065848723 -0.24112841
-0.019505907 -0.065800637 -0.24150094
-0.019497737 -0.065738082 -0.24161935
-0.019494604 -0.065671891 -0.24162978
-0.019491961 -0.065605916 -0.2416302
-0.019488947 -0.06553781 -0.24163659
-0.019485718 -0.065471575 -0.241649
-0.019481804 -0.065405034 -0.24167541
-0.019477287 -0.065340184 -0.24171585
-0.019471869 -0.065276906 -0.24177629
-0.019461121 -0.065217137 -0.24195071
-0.019447306 -0.065159924 -0.24219114
-0.019441325 -0.065094426 -0.24226153
-0.019438095 -0.065028191 -0.24227393
-0.019435158 -0.064962082 -0.24228036
-0.019432632 -0.064894199 -0.24227676
-0.019430498 -0.064826481 -0.24226516
-0.019428264 -0.064758725 -0.24225558
-0.019426323 -0.064691104 -0.24223998
-0.019424306 -0.064621478 -0.24222437
-0.01942217 -0.064553767 -0.24221277
-0.019419743 -0.064485922 -0.24220717
-0.019417705 -0.064418249 -0.24219358
-0.019415569 -0.064350538 -0.24218199
-0.019413726 -0.064282954 -0.2421644
-0.019411689 -0.064215288 -0.24215081
-0.019408774 -0.064147227 -0.24215519
-0.019406345 -0.064079382 -0.24214959
-0.019408055 -0.064009458 -0.24205601
-0.019410666 -0.06393797 -0.24194244
-0.019408725 -0.063870341 -0.24192685
-0.019406784 -0.063802712 -0.24191126
-0.01940633 -0.063733786 -0.24186367
-0.019404974 -0.063666418 -0.2418361
-0.019402253 -0.063598447 -0.24183649
-0.019398829 -0.063532121 -0.24185289
-0.019394506 -0.063467361 -0.24188933
-0.019390104 -0.063400604 -0.24192572
-0.01938629 -0.063334107 -0.24195012
-0.019376267 -0.063270733 -0.24210647
-0.019368408 -0.06320636 -0.24221686
-0.019364301 -0.063139737 -0.24224725
-0.019361462 -0.063073672 -0.24225169
-0.019359229 -0.063005917 -0.24224208
-0.0193568 -0.062938072 -0.24223648
-0.019353885 -0.062870011 -0.24224088
-0.019351339 -0.062804081 -0.2422393
-0.019348715 -0.062736146 -0.2422377
-0.019345995 -0.062668175 -0.2422381
-0.019343663 -0.062600374 -0.2422305
-0.019341234 -0.062532529 -0.2422249
-0.019338494 -0.06246651 -0.24222733
-0.019335676 -0.062398493 -0.24222971
-0.019333247 -0.062330648 -0.24222413
-0.019330818 -0.062262807 -0.24221851
-0.01932798 -0.062196743 -0.24222293
-0.019325063 -0.062128685 -0.24222732
-0.019322343 -0.06206071 -0.24222773
-0.019319601 -0.06199469 -0.24223015
-0.019316783 -0.061926674 -0.24223253
-0.019314256 -0.061858784 -0.24222894
-0.019311925 -0.061790984 -0.24222134
-0.019309595 -0.061723188 -0.24221373
-0.019307049 -0.061657254 -0.24221218
-0.019304132 -0.061589193 -0.24221656
-0.019301314 -0.061521176 -0.24221896
-0.019298866 -0.061455287 -0.24221539
-0.019296534 -0.061387487 -0.2422078
-0.019294301 -0.061319731 -0.2421982
-0.01929207 -0.061251972 -0.2421886
-0.019289542 -0.061184086 -0.242185
-0.019286606 -0.061117981 -0.24219143
-0.019283496 -0.061049834 -0.24219981
-0.019280558 -0.060983725 -0.24220625
-0.019277642 -0.060915664 -0.24221063
-0.01927492 -0.060847692 -0.24221101
-0.01927218 -0.060781673 -0.24221344
-0.019269848 -0.060713872 -0.24220586
-0.019267811 -0.060646202 -0.24219225
-0.019265968 -0.060578618 -0.24217467
-0.019263735 -0.060510863 -0.24216509
-0.019260429 -0.06044263 -0.24217746
-0.019257199 -0.060376391 -0.24218987
-0.019254772 -0.06030855 -0.24218427
-0.019252539 -0.060240794 -0.24217469
-0.019249797 -0.060174774 -0.2421771
-0.019246783 -0.060106669 -0.24218348
-0.019244062 -0.060038693 -0.24218389
-0.01924132 -0.059972674 -0.24218631
-0.019238893 -0.059904832 -0.24218071
-0.019236853 -0.059837162 -0.24216712
-0.019234328 -0.059769277 -0.24216352
-0.019231413 -0.059701215 -0.2421679
-0.019228574 -0.059635151 -0.24217233
-0.019225754 -0.059567135 -0.24217471
-0.019223228 -0.059499249 -0.24217112
-0.019220488 -0.059433229 -0.24217355
-0.019217864 -0.059365299 -0.24217194
-0.019215826 -0.059297629 -0.24215835
-0.019213496 -0.059229828 -0.24215075
-0.019210655 -0.059163764 -0.24215519
-0.019207545 -0.059095617 -0.24216357
-0.019204531 -0.059027515 -0.24216995
-0.019202083 -0.058961626 -0.24216639
-0.01919985 -0.058893867 -0.2421568
-0.019197226 -0.058825936 -0.24215519
-0.019194506 -0.058757965 -0.24215558
-0.019192057 -0.058692075 -0.24215204
-0.019189432 -0.058624145 -0.24215043
-0.019186322 -0.058555998 -0.2421588
-0.019183384 -0.058489889 -0.24216524
-0.01918037 -0.058421787 -0.2421716
-0.019177552 -0.058353771 -0.242174
-0.019175103 -0.058287881 -0.24217044
-0.01917248 -0.058219951 -0.24216884
-0.019170344 -0.058152236 -0.24215725
-0.019168502 -0.058084656 -0.24213965
-0.019166563 -0.058017027 -0.24212407
-0.019164113 -0.057951137 -0.2421205
-0.019161001 -0.057882991 -0.24212888
-0.019157695 -0.057814758 -0.24214126
-0.019154467 -0.057748519 -0.24215367
-0.019151453 -0.057680417 -0.24216007
-0.01914922 -0.057612658 -0.24215046
-0.019147942 -0.057547294 -0.24212295
-0.019146293 -0.057479795 -0.24210137
-0.01914328 -0.057411693 -0.24210775
-0.019140169 -0.057343543 -0.24211612
-0.019137427 -0.057277523 -0.24211857
-0.019134609 -0.057209507 -0.24212095
-0.019131595 -0.057141405 -0.24212733
-0.01912895 -0.057075426 -0.24212778
-0.019126816 -0.057007715 -0.24211617
-0.01912429 -0.056939829 -0.24211258
-0.019121159 -0.056873634 -0.24212299
-0.019118339 -0.056805618 -0.24212539
-0.019115424 -0.056737557 -0.24212976
-0.019112214 -0.056669366 -0.24214014
-0.019109961 -0.056603562 -0.24213257
-0.019107826 -0.056535851 -0.242121
-0.019104909 -0.05646779 -0.24212538
-0.019101799 -0.05639964 -0.24213375
-0.019099349 -0.056333754 -0.24213019
-0.019096725 -0.056265824 -0.24212858
-0.019093907 -0.056197803 -0.24213099
-0.019091284 -0.056129873 -0.24212939
-0.019088347 -0.056063768 -0.24213581
-0.019085431 -0.055995706 -0.24214019
-0.019083099 -0.055927906 -0.24213259
-0.019080749 -0.055862062 -0.24212703
-0.019078223 -0.055794176 -0.24212343
-0.0190756 -0.055726245 -0.24212182
-0.019072488 -0.055658098 -0.24213019
-0.019069357 -0.055591904 -0.24214062
-0.019066636 -0.055523928 -0.24214102
-0.019064013 -0.055455998 -0.24213941
-0.019061681 -0.055388201 -0.2421318
-0.019059233 -0.055322312 -0.24212825
-0.019056316 -0.055254251 -0.24213263
-0.019053595 -0.055186275 -0.24213304
-0.019051168 -0.055118434 -0.24212742
-0.019048816 -0.055052586 -0.24212188
-0.019046096 -0.054984614 -0.24212226
-0.019043472 -0.054916684 -0.24212065
-0.01904073 -0.054850664 -0.2421231
-0.019037424 -0.054782428 -0.24213547
-0.01903441 -0.054714326 -0.24214184
-0.019031884 -0.054646436 -0.24213824
-0.019029729 -0.054580677 -0.2421287
-0.019027496 -0.054512922 -0.2421191
-0.019029146 -0.054448858 -0.24203166
-0.019558791 -0.066165186 -0.24072409
-0.019557044 -0.066097647 -0.24070451
-0.019553326 -0.066031195 -0.24072692
-0.019547109 -0.065969519 -0.24080539
-0.019537335 -0.065910183 -0.24095984
-0.019526565 -0.065852374 -0.24113631
-0.01950687 -0.065804325 -0.24150684
-0.019498894 -0.065741867 -0.24162124
-0.019495763 -0.065675668 -0.24163167
-0.019493021 -0.065609649 -0.2416341
-0.019490104 -0.065541588 -0.24163848
-0.019486874 -0.065475352 -0.24165091
-0.019482864 -0.065408766 -0.24167931
-0.019478345 -0.065343924 -0.24171974
-0.019472733 -0.065280549 -0.24178419
-0.019461984 -0.065220781 -0.24195859
-0.019448265 -0.06516362 -0.24219704
-0.019442381 -0.065098159 -0.24226542
-0.019439152 -0.065031923 -0.24227783
-0.019436311 -0.064965859 -0.24228227
-0.019433785 -0.064897977 -0.24227867
-0.019431651 -0.064830258 -0.24226707
-0.019429417 -0.064762503 -0.24225748
-0.019427476 -0.064694881 -0.24224189
-0.019425556 -0.0646253 -0.24222425
-0.019423323 -0.064557545 -0.24221466
-0.019420993 -0.064489745 -0.24220705
-0.019418759 -0.064421989 -0.24219747
-0.019416623 -0.064354271 -0.24218588
-0.019414781 -0.064286694 -0.24216829
-0.019412743 -0.06421902 -0.24215469
-0.019409925 -0.064151004 -0.24215709
-0.019407496 -0.064083159 -0.24215148
-0.019409403 -0.064013317 -0.24205391
-0.019411817 -0.063941747 -0.24194433
-0.019409779 -0.063874073 -0.24193072
-0.019407935 -0.063806489 -0.24191315
-0.019407481 -0.063737564 -0.24186556
-0.019406224 -0.06367024 -0.24183601
-0.019403404 -0.063602224 -0.2418384
-0.019399881 -0.063535854 -0.2418568
-0.019395558 -0.063471094 -0.24189323
-0.019391159 -0.063404337 -0.24192962
-0.019387441 -0.063337885 -0.24195203
-0.01937722 -0.063274428 -0.24211237
-0.019369461 -0.0632101 -0.24222076
-0.019365352 -0.063143469 -0.24225116
-0.01936261 -0.06307745 -0.24225357
-0.019360377 -0.063009694 -0.24224398
-0.019357949 -0.062941849 -0.24223837
-0.019355033 -0.062873788 -0.24224275
-0.019352388 -0.062807813 -0.2422432
-0.019349862 -0.062739924 -0.24223959
-0.019347141 -0.062671952 -0.24223998
-0.01934481 -0.062604152 -0.2422324
-0.019342285 -0.062536262 -0.24222878
-0.01933964 -0.062470287 -0.24222922
-0.019336822 -0.062402271 -0.24223161
-0.019334393 -0.062334429 -0.242226
-0.019332042 -0.062268585 -0.24222046
-0.019329028 -0.062200479 -0.24222684
-0.01932621 -0.062132463 -0.24222922
-0.019323487 -0.062064487 -0.24222961
-0.019320648 -0.061998427 -0.24223405
-0.019317929 -0.061930452 -0.24223444
-0.019315401 -0.061862566 -0.24223083
-0.019313071 -0.061794765 -0.24222323
-0.019310741 -0.061726965 -0.24221563
-0.019308195 -0.061661031 -0.24221407
-0.019305179 -0.061592929 -0.24222046
-0.019302361 -0.061524909 -0.24222285
-0.01930001 -0.061459064 -0.2422173
-0.019297678 -0.061391264 -0.2422097
-0.019295447 -0.061323509 -0.24220009
-0.019293115 -0.061255708 -0.24219251
-0.019290686 -0.061187863 -0.2421869
-0.01928775 -0.061121758 -0.24219333
-0.019284541 -0.061053567 -0.2422037
-0.019281603 -0.060987461 -0.24221012
-0.019278686 -0.0609194 -0.24221452
-0.019275965 -0.060851425 -0.2422149
-0.019273322 -0.06078545 -0.24221534
-0.01927099 -0.06071765 -0.24220774
-0.019268952 -0.06064998 -0.24219415
-0.019267013 -0.060582355 -0.24217856
-0.01926478 -0.060514599 -0.24216896
-0.01926155 -0.060448363 -0.24218139
-0.019258341 -0.060380172 -0.24219176
-0.019255815 -0.060312282 -0.24218816
-0.019253582 -0.060244527 -0.24217856
-0.01925084 -0.060178507 -0.242181
-0.019247826 -0.060110405 -0.24218738
-0.019245105 -0.06004243 -0.24218777
-0.019242462 -0.059976455 -0.2421882
-0.019240033 -0.05990861 -0.24218261
-0.019237896 -0.059840899 -0.24217102
-0.019235468 -0.059773054 -0.24216542
-0.019232552 -0.059704993 -0.2421698
-0.019229712 -0.059638932 -0.24217424
-0.019226894 -0.059570912 -0.24217662
-0.019224269 -0.059502982 -0.24217501
-0.019221529 -0.059436962 -0.24217746
-0.019219004 -0.059369076 -0.24217384
-0.019216964 -0.059301406 -0.24216026
-0.019214634 -0.059233606 -0.24215266
-0.019211795 -0.059167545 -0.24215709
-0.019208683 -0.059099399 -0.24216546
-0.019205572 -0.059031248 -0.24217385
-0.019203123 -0.058965359 -0.24217027
-0.019200889 -0.058897603 -0.24216069
-0.019198364 -0.058829717 -0.24215709
-0.019195642 -0.058761742 -0.24215747
-0.019193193 -0.058695853 -0.24215391
-0.019190472 -0.058627881 -0.2421543
-0.019187458 -0.058559775 -0.24216069
-0.01918452 -0.05849367 -0.24216712
-0.019181507 -0.058425564 -0.24217349
-0.019178592 -0.058357503 -0.24217789
-0.019176239 -0.058291659 -0.24217233
-0.019173617 -0.058223728 -0.24217072
-0.019171383 -0.058155973 -0.24216112
-0.019169638 -0.058088433 -0.24214154
-0.0191676 -0.058020763 -0.24212795
-0.019165151 -0.057954874 -0.24212439
-0.01916204 -0.057886727 -0.24213278
-0.019158732 -0.057818491 -0.24214515
-0.019155502 -0.057752255 -0.24215758
-0.019152585 -0.057684194 -0.24216196
-0.019150354 -0.057616439 -0.24215236
-0.019149076 -0.057551071 -0.24212484
-0.019147331 -0.057483532 -0.24210525
-0.019144414 -0.05741547 -0.24210964
-0.019141302 -0.057347324 -0.24211803
-0.01913856 -0.057281304 -0.24212044
-0.019135742 -0.057213288 -0.24212283
-0.019132631 -0.057145137 -0.24213122
-0.019129986 -0.057079162 -0.24213165
-0.019127948 -0.057011493 -0.24211806
-0.019125326 -0.056943562 -0.24211645
-0.019122289 -0.056877412 -0.24212489
-0.019119471 -0.056809396 -0.24212727
-0.019116458 -0.056741294 -0.24213365
-0.019113248 -0.056673102 -0.24214403
-0.019110994 -0.056607299 -0.24213648
-0.019108957 -0.056539629 -0.24212289
-0.01910604 -0.056471568 -0.24212727
-0.019102929 -0.056403421 -0.24213564
-0.01910048 -0.056337532 -0.2421321
-0.019097857 -0.056269601 -0.24213049
-0.019095037 -0.056201585 -0.24213287
-0.019092415 -0.056133654 -0.24213126
-0.019089378 -0.056067504 -0.2421397
-0.019086463 -0.055999443 -0.24214408
-0.019084133 -0.055931643 -0.24213648
-0.019081781 -0.055865798 -0.24213094
-0.019079354 -0.055797953 -0.24212532
-0.019076729 -0.055730022 -0.24212371
-0.019073617 -0.055661876 -0.2421321
-0.019070486 -0.055595685 -0.24214251
-0.019067764 -0.055527709 -0.24214292
-0.01906514 -0.055459779 -0.24214131
-0.019062713 -0.055391934 -0.2421357
-0.01906036 -0.055326089 -0.24213015
-0.019057445 -0.055258028 -0.24213453
-0.019054724 -0.055190057 -0.24213493
-0.019052295 -0.055122212 -0.24212933
-0.019049944 -0.055056367 -0.24212377
-0.019047223 -0.054988392 -0.24212416
-0.019044599 -0.054920461 -0.24212255
-0.01904176 -0.0548544 -0.24212699
-0.019038454 -0.054786164 -0.24213935
-0.01903544 -0.054718062 -0.24214573
-0.019033011 -0.054650217 -0.24214013
-0.019030757 -0.054584414 -0.24213257
-0.019028524 -0.054516658 -0.24212298
-0.019030174 -0.054452594 -0.24203555
-0.019558124 -0.066164732 -0.24072187
-0.019556478 -0.066097237 -0.24070029
-0.01955276 -0.066030778 -0.2407227
-0.019546639 -0.065969147 -0.24079916
-0.019536866 -0.06590981 -0.24095362
-0.019525999 -0.065851957 -0.24113208
-0.0195064 -0.065803953 -0.24150062
-0.019498328 -0.06574145 -0.24161702
-0.019495197 -0.065675251 -0.24162745
-0.019492356 -0.065609187 -0.24163187
-0.019489441 -0.065541133 -0.24163628
-0.019486211 -0.065474898 -0.24164867
-0.019482298 -0.065408349 -0.24167508
-0.019477682 -0.065343462 -0.24171752
-0.019472264 -0.065280177 -0.24177796
-0.019461516 -0.065220408 -0.24195239
-0.019447701 -0.065163203 -0.2421928
-0.019441815 -0.065097742 -0.2422612
-0.019438585 -0.065031506 -0.24227361
-0.019435747 -0.064965442 -0.24227804
-0.019433221 -0.06489756 -0.24227443
-0.019430988 -0.064829804 -0.24226484
-0.019428775 -0.064760089 -0.24225321
-0.019426737 -0.064692423 -0.24223961
-0.019424895 -0.064624839 -0.24222204
-0.019422758 -0.064557128 -0.24221045
-0.019420428 -0.064489327 -0.24220285
-0.019418195 -0.064421572 -0.24219325
-0.019416058 -0.064353853 -0.24218166
-0.019414216 -0.064286277 -0.24216408
-0.01941208 -0.064218558 -0.24215248
-0.019409262 -0.064150542 -0.24215487
-0.019406833 -0.064082697 -0.24214926
-0.019408643 -0.064012818 -0.24205369
-0.019411156 -0.063941285 -0.24194211
-0.019409116 -0.063873619 -0.24192852
-0.019407274 -0.063806035 -0.24191093
-0.019406917 -0.063737147 -0.24186134
-0.019405562 -0.063669786 -0.24183378
-0.019402742 -0.063601762 -0.24183616
-0.01939922 -0.0635354 -0.24185456
-0.019394897 -0.063470639 -0.241891
-0.019390594 -0.063403919 -0.24192539
-0.01938678 -0.063337423 -0.2419498
-0.019376753 -0.063274048 -0.24210615
-0.019368896 -0.063209683 -0.24221653
-0.019364789 -0.063143052 -0.24224693
-0.01936195 -0.063076988 -0.24225135
-0.019359715 -0.063009232 -0.24224176
-0.019357288 -0.062941387 -0.24223615
-0.019354371 -0.062873326 -0.24224055
-0.019351825 -0.062807396 -0.24223897
-0.019349203 -0.062739462 -0.24223737
-0.019346481 -0.06267149 -0.24223776
-0.019344149 -0.06260369 -0.24223016
-0.019341623 -0.062535807 -0.24222657
-0.019338882 -0.062469784 -0.24222898
-0.01933616 -0.062401813 -0.24222939
-0.019333733 -0.062333968 -0.24222378
-0.019331304 -0.062266126 -0.24221818
-0.019328466 -0.062200062 -0.24222261
-0.019325549 -0.062132001 -0.24222699
-0.019322924 -0.06206407 -0.24222538
-0.019320086 -0.06199801 -0.24222982
-0.019317267 -0.06192999 -0.2422322
-0.019314839 -0.061862148 -0.2422266
-0.019312412 -0.061794303 -0.242221
-0.01931008 -0.061726503 -0.2422134
-0.019307632 -0.061660614 -0.24220985
-0.019304618 -0.061592512 -0.24221623
-0.019301798 -0.061524495 -0.24221861
-0.019299351 -0.061458603 -0.24221507
-0.019297019 -0.061390806 -0.24220747
-0.019294785 -0.061323047 -0.24219787
-0.019292552 -0.061255291 -0.24218827
-0.019290026 -0.061187405 -0.24218467
-0.019287091 -0.0611213 -0.24219111
-0.019283978 -0.061053149 -0.24219948
-0.019280944 -0.060986999 -0.24220791
-0.019278126 -0.060918983 -0.24221028
-0.019275405 -0.060851008 -0.24221069
-0.019272663 -0.060784988 -0.24221312
-0.019270333 -0.060717192 -0.2422055
-0.019268293 -0.060649522 -0.24219193
-0.019266354 -0.060581893 -0.24217634
-0.019264121 -0.060514137 -0.24216674
-0.019260911 -0.060445946 -0.24217713
-0.01925778 -0.060379755 -0.24218753
-0.019255254 -0.060311869 -0.24218394
-0.019253021 -0.060244109 -0.24217434
-0.019250279 -0.06017809 -0.24217677
-0.019247362 -0.060110029 -0.24218115
-0.019244544 -0.060042012 -0.24218354
-0.019241802 -0.059975993 -0.24218598
-0.019239374 -0.059908152 -0.24218038
-0.019237239 -0.059840437 -0.24216878
-0.01923481 -0.059772592 -0.24216318
-0.019231893 -0.059704535 -0.24216756
-0.019229054 -0.05963847 -0.242172
-0.019226333 -0.059570499 -0.24217239
-0.019223711 -0.059502564 -0.24217078
-0.019220969 -0.059436549 -0.24217322
-0.019218344 -0.059368618 -0.24217162
-0.019216307 -0.059300948 -0.24215803
-0.019213976 -0.059233148 -0.24215043
-0.019211136 -0.059167083 -0.24215485
-0.019208025 -0.059098937 -0.24216324
-0.019205011 -0.059030831 -0.24216962
-0.019202465 -0.058964901 -0.24216805
-0.019200329 -0.058897186 -0.24215646
-0.019197803 -0.0588293 -0.24215287
-0.019194985 -0.058761284 -0.24215525
-0.019192535 -0.058695395 -0.24215168
-0.019189913 -0.058627464 -0.24215007
-0.0191868 -0.058559317 -0.24215846
-0.019183865 -0.058493208 -0.24216488
-0.019180849 -0.058425106 -0.24217127
-0.019178031 -0.058357086 -0.24217366
-0.019175583 -0.058291197 -0.2421701
-0.019172959 -0.05822327 -0.24216849
-0.019170726 -0.058155511 -0.24215889
-0.01916898 -0.058087971 -0.24213932
-0.01916704 -0.058020346 -0.24212372
-0.019164592 -0.057954457 -0.24212018
-0.01916148 -0.05788631 -0.24212855
-0.019158173 -0.057818074 -0.24214092
-0.019154944 -0.057751838 -0.24215335
-0.01915193 -0.057683732 -0.24215972
-0.019149795 -0.057616021 -0.24214813
-0.019148517 -0.057550654 -0.24212061
-0.019146772 -0.057483114 -0.24210101
-0.019143855 -0.057415053 -0.24210542
-0.019140743 -0.057346907 -0.2421138
-0.019138003 -0.057280887 -0.24211624
-0.019135086 -0.057212826 -0.24212061
-0.019131973 -0.057144679 -0.24212898
-0.019129233 -0.05707866 -0.24213143
-0.019127293 -0.057011034 -0.24211583
-0.019124767 -0.056943145 -0.24211223
-0.019121634 -0.056876954 -0.24212265
-0.019118913 -0.056808978 -0.24212304
-0.019115899 -0.056740876 -0.24212943
-0.019112691 -0.056672685 -0.2421398
-0.019110437 -0.056606881 -0.24213225
-0.019108301 -0.05653917 -0.24212065
-0.019105384 -0.056471109 -0.24212503
-0.019102274 -0.056402959 -0.24213341
-0.019099824 -0.05633707 -0.24212986
-0.019097202 -0.056269139 -0.24212825
-0.019094383 -0.056201123 -0.24213064
-0.019091856 -0.056133237 -0.24212703
-0.019088821 -0.056067087 -0.24213547
-0.019085906 -0.055999026 -0.24213985
-0.019083574 -0.055931225 -0.24213225
-0.019081224 -0.055865381 -0.2421267
-0.019078698 -0.055797495 -0.2421231
-0.019076172 -0.055729605 -0.24211949
-0.01907306 -0.055661459 -0.24212787
-0.019069832 -0.055595223 -0.24214029
-0.01906711 -0.055527247 -0.24214068
-0.019064486 -0.055459317 -0.24213907
-0.019062156 -0.055391517 -0.24213147
-0.019059803 -0.055325672 -0.24212593
-0.019056888 -0.055257611 -0.24213031
-0.01905407 -0.055189595 -0.24213269
-0.019051641 -0.05512175 -0.24212709
-0.019049291 -0.055055905 -0.24212152
-0.019046567 -0.054987933 -0.24212193
-0.019043945 -0.054920003 -0.24212033
-0.019041106 -0.054853939 -0.24212475
-0.0190378 -0.054785702 -0.24213712
-0.019034784 -0.0547176 -0.24214351
-0.019032357 -0.054649755 -0.24213791
-0.0190302 -0.054583997 -0.24212834
-0.019028066 -0.054516286 -0.24211676
-0.019029716 -0.054452222 -0.24202931
-0.019557219 -0.066162989 -0.24072352
-0.019555572 -0.066095494 -0.24070193
-0.019551951 -0.066029079 -0.24072234
-0.019545734 -0.065967403 -0.24080081
-0.019536059 -0.065908112 -0.24095327
-0.019525193 -0.065850258 -0.24113174
-0.019505594 -0.065802254 -0.24150026
-0.019497424 -0.065739706 -0.24161868
-0.019494293 -0.065673515 -0.24162909
-0.019491551 -0.065607496 -0.24163154
-0.019488538 -0.06553939 -0.24163792
-0.019485407 -0.065473199 -0.24164835
-0.019481394 -0.065406613 -0.24167672
-0.019476878 -0.065341763 -0.24171716
-0.019471459 -0.065278478 -0.2417776
-0.019460613 -0.065218665 -0.24195403
-0.019446896 -0.065161504 -0.24219245
-0.019441012 -0.065096043 -0.24226084
-0.019437686 -0.06502977 -0.24227527
-0.019434845 -0.064963706 -0.24227969
-0.019432319 -0.064895816 -0.24227609
-0.019430086 -0.064828061 -0.24226649
-0.019427951 -0.064760342 -0.24225488
-0.019425914 -0.064692676 -0.24224132
-0.019423993 -0.064623095 -0.24222368
-0.01942176 -0.06455534 -0.24221408
-0.01941943 -0.064487539 -0.24220648
-0.019417293 -0.064419828 -0.24219489
-0.019415159 -0.06435211 -0.2421833
-0.019413317 -0.064284533 -0.24216571
-0.019411277 -0.06421686 -0.24215212
-0.019408459 -0.064148843 -0.24215451
-0.019405933 -0.064080954 -0.2421509
-0.019407742 -0.064011075 -0.24205534
-0.019410254 -0.063939542 -0.24194375
-0.019408314 -0.06387192 -0.24192816
-0.019406375 -0.063804291 -0.24191257
-0.019406015 -0.063735403 -0.24186298
-0.019404661 -0.063668042 -0.24183542
-0.01940194 -0.063600063 -0.2418358
-0.019398417 -0.063533701 -0.24185422
-0.019394094 -0.063468941 -0.24189065
-0.019389693 -0.063402183 -0.24192703
-0.019385878 -0.063335679 -0.24195144
-0.019375952 -0.06327235 -0.24210581
-0.019368093 -0.063207984 -0.24221617
-0.019363889 -0.063141309 -0.24224856
-0.019361148 -0.063075289 -0.24225101
-0.019358817 -0.063007489 -0.24224341
-0.019356389 -0.062939644 -0.24223781
-0.01935357 -0.062871628 -0.24224019
-0.019350927 -0.062805653 -0.24224062
-0.019348303 -0.062737726 -0.24223901
-0.019345582 -0.062669747 -0.24223942
-0.019343249 -0.062601946 -0.24223182
-0.019340822 -0.062534109 -0.24222621
-0.019338081 -0.062468085 -0.24222864
-0.019335359 -0.062400114 -0.24222904
-0.019332834 -0.062332228 -0.24222544
-0.019330405 -0.062264383 -0.24221984
-0.019327566 -0.062198319 -0.24222426
-0.019324651 -0.062130257 -0.24222864
-0.019322027 -0.062062331 -0.24222705
-0.019319188 -0.061996266 -0.24223146
-0.01931637 -0.06192825 -0.24223386
-0.019313941 -0.061860405 -0.24222825
-0.019311512 -0.06179256 -0.24222265
-0.019309182 -0.06172476 -0.24221504
-0.019306732 -0.061658874 -0.24221149
-0.019303719 -0.061590768 -0.24221787
-0.0193009 -0.061522752 -0.24222027
-0.01929855 -0.061456904 -0.24221471
-0.019296121 -0.061389063 -0.24220911
-0.019293986 -0.061321348 -0.24219751
-0.019291654 -0.061253548 -0.24218991
-0.019289227 -0.061185706 -0.24218431
-0.01928629 -0.061119601 -0.24219075
-0.01928308 -0.06105141 -0.24220112
-0.019280143 -0.060985301 -0.24220756
-0.019277228 -0.060917243 -0.24221194
-0.019274507 -0.060849268 -0.24221233
-0.019271765 -0.060783248 -0.24221475
-0.019269533 -0.060715493 -0.24220517
-0.019267397 -0.060647778 -0.24219358
-0.019265553 -0.060580198 -0.242176
-0.01926332 -0.060512438 -0.2421664
-0.019260112 -0.060444247 -0.24217677
-0.019256882 -0.060378011 -0.24218918
-0.019254357 -0.060310125 -0.24218559
-0.019252123 -0.06024237 -0.242176
-0.019249381 -0.06017635 -0.24217841
-0.019246466 -0.060108289 -0.24218281
-0.019243646 -0.060040273 -0.24218519
-0.019240905 -0.059974253 -0.24218762
-0.019238478 -0.059906408 -0.24218202
-0.01923644 -0.059838738 -0.24216844
-0.019233912 -0.059770852 -0.24216484
-0.019231094 -0.059702836 -0.2421672
-0.019228159 -0.059636727 -0.24217364
-0.019225437 -0.059568755 -0.24217403
-0.019222813 -0.059500825 -0.24217242
-0.019220073 -0.059434805 -0.24217486
-0.019217448 -0.059366874 -0.24217325
-0.019215411 -0.059299204 -0.24215966
-0.01921308 -0.059231404 -0.24215207
-0.01921024 -0.059165344 -0.24215651
-0.019207129 -0.059097193 -0.24216488
-0.019204115 -0.059029091 -0.24217126
-0.019201666 -0.058963202 -0.24216771
-0.019199433 -0.058895446 -0.24215811
-0.019196907 -0.058827557 -0.24215451
-0.019194089 -0.05875954 -0.24215689
-0.019191639 -0.058693651 -0.24215333
-0.019189017 -0.05862572 -0.24215174
-0.019185904 -0.058557574 -0.24216011
-0.019183066 -0.058491509 -0.24216454
-0.019180052 -0.058423407 -0.24217093
-0.019177135 -0.058355346 -0.24217531
-0.019174688 -0.058289457 -0.24217175
-0.019172063 -0.058221526 -0.24217014
-0.019169929 -0.058153812 -0.24215855
-0.019168086 -0.058086231 -0.24214096
-0.019166145 -0.058018606 -0.24212538
-0.019163696 -0.057952717 -0.24212182
-0.019160585 -0.057884566 -0.24213019
-0.019157279 -0.057816334 -0.24214256
-0.019154049 -0.057750095 -0.24215499
-0.019151036 -0.057681993 -0.24216136
-0.019148899 -0.057614278 -0.24214977
-0.019147525 -0.057548869 -0.24212426
-0.019145876 -0.057481375 -0.24210268
-0.019142862 -0.057413269 -0.24210906
-0.019139849 -0.057345163 -0.24211544
-0.019137107 -0.057279143 -0.24211788
-0.019134192 -0.057211086 -0.24212226
-0.019131178 -0.05714298 -0.24212864
-0.019128533 -0.057077006 -0.24212909
-0.019126398 -0.057009291 -0.24211748
-0.019123873 -0.056941405 -0.24211387
-0.01912074 -0.05687521 -0.2421243
-0.019118018 -0.056807239 -0.24212468
-0.019115005 -0.056739133 -0.24213108
-0.019111894 -0.056670986 -0.24213946
-0.019109543 -0.056605138 -0.2421339
-0.019107407 -0.056537427 -0.24212231
-0.019104492 -0.056469366 -0.24212667
-0.019101379 -0.056401219 -0.24213505
-0.01909893 -0.05633533 -0.2421315
-0.019096404 -0.05626744 -0.2421279
-0.019093586 -0.056199424 -0.24213028
-0.019090964 -0.056131493 -0.24212867
-0.019087929 -0.056065343 -0.24213712
-0.019085012 -0.055997282 -0.24214149
-0.01908268 -0.055929482 -0.2421339
-0.01908033 -0.055863637 -0.24212834
-0.019077903 -0.055795796 -0.24212274
-0.019075278 -0.055727866 -0.24212113
-0.019072168 -0.055659719 -0.2421295
-0.019068938 -0.055593479 -0.24214193
-0.019066216 -0.055525508 -0.24214232
-0.019063691 -0.055457618 -0.24213871
-0.019061262 -0.055389777 -0.24213311
-0.019058911 -0.055323932 -0.24212757
-0.019055994 -0.055255871 -0.24213195
-0.019053176 -0.055187851 -0.24213433
-0.019050747 -0.05512001 -0.24212873
-0.019048396 -0.055054165 -0.24212319
-0.019045675 -0.05498619 -0.24212357
-0.019043053 -0.054918259 -0.24212196
-0.019040311 -0.05485224 -0.24212439
-0.019037005 -0.054784007 -0.24213678
-0.019033991 -0.054715902 -0.24214315
-0.019031562 -0.054648057 -0.24213755
-0.019029407 -0.054582298 -0.242128
-0.019027174 -0.054514542 -0.24211842
-0.019028725 -0.054450437 -0.24203296
-0.019558366 -0.06616424 -0.2407221
-0.019556524 -0.066096663 -0.24070454
-0.019552806 -0.066030204 -0.24072692
-0.019546587 -0.065968528 -0.24080539
-0.019536816 -0.065909192 -0.24095985
-0.019525949 -0.065851338 -0.24113831
-0.019506253 -0.065803289 -0.24150884
-0.019498374 -0.065740876 -0.24162126
-0.019495243 -0.065674677 -0.24163169
-0.019492501 -0.065608665 -0.24163412
-0.019489584 -0.065540604 -0.2416385
-0.019486355 -0.065474361 -0.24165092
-0.019482441 -0.065407827 -0.24167731
-0.019477826 -0.065342933 -0.24171975
-0.01947231 -0.065279603 -0.24178219
-0.019461269 -0.065219708 -0.24196261
-0.019447748 -0.065162629 -0.24219704
-0.01944196 -0.065097213 -0.24226344
-0.019438632 -0.065030932 -0.24227785
-0.019435793 -0.064964876 -0.24228227
-0.019433267 -0.064896986 -0.24227868
-0.019431131 -0.064829275 -0.24226707
-0.019428898 -0.064761512 -0.24225749
-0.019426957 -0.064693891 -0.2422419
-0.019425036 -0.06462431 -0.24222428
-0.019422803 -0.064556554 -0.24221468
-0.019420473 -0.064488754 -0.24220708
-0.019418336 -0.064421043 -0.24219549
-0.019416202 -0.064353324 -0.24218389
-0.019414358 -0.064285748 -0.2421663
-0.019412223 -0.064218029 -0.24215472
-0.019409403 -0.064150013 -0.2421571
-0.019406974 -0.064082168 -0.2421515
-0.019408882 -0.064012334 -0.24205393
-0.019411296 -0.063940756 -0.24194434
-0.019409355 -0.063873127 -0.24192876
-0.019407414 -0.063805506 -0.24191317
-0.019407056 -0.063736618 -0.24186358
-0.0194057 -0.063669249 -0.24183601
-0.019402882 -0.063601233 -0.2418384
-0.01939936 -0.063534871 -0.24185681
-0.019394938 -0.063470066 -0.24189524
-0.019390635 -0.063403353 -0.24192962
-0.019386917 -0.063336894 -0.24195203
-0.019376697 -0.063273437 -0.24211238
-0.019368939 -0.063209109 -0.24222076
-0.01936483 -0.063142478 -0.24225116
-0.019362088 -0.063076459 -0.2422536
-0.019359855 -0.063008703 -0.24224401
-0.019357426 -0.062940858 -0.24223839
-0.019354511 -0.062872797 -0.24224278
-0.019351963 -0.062806867 -0.2422412
-0.01934934 -0.06273894 -0.24223961
-0.019346619 -0.062670961 -0.24224001
-0.019344287 -0.062603161 -0.24223241
-0.01934186 -0.062535316 -0.24222681
-0.019339118 -0.0624693 -0.24222924
-0.019336298 -0.062401284 -0.24223161
-0.019333869 -0.062333439 -0.24222603
-0.019331519 -0.062267594 -0.24222046
-0.019328602 -0.062199533 -0.24222486
-0.019325685 -0.062131472 -0.24222924
-0.019322963 -0.0620635 -0.24222963
-0.019320125 -0.061997436 -0.24223405
-0.019317403 -0.061929461 -0.24223444
-0.019314975 -0.061861619 -0.24222884
-0.019312546 -0.061793774 -0.24222325
-0.019310215 -0.061725974 -0.24221563
-0.019307669 -0.061660044 -0.24221408
-0.019304752 -0.061591983 -0.24221846
-0.019301835 -0.061523922 -0.24222285
-0.019299485 -0.061458077 -0.2422173
-0.019297155 -0.061390277 -0.2422097
-0.019294921 -0.061322518 -0.24220011
-0.019292688 -0.061254762 -0.24219051
-0.01929016 -0.061186876 -0.2421869
-0.019287225 -0.061120771 -0.24219334
-0.019284016 -0.061052579 -0.24220371
-0.019281078 -0.060986474 -0.24221015
-0.019278161 -0.060918413 -0.24221453
-0.01927544 -0.060850438 -0.24221492
-0.019272797 -0.060784463 -0.24221535
-0.019270465 -0.060716663 -0.24220775
-0.019268427 -0.060648993 -0.24219418
-0.019266486 -0.060581367 -0.24217857
-0.019264253 -0.060513608 -0.24216898
-0.019261023 -0.060447372 -0.24218141
-0.019257814 -0.060379181 -0.24219178
-0.019255385 -0.06031134 -0.24218617
-0.019253151 -0.06024358 -0.24217659
-0.019250313 -0.06017752 -0.242181
-0.019247299 -0.060109414 -0.2421874
-0.019244578 -0.060041443 -0.24218778
-0.019241933 -0.059975464 -0.24218822
-0.019239504 -0.059907623 -0.24218261
-0.019237466 -0.059839953 -0.24216902
-0.01923494 -0.059772067 -0.24216543
-0.019232024 -0.059704006 -0.24216981
-0.019229185 -0.059637941 -0.24217424
-0.019226365 -0.059569925 -0.24217662
-0.019223742 -0.059501994 -0.24217501
-0.019221 -0.059435975 -0.24217746
-0.019218475 -0.059368089 -0.24217385
-0.019216437 -0.059300419 -0.24216026
-0.019214105 -0.059232619 -0.24215266
-0.019211266 -0.059166554 -0.2421571
-0.019208154 -0.059098408 -0.24216548
-0.01920514 -0.059030302 -0.24217185
-0.019202594 -0.058964372 -0.2421703
-0.01920036 -0.058896616 -0.24216071
-0.019197835 -0.058828726 -0.2421571
-0.019195113 -0.058760755 -0.24215749
-0.019192664 -0.058694866 -0.24215393
-0.019189943 -0.05862689 -0.24215432
-0.019186929 -0.058558788 -0.24216071
-0.019183991 -0.058492679 -0.24216713
-0.019180978 -0.058424577 -0.24217351
-0.01917816 -0.058356561 -0.24217591
-0.01917571 -0.058290672 -0.24217235
-0.019173086 -0.058222741 -0.24217074
-0.019170949 -0.058155026 -0.24215914
-0.019169107 -0.058087446 -0.24214154
-0.019167166 -0.058019817 -0.24212597
-0.019164717 -0.057953928 -0.24212241
-0.019161606 -0.057885781 -0.24213079
-0.019158201 -0.057817504 -0.24214515
-0.019154971 -0.057751268 -0.24215758
-0.019152055 -0.057683207 -0.24216196
-0.019149821 -0.057615448 -0.24215236
-0.019148543 -0.057550084 -0.24212486
-0.019146798 -0.057482544 -0.24210526
-0.019143883 -0.057414483 -0.24210966
-0.019140771 -0.057346337 -0.24211803
-0.019138029 -0.057280317 -0.24212046
-0.019135211 -0.057212297 -0.24212286
-0.019132197 -0.057144195 -0.24212924
-0.019129455 -0.057078175 -0.24213167
-0.019127415 -0.057010505 -0.24211808
-0.019124793 -0.056942575 -0.24211647
-0.019121759 -0.056876425 -0.2421249
-0.019118939 -0.056808408 -0.24212728
-0.019115925 -0.056740303 -0.24213366
-0.019112715 -0.056672111 -0.24214405
-0.019110462 -0.056606311 -0.24213649
-0.019108424 -0.056538641 -0.2421229
-0.019105507 -0.05647058 -0.24212727
-0.019102396 -0.056402434 -0.24213564
-0.019100044 -0.056336585 -0.2421301
-0.019097419 -0.056268655 -0.24212849
-0.019094504 -0.056200594 -0.24213289
-0.01909188 -0.056132667 -0.24213128
-0.019088846 -0.056066517 -0.2421397
-0.019085929 -0.055998456 -0.24214408
-0.019083599 -0.055930655 -0.24213648
-0.019081345 -0.055864852 -0.24212894
-0.019078819 -0.055796966 -0.24212533
-0.019076195 -0.055729035 -0.24212372
-0.019073084 -0.055660889 -0.2421321
-0.019069951 -0.055594694 -0.24214253
-0.01906723 -0.055526722 -0.24214292
-0.019064605 -0.055458792 -0.24214131
-0.019062176 -0.055390947 -0.2421357
-0.019059826 -0.055325102 -0.24213016
-0.019056909 -0.055257041 -0.24213454
-0.019054187 -0.055189066 -0.24213493
-0.01905176 -0.055121224 -0.24212933
-0.019049408 -0.05505538 -0.24212378
-0.019046687 -0.054987404 -0.24212417
-0.019044064 -0.054919474 -0.24212256
-0.019041223 -0.05485341 -0.242127
-0.019037917 -0.054785177 -0.24213937
-0.019034903 -0.054717071 -0.24214575
-0.019032475 -0.05464923 -0.24214014
-0.019030221 -0.054583427 -0.24213259
-0.019028084 -0.054515712 -0.24212101
-0.019029735 -0.054451652 -0.24203356
-0.019558564 -0.066166468 -0.24072129
-0.019556915 -0.066098966 -0.24069969
-0.019553296 -0.066032559 -0.24072009
-0.019547077 -0.065970883 -0.24079856
-0.019537304 -0.065911546 -0.24095303
-0.019526534 -0.06585373 -0.24112949
-0.01950684 -0.065805689 -0.24150002
-0.019498767 -0.065743186 -0.24161643
-0.019495634 -0.065676987 -0.24162686
-0.019492796 -0.06561093 -0.24163127
-0.019489879 -0.065542869 -0.24163568
-0.019486649 -0.065476626 -0.24164809
-0.019482736 -0.065410092 -0.24167448
-0.01947812 -0.065345198 -0.24171692
-0.019472701 -0.065281913 -0.24177736
-0.019461855 -0.065222099 -0.24195379
-0.019448139 -0.065164939 -0.24219221
-0.01944235 -0.065099522 -0.24225861
-0.019439023 -0.065033242 -0.24227302
-0.019436184 -0.064967185 -0.24227744
-0.019433659 -0.064899296 -0.24227384
-0.019431423 -0.06483154 -0.24226424
-0.019429211 -0.064761825 -0.24225262
-0.019427173 -0.064694159 -0.24223903
-0.019425329 -0.064626575 -0.24222144
-0.019423194 -0.064558864 -0.24220985
-0.019420862 -0.064491063 -0.24220225
-0.019418629 -0.064423308 -0.24219266
-0.019416492 -0.064355589 -0.24218106
-0.01941465 -0.064288013 -0.24216348
-0.019412613 -0.064220339 -0.24214989
-0.019409794 -0.064152323 -0.24215227
-0.019407267 -0.064084433 -0.24214867
-0.019409075 -0.064014554 -0.24205309
-0.019411685 -0.063943066 -0.24193951
-0.019409647 -0.063875392 -0.24192593
-0.019407706 -0.063807771 -0.24191034
-0.019407347 -0.063738883 -0.24186075
-0.019405993 -0.063671514 -0.24183318
-0.019403271 -0.063603543 -0.24183357
-0.019399747 -0.06353718 -0.24185199
-0.019395251 -0.063470379 -0.24189037
-0.019391023 -0.063405655 -0.24192479
-0.019387208 -0.063339159 -0.2419492
-0.019377183 -0.063275784 -0.24210556
-0.019369327 -0.063211419 -0.24221593
-0.019365218 -0.063144788 -0.24224633
-0.019362379 -0.063078724 -0.24225076
-0.019360242 -0.063011013 -0.24223916
-0.019357717 -0.062943123 -0.24223557
-0.0193548 -0.062875062 -0.24223995
-0.019352254 -0.062809132 -0.24223839
-0.019349629 -0.062741205 -0.24223678
-0.019347006 -0.062673271 -0.24223517
-0.019344674 -0.06260547 -0.24222758
-0.01934205 -0.062537543 -0.24222597
-0.019339407 -0.062471565 -0.24222641
-0.019336686 -0.062403589 -0.24222681
-0.01933416 -0.062335704 -0.24222319
-0.019331731 -0.062267862 -0.24221759
-0.01932889 -0.062201798 -0.24222203
-0.019325975 -0.062133737 -0.24222641
-0.019323351 -0.062065806 -0.24222481
-0.019320512 -0.061999746 -0.24222922
-0.019317692 -0.061931729 -0.24223162
-0.019315263 -0.061863884 -0.242226
-0.019312834 -0.061796039 -0.2422204
-0.019310504 -0.061728239 -0.24221282
-0.019308055 -0.06166235 -0.24220926
-0.019305041 -0.061594248 -0.24221563
-0.019302223 -0.061526231 -0.24221802
-0.01929987 -0.061460383 -0.24221247
-0.01929754 -0.061392583 -0.24220487
-0.019295208 -0.061324783 -0.24219728
-0.019292975 -0.061257027 -0.24218768
-0.019290449 -0.061189141 -0.24218407
-0.019287512 -0.061123036 -0.24219051
-0.019284399 -0.061054889 -0.24219888
-0.019281365 -0.060988739 -0.24220732
-0.019278547 -0.060920719 -0.2422097
-0.019275825 -0.060852747 -0.24221009
-0.019273181 -0.060786769 -0.24221052
-0.019270848 -0.060718972 -0.24220294
-0.019268714 -0.060651258 -0.24219134
-0.019266773 -0.060583632 -0.24217576
-0.01926454 -0.060515873 -0.24216616
-0.01926133 -0.060447685 -0.24217653
-0.019258197 -0.060381491 -0.24218695
-0.019255672 -0.060313605 -0.24218336
-0.019253438 -0.060245849 -0.24217375
-0.019250697 -0.06017983 -0.24217618
-0.01924778 -0.060111769 -0.24218056
-0.019244961 -0.060043748 -0.24218296
-0.01924222 -0.059977729 -0.24218538
-0.019239791 -0.059909888 -0.24217978
-0.019237751 -0.059842218 -0.24216621
-0.019235225 -0.059774332 -0.24216259
-0.01923231 -0.059706271 -0.24216698
-0.01922947 -0.059640206 -0.24217141
-0.019226748 -0.059572235 -0.24217179
-0.019224124 -0.059504304 -0.24217018
-0.019221382 -0.059438284 -0.24217263
-0.01921876 -0.059370354 -0.24217102
-0.01921672 -0.059302684 -0.24215743
-0.019214487 -0.059234928 -0.24214783
-0.019211551 -0.059168819 -0.24215427
-0.019208439 -0.059100673 -0.24216264
-0.019205425 -0.059032571 -0.24216902
-0.019202976 -0.058966681 -0.24216548
-0.019200742 -0.058898922 -0.24215588
-0.019198215 -0.058831036 -0.24215227
-0.019195493 -0.058763064 -0.24215266
-0.019192871 -0.058695134 -0.24215105
-0.019190324 -0.0586292 -0.24214949
-0.019187212 -0.058561053 -0.24215786
-0.019184373 -0.058494989 -0.2421623
-0.019181358 -0.058426887 -0.24216868
-0.019178441 -0.058358826 -0.24217308
-0.019175993 -0.058292937 -0.2421695
-0.019173369 -0.058225006 -0.2421679
-0.019171136 -0.05815725 -0.24215832
-0.01916939 -0.058089711 -0.24213873
-0.019167449 -0.058022082 -0.24212316
-0.019165 -0.057956196 -0.24211958
-0.019161887 -0.057888046 -0.24212795
-0.019158581 -0.057819813 -0.24214032
-0.019155351 -0.057753574 -0.24215275
-0.019152338 -0.057685472 -0.24215913
-0.019150201 -0.057617757 -0.24214754
-0.019148923 -0.05755239 -0.24212003
-0.019147178 -0.05748485 -0.24210045
-0.019144261 -0.057416793 -0.24210483
-0.019141149 -0.057348642 -0.2421132
-0.019138407 -0.057282623 -0.24211565
-0.019135492 -0.057214562 -0.24212003
-0.019132379 -0.057146415 -0.2421284
-0.019129734 -0.05708044 -0.24212885
-0.019127697 -0.05701277 -0.24211526
-0.019125171 -0.056944884 -0.24211165
-0.019122038 -0.05687869 -0.24212207
-0.019119317 -0.056810714 -0.24212246
-0.019116303 -0.056742612 -0.24212883
-0.01911319 -0.056674466 -0.24213722
-0.01911084 -0.056608617 -0.24213167
-0.019108703 -0.056540906 -0.24212009
-0.019105786 -0.056472845 -0.24212445
-0.019102676 -0.056404699 -0.24213283
-0.019100323 -0.05633885 -0.24212727
-0.019097602 -0.056270879 -0.24212767
-0.019094784 -0.056202862 -0.24213006
-0.019092258 -0.056134973 -0.24212645
-0.019089222 -0.056068823 -0.24213488
-0.019086307 -0.056000762 -0.24213925
-0.019083975 -0.055932965 -0.24213167
-0.019081721 -0.055867162 -0.24212411
-0.019079195 -0.055799276 -0.2421205
-0.019076571 -0.055731345 -0.2421189
-0.01907346 -0.055663195 -0.24212728
-0.019070327 -0.055597004 -0.2421377
-0.019067509 -0.055528987 -0.24214008
-0.019064981 -0.055461098 -0.24213648
-0.019062553 -0.055393256 -0.24213088
-0.019060202 -0.055327412 -0.24212533
-0.019057285 -0.055259351 -0.24212971
-0.019054564 -0.055191375 -0.2421301
-0.019052038 -0.055123489 -0.24212649
-0.019049685 -0.055057645 -0.24212095
-0.019046964 -0.054989669 -0.24212134
-0.019044342 -0.054921739 -0.24211973
-0.0190416 -0.054855719 -0.24212217
-0.019038292 -0.054787487 -0.24213454
-0.019035181 -0.054719336 -0.24214292
-0.019032752 -0.054651495 -0.24213731
-0.019030595 -0.054585736 -0.24212776
-0.019028459 -0.054518022 -0.24211618
-0.019030109 -0.054453958 -0.24202874
-0.019557873 -0.0661643 -0.24072123
-0.019556224 -0.066096798 -0.24069965
-0.019552507 -0.066030346 -0.24072206
-0.019546289 -0.06596867 -0.24080053
-0.019536614 -0.065909378 -0.24095297
-0.019525845 -0.065851569 -0.24112946
-0.019506149 -0.06580352 -0.24149998
-0.019497978 -0.065740973 -0.24161839
-0.019494846 -0.065674782 -0.2416288
-0.019492105 -0.065608762 -0.24163124
-0.019489091 -0.065540656 -0.24163762
-0.019485861 -0.065474421 -0.24165004
-0.019481948 -0.06540788 -0.24167645
-0.019477429 -0.06534303 -0.24171686
-0.019472012 -0.065279752 -0.24177732
-0.019461263 -0.065219983 -0.24195173
-0.019447448 -0.065162778 -0.24219218
-0.019441564 -0.065097317 -0.24226056
-0.019438334 -0.065031081 -0.24227297
-0.019435396 -0.064964972 -0.24227941
-0.019432871 -0.06489709 -0.2422758
-0.019430637 -0.064829335 -0.24226621
-0.019428425 -0.06475962 -0.24225456
-0.019426484 -0.064691998 -0.24223897
-0.019424545 -0.064624369 -0.24222338
-0.019422408 -0.064556658 -0.2422118
-0.019420078 -0.064488858 -0.2422042
-0.019417845 -0.064421102 -0.24219459
-0.019415805 -0.064353429 -0.24218103
-0.019413866 -0.0642858 -0.24216542
-0.019411828 -0.064218134 -0.24215184
-0.019409008 -0.064150117 -0.24215424
-0.019406483 -0.064082228 -0.24215062
-0.019408291 -0.064012349 -0.24205506
-0.019410903 -0.063940853 -0.24194147
-0.019408865 -0.063873187 -0.24192788
-0.019407021 -0.063805602 -0.24191029
-0.019406663 -0.063736722 -0.24186072
-0.01940521 -0.063669309 -0.24183515
-0.019402489 -0.063601337 -0.24183553
-0.019398967 -0.063534968 -0.24185394
-0.019394644 -0.063470207 -0.24189037
-0.019390341 -0.063403495 -0.24192476
-0.019386526 -0.063336998 -0.24194917
-0.019376501 -0.063273624 -0.24210551
-0.019368643 -0.063209251 -0.2422159
-0.019364536 -0.063142627 -0.2422463
-0.019361697 -0.063076563 -0.24225073
-0.019359462 -0.063008808 -0.24224113
-0.019356936 -0.062940918 -0.24223752
-0.019354118 -0.062872902 -0.24223992
-0.019351475 -0.062806927 -0.24224034
-0.01934885 -0.062739 -0.24223873
-0.019346228 -0.062671065 -0.24223712
-0.019343896 -0.062603265 -0.24222954
-0.01934137 -0.062535375 -0.24222594
-0.019338628 -0.062469359 -0.24222837
-0.019335907 -0.062401384 -0.24222876
-0.01933348 -0.062333543 -0.24222314
-0.019331051 -0.062265698 -0.24221756
-0.019328211 -0.062199637 -0.24222198
-0.019325197 -0.062131532 -0.24222837
-0.019322574 -0.062063601 -0.24222676
-0.019319735 -0.061997537 -0.24223119
-0.019317014 -0.061929565 -0.24223158
-0.019314488 -0.061861679 -0.24222799
-0.019312156 -0.061793879 -0.24222039
-0.019309729 -0.061726034 -0.24221477
-0.01930728 -0.061660144 -0.24221122
-0.019304266 -0.061592042 -0.2422176
-0.019301545 -0.061524067 -0.242218
-0.019299095 -0.061458178 -0.24221444
-0.019296668 -0.061390333 -0.24220884
-0.019294532 -0.061322622 -0.24219725
-0.019292299 -0.061254866 -0.24218765
-0.019289773 -0.061186977 -0.24218404
-0.019286836 -0.061120871 -0.24219048
-0.019283725 -0.061052725 -0.24219885
-0.019280691 -0.060986575 -0.24220729
-0.019277871 -0.060918558 -0.24220967
-0.019275151 -0.060850583 -0.24221006
-0.019272409 -0.060784563 -0.2422125
-0.019270077 -0.060716763 -0.2422049
-0.01926804 -0.060649093 -0.24219131
-0.019266099 -0.060581468 -0.24217573
-0.019263867 -0.060513712 -0.24216613
-0.019260656 -0.060445521 -0.2421765
-0.019257428 -0.060379285 -0.24218893
-0.019254902 -0.060311396 -0.24218532
-0.019252766 -0.060243685 -0.24217373
-0.019250024 -0.060177665 -0.24217618
-0.019247107 -0.060109604 -0.24218056
-0.019244289 -0.060041588 -0.24218294
