# .PCD v0.7 - Point Cloud Data file format
VERSION 0.7
FIELDS x y z
SIZE 4 4 4
TYPE F F F
COUNT 1 1 1
WIDTH 1322
HEIGHT 1
VIEWPOINT 0 0 0 1 0 0 0
POINTS 1322
DATA ascii
-0.13711622 0.023724493 -0.26824015
-0.1371132 0.023802413 -0.26823831
-0.13710989 0.023880463 -0.26824248
-0.13710716 0.023958253 -0.26823464
-0.13710433 0.024036085 -0.2682288
-0.13710095 0.024116134 -0.26823291
-0.13709754 0.024194228 -0.26823905
-0.13709471 0.02427206 -0.26823321
-0.13709179 0.024349935 -0.26822937
-0.13708888 0.024429766 -0.26822349
-0.13708606 0.024507601 -0.26821768
-0.13708304 0.024585519 -0.26821584
-0.13707982 0.024663527 -0.26821798
-0.13707672 0.024743443 -0.26821607
-0.1370738 0.024821321 -0.26821226
-0.13707069 0.024899283 -0.26821241
-0.13706756 0.024977246 -0.26821256
-0.13706447 0.025057165 -0.26821068
-0.13706145 0.025135085 -0.26820886
-0.13705823 0.025213091 -0.26821101
-0.13705531 0.025290966 -0.26820716
-0.13705239 0.025368843 -0.26820332
-0.13704938 0.025448717 -0.26819944
-0.13704656 0.02552655 -0.2681936
-0.13704364 0.025604427 -0.26818976
-0.13704042 0.025682434 -0.26819193
-0.13703731 0.025760397 -0.26819205
-0.13703449 0.025840184 -0.26818419
-0.13703148 0.025918104 -0.26818234
-0.13702826 0.025996111 -0.26818451
-0.13702515 0.026074074 -0.26818466
-0.13702212 0.026151992 -0.26818281
-0.13701952 0.026231695 -0.26817095
-0.13701649 0.026309613 -0.26816911
-0.13701308 0.026387706 -0.26817524
-0.13701005 0.026465626 -0.26817343
-0.13700725 0.026545415 -0.26816553
-0.13700444 0.026623247 -0.26815969
-0.1370016 0.026701082 -0.26815388
-0.13699868 0.026778957 -0.26815003
-0.13699566 0.026856877 -0.26814818
-0.13699266 0.026936751 -0.26814431
-0.13698953 0.027014714 -0.26814446
-0.13698593 0.027092893 -0.26815459
-0.13698272 0.0271709 -0.26815677
-0.13697991 0.027250689 -0.26814887
-0.13697709 0.027328521 -0.26814303
-0.13697357 0.027406659 -0.26815119
-0.13697019 0.027486706 -0.26815528
-0.13696747 0.027564496 -0.26814747
-0.13696483 0.027642243 -0.26813763
-0.13696191 0.027720118 -0.26813379
-0.13695899 0.027797993 -0.26812994
-0.13695587 0.027875956 -0.26813012
-0.13695297 0.027955789 -0.26812422
-0.13694994 0.028033707 -0.26812238
-0.13694683 0.02811167 -0.26812255
-0.136944 0.028189505 -0.26811671
-0.136941 0.028269378 -0.26811284
-0.13693789 0.028347341 -0.26811299
-0.13693467 0.028425347 -0.26811513
-0.13693134 0.028503397 -0.26811928
-0.13692845 0.028583229 -0.2681134
-0.13692562 0.028661061 -0.26810756
-0.13692251 0.028739024 -0.26810771
-0.13691968 0.028816858 -0.26810187
-0.13691686 0.028894691 -0.26809603
-0.13691327 0.028974826 -0.26810414
-0.13690986 0.029052919 -0.26811031
-0.13690713 0.029130708 -0.26810247
-0.1369047 0.029208368 -0.26808864
-0.13690206 0.029286114 -0.2680788
-0.13689907 0.029365988 -0.26807493
-0.13689566 0.029444082 -0.26808107
-0.13689224 0.029522175 -0.26808721
-0.13688914 0.029602092 -0.26808533
-0.13688603 0.029680055 -0.26808548
-0.1368832 0.029757889 -0.26807967
-0.13688058 0.029835634 -0.2680698
-0.13687728 0.029915638 -0.26807192
-0.13687426 0.02999356 -0.2680701
-0.13687153 0.030071348 -0.26806226
-0.13686889 0.030149095 -0.26805243
-0.13686597 0.030226972 -0.26804858
-0.1368624 0.030307107 -0.26805669
-0.13685898 0.0303852 -0.26806283
-0.13685615 0.030463032 -0.26805699
-0.13685344 0.030542776 -0.26804712
-0.13685043 0.030620696 -0.26804528
-0.13684741 0.030698616 -0.26804346
-0.13684477 0.030776363 -0.26803362
-0.13684176 0.030854281 -0.26803178
-0.13683827 0.030934373 -0.26803786
-0.13683495 0.031012423 -0.26804203
-0.13683157 0.031092471 -0.26804614
-0.13682835 0.031170476 -0.26804829
-0.13682571 0.031248223 -0.26803845
-0.13682318 0.031325929 -0.26802665
-0.13682006 0.031403888 -0.26802677
-0.13681677 0.031483896 -0.26802889
-0.13681374 0.031561814 -0.26802707
-0.13681044 0.031639863 -0.26803118
-0.13680725 0.031719826 -0.2680313
-0.13680393 0.031797875 -0.26803547
-0.13680063 0.031877879 -0.26803756
-0.13679801 0.031955626 -0.26802772
-0.13679518 0.032033458 -0.26802188
-0.13679256 0.032111205 -0.26801208
-0.13679022 0.032188822 -0.26799625
-0.13678738 0.032266654 -0.26799041
-0.13678437 0.032344572 -0.26798856
-0.13678163 0.032422364 -0.26798075
-0.13677855 0.032502279 -0.26797885
-0.13677582 0.03258007 -0.26797104
-0.13677308 0.032657858 -0.2679632
-0.13677046 0.032735605 -0.26795337
-0.13676783 0.032813352 -0.26794353
-0.13676569 0.032890879 -0.26792371
-0.13676335 0.032968499 -0.26790789
-0.13675945 0.033046808 -0.26792404
-0.13675587 0.033126943 -0.26793212
-0.13675217 0.033207119 -0.26794222
-0.13674887 0.033285171 -0.26794636
-0.13674584 0.033363089 -0.26794454
-0.13674322 0.033440836 -0.26793471
-0.13674051 0.033520579 -0.26792485
-0.13673796 0.033596329 -0.26791504
-0.13673544 0.033675984 -0.26790118
-0.13673271 0.033753775 -0.26789334
-0.1367294 0.033831827 -0.26789749
-0.13672572 0.033912003 -0.26790759
-0.13672201 0.033990227 -0.26791972
-0.13671842 0.034070361 -0.26792783
-0.13671541 0.034148283 -0.26792598
-0.1367124 0.034228154 -0.2679221
-0.13670918 0.034306161 -0.26792425
-0.1367055 0.034386341 -0.26793435
-0.13670182 0.03446652 -0.26794446
-0.13669871 0.034544483 -0.2679446
-0.13669568 0.034622401 -0.26794276
-0.13669278 0.034702234 -0.26793689
-0.13669032 0.034777939 -0.26792511
-0.1366877 0.034855682 -0.26791528
-0.13668486 0.034933515 -0.26790944
-0.13668177 0.035013434 -0.26790756
-0.13667846 0.035091482 -0.2679117
-0.13667507 0.035171531 -0.26791582
-0.13667168 0.03525158 -0.2679199
-0.13666826 0.035329673 -0.26792604
-0.13666524 0.035407592 -0.26792422
-0.13666292 0.035485208 -0.26790839
-0.13666038 0.03556291 -0.26789656
-0.13665718 0.03564287 -0.26789668
-0.13665406 0.035720836 -0.26789683
-0.13665104 0.035798755 -0.26789498
-0.13664785 0.035878718 -0.2678951
-0.13664493 0.035956591 -0.26789126
-0.1366421 0.036034428 -0.26788542
-0.13663889 0.036114387 -0.26788554
-0.13663569 0.036192395 -0.26788771
-0.13663249 0.036272354 -0.2678878
-0.13662967 0.036350187 -0.26788196
-0.13662703 0.036427934 -0.26787212
-0.13662401 0.036505856 -0.26787031
-0.136621 0.036583774 -0.26786846
-0.13661809 0.036663603 -0.26786256
-0.13661422 0.036743868 -0.26787665
-0.13660823 0.036828998 -0.2679306
-0.136603 0.036911823 -0.26797062
-0.13659738 0.036994826 -0.2680186
-0.13658968 0.037084643 -0.2681044
-0.13658407 0.037169598 -0.26815033
-0.13855156 -0.0021346919 -0.26882285
-0.13854906 -0.002055034 -0.26880896
-0.13854638 -0.0019733366 -0.26879704
-0.13854355 -0.0018955022 -0.26879123
-0.13854045 -0.0018155836 -0.26878932
-0.13853765 -0.0017357953 -0.26878145
-0.13853505 -0.0016541425 -0.26876754
-0.13853174 -0.0015760921 -0.26877168
-0.13852821 -0.0014999099 -0.26878187
-0.13852473 -0.001419818 -0.26878798
-0.13852222 -0.001340162 -0.26877409
-0.13851982 -0.0012585912 -0.26875618
-0.13851629 -0.0011824109 -0.26876637
-0.13851197 -0.0011078361 -0.2687946
-0.13850887 -0.0010279175 -0.26879269
-0.13850658 -0.00094639137 -0.26877278
-0.13850378 -0.00086660683 -0.26876491
-0.13850045 -0.00078855641 -0.26876906
-0.13849676 -0.00071033277 -0.26878119
-0.13849354 -0.00063232519 -0.26878336
-0.13849083 -0.00055257976 -0.2687735
-0.13848783 -0.00047270767 -0.26876959
-0.13848442 -0.00039461255 -0.26877576
-0.13848121 -0.00031660683 -0.26877791
-0.1384782 -0.00023673102 -0.268774
-0.13847521 -0.00015685707 -0.26877013
-0.1384721 -7.8894198e-05 -0.26877028
-0.13846868 -8.0280006e-07 -0.26877642
-0.13846558 7.9115853e-05 -0.26877454
-0.13846308 0.00015877374 -0.26876068
-0.13846037 0.0002385173 -0.26875079
-0.13845707 0.0003185235 -0.2687529
-0.13845366 0.00039661676 -0.26875904
-0.13845074 0.00047449209 -0.2687552
-0.13844784 0.0005543232 -0.26874933
-0.13844463 0.00063233078 -0.2687515
-0.13844113 0.00071242079 -0.26875758
-0.13843831 0.00079025328 -0.26875174
-0.1384356 0.00086999871 -0.26874188
-0.13843222 0.00095004775 -0.26874599
-0.13842858 0.0010262728 -0.26875818
-0.13842539 0.0011062324 -0.26875827
-0.13842268 0.001185976 -0.2687484
-0.13841979 0.0012658089 -0.2687425
-0.13841677 0.0013437271 -0.26874068
-0.13841377 0.0014236011 -0.26873678
-0.13841106 0.0015033465 -0.26872692
-0.13840826 0.0015831348 -0.26871905
-0.13840504 0.0016611423 -0.26872119
-0.13840175 0.0017411429 -0.26872331
-0.13839902 0.0018189326 -0.26871544
-0.13839564 0.0018989816 -0.26871955
-0.13839211 0.0019751638 -0.26872975
-0.13838939 0.0020549092 -0.26871988
-0.1383865 0.0021347385 -0.26871401
-0.13838337 0.0022127032 -0.26871416
-0.13838029 0.0022926219 -0.26871228
-0.13837668 0.0023708008 -0.26872241
-0.13837315 0.002446983 -0.26873261
-0.13837016 0.0025268588 -0.26872873
-0.13836753 0.0026065577 -0.26871684
-0.13836476 0.0026882999 -0.26870692
-0.13836193 0.0027661342 -0.26870108
-0.13835882 0.0028440971 -0.26870126
-0.13835542 0.0029241461 -0.26870534
-0.13835202 0.0030022375 -0.26871148
-0.1383487 0.0030802879 -0.26871565
-0.1383459 0.0031600762 -0.26870775
-0.13834299 0.0032399055 -0.26870188
-0.13833949 0.0033180434 -0.26871002
-0.13833638 0.0033960063 -0.26871017
-0.13833356 0.0034757927 -0.2687023
-0.13833067 0.0035556257 -0.26869643
-0.13832764 0.0036335457 -0.26869458
-0.13832423 0.003711639 -0.26870072
-0.13832085 0.0037916861 -0.26870483
-0.13831794 0.0038715154 -0.26869893
-0.13831502 0.0039493926 -0.26869512
-0.1383118 0.0040274002 -0.26869726
-0.138308 0.0041056667 -0.26871139
-0.1383045 0.0041838028 -0.26871955
-0.13830169 0.004263591 -0.26871166
-0.13829876 0.0043414664 -0.26870781
-0.13829568 0.004421385 -0.26870593
-0.13829286 0.0045011733 -0.26869807
-0.13828994 0.0045790505 -0.26869422
-0.13828644 0.0046571866 -0.26870236
-0.13828313 0.0047352351 -0.2687065
-0.13828023 0.0048150662 -0.26870063
-0.13827762 0.004894767 -0.26868877
-0.1382746 0.004972687 -0.26868692
-0.13827121 0.005052736 -0.26869103
-0.1382677 0.0051308721 -0.26869917
-0.13826439 0.0052089207 -0.26870331
-0.13826156 0.005286755 -0.2686975
-0.13825856 0.0053666309 -0.26869363
-0.13825557 0.0054465029 -0.26868972
-0.13825284 0.0055242926 -0.26868188
-0.13824974 0.0056042094 -0.26868001
-0.13824591 0.005680522 -0.26869619
-0.13824141 0.00575714 -0.26872635
-0.138238 0.0058352333 -0.26873249
-0.13823581 0.0059167147 -0.26871058
-0.13823378 0.0059961565 -0.26868671
-0.1382311 0.0060778521 -0.26867479
-0.13822778 0.0061559025 -0.26867896
-0.13822447 0.0062339529 -0.26868311
-0.13822144 0.006311873 -0.26868126
-0.13821855 0.006391705 -0.26867539
-0.13821594 0.0064714048 -0.26866353
-0.13821273 0.0065494115 -0.26866567
-0.13820873 0.0066277655 -0.26868379
-0.13820562 0.0067057293 -0.26868394
-0.13820291 0.0067854738 -0.26867408
-0.13819969 0.0068634804 -0.26867622
-0.1381965 0.0069434391 -0.26867634
-0.13819367 0.0070212726 -0.2686705
-0.13819057 0.0071011912 -0.26866859
-0.13818765 0.0071790675 -0.26866478
-0.13818476 0.0072588995 -0.26865891
-0.13818213 0.0073385993 -0.26864702
-0.13817894 0.0074185617 -0.26864713
-0.13817513 0.0074948734 -0.26866332
-0.13817161 0.0075730104 -0.26867145
-0.13816939 0.007652536 -0.2686516
-0.1381667 0.0077322796 -0.26864171
-0.13816328 0.0078103729 -0.26864785
-0.13816026 0.0078882929 -0.26864603
-0.13815726 0.0079681687 -0.26864213
-0.13815404 0.0080461754 -0.2686443
-0.13815063 0.0081242677 -0.26865044
-0.13814753 0.0082041863 -0.26864856
-0.13814472 0.0082820188 -0.26864272
-0.1381418 0.008359896 -0.26863888
-0.13813889 0.0084397271 -0.26863301
-0.13813558 0.0085177775 -0.26863715
-0.13813187 0.0085960012 -0.26864928
-0.13812876 0.0086739622 -0.26864946
-0.13812596 0.0087537505 -0.26864156
-0.13812315 0.0088335387 -0.26863369
-0.13812052 0.0089112846 -0.26862386
-0.13811763 0.0089911148 -0.26861799
-0.13811411 0.0090692518 -0.26862612
-0.1381105 0.0091474317 -0.26863626
-0.13810739 0.0092253955 -0.26863641
-0.13810468 0.00930514 -0.26862654
-0.13810179 0.0093849711 -0.26862067
-0.13809915 0.0094627161 -0.26861084
-0.13809624 0.0095425481 -0.26860496
-0.13809304 0.0096205547 -0.26860711
-0.13808972 0.0096986052 -0.26861125
-0.13808642 0.0097786086 -0.26861337
-0.1380838 0.0098563554 -0.26860353
-0.1380807 0.0099362731 -0.26860166
-0.13807729 0.010014366 -0.2686078
-0.13807409 0.010092374 -0.26860994
-0.13807099 0.010172291 -0.26860806
-0.13806807 0.010250167 -0.26860422
-0.13806534 0.010327957 -0.26859638
-0.13806252 0.010407744 -0.26858851
-0.13805912 0.010485837 -0.26859465
-0.13805531 0.010564104 -0.26860881
-0.138052 0.010642154 -0.26861295
-0.1380493 0.010721899 -0.26860309
-0.13804679 0.010801557 -0.2685892
-0.13804367 0.010879519 -0.26858935
-0.13804036 0.010957569 -0.26859349
-0.13803753 0.011035401 -0.26858768
-0.13803454 0.011115276 -0.26858377
-0.13803132 0.011193283 -0.26858595
-0.13802849 0.011271116 -0.26858011
-0.1380254 0.011351034 -0.26857823
-0.13802199 0.011429126 -0.26858437
-0.13801858 0.011507221 -0.26859051
-0.13801546 0.011585183 -0.26859066
-0.13801245 0.011665057 -0.26858678
-0.13800983 0.011742804 -0.26857695
-0.13800693 0.011822635 -0.26857108
-0.13800371 0.011900642 -0.26857322
-0.1380005 0.011978648 -0.26857537
-0.13799737 0.012056611 -0.26857555
-0.13799448 0.012136444 -0.26856965
-0.13799156 0.012214318 -0.26856583
-0.13798855 0.012294194 -0.26856193
-0.13798593 0.01237194 -0.26855209
-0.13798302 0.012451771 -0.26854622
-0.13797972 0.012529821 -0.26855037
-0.13797592 0.012608087 -0.26856452
-0.13797289 0.012686007 -0.26856267
-0.13797009 0.012765795 -0.26855481
-0.13796698 0.012843758 -0.26855493
-0.13796376 0.012921765 -0.2685571
-0.13796076 0.013001638 -0.2685532
-0.13795803 0.013079428 -0.26854539
-0.13795513 0.013159259 -0.26853949
-0.1379521 0.013237179 -0.26853767
-0.13794869 0.013315273 -0.26854381
-0.13794577 0.01339315 -0.26853997
-0.13794297 0.013472936 -0.2685321
-0.13793975 0.013550943 -0.26853424
-0.13793664 0.013628907 -0.26853442
-0.13793334 0.013708911 -0.26853651
-0.13793042 0.013786787 -0.26853266
-0.1379277 0.013864577 -0.26852483
-0.13792431 0.013944624 -0.26852894
-0.13792118 0.014022588 -0.26852909
-0.13791847 0.014100377 -0.26852125
-0.13791595 0.014180034 -0.26850739
-0.13791312 0.014257867 -0.26850158
-0.13790992 0.014335874 -0.26850373
-0.1379066 0.014413925 -0.26850787
-0.13790321 0.014493972 -0.26851195
-0.1379001 0.014571936 -0.26851213
-0.13789688 0.014649943 -0.26851428
-0.13789386 0.014727862 -0.26851243
-0.13789125 0.014807562 -0.26850057
-0.13788871 0.014885265 -0.26848873
-0.13788621 0.014964923 -0.26847488
-0.13788299 0.015042929 -0.26847702
-0.13787909 0.015121239 -0.26849315
-0.13787539 0.015199463 -0.26850528
-0.13787237 0.015277383 -0.26850346
-0.13786955 0.015355216 -0.26849762
-0.13786684 0.01543496 -0.26848775
-0.13786392 0.015512837 -0.26848391
-0.13786089 0.015590756 -0.26848206
-0.1378576 0.015670761 -0.26848418
-0.1378544 0.015748767 -0.26848632
-0.13785157 0.015826602 -0.26848048
-0.13784838 0.015906561 -0.2684806
-0.13784505 0.015984612 -0.26848477
-0.13784185 0.016062617 -0.26848692
-0.13783893 0.016140494 -0.26848307
-0.13783641 0.016220152 -0.26846918
-0.13783388 0.016297854 -0.26845735
-0.13783097 0.016377686 -0.26845148
-0.13782796 0.016455606 -0.26844966
-0.13782455 0.016533699 -0.2684558
-0.13782133 0.016611706 -0.26845795
-0.13781823 0.016691623 -0.26845604
-0.13781512 0.016769586 -0.26845622
-0.137812 0.016847549 -0.26845637
-0.13780908 0.016925426 -0.26845253
-0.13780636 0.017003216 -0.26844472
-0.13780306 0.01708322 -0.2684468
-0.13779946 0.017161401 -0.26845697
-0.13779634 0.017239364 -0.26845711
-0.13779381 0.017317066 -0.26844528
-0.13779108 0.017394856 -0.26843745
-0.13778798 0.017474774 -0.26843557
-0.13778515 0.017552607 -0.26842973
-0.13778207 0.017632524 -0.26842785
-0.13777874 0.017710574 -0.26843199
-0.13777554 0.017788582 -0.26843414
-0.13777252 0.0178665 -0.26843232
-0.13776979 0.017944291 -0.26842448
-0.13776679 0.018024165 -0.26842058
-0.13776407 0.018101955 -0.26841277
-0.13776115 0.01817983 -0.26840892
-0.13775793 0.018257838 -0.26841107
-0.1377549 0.018335758 -0.26840922
-0.13775171 0.018415717 -0.26840934
-0.13774879 0.018493595 -0.2684055
-0.13774596 0.018571429 -0.26839966
-0.13774297 0.018651303 -0.26839578
-0.13773985 0.018729266 -0.26839593
-0.13773653 0.018807314 -0.26840007
-0.13773361 0.018885192 -0.26839626
-0.13773069 0.018963069 -0.26839241
-0.13772739 0.019043073 -0.26839453
-0.13772437 0.019120993 -0.26839268
-0.13772145 0.019198868 -0.26838884
-0.13771844 0.019276788 -0.26838699
-0.13771561 0.019354621 -0.26838118
-0.13771272 0.019434452 -0.26837528
-0.13770959 0.019512415 -0.26837543
-0.13770638 0.019590423 -0.2683776
-0.13770306 0.019668473 -0.26838174
-0.13769977 0.019748477 -0.26838386
-0.13769704 0.019826267 -0.26837602
-0.13769412 0.019904142 -0.26837218
-0.13769074 0.019984191 -0.26837629
-0.13768782 0.020062067 -0.26837245
-0.13768509 0.020139856 -0.26836461
-0.13768226 0.020217691 -0.26835877
-0.13767914 0.020295653 -0.26835895
-0.13767594 0.020375613 -0.26835907
-0.13767283 0.020453576 -0.26835918
-0.13766962 0.020531584 -0.26836136
-0.1376666 0.020609504 -0.26835951
-0.13766406 0.020687206 -0.26834768
-0.13766155 0.020766864 -0.26833382
-0.13765922 0.02084448 -0.268318
-0.13765669 0.020922182 -0.26830617
-0.13765369 0.021002056 -0.26830229
-0.13765047 0.021080064 -0.26830444
-0.13764726 0.021158069 -0.26830661
-0.13764434 0.021235947 -0.26830277
-0.13764131 0.021313867 -0.26830092
-0.13763742 0.021392176 -0.26831704
-0.13763382 0.021470357 -0.26832721
-0.13763091 0.021550188 -0.26832131
-0.13762808 0.02162802 -0.26831546
-0.13762487 0.021706028 -0.26831764
-0.13762127 0.021784207 -0.26832777
-0.13761836 0.021864038 -0.2683219
-0.13761564 0.021941828 -0.26831406
-0.13761242 0.022019835 -0.26831621
-0.13760911 0.022097884 -0.26832035
-0.1376064 0.022177629 -0.26831049
-0.13760367 0.022255419 -0.26830265
-0.13760036 0.022333469 -0.26830679
-0.13759705 0.022411518 -0.26831096
-0.13759413 0.022489395 -0.26830712
-0.13759112 0.022569269 -0.26830322
-0.1375884 0.022647059 -0.26829541
-0.13758597 0.022724718 -0.26828158
-0.13758324 0.022802508 -0.26827374
-0.13758032 0.022880385 -0.2682699
-0.13757712 0.022960346 -0.26827002
-0.137574 0.023038309 -0.26827016
-0.13757069 0.023116358 -0.26827434
-0.13756728 0.023194451 -0.26828048
-0.13756436 0.023272328 -0.26827663
-0.13756165 0.023352072 -0.26826677
-0.13755864 0.023429992 -0.26826492
-0.13755532 0.023508042 -0.26826906
-0.13755231 0.023585962 -0.26826724
-0.13754947 0.023663795 -0.2682614
-0.13754638 0.023743713 -0.26825953
-0.13754326 0.023821676 -0.26825964
-0.13754025 0.023899596 -0.26825783
-0.13753732 0.023977472 -0.26825398
-0.13753431 0.024055392 -0.26825213
-0.1375311 0.024135353 -0.26825225
-0.13752799 0.024213316 -0.26825243
-0.13752526 0.024291106 -0.26824456
-0.13752283 0.024368765 -0.26823077
-0.13751952 0.024446815 -0.26823491
-0.13751623 0.02452682 -0.26823699
-0.13751359 0.024604566 -0.26822719
-0.13751106 0.024682269 -0.26821536
-0.13750795 0.024760231 -0.26821551
-0.13750446 0.024840323 -0.26822162
-0.13750143 0.024918243 -0.26821977
-0.13749804 0.024996337 -0.26822591
-0.13749483 0.025076298 -0.26822603
-0.13749267 0.025151871 -0.26820827
-0.13749014 0.025229575 -0.26819643
-0.13748695 0.025309537 -0.26819655
-0.13748354 0.02538763 -0.26820269
-0.13747995 0.025467765 -0.2682108
-0.13747683 0.025545727 -0.26821095
-0.13747391 0.025623605 -0.2682071
-0.13747109 0.025701437 -0.26820129
-0.13746826 0.02577927 -0.26819545
-0.13746566 0.02585897 -0.26818356
-0.13746244 0.025936976 -0.26818573
-0.13745864 0.026015244 -0.26819986
-0.13745522 0.026093338 -0.268206
-0.1374523 0.026171215 -0.26820219
-0.1374497 0.026250914 -0.26819029
-0.13744716 0.026328618 -0.26817846
-0.13744424 0.026406493 -0.26817462
-0.13744102 0.026484501 -0.26817679
-0.13743791 0.026562463 -0.26817694
-0.13743511 0.026642252 -0.26816905
-0.13743249 0.026719999 -0.26815921
-0.13742955 0.026797874 -0.2681554
-0.13742635 0.02687588 -0.26815754
-0.13742293 0.026953973 -0.26816368
-0.13741983 0.027033892 -0.2681618
-0.13741691 0.027111769 -0.26815796
-0.13741389 0.027189687 -0.26815611
-0.13741051 0.027269736 -0.26816022
-0.13740739 0.027347699 -0.2681604
-0.13740467 0.027425488 -0.26815253
-0.13740213 0.027503192 -0.26814073
-0.137399 0.027581155 -0.26814088
-0.13739523 0.027661376 -0.26815298
-0.13739201 0.027739383 -0.26815513
-0.13738918 0.027817216 -0.26814929
-0.13738626 0.027895093 -0.26814544
-0.13738354 0.027972881 -0.26813763
-0.13738084 0.028052626 -0.26812774
-0.13737772 0.028130589 -0.26812792
-0.1373744 0.028208639 -0.26813206
-0.13737139 0.028286558 -0.26813021
-0.13736875 0.028364304 -0.26812038
-0.13736576 0.028444178 -0.2681165
-0.13736264 0.028522141 -0.26811665
-0.13735962 0.028600063 -0.26811481
-0.13735643 0.028680023 -0.26811492
-0.13735341 0.028757943 -0.26811308
-0.13735057 0.028835777 -0.26810727
-0.13734746 0.02891374 -0.26810741
-0.13734464 0.028991573 -0.26810157
-0.13734154 0.029071489 -0.26809967
-0.13733852 0.029149409 -0.26809785
-0.13733551 0.029227329 -0.268096
-0.13733278 0.029305119 -0.26808816
-0.13732977 0.029384993 -0.26808429
-0.13732676 0.029462915 -0.26808244
-0.13732344 0.029540963 -0.26808661
-0.13732013 0.029619012 -0.26809075
-0.13731675 0.029699061 -0.26809484
-0.13731381 0.029776938 -0.26809102
-0.13731119 0.029854683 -0.26808119
-0.13730836 0.029932518 -0.26807535
-0.13730527 0.030012434 -0.26807347
-0.13730225 0.030090354 -0.26807162
-0.13729894 0.030168405 -0.26807576
-0.13729565 0.030248409 -0.26807788
-0.13729319 0.030324113 -0.26806611
-0.13729028 0.030403946 -0.26806021
-0.13728698 0.030481994 -0.26806438
-0.13728379 0.030561956 -0.26806447
-0.13728057 0.030639961 -0.26806664
-0.13727765 0.030717839 -0.2680628
-0.13727473 0.030795716 -0.26805896
-0.13727143 0.03087572 -0.26806107
-0.13726822 0.030953726 -0.26806322
-0.13726559 0.031031473 -0.26805338
-0.13726296 0.031109219 -0.26804358
-0.13726003 0.031187095 -0.2680397
-0.1372572 0.031264931 -0.26803389
-0.13725421 0.031344801 -0.26802999
-0.13725109 0.031422764 -0.26803017
-0.13724788 0.031500772 -0.26803231
-0.13724488 0.031580649 -0.26802844
-0.13724196 0.031658523 -0.26802459
-0.13723893 0.031736441 -0.26802275
-0.13723552 0.031814538 -0.26802889
-0.13723204 0.031894628 -0.26803499
-0.13722846 0.031974763 -0.2680431
-0.13722494 0.032052897 -0.26805124
-0.13722156 0.032132946 -0.26805535
-0.13721903 0.032210648 -0.26804352
-0.13721706 0.032286137 -0.26802176
-0.1372153 0.032363493 -0.26799393
-0.13721287 0.032441154 -0.26798013
-0.13720976 0.032519117 -0.26798028
-0.13720597 0.032599337 -0.26799238
-0.13720316 0.03267717 -0.26798654
-0.1372012 0.032754611 -0.26796272
-0.13719839 0.032832444 -0.26795691
-0.13719536 0.032910366 -0.26795506
-0.13719274 0.032988112 -0.26794523
-0.1371906 0.033065639 -0.26792541
-0.13718817 0.033143301 -0.26791158
-0.13718553 0.033221047 -0.26790178
-0.13718261 0.033298925 -0.26789793
-0.1371793 0.033376973 -0.26790208
-0.1371761 0.033456936 -0.2679022
-0.13717268 0.033535026 -0.26790833
-0.13716796 0.033617638 -0.26793835
-0.13716379 0.033698034 -0.26795843
-0.13716076 0.033775952 -0.26795658
-0.13715804 0.033853743 -0.26794875
-0.13715512 0.033931617 -0.26794493
-0.13715219 0.034009494 -0.26794109
-0.13714929 0.034089327 -0.26793522
-0.13714626 0.034167245 -0.26793337
-0.13714306 0.034245253 -0.26793551
-0.13713977 0.034325257 -0.2679376
-0.13713655 0.034403265 -0.26793978
-0.13713326 0.034483269 -0.26794189
-0.13713033 0.034561142 -0.26793805
-0.13712761 0.034638934 -0.26793021
-0.13712458 0.034716852 -0.26792836
-0.1371212 0.034796901 -0.26793247
-0.13711809 0.034874864 -0.26793262
-0.13711488 0.034954827 -0.26793274
-0.13711157 0.035032876 -0.26793689
-0.13710847 0.035112794 -0.26793501
-0.13710555 0.035190672 -0.26793116
-0.13710244 0.035268635 -0.26793131
-0.13709952 0.035346508 -0.26792747
-0.13709669 0.035424344 -0.26792163
-0.13709378 0.035504173 -0.26791576
-0.13709077 0.035582095 -0.26791394
-0.13708764 0.035660058 -0.26791409
-0.13708475 0.035739888 -0.26790822
-0.13708192 0.03581772 -0.26790237
-0.13707881 0.035895683 -0.26790252
-0.13707569 0.035973646 -0.26790267
-0.13707259 0.036053564 -0.26790079
-0.13706976 0.036131397 -0.26789495
-0.13706656 0.036209404 -0.26789713
-0.13706326 0.036289409 -0.26789922
-0.13706014 0.036367372 -0.26789936
-0.13705705 0.03644729 -0.26789749
-0.13705403 0.036525209 -0.26789564
-0.13705119 0.036603041 -0.2678898
-0.13704792 0.036683045 -0.26789191
-0.13704383 0.0367634 -0.26791
-0.13703814 0.036848396 -0.26795793
-0.13703176 0.036933698 -0.26801986
-0.13702627 0.037018612 -0.26806381
-0.13702008 0.037103824 -0.26812175
-0.13899703 -0.0021107793 -0.26882043
-0.13899432 -0.0020310376 -0.26881057
-0.13899121 -0.0019530747 -0.26881075
-0.13898811 -0.0018731561 -0.26880884
-0.1389855 -0.0017934535 -0.26879698
-0.13898242 -0.0017135367 -0.26879507
-0.13897859 -0.001637226 -0.26881126
-0.13897508 -0.001559088 -0.26881939
-0.13897237 -0.0014793426 -0.26880953
-0.13896967 -0.001399599 -0.26879966
-0.13896677 -0.0013197698 -0.26879376
-0.13896358 -0.0012398083 -0.26879388
-0.13896026 -0.0011617579 -0.26879802
-0.13895753 -0.0010839682 -0.26879022
-0.13895456 -0.0010021403 -0.26878428
-0.13895084 -0.00092586875 -0.26879844
-0.13894723 -0.00084768794 -0.2688086
-0.13894421 -0.00076976977 -0.26880676
-0.13894121 -0.00068989582 -0.26880288
-0.13893852 -0.0006101504 -0.26879299
-0.13893539 -0.00053218752 -0.26879314
-0.13893178 -0.00045400672 -0.2688033
-0.1389287 -0.00037409179 -0.26880139
-0.13892609 -0.0002943892 -0.26878953
-0.13892329 -0.00021460094 -0.26878166
-0.13892007 -0.00013659522 -0.26878381
-0.13891667 -5.6548044e-05 -0.26878792
-0.13891397 2.3197383e-05 -0.26877803
-0.13891137 0.00010289997 -0.26876616
-0.13890825 0.00018086284 -0.26876631
-0.13890465 0.00025904179 -0.26877648
-0.13890144 0.00033900142 -0.26877657
-0.13889864 0.00041878968 -0.2687687
-0.13889553 0.00049675256 -0.26876885
-0.13889211 0.00057484768 -0.26877499
-0.138889 0.00065281056 -0.26877517
-0.13888571 0.00073281303 -0.26877725
-0.13888279 0.00081069022 -0.26877344
-0.13887969 0.00089060888 -0.26877153
-0.1388765 0.00097057223 -0.26877165
-0.13887307 0.0010467097 -0.26877984
-0.13886969 0.0011267569 -0.26878393
-0.13886696 0.0012045465 -0.26877612
-0.13886406 0.0012843758 -0.26877022
-0.13886087 0.0013643391 -0.26877034
-0.13885805 0.0014441255 -0.26876247
-0.13885565 0.0015237406 -0.26874658
-0.13885304 0.0016034413 -0.26873469
-0.13885014 0.0016832724 -0.26872885
-0.13884653 0.0017614514 -0.26873899
-0.13884312 0.0018395465 -0.26874512
-0.1388399 0.0019175522 -0.26874727
-0.1388367 0.0019955579 -0.26874942
-0.1388337 0.0020754337 -0.26874554
-0.1388308 0.002155263 -0.26873967
-0.13882758 0.0022332706 -0.26874182
-0.13882427 0.0023113191 -0.26874596
-0.13882156 0.0023910645 -0.26873609
-0.13881867 0.0024708975 -0.26873022
-0.13881534 0.0025489479 -0.26873437
-0.13881184 0.002627084 -0.2687425
-0.13880874 0.0027070008 -0.26874062
-0.13880585 0.0027868301 -0.26873475
-0.13880312 0.0028646216 -0.26872692
-0.13879964 0.0029447135 -0.26873299
-0.13879621 0.0030208509 -0.26874119
-0.13879272 0.003100941 -0.2687473
-0.1387894 0.0031789914 -0.26875144
-0.13878648 0.0032568686 -0.26874763
-0.13878378 0.003336614 -0.26873773
-0.13878088 0.0034164451 -0.26873183
-0.13877758 0.0034964494 -0.26873398
-0.13877437 0.0035744552 -0.26873612
-0.13877155 0.0036522895 -0.26873028
-0.13876896 0.0037339441 -0.26871637
-0.13876615 0.0038137306 -0.26870847
-0.13876243 0.0038900003 -0.26872265
-0.13875912 0.0039680488 -0.26872683
-0.13875602 0.0040479675 -0.26872492
-0.13875294 0.0041278861 -0.26872304
-0.13874991 0.0042058062 -0.26872119
-0.13874672 0.0042857677 -0.26872131
-0.1387434 0.0043638162 -0.26872545
-0.1387402 0.0044418238 -0.2687276
-0.13873717 0.0045197438 -0.26872578
-0.13873418 0.0045996178 -0.26872188
-0.13873118 0.0046794899 -0.268718
-0.13872805 0.0047574546 -0.26871815
-0.13872504 0.0048353747 -0.26871634
-0.13872173 0.0049134251 -0.26872048
-0.13871813 0.004991604 -0.26873061
-0.13871484 0.0050716102 -0.26873273
-0.13871162 0.0051496178 -0.26873487
-0.1387085 0.0052275807 -0.26873502
-0.13870589 0.0053072795 -0.26872316
-0.13870279 0.0053871982 -0.26872128
-0.1386991 0.0054654218 -0.26873341
-0.13869627 0.0055432543 -0.26872757
-0.13869385 0.0056228694 -0.26871172
-0.13869086 0.0057027433 -0.26870781
-0.13868794 0.0057806186 -0.268704
-0.13868484 0.0058605373 -0.26870209
-0.13868134 0.0059386753 -0.26871026
-0.13867812 0.006016681 -0.2687124
-0.13867551 0.0060963817 -0.26870051
-0.13867262 0.0061762128 -0.26869464
-0.1386691 0.0062543508 -0.26870278
-0.13866569 0.0063324422 -0.26870894
-0.13866277 0.0064103184 -0.2687051
-0.13865988 0.0064901486 -0.26869923
-0.13865717 0.006569894 -0.26868933
-0.13865426 0.0066497251 -0.26868346
-0.13865106 0.0067277327 -0.26868561
-0.13864774 0.0068057831 -0.26868975
-0.13864465 0.0068856999 -0.26868787
-0.13864194 0.0069654444 -0.26867801
-0.13863902 0.0070433207 -0.26867417
-0.13863561 0.0071214149 -0.2686803
-0.1386324 0.0071994197 -0.26868248
-0.138629 0.0072794687 -0.26868656
-0.13862589 0.0073574297 -0.26868671
-0.1386227 0.0074373921 -0.26868683
-0.13861938 0.0075154426 -0.26869097
-0.13861637 0.0075933626 -0.26868916
-0.13861366 0.0076731071 -0.26867926
-0.13861024 0.0077512013 -0.2686854
-0.13860655 0.0078294249 -0.26869756
-0.13860393 0.0079071708 -0.26868773
-0.13860182 0.0079886084 -0.26866382
-0.13859899 0.0080664419 -0.26865798
-0.13859569 0.0081444904 -0.26866212
-0.1385925 0.0082244528 -0.26866224
-0.13858908 0.0083025452 -0.26866838
-0.13858567 0.0083806394 -0.26867455
-0.13858256 0.0084586013 -0.2686747
-0.13857965 0.0085384343 -0.26866883
-0.13857673 0.0086163105 -0.26866499
-0.13857384 0.0086961407 -0.26865909
-0.13857071 0.0087741045 -0.26865926
-0.13856742 0.0088541079 -0.26866135
-0.13856421 0.0089321155 -0.26866353
-0.13856129 0.0090099918 -0.26865968
-0.13855849 0.0090897791 -0.26865178
-0.13855577 0.0091675688 -0.26864398
-0.13855267 0.0092474855 -0.26864207
-0.13854975 0.0093253627 -0.26863822
-0.13854675 0.0094052376 -0.26863435
-0.13854364 0.0094832005 -0.2686345
-0.13854031 0.00956125 -0.26863867
-0.13853712 0.0096412124 -0.26863879
-0.1385341 0.0097191315 -0.26863694
-0.1385313 0.0097989198 -0.26862904
-0.13852857 0.0098767094 -0.26862121
-0.13852538 0.00995667 -0.26862133
-0.13852188 0.010034807 -0.26862949
-0.13851856 0.010112857 -0.26863363
-0.13851586 0.010192601 -0.26862374
-0.13851354 0.010272172 -0.26860589
-0.13851042 0.010350134 -0.26860604
-0.13850643 0.010428488 -0.26862419
-0.13850282 0.010506669 -0.26863432
-0.13850001 0.010584502 -0.26862848
-0.13849701 0.010664375 -0.2686246
-0.13849367 0.010740472 -0.2686308
-0.13849077 0.010820302 -0.2686249
-0.13848788 0.010900133 -0.26861903
-0.13848475 0.010978097 -0.26861918
-0.13848144 0.011056148 -0.26862335
-0.13847822 0.011134154 -0.2686255
-0.13847513 0.011214071 -0.26862359
-0.13847241 0.011291861 -0.26861578
-0.13846961 0.011371649 -0.26860788
-0.13846669 0.011449525 -0.26860404
-0.13846356 0.011527488 -0.26860422
-0.13846028 0.011607493 -0.26860631
-0.13845725 0.011685411 -0.26860446
-0.13845423 0.011763331 -0.26860264
-0.13845122 0.011841252 -0.26860079
-0.13844803 0.011921214 -0.26860091
-0.13844509 0.011999089 -0.26859707
-0.13844208 0.012077009 -0.26859522
-0.13843898 0.012156927 -0.26859334
-0.13843606 0.012234803 -0.2685895
-0.13843295 0.012312766 -0.26858965
-0.13842995 0.012392642 -0.26858577
-0.13842712 0.012470474 -0.26857993
-0.13842364 0.012550566 -0.26858604
-0.13842022 0.01262866 -0.26859218
-0.13841711 0.012706622 -0.26859236
-0.13841391 0.012784628 -0.2685945
-0.13841109 0.012864416 -0.26858661
-0.13840817 0.012942294 -0.26858279
-0.13840505 0.013020257 -0.26858294
-0.13840245 0.013099957 -0.26857105
-0.13839975 0.013179701 -0.26856118
-0.13839664 0.013257664 -0.26856133
-0.13839331 0.013335714 -0.26856548
-0.1383902 0.013413678 -0.26856565
-0.1383872 0.013493552 -0.26856178
-0.13838437 0.013571385 -0.26855594
-0.13838126 0.013649349 -0.26855609
-0.13837777 0.013729439 -0.2685622
-0.13837457 0.013807446 -0.26856434
-0.13837193 0.013885193 -0.26855451
-0.13836923 0.013964936 -0.26854464
-0.13836612 0.0140429 -0.26854479
-0.1383628 0.01412095 -0.26854894
-0.13835959 0.014198957 -0.26855111
-0.13835637 0.014276963 -0.26855326
-0.13835327 0.01435688 -0.26855135
-0.13835055 0.014434671 -0.26854354
-0.13834745 0.014514588 -0.26854163
-0.13834433 0.014592552 -0.26854181
-0.13834132 0.014670472 -0.26853997
-0.1383384 0.014748348 -0.26853612
-0.13833518 0.014826355 -0.2685383
-0.13833208 0.014906272 -0.26853639
-0.13832927 0.014984105 -0.26853055
-0.13832644 0.015061938 -0.26852471
-0.13832355 0.015141769 -0.26851884
-0.13832101 0.015219472 -0.268507
-0.13831791 0.015299389 -0.26850513
-0.13831441 0.015377526 -0.26851326
-0.13831139 0.015455446 -0.26851141
-0.13830836 0.015533366 -0.2685096
-0.13830525 0.01561133 -0.26850975
-0.13830206 0.015691292 -0.26850986
-0.13829894 0.015769254 -0.26851001
-0.13829602 0.015847132 -0.26850617
-0.13829312 0.015926961 -0.2685003
-0.13829009 0.016004881 -0.26849845
-0.13828698 0.016082846 -0.2684986
-0.13828416 0.016160678 -0.26849276
-0.13828136 0.016240465 -0.26848489
-0.13827825 0.016318429 -0.26848504
-0.13827512 0.016396392 -0.26848519
-0.13827184 0.016476396 -0.2684873
-0.13826871 0.016554359 -0.26848748
-0.13826589 0.016632192 -0.26848164
-0.1382629 0.016712066 -0.26847774
-0.13825978 0.016790029 -0.26847792
-0.13825646 0.016868081 -0.26848206
-0.13825345 0.016945999 -0.26848021
-0.13825053 0.017023876 -0.26847637
-0.13824752 0.01710375 -0.26847249
-0.1382447 0.017181583 -0.26846665
-0.13824159 0.017259547 -0.26846683
-0.13823828 0.017337598 -0.26847097
-0.13823526 0.017415516 -0.26846913
-0.13823226 0.017495392 -0.26846525
-0.13822915 0.017573355 -0.2684654
-0.13822623 0.01765123 -0.26846156
-0.13822339 0.017729063 -0.26845571
-0.1382203 0.017808981 -0.26845384
-0.13821729 0.017886901 -0.26845199
-0.13821456 0.017964691 -0.26844418
-0.13821165 0.018044522 -0.26843828
-0.13820884 0.018122356 -0.26843244
-0.13820581 0.018200275 -0.26843062
-0.13820259 0.018278282 -0.26843277
-0.13819958 0.0183562 -0.26843092
-0.13819638 0.018436162 -0.26843104
-0.13819288 0.018514298 -0.26843917
-0.13818966 0.018592305 -0.26844132
-0.13818665 0.018670226 -0.26843947
-0.13818353 0.018748188 -0.26843965
-0.13818063 0.018828019 -0.26843378
-0.1381781 0.018905723 -0.26842195
-0.13817537 0.018983513 -0.26841411
-0.13817237 0.019063387 -0.26841021
-0.13816915 0.019141393 -0.26841235
-0.13816585 0.019219443 -0.26841652
-0.13816263 0.019297451 -0.26841867
-0.13815971 0.019375326 -0.26841486
-0.13815671 0.019455202 -0.26841095
-0.1381539 0.019533034 -0.26840514
-0.13815078 0.019610997 -0.26840529
-0.13814776 0.019688917 -0.26840344
-0.13814476 0.019768791 -0.26839954
-0.13814184 0.019846667 -0.26839572
-0.13813852 0.019924717 -0.26839986
-0.13813491 0.020002898 -0.26841
-0.13813199 0.020080775 -0.26840615
-0.1381291 0.020160604 -0.26840028
-0.13812608 0.020238524 -0.26839846
-0.13812326 0.020316359 -0.26839262
-0.13812035 0.02039619 -0.26838672
-0.13811754 0.020474022 -0.26838088
-0.1381149 0.020551769 -0.26837108
-0.13811179 0.020629732 -0.26837122
-0.13810848 0.020707782 -0.26837537
-0.13810557 0.020787613 -0.2683695
-0.13810275 0.020865446 -0.26836365
-0.13809964 0.020943409 -0.2683638
-0.13809651 0.021021372 -0.26836398
-0.1380935 0.021099292 -0.26836213
-0.1380904 0.02117921 -0.26836026
-0.13808748 0.021257086 -0.26835638
-0.13808437 0.02133505 -0.26835656
-0.13808095 0.021413142 -0.2683627
-0.13807814 0.021490976 -0.26835686
-0.13807523 0.021570807 -0.26835099
-0.13807212 0.02164877 -0.26835114
-0.13806909 0.02172669 -0.26834932
-0.13806598 0.021804653 -0.26834947
-0.13806298 0.021884527 -0.26834559
-0.13806026 0.021962317 -0.26833776
-0.13805762 0.022040064 -0.26832792
-0.13805461 0.022117984 -0.26832607
-0.13805112 0.022198074 -0.26833218
-0.1380479 0.022276081 -0.26833433
-0.13804528 0.022353828 -0.26832449
-0.13804314 0.022431357 -0.26830471
-0.13804002 0.02250932 -0.26830485
-0.13803624 0.022589542 -0.26831692
-0.13803284 0.022667635 -0.26832309
-0.13803001 0.022745468 -0.26831725
-0.13802719 0.0228233 -0.26831141
-0.13802427 0.022901177 -0.26830757
-0.13802117 0.022981094 -0.26830569
-0.13801806 0.023059059 -0.26830584
-0.13801494 0.023137022 -0.26830602
-0.13801201 0.023214897 -0.26830217
-0.13800919 0.023292731 -0.26829633
-0.1380062 0.023372605 -0.26829246
-0.13800298 0.023450611 -0.2682946
-0.13799995 0.023528531 -0.26829275
-0.13799733 0.023606278 -0.26828295
-0.13799411 0.023684286 -0.2682851
-0.13799083 0.02376429 -0.26828718
-0.13798819 0.023842035 -0.26827735
-0.13798527 0.023919912 -0.26827353
-0.13798186 0.023998005 -0.26827967
-0.13797855 0.024076056 -0.26828384
-0.13797556 0.02415593 -0.26827994
-0.13797273 0.024233762 -0.26827413
-0.13796991 0.024311597 -0.26826829
-0.13796738 0.024389299 -0.26825646
-0.13796446 0.024467174 -0.26825261
-0.13796127 0.024547137 -0.26825273
-0.13795815 0.0246251 -0.26825288
-0.13795494 0.024703106 -0.26825503
-0.13795175 0.024783067 -0.26825514
-0.13794872 0.024860987 -0.2682533
-0.1379458 0.024938863 -0.26824945
-0.13794288 0.02501674 -0.26824564
-0.13794015 0.02509453 -0.2682378
-0.13793705 0.025174446 -0.26823589
-0.13793375 0.025252497 -0.26824003
-0.13793072 0.025330417 -0.26823822
-0.1379279 0.025408249 -0.26823238
-0.1379247 0.025488211 -0.26823249
-0.13792178 0.025566088 -0.26822865
-0.13791907 0.025643878 -0.26822081
-0.13791594 0.025721841 -0.26822096
-0.13791282 0.025799803 -0.26822114
-0.13790953 0.025879808 -0.26822323
-0.13790642 0.025957771 -0.2682234
-0.13790341 0.026035693 -0.26822156
-0.13790038 0.026113611 -0.26821971
-0.13789736 0.026191531 -0.26821786
-0.13789408 0.026271535 -0.26821998
-0.13789067 0.02634963 -0.26822612
-0.13788784 0.026427463 -0.26822031
-0.13788521 0.02650521 -0.26821047
-0.13788249 0.026582997 -0.26820263
-0.13787958 0.026662828 -0.26819676
-0.13787647 0.026740793 -0.26819691
-0.13787335 0.026818756 -0.26819706
-0.13787043 0.026896631 -0.26819322
-0.13786753 0.026976462 -0.26818734
-0.1378646 0.02705434 -0.2681835
-0.13786188 0.027132129 -0.26817566
-0.13785887 0.027210049 -0.26817384
-0.13785519 0.027290227 -0.26818395
-0.13785207 0.02736819 -0.2681841
-0.13784993 0.027445719 -0.26816428
-0.13784739 0.027523423 -0.26815245
-0.13784398 0.027601516 -0.26815858
-0.1378406 0.027681563 -0.2681627
-0.13783757 0.027759483 -0.26816085
-0.13783427 0.027837534 -0.26816499
-0.13783135 0.027915411 -0.26816118
-0.13782862 0.027993198 -0.26815334
-0.13782562 0.028073074 -0.26814944
-0.13782251 0.028151037 -0.26814961
-0.13781948 0.028228957 -0.26814777
-0.13781667 0.02830679 -0.26814193
-0.13781384 0.028384622 -0.26813608
-0.13781103 0.02846441 -0.26812822
-0.13780801 0.02854233 -0.26812637
-0.1378047 0.028620381 -0.26813054
-0.13780159 0.028698344 -0.26813069
-0.13779867 0.028776221 -0.26812685
-0.13779557 0.028856138 -0.26812497
-0.13779235 0.028934143 -0.26812711
-0.13778916 0.029014107 -0.2681272
-0.13778594 0.029092113 -0.26812938
-0.13778293 0.029170033 -0.26812753
-0.1377804 0.029247735 -0.2681157
-0.13777758 0.029325567 -0.26810986
-0.13777429 0.029405572 -0.26811197
-0.13777088 0.029483667 -0.26811814
-0.13776737 0.029561803 -0.26812628
-0.13776408 0.029641807 -0.2681284
-0.13776144 0.029719554 -0.26811856
-0.13775891 0.029797256 -0.26810673
-0.1377559 0.029875176 -0.26810488
-0.13775279 0.029953141 -0.26810503
-0.13774988 0.03003297 -0.26809916
-0.13774715 0.03011076 -0.26809132
-0.13774393 0.030188767 -0.26809347
-0.13774045 0.030268859 -0.26809961
-0.13773753 0.030346734 -0.26809573
-0.1377351 0.030424394 -0.26808193
-0.13773209 0.030502314 -0.26808009
-0.13772839 0.030582491 -0.26809019
-0.13772509 0.030660542 -0.26809433
-0.13772227 0.030738376 -0.26808849
-0.13771974 0.030816078 -0.26807666
-0.13771701 0.030893868 -0.26806885
-0.13771391 0.030973785 -0.26806694
-0.1377109 0.031051705 -0.26806509
-0.13770777 0.031129669 -0.26806527
-0.13770495 0.031207502 -0.26805943
-0.13770233 0.031285249 -0.2680496
-0.13769923 0.031365164 -0.26804772
-0.13769571 0.031443302 -0.26805586
-0.13769221 0.03152144 -0.26806399
-0.1376895 0.031601183 -0.26805413
-0.13768715 0.031676844 -0.26804036
-0.13768435 0.031756632 -0.26803249
-0.13768114 0.03183464 -0.26803464
-0.13767716 0.031914949 -0.2680507
-0.1376728 0.031995431 -0.26807478
-0.13766958 0.032073434 -0.26807696
-0.13766667 0.032153264 -0.26807106
-0.13766412 0.032229014 -0.26806128
-0.1376615 0.032306761 -0.26805145
-0.13765936 0.032384291 -0.26803163
-0.13765693 0.032461949 -0.26801783
-0.13765383 0.032541867 -0.26801592
-0.13765147 0.032617532 -0.26800215
-0.13764924 0.032695103 -0.26798433
-0.13764632 0.032772981 -0.26798049
-0.13764234 0.032853287 -0.26799658
-0.13763836 0.032933597 -0.26801267
-0.13763525 0.033011556 -0.26801282
-0.1376332 0.033089042 -0.26799101
-0.13763048 0.033166833 -0.26798317
-0.13762796 0.033244535 -0.26797134
-0.13762592 0.033322021 -0.26794955
-0.13762358 0.033399638 -0.26793373
-0.13762017 0.033477731 -0.26793987
-0.13761638 0.033557951 -0.26795197
-0.1376128 0.03363809 -0.26796007
-0.13760997 0.033715922 -0.26795423
-0.13760716 0.033793755 -0.26794839
-0.13760374 0.033871848 -0.26795453
-0.13760036 0.033951893 -0.26795864
-0.13759704 0.034029946 -0.26796278
-0.13759375 0.03410995 -0.2679649
-0.13759044 0.034188002 -0.26796904
-0.13758695 0.034268092 -0.26797515
-0.13758394 0.034346011 -0.2679733
-0.1375815 0.034423672 -0.26795948
-0.13757868 0.034501504 -0.26795366
-0.13757509 0.034581639 -0.26796174
-0.13757178 0.034659687 -0.26796591
-0.13756868 0.034739606 -0.26796401
-0.13756567 0.034817524 -0.26796216
-0.13756275 0.034895401 -0.26795834
-0.13755974 0.034975275 -0.26795444
-0.13755682 0.035053153 -0.26795059
-0.13755381 0.035131074 -0.26794878
-0.1375507 0.035209037 -0.26794893
-0.13754769 0.035288911 -0.26794505
-0.13754477 0.035366789 -0.26794121
-0.13754185 0.035444662 -0.26793736
-0.13753892 0.035522539 -0.26793352
-0.13753593 0.035602413 -0.26792964
-0.13753282 0.035680376 -0.26792979
-0.13752963 0.035760339 -0.26792991
-0.13752641 0.035838343 -0.26793206
-0.13752301 0.035918392 -0.26793617
-0.1375199 0.035996355 -0.26793632
-0.13751717 0.036074147 -0.26792848
-0.13751444 0.036151938 -0.26792067
-0.13751152 0.036229812 -0.26791683
-0.13750824 0.036309816 -0.26791891
-0.13750511 0.036387779 -0.26791909
-0.13750203 0.036467697 -0.26791722
-0.1374992 0.03654553 -0.26791137
-0.13749608 0.036623493 -0.26791152
-0.13749135 0.036706105 -0.26794153
-0.13748565 0.036791101 -0.26798949
-0.13748083 0.036873758 -0.26802149
-0.13747494 0.036958843 -0.26807344
-0.13746721 0.037046708 -0.2681613
-0.13943085 -0.0020797253 -0.26883292
-0.13942744 -0.0020016339 -0.26883906
-0.13942352 -0.0019252766 -0.26885724
-0.1394203 -0.0018472727 -0.26885942
-0.13941731 -0.0017673988 -0.26885551
-0.13941388 -0.0016912594 -0.26886371
-0.13941067 -0.001611298 -0.26886383
-0.13940829 -0.0015297271 -0.26884592
-0.13940597 -0.0014501587 -0.26882803
-0.13940319 -0.0013684146 -0.26881811
-0.13940017 -0.0012904946 -0.26881629
-0.13939667 -0.0012123585 -0.26882443
-0.13939315 -0.0011342224 -0.26883256
-0.13939026 -0.0010543931 -0.26882669
-0.13938725 -0.00097451732 -0.26882282
-0.13938363 -0.00089829229 -0.26883501
-0.13937981 -0.00082197972 -0.26885116
-0.13937652 -0.00074197538 -0.26885328
-0.13937341 -0.00066401064 -0.26885343
-0.1393705 -0.00058417954 -0.26884755
-0.13936798 -0.00050452352 -0.2688337
-0.1393653 -0.00042282231 -0.26882178
-0.1393625 -0.00034303777 -0.26881391
-0.13935958 -0.00026516244 -0.26881003
-0.13935617 -0.00018706731 -0.2688162
-0.13935275 -0.00010897405 -0.26882234
-0.13934948 -2.8967857e-05 -0.26882446
-0.13934666 5.0818548e-05 -0.26881656
-0.13934326 0.00012891181 -0.26882273
-0.13933975 0.00020704791 -0.26883087
-0.13933693 0.00028488226 -0.26882502
-0.13933395 0.00036671199 -0.26881909
-0.13933073 0.00044471957 -0.26882127
-0.13932751 0.00052272528 -0.26882342
-0.13932502 0.00060433522 -0.2688075
-0.13932241 0.0006840378 -0.26879561
-0.13931942 0.00076391175 -0.26879174
-0.1393166 0.00084174424 -0.26878589
-0.1393134 0.00092170574 -0.26878601
-0.13931029 0.00099967048 -0.26878619
-0.13930659 0.0010778941 -0.26879832
-0.13930257 0.0011542924 -0.2688185
-0.13929906 0.0012324285 -0.26882663
-0.13929646 0.0013121311 -0.26881477
-0.13929425 0.0013936106 -0.26879287
-0.13929175 0.0014732685 -0.26877898
-0.13928826 0.0015533585 -0.26878509
-0.13928504 0.0016313661 -0.26878724
-0.13928223 0.0017091986 -0.26878139
-0.13927953 0.0017908998 -0.26876947
-0.13927692 0.0018705986 -0.26875761
-0.13927352 0.0019486919 -0.26876378
-0.13926941 0.0020251349 -0.26878592
-0.13926597 0.0021012742 -0.26879412
-0.13926297 0.0021811463 -0.26879025
-0.13926007 0.0022609793 -0.26878434
-0.13925707 0.0023408532 -0.26878047
-0.13925385 0.0024188608 -0.26878262
-0.13925055 0.0024969094 -0.26878679
-0.13924725 0.0025769137 -0.26878887
-0.13924414 0.0026548784 -0.26878905
-0.13924095 0.0027348399 -0.26878914
-0.13923812 0.0028126724 -0.26878333
-0.13923542 0.002892416 -0.26877344
-0.13923283 0.0029740706 -0.26875952
-0.13923001 0.003051905 -0.26875371
-0.13922672 0.0031319074 -0.26875579
-0.13922369 0.0032098275 -0.26875395
-0.13922048 0.003287835 -0.26875609
-0.13921678 0.0033660587 -0.26876825
-0.13921347 0.0034441091 -0.26877239
-0.13921066 0.0035238974 -0.26876453
-0.13920757 0.0036038142 -0.26876262
-0.13920406 0.0036819503 -0.26877078
-0.13920075 0.0037600007 -0.26877493
-0.13919795 0.0038397871 -0.26876706
-0.13919483 0.0039177518 -0.26876721
-0.13919184 0.0039976276 -0.26876333
-0.13918942 0.004077239 -0.26874745
-0.13918632 0.0041571576 -0.26874557
-0.13918261 0.0042353831 -0.2687577
-0.13917911 0.0043135192 -0.26876587
-0.139176 0.0043914821 -0.26876602
-0.13917278 0.0044694897 -0.26876816
-0.13916928 0.0045476258 -0.2687763
-0.13916637 0.0046274569 -0.26877043
-0.13916406 0.0047070254 -0.26875255
-0.13916115 0.0047868583 -0.26874667
-0.13915774 0.0048649516 -0.26875281
-0.13915485 0.0049447808 -0.26874694
-0.13915233 0.0050244406 -0.26873308
-0.13914973 0.0051041413 -0.26872122
-0.13914661 0.0051821023 -0.26872134
-0.13914281 0.0052603707 -0.2687355
-0.13913909 0.0053366404 -0.26874968
-0.1391359 0.0054166 -0.26874977
-0.13913299 0.0054964311 -0.2687439
-0.13912977 0.0055744369 -0.26874608
-0.13912615 0.0056506619 -0.26875824
-0.13912286 0.0057306681 -0.26876035
-0.13912016 0.0058104116 -0.26875049
-0.13911714 0.0058883317 -0.26874864
-0.13911395 0.0059682932 -0.26874876
-0.13911131 0.00604604 -0.26873893
-0.13910861 0.0061257854 -0.26872903
-0.13910532 0.0062057888 -0.26873115
-0.13910149 0.0062821005 -0.26874733
-0.1390983 0.0063620629 -0.26874745
-0.13909608 0.0064415894 -0.26872757
-0.13909318 0.0065214187 -0.2687217
-0.13908987 0.0065994691 -0.26872584
-0.13908637 0.0066776061 -0.26873401
-0.13908306 0.0067556566 -0.26873815
-0.13908035 0.0068354011 -0.26872826
-0.13907754 0.0069151893 -0.26872039
-0.13907433 0.0069931969 -0.26872253
-0.13907102 0.0070712455 -0.26872671
-0.13906771 0.007149295 -0.26873085
-0.13906442 0.0072293002 -0.26873296
-0.1390612 0.0073073078 -0.26873511
-0.13905817 0.007385226 -0.26873326
-0.13905549 0.0074669244 -0.26872134
-0.13905306 0.0075445836 -0.26870751
-0.13905016 0.0076244157 -0.26870164
-0.13904715 0.0077023357 -0.2686998
-0.13904405 0.0077822544 -0.26869792
-0.13904093 0.0078602172 -0.26869807
-0.13903742 0.0079383533 -0.2687062
-0.139034 0.0080164466 -0.26871237
-0.13903081 0.0080964081 -0.26871246
-0.13902789 0.0081742844 -0.26870865
-0.13902509 0.0082540717 -0.26870075
-0.13902248 0.0083337724 -0.26868889
-0.13901946 0.0084116925 -0.26868704
-0.13901615 0.0084897419 -0.26869118
-0.13901354 0.0085694436 -0.26867932
-0.13901064 0.0086492747 -0.26867342
-0.13900724 0.008727368 -0.26867959
-0.1390038 0.0088035064 -0.26868778
-0.1390001 0.00888173 -0.26869991
-0.13899691 0.0089616915 -0.26870003
-0.13899419 0.0090394802 -0.2686922
-0.13899098 0.0091194417 -0.26869231
-0.13898787 0.0091974055 -0.26869246
-0.13898487 0.0092772804 -0.26868859
-0.13898154 0.0093533751 -0.26869476
-0.13897835 0.0094333366 -0.26869488
-0.13897543 0.0095112128 -0.26869106
-0.13897233 0.0095911305 -0.26868916
-0.13896942 0.0096709616 -0.26868328
-0.1389665 0.0097488379 -0.26867944
