# .PCD v0.7 - Point Cloud Data file format
VERSION 0.7
FIELDS x y z
SIZE 4 4 4
TYPE F F F
COUNT 1 1 1
WIDTH 1270
HEIGHT 1
VIEWPOINT 0 0 0 1 0 0 0
POINTS 1270
DATA ascii
-0.018879235 -0.050801218 -0.24212563
-0.018876513 -0.050733246 -0.24212602
-0.018873988 -0.050665356 -0.24212241
-0.018871266 -0.050597385 -0.24212281
-0.018868154 -0.050529238 -0.24213119
-0.018865511 -0.050463259 -0.24213162
-0.018862789 -0.050395288 -0.24213201
-0.018860165 -0.050327357 -0.2421304
-0.018857835 -0.050259557 -0.2421228
-0.018855114 -0.050191581 -0.2421232
-0.018852666 -0.050125692 -0.24211964
-0.01885014 -0.050057806 -0.24211603
-0.01884732 -0.04998979 -0.24211842
-0.018844502 -0.049921773 -0.2421208
-0.018841976 -0.049853884 -0.2421172
-0.01883943 -0.049787953 -0.24211565
-0.018836709 -0.049719978 -0.24211603
-0.018833987 -0.049652006 -0.24211642
-0.018831462 -0.049584121 -0.24211282
-0.018828839 -0.049516186 -0.24211122
-0.018826116 -0.049448214 -0.24211159
-0.018823765 -0.049382366 -0.24210605
-0.018820751 -0.049314264 -0.24211243
-0.018817563 -0.049244121 -0.24212077
-0.01881492 -0.049178142 -0.2421212
-0.018812491 -0.049110301 -0.2421156
-0.018810257 -0.049042545 -0.24210601
-0.018808199 -0.048976827 -0.24209446
-0.018805673 -0.048908941 -0.24209085
-0.018802756 -0.04884088 -0.24209525
-0.018799938 -0.048772864 -0.24209763
-0.018796925 -0.048704758 -0.24210402
-0.018793616 -0.048636526 -0.24211639
-0.0187908 -0.048568506 -0.24211878
-0.018788468 -0.048500709 -0.24211118
-0.018786117 -0.048434861 -0.24210562
-0.018783493 -0.04836693 -0.24210401
-0.018780772 -0.048298955 -0.24210441
-0.018777857 -0.048230894 -0.24210879
-0.018775135 -0.048162922 -0.24210918
-0.018772785 -0.048097078 -0.24210364
-0.018770259 -0.048029192 -0.24210002
-0.018767243 -0.047961086 -0.24210641
-0.018764522 -0.047893114 -0.2421068
-0.018762192 -0.047825314 -0.2420992
-0.018759938 -0.047759511 -0.24209166
-0.018757042 -0.047689494 -0.24209398
-0.018754009 -0.047623344 -0.24210241
-0.01875121 -0.047553375 -0.24210274
-0.01874876 -0.047487482 -0.2420992
-0.018746041 -0.047419511 -0.24209958
-0.018743221 -0.047351494 -0.24210197
-0.018740598 -0.047283564 -0.24210036
-0.01873778 -0.047215544 -0.24210274
-0.018735254 -0.047147658 -0.24209914
-0.018733 -0.047081858 -0.2420916
-0.018730279 -0.047013883 -0.24209198
-0.018727362 -0.046945821 -0.24209636
-0.018724836 -0.046877936 -0.24209276
-0.018722506 -0.046810135 -0.24208516
-0.018719861 -0.04674416 -0.24208561
-0.018716771 -0.046674058 -0.24209194
-0.018713757 -0.046605952 -0.24209832
-0.018711036 -0.04653798 -0.24209872
-0.018708587 -0.046472091 -0.24209514
-0.018705865 -0.046404116 -0.24209556
-0.018703047 -0.0463361 -0.24209793
-0.018700521 -0.04626821 -0.24209432
-0.018698093 -0.046200369 -0.24208874
-0.018695274 -0.046132348 -0.24209112
-0.018692357 -0.046064291 -0.2420955
-0.018689832 -0.045996405 -0.24209189
-0.018687382 -0.045930512 -0.24208833
-0.01868476 -0.045862585 -0.24208674
-0.018682234 -0.045794696 -0.24208313
-0.01867961 -0.045726769 -0.24208152
-0.018676596 -0.045658663 -0.2420879
-0.018673874 -0.045590688 -0.24208829
-0.018671056 -0.045522671 -0.24209067
-0.018668706 -0.045456827 -0.24208513
-0.018666863 -0.045389242 -0.24206755
-0.018664511 -0.045323398 -0.24206199
-0.018661693 -0.045255382 -0.24206439
-0.018658971 -0.045187406 -0.24206476
-0.01865625 -0.045119435 -0.24206516
-0.018653041 -0.045051243 -0.24207553
-0.018649755 -0.044981055 -0.24208586
-0.018647131 -0.044913121 -0.24208425
-0.018645171 -0.044847451 -0.2420707
-0.018642839 -0.044779651 -0.24206311
-0.018639825 -0.044711545 -0.2420695
-0.018636715 -0.044643398 -0.24207787
-0.018634092 -0.044575468 -0.24207626
-0.018632131 -0.044509798 -0.24206272
-0.018630365 -0.044444211 -0.24204519
-0.018627644 -0.044376239 -0.24204558
-0.018624552 -0.044306137 -0.24205191
-0.018621538 -0.044238031 -0.24205829
-0.018619284 -0.044172227 -0.24205074
-0.018617149 -0.044104517 -0.24203914
-0.0186147 -0.044038627 -0.2420356
-0.018611707 -0.043968569 -0.24203992
-0.018609161 -0.043902636 -0.24203837
-0.018606536 -0.043834705 -0.24203676
-0.018603817 -0.043766733 -0.24203715
-0.018601095 -0.043698758 -0.24203755
-0.018598471 -0.043630827 -0.24203594
-0.018595945 -0.043562941 -0.24203232
-0.018593028 -0.04349488 -0.24203672
-0.018590502 -0.043426994 -0.24203311
-0.018588737 -0.04336141 -0.24201557
-0.018586777 -0.043295737 -0.24200204
-0.0185831 -0.043225374 -0.24202035
-0.01857952 -0.043155055 -0.24203667
-0.018577266 -0.043089252 -0.24202912
-0.018574839 -0.043021411 -0.24202351
-0.01857163 -0.042953219 -0.2420339
-0.018569104 -0.042885333 -0.24203029
-0.018567143 -0.04281966 -0.24201675
-0.01856491 -0.042751905 -0.24200715
-0.018562384 -0.042684019 -0.24200356
-0.018559078 -0.042615782 -0.24201593
-0.018555675 -0.042547502 -0.24203029
-0.018552776 -0.042477489 -0.24203263
-0.018550524 -0.042411685 -0.24202508
-0.018547999 -0.042343799 -0.24202147
-0.018545082 -0.042275738 -0.24202585
-0.01854312 -0.042210065 -0.24201232
-0.018541258 -0.04214444 -0.24199677
-0.018538926 -0.04207664 -0.2419892
-0.018536303 -0.042008709 -0.24198759
-0.018533485 -0.041940693 -0.24198997
-0.018531132 -0.041874845 -0.24198441
-0.018528705 -0.041807003 -0.24197879
-0.01852493 -0.041736595 -0.24199912
-0.01852145 -0.041666321 -0.24201344
-0.018518902 -0.041600388 -0.24201187
-0.018516768 -0.041532673 -0.24200028
-0.01851471 -0.041466959 -0.24198875
-0.018512379 -0.041399159 -0.24198115
-0.018509755 -0.041331232 -0.24197954
-0.018507209 -0.041265294 -0.24197797
-0.018504877 -0.041197497 -0.24197038
-0.018502526 -0.041131653 -0.24196482
-0.018500196 -0.041063853 -0.24195722
-0.018497474 -0.040995877 -0.24195762
-0.018493701 -0.040925473 -0.24197793
-0.018490395 -0.040857237 -0.2419903
-0.018488063 -0.040789437 -0.2419827
-0.018485712 -0.040723592 -0.24197716
-0.018482719 -0.040653534 -0.24198149
-0.018479705 -0.040585428 -0.24198787
-0.018476691 -0.040517323 -0.24199426
-0.018474262 -0.040449478 -0.24198866
-0.0184724 -0.040383853 -0.24197312
-0.018470068 -0.040316053 -0.24196552
-0.018467521 -0.040250119 -0.24196395
-0.018464996 -0.040182233 -0.24196035
-0.018462177 -0.040114217 -0.24196273
-0.018459164 -0.040046111 -0.24196911
-0.018456833 -0.03997831 -0.24196151
-0.018453721 -0.039910167 -0.2419699
-0.018450044 -0.0398398 -0.24198821
-0.018447813 -0.039772041 -0.24197862
-0.018447079 -0.039710842 -0.24194321
-0.01844541 -0.039645307 -0.24192366
-0.018441733 -0.039574943 -0.24194199
-0.018438525 -0.039506752 -0.24195236
-0.018435629 -0.039436735 -0.24195471
-0.018432615 -0.039368629 -0.24196109
-0.018429894 -0.039300658 -0.24196148
-0.018427271 -0.039232727 -0.24195987
-0.018424822 -0.039166838 -0.24195631
-0.018422492 -0.039099038 -0.24194872
-0.018419944 -0.039033107 -0.24194714
-0.018416755 -0.03896296 -0.24195549
-0.018413741 -0.038894854 -0.24196187
-0.018411215 -0.038826969 -0.24195826
-0.018408496 -0.038758993 -0.24195865
-0.018405579 -0.038690932 -0.24196303
-0.018402858 -0.03862296 -0.24196343
-0.018400136 -0.038554989 -0.2419638
-0.018397395 -0.038488969 -0.24196625
-0.018395454 -0.03842134 -0.24195066
-0.018393766 -0.038357757 -0.24193317
-0.018390577 -0.03828761 -0.24194151
-0.018387856 -0.038219638 -0.2419419
-0.018385505 -0.03815379 -0.24193634
-0.018383175 -0.03808599 -0.24192874
-0.018380627 -0.038020059 -0.24192718
-0.018377636 -0.037949998 -0.24193153
-0.01837462 -0.037881896 -0.24193791
-0.018372074 -0.037815962 -0.24193634
-0.018369548 -0.037748076 -0.24193275
-0.018366631 -0.037680015 -0.24193713
-0.018364009 -0.037612084 -0.24193552
-0.018361775 -0.037544325 -0.24192593
-0.018358761 -0.037476223 -0.2419323
-0.01835604 -0.037408248 -0.24193269
-0.018353689 -0.037342403 -0.24192715
-0.018350501 -0.03727226 -0.24193548
-0.018347681 -0.03720424 -0.24193786
-0.018345233 -0.037138354 -0.2419343
-0.01834261 -0.037070423 -0.24193269
-0.018339595 -0.037002318 -0.24193907
-0.018336874 -0.036934346 -0.24193947
-0.018334251 -0.036866412 -0.24193786
-0.01833153 -0.03679844 -0.24193825
-0.018328711 -0.036730424 -0.24194065
-0.018326262 -0.036664531 -0.24193707
-0.018323639 -0.036596604 -0.24193548
-0.018321112 -0.036528714 -0.24193187
-0.01831962 -0.036465216 -0.24191038
-0.018317953 -0.036399674 -0.24189085
-0.018316263 -0.036336087 -0.24187335
-0.018314302 -0.036270417 -0.24185982
-0.018311016 -0.036200225 -0.24187015
-0.018307243 -0.036129821 -0.24189046
-0.018304326 -0.03606176 -0.24189484
-0.018301312 -0.035993658 -0.24190123
-0.018297927 -0.035923421 -0.24191356
-0.018295303 -0.035855491 -0.24191195
-0.018293247 -0.03578978 -0.24190041
-0.018291285 -0.035724103 -0.24188685
-0.01828989 -0.035660651 -0.24186337
-0.018287636 -0.035594847 -0.24185583
-0.018284252 -0.035524614 -0.24186815
-0.018281335 -0.035456553 -0.24187253
-0.01827918 -0.035390798 -0.24186298
-0.018277511 -0.035325255 -0.24184346
-0.018276116 -0.035261799 -0.24181998
-0.018274426 -0.035198212 -0.24180248
-0.018271044 -0.035127982 -0.24181481
-0.018266432 -0.035053272 -0.24184901
-0.018261995 -0.03498061 -0.24188127
-0.018258318 -0.034910247 -0.24189958
-0.018255871 -0.034844354 -0.24189603
-0.018253539 -0.034776554 -0.24188843
-0.018250253 -0.034706369 -0.24189875
-0.018247239 -0.034638263 -0.24190514
-0.018245082 -0.034572504 -0.24189559
-0.018242927 -0.034506746 -0.24188603
-0.019586526 -0.067391202 -0.2411589
-0.019583687 -0.067325138 -0.24116334
-0.019581553 -0.067257427 -0.24115175
-0.019580197 -0.067190059 -0.24112417
-0.01957896 -0.067120783 -0.24109256
-0.019576825 -0.067053072 -0.24108097
-0.019573595 -0.066986836 -0.2410934
-0.01957095 -0.066920862 -0.24109383
-0.019569304 -0.066853367 -0.24107225
-0.019567071 -0.066785604 -0.24106264
-0.019563157 -0.066719063 -0.24108905
-0.019559009 -0.066656344 -0.24112353
-0.019555779 -0.066590108 -0.24113595
-0.019552961 -0.066522092 -0.24113834
-0.01955012 -0.066456027 -0.24114278
-0.019547086 -0.066389881 -0.24115121
-0.019544365 -0.066321902 -0.2411516
-0.01954131 -0.066257708 -0.24116206
-0.019538101 -0.06618952 -0.24117243
-0.019534871 -0.066123284 -0.24118486
-0.019531036 -0.06605874 -0.24121131
-0.019527417 -0.065992326 -0.24123171
-0.019524382 -0.065926179 -0.24124014
-0.019521054 -0.065859899 -0.24125457
-0.019517513 -0.065795489 -0.24127501
-0.019513795 -0.065729029 -0.24129742
-0.01950998 -0.065662533 -0.24132183
-0.019505462 -0.065597683 -0.24136224
-0.019500455 -0.065532625 -0.24141267
-0.019495741 -0.065467685 -0.24145709
-0.019491613 -0.065403014 -0.24148953
-0.019487483 -0.065338343 -0.24152197
-0.019482985 -0.065271541 -0.24156034
-0.019478761 -0.065206826 -0.24159479
-0.019474555 -0.06514015 -0.24162719
-0.019469937 -0.065075256 -0.2416696
-0.019464228 -0.065011844 -0.24173604
-0.01945883 -0.064946607 -0.24179444
-0.01945441 -0.064881802 -0.24183288
-0.019448623 -0.064816393 -0.24189925
-0.019439554 -0.064755403 -0.24203768
-0.019430701 -0.064692557 -0.2421701
-0.019425303 -0.06462732 -0.24222848
-0.019422268 -0.064561166 -0.24223691
-0.019419352 -0.064493105 -0.24224129
-0.019416317 -0.064426959 -0.24224973
-0.019413304 -0.064358853 -0.2422561
-0.019410269 -0.064292699 -0.24226454
-0.019407548 -0.064224727 -0.24226493
-0.019405607 -0.064157099 -0.24224934
-0.019401696 -0.064090557 -0.24227574
-0.019396981 -0.064025626 -0.24232015
-0.019393263 -0.063959174 -0.24234256
-0.019390151 -0.063891023 -0.24235094
-0.019387119 -0.063824877 -0.24235937
-0.019384298 -0.063756853 -0.24236175
-0.019381676 -0.063688926 -0.24236014
-0.01937915 -0.063621037 -0.24235654
-0.019376623 -0.063553154 -0.24235293
-0.019374369 -0.063487351 -0.24234539
-0.019371843 -0.063419461 -0.24234179
-0.01936922 -0.063351534 -0.24234018
-0.019366499 -0.063283563 -0.24234056
-0.019363778 -0.063215584 -0.24234095
-0.019361036 -0.063149564 -0.2423434
-0.019358411 -0.063081637 -0.24234179
-0.019355398 -0.063013531 -0.24234816
-0.019352363 -0.062947378 -0.2423566
-0.019349838 -0.062879495 -0.24235299
-0.019347604 -0.06281174 -0.2423434
-0.019345079 -0.06274385 -0.24233979
-0.019342357 -0.062675878 -0.24234018
-0.019339908 -0.062609985 -0.24233662
-0.019337481 -0.062542148 -0.24233103
-0.019334856 -0.062474214 -0.24232942
-0.019332038 -0.062406197 -0.2423318
-0.019329393 -0.062340222 -0.24233225
-0.019326771 -0.062272292 -0.24233064
-0.019324441 -0.062204491 -0.24232304
-0.019322304 -0.062136777 -0.24231145
-0.019319875 -0.062068935 -0.24230585
-0.01931696 -0.062000874 -0.24231023
-0.019314023 -0.061934769 -0.24231665
-0.019311398 -0.061866838 -0.24231505
-0.019309068 -0.061799038 -0.24230745
-0.01930625 -0.061731018 -0.24230984
-0.019303411 -0.061664958 -0.24231426
-0.019300884 -0.061597072 -0.24231067
-0.019298162 -0.061529096 -0.24231105
-0.019295832 -0.061461296 -0.24230346
-0.019293306 -0.06139341 -0.24229985
-0.019290468 -0.061327346 -0.2423043
-0.019287843 -0.061259419 -0.24230269
-0.019285414 -0.061191574 -0.24229707
-0.019283084 -0.061123773 -0.24228948
-0.019280558 -0.061055887 -0.24228588
-0.019278109 -0.060989998 -0.24228232
-0.01927568 -0.060922153 -0.24227671
-0.019273058 -0.060854223 -0.2422751
-0.019270023 -0.060788073 -0.24228352
-0.019267205 -0.060720056 -0.24228591
-0.019264972 -0.060652301 -0.24227633
-0.01926264 -0.0605845 -0.24226873
-0.019259801 -0.060518436 -0.24227315
-0.019256691 -0.060450289 -0.24228153
-0.019253774 -0.060382228 -0.24228592
-0.019251032 -0.060316209 -0.24228835
-0.019248407 -0.060248278 -0.24228674
-0.019245978 -0.060180437 -0.24228115
-0.019243551 -0.060112592 -0.24227555
-0.019241221 -0.060044792 -0.24226794
-0.019238869 -0.059978947 -0.24226239
-0.019236343 -0.059911061 -0.24225879
-0.01923372 -0.05984313 -0.24225718
-0.0192309 -0.059775114 -0.24225956
-0.019228159 -0.059709094 -0.24226201
-0.019225437 -0.059641119 -0.24226239
-0.019222522 -0.059573058 -0.24226677
-0.019219801 -0.059505083 -0.24226716
-0.019217156 -0.059439108 -0.24226761
-0.01921463 -0.059371222 -0.242264
-0.019212104 -0.059303336 -0.2422604
-0.019209461 -0.059237357 -0.24226083
-0.019206641 -0.059169341 -0.24226323
-0.01920392 -0.059101369 -0.24226362
-0.019201394 -0.05903348 -0.24226001
-0.019198751 -0.058967505 -0.24226044
-0.019195737 -0.058899403 -0.24226683
-0.019193308 -0.058831558 -0.24226123
-0.019191271 -0.058763888 -0.24224764
-0.019188842 -0.058696043 -0.24224204
-0.0191861 -0.058630023 -0.24224448
-0.019183282 -0.058562007 -0.24224685
-0.01918056 -0.058494035 -0.24224725
-0.019177917 -0.058428057 -0.24224767
-0.019175293 -0.058360126 -0.24224608
-0.019172864 -0.058292285 -0.24224047
-0.019170241 -0.058224354 -0.24223886
-0.019167792 -0.058158465 -0.2422353
-0.01916546 -0.058090664 -0.24222772
-0.019162741 -0.058022693 -0.24222809
-0.019159921 -0.057954673 -0.24223049
-0.01915757 -0.057888828 -0.24222493
-0.019155044 -0.057820942 -0.24222134
-0.019152224 -0.057752922 -0.24222372
-0.01914921 -0.05768482 -0.24223009
-0.019146957 -0.057619017 -0.24222255
-0.019144626 -0.057551216 -0.24221495
-0.019142101 -0.05748333 -0.24221134
-0.019139867 -0.057415575 -0.24220175
-0.01913771 -0.057349816 -0.24219221
-0.019134795 -0.057281755 -0.24219659
-0.019131782 -0.057213649 -0.24220297
-0.019128766 -0.057145547 -0.24220936
-0.019125734 -0.057079397 -0.24221778
-0.019122621 -0.05701125 -0.24222615
-0.0191199 -0.056943275 -0.24222654
-0.019117257 -0.0568773 -0.24222699
-0.019115023 -0.056809545 -0.24221739
-0.019112887 -0.05674183 -0.2422058
-0.01911046 -0.056673985 -0.2422002
-0.019107815 -0.05660801 -0.24220063
-0.019105094 -0.056540038 -0.24220103
-0.01910208 -0.056471933 -0.24220741
-0.01909887 -0.056403741 -0.24221778
-0.019096324 -0.056337807 -0.24221623
-0.019093895 -0.056269966 -0.24221063
-0.019090686 -0.056201775 -0.242221
-0.019087575 -0.056133628 -0.24222937
-0.019085517 -0.05606791 -0.24221782
-0.019083284 -0.056000154 -0.24220824
-0.01908027 -0.055932052 -0.24221462
-0.019077333 -0.055865943 -0.24222106
-0.019075003 -0.055798143 -0.24221344
-0.019072378 -0.055730212 -0.24221183
-0.019069364 -0.05566211 -0.24221823
-0.01906674 -0.05559418 -0.24221662
-0.019064194 -0.055528246 -0.24221505
-0.019061767 -0.055460405 -0.24220945
-0.019059142 -0.055392474 -0.24220784
-0.019056421 -0.055324499 -0.24220824
-0.019054266 -0.05525874 -0.24219868
-0.019051934 -0.055190939 -0.24219109
-0.019049212 -0.055122968 -0.24219148
-0.019046471 -0.055056948 -0.24219391
-0.019043555 -0.054988887 -0.24219829
-0.019040931 -0.054920956 -0.24219668
-0.01903821 -0.054852981 -0.2421971
-0.019035295 -0.054784924 -0.24220148
-0.019032454 -0.054718859 -0.24220589
-0.019029733 -0.054650884 -0.24220629
-0.01902711 -0.054582953 -0.24220468
-0.019024584 -0.054515067 -0.24220107
-0.019022331 -0.054449268 -0.24219352
-0.019019609 -0.054381292 -0.24219392
-0.019016791 -0.054313276 -0.24219629
-0.019014362 -0.054245431 -0.2421907
-0.019012012 -0.054179586 -0.24218515
-0.019008998 -0.054111481 -0.24219152
-0.019005788 -0.054043289 -0.24220189
-0.01900336 -0.053975448 -0.24219631
-0.019001495 -0.05390982 -0.24218076
-0.018998677 -0.053841803 -0.24218315
-0.018995762 -0.053773742 -0.24218753
-0.018992942 -0.053705722 -0.24218991
-0.018990319 -0.053637795 -0.24218832
-0.018988259 -0.053572077 -0.24217677
-0.01898554 -0.053504106 -0.24217716
-0.018982232 -0.05343587 -0.24218953
-0.018979317 -0.053367808 -0.24219392
-0.018976888 -0.053299963 -0.24218832
-0.018974537 -0.053234119 -0.24218276
-0.018971717 -0.053166103 -0.24218515
-0.018969094 -0.053098172 -0.24218354
-0.018966742 -0.053032327 -0.24217799
-0.018964022 -0.052964352 -0.24217838
-0.018961007 -0.05289625 -0.24218476
-0.018958384 -0.052828319 -0.24218315
-0.018955858 -0.05276043 -0.24217956
-0.018953213 -0.052694455 -0.24217999
-0.018950786 -0.052626614 -0.24217439
-0.01894865 -0.052558899 -0.24216279
-0.018946493 -0.05249314 -0.24215324
-0.018943772 -0.052425168 -0.24215364
-0.018940564 -0.052356977 -0.24216402
-0.018937647 -0.052288916 -0.2421684
-0.01893561 -0.052221246 -0.24215481
-0.018933259 -0.052155398 -0.24214926
-0.018930342 -0.052087337 -0.24215364
-0.018927718 -0.05201941 -0.24215204
-0.018925289 -0.051951565 -0.24214643
-0.018922666 -0.051883634 -0.24214482
-0.018920021 -0.051817659 -0.24214527
-0.018917495 -0.051749773 -0.24214166
-0.01891497 -0.051681884 -0.24213806
-0.018912053 -0.051613823 -0.24214244
-0.018909039 -0.051545721 -0.24214882
-0.018906493 -0.051479787 -0.24214727
-0.018903675 -0.05141177 -0.24214965
-0.018900953 -0.051343795 -0.24215004
-0.018898427 -0.051275909 -0.24214643
-0.018895706 -0.051207937 -0.24214682
-0.018893257 -0.051142048 -0.24214327
-0.018890927 -0.051074248 -0.24213567
-0.018888693 -0.051006489 -0.24212608
-0.018886168 -0.050938603 -0.24212247
-0.018883426 -0.050872583 -0.2421249
-0.018880608 -0.050804567 -0.2421273
-0.018877886 -0.050736591 -0.24212769
-0.01887536 -0.050668705 -0.24212408
-0.01887254 -0.050600689 -0.24212646
-0.018869527 -0.050532587 -0.24213284
-0.018866884 -0.050466608 -0.24213327
-0.018864162 -0.050398633 -0.24213368
-0.018861538 -0.050330706 -0.24213207
-0.018859208 -0.050262906 -0.24212447
-0.018856486 -0.05019493 -0.24212486
-0.018854037 -0.050129041 -0.24212131
-0.018851511 -0.050061155 -0.2421177
-0.018848693 -0.049993139 -0.24212009
-0.018845875 -0.049925119 -0.24212247
-0.018843349 -0.049857233 -0.24211887
-0.018840801 -0.049791299 -0.2421173
-0.01883808 -0.049723327 -0.2421177
-0.018835358 -0.049655352 -0.24211809
-0.018832931 -0.049587511 -0.24211249
-0.01883021 -0.049519535 -0.24211287
-0.018827489 -0.04945156 -0.24211326
-0.018825138 -0.049385715 -0.24210772
-0.018822122 -0.049317613 -0.2421141
-0.018818934 -0.049247466 -0.24212243
-0.01881629 -0.049181491 -0.24212286
-0.018813862 -0.049113646 -0.24211726
-0.018811628 -0.049045891 -0.24210766
-0.01880957 -0.048980176 -0.24209613
-0.018807044 -0.048912287 -0.24209252
-0.018804127 -0.048844226 -0.2420969
-0.018801309 -0.048776209 -0.24209929
-0.018798295 -0.048708107 -0.24210566
-0.018794987 -0.048639871 -0.24211805
-0.018792171 -0.048571855 -0.24212043
-0.018789839 -0.048504055 -0.24211283
-0.018787488 -0.04843821 -0.24210727
-0.018784864 -0.048370279 -0.24210566
-0.018782143 -0.048302304 -0.24210605
-0.018779226 -0.048234243 -0.24211045
-0.018776506 -0.048166271 -0.24211083
-0.018774154 -0.048100427 -0.24210529
-0.018771531 -0.048032492 -0.24210368
-0.018768614 -0.047964431 -0.24210806
-0.018765893 -0.04789646 -0.24210845
-0.018763563 -0.047828659 -0.24210085
-0.018761309 -0.047762856 -0.24209329
-0.018758316 -0.047692798 -0.24209765
-0.018755302 -0.047624696 -0.24210402
-0.018752581 -0.047556721 -0.24210441
-0.018750131 -0.047490831 -0.24210086
-0.01874741 -0.047422856 -0.24210124
-0.018744592 -0.04735484 -0.24210364
-0.018741967 -0.047286913 -0.24210203
-0.018739149 -0.047218893 -0.24210441
-0.018736623 -0.047151007 -0.24210081
-0.018734369 -0.047085203 -0.24209325
-0.018731648 -0.047017232 -0.24209365
-0.018728731 -0.046949171 -0.24209803
-0.018726205 -0.046881281 -0.24209443
-0.018723875 -0.046813481 -0.24208683
-0.01872123 -0.046747506 -0.24208727
-0.01871814 -0.046677403 -0.24209359
-0.018715126 -0.046609301 -0.24209997
-0.018712405 -0.046541326 -0.24210039
-0.018709956 -0.046475437 -0.24209681
-0.018707234 -0.046407465 -0.24209721
-0.018704416 -0.046339445 -0.24209958
-0.01870189 -0.046271559 -0.24209598
-0.018699462 -0.046203718 -0.24209039
-0.018696545 -0.046135657 -0.24209477
-0.018693727 -0.04606764 -0.24209715
-0.018691201 -0.04599975 -0.24209356
-0.018688751 -0.045933861 -0.24208999
-0.018686129 -0.045865931 -0.24208839
-0.018683601 -0.045798045 -0.24208479
-0.018680979 -0.045730114 -0.24208318
-0.018677965 -0.045662008 -0.24208957
-0.018675243 -0.045594037 -0.24208996
-0.018672425 -0.04552602 -0.24209234
-0.018670171 -0.045460217 -0.2420848
-0.018668231 -0.045392592 -0.2420692
-0.01866588 -0.045326747 -0.24206364
-0.01866306 -0.045258731 -0.24206603
-0.01866034 -0.045190755 -0.24206641
-0.01865752 -0.045122735 -0.24206881
-0.01865441 -0.045054592 -0.24207719
-0.018651025 -0.044984356 -0.24208951
-0.018648498 -0.04491647 -0.2420859
-0.018646441 -0.044850755 -0.24207437
-0.018644206 -0.044783 -0.24206477
-0.018641192 -0.044714894 -0.24207115
-0.018638082 -0.044646747 -0.24207953
-0.018635459 -0.044578817 -0.24207792
-0.018633498 -0.044513144 -0.24206439
-0.018631732 -0.04444756 -0.24204685
-0.018629011 -0.044379584 -0.24204724
-0.018625919 -0.044309482 -0.24205357
-0.018622905 -0.04424138 -0.24205995
-0.018620651 -0.044175576 -0.24205241
-0.018618517 -0.044107862 -0.24204081
-0.01861597 -0.044041932 -0.24203925
-0.018613074 -0.043971919 -0.24204159
-0.018610528 -0.043905985 -0.24204004
-0.018607903 -0.043838054 -0.24203843
-0.018605085 -0.043770038 -0.24204081
-0.018602364 -0.043702062 -0.2420412
-0.018599838 -0.043634176 -0.24203759
-0.018597215 -0.043566246 -0.24203598
-0.018594395 -0.043498229 -0.24203837
-0.01859187 -0.043430343 -0.24203476
-0.018590104 -0.043364756 -0.24201724
-0.018588142 -0.043299086 -0.24200368
-0.018584564 -0.043228768 -0.24202001
-0.018580984 -0.043158446 -0.24203633
-0.018578634 -0.043092601 -0.24203077
-0.018576303 -0.043024801 -0.24202317
-0.018573094 -0.042956609 -0.24203354
-0.01857047 -0.042888679 -0.24203195
-0.018568508 -0.042823009 -0.2420184
-0.018566277 -0.04275525 -0.24200881
-0.018563924 -0.042689405 -0.24200326
-0.018560443 -0.042619132 -0.24201758
-0.018557137 -0.042550895 -0.24202996
-0.018554144 -0.042480834 -0.24203429
-0.01855189 -0.042415034 -0.24202675
-0.018549364 -0.042347148 -0.24202314
-0.018546447 -0.042279087 -0.24202752
-0.018544486 -0.042213414 -0.24201398
-0.018542623 -0.042147785 -0.24199843
-0.018540293 -0.042079985 -0.24199083
-0.018537669 -0.042012058 -0.24198923
-0.018534752 -0.041943997 -0.24199361
-0.018532498 -0.041878194 -0.24198607
-0.018530071 -0.041810349 -0.24198046
-0.018526295 -0.041739944 -0.24200079
-0.018522814 -0.041669667 -0.24201509
-0.018520268 -0.041603737 -0.24201354
-0.018518131 -0.041536022 -0.24200195
-0.018516075 -0.041470308 -0.24199042
-0.018513743 -0.041402508 -0.2419828
-0.018511022 -0.041334532 -0.24198319
-0.018508572 -0.041268647 -0.24197963
-0.018506145 -0.041200802 -0.24197404
-0.018503891 -0.041134998 -0.24196649
-0.018501561 -0.041067198 -0.24195889
-0.01849884 -0.040999226 -0.24195927
-0.018495064 -0.040928818 -0.2419796
-0.018491758 -0.040860586 -0.24199197
-0.018489428 -0.040792786 -0.24198437
-0.018486999 -0.040724941 -0.24197876
-0.018483985 -0.040656835 -0.24198514
-0.018480971 -0.040588733 -0.24199152
-0.018477958 -0.040520631 -0.24199791
-0.018475529 -0.040452786 -0.24199231
-0.018473763 -0.040387198 -0.24197477
-0.018471431 -0.040319398 -0.24196717
-0.018468887 -0.040253468 -0.24196562
-0.018466361 -0.040185578 -0.24196202
-0.018463541 -0.040117562 -0.2419644
-0.018460527 -0.04004946 -0.24197078
-0.018458197 -0.03998166 -0.24196318
-0.018454988 -0.039913468 -0.24197355
-0.018451408 -0.039843149 -0.24198988
-0.018449077 -0.039775349 -0.24198228
-0.018448442 -0.039714195 -0.24194486
-0.018446676 -0.039648611 -0.24192733
-0.018443096 -0.039578289 -0.24194364
-0.018439889 -0.039510101 -0.24195403
-0.018437166 -0.039442126 -0.24195442
-0.018433979 -0.039371978 -0.24196273
-0.018431257 -0.039304003 -0.24196313
-0.018428536 -0.039236031 -0.24196354
-0.018426087 -0.039170146 -0.24195996
-0.018423853 -0.039102383 -0.24195038
-0.018421307 -0.039036453 -0.24194881
-0.018418118 -0.038966309 -0.24195714
-0.018415105 -0.038898204 -0.24196354
-0.018412579 -0.038830318 -0.24195993
-0.018409858 -0.038762342 -0.24196032
-0.018407039 -0.038694326 -0.2419627
-0.018404318 -0.03862635 -0.24196309
-0.018401576 -0.038560331 -0.24196553
-0.018398758 -0.038492315 -0.24196792
-0.018396817 -0.038424689 -0.24195233
-0.018395031 -0.038361058 -0.24193683
-0.018391939 -0.038290955 -0.24194317
-0.018389121 -0.038222939 -0.24194555
-0.01838677 -0.038157094 -0.24193999
-0.018384535 -0.038089335 -0.2419304
-0.01838199 -0.038023405 -0.24192885
-0.018378995 -0.037953347 -0.24193318
-0.018375982 -0.037885241 -0.24193956
-0.01837326 -0.03781727 -0.24193996
-0.01837091 -0.037751421 -0.24193439
-0.018367995 -0.037683364 -0.24193878
-0.01836537 -0.037615433 -0.24193718
-0.018363215 -0.037549675 -0.24192762
-0.018360123 -0.037479572 -0.24193397
-0.018357402 -0.037411597 -0.24193436
-0.018355049 -0.037345752 -0.24192882
-0.018351959 -0.03727565 -0.24193513
-0.018349042 -0.037207589 -0.24193951
-0.018346692 -0.037141744 -0.24193397
-0.01834397 -0.037073769 -0.24193436
-0.018340956 -0.037005663 -0.24194074
-0.018338334 -0.036937736 -0.24193913
-0.018335709 -0.036869805 -0.24193752
-0.018332988 -0.03680183 -0.24193791
-0.018330071 -0.036733769 -0.2419423
-0.018327624 -0.036667883 -0.24193874
-0.018324999 -0.036599953 -0.24193713
-0.018322572 -0.036532104 -0.24193153
-0.01832098 -0.036468565 -0.24191204
-0.018319214 -0.036402978 -0.24189451
-0.018317526 -0.036339395 -0.24187702
-0.018315662 -0.036273763 -0.24186148
-0.018312376 -0.036203574 -0.2418718
-0.018308602 -0.03613317 -0.24189213
-0.018305685 -0.036065109 -0.24189651
-0.018302575 -0.035996962 -0.24190488
-0.018299287 -0.035926774 -0.24191523
-0.018296566 -0.035858795 -0.2419156
-0.018294508 -0.035793081 -0.24190405
-0.018292645 -0.035727452 -0.24188852
-0.01829125 -0.035664 -0.24186504
-0.018288996 -0.035598196 -0.24185748
-0.018285513 -0.035527918 -0.2418718
-0.018282695 -0.035459902 -0.24187419
-0.01828054 -0.035394147 -0.24186465
-0.018278871 -0.035328604 -0.24184513
-0.018277476 -0.035265148 -0.24182165
-0.018275786 -0.035201561 -0.24180415
-0.018272404 -0.035131328 -0.24181646
-0.018267792 -0.035056621 -0.24185067
-0.018263355 -0.034983955 -0.24188292
-0.018259775 -0.034913637 -0.24189925
-0.018257327 -0.034847748 -0.24189568
-0.018254898 -0.034779903 -0.24189007
-0.018251611 -0.034709714 -0.24190041
-0.018248597 -0.034641609 -0.24190679
-0.018246442 -0.03457585 -0.24189724
-0.018244285 -0.034510095 -0.24188769
-0.019589018 -0.067386881 -0.24115993
-0.019586178 -0.067320816 -0.24116437
-0.019584043 -0.067253105 -0.24115276
-0.019582687 -0.067185737 -0.24112521
-0.01958145 -0.067116462 -0.24109361
-0.019579217 -0.067048706 -0.24108401
-0.019575987 -0.06698247 -0.24109642
-0.019573342 -0.066916496 -0.24109685
-0.019571792 -0.066849038 -0.24107328
-0.01956946 -0.066781238 -0.24106568
-0.019565722 -0.066716745 -0.24109013
-0.019561496 -0.066652022 -0.24112457
-0.019558266 -0.066585787 -0.241137
-0.019555448 -0.06651777 -0.24113938
-0.01955251 -0.066451669 -0.24114582
-0.019549573 -0.06638556 -0.24115224
-0.019546831 -0.06631954 -0.24115467
-0.0195437 -0.066253349 -0.2411651
-0.019540567 -0.066187151 -0.24117553
-0.019537337 -0.066120915 -0.24118793
-0.019533424 -0.066054374 -0.24121433
-0.019529805 -0.065987967 -0.24123475
-0.019526768 -0.065921813 -0.24124318
-0.019523539 -0.065855578 -0.2412556
-0.019519899 -0.065791123 -0.24127805
-0.019516278 -0.065724708 -0.24129847
-0.019512463 -0.065658212 -0.24132286
-0.019507945 -0.065593362 -0.24136329
-0.019502841 -0.065528259 -0.24141571
-0.019498223 -0.065463364 -0.24145812
-0.019493997 -0.065398648 -0.24149255
-0.019489966 -0.065334022 -0.241523
-0.019485546 -0.065269217 -0.24156144
-0.019481145 -0.06520246 -0.24159782
-0.019477017 -0.065137781 -0.24163026
-0.019472225 -0.065070853 -0.24167463
-0.019466612 -0.065007478 -0.24173906
-0.019461215 -0.064942241 -0.24179748
-0.019456794 -0.064877436 -0.24183591
-0.019451007 -0.064812027 -0.24190229
-0.019442035 -0.064751089 -0.24203873
-0.019433085 -0.064688191 -0.24217312
-0.019427862 -0.064624995 -0.24222957
-0.019424653 -0.0645568 -0.24223995
-0.019421812 -0.064490743 -0.24224439
-0.019418702 -0.064422593 -0.24225277
-0.019415688 -0.064354487 -0.24225914
-0.019412652 -0.064288341 -0.24226758
-0.019410029 -0.064220406 -0.24226597
-0.019408088 -0.064152785 -0.24225038
-0.019404175 -0.064086244 -0.24227677
-0.01939946 -0.064021304 -0.24232119
-0.019395839 -0.063954897 -0.24234161
-0.019392632 -0.063886702 -0.24235198
-0.019389596 -0.063820556 -0.24236041
-0.019386679 -0.063752495 -0.24236479
-0.019384153 -0.063684605 -0.24236119
-0.019381531 -0.063616678 -0.24235958
-0.019379003 -0.063548788 -0.24235597
-0.019376848 -0.06348303 -0.24234644
-0.01937432 -0.063415147 -0.24234283
-0.019371696 -0.063347213 -0.24234122
-0.019368976 -0.063279241 -0.24234161
-0.019366253 -0.06321127 -0.242342
-0.019363511 -0.06314525 -0.24234444
-0.01936079 -0.063077271 -0.24234483
-0.019357776 -0.063009173 -0.2423512
-0.019354839 -0.062943064 -0.24235763
-0.019352216 -0.062875137 -0.24235603
-0.019349981 -0.062807374 -0.24234644
-0.019347552 -0.062739536 -0.24234083
-0.019344909 -0.062673554 -0.24234127
-0.019342382 -0.062605672 -0.24233767
-0.019339954 -0.062537827 -0.24233207
-0.019337233 -0.062469851 -0.24233246
-0.019334413 -0.062401835 -0.24233484
-0.019331867 -0.062335901 -0.24233328
-0.019329242 -0.062267974 -0.24233167
-0.019326814 -0.062200129 -0.24232608
-0.019324776 -0.062132459 -0.24231249
-0.01932225 -0.062064573 -0.24230888
-0.019319333 -0.061996512 -0.24231327
-0.019316494 -0.061930448 -0.24231769
-0.01931387 -0.061862521 -0.2423161
-0.019311441 -0.061794676 -0.24231049
-0.019308623 -0.06172666 -0.24231288
-0.019305879 -0.06166064 -0.24231532
-0.019303257 -0.061592709 -0.24231371
-0.019300632 -0.061524779 -0.2423121
-0.019298302 -0.061456978 -0.2423045
-0.019295774 -0.061389092 -0.2423009
-0.019292837 -0.061322987 -0.24230734
-0.019290214 -0.061255053 -0.24230573
-0.019287882 -0.061187256 -0.24229813
-0.019285552 -0.061119456 -0.24229053
-0.019283006 -0.061053522 -0.24228896
-0.019280577 -0.060985681 -0.24228336
-0.019278148 -0.060917836 -0.24227776
-0.019275427 -0.06084986 -0.24227816
-0.019272489 -0.060783755 -0.24228457
-0.019269671 -0.060715739 -0.24228697
-0.019267436 -0.060647983 -0.24227737
-0.019265007 -0.060580138 -0.24227178
-0.019262169 -0.060514074 -0.24227619
-0.019259155 -0.060445972 -0.24228258
-0.019256238 -0.060377911 -0.24228697
-0.019253496 -0.060311891 -0.24228939
-0.019250775 -0.060243919 -0.24228978
-0.019248247 -0.06017603 -0.24228618
-0.019245917 -0.06010823 -0.24227861
-0.019243684 -0.060040474 -0.24226899
-0.019241234 -0.059974585 -0.24226543
-0.019238709 -0.059906699 -0.24226183
-0.019236084 -0.059838768 -0.24226022
-0.019233342 -0.059772749 -0.24226266
-0.019230522 -0.059704732 -0.24226505
-0.019227704 -0.059636712 -0.24226744
-0.019224886 -0.059568696 -0.24226981
-0.019222241 -0.059502721 -0.24227026
-0.019219616 -0.05943479 -0.24226865
-0.019217091 -0.059366904 -0.24226505
-0.019214565 -0.059299015 -0.24226144
-0.019211823 -0.059232999 -0.24226388
-0.019209003 -0.059164979 -0.24226627
-0.019206379 -0.059097048 -0.24226466
-0.019203756 -0.059029117 -0.24226305
-0.019201111 -0.058963142 -0.2422635
-0.019198194 -0.058895081 -0.24226788
-0.019195765 -0.05882724 -0.24226227
-0.019193728 -0.05875957 -0.24224868
-0.019191202 -0.058691684 -0.24224508
-0.01918846 -0.058625665 -0.24224752
-0.01918564 -0.058557644 -0.24224991
-0.019183017 -0.058489718 -0.2422483
-0.019180372 -0.058423739 -0.24224874
-0.019177748 -0.058355808 -0.24224713
-0.019175321 -0.058287967 -0.24224153
-0.019172676 -0.058221992 -0.24224196
-0.019170247 -0.058154147 -0.24223636
-0.019167915 -0.058086347 -0.24222878
-0.019165194 -0.058018371 -0.24222916
-0.019162375 -0.057950355 -0.24223155
-0.019159926 -0.057884466 -0.24222799
-0.019157497 -0.057816625 -0.24222238
-0.01915458 -0.057748564 -0.24222678
-0.019151567 -0.057680458 -0.24223316
-0.019149313 -0.057614654 -0.2422256
-0.019147079 -0.057546899 -0.24221601
-0.019144455 -0.057478968 -0.2422144
-0.0191423 -0.057413209 -0.24220484
-0.019140065 -0.057345454 -0.24219525
-0.019137247 -0.057277437 -0.24219765
-0.019134134 -0.057209291 -0.24220602
-0.01913112 -0.057141185 -0.2422124
-0.019128086 -0.057075035 -0.24222083
-0.019125072 -0.057006933 -0.2422272
-0.019122252 -0.056938913 -0.24222961
-0.019119706 -0.056872983 -0.24222803
-0.019117473 -0.056805223 -0.24221845
-0.019115239 -0.056737468 -0.24220885
-0.01911281 -0.056669626 -0.24220324
-0.019110262 -0.056603692 -0.24220169
-0.019107543 -0.056535721 -0.24220207
-0.019104527 -0.056467615 -0.24220847
-0.019101221 -0.056399379 -0.24222083
-0.019098772 -0.05633349 -0.24221727
-0.019096343 -0.056265648 -0.24221167
-0.019093037 -0.056197412 -0.24222404
-0.019090021 -0.05612931 -0.24223045
-0.019087963 -0.056063592 -0.24221888
-0.019085633 -0.055995792 -0.24221128
-0.019082617 -0.05592769 -0.24221766
-0.019079681 -0.055861585 -0.2422241
-0.019077349 -0.055793785 -0.2422165
-0.019074727 -0.055725854 -0.24221489
-0.01907181 -0.055657793 -0.24221928
-0.019069185 -0.055589862 -0.24221767
-0.019066639 -0.055523928 -0.24221611
-0.019064112 -0.055456042 -0.2422125
-0.019061586 -0.055388156 -0.2422089
-0.019058865 -0.055320181 -0.24220929
-0.019056708 -0.055254422 -0.24219975
-0.019054377 -0.055186622 -0.24219215
-0.019051656 -0.05511865 -0.24219254
-0.019048914 -0.055052631 -0.24219498
-0.019045997 -0.05498457 -0.24219936
-0.019043373 -0.054916639 -0.24219775
-0.019040652 -0.054848664 -0.24219814
-0.019037735 -0.054780602 -0.24220252
-0.019034799 -0.054714497 -0.24220896
-0.019032175 -0.054646567 -0.24220735
-0.01902955 -0.054578636 -0.24220574
-0.019026928 -0.054510705 -0.24220413
-0.019024672 -0.054444905 -0.24219659
-0.019022049 -0.054376975 -0.24219498
-0.019019132 -0.054308914 -0.24219936
-0.019016704 -0.054241069 -0.24219376
-0.019014351 -0.054175224 -0.24218822
-0.019011337 -0.054107122 -0.24219459
-0.019008128 -0.054038931 -0.24220496
-0.019005798 -0.05397113 -0.24219736
-0.019003933 -0.053905502 -0.24218184
-0.019001115 -0.053837486 -0.24218421
-0.018998101 -0.05376938 -0.2421906
-0.018995184 -0.053701319 -0.24219498
-0.018992657 -0.053633433 -0.24219137
-0.018990599 -0.053567719 -0.24217984
-0.018987974 -0.053499788 -0.24217823
-0.018984571 -0.053431507 -0.2421926
-0.018981654 -0.05336345 -0.24219698
-0.018979322 -0.05329565 -0.24218938
-0.018976873 -0.05322976 -0.24218583
-0.018974151 -0.053161785 -0.24218622
-0.01897143 -0.05309381 -0.24218661
-0.018969079 -0.053027965 -0.24218105
-0.018966358 -0.052959993 -0.24218145
-0.018963344 -0.052891888 -0.24218783
-0.01896072 -0.052823957 -0.24218622
-0.018958192 -0.052756071 -0.24218261
-0.018955646 -0.052690137 -0.24218106
-0.018953217 -0.052622296 -0.24217546
-0.018951081 -0.052554581 -0.24216387
-0.018948926 -0.052488822 -0.24215432
-0.018946204 -0.052420851 -0.24215469
-0.018942995 -0.052352659 -0.24216507
-0.018940175 -0.052284639 -0.24216747
-0.018938038 -0.052216928 -0.24215588
-0.018935591 -0.052151039 -0.24215232
-0.018932771 -0.052083023 -0.2421547
-0.01893005 -0.052015048 -0.24215509
-0.018927621 -0.051947206 -0.2421495
-0.018925095 -0.051879317 -0.2421459
-0.01892245 -0.051813342 -0.24214633
-0.018919827 -0.051745411 -0.24214472
-0.0189173 -0.051677525 -0.24214111
-0.018914385 -0.051609464 -0.24214551
-0.018911468 -0.051541403 -0.24214989
-0.018908823 -0.051475428 -0.24215032
-0.018906005 -0.051407412 -0.24215271
-0.018903283 -0.051339436 -0.24215309
-0.018900756 -0.05127155 -0.2421495
-0.018898133 -0.05120362 -0.24214789
-0.018895585 -0.051137686 -0.24214633
-0.018893255 -0.051069885 -0.24213873
-0.018891022 -0.05100213 -0.24212915
-0.018888496 -0.050934244 -0.24212554
-0.018885851 -0.050868265 -0.24212597
-0.018882934 -0.050800204 -0.24213035
-0.018880213 -0.050732233 -0.24213074
-0.018877687 -0.050664347 -0.24212715
-0.018874966 -0.050596371 -0.24212754
-0.018871952 -0.050528269 -0.24213392
-0.018869307 -0.050462291 -0.24213435
-0.018866487 -0.050394274 -0.24213675
-0.018863961 -0.050326388 -0.24213314
-0.018861629 -0.050258588 -0.24212554
-0.01885891 -0.050190613 -0.24212593
-0.018856362 -0.050124682 -0.24212436
-0.018853836 -0.050056793 -0.24212076
-0.018850919 -0.049988735 -0.24212515
-0.018848198 -0.04992076 -0.24212554
-0.018845672 -0.049852874 -0.24212193
-0.018843126 -0.04978694 -0.24212037
-0.018840326 -0.049716968 -0.24212071
-0.018837681 -0.049650993 -0.24212116
-0.018835254 -0.049583148 -0.24211556
-0.018832531 -0.049515177 -0.24211594
-0.018829908 -0.049447246 -0.24211434
-0.018827382 -0.049379356 -0.24211073
-0.018824443 -0.049313251 -0.24211717
-0.018821353 -0.049243152 -0.2421235
-0.018818611 -0.049177133 -0.24212593
-0.018816182 -0.049109288 -0.24212033
-0.018814046 -0.049041573 -0.24210873
-0.018811988 -0.048975859 -0.2420972
-0.01880946 -0.048907973 -0.24209359
-0.018806545 -0.048839912 -0.24209797
-0.018803725 -0.048771895 -0.24210036
-0.018800614 -0.048703745 -0.24210873
-0.018797306 -0.048635513 -0.2421211
-0.018794488 -0.048567496 -0.2421235
-0.018792156 -0.048499696 -0.2421159
-0.018789805 -0.048433848 -0.24211034
-0.018787181 -0.048365921 -0.24210873
-0.018784557 -0.048297986 -0.24210712
-0.018781641 -0.048229925 -0.24211152
-0.018778821 -0.048161909 -0.2421139
-0.018776471 -0.048096064 -0.24210835
-0.018773846 -0.048028134 -0.24210674
-0.018770929 -0.047960073 -0.24211113
-0.018768307 -0.047892142 -0.24210954
-0.018765878 -0.047824301 -0.24210392
-0.018763624 -0.047758497 -0.24209636
-0.018760728 -0.047688484 -0.24209872
-0.018757712 -0.047620378 -0.2421051
-0.018754894 -0.047552362 -0.24210748
-0.018752445 -0.047486469 -0.24210393
-0.01874982 -0.047418542 -0.24210232
-0.018747002 -0.047350526 -0.24210471
-0.018744281 -0.04728255 -0.2421051
-0.018741559 -0.047214575 -0.24210548
-0.018738935 -0.047146648 -0.24210387
-0.018736681 -0.047080845 -0.24209633
-0.01873396 -0.047012873 -0.24209672
-0.018731043 -0.046944808 -0.2421011
-0.018728517 -0.046876922 -0.2420975
-0.018726185 -0.046809122 -0.2420899
-0.018723639 -0.046743192 -0.24208835
-0.01872045 -0.046673045 -0.24209668
-0.018717436 -0.046604939 -0.24210306
-0.018714715 -0.046536967 -0.24210344
-0.018712362 -0.046471123 -0.24209788
-0.018709641 -0.046403147 -0.24209827
-0.018706724 -0.046335086 -0.24210267
-0.018704198 -0.0462672 -0.24209906
-0.018701769 -0.046199359 -0.24209346
-0.018698949 -0.046131339 -0.24209586
-0.018696034 -0.046063278 -0.24210024
-0.018693507 -0.045995392 -0.24209663
-0.018691059 -0.045929503 -0.24209307
-0.018688435 -0.045861572 -0.24209146
-0.018686006 -0.045793727 -0.24208587
-0.018683381 -0.0457258 -0.24208426
-0.018680271 -0.04565765 -0.24209264
-0.018677646 -0.045589719 -0.24209103
-0.018674828 -0.045521703 -0.24209341
-0.018672476 -0.045455858 -0.24208787
-0.018670633 -0.045388274 -0.24207029
-0.018668106 -0.045320388 -0.24206668
-0.018665463 -0.045254413 -0.24206711
-0.018662566 -0.045184396 -0.24206945
-0.018659825 -0.045118377 -0.2420719
-0.018656636 -0.045048229 -0.24208021
-0.018653426 -0.044980042 -0.2420906
-0.018650802 -0.044912111 -0.24208899
-0.01864884 -0.044846438 -0.24207544
-0.018646607 -0.044778682 -0.24206585
-0.018643593 -0.044710577 -0.24207222
-0.018640481 -0.04464243 -0.2420806
-0.01863776 -0.044574458 -0.242081
-0.018635819 -0.044506829 -0.24206543
-0.018633954 -0.044441201 -0.24204987
-0.018631408 -0.044375271 -0.24204832
-0.018628219 -0.044305123 -0.24205664
-0.018625205 -0.044237018 -0.24206302
-0.018622875 -0.044169217 -0.24205543
-0.018620815 -0.044103503 -0.24204388
-0.018618193 -0.044035576 -0.24204227
-0.018615372 -0.043967556 -0.24204466
-0.018613022 -0.043901712 -0.24203911
-0.018610222 -0.04383174 -0.24203946
-0.018607382 -0.043765679 -0.24204388
-0.018604759 -0.043697745 -0.24204227
-0.018602233 -0.043629862 -0.24203867
-0.01859951 -0.043561887 -0.24203907
-0.018596692 -0.043493871 -0.24204147
-0.018594263 -0.043426026 -0.24203585
-0.018592497 -0.043360442 -0.24201831
-0.018590439 -0.043294728 -0.24200678
-0.018586859 -0.043224405 -0.2420231
-0.018583378 -0.043154128 -0.24203742
-0.018581025 -0.043088287 -0.24203187
-0.018578695 -0.043020487 -0.24202427
-0.018575389 -0.042952251 -0.24203664
-0.018572764 -0.04288432 -0.24203503
-0.0185709 -0.042818692 -0.24201949
-0.018568667 -0.042750936 -0.24200989
-0.018566042 -0.042683005 -0.2420083
-0.018562835 -0.042614814 -0.24201867
-0.018559352 -0.042544536 -0.24203299
-0.018556533 -0.04247652 -0.24203536
-0.01855428 -0.04241072 -0.24202782
-0.018551655 -0.042342789 -0.24202621
-0.018548738 -0.042274728 -0.24203059
-0.018546779 -0.042209055 -0.24201706
-0.018544935 -0.042141471 -0.24199948
-0.018542681 -0.042075671 -0.24199192
-0.01853996 -0.042007696 -0.24199232
-0.018537043 -0.041939639 -0.24199671
-0.018534886 -0.04187388 -0.24198715
-0.018532457 -0.041806035 -0.24198155
-0.01852878 -0.041735671 -0.24199986
-0.018525202 -0.041665353 -0.24201618
-0.018522577 -0.041597422 -0.24201457
-0.01852042 -0.041531663 -0.24200504
-0.018518362 -0.041465946 -0.24199349
-0.01851603 -0.041398149 -0.24198589
-0.018513504 -0.041330263 -0.24198228
-0.018510958 -0.041264329 -0.24198073
-0.018508529 -0.041196488 -0.24197513
-0.018506275 -0.041130684 -0.24196757
-0.018503847 -0.041062839 -0.24196197
-0.018501125 -0.040994868 -0.24196237
-0.018497352 -0.04092446 -0.24198267
-0.018494043 -0.040856227 -0.24199505
-0.018491713 -0.040788427 -0.24198745
-0.018489284 -0.040720582 -0.24198186
-0.018486269 -0.040652476 -0.24198824
-0.018483255 -0.040584374 -0.2419946
-0.018480338 -0.040516309 -0.241999
-0.018477909 -0.040448468 -0.2419934
-0.018476143 -0.040382884 -0.24197586
-0.018473813 -0.040315084 -0.24196826
-0.018471267 -0.04024915 -0.24196669
-0.018468643 -0.04018122 -0.24196509
-0.018466018 -0.040113293 -0.24196348
-0.018462908 -0.040045142 -0.24197187
-0.018460575 -0.039977342 -0.24196428
-0.018457366 -0.039909154 -0.24197464
-0.018453788 -0.039838836 -0.24199095
-0.018451456 -0.039771032 -0.24198337
-0.018450821 -0.039709877 -0.24194595
-0.01844888 -0.039642252 -0.24193037
-0.018445279 -0.039573886 -0.24194874
-0.018441994 -0.039503701 -0.24195907
-0.018439271 -0.039435722 -0.24195945
-0.018436257 -0.039367624 -0.24196583
-0.018433535 -0.039299645 -0.24196622
-0.018430913 -0.039231718 -0.24196461
-0.018428463 -0.039165828 -0.24196106
-0.018426228 -0.039098069 -0.24195147
-0.018423684 -0.039032139 -0.24194992
-0.018420396 -0.038961951 -0.24196023
-0.018417479 -0.038893886 -0.24196462
-0.018414855 -0.038825959 -0.24196303
-0.018412037 -0.038757943 -0.2419654
-0.018409219 -0.038689923 -0.24196778
-0.018406594 -0.038621992 -0.24196619
-0.018403776 -0.038553976 -0.24196857
-0.018400956 -0.038485959 -0.24197096
-0.01839919 -0.038420372 -0.24195343
-0.018397229 -0.038354702 -0.24193987
-0.018394213 -0.038286597 -0.24194625
-0.018391494 -0.038218625 -0.24194664
-0.01838924 -0.038152821 -0.2419391
-0.018386908 -0.038085021 -0.2419315
-0.018384458 -0.038019136 -0.24192795
-0.01838127 -0.037948988 -0.24193627
-0.018378353 -0.037880927 -0.24194066
-0.018375631 -0.037812952 -0.24194105
-0.018373281 -0.037747107 -0.24193549
-0.018370189 -0.037677005 -0.24194182
-0.018367566 -0.037609074 -0.24194023
-0.018365409 -0.037543319 -0.24193066
-0.018362395 -0.037475213 -0.24193706
-0.018359672 -0.037407238 -0.24193744
-0.018357418 -0.037341438 -0.24192989
-0.01835423 -0.037271291 -0.24193823
-0.018351508 -0.037203316 -0.24193862
-0.018349059 -0.037137426 -0.24193506
-0.018346241 -0.03706941 -0.24193744
-0.018343149 -0.036999308 -0.24194378
-0.018340524 -0.036931377 -0.24194217
-0.018338077 -0.036865488 -0.24193862
-0.018335257 -0.036797471 -0.241941
-0.01833234 -0.03672941 -0.24194539
-0.018329814 -0.036661521 -0.24194178
-0.018327191 -0.036593594 -0.24194017
-0.018324839 -0.036527745 -0.24193463
-0.018323345 -0.036464248 -0.24191314
-0.018321676 -0.036398709 -0.24189362
-0.018319989 -0.036335118 -0.24187613
-0.018317852 -0.036267407 -0.24186453
-0.018314643 -0.03619922 -0.2418749
-0.018310966 -0.036128853 -0.24189322
-0.01830795 -0.03606075 -0.24189961
-0.01830486 -0.035990648 -0.24190594
-0.018301651 -0.035922457 -0.2419163
-0.018299026 -0.035854526 -0.2419147
-0.018296871 -0.035788767 -0.24190515
-0.018295007 -0.035723135 -0.24188963
-0.018293513 -0.035659641 -0.24186814
-0.018291183 -0.035591841 -0.24186054
-0.018287778 -0.03552356 -0.2418749
-0.018284958 -0.035455544 -0.24187729
-0.018282823 -0.035387829 -0.24186569
-0.018281231 -0.035324287 -0.2418462
-0.018279739 -0.035260789 -0.24182473
-0.01827807 -0.035195246 -0.2418052
-0.018274665 -0.035126969 -0.24181956
-0.018270053 -0.035052262 -0.24185377
-0.018265713 -0.034979641 -0.24188402
-0.018262036 -0.034909278 -0.24190234
-0.018259412 -0.034841344 -0.24190074
-0.018257158 -0.034775548 -0.24189317
-0.018253872 -0.034705356 -0.24190351
-0.018251052 -0.034637339 -0.2419059
-0.0182488 -0.034571536 -0.24189834
-0.018246643 -0.034505777 -0.24188879
-0.019585399 -0.06738545 -0.24116066
-0.01958256 -0.067319386 -0.2411651
-0.019580424 -0.067251675 -0.24115351
-0.01957907 -0.067184307 -0.24112594
-0.019577833 -0.067115031 -0.24109432
-0.019575698 -0.06704732 -0.24108273
-0.019572468 -0.066981077 -0.24109516
-0.019569824 -0.066915102 -0.2410956
-0.019568274 -0.066847652 -0.24107203
-0.019565944 -0.066779852 -0.24106441
-0.019562108 -0.066715308 -0.24109086
-0.019557882 -0.066650592 -0.2411253
-0.019554751 -0.066584401 -0.24113572
-0.019551933 -0.066516384 -0.24113812
-0.019548995 -0.066450275 -0.24114454
-0.01954606 -0.066384166 -0.24115098
-0.019543219 -0.06631811 -0.24115542
-0.019540185 -0.066251956 -0.24116383
-0.019536978 -0.066183761 -0.24117419
-0.019533824 -0.066119529 -0.24118668
-0.019529913 -0.066052988 -0.24121308
-0.019526195 -0.065986529 -0.24123548
-0.019523161 -0.065920383 -0.2412439
-0.019519931 -0.065854147 -0.24125633
-0.019516388 -0.065789729 -0.24127679
-0.019512672 -0.065723278 -0.24129918
-0.019508954 -0.065656826 -0.24132159
-0.019504339 -0.065591931 -0.24136402
-0.019499332 -0.065526865 -0.24141443
-0.019494714 -0.065461978 -0.24145687
-0.01949049 -0.065397263 -0.24149129
-0.01948636 -0.065332584 -0.24152373
-0.01948194 -0.065267786 -0.24156216
-0.019477637 -0.065201066 -0.24159655
-0.019473411 -0.065136351 -0.24163099
-0.019468816 -0.065069504 -0.24167137
-0.019463105 -0.065006092 -0.24173781
-0.019457612 -0.06494081 -0.24179821
-0.01945319 -0.064876005 -0.24183664
-0.019447502 -0.064810634 -0.24190104
-0.019438626 -0.06474974 -0.24203548
-0.019429578 -0.064686798 -0.24217185
-0.019424258 -0.064623557 -0.2422303
-0.019421147 -0.064555414 -0.24223867
-0.01941823 -0.064487353 -0.24224305
-0.019415196 -0.064421199 -0.24225149
-0.019412085 -0.064353049 -0.24225986
-0.019409148 -0.064286947 -0.2422663
-0.019406427 -0.064218976 -0.24226668
-0.019404488 -0.064151347 -0.2422511
