# .PCD v0.7 - Point Cloud Data file format
VERSION 0.7
FIELDS x y z
SIZE 4 4 4
TYPE F F F
COUNT 1 1 1
WIDTH 1303
HEIGHT 1
VIEWPOINT 0 0 0 1 0 0 0
POINTS 1303
DATA ascii
0.017721966 -0.01974234 -0.23930138
0.017725267 -0.019664291 -0.23930553
0.017728843 -0.019584155 -0.2393136
0.017731734 -0.019504324 -0.23930773
0.017734606 -0.019422539 -0.2392998
0.017737713 -0.019344576 -0.23929995
0.017741092 -0.019264527 -0.23930405
0.017744277 -0.019184563 -0.23930416
0.017746974 -0.01910482 -0.23929428
0.017749768 -0.019025033 -0.23928639
0.017753243 -0.018944941 -0.23929249
0.017756721 -0.01886485 -0.23929858
0.017759711 -0.018784974 -0.23929469
0.017762212 -0.018705318 -0.23928082
0.01776481 -0.018625617 -0.23926896
0.017767703 -0.018545786 -0.23926306
0.017770985 -0.018465782 -0.23926517
0.017773975 -0.018385908 -0.23926127
0.017777646 -0.018305728 -0.23927137
0.017781533 -0.018227415 -0.2392875
0.017784622 -0.018147498 -0.23928559
0.017787317 -0.018067755 -0.23927572
0.017790306 -0.017987879 -0.23927182
0.017793782 -0.017907787 -0.23927793
0.017797064 -0.017827783 -0.23928003
0.017800638 -0.017747648 -0.23928812
0.017803941 -0.017669596 -0.23929226
0.017806325 -0.017588029 -0.23927435
0.017807949 -0.017508764 -0.23924251
0.017810529 -0.017427107 -0.23922858
0.017814806 -0.017348621 -0.2392527
0.017818499 -0.017270397 -0.23926483
0.017820589 -0.017188961 -0.23924091
0.017823871 -0.017108954 -0.23924303
0.017827446 -0.01702882 -0.23925112
0.017830944 -0.016950682 -0.23925927
0.01783403 -0.016870763 -0.23925737
0.017837701 -0.016790584 -0.23926747
0.017841101 -0.01671249 -0.23927361
0.017843584 -0.016630879 -0.23925769
0.017846378 -0.016551092 -0.2392498
0.017849777 -0.016472997 -0.23925593
0.017853351 -0.016392862 -0.23926404
0.01785595 -0.016313162 -0.23925215
0.017857749 -0.016231855 -0.23922226
0.017860955 -0.016153848 -0.2392244
0.017864626 -0.016073668 -0.23923451
0.017867712 -0.01599375 -0.2392326
0.017870994 -0.015913745 -0.23923472
0.017874764 -0.015833523 -0.2392468
0.017877968 -0.015755516 -0.23924895
0.017880861 -0.015675684 -0.23924306
0.017884046 -0.015595723 -0.23924318
0.017886741 -0.015515979 -0.23923329
0.017889028 -0.015434455 -0.23921338
0.017892038 -0.015356535 -0.23921153
0.017895807 -0.015276312 -0.23922361
0.017898699 -0.015196482 -0.23921773
0.017901786 -0.015116563 -0.23921584
0.017905556 -0.01503634 -0.23922792
0.017908253 -0.014956596 -0.23921806
0.017911263 -0.014878676 -0.23921621
0.017915227 -0.014798366 -0.23923227
0.017918412 -0.014718406 -0.23923239
0.01792101 -0.014638705 -0.23922051
0.017924096 -0.014558787 -0.23921862
0.017927475 -0.014478738 -0.23922272
0.017930856 -0.014398689 -0.23922682
0.017934039 -0.014318728 -0.23922692
0.017937128 -0.01423881 -0.23922503
0.017940018 -0.014158979 -0.23921914
0.017942637 -0.014081232 -0.23920931
0.017945217 -0.013999578 -0.23919539
0.017948421 -0.013921571 -0.23919754
0.017952679 -0.013841131 -0.23921961
0.017955376 -0.013761386 -0.23920974
0.017958365 -0.013681512 -0.23920584
0.017962329 -0.013601203 -0.23922193
0.017966216 -0.013522891 -0.23923805
0.017968893 -0.013441192 -0.23922613
0.017970614 -0.013361883 -0.23919627
0.017973624 -0.013283963 -0.23919444
0.017976809 -0.013204002 -0.23919454
0.017979212 -0.013124389 -0.23917866
0.017981812 -0.013044688 -0.2391668
0.017985972 -0.012964291 -0.23918687
0.017990423 -0.012883764 -0.23921293
0.017993219 -0.012803976 -0.23920505
0.017995818 -0.012724277 -0.23919317
0.017999489 -0.012644097 -0.23920326
0.018003279 -0.012565829 -0.2392174
0.018006269 -0.012485955 -0.2392135
0.01800877 -0.012406297 -0.23919964
0.018011663 -0.012326466 -0.23919374
0.018014945 -0.012246462 -0.23919585
0.018017543 -0.012166761 -0.23918396
0.01802063 -0.012086843 -0.23918208
0.018024789 -0.012006447 -0.23920214
0.01802846 -0.011926267 -0.23921224
0.018030962 -0.01184661 -0.23919836
0.01803368 -0.011768821 -0.23919053
0.01803745 -0.011688598 -0.23920262
0.018041413 -0.011608289 -0.23921871
0.018043915 -0.011528632 -0.23920482
0.018046319 -0.011449018 -0.23918895
0.018049406 -0.0113691 -0.23918706
0.018052395 -0.011289225 -0.23918319
0.018055484 -0.011209307 -0.23918128
0.01805857 -0.01112939 -0.2391794
0.01806156 -0.011049515 -0.2391755
0.018064938 -0.010969466 -0.23917961
0.018067949 -0.010891546 -0.23917776
0.01807045 -0.01081189 -0.23916388
0.018072758 -0.010732319 -0.23914601
0.018073894 -0.010653271 -0.23910418
0.018074445 -0.010574484 -0.23905036
0.018076187 -0.01049713 -0.23902255
0.018079741 -0.01041504 -0.2390286
0.018084213 -0.010336468 -0.23905671
0.018088548 -0.010254029 -0.23907873
0.018086877 -0.010178198 -0.23898102
0.018083353 -0.010103194 -0.23884538
0.018086245 -0.010023363 -0.23883949
0.016803339 -0.036695715 -0.23963024
0.01680682 -0.036615625 -0.23963633
0.016809912 -0.036535706 -0.23963445
0.016812691 -0.036453962 -0.23962452
0.01681545 -0.03637027 -0.23961255
0.016818153 -0.036290523 -0.23960266
0.016821029 -0.036208738 -0.23959473
0.016824119 -0.036128819 -0.23959285
0.016827796 -0.036048643 -0.23960292
0.016831491 -0.03597042 -0.23961507
0.01683468 -0.035890456 -0.23961517
0.016837751 -0.035808586 -0.23961124
0.016840843 -0.035728667 -0.23960935
0.016844129 -0.035648659 -0.23961145
0.01684761 -0.035568569 -0.23961756
0.01685082 -0.035490561 -0.2396197
0.016853793 -0.035408732 -0.23961377
0.016856574 -0.035326988 -0.23960383
0.016859449 -0.035245206 -0.23959592
0.016862949 -0.035167068 -0.23960406
0.016866647 -0.035088845 -0.23961619
0.016869912 -0.035006884 -0.23961625
0.016873296 -0.034926835 -0.23962034
0.016876485 -0.034846872 -0.23962045
0.016878873 -0.034765307 -0.23960254
0.016881749 -0.034683522 -0.23959461
0.016885133 -0.034603473 -0.23959871
0.016888518 -0.034523427 -0.2396028
0.01689202 -0.034445286 -0.23961094
0.016895089 -0.034363415 -0.23960701
0.016897772 -0.034281716 -0.23959509
0.016900767 -0.034201842 -0.2395912
0.016904343 -0.034121707 -0.23959929
0.016907748 -0.03404361 -0.23960543
0.016910916 -0.033961698 -0.23960349
0.016914204 -0.033881694 -0.23960561
0.016917294 -0.033801775 -0.23960371
0.01692017 -0.03371999 -0.23959579
0.016922969 -0.033640202 -0.2395879
0.016926138 -0.033558287 -0.23958597
0.016929835 -0.033480063 -0.2395981
0.016933315 -0.033399969 -0.2396042
0.0169359 -0.033318315 -0.23959027
0.016938483 -0.03323666 -0.23957634
0.016941458 -0.03315483 -0.23957041
0.016944451 -0.033074956 -0.23956653
0.016947327 -0.032993171 -0.23955861
0.016950518 -0.032913208 -0.2395587
0.016954018 -0.032835074 -0.23956685
0.016957499 -0.03275498 -0.23957294
0.016960591 -0.032675065 -0.23957106
0.016963467 -0.03259328 -0.23956312
0.016966753 -0.032513272 -0.23956522
0.016970059 -0.032435223 -0.23956937
0.01697313 -0.032353349 -0.23956543
0.016976222 -0.032273434 -0.23956354
0.016979411 -0.032193471 -0.23956366
0.016982503 -0.032113552 -0.23956177
0.016985983 -0.032033462 -0.23956785
0.016989075 -0.031953543 -0.23956597
0.016991951 -0.031871758 -0.23955804
0.016995627 -0.031791579 -0.23956813
0.016999226 -0.031713396 -0.23957828
0.017002219 -0.031633526 -0.23957437
0.017005291 -0.031551652 -0.23957044
0.017008694 -0.031473558 -0.23957658
0.017011862 -0.031391643 -0.23957464
0.017014664 -0.031311855 -0.23956677
0.017017851 -0.031231891 -0.23956686
0.01702104 -0.031151932 -0.23956698
0.017024208 -0.031070014 -0.23956504
0.017027494 -0.03099001 -0.23956713
0.017030781 -0.030910006 -0.23956925
0.017033678 -0.030830175 -0.23956336
0.01703665 -0.030748347 -0.23955743
0.017039742 -0.030668428 -0.23955554
0.017042931 -0.030588469 -0.23955564
0.017046217 -0.030508462 -0.23955774
0.017049212 -0.030428587 -0.23955385
0.017051894 -0.030346889 -0.23954193
0.017054984 -0.03026697 -0.23954004
0.017058659 -0.030186793 -0.23955013
0.017062064 -0.030108698 -0.23955628
0.017065059 -0.030028826 -0.23955238
0.017068032 -0.029946996 -0.23954645
0.017071025 -0.029867122 -0.23954257
0.017074097 -0.029785248 -0.23953864
0.017077209 -0.029707285 -0.23953879
0.017080594 -0.029627237 -0.23954287
0.01708417 -0.029547101 -0.23955098
0.017087555 -0.029467052 -0.23955509
0.017090354 -0.029387265 -0.23954719
0.017093036 -0.029305568 -0.23953527
0.01709603 -0.029225694 -0.2395314
0.017099414 -0.029145645 -0.23953548
0.0171027 -0.029065639 -0.2395376
0.017105382 -0.028983941 -0.23952568
0.017107986 -0.028904241 -0.23951378
0.017111368 -0.028824193 -0.23951788
0.017114654 -0.028744187 -0.23951998
0.017117552 -0.028664356 -0.23951411
0.017120525 -0.02858253 -0.23950817
0.01712393 -0.028504435 -0.23951432
0.017127 -0.028422561 -0.23951039
0.017129702 -0.028342819 -0.23950051
0.017132696 -0.028262943 -0.23949662
0.017136762 -0.02818259 -0.23951469
0.01714075 -0.028104234 -0.23953283
0.017143646 -0.028024405 -0.23952693
0.017146425 -0.027942661 -0.239517
0.017149635 -0.027864655 -0.23951915
0.017152999 -0.027782654 -0.23952121
0.017155796 -0.027702866 -0.23951334
0.017158985 -0.027622906 -0.23951343
0.017162466 -0.027542815 -0.23951954
0.017165363 -0.027462982 -0.23951365
0.017167851 -0.027381372 -0.23949772
0.017170746 -0.027301539 -0.23949185
0.017173838 -0.027221622 -0.23948996
0.017177222 -0.027141573 -0.23949406
0.017180996 -0.027061351 -0.23950614
0.017184282 -0.026981348 -0.23950824
0.017186984 -0.026901603 -0.23949836
0.017189879 -0.026821772 -0.23949248
0.017192971 -0.026741855 -0.2394906
0.017195966 -0.026661981 -0.23948669
0.017199231 -0.026580019 -0.23948675
0.01720283 -0.02650184 -0.23949689
0.017205823 -0.026421964 -0.23949301
0.017208505 -0.026340265 -0.23948109
0.017211501 -0.026260391 -0.23947719
0.017214883 -0.026180344 -0.2394813
0.017218189 -0.026102293 -0.23948544
0.017221767 -0.026022159 -0.23949353
0.017224956 -0.025942197 -0.23949364
0.017227756 -0.025862411 -0.23948576
0.017230924 -0.025780493 -0.23948382
0.01723423 -0.025702443 -0.23948798
0.017237226 -0.025622569 -0.23948407
0.017240198 -0.025540739 -0.23947814
0.017243193 -0.025460865 -0.23947427
0.017246479 -0.025380861 -0.23947637
0.017249376 -0.025301028 -0.23947048
0.017252661 -0.025221024 -0.23947258
0.017256241 -0.025140891 -0.23948067
0.017259546 -0.025062839 -0.23948482
0.017262617 -0.024980966 -0.23948088
0.017265514 -0.024901137 -0.23947501
0.017268606 -0.024821218 -0.2394731
0.017271794 -0.024741257 -0.23947322
0.01727479 -0.024661383 -0.23946932
0.017277684 -0.024581552 -0.23946345
0.017280679 -0.024501678 -0.23945954
0.017283868 -0.024421716 -0.23945966
0.017287349 -0.024341624 -0.23946576
0.017290635 -0.02426162 -0.23946786
0.017293628 -0.024181744 -0.23946397
0.017296623 -0.02410187 -0.23946008
0.01729952 -0.024022039 -0.23945421
0.017302785 -0.023940079 -0.23945427
0.017305898 -0.023862116 -0.23945442
0.017308969 -0.023780245 -0.23945048
0.017312158 -0.023700282 -0.23945057
0.017315269 -0.023622319 -0.23945074
0.01731834 -0.023540447 -0.23944679
0.017321842 -0.023462309 -0.23945494
0.017325127 -0.023382306 -0.23945704
0.017327927 -0.023302518 -0.23944916
0.017330628 -0.023222774 -0.23943928
0.017333699 -0.023140902 -0.23943534
0.017336791 -0.023060983 -0.23943345
0.017340077 -0.022980979 -0.23943555
0.01734348 -0.022902885 -0.23944169
0.017346865 -0.022822836 -0.23944581
0.017350152 -0.02274283 -0.23944789
0.017353242 -0.022662913 -0.23944601
0.017356528 -0.022582909 -0.23944813
0.017359424 -0.022503078 -0.23944223
0.017362323 -0.022423247 -0.23943634
0.017365705 -0.0223432 -0.23944044
0.017368797 -0.022263281 -0.23943855
0.017371595 -0.022183493 -0.23943067
0.017374882 -0.022103488 -0.23943278
0.017378168 -0.022023484 -0.23943488
0.017381065 -0.021943653 -0.239429
0.017384157 -0.021863734 -0.23942709
0.017387345 -0.021783773 -0.23942721
0.017390436 -0.021703854 -0.2394253
0.017393917 -0.021623764 -0.23943141
0.017397398 -0.021543672 -0.23943752
0.017400198 -0.021463886 -0.23942962
0.017403191 -0.02138401 -0.23942573
0.017406283 -0.021304091 -0.23942384
0.017408984 -0.021224348 -0.23941396
0.017411979 -0.021144474 -0.23941007
0.017415363 -0.021064427 -0.23941419
0.017418843 -0.020984333 -0.23942028
0.017421838 -0.020904459 -0.23941639
0.017424734 -0.020824628 -0.2394105
0.017427437 -0.020744886 -0.23940063
0.017430527 -0.020664968 -0.23939872
0.017434105 -0.020584831 -0.23940682
0.017437391 -0.020504827 -0.23940894
0.017440094 -0.020425081 -0.23939905
0.017442893 -0.020345295 -0.23939116
0.017446276 -0.020265248 -0.23939526
0.017450146 -0.020184981 -0.23940936
0.017453551 -0.020106887 -0.2394155
0.017457031 -0.020026796 -0.23942159
0.017460318 -0.019946791 -0.23942369
0.017462825 -0.019867133 -0.23940983
0.017465429 -0.019787433 -0.23939794
0.017468814 -0.019707385 -0.23940206
0.0174721 -0.019627379 -0.23940416
0.017475093 -0.019547505 -0.23940027
0.017477892 -0.019467719 -0.23939237
0.017480984 -0.0193878 -0.23939049
0.017484076 -0.019307882 -0.23938859
0.017487263 -0.019227922 -0.2393887
0.017490648 -0.019147873 -0.23939282
0.017493641 -0.019067999 -0.23938891
0.017496537 -0.018988166 -0.23938303
0.017499434 -0.018908337 -0.23937714
0.017502526 -0.018828418 -0.23937523
0.017505618 -0.018748499 -0.23937336
0.017508807 -0.01866854 -0.23937348
0.017512092 -0.018588535 -0.23937556
0.017515281 -0.018508572 -0.23937568
0.017518394 -0.018430609 -0.23937583
0.017521659 -0.018348649 -0.23937589
0.017524576 -0.018270774 -0.23937204
0.017527355 -0.018189032 -0.23936212
0.017530855 -0.018110894 -0.23937026
0.017534142 -0.018030889 -0.23937236
0.017536629 -0.017949279 -0.23935644
0.017539449 -0.017871445 -0.23935062
0.017542813 -0.017789442 -0.23935266
0.017546117 -0.017711394 -0.23935682
0.017549697 -0.017631257 -0.23936489
0.017552495 -0.017551471 -0.23935702
0.017555295 -0.017471682 -0.23934913
0.017557977 -0.017389983 -0.23933721
0.017560288 -0.017310414 -0.23931934
0.017563011 -0.017232625 -0.23931152
0.017566588 -0.017152488 -0.23931961
0.01757085 -0.017072048 -0.23934168
0.017574428 -0.016991913 -0.23934977
0.017576935 -0.016912257 -0.23933589
0.017579636 -0.016832512 -0.23932603
0.017582728 -0.016752595 -0.23932412
0.01758582 -0.016672678 -0.23932225
0.017589202 -0.016592629 -0.23932633
0.017592216 -0.016514709 -0.2393245
0.017595112 -0.016434878 -0.23931861
0.0175984 -0.016354874 -0.23932071
0.017601589 -0.016274912 -0.23932081
0.01760429 -0.016195169 -0.23931094
0.017606992 -0.016115423 -0.23930106
0.017610669 -0.016035246 -0.23931116
0.017614441 -0.015955023 -0.23932323
0.017617747 -0.015876973 -0.23932737
0.017621014 -0.015795013 -0.23932745
0.01762354 -0.015717311 -0.23931561
0.017626144 -0.01563761 -0.23930374
0.017629508 -0.015555607 -0.23930579
0.017632717 -0.015477601 -0.23930794
0.017635711 -0.015397727 -0.23930407
0.01763851 -0.015317939 -0.23929617
0.017642088 -0.015237804 -0.23930427
0.017646251 -0.015157407 -0.23932435
0.017649539 -0.015077403 -0.23932645
0.017652143 -0.014997702 -0.23931457
0.017654553 -0.014918089 -0.2392987
0.017657254 -0.014838344 -0.23928881
0.017660443 -0.014758384 -0.23928893
0.017664041 -0.014680202 -0.23929906
0.017667523 -0.014600111 -0.23930517
0.01767071 -0.01452015 -0.23930526
0.017673898 -0.014440188 -0.23930538
0.017676698 -0.0143604 -0.23929748
0.017679498 -0.014280614 -0.23928961
0.017682783 -0.014200608 -0.23929171
0.01768646 -0.014120429 -0.2393018
0.017690059 -0.014042249 -0.23931193
0.017693032 -0.01396042 -0.239306
0.017695755 -0.013882631 -0.23929816
0.017697755 -0.013801236 -0.23927227
0.017700164 -0.013721623 -0.2392564
0.01770347 -0.013643572 -0.23926054
0.017707633 -0.013563177 -0.23928063
0.017711114 -0.013483084 -0.23928672
0.017714011 -0.013403254 -0.23928083
0.017717004 -0.013323379 -0.23927695
0.01772029 -0.013243373 -0.23927905
0.01772387 -0.013163239 -0.23928714
0.017727545 -0.013083059 -0.23929724
0.01773122 -0.013002881 -0.23930733
0.017734332 -0.012924918 -0.23930748
0.017738106 -0.012844695 -0.23931956
0.017741099 -0.012764821 -0.23931569
0.017743217 -0.012685338 -0.23929381
0.01774621 -0.012605464 -0.23928994
0.017749399 -0.012525503 -0.23929003
0.017751809 -0.012445889 -0.23927416
0.017754219 -0.012366275 -0.23925829
0.017757699 -0.012286183 -0.2392644
0.017761569 -0.012205917 -0.23927847
0.017764855 -0.012125913 -0.23928058
0.017767675 -0.01204808 -0.23927474
0.017770845 -0.011966164 -0.2392728
0.017773468 -0.011888418 -0.23926297
0.017776832 -0.011806415 -0.23926502
0.017780626 -0.011728147 -0.23927915
0.017784107 -0.011648055 -0.23928526
0.017787198 -0.011568137 -0.23928335
0.0177899 -0.011488394 -0.23927349
0.017792504 -0.011408693 -0.23926161
0.017795304 -0.011328906 -0.23925373
0.017798493 -0.011248944 -0.23925382
0.017801682 -0.011168984 -0.23925394
0.01780487 -0.011089022 -0.23925404
0.017808253 -0.011008973 -0.23925814
0.017811831 -0.010928839 -0.23926625
0.017814651 -0.010851005 -0.23926039
0.017817723 -0.010769133 -0.23925647
0.017820932 -0.010691126 -0.23925862
0.017824121 -0.010611165 -0.23925872
0.017826432 -0.010531595 -0.23924085
0.017828355 -0.010452199 -0.23921499
0.017830765 -0.010372586 -0.23919913
0.01783298 -0.010293059 -0.23917925
0.017833441 -0.010214316 -0.23912343
0.017833143 -0.010137875 -0.2390537
0.017835358 -0.010058348 -0.23903382
0.01783582 -0.0099796047 -0.238978
0.017831333 -0.0099050337 -0.2388224
0.016569767 -0.036669813 -0.23962119
0.016572641 -0.036588024 -0.23961328
0.016575633 -0.03650815 -0.23960939
0.016578408 -0.03642641 -0.23959947
0.01658099 -0.036344752 -0.23958555
0.016583961 -0.036262926 -0.23957962
0.016587242 -0.036182921 -0.2395817
0.016590644 -0.036104828 -0.23958784
0.016593615 -0.036022998 -0.23958191
0.016596897 -0.035942994 -0.23958403
0.016600298 -0.035864901 -0.23959017
0.016603366 -0.035783026 -0.23958623
0.016606454 -0.035703108 -0.23958434
0.016609425 -0.035621278 -0.23957841
0.016612513 -0.035541363 -0.23957652
0.016615601 -0.035461444 -0.23957463
0.016618961 -0.03537944 -0.23957668
0.016622655 -0.035301216 -0.23958883
0.016626153 -0.035223082 -0.23959696
0.016628832 -0.035141379 -0.23958504
0.01663151 -0.035059683 -0.23957312
0.016634578 -0.034977809 -0.23956919
0.01663786 -0.034897804 -0.23957129
0.016641144 -0.0348178 -0.23957339
0.016644621 -0.034737706 -0.23957948
0.016647613 -0.034657832 -0.23957559
0.016650485 -0.034576043 -0.23956767
0.016653789 -0.034497995 -0.23957181
0.016656974 -0.034418035 -0.23957193
0.016659826 -0.034334294 -0.23956195
0.016663034 -0.034256287 -0.23956409
0.016666394 -0.034174286 -0.23956615
0.016669482 -0.034094371 -0.23956427
0.016672473 -0.034014493 -0.23956038
0.016675659 -0.033934534 -0.23956048
0.016679233 -0.033854395 -0.23956858
0.01668271 -0.033774305 -0.23957467
0.016685799 -0.033694386 -0.23957278
0.016688693 -0.033614554 -0.23956689
0.016692054 -0.033532552 -0.23956895
0.016695648 -0.03345437 -0.2395791
0.016698521 -0.033372588 -0.23957115
0.016701005 -0.033290975 -0.23955524
0.016703684 -0.033209275 -0.23954332
0.016706869 -0.033129312 -0.23954344
0.016710367 -0.033051178 -0.23955157
0.01671404 -0.032970998 -0.23956166
0.016716935 -0.032891165 -0.23955578
0.01671971 -0.032809425 -0.23954585
0.016723089 -0.032729376 -0.23954995
0.016726568 -0.032649282 -0.23955604
0.01672985 -0.032569278 -0.23955816
0.016732939 -0.032489359 -0.23955627
0.016736027 -0.032409441 -0.23955438
0.016738921 -0.032329611 -0.23954849
0.016742086 -0.032247696 -0.23954655
0.016745467 -0.032167647 -0.23955065
0.016748771 -0.032089598 -0.23955479
0.016752053 -0.03200959 -0.23955691
0.016754732 -0.031927891 -0.23954499
0.016757702 -0.031846065 -0.23953904
0.016760888 -0.031766102 -0.23953915
0.016764171 -0.031686097 -0.23954126
0.016767573 -0.031608004 -0.2395474
0.016770855 -0.031528 -0.2395495
0.016773922 -0.031446129 -0.23954557
0.016776815 -0.031366296 -0.23953968
0.016780198 -0.031286247 -0.23954378
0.016783383 -0.031206286 -0.23954388
0.016786547 -0.031124368 -0.23954195
0.016789753 -0.031046363 -0.23954411
0.016793134 -0.030966315 -0.23954821
0.016796418 -0.030886309 -0.23955031
0.016799603 -0.030806348 -0.23955041
0.016802981 -0.030726301 -0.23955449
0.016806265 -0.030646294 -0.23955661
0.016809139 -0.030564509 -0.23954868
0.016811818 -0.03048281 -0.23953676
0.016814614 -0.030403022 -0.23952889
0.016817585 -0.030321192 -0.23952293
0.016820673 -0.030241273 -0.23952106
0.016823858 -0.030161314 -0.23952116
0.016826753 -0.030081484 -0.23951527
0.01683023 -0.030001391 -0.23952137
0.016834117 -0.029923078 -0.23953751
0.016837399 -0.029843073 -0.23953961
0.016840488 -0.029763155 -0.23953772
0.016843772 -0.029683152 -0.23953982
0.016846664 -0.029603321 -0.23953393
0.016849538 -0.029521536 -0.239526
0.016852431 -0.029441705 -0.23952013
0.016855812 -0.029361656 -0.23952422
0.016859289 -0.029281564 -0.23953032
0.016862281 -0.02920169 -0.23952642
0.016864959 -0.029119991 -0.2395145
0.016867658 -0.029040247 -0.23950462
0.016870942 -0.028960243 -0.23950672
0.016874516 -0.028880106 -0.23951483
0.016877508 -0.028800232 -0.23951094
0.016880596 -0.028720314 -0.23950905
0.016883977 -0.028640265 -0.23951316
0.016886966 -0.028560389 -0.23950925
0.016890055 -0.028480474 -0.23950738
0.016893046 -0.028400598 -0.23950347
0.016896114 -0.028318726 -0.23949954
0.016899299 -0.028238764 -0.23949966
0.016902681 -0.028158715 -0.23950374
0.01690606 -0.028078668 -0.23950785
0.016909149 -0.027998749 -0.23950596
0.016912043 -0.027918916 -0.23950008
0.016914936 -0.027839087 -0.23949419
0.016918413 -0.027758995 -0.23950028
0.016921794 -0.027678946 -0.2395044
0.016925076 -0.027598942 -0.23950648
0.016928164 -0.027519023 -0.23950461
0.016930845 -0.027437327 -0.23949268
0.016933542 -0.027357582 -0.23948279
0.016936729 -0.027277621 -0.23948291
0.016940109 -0.027197573 -0.23948701
0.016943781 -0.027117394 -0.2394971
0.016947182 -0.027039301 -0.23950323
0.016950153 -0.026957471 -0.2394973
0.016953144 -0.026877597 -0.23949343
0.016956134 -0.026797719 -0.23948954
0.016958911 -0.026715979 -0.2394796
0.016961999 -0.02663606 -0.23947772
0.016965477 -0.026555967 -0.23948382
0.016968466 -0.026476094 -0.23947993
0.016971361 -0.026396263 -0.23947403
0.016974546 -0.0263163 -0.23947415
0.016977441 -0.026236471 -0.23946826
0.01698043 -0.026156597 -0.23946437
0.016983422 -0.026076721 -0.23946048
0.016986314 -0.02599689 -0.2394546
0.016989695 -0.025916841 -0.23945871
0.016993076 -0.025836794 -0.23946281
0.016996067 -0.025756918 -0.23945892
0.016999446 -0.025676869 -0.23946302
0.017002827 -0.025596822 -0.23946711
0.017005818 -0.025516946 -0.23946323
0.017008614 -0.025437159 -0.23945534
0.017011799 -0.025357198 -0.23945546
0.017015569 -0.025276976 -0.23946753
0.017018873 -0.025198925 -0.23947169
0.017021844 -0.025117097 -0.23946576
0.017024737 -0.025037266 -0.23945987
0.017027631 -0.024957435 -0.23945397
0.017030621 -0.024877559 -0.2394501
0.017033709 -0.024797641 -0.2394482
0.01703668 -0.024715813 -0.23944227
0.017039768 -0.024635896 -0.23944038
0.017043442 -0.024555717 -0.23945048
0.017046744 -0.024477666 -0.23945463
0.017049735 -0.02439779 -0.23945074
0.017052706 -0.024315963 -0.23944479
0.017055502 -0.024236174 -0.23943692
0.017058278 -0.024154432 -0.239427
0.017061971 -0.024076208 -0.23943913
0.017065663 -0.023997983 -0.23945127
0.017068245 -0.023916328 -0.23943734
0.017071236 -0.023836454 -0.23943347
0.017075006 -0.02375623 -0.23944555
0.017078113 -0.023678267 -0.23944569
0.017080598 -0.023596657 -0.23942977
0.017083393 -0.023516869 -0.2394219
0.017086677 -0.023436865 -0.23942401
0.017090155 -0.023356773 -0.2394301
0.017093243 -0.023276854 -0.23942821
0.017096136 -0.023197023 -0.23942232
0.017099321 -0.023117062 -0.23942243
0.017102702 -0.023037013 -0.23942652
0.01710579 -0.022957096 -0.23942465
0.017108781 -0.02287722 -0.23942074
0.01711187 -0.022797301 -0.23941886
0.017115347 -0.022717211 -0.23942497
0.017119138 -0.022638943 -0.2394391
0.017122518 -0.022558894 -0.23944318
0.017124828 -0.022479324 -0.23942533
0.017127525 -0.02239958 -0.23941544
0.017131004 -0.022319488 -0.23942155
0.0171338 -0.0222397 -0.23941366
0.01713638 -0.022158045 -0.23939973
0.017139664 -0.022078041 -0.23940185
0.017143162 -0.021999903 -0.23940998
0.017146736 -0.021919768 -0.23941809
0.017150117 -0.021839719 -0.23942217
0.017153205 -0.021759801 -0.23942028
0.017155807 -0.0216801 -0.2394084
0.017158486 -0.021598402 -0.23939648
0.017161671 -0.021518441 -0.2393966
0.017164975 -0.02144039 -0.23940074
0.017168237 -0.02135843 -0.2394008
0.017171033 -0.021278644 -0.23939291
0.017174045 -0.021200724 -0.23939107
0.017177718 -0.021120545 -0.23940116
0.017181292 -0.02104041 -0.23940927
0.017184477 -0.020960446 -0.23940936
0.017187275 -0.020880658 -0.23940149
0.017189875 -0.020800959 -0.23938961
0.017193042 -0.020719044 -0.23938768
0.017196052 -0.020641122 -0.23938583
0.01719912 -0.020559249 -0.23938188
0.017202813 -0.020481028 -0.23939404
0.017205706 -0.020401195 -0.23938814
0.017208189 -0.020319583 -0.23937222
0.01721159 -0.02024149 -0.23937836
0.01721536 -0.020161267 -0.23939046
0.017218741 -0.020081218 -0.23939458
0.017221536 -0.02000143 -0.23938668
0.017223943 -0.019921817 -0.23937081
0.017226446 -0.019842159 -0.23935694
0.017229516 -0.019760288 -0.239353
0.017232623 -0.019682324 -0.23935315
0.017235518 -0.019602494 -0.23934728
0.017239092 -0.019522358 -0.23935536
0.017243175 -0.019443959 -0.23937549
0.017246243 -0.019362088 -0.23937155
0.017248746 -0.01928243 -0.23935768
0.017251758 -0.01920451 -0.23935583
0.017255215 -0.019122463 -0.23935989
0.017258324 -0.0190445 -0.23936003
0.017261295 -0.01896267 -0.2393541
0.01726409 -0.018882884 -0.23934624
0.017267296 -0.018804878 -0.23934838
0.017270483 -0.018724915 -0.23934847
0.017273473 -0.018645041 -0.2393446
0.017277047 -0.018564906 -0.23935269
0.017280135 -0.018484987 -0.2393508
0.017283322 -0.018405026 -0.2393509
0.017286994 -0.018324846 -0.23936099
0.017290005 -0.018246926 -0.23935914
0.017292587 -0.018165272 -0.23934522
0.017294895 -0.018085701 -0.23932737
0.017298082 -0.01800574 -0.23932748
0.017301366 -0.017925736 -0.23932958
0.017304454 -0.017845817 -0.23932767
0.017307736 -0.017765813 -0.23932979
0.017311018 -0.017685808 -0.23933189
0.017314225 -0.017607801 -0.23933405
0.017317293 -0.017525928 -0.23933011
0.017320186 -0.017446097 -0.23932421
0.017323371 -0.017366134 -0.23932433
0.017326482 -0.017288171 -0.23932448
0.017329667 -0.017208211 -0.23932458
0.017332658 -0.017128335 -0.2393207
0.017335648 -0.01704846 -0.23931681
0.01733854 -0.01696863 -0.23931092
0.017341824 -0.016888626 -0.23931304
0.017345497 -0.016808446 -0.23932312
0.017348683 -0.016728485 -0.23932323
0.017351381 -0.01664874 -0.23931335
0.017353496 -0.016569257 -0.23929149
0.01735561 -0.016489774 -0.23926961
0.017359186 -0.016409639 -0.23927772
0.017363463 -0.016331153 -0.23930183
0.017367037 -0.016251018 -0.23930994
0.017370028 -0.016171144 -0.23930603
0.017372631 -0.016091444 -0.23929417
0.017375037 -0.016011829 -0.23927829
0.017378125 -0.015931912 -0.23927641
0.017381992 -0.015851645 -0.23929049
0.017385762 -0.015771423 -0.23930258
0.017389044 -0.015691418 -0.23930469
0.01739186 -0.015613585 -0.23929885
0.017394831 -0.015531756 -0.23929292
0.017397746 -0.015453879 -0.23928908
0.017400911 -0.015371963 -0.23928714
0.017403923 -0.015294043 -0.23928529
0.017407594 -0.015213864 -0.23929539
0.017411169 -0.015133729 -0.23930347
0.017413966 -0.015053941 -0.2392956
0.017417055 -0.014974022 -0.23929369
0.017420046 -0.014894149 -0.23928982
0.017422061 -0.014814709 -0.23926595
0.017424859 -0.014734922 -0.23925808
0.017429212 -0.014654439 -0.23928215
0.017432982 -0.014574216 -0.23929423
0.017435897 -0.014496339 -0.23929039
0.017438887 -0.014416465 -0.23928651
0.017441779 -0.014336633 -0.23928061
0.017444771 -0.014256759 -0.23927674
0.017448347 -0.014176624 -0.23928483
0.017451143 -0.014096836 -0.23927695
0.017453451 -0.014017266 -0.23925906
0.017456053 -0.013937565 -0.2392472
0.017459141 -0.013857648 -0.23924531
0.017462619 -0.013777556 -0.23925141
0.017466098 -0.013697464 -0.23925751
0.017469302 -0.013619456 -0.23925966
0.01747198 -0.013537758 -0.23924774
0.017475966 -0.013459403 -0.23926586
0.017478665 -0.01337966 -0.23925598
0.017481754 -0.013299741 -0.23925409
0.017484743 -0.013219867 -0.2392502
0.017487541 -0.013140079 -0.23924232
0.017490726 -0.013060117 -0.23924243
0.017494204 -0.012980025 -0.23924851
0.017496999 -0.012900238 -0.23924065
0.017499503 -0.012820581 -0.23922676
0.017502494 -0.012740707 -0.23922288
0.01750648 -0.012662351 -0.239241
0.017510444 -0.012582042 -0.2392571
0.017514117 -0.012501863 -0.23926719
0.017518081 -0.012421554 -0.23928326
0.017521461 -0.012341505 -0.23928736
0.01752416 -0.012261761 -0.23927748
0.017527152 -0.012181886 -0.23927361
0.017530337 -0.012101925 -0.2392737
0.017533446 -0.012023961 -0.23927386
0.017536806 -0.011941958 -0.23927592
0.017539719 -0.011864082 -0.23927207
0.017542494 -0.01178234 -0.23926213
0.017545117 -0.011704594 -0.23925231
0.01754801 -0.011624763 -0.23924643
0.017551586 -0.011544628 -0.23925453
0.01755516 -0.011464492 -0.23926261
0.017558346 -0.011384531 -0.23926273
0.017561726 -0.011304482 -0.23926681
0.017565107 -0.011224434 -0.23927093
0.017568098 -0.011144559 -0.23926705
0.017571088 -0.011064685 -0.23926315
0.017574176 -0.010984766 -0.23926125
0.017577363 -0.010904805 -0.23926136
0.017580276 -0.010826929 -0.23925751
0.017583344 -0.010745056 -0.23925358
0.01758616 -0.010667223 -0.23924774
0.017586425 -0.010588567 -0.23918794
0.017584059 -0.010511084 -0.23907422
0.017583955 -0.010434555 -0.23900846
0.017584998 -0.010355551 -0.23896463
0.017586917 -0.010276155 -0.23893878
0.017590005 -0.010196237 -0.23893687
0.017593678 -0.010116057 -0.23894697
0.017596863 -0.010036096 -0.23894708
0.017599659 -0.0099563086 -0.2389392
0.016269851 -0.036610335 -0.23953325
0.016273133 -0.036530331 -0.23953536
0.016276317 -0.036450371 -0.23953547
0.016279109 -0.036370583 -0.23952758
0.016281882 -0.036288843 -0.23951766
0.016285066 -0.036208879 -0.23951775
0.016288228 -0.036126964 -0.23951581
0.016291216 -0.03604709 -0.23951194
0.016294401 -0.035967126 -0.23951203
0.016297877 -0.035887036 -0.23951814
0.01630147 -0.035808854 -0.23952827
0.01630475 -0.035728849 -0.23953038
0.016307836 -0.035648931 -0.23952848
0.016310804 -0.035567105 -0.23952255
0.016314182 -0.035487056 -0.23952666
0.016317463 -0.035407051 -0.23952875
0.016320333 -0.035325263 -0.23952082
0.016323322 -0.035245389 -0.23951694
0.016326603 -0.035165384 -0.23951903
0.016329883 -0.03508538 -0.23952115
0.016332872 -0.035005502 -0.23951724
0.016336132 -0.034923546 -0.2395173
0.016339628 -0.034845404 -0.23952547
0.016342714 -0.034765489 -0.23952356
0.016345389 -0.03468379 -0.23951164
0.016348356 -0.034601964 -0.23950571
0.016351638 -0.034521956 -0.23950779
0.016355015 -0.034441907 -0.23951191
0.016358199 -0.034361947 -0.23951201
0.016361382 -0.034281984 -0.23951212
0.016364664 -0.03420198 -0.23951423
0.016367652 -0.034122106 -0.23951033
0.016370522 -0.034040317 -0.2395024
0.016373511 -0.033960443 -0.23949853
0.016376888 -0.033880398 -0.23950261
0.016380072 -0.033800434 -0.23950271
0.016383234 -0.033718519 -0.23950078
0.016386613 -0.03363847 -0.23950487
0.016389914 -0.033560418 -0.23950902
0.016392685 -0.033478677 -0.23949909
0.016395461 -0.033396933 -0.23948917
0.016398739 -0.033316933 -0.23949127
0.016402021 -0.033236925 -0.23949337
0.016405303 -0.033156916 -0.23949549
0.016408388 -0.033077002 -0.23949358
0.016411571 -0.032997042 -0.23949368
0.016415145 -0.032916903 -0.23950179
0.016418327 -0.032836944 -0.23950189
0.016420828 -0.032757286 -0.23948801
0.016423991 -0.032675371 -0.23948607
0.016427487 -0.032597233 -0.23949422
0.016430866 -0.032517184 -0.23949832
0.016433833 -0.032435354 -0.23949239
0.016436823 -0.03235548 -0.2394885
0.016440101 -0.032275476 -0.2394906
0.016443599 -0.032197338 -0.23949875
0.016447073 -0.032117248 -0.23950484
0.016450042 -0.032035418 -0.23949891
0.01645264 -0.031955715 -0.23948702
0.016455511 -0.03187393 -0.23947909
0.016458791 -0.031793922 -0.2394812
0.016462462 -0.031713746 -0.2394913
0.016465666 -0.031635739 -0.23949343
0.016469141 -0.031555645 -0.23949954
0.016472228 -0.03147573 -0.23949765
0.016474999 -0.031393986 -0.23948771
0.016477969 -0.03131216 -0.23948179
0.016480956 -0.031232283 -0.2394779
0.016484139 -0.031152321 -0.23947801
0.01648742 -0.031072317 -0.23948011
0.016490819 -0.030994223 -0.23948625
0.016494079 -0.030912261 -0.23948631
0.016496969 -0.030832432 -0.23948042
0.016499646 -0.030750733 -0.2394685
0.016503219 -0.030670596 -0.23947659
0.01650691 -0.030592373 -0.23948872
0.016509995 -0.030512456 -0.23948684
0.016513277 -0.030432448 -0.23948894
0.016516361 -0.030352529 -0.23948705
0.016519135 -0.030270789 -0.23947713
0.016522026 -0.030190958 -0.23947123
0.016525306 -0.030110953 -0.23947334
0.016528685 -0.030030902 -0.23947743
0.016532062 -0.029950853 -0.23948154
0.016535344 -0.029870849 -0.23948362
0.016538136 -0.029791063 -0.23947576
0.016541008 -0.029709278 -0.23946783
0.016544092 -0.029629359 -0.23946592
0.016547296 -0.029551351 -0.2394681
0.016550675 -0.029471302 -0.23947218
0.016553739 -0.02938943 -0.23946825
0.016556319 -0.029307775 -0.23945433
0.016559307 -0.029227901 -0.23945042
0.01656249 -0.029147938 -0.23945054
0.016565477 -0.029068064 -0.23944664
0.016568661 -0.028988102 -0.23944676
0.016571844 -0.028908141 -0.23944686
0.016574834 -0.028828265 -0.23944297
0.016578114 -0.028748263 -0.23944508
0.016581491 -0.028668214 -0.23944917
0.01658448 -0.028588338 -0.2394453
0.016587254 -0.028506596 -0.23943536
0.016590144 -0.028426765 -0.23942947
0.016593542 -0.028348669 -0.23943561
0.0165969 -0.028266668 -0.23943768
0.01659989 -0.028186793 -0.2394338
0.016603071 -0.028106833 -0.2394339
0.016606666 -0.028028652 -0.23944402
0.016610043 -0.027948603 -0.23944813
0.016612934 -0.02786877 -0.23944224
0.016616117 -0.02778881 -0.23944235
0.01661928 -0.027706893 -0.23944041
0.016621977 -0.027627151 -0.23943052
0.016624965 -0.027547276 -0.23942664
0.016628128 -0.02746536 -0.23942471
0.016631624 -0.027387222 -0.23943284
0.016634904 -0.027307216 -0.23943496
0.016637795 -0.027227385 -0.23942906
0.016640784 -0.027147513 -0.23942518
0.016644161 -0.027067464 -0.23942927
0.01664713 -0.026985634 -0.23942333
0.016649416 -0.026904108 -0.23940343
0.016652111 -0.026824364 -0.23939353
0.016655196 -0.026744448 -0.23939165
0.016658574 -0.026664399 -0.23939575
0.016662169 -0.026586216 -0.2394059
0.016665353 -0.026506254 -0.239406
0.016668536 -0.026426295 -0.23940611
0.016672226 -0.026348069 -0.23941824
0.016675701 -0.026267977 -0.23942433
0.016678691 -0.026188102 -0.23942044
0.01668117 -0.026106492 -0.23940453
0.016683552 -0.026024923 -0.23938662
0.016686445 -0.025945092 -0.23938072
0.016690018 -0.025864957 -0.23938882
0.016693318 -0.025786906 -0.23939297
0.016696598 -0.025706898 -0.23939508
0.016699784 -0.025626939 -0.23939517
0.016702965 -0.025546977 -0.23939528
0.016706247 -0.025466971 -0.23939738
0.016709235 -0.025387097 -0.2393935
0.016712517 -0.025307093 -0.23939559
0.01671599 -0.025226999 -0.2394017
0.016719077 -0.025147082 -0.23939981
0.016722161 -0.025067165 -0.23939791
0.016725151 -0.02498729 -0.23939402
0.016727846 -0.024907546 -0.23938414
0.016730815 -0.024825716 -0.23937821
0.016734408 -0.024747536 -0.23938835
0.016737785 -0.024667487 -0.23939244
0.016740482 -0.024587743 -0.23938257
0.016743451 -0.024505913 -0.23937663
0.016746439 -0.024426039 -0.23937275
0.016749427 -0.024346165 -0.23936886
0.016752709 -0.024266161 -0.23937096
0.01675589 -0.024186198 -0.23937106
0.01675888 -0.024106324 -0.23936719
0.016762257 -0.024026275 -0.23937127
0.016765364 -0.023948312 -0.23937142
0.016768623 -0.023866352 -0.23937148
0.016771633 -0.02378843 -0.23936963
0.016774893 -0.023706472 -0.23936969
0.016777784 -0.02362664 -0.23936382
0.016780481 -0.023546897 -0.23935392
0.016783565 -0.023466978 -0.23935205
0.016786847 -0.023386974 -0.23935415
0.016790126 -0.02330697 -0.23935625
0.016793624 -0.023228832 -0.23936439
0.016797293 -0.023148652 -0.23937447
0.016800281 -0.023068778 -0.23937058
0.016803466 -0.022988815 -0.2393707
0.016806863 -0.022910722 -0.23937684
0.01680995 -0.022830803 -0.23937495
0.016812548 -0.022751104 -0.23936307
0.016815223 -0.022669405 -0.23935115
0.016818795 -0.02258927 -0.23935924
0.016822195 -0.022511173 -0.2393654
0.016824773 -0.022429518 -0.23935147
0.016827859 -0.022349602 -0.23934957
0.016831042 -0.02226964 -0.23934968
0.016833641 -0.022189939 -0.2393378
0.016836725 -0.022110021 -0.23933591
0.01683991 -0.022030059 -0.23933601
0.016843092 -0.021950098 -0.23933612
0.016846277 -0.021870136 -0.23933622
0.016849168 -0.021790305 -0.23933035
0.016852349 -0.021710344 -0.23933044
0.016855728 -0.021630295 -0.23933455
0.016858639 -0.021552417 -0.23933071
0.016861899 -0.021470459 -0.23933077
0.016865201 -0.021392409 -0.23933491
0.016868383 -0.021312447 -0.23933502
0.016871274 -0.021232616 -0.23932913
0.016874263 -0.021152742 -0.23932526
0.016877739 -0.021072648 -0.23933133
0.016880434 -0.020992905 -0.23932147
0.016882721 -0.020911381 -0.23930155
0.016885806 -0.020831462 -0.23929965
0.016889594 -0.020753196 -0.23931378
0.016892973 -0.020673145 -0.23931789
0.016895669 -0.020593401 -0.239308
0.016898831 -0.020511486 -0.23930606
0.016901625 -0.020431697 -0.23929819
0.016904125 -0.020352041 -0.23928431
0.016908109 -0.020273685 -0.23930243
0.016912287 -0.020195244 -0.23932457
0.016915567 -0.020115238 -0.23932666
0.016918752 -0.020035278 -0.23932676
0.016921544 -0.01995549 -0.23931889
0.016924025 -0.019873878 -0.23930296
0.016926331 -0.019794308 -0.23928508
0.016929125 -0.019714519 -0.23927721
0.016933011 -0.019636208 -0.23929334
0.016936779 -0.019555986 -0.23930544
0.01693967 -0.019476155 -0.23929954
0.016942658 -0.019396281 -0.23929565
0.016945645 -0.019316405 -0.23929176
0.016948828 -0.019236444 -0.23929188
0.016951622 -0.019156657 -0.23928399
0.016954318 -0.019076912 -0.23927411
0.016957307 -0.018997036 -0.23927023
0.016960587 -0.018917032 -0.23927233
0.016963674 -0.018837115 -0.23927043
0.01696717 -0.018758977 -0.23927858
0.016971035 -0.01867871 -0.23929265
0.016973926 -0.018598881 -0.23928678
0.016976114 -0.018517397 -0.23926486
0.016978711 -0.018437698 -0.23925298
0.016981896 -0.018357735 -0.2392531
0.016985275 -0.018277688 -0.23925719
0.016988184 -0.018199811 -0.23925334
0.016991368 -0.018119849 -0.23925346
0.016994551 -0.018039888 -0.23925355
0.016997442 -0.017960057 -0.23924768
0.017000724 -0.017880052 -0.23924977
0.017004296 -0.017799916 -0.23925787
0.017007381 -0.017719999 -0.23925596
0.017010175 -0.017640211 -0.2392481
0.017013358 -0.017560249 -0.2392482
0.017016737 -0.017480202 -0.2392523
0.017019842 -0.017402237 -0.23925245
0.017022908 -0.017320365 -0.23924851
0.017025722 -0.017242532 -0.23924267
0.017028611 -0.017162699 -0.2392368
0.017031796 -0.01708274 -0.23923689
0.017035076 -0.017002733 -0.23923899
0.017038552 -0.016922642 -0.23924509
0.017042048 -0.016844504 -0.23925324
0.017045621 -0.016764369 -0.23926133
0.017048903 -0.016684363 -0.23926343
0.017051794 -0.016604532 -0.23925754
0.017053904 -0.016525049 -0.23923568
0.017056113 -0.016445523 -0.23921582
0.01705949 -0.016365474 -0.23921993
0.017063357 -0.016285207 -0.239234
0.017066637 -0.016205203 -0.23923612
0.017068943 -0.016125632 -0.23921824
0.017071445 -0.016045975 -0.23920438
0.01707492 -0.015965883 -0.23921046
0.017078707 -0.015887616 -0.2392246
0.017082475 -0.015807392 -0.23923668
0.017085854 -0.015727345 -0.23924078
0.017088745 -0.015647512 -0.23923489
0.01709144 -0.015567768 -0.23922503
0.017094623 -0.015487807 -0.23922512
0.01709771 -0.015407889 -0.23922323
0.017100697 -0.015328014 -0.23921934
0.017104097 -0.015249921 -0.23922549
0.017107377 -0.015169915 -0.23922759
0.017110366 -0.015090041 -0.2392237
0.017113451 -0.015010122 -0.23922181
0.017116245 -0.014930335 -0.23921393
0.017119525 -0.01485033 -0.23921603
0.017123099 -0.014770194 -0.23922414
0.017125988 -0.014690363 -0.23921824
0.017128881 -0.014610533 -0.23921236
0.017131966 -0.014530614 -0.23921046
0.017135462 -0.014452476 -0.23921859
0.017138839 -0.014372428 -0.23922271
0.017141828 -0.014292553 -0.23921882
0.017145401 -0.014212417 -0.23922691
0.017149365 -0.014132109 -0.239243
0.01715206 -0.014052364 -0.23923311
0.017154075 -0.013972924 -0.23920925
0.017156867 -0.013893137 -0.23920137
0.017160168 -0.013815086 -0.23920551
0.017163038 -0.013733301 -0.23919758
0.01716556 -0.013655598 -0.23918575
0.017168256 -0.013575854 -0.23917587
0.017171439 -0.013495892 -0.23917598
0.017175596 -0.013415496 -0.23919606
0.017179171 -0.01333536 -0.23920415
0.017181477 -0.01325579 -0.23918629
0.017184075 -0.013176089 -0.2391744
0.017187648 -0.013095954 -0.2391825
0.017191241 -0.013017773 -0.23919263
0.01719423 -0.012937898 -0.23918875
0.017196925 -0.012858154 -0.23917887
0.017199913 -0.01277828 -0.23917498
0.017202511 -0.01269858 -0.2391631
0.017205209 -0.012618835 -0.23915322
0.017208587 -0.012538786 -0.23915732
0.017212063 -0.012458694 -0.23916341
0.017215265 -0.012380688 -0.23916557
0.017218644 -0.012300638 -0.23916966
0.017222412 -0.012220416 -0.23918176
0.01722618 -0.012140193 -0.23919386
0.017229168 -0.012060319 -0.23918995
0.017231669 -0.011980661 -0.23917609
0.017234853 -0.011900701 -0.23917618
0.017238524 -0.011820521 -0.23918629
0.017241316 -0.011740733 -0.23917839
0.017243817 -0.011661076 -0.23916453
0.017246533 -0.011583286 -0.23915669
0.017249716 -0.011503325 -0.23915678
0.017253291 -0.011423189 -0.23916489
0.01725696 -0.01134301 -0.23917498
0.01726063 -0.011262831 -0.23918507
0.017264301 -0.011182652 -0.23919517
0.01726768 -0.011102604 -0.23919925
0.017270766 -0.011022685 -0.23919737
0.017273948 -0.010942724 -0.23919748
0.017276838 -0.010862892 -0.23919159
0.017279457 -0.010785147 -0.23918176
0.017282836 -0.010705099 -0.23918584
0.017286019 -0.010625136 -0.23918596
0.017264176 -0.010558311 -0.23867485
0.017264728 -0.010479524 -0.23862103
0.017263934 -0.010403301 -0.23854128
0.017263805 -0.010324818 -0.2384735
0.017265428 -0.010245552 -0.23844165
0.017268144 -0.010167764 -0.23843381
0.017272498 -0.01008728 -0.23845789
0.017278507 -0.010006056 -0.2385159
0.017284419 -0.0099248765 -0.23857193
0.017289454 -0.0098440889 -0.23860997
0.015854195 -0.036550622 -0.23958255
0.015856966 -0.036468878 -0.23957263
0.01586003 -0.036387008 -0.23956868
0.015863135 -0.036309041 -0.23956884
0.015866296 -0.036227126 -0.23956691
0.015869282 -0.036147252 -0.23956302
0.015872445 -0.036065336 -0.23956108
0.015875528 -0.035985418 -0.23955917
0.015878711 -0.035905458 -0.23955929
0.015881892 -0.035825495 -0.23955938
0.015884858 -0.035743669 -0.23955345
0.015888136 -0.035663661 -0.23955557
0.015891436 -0.035585612 -0.23955971
0.015894715 -0.035505608 -0.2395618
0.015897682 -0.035423778 -0.23955587
0.015900647 -0.035341948 -0.23954993
0.015903732 -0.03526203 -0.23954806
0.015906621 -0.035182197 -0.23954217
0.015909588 -0.035100371 -0.23953623
0.015912965 -0.035020322 -0.23954032
0.015916146 -0.034940362 -0.23954043
0.015919132 -0.034860484 -0.23953655
0.015922509 -0.034780435 -0.23954064
0.015925691 -0.034700476 -0.23954076
0.015928559 -0.034618691 -0.23953281
0.015931448 -0.034538858 -0.23952693
0.015934512 -0.034456983 -0.23952299
0.01593779 -0.034376979 -0.23952509
0.015941285 -0.034298845 -0.23953323
0.015944663 -0.034218796 -0.23953734
0.015947824 -0.034136876 -0.23953539
0.015950907 -0.034056962 -0.23953351
0.015953992 -0.033977039 -0.23953161
0.015957076 -0.033897121 -0.23952973
0.015960336 -0.03381516 -0.23952979
0.015963517 -0.033735201 -0.23952988
0.015966892 -0.033655152 -0.23953399
0.01597029 -0.033577058 -0.23954013
0.015973374 -0.03349714 -0.23953824
0.015976341 -0.03341531 -0.23953229
0.015979014 -0.033333611 -0.23952037
0.015982078 -0.03325174 -0.23951644
0.015985161 -0.033171821 -0.23951456
0.015988149 -0.033091947 -0.23951066
0.015991427 -0.033011943 -0.23951276
0.015994512 -0.032932021 -0.23951086
0.015997576 -0.032850154 -0.23950693
0.016000561 -0.032770276 -0.23950306
0.016003743 -0.032690316 -0.23950315
0.016007336 -0.03261213 -0.23951328
0.016010929 -0.032533951 -0.23952341
0.016013797 -0.032452166 -0.23951548
0.016016666 -0.032370381 -0.23950756
0.016019652 -0.032290507 -0.23950368
0.016022932 -0.032210499 -0.23950577
0.01602621 -0.032130495 -0.23950788
0.016028982 -0.032048754 -0.23949796
0.01603226 -0.03196875 -0.23950005
0.016035754 -0.031890612 -0.23950818
0.016039133 -0.031810563 -0.23951229
0.016042508 -0.031730514 -0.23951639
0.01604569 -0.031650554 -0.2395165
0.016048461 -0.03156881 -0.23950657
0.016051253 -0.031489022 -0.23949867
0.016054122 -0.031407237 -0.23949075
0.016056914 -0.031327449 -0.23948288
0.016060095 -0.031247487 -0.23948297
0.016063668 -0.031167351 -0.23949108
0.016067142 -0.031087259 -0.23949717
0.016070224 -0.031007342 -0.23949528
0.016073504 -0.030927336 -0.23949738
0.016076081 -0.030845681 -0.23948345
0.016079068 -0.030765807 -0.23947957
0.016082659 -0.030687626 -0.2394897
0.016086016 -0.030605623 -0.23949176
0.016088905 -0.030525792 -0.23948586
0.01609187 -0.030443963 -0.23947993
0.016094975 -0.030366 -0.23948009
0.016098449 -0.030285906 -0.23948619
0.016101826 -0.030205857 -0.23949029
0.016104911 -0.03012594 -0.23948839
0.016108092 -0.030045979 -0.23948848
0.016111176 -0.02996606 -0.2394866
0.016114261 -0.029886143 -0.2394847
0.016117636 -0.029806094 -0.23948881
0.016121112 -0.029726001 -0.2394949
0.016124001 -0.029646171 -0.23948902
0.01612648 -0.029564559 -0.2394731
0.016129367 -0.029484728 -0.23946722
0.016132647 -0.029404724 -0.23946932
0.016135711 -0.02932285 -0.23946539
0.016139109 -0.029244754 -0.23947152
0.016142875 -0.029164532 -0.23948361
0.016145978 -0.029086569 -0.23948377
0.016149044 -0.029004695 -0.23947982
0.016151641 -0.028924996 -0.23946795
0.016154509 -0.028843209 -0.23946002
0.016157884 -0.028763162 -0.23946412
0.016161088 -0.028685154 -0.23946628
0.016163858 -0.028603412 -0.23945634
0.016166747 -0.028523581 -0.23945045
0.016170124 -0.028443532 -0.23945455
0.016173597 -0.02836344 -0.23946065
0.016176682 -0.028283523 -0.23945875
0.01617955 -0.028201737 -0.23945083
0.016182439 -0.028121907 -0.23944494
0.016185816 -0.028041858 -0.23944904
0.016189506 -0.027963633 -0.23946118
0.016192492 -0.027883757 -0.23945729
0.016195264 -0.027802017 -0.23944736
0.016198153 -0.027722184 -0.23944147
0.01620153 -0.027642138 -0.23944557
0.016205024 -0.027564 -0.23945372
0.016208109 -0.027484082 -0.23945183
0.016211074 -0.027402252 -0.23944589
0.016214062 -0.027322378 -0.23944199
0.016216833 -0.027240634 -0.23943207
0.016219819 -0.02716076 -0.23942818
0.016223509 -0.027082535 -0.23944032
0.016226983 -0.027002443 -0.23944642
0.016230164 -0.026922481 -0.23944652
0.016233033 -0.026840694 -0.23943859
0.016235631 -0.026760994 -0.2394267
0.016238909 -0.026680989 -0.23942882
0.016242286 -0.02660094 -0.23943292
0.016245389 -0.026522977 -0.23943305
0.016248357 -0.026441149 -0.23942713
0.016251246 -0.026361316 -0.23942125
0.016254427 -0.026281355 -0.23942134
0.016257707 -0.026201351 -0.23942345
0.016261103 -0.026123257 -0.23942959
0.016264362 -0.026041297 -0.23942965
0.016267251 -0.025961466 -0.23942375
0.01627014 -0.025881635 -0.23941788
0.016273517 -0.025801586 -0.23942198
0.016277011 -0.025723448 -0.23943011
0.016279997 -0.025643572 -0.23942623
0.016282769 -0.025561832 -0.2394163
0.016285658 -0.025481999 -0.23941042
0.016288839 -0.025402039 -0.23941052
0.016292216 -0.02532199 -0.23941462
0.016295496 -0.025241984 -0.23941672
0.0162986 -0.025164021 -0.23941687
0.016301684 -0.025084103 -0.23941499
0.016304748 -0.02500223 -0.23941104
0.016307637 -0.024922399 -0.23940516
0.016310722 -0.024842482 -0.23940328
0.016314097 -0.024762433 -0.23940736
0.0163173 -0.024684425 -0.23940951
0.016320461 -0.024602508 -0.23940757
0.016323544 -0.024522591 -0.23940569
0.016326435 -0.02444276 -0.23939979
0.016329421 -0.024362884 -0.23939592
0.016332895 -0.024282794 -0.239402
0.01633637 -0.024202701 -0.23940811
0.016339377 -0.024124781 -0.23940626
0.016342245 -0.024042994 -0.23939833
0.016345037 -0.023963207 -0.23939043
0.016348023 -0.023883332 -0.23938656
0.016351497 -0.023803242 -0.23939265
0.016354874 -0.023723193 -0.23939675
0.016357861 -0.023643317 -0.23939286
0.016360847 -0.023563443 -0.23938897
0.016364127 -0.023483438 -0.23939106
0.016367523 -0.023405343 -0.23939723
0.016370608 -0.023325425 -0.23939532
0.016373379 -0.023243684 -0.2393854
0.016376561 -0.023163721 -0.23938549
0.016379762 -0.023085713 -0.23938765
0.016382728 -0.023003886 -0.23938172
0.016385619 -0.022924054 -0.23937583
0.016388703 -0.022844136 -0.23937395
0.016391903 -0.022766128 -0.23937608
