# .PCD v0.7 - Point Cloud Data file format
VERSION 0.7
FIELDS x y z
SIZE 4 4 4
TYPE F F F
COUNT 1 1 1
WIDTH 1270
HEIGHT 1
VIEWPOINT 0 0 0 1 0 0 0
POINTS 1270
DATA ascii
-0.097264156 -0.059709597 -0.26835597
-0.097261235 -0.05963172 -0.26835212
-0.097257726 -0.059553586 -0.26836026
-0.097254418 -0.059475534 -0.26836443
-0.097251318 -0.059395615 -0.26836252
-0.09724801 -0.059317566 -0.26836669
-0.09724509 -0.059239689 -0.26836285
-0.097242482 -0.05915999 -0.26835096
-0.097239561 -0.059082113 -0.26834714
-0.097236246 -0.059004061 -0.26835129
-0.097232856 -0.058924016 -0.26835537
-0.097229935 -0.058846138 -0.26835155
-0.097227015 -0.058768261 -0.26834771
-0.097223707 -0.058690213 -0.26835185
-0.097220704 -0.058610339 -0.26834798
-0.097218081 -0.058532592 -0.26833814
-0.097215161 -0.058454715 -0.2683343
-0.097211868 -0.05837471 -0.26833642
-0.097208358 -0.058296572 -0.26834455
-0.097205341 -0.058218654 -0.2683427
-0.097202323 -0.058140732 -0.26834089
-0.097199112 -0.058062728 -0.26834303
-0.097196013 -0.05798281 -0.26834112
-0.097193189 -0.057904977 -0.26833528
-0.097190365 -0.057827145 -0.26832947
-0.097186878 -0.057747051 -0.26833555
-0.097183473 -0.057668958 -0.26834172
-0.097180456 -0.05759104 -0.26833987
-0.097177461 -0.057511166 -0.26833597
-0.097174533 -0.057433289 -0.26833212
-0.097171418 -0.057355326 -0.2683323
-0.097168304 -0.057277363 -0.26833245
-0.097165011 -0.057197355 -0.26833457
-0.097161703 -0.057119306 -0.26833871
-0.097158194 -0.057041168 -0.26834685
-0.097154982 -0.056963164 -0.26834899
-0.097152084 -0.056883331 -0.26834312
-0.097149745 -0.056805715 -0.2683273
-0.097147018 -0.056727927 -0.26831949
-0.097143829 -0.056647968 -0.26831958
-0.097140707 -0.056570001 -0.26831973
-0.097137302 -0.056491908 -0.26832587
-0.097133718 -0.056411773 -0.26833397
-0.097130604 -0.05633381 -0.26833415
-0.097127683 -0.056255933 -0.26833031
-0.097124666 -0.056178015 -0.26832846
-0.097121567 -0.056098096 -0.26832658
-0.097118549 -0.056020178 -0.26832473
-0.097115628 -0.055942301 -0.26832089
-0.097112514 -0.055864338 -0.26832104
-0.097109124 -0.055784289 -0.26832515
-0.09710601 -0.055706326 -0.2683253
-0.09710338 -0.055628579 -0.26831546
-0.097100481 -0.05554875 -0.26830959
-0.097097263 -0.055470742 -0.26831174
-0.097094148 -0.055392779 -0.26831189
-0.097091325 -0.055314947 -0.26830608
-0.097087935 -0.055234898 -0.26831016
-0.097084433 -0.05515676 -0.2683183
-0.097081408 -0.055078842 -0.26831648
-0.097078703 -0.054999098 -0.26830658
-0.097075686 -0.054921176 -0.26830474
-0.097072572 -0.054843213 -0.26830488
-0.097069457 -0.054765251 -0.26830506
-0.097066239 -0.054687243 -0.26830721
-0.097062856 -0.054607198 -0.26831132
-0.097059831 -0.054529276 -0.26830947
-0.097056836 -0.054449402 -0.2683056
-0.097054012 -0.054371569 -0.26829976
-0.097050995 -0.054293651 -0.26829791
-0.09704788 -0.054215685 -0.26829806
-0.097044565 -0.054137636 -0.2683022
-0.097041473 -0.054057717 -0.26830032
-0.097038746 -0.05397993 -0.26829249
-0.097035632 -0.053901967 -0.26829267
-0.097032048 -0.053821832 -0.26830074
-0.097028539 -0.053743694 -0.26830888
-0.097025424 -0.053665731 -0.26830906
-0.097022526 -0.053585898 -0.26830316
-0.097019799 -0.05350811 -0.26829535
-0.097016677 -0.053430147 -0.26829547
-0.09701366 -0.053352226 -0.26829365
-0.097010761 -0.053272396 -0.26828778
-0.097007938 -0.053194564 -0.26828194
-0.09700463 -0.053116512 -0.26828608
-0.097001046 -0.053036377 -0.26829416
-0.096997924 -0.052958414 -0.26829433
-0.096995108 -0.052880581 -0.26828849
-0.096992202 -0.052800752 -0.26828259
-0.096989378 -0.05272292 -0.26827678
-0.096986264 -0.052644953 -0.26827693
-0.096982755 -0.052566819 -0.26828507
-0.096979372 -0.05248677 -0.26828918
-0.096976452 -0.052408893 -0.26828533
-0.09697333 -0.05233093 -0.26828548
-0.096970238 -0.052251011 -0.26828361
-0.096967608 -0.052173268 -0.26827377
-0.0969643 -0.052095216 -0.26827794
-0.096960716 -0.052015081 -0.26828602
-0.096957594 -0.051937118 -0.26828617
-0.096954383 -0.051859111 -0.26828831
-0.096951075 -0.051781062 -0.26829249
-0.096947879 -0.051701099 -0.26829261
-0.096944861 -0.051623181 -0.26829076
-0.096941844 -0.051545262 -0.26828891
-0.096938744 -0.051465344 -0.268287
-0.09693592 -0.051387511 -0.26828119
-0.096933097 -0.051309675 -0.26827535
-0.096930005 -0.05122976 -0.26827347
-0.096926495 -0.051151622 -0.26828161
-0.096923381 -0.051073659 -0.26828176
-0.096920185 -0.0509937 -0.26828188
-0.09691707 -0.050915733 -0.26828203
-0.096914053 -0.050837815 -0.26828018
-0.096911229 -0.050759982 -0.26827434
-0.096908331 -0.050680153 -0.26826847
-0.096905507 -0.050602317 -0.26826262
-0.096902311 -0.050522357 -0.26826274
-0.096899003 -0.050444305 -0.26826689
-0.096895784 -0.050366301 -0.26826903
-0.096892692 -0.050286382 -0.26826715
-0.096889578 -0.05020842 -0.2682673
-0.096886165 -0.050130326 -0.26827344
-0.096882977 -0.050050363 -0.26827356
-0.096880056 -0.049972489 -0.26826972
-0.096877135 -0.049894612 -0.26826587
-0.096874408 -0.049816821 -0.26825804
-0.096871309 -0.049736906 -0.26825616
-0.096867904 -0.049658813 -0.26826233
-0.096864589 -0.04958076 -0.26826644
-0.096861199 -0.049500711 -0.26827055
-0.096857987 -0.049422707 -0.2682727
-0.096854791 -0.049342744 -0.26827282
-0.096852168 -0.049264997 -0.26826298
-0.096849538 -0.04918725 -0.26825315
-0.096846618 -0.049109377 -0.26824933
-0.096843623 -0.049029503 -0.26824543
-0.09684021 -0.04895141 -0.26825157
-0.096836723 -0.048871316 -0.26825768
-0.096833318 -0.048793223 -0.26826382
-0.096829832 -0.048713133 -0.26826993
-0.096826717 -0.04863517 -0.26827008
-0.096823893 -0.048557334 -0.26826423
-0.096821263 -0.048479591 -0.26825443
-0.096818633 -0.048401844 -0.26824459
-0.09681534 -0.048321839 -0.26824671
-0.096811742 -0.048243657 -0.26825684
-0.096808448 -0.048163652 -0.26825893
-0.096805237 -0.048085649 -0.2682611
-0.096802138 -0.04800573 -0.26825923
-0.09679912 -0.047927812 -0.26825738
-0.096795909 -0.047849804 -0.26825953
-0.0967931 -0.047770016 -0.26825163
-0.096790284 -0.047692183 -0.26824582
-0.096786775 -0.047614045 -0.26825395
-0.096783191 -0.047533911 -0.26826203
-0.096780077 -0.047455948 -0.26826221
-0.096777074 -0.047376074 -0.2682583
-0.096774153 -0.047298197 -0.26825446
-0.096771523 -0.04722045 -0.26824465
-0.096768901 -0.047142703 -0.26823482
-0.096765995 -0.047062874 -0.26822892
-0.096762881 -0.046984911 -0.26822907
-0.09675891 -0.046904601 -0.26824516
-0.096754916 -0.046826247 -0.26826331
-0.09675172 -0.046746287 -0.2682634
-0.096749485 -0.046668716 -0.26824558
-0.096746661 -0.04659088 -0.26823977
-0.096743174 -0.04651079 -0.26824585
-0.096739762 -0.046432696 -0.26825202
-0.096736476 -0.046352692 -0.2682541
-0.096733749 -0.0462749 -0.26824629
-0.096730553 -0.046194941 -0.26824638
-0.096727148 -0.046116848 -0.26825252
-0.096724123 -0.046038926 -0.2682507
-0.096720643 -0.045958836 -0.26825678
-0.096716858 -0.045878615 -0.26826888
-0.096713938 -0.045800738 -0.26826504
-0.096712388 -0.045723468 -0.26823324
-0.096705005 -0.045565069 -0.26825547
-0.096702665 -0.045487452 -0.26823965
-0.096700333 -0.045409836 -0.26822382
-0.096697606 -0.045332044 -0.26821601
-0.09669441 -0.045252085 -0.2682161
-0.096690632 -0.045171864 -0.2682282
-0.096686929 -0.045093641 -0.26824033
-0.096683741 -0.045013681 -0.26824045
-0.09668082 -0.0449358 -0.26823661
-0.096677803 -0.044857882 -0.26823476
-0.096674994 -0.044778094 -0.26822689
-0.096672662 -0.044700481 -0.26821107
-0.096669838 -0.044622645 -0.26820523
-0.096666545 -0.04454264 -0.26820734
-0.096663043 -0.044464506 -0.26821548
-0.096659362 -0.044384327 -0.26822558
-0.096656337 -0.044306405 -0.26822373
-0.096653439 -0.044226576 -0.26821786
-0.096650712 -0.044148788 -0.26821002
-0.096647404 -0.044070736 -0.26821417
-0.096643724 -0.04399056 -0.26822427
-0.096640997 -0.043912768 -0.26821643
-0.096638195 -0.04383298 -0.26820853
-0.096634686 -0.043754846 -0.2682167
-0.096631393 -0.043674842 -0.26821882
-0.096628673 -0.04359705 -0.26821095
-0.096625946 -0.043519258 -0.26820314
-0.09662275 -0.043439299 -0.26820326
-0.096619144 -0.04336112 -0.26821339
-0.096615858 -0.043281116 -0.26821548
-0.096613131 -0.043203324 -0.26820767
-0.096609935 -0.043123364 -0.26820776
-0.096606448 -0.043043271 -0.26821387
-0.09660314 -0.042965222 -0.26821801
-0.096600316 -0.04288739 -0.2682122
-0.096597418 -0.042807557 -0.2682063
-0.096594498 -0.042729683 -0.26820245
-0.096591398 -0.042649761 -0.26820058
-0.096587993 -0.042571671 -0.26820672
-0.096584603 -0.042491622 -0.26821083
-0.096581973 -0.042413875 -0.26820099
-0.096579053 -0.042336002 -0.26819715
-0.096575662 -0.042255953 -0.26820126
-0.096572571 -0.042176034 -0.26819938
-0.096569553 -0.042098112 -0.26819754
-0.096566454 -0.042018197 -0.26819563
-0.096563533 -0.04194032 -0.26819178
-0.096560612 -0.041862443 -0.26818797
-0.096557617 -0.041782569 -0.26818407
-0.096554793 -0.041704737 -0.26817822
-0.096551575 -0.041626729 -0.26818037
-0.096548185 -0.04154668 -0.26818448
-0.096544899 -0.041466676 -0.2681866
-0.096541487 -0.041388582 -0.26819274
-0.096538097 -0.041308537 -0.26819685
-0.096535005 -0.041228618 -0.26819497
-0.096532278 -0.041150831 -0.26818711
-0.096529357 -0.04107295 -0.26818329
-0.096525967 -0.040992904 -0.2681874
-0.096522853 -0.040914942 -0.26818755
-0.096519656 -0.040834978 -0.26818764
-0.096517131 -0.040757276 -0.26817584
-0.096514404 -0.040679488 -0.268168
-0.09651082 -0.040599354 -0.26817608
-0.09650743 -0.040519305 -0.26818019
-0.096504413 -0.040441383 -0.26817834
-0.096501023 -0.040361337 -0.26818246
-0.096498296 -0.040283546 -0.26817462
-0.09649577 -0.040205844 -0.26816279
-0.096492849 -0.040127967 -0.26815894
-0.096489459 -0.040047921 -0.26816306
-0.096485876 -0.039967783 -0.26817116
-0.096482292 -0.039887652 -0.26817924
-0.096478999 -0.039807647 -0.26818135
-0.096476369 -0.039729901 -0.26817152
-0.096473545 -0.039652064 -0.26816568
-0.096470259 -0.03957206 -0.26816779
-0.096466772 -0.03949197 -0.26817387
-0.09646365 -0.039414007 -0.26817405
-0.096460752 -0.039334174 -0.26816815
-0.096457928 -0.039256342 -0.26816234
-0.096455008 -0.039178468 -0.2681585
-0.096451715 -0.039098464 -0.26816058
-0.096448526 -0.039018501 -0.2681607
-0.096445605 -0.038940623 -0.26815686
-0.096442312 -0.038860619 -0.26815897
-0.096438825 -0.038780529 -0.26816508
-0.096435905 -0.038702652 -0.26816124
-0.096433178 -0.03862486 -0.2681534
-0.096430086 -0.038544945 -0.26815152
-0.096427262 -0.038467109 -0.26814568
-0.096424066 -0.03838715 -0.2681458
-0.096420191 -0.038306884 -0.26815987
-0.096416704 -0.038226791 -0.26816598
-0.096413881 -0.038148962 -0.26816013
-0.096410885 -0.038069084 -0.26815623
-0.096407868 -0.037991166 -0.26815441
-0.096404865 -0.037911292 -0.26815051
-0.096401848 -0.03783337 -0.26814869
-0.09639895 -0.037753545 -0.26814282
-0.096397839 -0.037680399 -0.26810509
-0.096386522 -0.037437782 -0.26813933
-0.096383139 -0.037357733 -0.26814345
-0.096376531 -0.037199676 -0.26814967
-0.096370809 -0.037042014 -0.26813799
-0.096368082 -0.036964223 -0.26813012
-0.096364692 -0.036884174 -0.26813424
-0.096361205 -0.036804084 -0.26814035
-0.096357919 -0.036724083 -0.26814246
-0.096355468 -0.036648378 -0.26813066
-0.096352465 -0.0365685 -0.26812679
-0.096347734 -0.036485888 -0.2681568
-0.096343681 -0.036403582 -0.26817286
-0.096341714 -0.036328096 -0.26815107
-0.096339867 -0.036250696 -0.26812527
-0.096336477 -0.036170647 -0.26812938
-0.096333362 -0.036092684 -0.26812953
-0.096329875 -0.036012597 -0.26813561
-0.096326485 -0.035932548 -0.26813972
-0.096323565 -0.035854667 -0.26813588
-0.096320763 -0.035774879 -0.26812801
-0.096317939 -0.03569705 -0.26812217
-0.096310444 -0.035463985 -0.2680847
-0.096295744 -0.035141319 -0.26812303
-0.096292719 -0.035063397 -0.26812118
-0.096289627 -0.034983478 -0.26811928
-0.096286803 -0.034905646 -0.26811346
-0.096283711 -0.034825727 -0.26811159
-0.096280985 -0.034747936 -0.26810372
-0.096278161 -0.034670107 -0.26809791
-0.096274599 -0.034588017 -0.26810396
-0.096270911 -0.034507841 -0.26811406
-0.096267991 -0.03442996 -0.26811022
-0.096265562 -0.034352303 -0.26809639
-0.096262641 -0.034274425 -0.26809254
-0.096259072 -0.034192339 -0.26809859
-0.096255861 -0.034114331 -0.26810074
-0.096252672 -0.034034368 -0.26810086
-0.096249744 -0.03395649 -0.26809704
-0.096246846 -0.033876665 -0.26809114
-0.096243657 -0.033796702 -0.26809126
-0.096240632 -0.03371878 -0.26808941
-0.09623801 -0.033641033 -0.26807958
-0.096234813 -0.033561073 -0.2680797
-0.096231036 -0.033480853 -0.26809177
-0.096227743 -0.033400849 -0.26809388
-0.096225217 -0.033323143 -0.26808205
-0.096222296 -0.033245265 -0.26807821
-0.096219294 -0.033165395 -0.26807433
-0.09621647 -0.033087563 -0.26806849
-0.096213102 -0.033005558 -0.26807055
-0.096209794 -0.032927506 -0.26807469
-0.096206598 -0.032847546 -0.26807481
-0.096203305 -0.032767542 -0.26807693
-0.096200116 -0.032687582 -0.26807702
-0.096197098 -0.03260966 -0.26807517
-0.096193902 -0.032529704 -0.26807529
-0.096190885 -0.032451782 -0.26807344
-0.096187785 -0.032371864 -0.26807156
-0.096184596 -0.0322919 -0.26807168
-0.096181594 -0.032212026 -0.26806778
-0.096178673 -0.032134153 -0.26806396
-0.096175656 -0.032056231 -0.26806211
-0.096172564 -0.031976312 -0.26806021
-0.096169367 -0.031896353 -0.26806033
-0.096166641 -0.031818565 -0.26805249
-0.096163549 -0.031738646 -0.26805061
-0.096159965 -0.031658508 -0.26805872
-0.096156769 -0.031578548 -0.26805881
-0.096154042 -0.03150076 -0.26805097
-0.096151218 -0.031422928 -0.26804513
-0.096148029 -0.031342965 -0.26804525
-0.096144639 -0.031262916 -0.26804936
-0.09614154 -0.031183001 -0.26804745
-0.096138328 -0.031104993 -0.2680496
-0.096134961 -0.03102299 -0.26805168
-0.096132234 -0.0309452 -0.26804385
-0.096129216 -0.03086728 -0.268042
-0.09612602 -0.030787319 -0.26804212
-0.096123099 -0.030709444 -0.26803827
-0.09611991 -0.03062948 -0.26803839
-0.096116714 -0.030549521 -0.26803848
-0.096113421 -0.030469518 -0.2680406
-0.096110232 -0.030389555 -0.26804072
-0.096107215 -0.030311635 -0.26803887
-0.096104309 -0.030231806 -0.26803297
-0.096101195 -0.030153841 -0.26803315
-0.096097805 -0.030073792 -0.26803723
-0.096094616 -0.02999383 -0.26803735
-0.096091792 -0.029915998 -0.26803151
-0.096088596 -0.02983604 -0.26803163
-0.096085034 -0.029753948 -0.26803768
-0.096082114 -0.029676072 -0.26803383
-0.096079484 -0.029598325 -0.268024
-0.096076488 -0.029518452 -0.26802012
-0.096073292 -0.02943849 -0.26802021
-0.096070178 -0.029360525 -0.26802039
-0.096067175 -0.029280651 -0.26801649
-0.096064158 -0.029202731 -0.26801464
-0.096060961 -0.029122774 -0.26801476
-0.096057869 -0.029042855 -0.26801288
-0.096054673 -0.028962892 -0.268013
-0.096051559 -0.028884931 -0.26801312
-0.096048564 -0.028805055 -0.26800925
-0.096045449 -0.028727092 -0.26800942
-0.096042544 -0.028647259 -0.26800352
-0.096039623 -0.028569384 -0.26799968
-0.096036434 -0.028489426 -0.2679998
-0.096033044 -0.028409377 -0.26800388
-0.096029557 -0.028329283 -0.26800999
-0.096026756 -0.028249497 -0.26800209
-0.096024297 -0.028173791 -0.26799032
-0.096021108 -0.02809383 -0.26799044
-0.09601754 -0.028011739 -0.26799649
-0.096014425 -0.027933776 -0.26799667
-0.096011236 -0.027853819 -0.26799676
-0.096008137 -0.0277739 -0.26799488
-0.09734761 -0.062155467 -0.26866606
-0.097346075 -0.062076245 -0.2686322
-0.097346239 -0.061993852 -0.26856035
-0.097348571 -0.061910458 -0.26844245
-0.097347431 -0.061831411 -0.26840064
-0.09734492 -0.061751753 -0.26838678
-0.097342193 -0.061673962 -0.26837891
-0.097339295 -0.061594132 -0.26837304
-0.097336374 -0.061516255 -0.2683692
-0.097333059 -0.061438203 -0.26837337
-0.097329751 -0.061360154 -0.26837751
-0.097326748 -0.06128028 -0.26837361
-0.097323827 -0.061202403 -0.26836979
-0.097320832 -0.061122529 -0.26836589
-0.097317614 -0.061044522 -0.26836807
-0.097313911 -0.060966298 -0.26838019
-0.097310893 -0.06088838 -0.26837835
-0.097307973 -0.060810503 -0.2683745
-0.097304583 -0.060730457 -0.26837862
-0.097301662 -0.06065258 -0.26837477
-0.097298838 -0.060574748 -0.26836893
-0.09729594 -0.060494915 -0.26836306
-0.097292826 -0.060416952 -0.26836321
-0.09728951 -0.060338903 -0.26836735
-0.097286321 -0.06025894 -0.26836747
-0.097283401 -0.060181063 -0.26836362
-0.097279988 -0.060102969 -0.26836976
-0.097276874 -0.060025007 -0.26836991
-0.097273774 -0.059945092 -0.26836804
-0.09727066 -0.059867129 -0.26836818
-0.097267449 -0.059789121 -0.26837033
-0.097264543 -0.059709288 -0.26836446
-0.097261719 -0.059631456 -0.26835865
-0.09725821 -0.059553318 -0.26836675
-0.097254902 -0.059475269 -0.26837093
-0.09725181 -0.059395351 -0.26836902
-0.097248495 -0.059317302 -0.26837319
-0.097245671 -0.059239469 -0.26836735
-0.097243063 -0.059159767 -0.26835549
-0.097240046 -0.059081849 -0.26835364
-0.09723673 -0.059003796 -0.26835778
-0.09723334 -0.058923751 -0.26836187
-0.09723042 -0.058845874 -0.26835805
-0.097227402 -0.058767952 -0.2683562
-0.097224191 -0.058689948 -0.26835835
-0.09722127 -0.058612071 -0.26835451
-0.097218469 -0.058532283 -0.26834664
-0.097215548 -0.058454406 -0.26834279
-0.097212352 -0.058374446 -0.26834291
-0.097208843 -0.058296308 -0.26835105
-0.097205825 -0.05821839 -0.2683492
-0.097202711 -0.058140427 -0.26834935
-0.097199492 -0.058062419 -0.2683515
-0.097196497 -0.057982545 -0.26834762
-0.09719377 -0.057904754 -0.26833978
-0.097190946 -0.057826921 -0.26833397
-0.097187363 -0.057746787 -0.26834205
-0.097184055 -0.057668738 -0.26834619
-0.097180933 -0.057590775 -0.26834637
-0.097178012 -0.057512898 -0.26834252
-0.097175017 -0.057433024 -0.26833862
-0.097172 -0.057355102 -0.2683368
-0.097168781 -0.057277098 -0.26833895
-0.097165488 -0.057197094 -0.26834106
-0.097162083 -0.057118997 -0.2683472
-0.09715867 -0.057040904 -0.26835334
-0.097155459 -0.0569629 -0.26835549
-0.097152539 -0.056885023 -0.26835167
-0.097150221 -0.05680545 -0.26833379
-0.097147495 -0.056727663 -0.26832595
-0.097144403 -0.056647744 -0.26832408
-0.097141288 -0.056569781 -0.26832423
-0.097137876 -0.056491688 -0.26833037
-0.097134195 -0.056411508 -0.26834047
-0.097131073 -0.056333546 -0.26834062
-0.097128056 -0.056255627 -0.26833877
-0.097125135 -0.05617775 -0.26833495
-0.097122215 -0.056099873 -0.26833111
-0.097119018 -0.056019913 -0.26833123
-0.097116001 -0.055941992 -0.26832938
-0.097112887 -0.055864029 -0.26832953
-0.097109593 -0.055784024 -0.26833162
-0.097106479 -0.055706061 -0.26833177
-0.097103946 -0.055628359 -0.26831996
-0.097100951 -0.055548485 -0.26831606
-0.097097635 -0.055470437 -0.2683202
-0.097094521 -0.055392474 -0.26832038
-0.097091697 -0.055314638 -0.26831454
-0.097088508 -0.055234678 -0.26831466
-0.097084902 -0.055156499 -0.26832479
-0.097081788 -0.055078533 -0.26832494
-0.097079076 -0.054998789 -0.26831508
-0.097076155 -0.054920912 -0.26831123
-0.097072944 -0.054842908 -0.26831338
-0.09706983 -0.054764945 -0.26831353
-0.097066611 -0.054686937 -0.26831567
-0.097063422 -0.054606974 -0.26831579
-0.0970603 -0.054529011 -0.26831597
-0.097057208 -0.054449096 -0.26831406
-0.097054385 -0.05437126 -0.26830822
-0.097051464 -0.054293387 -0.26830441
-0.097048253 -0.054215379 -0.26830655
-0.097045034 -0.054137371 -0.2683087
-0.097041942 -0.054057457 -0.26830679
-0.097039118 -0.05397962 -0.26830095
-0.097035997 -0.053901657 -0.26830113
-0.097032413 -0.053821523 -0.26830924
-0.097029008 -0.053743429 -0.26831537
-0.097025886 -0.053665467 -0.26831552
-0.097023085 -0.053585678 -0.26830763
-0.097020261 -0.053507846 -0.26830181
-0.097017147 -0.053429883 -0.26830196
-0.097014032 -0.05335192 -0.26830211
-0.097011127 -0.053272091 -0.26829624
-0.0970084 -0.053194299 -0.2682884
-0.097005188 -0.053116292 -0.26829055
-0.097001508 -0.053036116 -0.26830065
-0.096998394 -0.052958153 -0.2683008
-0.09699557 -0.052880317 -0.26829496
-0.096992664 -0.052800488 -0.26828909
-0.09698984 -0.052722655 -0.26828325
-0.096986823 -0.052644733 -0.2682814
-0.096983217 -0.052566554 -0.26829153
-0.096979834 -0.052486505 -0.26829565
-0.096976906 -0.052408632 -0.26829183
-0.096973792 -0.052330665 -0.26829195
-0.096970797 -0.052250791 -0.26828808
-0.09696807 -0.052173004 -0.26828024
-0.096964858 -0.052094996 -0.26828241
-0.096961074 -0.052014776 -0.26829448
-0.096958056 -0.051936854 -0.26829264
-0.096954845 -0.05185885 -0.26829481
-0.096951433 -0.051780757 -0.26830095
-0.096948341 -0.051700838 -0.26829904
-0.096945316 -0.051622916 -0.26829723
-0.096942201 -0.051544953 -0.26829737
-0.096939206 -0.051465079 -0.2682935
-0.096936285 -0.051387202 -0.26828963
-0.096933559 -0.051309414 -0.26828182
-0.096930459 -0.051229496 -0.26827991
-0.096927054 -0.051151402 -0.26828608
-0.096923932 -0.051073439 -0.26828623
-0.096920744 -0.05099348 -0.26828635
-0.096917629 -0.050915517 -0.2682865
-0.096914604 -0.050837595 -0.26828465
-0.096911684 -0.050759718 -0.2682808
-0.096908785 -0.050679889 -0.26827493
-0.096905865 -0.050602011 -0.26827109
-0.096902765 -0.050522093 -0.26826918
-0.09689936 -0.050443999 -0.26827535
-0.096896239 -0.050366037 -0.2682755
-0.096893147 -0.050286118 -0.26827362
-0.096889928 -0.050208114 -0.26827577
-0.096886717 -0.050130107 -0.26827791
-0.096883424 -0.050050102 -0.26828003
-0.096880406 -0.04997218 -0.26827818
-0.096877582 -0.049894348 -0.26827234
-0.096874759 -0.049816515 -0.2682665
-0.096871667 -0.049736597 -0.26826462
-0.096868351 -0.049658548 -0.26826876
-0.096864946 -0.049580455 -0.2682749
-0.09686175 -0.049500495 -0.26827502
-0.096858442 -0.049422443 -0.26827919
-0.096855246 -0.049342483 -0.26827928
-0.096852615 -0.049264736 -0.26826945
-0.096850082 -0.049187034 -0.26825762
-0.09684699 -0.049107116 -0.26825574
-0.096843973 -0.049029194 -0.26825389
-0.096840657 -0.048951145 -0.26825804
-0.09683717 -0.048871055 -0.26826414
-0.096833669 -0.048792917 -0.26827228
-0.096830085 -0.048712783 -0.26828039
-0.09682706 -0.048634864 -0.26827854
-0.096824244 -0.048557028 -0.2682727
-0.096821517 -0.04847924 -0.26826489
-0.09681908 -0.048401579 -0.26825106
-0.096815787 -0.048321575 -0.26825315
-0.096812285 -0.048243441 -0.26826131
-0.096808992 -0.048163436 -0.2682634
-0.096805677 -0.048085384 -0.26826757
-0.096802682 -0.04800551 -0.26826367
-0.096799567 -0.047927547 -0.26826382
-0.096796349 -0.04784954 -0.26826596
-0.09679345 -0.04776971 -0.26826009
-0.096790724 -0.047691919 -0.26825225
-0.096787214 -0.047613785 -0.26826039
-0.096783631 -0.04753365 -0.2682685
-0.096780516 -0.047455683 -0.26826864
-0.096777521 -0.047375809 -0.26826477
-0.096774697 -0.047297977 -0.26825893
-0.096772067 -0.04722023 -0.26824909
-0.096769169 -0.047140401 -0.26824322
-0.096766345 -0.047062568 -0.26823738
-0.096763223 -0.046984605 -0.26823753
-0.096759349 -0.04690434 -0.26825163
-0.096755356 -0.046825986 -0.26826975
-0.096752256 -0.046746068 -0.26826787
-0.096749827 -0.04666841 -0.26825404
-0.0967471 -0.046590619 -0.2682462
-0.09674371 -0.04651057 -0.26825032
-0.096740298 -0.046432476 -0.26825646
-0.096736811 -0.046352386 -0.26826257
-0.096734092 -0.046274595 -0.26825473
-0.096730895 -0.046194635 -0.26825482
-0.096727483 -0.046116542 -0.26826099
-0.096724562 -0.046038665 -0.26825714
-0.096721172 -0.045958616 -0.26826125
-0.096717395 -0.045878395 -0.26827335
-0.096714474 -0.045800518 -0.26826951
-0.096713409 -0.045723468 -0.2682277
-0.096705146 -0.045564674 -0.26826793
-0.096703008 -0.045487147 -0.26824811
-0.096700594 -0.045407534 -0.26823223
-0.096697867 -0.045329742 -0.26822442
-0.096694753 -0.045251779 -0.26822457
-0.096691072 -0.045171604 -0.26823464
-0.096687272 -0.045093335 -0.2682488
-0.096684076 -0.045013372 -0.26824889
-0.096681058 -0.044935454 -0.26824704
-0.096678056 -0.04485558 -0.26824316
-0.096675232 -0.044777747 -0.26823732
-0.096672997 -0.044700176 -0.2682195
-0.096670173 -0.044622339 -0.26821369
-0.096666977 -0.04454238 -0.26821378
-0.096663371 -0.044464201 -0.26822394
-0.096659794 -0.044384062 -0.26823202
-0.096656673 -0.044306099 -0.26823217
-0.096653678 -0.044226225 -0.26822829
-0.096650951 -0.044148438 -0.26822045
-0.096647739 -0.04407043 -0.2682226
-0.096644148 -0.043990295 -0.26823071
-0.096641429 -0.043912508 -0.26822287
-0.096638717 -0.043832764 -0.268213
-0.096635118 -0.043754581 -0.26822314
-0.096631728 -0.043674536 -0.26822722
-0.096629001 -0.043596745 -0.26821941
-0.096626468 -0.043519042 -0.26820758
-0.096623279 -0.043439079 -0.26820767
-0.096619591 -0.043358903 -0.26821777
-0.096616283 -0.043280851 -0.26822191
-0.096613578 -0.043201108 -0.26821205
-0.096610561 -0.043123189 -0.2682102
-0.096606977 -0.043043055 -0.26821831
-0.096603565 -0.042964961 -0.26822448
-0.096600741 -0.042887129 -0.26821864
-0.096597843 -0.042807296 -0.26821274
-0.096594922 -0.042729419 -0.26820889
-0.09659192 -0.042649545 -0.26820502
-0.096588515 -0.042571452 -0.26821116
-0.096585028 -0.042491361 -0.26821727
-0.096582398 -0.042413615 -0.26820743
-0.096579403 -0.042333741 -0.26820356
-0.09657599 -0.042255647 -0.2682097
-0.096572891 -0.042175729 -0.26820779
-0.09656997 -0.042097852 -0.26820397
-0.096566878 -0.042017937 -0.26820207
-0.096563861 -0.041940015 -0.26820022
-0.096560955 -0.041860186 -0.26819435
-0.096558131 -0.041782353 -0.26818851
-0.096555211 -0.041704476 -0.26818466
-0.096551917 -0.041624472 -0.26818678
-0.096548706 -0.041546464 -0.26818892
-0.096545219 -0.04146637 -0.26819503
-0.096541829 -0.041386325 -0.26819915
-0.096538521 -0.041308276 -0.26820326
-0.096535325 -0.041228313 -0.26820338
-0.096532598 -0.041150525 -0.26819557
-0.096529603 -0.041070648 -0.26819167
-0.096526287 -0.040992599 -0.26819581
-0.096523173 -0.040914636 -0.26819599
-0.096519977 -0.040834673 -0.26819608
-0.096517451 -0.040756971 -0.26818424
-0.096514821 -0.040679228 -0.26817441
-0.096511237 -0.040599093 -0.26818252
-0.09650775 -0.040518999 -0.26818863
-0.096504733 -0.040441081 -0.26818678
-0.09650144 -0.040361077 -0.26818889
-0.096498713 -0.040283285 -0.26818106
-0.096496083 -0.040205538 -0.26817122
-0.096493088 -0.040125664 -0.26816735
-0.096489698 -0.040045619 -0.26817143
-0.096486285 -0.039967522 -0.26817757
-0.096482627 -0.039885391 -0.26818562
-0.096479416 -0.039807383 -0.26818779
-0.096476689 -0.039729595 -0.26817995
-0.096473888 -0.039649807 -0.26817209
-0.096470669 -0.039571799 -0.26817423
-0.096467085 -0.039491665 -0.26818234
-0.096463889 -0.039411705 -0.26818243
-0.096461073 -0.039333872 -0.26817662
-0.096458346 -0.039256081 -0.26816875
-0.096455343 -0.039176207 -0.26816487
-0.096451953 -0.039096162 -0.26816899
-0.096448839 -0.039018199 -0.26816913
-0.096445918 -0.038940322 -0.26816529
-0.096442625 -0.038860314 -0.26816741
-0.096439235 -0.038780265 -0.26817149
-0.096436314 -0.038702391 -0.26816767
-0.096433513 -0.038622603 -0.26815978
-0.096430495 -0.038544685 -0.26815796
-0.096427672 -0.038466848 -0.26815212
-0.096424378 -0.038386844 -0.2681542
-0.096420698 -0.038306668 -0.26816431
-0.096417211 -0.038226575 -0.26817042
-0.096414387 -0.038148746 -0.26816458
-0.096411392 -0.038068868 -0.2681607
-0.096408367 -0.03799095 -0.26815885
-0.096405275 -0.037911031 -0.26815695
-0.096402161 -0.037833069 -0.26815709
-0.096399255 -0.037753239 -0.26815122
-0.09639778 -0.037677966 -0.26811945
-0.096386932 -0.037437521 -0.26814577
-0.096383445 -0.037357427 -0.26815185
-0.096376836 -0.037199374 -0.26815811
-0.096374214 -0.037121627 -0.26814827
-0.096368387 -0.036963917 -0.26813856
-0.096365005 -0.036883868 -0.26814267
-0.096361518 -0.036803782 -0.26814878
-0.096358322 -0.036723822 -0.26814887
-0.096355692 -0.036646076 -0.26813903
-0.096352771 -0.036568195 -0.26813519
-0.096347958 -0.036483586 -0.26816517
-0.09634418 -0.036403365 -0.26817727
-0.096342042 -0.036325835 -0.26815745
-0.096340172 -0.036250394 -0.2681337
-0.096336491 -0.036170214 -0.26814377
-0.096333489 -0.036090344 -0.2681399
-0.096330181 -0.036012292 -0.26814404
-0.096326791 -0.035932243 -0.26814815
-0.096323796 -0.035852365 -0.26814425
-0.096321262 -0.035774663 -0.26813242
-0.096318439 -0.035696831 -0.26812661
-0.096316203 -0.035619259 -0.26810879
-0.09631075 -0.035463683 -0.26809311
-0.096296236 -0.035141099 -0.26812744
-0.09629304 -0.03506114 -0.26812756
-0.096290022 -0.034983218 -0.26812571
-0.096287027 -0.034903347 -0.26812184
-0.096284106 -0.03482547 -0.26811799
-0.096281283 -0.034747638 -0.26811215
-0.096278556 -0.034669846 -0.26810431
-0.096274897 -0.034587715 -0.26811236
-0.096271209 -0.034507535 -0.26812246
-0.096268386 -0.034429699 -0.26811662
-0.09626586 -0.034351997 -0.26810479
-0.096262857 -0.034272127 -0.26810092
-0.09625937 -0.034192033 -0.268107
-0.096256077 -0.034112029 -0.26810911
-0.096252963 -0.034034066 -0.26810926
-0.096249968 -0.033954192 -0.26810539
-0.096247144 -0.033876359 -0.26809955
-0.096244045 -0.033796441 -0.26809767
-0.096241124 -0.033718564 -0.26809382
-0.096238397 -0.033640772 -0.26808599
-0.096235111 -0.033560771 -0.2680881
-0.096231252 -0.033478551 -0.26810014
-0.096228056 -0.033398591 -0.26810026
-0.096225426 -0.033320844 -0.26809043
-0.096222609 -0.033243008 -0.26808459
-0.09621951 -0.033163093 -0.26808268
-0.096216686 -0.033085261 -0.26807684
-0.09621349 -0.033005297 -0.26807696
-0.096210279 -0.03292729 -0.2680791
-0.096206985 -0.032847289 -0.26808122
-0.0962037 -0.032767285 -0.26808333
-0.096200503 -0.032687321 -0.26808345
-0.096197501 -0.032607447 -0.26807955
-0.096194386 -0.032529484 -0.2680797
-0.096191287 -0.032449566 -0.26807782
-0.09618827 -0.032371648 -0.26807597
-0.096184984 -0.032291643 -0.26807809
-0.096181788 -0.032211684 -0.26807818
-0.096178964 -0.032133847 -0.26807237
-0.096175969 -0.032053974 -0.26806846
-0.096173048 -0.031976096 -0.26806462
-0.096169852 -0.031896137 -0.26806474
-0.096167125 -0.031818345 -0.2680569
-0.096163929 -0.031738386 -0.26805702
-0.096160345 -0.031658251 -0.26806509
-0.096157253 -0.031578332 -0.26806322
-0.096154429 -0.031500503 -0.26805738
-0.096151523 -0.03142067 -0.26805151
-0.096148409 -0.031342708 -0.26805165
-0.096145116 -0.0312627 -0.26805377
-0.096142121 -0.031182827 -0.26804987
-0.096138634 -0.031102736 -0.26805598
-0.096135244 -0.031022688 -0.26806009
-0.096132614 -0.030944942 -0.26805025
-0.096129596 -0.030867022 -0.26804841
-0.0961264 -0.030787062 -0.26804852
-0.096123308 -0.030707143 -0.26804662
-0.096120209 -0.030627225 -0.26804474
-0.096117094 -0.03054926 -0.26804489
-0.096114002 -0.030469343 -0.26804298
-0.096110515 -0.030389253 -0.26804909
-0.096107416 -0.030309334 -0.26804721
-0.096104689 -0.030231547 -0.26803938
-0.0961015 -0.030151585 -0.26803946
-0.09609811 -0.030071536 -0.26804358
-0.096094914 -0.029991575 -0.2680437
-0.096092187 -0.029913785 -0.26803586
-0.096088991 -0.029833825 -0.26803598
-0.096085407 -0.029753689 -0.26804405
-0.096082389 -0.029675771 -0.26804224
-0.096079685 -0.029596027 -0.26803234
-0.096076764 -0.02951815 -0.2680285
-0.096073568 -0.029438188 -0.26802862
-0.096070379 -0.029358225 -0.26802874
-0.096067458 -0.02928035 -0.26802489
-0.096064456 -0.029200478 -0.26802099
-0.096061341 -0.029122515 -0.26802117
-0.096058242 -0.029042596 -0.26801926
-0.096055053 -0.028962633 -0.26801938
-0.096051931 -0.028884672 -0.26801953
-0.096048743 -0.02880471 -0.26801965
-0.096045643 -0.028724791 -0.26801777
-0.096042819 -0.028646957 -0.26801193
-0.096039921 -0.02856713 -0.26800603
-0.096036807 -0.028489167 -0.26800621
-0.096033238 -0.028407075 -0.26801223
-0.096029751 -0.028326984 -0.26801834
-0.096027024 -0.028249195 -0.2680105
-0.096024595 -0.028171536 -0.26799667
-0.096021481 -0.028093573 -0.26799685
-0.096017912 -0.028011482 -0.2680029
-0.096014723 -0.027931523 -0.26800299
-0.096011527 -0.027851561 -0.26800311
-0.096008413 -0.027773596 -0.26800326
-0.097347058 -0.062155895 -0.26866558
-0.09734533 -0.062076584 -0.26863575
-0.097345397 -0.061994147 -0.26856586
-0.097347826 -0.061910797 -0.26844597
-0.097346582 -0.061831705 -0.26840615
-0.097344153 -0.061754048 -0.26839232
-0.097341351 -0.06167426 -0.26838446
-0.097338527 -0.061596423 -0.26837862
-0.097335428 -0.061516508 -0.26837671
-0.097332217 -0.061438501 -0.26837888
-0.097329006 -0.061360493 -0.26838103
-0.097325906 -0.061280578 -0.26837915
-0.097322889 -0.061202656 -0.2683773
-0.09731999 -0.061122827 -0.2683714
-0.097316578 -0.06104473 -0.26837754
-0.097313151 -0.060968593 -0.26838574
-0.097310051 -0.060888678 -0.26838386
-0.097307131 -0.060810801 -0.26838005
-0.097303748 -0.060730752 -0.26838413
-0.097300828 -0.060652874 -0.26838028
-0.097298101 -0.060575083 -0.26837245
-0.097295098 -0.060495213 -0.26836857
-0.097291984 -0.06041725 -0.26836872
-0.097288579 -0.060339153 -0.26837486
-0.097285554 -0.060261235 -0.26837301
-0.097282559 -0.060181361 -0.26836914
-0.097279251 -0.060103312 -0.26837331
-0.097276032 -0.060025305 -0.26837546
-0.097273037 -0.059945427 -0.26837155
-0.097269826 -0.059867423 -0.26837373
-0.097266607 -0.059789415 -0.26837587
-0.097263806 -0.059709627 -0.26836798
-0.097260885 -0.05963175 -0.26836413
-0.097257376 -0.059553616 -0.2683723
-0.097254165 -0.059475608 -0.26837444
-0.09725105 -0.059397645 -0.26837459
-0.097247757 -0.059317641 -0.26837671
-0.097244933 -0.059239808 -0.26837087
-0.097242326 -0.059160106 -0.26835901
-0.097239211 -0.059082143 -0.26835915
-0.097235903 -0.059004094 -0.2683633
-0.097232684 -0.058926087 -0.26836544
-0.097229593 -0.058846168 -0.26836357
-0.097226575 -0.05876825 -0.26836172
-0.097223453 -0.058690287 -0.26836187
-0.097220436 -0.058612365 -0.26836002
-0.097217731 -0.058532622 -0.26835015
-0.097214617 -0.058454659 -0.2683503
-0.097211517 -0.05837474 -0.26834843
-0.097208016 -0.058296606 -0.26835656
-0.097205095 -0.058218729 -0.26835272
-0.097201876 -0.058140721 -0.26835489
-0.097198665 -0.058062714 -0.26835704
-0.097195767 -0.057982884 -0.26835114
-0.09719304 -0.057905093 -0.26834333
-0.097190119 -0.057827219 -0.26833946
-0.097186632 -0.057747126 -0.26834559
-0.097183228 -0.057669032 -0.26835173
-0.097180106 -0.057591069 -0.26835188
-0.097177282 -0.057513237 -0.26834604
-0.097174287 -0.057433363 -0.26834217
-0.097171172 -0.0573554 -0.26834232
-0.097167954 -0.057277393 -0.26834446
-0.097164765 -0.057197433 -0.26834458
-0.097161353 -0.05711934 -0.26835072
-0.097157948 -0.057041243 -0.26835686
-0.097154729 -0.056963239 -0.26835901
-0.097151808 -0.056885362 -0.26835519
-0.097149402 -0.056805748 -0.26833931
-0.097146772 -0.056728002 -0.26832947
-0.097143754 -0.05665008 -0.26832765
-0.097140558 -0.05657012 -0.26832774
-0.097137153 -0.056492027 -0.26833388
-0.097133547 -0.056413848 -0.26834404
-0.097130254 -0.05633384 -0.26834613
-0.09712714 -0.056255877 -0.26834631
-0.097124316 -0.056178045 -0.26834047
-0.097121492 -0.056100212 -0.26833463
-0.097118303 -0.056020252 -0.26833472
-0.097115181 -0.05594229 -0.26833487
-0.097112067 -0.055864327 -0.26833504
-0.097108774 -0.055784322 -0.26833713
-0.09710566 -0.055706356 -0.26833731
-0.097103134 -0.055628654 -0.26832548
-0.097100131 -0.05554878 -0.26832157
-0.097096823 -0.055470731 -0.26832575
-0.097093605 -0.055392724 -0.26832789
-0.097090885 -0.055314932 -0.26832005
-0.097087689 -0.055234972 -0.26832014
-0.097084083 -0.055156793 -0.26833031
-0.097080968 -0.055078831 -0.26833045
-0.097078338 -0.055001084 -0.26832062
-0.097075246 -0.054921165 -0.26831874
-0.097072035 -0.054843158 -0.26832089
-0.09706901 -0.054765239 -0.26831904
-0.097065896 -0.054687276 -0.26831922
-0.097062707 -0.054607313 -0.26831931
-0.097059585 -0.05452935 -0.26831949
-0.097056396 -0.054449391 -0.26831958
-0.097053573 -0.054371558 -0.26831374
-0.097050652 -0.054293681 -0.26830989
-0.097047433 -0.054215673 -0.26831207
-0.097044222 -0.054137666 -0.26831421
-0.09704113 -0.054057751 -0.26831234
-0.097038306 -0.053979918 -0.26830649
-0.097035185 -0.053901952 -0.26830664
-0.097031504 -0.053821776 -0.26831675
-0.097028099 -0.053743683 -0.26832289
-0.097025178 -0.053665806 -0.26831904
-0.09702228 -0.053585973 -0.26831317
-0.097019456 -0.05350814 -0.26830733
-0.097016335 -0.053430177 -0.26830748
-0.09701322 -0.053352214 -0.26830763
-0.097010322 -0.053272385 -0.26830176
-0.097007595 -0.053194594 -0.26829392
-0.097004384 -0.053116586 -0.26829606
-0.097000703 -0.05303641 -0.26830617
-0.096997678 -0.052958488 -0.26830432
-0.096994862 -0.052880656 -0.26829848
-0.096991859 -0.052800782 -0.2682946
-0.096989036 -0.05272295 -0.26828876
-0.096985921 -0.052644987 -0.26828891
-0.096982509 -0.052566893 -0.26829508
-0.096978925 -0.052486759 -0.26830316
-0.096976101 -0.052408926 -0.26829731
-0.096973084 -0.052331004 -0.2682955
-0.096969992 -0.052251086 -0.26829359
-0.096967362 -0.052173343 -0.26828375
-0.096964054 -0.05209529 -0.2682879
-0.096960276 -0.05201507 -0.2683
-0.096957251 -0.051937148 -0.26829815
-0.09695404 -0.051859144 -0.26830029
-0.096950732 -0.051781092 -0.26830447
-0.096947536 -0.051701132 -0.26830459
-0.096944615 -0.051623255 -0.26830074
-0.096941501 -0.051545292 -0.26830089
-0.096938498 -0.051465418 -0.26829702
-0.096935578 -0.051387541 -0.26829317
-0.096932679 -0.051307712 -0.26828727
-0.096929759 -0.051229835 -0.26828343
-0.096926346 -0.051151741 -0.2682896
-0.096923232 -0.051073778 -0.26828974
-0.096920043 -0.050993815 -0.26828986
-0.096916825 -0.050915807 -0.26829201
-0.096913807 -0.050837889 -0.26829016
-0.09691108 -0.050760102 -0.26828232
-0.096907988 -0.050680183 -0.26828045
-0.096905068 -0.050602306 -0.2682766
-0.096901968 -0.050522387 -0.26827472
-0.096898563 -0.050444294 -0.26828086
-0.096895449 -0.050366331 -0.26828101
-0.096892446 -0.050286457 -0.26827714
-0.096889138 -0.050208405 -0.26828128
-0.09688592 -0.050130401 -0.26828343
-0.096882537 -0.050050352 -0.26828754
-0.096879616 -0.049972475 -0.26828369
-0.096876793 -0.049894642 -0.26827785
-0.096873969 -0.04981681 -0.26827204
-0.096870869 -0.049736891 -0.26827013
-0.096867561 -0.049658842 -0.26827428
-0.096864149 -0.049580749 -0.26828045
-0.09686096 -0.049500786 -0.26828054
-0.096857645 -0.049422737 -0.26828468
-0.096854456 -0.049342778 -0.2682848
-0.096851923 -0.049265072 -0.26827297
-0.096849293 -0.049187329 -0.26826316
-0.096846104 -0.049107365 -0.26826325
-0.096843086 -0.049029447 -0.2682614
-0.096839868 -0.04895144 -0.26826355
-0.096836381 -0.04887135 -0.26826966
-0.096832879 -0.048793212 -0.26827779
-0.096829198 -0.048713032 -0.2682879
-0.096826278 -0.048635155 -0.26828405
-0.096823454 -0.048557322 -0.26827824
-0.096820652 -0.048477538 -0.26827034
-0.096818216 -0.048399877 -0.26825652
-0.096815102 -0.048321914 -0.26825666
-0.096811518 -0.048241779 -0.26826477
-0.096808299 -0.048163772 -0.26826692
-0.096805088 -0.048085764 -0.26826906
-0.096801996 -0.048005849 -0.26826718
-0.096798874 -0.047927886 -0.26826733
-0.096795663 -0.047849879 -0.26826948
-0.096792571 -0.04776996 -0.2682676
-0.096789941 -0.047692213 -0.26825777
-0.096786529 -0.04761412 -0.26826391
-0.096782751 -0.0475339 -0.26827601
-0.096779734 -0.047455978 -0.26827416
-0.096776836 -0.047376148 -0.26826829
-0.096773915 -0.047298271 -0.26826444
-0.096771188 -0.047220483 -0.2682566
-0.096768387 -0.047140695 -0.26824874
-0.096765466 -0.047062818 -0.26824489
-0.096762247 -0.04698481 -0.26824707
-0.09675847 -0.04690459 -0.26825914
-0.096754596 -0.046824325 -0.26827323
-0.096751578 -0.046746403 -0.26827139
-0.096749239 -0.04666879 -0.26825556
-0.096746437 -0.046589002 -0.26824769
-0.096743129 -0.04651095 -0.26825184
-0.096739523 -0.046432771 -0.26826197
-0.096736133 -0.046352722 -0.26826608
-0.096733309 -0.046274889 -0.26826024
-0.096730016 -0.046194885 -0.26826233
-0.096726805 -0.046116881 -0.2682645
-0.096723884 -0.046039 -0.26826066
-0.096720494 -0.045958955 -0.26826477
-0.09671662 -0.04587869 -0.26827884
-0.096713796 -0.045800857 -0.268273
-0.096712239 -0.045723587 -0.26824123
-0.096704096 -0.045562886 -0.26827738
-0.09670186 -0.04548531 -0.26825956
-0.096699625 -0.045407739 -0.26824173
-0.096697092 -0.045330036 -0.2682299
-0.096693978 -0.045252074 -0.26823008
-0.096690297 -0.045171894 -0.26824015
-0.096686512 -0.045091674 -0.26825225
-0.096683301 -0.045013666 -0.2682544
-0.096680284 -0.044935748 -0.26825255
-0.096677192 -0.044855829 -0.26825067
-0.096674465 -0.044778042 -0.26824284
-0.096672028 -0.04470038 -0.26822901
-0.096669324 -0.044620637 -0.26821914
-0.096666209 -0.04454267 -0.26821929
-0.096662603 -0.044464491 -0.26822942
-0.09665902 -0.044384357 -0.26823753
-0.096655831 -0.044304397 -0.26823765
-0.096652806 -0.044226475 -0.2682358
-0.096650086 -0.044148687 -0.26822796
-0.09664689 -0.044068724 -0.26822808
-0.096643306 -0.043988593 -0.26823616
-0.096640855 -0.043912888 -0.26822439
-0.096638054 -0.043833099 -0.26821649
-0.096634373 -0.04375292 -0.26822659
-0.096631058 -0.043674871 -0.26823074
-0.096628331 -0.04359708 -0.26822293
-0.096625701 -0.043519333 -0.26821309
-0.096622609 -0.043439418 -0.26821119
-0.096618928 -0.043359239 -0.26822129
-0.096615613 -0.04328119 -0.26822543
-0.096612908 -0.043201447 -0.26821557
-0.09660989 -0.043123525 -0.26821372
-0.096606404 -0.043043435 -0.26821983
-0.096602999 -0.042965338 -0.26822597
-0.096599899 -0.042885423 -0.26822409
-0.09659718 -0.042807631 -0.26821625
-0.096594259 -0.042729758 -0.26821241
-0.096591257 -0.04264988 -0.26820853
-0.096587673 -0.042569749 -0.26821661
-0.09658426 -0.042491652 -0.26822278
-0.096581556 -0.042411909 -0.26821288
-0.096578538 -0.04233399 -0.26821104
-0.096575148 -0.042253941 -0.26821515
-0.096572034 -0.042175978 -0.2682153
-0.09656921 -0.042098146 -0.26820946
-0.096566118 -0.042018227 -0.26820758
-0.096563198 -0.04194035 -0.26820374
-0.096560195 -0.041860476 -0.26819986
-0.096557371 -0.041782644 -0.26819402
-0.096554354 -0.041704725 -0.26819217
-0.096551262 -0.041624807 -0.26819029
-0.096547946 -0.041546755 -0.26819444
-0.096544459 -0.041466665 -0.26820055
-0.096541077 -0.041386619 -0.26820463
-0.096537665 -0.041308522 -0.2682108
-0.096534476 -0.041228563 -0.26821089
-0.096531846 -0.041150816 -0.26820105
-0.096528746 -0.041070897 -0.26819918
-0.096525341 -0.040992804 -0.26820531
-0.096522145 -0.040912844 -0.26820543
-0.096519224 -0.040834967 -0.26820159
-0.096516699 -0.040757265 -0.26818976
-0.096513987 -0.040677521 -0.26817989
-0.096510388 -0.040599339 -0.26819003
-0.096506804 -0.040519204 -0.26819813
-0.096503802 -0.04043933 -0.26819423
-0.096500784 -0.040361412 -0.26819241
-0.096497789 -0.040281534 -0.26818851
-0.096495256 -0.040203832 -0.26817667
-0.096492335 -0.040125959 -0.26817286
-0.096488848 -0.040045865 -0.26817894
-0.096485361 -0.039965775 -0.26818505
-0.096481875 -0.039885685 -0.26819116
-0.096478663 -0.039807677 -0.2681933
-0.096476033 -0.03972993 -0.26818347
-0.096473135 -0.039650097 -0.26817757
-0.096469827 -0.039572049 -0.26818174
-0.096466437 -0.039492004 -0.26818582
-0.096463241 -0.03941204 -0.26818594
-0.096460417 -0.039334208 -0.2681801
-0.096457519 -0.039254375 -0.26817423
-0.096454501 -0.039176457 -0.26817238
-0.096451208 -0.039096452 -0.2681745
-0.096448094 -0.039018489 -0.26817465
-0.096445091 -0.038938612 -0.26817077
-0.09644188 -0.038860604 -0.26817292
-0.09643849 -0.038780559 -0.26817703
-0.096435592 -0.03870073 -0.26817113
-0.096432768 -0.038622893 -0.26816529
-0.09642975 -0.038544975 -0.26816344
-0.096426852 -0.038465146 -0.26815757
-0.09642373 -0.038387183 -0.26815772
-0.096420154 -0.038307048 -0.26816583
-0.096416667 -0.038226955 -0.26817191
-0.096413746 -0.038149077 -0.26816809
-0.096410744 -0.038069203 -0.26816419
-0.096407823 -0.03799133 -0.26816034
-0.096404627 -0.037911367 -0.26816046
-0.096401438 -0.037831403 -0.26816058
-0.096398421 -0.037753485 -0.26815873
-0.096396178 -0.037675913 -0.26814091
-0.096386485 -0.037437942 -0.26814526
-0.096379884 -0.037279889 -0.26815152
-0.096376024 -0.037197664 -0.26816356
-0.096373394 -0.037119921 -0.26815373
-0.096370772 -0.037042174 -0.26814392
-0.096367382 -0.036962129 -0.26814801
-0.096363991 -0.03688208 -0.26815212
-0.09636078 -0.036804073 -0.26815426
-0.096357681 -0.036724154 -0.26815239
-0.096354857 -0.036646321 -0.26814654
-0.096351668 -0.036566358 -0.26814666
-0.09634693 -0.03648375 -0.26817667
-0.09634354 -0.036403701 -0.26818079
-0.096341401 -0.03632617 -0.26816097
-0.096339338 -0.036250643 -0.26814118
-0.096335679 -0.036168508 -0.26814923
-0.096332662 -0.03609059 -0.26814741
-0.096329369 -0.036010586 -0.2681495
-0.096325882 -0.035930492 -0.2681556
-0.096322864 -0.035852574 -0.26815376
-0.096320435 -0.035774916 -0.26813993
-0.096317627 -0.035695128 -0.26813206
-0.096315175 -0.035619423 -0.26812029
-0.096312843 -0.035541806 -0.26810446
-0.096295699 -0.035141479 -0.26812896
-0.096292213 -0.035061389 -0.26813507
-0.096289217 -0.034981512 -0.26813117
-0.0962862 -0.034903593 -0.26812932
-0.096283279 -0.034825716 -0.2681255
-0.096280478 -0.034745928 -0.26811761
-0.096277751 -0.03466814 -0.26810977
-0.09627407 -0.034587961 -0.26811987
-0.096270487 -0.034507826 -0.26812798
-0.096267663 -0.034429993 -0.26812214
-0.096265055 -0.034350291 -0.26811028
-0.096262135 -0.034272417 -0.26810643
-0.096258648 -0.034192324 -0.26811251
-0.096255355 -0.034112319 -0.26811463
-0.09625224 -0.034034356 -0.26811478
-0.096249245 -0.033954483 -0.2681109
-0.096246421 -0.03387665 -0.26810506
-0.096243225 -0.03379669 -0.26810518
-0.09624023 -0.033716813 -0.26810127
-0.0962376 -0.033639066 -0.26809144
-0.096234307 -0.033559065 -0.26809356
-0.096230529 -0.033478841 -0.26810566
-0.096227333 -0.033398882 -0.26810575
-0.09622471 -0.033321135 -0.26809591
-0.096221887 -0.033243299 -0.26809007
-0.096218787 -0.033163384 -0.26808819
-0.096215867 -0.033085506 -0.26808435
-0.096212775 -0.033005588 -0.26808247
-0.096209481 -0.032925587 -0.26808459
-0.096206367 -0.032847624 -0.26808473
-0.096202999 -0.032765619 -0.26808679
-0.096199982 -0.032687701 -0.26808494
-0.096196882 -0.032607783 -0.26808307
-0.096193768 -0.03252982 -0.26808321
-0.096190766 -0.032449946 -0.26807934
-0.096187674 -0.032370027 -0.26807743
-0.096184187 -0.032289937 -0.26808354
-0.096180893 -0.032209933 -0.26808566
-0.096178174 -0.032132141 -0.26807782
-0.096175447 -0.03205435 -0.26806998
-0.096172251 -0.03197439 -0.2680701
-0.096169136 -0.031896427 -0.26807025
-0.096166432 -0.031816684 -0.26806036
-0.096163213 -0.031738676 -0.26806253
-0.096159726 -0.031658586 -0.26806861
-0.096156634 -0.031578667 -0.26806673
-0.096153811 -0.031500835 -0.26806089
-0.096150815 -0.031420961 -0.26805699
-0.096147619 -0.031340998 -0.26805711
-0.096144505 -0.031263035 -0.26805729
-0.096141502 -0.031183161 -0.26805338
-0.096138015 -0.031103069 -0.26805949
-0.096134633 -0.031023022 -0.26806358
-0.096131906 -0.030945232 -0.26805577
-0.096128806 -0.030865315 -0.26805386
-0.096125618 -0.030785354 -0.26805398
-0.0961226 -0.030707434 -0.26805213
-0.096119501 -0.030627515 -0.26805025
-0.09611658 -0.030549638 -0.26804641
-0.096113384 -0.030469678 -0.2680465
-0.096109822 -0.030387588 -0.26805258
-0.096106708 -0.030309625 -0.2680527
-0.096103907 -0.030229839 -0.26804483
-0.096100889 -0.030151919 -0.26804298
-0.096097596 -0.030071912 -0.2680451
-0.0960944 -0.029991953 -0.26804519
-0.096091576 -0.02991412 -0.26803938
-0.096088387 -0.029834157 -0.26803949
-0.096084803 -0.029754024 -0.26804757
-0.096081704 -0.029674107 -0.26804569
-0.096078977 -0.029596318 -0.26803786
-0.096075885 -0.029516399 -0.26803598
-0.096072786 -0.02943648 -0.26803407
-0.096069671 -0.029358517 -0.26803422
-0.096066751 -0.02928064 -0.26803041
-0.096063852 -0.029200809 -0.2680245
-0.096060559 -0.029120805 -0.26802662
-0.096057467 -0.029040888 -0.26802474
-0.096054345 -0.028962925 -0.26802489
-0.096051157 -0.028882964 -0.26802498
-0.096047863 -0.028802957 -0.2680271
-0.09604457 -0.028722953 -0.26802921
-0.096041948 -0.028645208 -0.26801938
-0.096039221 -0.028567418 -0.26801154
-0.096036024 -0.028487457 -0.26801166
-0.096032538 -0.028407365 -0.26801774
-0.096029148 -0.02832732 -0.26802185
-0.096026249 -0.028247487 -0.26801598
-0.096023895 -0.028171826 -0.26800218
-0.096020803 -0.028091908 -0.2680003
-0.096017316 -0.028011816 -0.26800638
-0.09601412 -0.027931854 -0.2680065
-0.096010923 -0.027851893 -0.26800662
-0.096007638 -0.02777189 -0.26800871
-0.097346522 -0.062156394 -0.26866499
-0.09734489 -0.062077127 -0.26863316
-0.09734486 -0.061994646 -0.26856527
-0.097347297 -0.061911296 -0.2684454
-0.097346053 -0.061832204 -0.26840556
-0.097343639 -0.061752591 -0.2683897
-0.097340815 -0.061674759 -0.26838386
-0.097337998 -0.061596923 -0.26837802
-0.097334899 -0.061517008 -0.26837611
-0.097331591 -0.061438955 -0.26838028
-0.097328477 -0.061360992 -0.26838043
-0.097325377 -0.061281074 -0.26837856
-0.09732236 -0.061203156 -0.26837671
-0.097319461 -0.061123326 -0.26837081
-0.097316131 -0.061047226 -0.26837701
-0.097312525 -0.060969047 -0.26838714
-0.09730953 -0.060889173 -0.26838326
