# .PCD v0.7 - Point Cloud Data file format
VERSION 0.7
FIELDS x y z
SIZE 4 4 4
TYPE F F F
COUNT 1 1 1
WIDTH 1286
HEIGHT 1
VIEWPOINT 0 0 0 1 0 0 0
POINTS 1286
DATA ascii
-0.10966126 0.0089630019 -0.22955605
-0.10965839 0.0090447888 -0.22954813
-0.10965513 0.009126747 -0.22954819
-0.10965095 0.0092130527 -0.22956413
-0.10964609 0.0093016159 -0.229592
-0.10964189 0.0093879197 -0.22960794
-0.10963894 0.0094697475 -0.22960201
-0.10963617 0.0095514897 -0.22959207
-0.10963281 0.0096334945 -0.22959413
-0.10962986 0.0097172782 -0.22958615
-0.10962737 0.0097969342 -0.22957227
-0.1096244 0.0098787621 -0.22956634
-0.10962068 0.009962894 -0.22957432
-0.10961744 0.010046808 -0.22957234
-0.10961457 0.010128595 -0.2295644
-0.10961151 0.010210466 -0.22956046
-0.10960828 0.01029438 -0.22955848
-0.10960531 0.010376209 -0.22955254
-0.10960252 0.010455998 -0.22954467
-0.10959958 0.010539781 -0.22953668
-0.10959612 0.010621827 -0.22954074
-0.10959259 0.010705872 -0.22954473
-0.10958982 0.010787614 -0.2295348
-0.11023526 -0.0094822599 -0.23286501
-0.11023249 -0.0094005186 -0.23285507
-0.11023264 -0.0093200831 -0.23278522
-0.11025148 -0.0092617404 -0.23234424
-0.1102521 -0.0091834785 -0.23226646
-0.11025331 -0.0091054775 -0.23217669
-0.11025472 -0.009027564 -0.23208292
-0.11025476 -0.0089490395 -0.23201711
-0.11025423 -0.0088683013 -0.23196125
-0.11025329 -0.008789341 -0.23191541
-0.11025218 -0.0087083401 -0.23187155
-0.11025241 -0.0086299041 -0.23180175
-0.11025477 -0.0085543804 -0.23169005
-0.11025569 -0.0084762489 -0.23160627
-0.11025543 -0.008397595 -0.23154646
-0.11025346 -0.0083142472 -0.23151851
-0.11025155 -0.0082348511 -0.23149267
-0.11025044 -0.0081538511 -0.23144877
-0.11025116 -0.0080756322 -0.23136899
-0.11025332 -0.0080000218 -0.23126128
-0.11025461 -0.0079240194 -0.23117158
-0.11025658 -0.0078483215 -0.23106787
-0.11025786 -0.007772319 -0.23097815
-0.110258 -0.0076938383 -0.23091035
-0.11025833 -0.0076154461 -0.23083855
-0.11025875 -0.0075370967 -0.23076478
-0.11025828 -0.0074603092 -0.23071098
-0.11025698 -0.0073792208 -0.23067111
-0.11025518 -0.0072979145 -0.2306412
-0.11025307 -0.0072184326 -0.23061933
-0.1102506 -0.0071368217 -0.23060341
-0.11024871 -0.0070554717 -0.2305755
-0.1102466 -0.0069759898 -0.23055364
-0.11024268 -0.0068917712 -0.23056564
-0.11023778 -0.0068071168 -0.2305976
-0.11023347 -0.0067227222 -0.23061758
-0.11022887 -0.0066381982 -0.23064354
-0.1102237 -0.0065514585 -0.23067945
-0.1102193 -0.0064670211 -0.23070142
-0.11021575 -0.0063849306 -0.23070748
-0.11021163 -0.0063006254 -0.23072347
-0.11020683 -0.0062160129 -0.23075342
-0.11020233 -0.0061315326 -0.23077741
-0.11019831 -0.0060472712 -0.23079139
-0.11019468 -0.0059631821 -0.23079738
-0.11019182 -0.0058813971 -0.23078945
-0.11018944 -0.005799829 -0.23077154
-0.1101884 -0.0057208259 -0.2307277
-0.11018786 -0.0056420416 -0.23067388
-0.11018663 -0.0055629518 -0.23063403
-0.1101854 -0.0054838601 -0.2305942
-0.11018387 -0.00540464 -0.23056036
-0.11018179 -0.0053232033 -0.23053645
-0.1101797 -0.0052417666 -0.23051253
-0.1101772 -0.0051621096 -0.23049866
-0.11017482 -0.0050805425 -0.23048073
-0.11017273 -0.0049991049 -0.23045683
-0.11016987 -0.0049173199 -0.2304489
-0.11016644 -0.0048333183 -0.2304509
-0.1101625 -0.0047510536 -0.23046494
-0.11015916 -0.0046670968 -0.23046494
-0.11015619 -0.004585268 -0.230459
-0.11015169 -0.0045007868 -0.23048298
-0.11014633 -0.0044139605 -0.23052289
-0.11014336 -0.0043321308 -0.23051694
-0.11014213 -0.004253041 -0.23047711
-0.11014061 -0.0041738208 -0.23044327
-0.11013948 -0.004094773 -0.23040143
-0.11013893 -0.0040159877 -0.2303476
-0.11013778 -0.0039388957 -0.23030782
-0.11013665 -0.0038598496 -0.23026597
-0.1101361 -0.0037810644 -0.23021215
-0.11013505 -0.0037040161 -0.23017037
-0.11013487 -0.0036273599 -0.2301106
-0.11013412 -0.0035484862 -0.23006079
-0.1101328 -0.0034693535 -0.23002294
-0.11013108 -0.0033900458 -0.22999308
-0.11012848 -0.0033103451 -0.2299812
-0.11012601 -0.0032287333 -0.22996527
-0.1101241 -0.003149339 -0.2299394
-0.11012152 -0.0030676844 -0.22992548
-0.11011836 -0.002985768 -0.22992355
-0.1101153 -0.0029038955 -0.22991961
-0.11011216 -0.0028200243 -0.22991562
-0.11010957 -0.0027403245 -0.22990374
-0.11010757 -0.0026589315 -0.22987783
-0.11010517 -0.0025793184 -0.22986194
-0.1101025 -0.0024976209 -0.22985002
-0.11010069 -0.0024182685 -0.22982217
-0.11010031 -0.0023415256 -0.2297664
-0.11010263 -0.0022699106 -0.22965881
-0.11010197 -0.0021930365 -0.22960901
-0.11010072 -0.0021159006 -0.22957122
-0.11009987 -0.002036985 -0.22952339
-0.11009902 -0.0019600233 -0.22947761
-0.11009786 -0.0018829312 -0.22943783
-0.11009634 -0.0018037101 -0.22940397
-0.11009538 -0.0017267056 -0.22936019
-0.11009425 -0.0016476586 -0.22931835
-0.11009204 -0.001568133 -0.22929849
-0.11008927 -0.0014863908 -0.22928855
-0.11008639 -0.0014065597 -0.22928266
-0.11008342 -0.0013247319 -0.22927672
-0.11008046 -0.0012429021 -0.22927079
-0.11007749 -0.0011610724 -0.22926486
-0.11007396 -0.001077028 -0.22926885
-0.11007002 -0.00099476241 -0.22928289
-0.11006571 -0.00091037154 -0.22930287
-0.11006228 -0.00082636997 -0.22930488
-0.11005969 -0.00074666925 -0.22929299
-0.1100551 -0.00066019036 -0.22931692
-0.11005021 -0.000575535 -0.2293489
-0.11004715 -0.00049366243 -0.22934493
-0.11004418 -0.00041183457 -0.22933902
-0.11004083 -0.00032983162 -0.22934106
-0.1100372 -0.0002457425 -0.22934707
-0.11003394 -0.00016378239 -0.22934711
-0.11003088 -8.190982e-05 -0.22934318
-0.11002716 2.2221357e-06 -0.22935118
-0.11002341 8.4398314e-05 -0.22936121
-0.11002008 0.00016835704 -0.22936122
-0.11001682 0.00025031716 -0.2293613
-0.11001317 0.00033245049 -0.22936933
-0.11000906 0.00041675568 -0.22938532
-0.11000533 0.00050088763 -0.2293933
-0.11000217 0.00058280304 -0.22939137
-0.1099994 0.00066454522 -0.22938144
-0.10999681 0.00074424595 -0.22936955
-0.10999309 0.0008283779 -0.22937755
-0.10998897 0.00091268495 -0.22939354
-0.10998534 0.00099677406 -0.22939953
-0.10998179 0.0010788627 -0.22940558
-0.10997816 0.0011629537 -0.22941159
-0.10997481 0.0012449548 -0.22941363
-0.1099705 0.0013293494 -0.22943361
-0.10996611 0.0014157388 -0.22945355
-0.10996296 0.0014976542 -0.22945161
-0.10996065 0.0015772246 -0.22943375
-0.10995759 0.001659099 -0.2294298
-0.10995377 0.0017432738 -0.2294398
-0.10995033 0.0018272754 -0.22944179
-0.10994679 0.001909364 -0.22944784
-0.10994306 0.001993496 -0.22945583
-0.10993924 0.0020776745 -0.22946583
-0.10993559 0.0021598078 -0.22947387
-0.10993236 0.00224372 -0.22947189
-0.10993005 0.0023232922 -0.22945401
-0.10992698 0.002405161 -0.22945008
-0.10992327 0.002489293 -0.22945808
-0.10991962 0.0025714282 -0.22946611
-0.10991675 0.0026532132 -0.22945818
-0.10991437 0.0027347822 -0.22944027
-0.10991187 0.0028144363 -0.22942638
-0.10990901 0.0028962232 -0.22941846
-0.10990604 0.0029780529 -0.22941251
-0.10990251 0.0030620974 -0.22941652
-0.10989906 0.003144145 -0.22942057
-0.10989524 0.0032283198 -0.22943056
-0.10989007 0.0033150595 -0.22946648
-0.10988492 0.003403753 -0.22950034
-0.10988156 0.0034857579 -0.22950238
-0.10987889 0.0035674553 -0.22949046
-0.10987583 0.0036493279 -0.22948653
-0.10987248 0.0037313309 -0.22948858
-0.10986932 0.0038132463 -0.22948664
-0.10986618 0.0038971193 -0.22948265
-0.10986312 0.00397899 -0.22947872
-0.10985996 0.0040609054 -0.22947678
-0.1098566 0.0041429102 -0.22947882
-0.10985297 0.0042269975 -0.22948483
-0.10984895 0.0043112598 -0.2294988
-0.10984486 0.0043975208 -0.22951275
-0.10984209 0.0044792611 -0.22950283
-0.10983979 0.0045588315 -0.22948495
-0.10983673 0.0046407059 -0.22948101
-0.10983396 0.0047224462 -0.22947109
-0.10983136 0.0048021469 -0.2294592
-0.10982888 0.0048837587 -0.22944328
-0.10982612 0.004965499 -0.22943334
-0.10982285 0.0050474592 -0.2294334
-0.10981933 0.0051315054 -0.22943741
-0.10981541 0.0052157231 -0.22944939
-0.10981072 0.0053022448 -0.22947532
-0.10980634 0.0053886361 -0.22949526
-0.10980242 0.0054728556 -0.22950724
-0.10979916 0.0055548158 -0.2295073
-0.1097962 0.0056366436 -0.22950137
-0.10979258 0.0057207327 -0.22950736
-0.10978904 0.0058047753 -0.22951137
-0.10978588 0.0058866926 -0.22950941
-0.10978321 0.00596839 -0.22949749
-0.10978005 0.0060503073 -0.22949556
-0.10977557 0.0061367415 -0.22951749
-0.10977052 0.0062253941 -0.22954935
-0.10976669 0.0063095689 -0.22955933
-0.10976277 0.0063937865 -0.22957133
-0.10975952 0.0064757466 -0.22957139
-0.10975684 0.0065574441 -0.22955947
-0.10975398 0.006639231 -0.22955152
-0.10975035 0.0067233201 -0.22955753
-0.10974653 0.0068074949 -0.22956753
-0.10974347 0.0068893675 -0.22956359
-0.10974099 0.0069709793 -0.22954765
-0.10973889 0.0070504602 -0.2295258
-0.10973524 0.0071325954 -0.22953384
-0.10972886 0.0072257631 -0.22958958
-0.10972457 0.0073121116 -0.22960751
-0.10972141 0.007394027 -0.22960557
-0.10971855 0.0074758139 -0.22959763
-0.10971595 0.0075555127 -0.22958577
-0.10971271 0.0076394286 -0.22958377
-0.10970889 0.0077236053 -0.22959375
-0.10970536 0.0078076497 -0.22959776
-0.10970269 0.0078893472 -0.22958583
-0.10970058 0.0079688299 -0.22956398
-0.10969867 0.0080482252 -0.22953811
-0.10969551 0.0081301406 -0.22953618
-0.10969055 0.0082187466 -0.22956604
-0.10968532 0.0083074849 -0.2296019
-0.10968196 0.0083894897 -0.22960395
-0.10967911 0.0084732287 -0.22959398
-0.10967642 0.0085529741 -0.2295841
-0.10967318 0.0086368881 -0.2295821
-0.10967031 0.0087186694 -0.22957417
-0.10966801 0.0087982416 -0.22955629
-0.10966475 0.0088801999 -0.22955635
-0.10966133 0.0089641996 -0.22955836
-0.10965846 0.0090459865 -0.22955042
-0.1096553 0.0091279019 -0.22954848
-0.1096511 0.0092142075 -0.22956443
-0.10964635 0.0093027279 -0.2295903
-0.10964206 0.0093890745 -0.22960824
-0.109639 0.0094709471 -0.22960429
-0.10963642 0.0095526017 -0.22959037
-0.10963297 0.0096346494 -0.22959441
-0.10962993 0.0097184759 -0.22958843
-0.10962743 0.0097981337 -0.22957456
-0.10962429 0.0098820031 -0.22957057
-0.10962074 0.0099640936 -0.22957662
-0.10961778 0.010045923 -0.22957069
-0.10961473 0.01012975 -0.2295647
-0.10961176 0.010211578 -0.22955877
-0.10960843 0.010295536 -0.22955877
-0.10960537 0.010377407 -0.22955483
-0.10960258 0.010457197 -0.22954695
-0.10959973 0.010540936 -0.22953697
-0.10959628 0.010622982 -0.22954103
-0.10959258 0.010709068 -0.22954696
-0.10958998 0.010788769 -0.22953509
-0.11023422 -0.0094811358 -0.23287296
-0.11023204 -0.0093996562 -0.23285106
-0.110232 -0.0093191341 -0.23278521
-0.11025054 -0.009260661 -0.23235022
-0.11025136 -0.0091824867 -0.23226844
-0.11025266 -0.0091045294 -0.23217666
-0.11025407 -0.0090266159 -0.2320829
-0.11025411 -0.0089480923 -0.2320171
-0.11025358 -0.0088673532 -0.23196124
-0.11025264 -0.0087883938 -0.23191541
-0.11025153 -0.008707392 -0.23187152
-0.11025157 -0.0086288694 -0.23180571
-0.11025393 -0.0085533457 -0.23169403
-0.11025494 -0.008475258 -0.23160826
-0.11025479 -0.0083966479 -0.23154645
-0.11025301 -0.0083133876 -0.23151451
-0.110251 -0.0082339477 -0.23149064
-0.11024989 -0.0081529478 -0.23144676
-0.11025022 -0.0080745546 -0.23137495
-0.11025238 -0.0079989443 -0.23126727
-0.11025396 -0.0079230722 -0.23117155
-0.11025583 -0.0078473315 -0.23106985
-0.11025722 -0.0077713719 -0.23097813
-0.11025725 -0.0076928483 -0.23091233
-0.11025748 -0.0076144123 -0.23084253
-0.11025801 -0.0075361067 -0.23076674
-0.11025746 -0.0074573215 -0.23071292
-0.11025633 -0.0073782755 -0.23067108
-0.11025462 -0.0072989669 -0.23064123
-0.11025253 -0.0072175302 -0.23061731
-0.11025005 -0.0071359193 -0.2306014
-0.11024806 -0.0070545254 -0.23057549
-0.11024605 -0.0069750873 -0.23055163
-0.11024223 -0.0068909125 -0.23056161
-0.11023733 -0.0068062581 -0.23059359
-0.11023293 -0.0067218198 -0.23061556
-0.11022823 -0.0066372519 -0.23064353
-0.11022306 -0.0065505123 -0.23067944
-0.11021875 -0.0064661186 -0.23069942
-0.11021511 -0.0063839853 -0.23070747
-0.11021108 -0.0062997229 -0.23072144
-0.11020639 -0.0062151542 -0.23074941
-0.11020198 -0.0061307177 -0.23077139
-0.11019786 -0.0060464125 -0.23078737
-0.11019414 -0.0059622787 -0.23079537
-0.11019117 -0.0058804508 -0.23078942
-0.1101888 -0.0057988837 -0.23077151
-0.11018766 -0.0057198359 -0.23072968
-0.11018721 -0.0056410953 -0.23067385
-0.11018598 -0.0055620056 -0.23063402
-0.11018465 -0.0054828711 -0.23059618
-0.11018323 -0.0054036947 -0.23056033
-0.11018124 -0.0053223008 -0.23053443
-0.11017906 -0.0052408203 -0.2305125
-0.11017656 -0.0051611643 -0.23049864
-0.11017418 -0.0050795963 -0.2304807
-0.11017219 -0.0049982034 -0.2304548
-0.11016932 -0.0049164174 -0.23044688
-0.11016597 -0.0048344154 -0.23044893
-0.11016195 -0.0047501512 -0.23046291
-0.11015861 -0.0046661943 -0.23046292
-0.11015555 -0.0045843218 -0.23045897
-0.11015105 -0.0044998415 -0.23048297
-0.11014569 -0.0044130143 -0.23052286
-0.11014272 -0.0043311855 -0.23051693
-0.11014159 -0.0042521395 -0.2304751
-0.11014007 -0.0041729193 -0.23044124
-0.11013884 -0.0040938277 -0.2304014
-0.11013829 -0.0040150424 -0.23034757
-0.11013705 -0.0039379075 -0.23030978
-0.11013601 -0.0038589044 -0.23026595
-0.11013546 -0.0037801191 -0.23021212
-0.1101343 -0.003703027 -0.23017234
-0.11013395 -0.0036243284 -0.23011452
-0.11013339 -0.003547498 -0.23006275
-0.11013216 -0.0034684082 -0.23002291
-0.11013044 -0.0033891005 -0.22999305
-0.11012794 -0.0033094436 -0.22997916
-0.11012547 -0.0032278327 -0.22996324
-0.11012355 -0.0031484375 -0.22993739
-0.11012088 -0.0030667391 -0.22992547
-0.11011782 -0.0029848665 -0.22992152
-0.11011466 -0.0029029511 -0.22991958
-0.11011152 -0.0028190799 -0.22991559
-0.11010883 -0.0027393363 -0.22990571
-0.11010703 -0.00265803 -0.2298758
-0.11010464 -0.0025784178 -0.22985993
-0.11010186 -0.0024966765 -0.22985001
-0.11009995 -0.0024172803 -0.22982414
-0.11009948 -0.0023404937 -0.22977038
-0.1101018 -0.0022688787 -0.22966278
-0.11010133 -0.0021920921 -0.22960898
-0.11009998 -0.0021149125 -0.22957321
-0.11009914 -0.0020359978 -0.22952537
-0.11009828 -0.0019590352 -0.22947958
-0.11009722 -0.0018819869 -0.2294378
-0.1100957 -0.0018027667 -0.22940394
-0.11009464 -0.0017257184 -0.22936216
-0.11009352 -0.0016466714 -0.22932032
-0.11009141 -0.0015671887 -0.22929846
-0.11008864 -0.0014854465 -0.22928852
-0.11008575 -0.0014056172 -0.22928263
-0.11008278 -0.0013237875 -0.22927669
-0.11007991 -0.0012420025 -0.22926876
-0.11007686 -0.0011601299 -0.22926483
-0.11007342 -0.0010761283 -0.22926682
-0.11006958 -0.00099390745 -0.22927886
-0.11006518 -0.00090947002 -0.22930086
-0.11006174 -0.00082546845 -0.22930285
-0.11005915 -0.00074576773 -0.22929096
-0.11005457 -0.0006592907 -0.22931489
-0.11004967 -0.00057463534 -0.22934686
-0.11004651 -0.00049271807 -0.2293449
-0.11004355 -0.00041089021 -0.22933897
-0.11004029 -0.00032893009 -0.22933903
-0.11003666 -0.00024484098 -0.22934504
-0.11003341 -0.00016288273 -0.22934508
-0.11003035 -8.1010163e-05 -0.22934115
-0.11002662 3.1217933e-06 -0.22934915
-0.11002287 8.5299835e-05 -0.22935919
-0.11001953 0.00016925856 -0.22935921
-0.11001618 0.00025126152 -0.22936125
-0.11001264 0.00033335015 -0.2293673
-0.11000852 0.0004176572 -0.22938329
-0.1100048 0.00050178915 -0.22939128
-0.11000174 0.00058365986 -0.22938734
-0.10999887 0.00066544674 -0.2293794
-0.10999627 0.00074514747 -0.22936752
-0.10999255 0.00082927942 -0.22937551
-0.10998843 0.00091358647 -0.22939152
-0.1099847 0.00099771842 -0.2293995
-0.10998116 0.0010798071 -0.22940555
-0.10997763 0.0011638533 -0.22940955
-0.10997418 0.0012458991 -0.2294136
-0.10997006 0.0013302062 -0.22942959
-0.10996548 0.0014166832 -0.22945352
-0.10996232 0.0014985986 -0.22945157
-0.10996002 0.0015781689 -0.22943372
-0.10995715 0.0016599558 -0.22942576
-0.10995333 0.0017441306 -0.22943577
-0.1099498 0.001828175 -0.22943977
-0.10994625 0.0019102655 -0.22944582
-0.10994243 0.0019944403 -0.2294558
-0.10993861 0.0020786189 -0.2294658
-0.10993496 0.0021607522 -0.22947384
-0.10993182 0.0022446197 -0.22946987
-0.10992941 0.0023242366 -0.22945398
-0.10992655 0.0024060179 -0.22944605
-0.10992273 0.0024901945 -0.22945604
-0.10991908 0.0025723297 -0.22946408
-0.10991621 0.0026541129 -0.22945616
-0.10991374 0.0027357265 -0.22944023
-0.10991124 0.0028153807 -0.22942635
-0.10990847 0.0028971247 -0.22941643
-0.10990541 0.0029789954 -0.2294125
-0.10990197 0.003062997 -0.22941449
-0.10989843 0.0031450894 -0.22942054
-0.1098946 0.0032292642 -0.22943053
-0.10988953 0.0033159591 -0.22946444
-0.10988429 0.0034046974 -0.22950029
-0.10988093 0.0034867022 -0.22950235
-0.10987836 0.003568355 -0.22948843
-0.1098753 0.0036502294 -0.2294845
-0.10987194 0.0037322324 -0.22948654
-0.10986878 0.0038141478 -0.2294846
-0.10986574 0.0038979761 -0.22947863
-0.10986258 0.0039798915 -0.22947668
-0.10985942 0.0040618069 -0.22947474
-0.10985596 0.0041438546 -0.22947879
-0.10985244 0.0042278972 -0.22948278
-0.10984842 0.0043121595 -0.22949678
-0.1098444 0.0043964237 -0.22951075
-0.10984156 0.0044801626 -0.22950079
-0.10983925 0.004559733 -0.22948292
-0.10983619 0.0046416055 -0.22947897
-0.10983332 0.0047233906 -0.22947103
-0.10983073 0.0048030913 -0.22945917
-0.10982826 0.0048847012 -0.22944325
-0.10982566 0.0049644038 -0.22943136
-0.10982223 0.0050484035 -0.22943336
-0.10981879 0.0051324051 -0.22943535
-0.10981505 0.0052145831 -0.22944541
-0.1098102 0.0053031445 -0.22947328
-0.10980589 0.005387539 -0.22949326
-0.10980179 0.0054738 -0.22950721
-0.10979863 0.0055557173 -0.22950527
-0.10979567 0.0056375451 -0.22949933
-0.10979204 0.0057216343 -0.22950533
-0.10978851 0.0058056768 -0.22950932
-0.10978545 0.0058875494 -0.22950539
-0.10978258 0.0059693344 -0.22949746
-0.10977952 0.0060512088 -0.22949351
-0.10977504 0.006137643 -0.22951543
-0.10976989 0.0062263384 -0.22954932
-0.10976607 0.0063105132 -0.2295593
-0.10976234 0.0063946433 -0.22956729
-0.10975908 0.0064766053 -0.22956735
-0.10975631 0.0065583456 -0.22955742
-0.10975335 0.0066401754 -0.22955149
-0.10974982 0.0067242198 -0.22955549
-0.109746 0.0068083964 -0.22956549
-0.10974304 0.0068902243 -0.22955954
-0.10974046 0.0069718808 -0.22954562
-0.10973843 0.007049365 -0.22952381
-0.1097349 0.0071334094 -0.2295278
-0.10972833 0.0072266646 -0.22958754
-0.10972395 0.0073130578 -0.22960746
-0.10972068 0.007395016 -0.22960752
-0.10971802 0.0074767154 -0.2295956
-0.10971542 0.0075564142 -0.22958371
-0.10971218 0.0076403301 -0.22958173
-0.10970836 0.0077245049 -0.22959173
-0.10970483 0.0078085512 -0.22959572
-0.10970216 0.0078902487 -0.2295838
-0.10970005 0.0079697315 -0.22956192
-0.10969804 0.0080491696 -0.22953807
-0.10969508 0.0081309974 -0.22953212
-0.10969013 0.0082196053 -0.22956201
-0.10968479 0.0083083864 -0.22959986
-0.10968143 0.0083903894 -0.22960192
-0.10967839 0.0084742177 -0.22959593
-0.1096757 0.0085539613 -0.22958605
-0.10967255 0.0086378325 -0.22958206
-0.10966979 0.0087195709 -0.22957213
-0.10966738 0.0087991878 -0.22955626
-0.10966422 0.0088810995 -0.22955433
-0.1096607 0.0089651458 -0.22955832
-0.10965783 0.0090469308 -0.22955039
-0.10965477 0.0091288034 -0.22954644
-0.10965057 0.0092151091 -0.22956237
-0.10964592 0.0093035866 -0.22958626
-0.10964134 0.0093900636 -0.22961019
-0.10963837 0.0094718914 -0.22960424
-0.10963579 0.0095535461 -0.22959033
-0.10963254 0.0096355062 -0.22959039
-0.1096294 0.0097193774 -0.22958639
-0.1096269 0.0097990334 -0.22957252
-0.10962376 0.0098829046 -0.22956854
-0.10962021 0.0099649951 -0.22957459
-0.10961715 0.010046868 -0.22957064
-0.10961421 0.010130651 -0.22956267
-0.10961115 0.010212522 -0.22955872
-0.10960808 0.010294396 -0.22955477
-0.10960502 0.010376269 -0.22955084
-0.10960215 0.010458056 -0.22954291
-0.10959911 0.010541881 -0.22953692
-0.10959566 0.010623926 -0.22954097
-0.10959212 0.010707971 -0.22954497
-0.10958946 0.01078967 -0.22953305
-0.11023021 -0.009481784 -0.23285967
-0.11022744 -0.0094000418 -0.23284975
-0.1102275 -0.0093195643 -0.23278189
-0.11024614 -0.0092611341 -0.23234491
-0.11024686 -0.009182916 -0.23226513
-0.11024807 -0.009104915 -0.23217535
-0.11024938 -0.0090269586 -0.23208359
-0.11024951 -0.0089484779 -0.23201579
-0.11024899 -0.0088677388 -0.23195994
-0.11024805 -0.0087887794 -0.2319141
-0.11024694 -0.0087077785 -0.23187022
-0.11024708 -0.0086292988 -0.2318024
-0.11024953 -0.0085538188 -0.23168874
-0.11025045 -0.0084756874 -0.23160495
-0.1102502 -0.0083970334 -0.23154514
-0.11024823 -0.0083136857 -0.2315172
-0.11024622 -0.0082342466 -0.23149332
-0.11024521 -0.0081532896 -0.23144744
-0.11024603 -0.0080751143 -0.23136567
-0.11024819 -0.007999504 -0.23125798
-0.11024947 -0.0079235025 -0.23116824
-0.11025134 -0.0078477608 -0.23106654
-0.11025263 -0.0077717584 -0.23097682
-0.11025267 -0.0076932339 -0.23091102
-0.11025301 -0.0076148417 -0.23083922
-0.11025343 -0.0075364923 -0.23076543
-0.11025306 -0.0074597485 -0.23070966
-0.11025175 -0.0073786601 -0.23066977
-0.11024996 -0.0072973548 -0.23063987
-0.11024785 -0.007217872 -0.230618
-0.11024538 -0.0071362611 -0.23060209
-0.11024348 -0.007054911 -0.23057419
-0.11024138 -0.0069754291 -0.23055232
-0.11023756 -0.0068912534 -0.2305623
-0.11023257 -0.0068065561 -0.23059627
-0.11022816 -0.0067221187 -0.23061824
-0.11022356 -0.0066375937 -0.23064423
-0.11021849 -0.0065508978 -0.23067813
-0.11021399 -0.0064664166 -0.2307021
-0.11021054 -0.0063843699 -0.23070616
-0.11020642 -0.0063000638 -0.23072213
-0.11020163 -0.0062154522 -0.23075211
-0.11019722 -0.0061310157 -0.23077407
-0.1101932 -0.0060467534 -0.23078808
-0.11018948 -0.0059626196 -0.23079607
-0.11018652 -0.0058807917 -0.23079012
-0.11018423 -0.0057992674 -0.2307702
-0.1101831 -0.0057202205 -0.23072837
-0.11018255 -0.0056414362 -0.23067455
-0.11018142 -0.0055623902 -0.23063272
-0.11018019 -0.0054832995 -0.23059288
-0.11017867 -0.0054040793 -0.23055902
-0.11017659 -0.0053226417 -0.23053512
-0.1101745 -0.005241205 -0.2305112
-0.11017191 -0.0051615052 -0.23049933
-0.11016945 -0.0050779395 -0.23048136
-0.11016754 -0.0049985442 -0.2304555
-0.11016467 -0.0049167583 -0.23044756
-0.11016114 -0.0048327139 -0.23045158
-0.11015721 -0.0047504492 -0.23046559
-0.11015387 -0.0046664923 -0.23046561
-0.11015081 -0.0045846198 -0.23046166
-0.1101464 -0.0045001823 -0.23048365
-0.11014104 -0.0044133542 -0.23052356
-0.11013818 -0.0043315701 -0.23051561
-0.11013705 -0.0042525232 -0.23047379
-0.11013542 -0.0041732583 -0.23044193
-0.11013419 -0.0040941685 -0.2304021
-0.11013365 -0.0040153833 -0.23034826
-0.11013249 -0.0039382912 -0.23030847
-0.11013137 -0.0038592452 -0.23026663
-0.11013072 -0.0037804153 -0.2302148
-0.11012977 -0.0037034107 -0.23017102
-0.11012968 -0.0036267992 -0.23010927
-0.11012895 -0.0035479264 -0.23005944
-0.11012762 -0.0034687929 -0.2300216
-0.1101259 -0.0033894842 -0.22999173
-0.11012331 -0.0033097835 -0.22997987
-0.11012093 -0.0032282155 -0.22996193
-0.11011892 -0.0031487774 -0.22993807
-0.11011635 -0.0030671228 -0.22992417
-0.11011319 -0.0029852064 -0.22992222
-0.11011003 -0.002903292 -0.22992027
-0.11010689 -0.0028194208 -0.22991627
-0.11010429 -0.002739721 -0.22990441
-0.1101024 -0.0026583709 -0.22987649
-0.1101 -0.0025787586 -0.22986063
-0.11009733 -0.0024970602 -0.22984871
-0.11009552 -0.0024177087 -0.22982085
-0.11009514 -0.002340965 -0.22976507
-0.11009746 -0.00226935 -0.22965747
-0.1100968 -0.0021924758 -0.22960769
-0.11009545 -0.0021152962 -0.22957189
-0.11009471 -0.0020364244 -0.22952206
-0.11009376 -0.0019594189 -0.22947827
-0.1100928 -0.0018824143 -0.22943449
-0.11009128 -0.0018031932 -0.22940063
-0.11009022 -0.0017261449 -0.22935885
-0.11008899 -0.0016470551 -0.22931901
-0.11008689 -0.0015675724 -0.22929716
-0.11008412 -0.0014858302 -0.22928722
-0.11008123 -0.0014059991 -0.22928134
-0.11007827 -0.0013241693 -0.22927539
-0.1100753 -0.0012423415 -0.22926944
-0.11007224 -0.0011604689 -0.22926551
-0.11006881 -0.0010764673 -0.22926754
-0.11006487 -0.00099420361 -0.22928154
-0.11006056 -0.00090980902 -0.22930154
-0.11005703 -0.00082576461 -0.22930554
-0.11005443 -0.00074606389 -0.22929366
-0.11004996 -0.0006596297 -0.22931559
-0.11004516 -0.00057501718 -0.22934556
-0.110042 -0.00049310178 -0.22934361
-0.11003903 -0.00041127391 -0.22933768
-0.11003568 -0.0003292691 -0.22933972
-0.11003205 -0.00024518184 -0.22934574
-0.1100288 -0.00016322173 -0.22934578
-0.11002573 -8.1349164e-05 -0.22934183
-0.11002201 2.7827919e-06 -0.22934984
-0.11001827 8.4960833e-05 -0.22935989
-0.11001503 0.00016887486 -0.2293579
-0.11001178 0.00025083497 -0.22935794
-0.11000813 0.00033296831 -0.229366
-0.11000392 0.0004173182 -0.22938398
-0.11000019 0.00050145015 -0.22939198
-0.10999713 0.00058332086 -0.22938803
-0.10999437 0.0006650649 -0.2293781
-0.10999167 0.00074481033 -0.22936821
-0.10998794 0.00082894042 -0.22937621
-0.10998393 0.00091320276 -0.2293902
-0.10998021 0.00099733472 -0.22939819
-0.10997666 0.0010794252 -0.22940426
-0.10997303 0.0011635143 -0.22941026
-0.10996968 0.0012455173 -0.22941229
-0.10996556 0.0013298243 -0.22942829
-0.10996098 0.0014163032 -0.22945222
-0.10995782 0.0014982186 -0.22945027
-0.10995552 0.001577789 -0.2294324
-0.10995256 0.0016596187 -0.22942647
-0.10994874 0.0017437916 -0.22943646
-0.1099453 0.0018277932 -0.22943845
-0.10994176 0.0019098837 -0.2294445
-0.10993794 0.0019940585 -0.2294545
-0.10993411 0.0020782351 -0.2294645
-0.10993047 0.0021603685 -0.22947255
-0.10992723 0.0022442825 -0.22947055
-0.10992483 0.0023238957 -0.22945467
-0.10992196 0.0024056807 -0.22944674
-0.10991824 0.0024898127 -0.22945473
-0.10991459 0.0025719479 -0.22946277
-0.10991173 0.0026537329 -0.22945485
-0.10990935 0.0027353019 -0.22943693
-0.10990676 0.0028150007 -0.22942504
-0.10990398 0.0028967429 -0.22941512
-0.10990092 0.0029786155 -0.22941118
-0.10989749 0.0030626152 -0.22941318
-0.10989395 0.0031447057 -0.22941923
-0.10989013 0.0032288823 -0.22942922
-0.10988505 0.0033155791 -0.22946313
-0.10987981 0.0034043156 -0.229499
-0.10987646 0.0034863204 -0.22950104
-0.10987379 0.0035680179 -0.22948912
-0.10987072 0.0036498923 -0.22948518
-0.10986747 0.0037318505 -0.22948524
-0.10986431 0.0038137659 -0.22948331
-0.10986117 0.0038976371 -0.22947931
-0.10985811 0.0039795078 -0.22947538
-0.10985495 0.0040614232 -0.22947344
-0.10985149 0.0041434728 -0.22947749
-0.10984787 0.00422756 -0.22948349
-0.10984395 0.0043117795 -0.22949547
-0.10983976 0.0043980852 -0.22951141
-0.109837 0.0044798255 -0.22950149
-0.10983469 0.0045593958 -0.2294836
-0.10983163 0.0046412684 -0.22947967
-0.10982886 0.0047230106 -0.22946975
-0.10982636 0.0048026666 -0.22945586
-0.10982379 0.0048843212 -0.22944194
-0.1098212 0.004964022 -0.22943005
-0.10981777 0.0050480235 -0.22943205
-0.10981423 0.0051320679 -0.22943607
-0.10981032 0.0052162856 -0.22944805
-0.10980564 0.0053028073 -0.22947398
-0.10980143 0.0053871572 -0.22949195
-0.10979734 0.00547342 -0.2295059
-0.10979427 0.0055552926 -0.22950196
-0.10979121 0.0056371652 -0.22949803
-0.10978749 0.0057212971 -0.22950602
-0.10978406 0.0058052968 -0.22950803
-0.1097809 0.0058872141 -0.22950608
-0.10977803 0.0059689973 -0.22949815
-0.10977497 0.0060508717 -0.22949421
-0.10977048 0.0061373059 -0.22951613
-0.10976544 0.0062259585 -0.22954801
-0.10976162 0.0063101333 -0.22955799
-0.1097577 0.0063943528 -0.22957
-0.10975454 0.00647627 -0.22956805
-0.10975187 0.0065579657 -0.22955611
-0.1097489 0.0066397954 -0.22955018
-0.10974528 0.0067238845 -0.22955619
-0.10974146 0.0068080593 -0.22956619
-0.10973849 0.0068898872 -0.22956024
-0.10973592 0.0069715437 -0.22954631
-0.10973398 0.0070489831 -0.2295225
-0.10973026 0.0071331151 -0.22953051
-0.10972379 0.0072263293 -0.22958824
-0.10971951 0.0073126759 -0.22960617
-0.10971635 0.0073945913 -0.22960421
-0.10971348 0.0074763782 -0.2295963
-0.10971089 0.0075560771 -0.22958443
-0.10970765 0.007639993 -0.22958243
-0.10970382 0.0077241678 -0.22959241
-0.1097004 0.0078081694 -0.22959442
-0.10969763 0.0078899115 -0.22958449
-0.10969552 0.0079693943 -0.22956264
-0.10969361 0.0080487896 -0.22953677
-0.10969045 0.008130705 -0.22953483
-0.1096855 0.0082193129 -0.2295647
-0.10968026 0.0083080493 -0.22960055
-0.1096769 0.0083900541 -0.22960261
-0.10967406 0.008473793 -0.22959264
-0.10967126 0.0085535813 -0.22958475
-0.10966813 0.0086374506 -0.22958076
-0.10966526 0.0087192357 -0.22957283
-0.10966296 0.008798806 -0.22955497
-0.1096598 0.0088807214 -0.22955301
-0.10965627 0.0089647658 -0.22955701
-0.1096535 0.0090465099 -0.22954708
-0.10965034 0.0091284253 -0.22954515
-0.10964605 0.0092147738 -0.22956307
-0.1096413 0.0093032923 -0.22958896
-0.10963692 0.0093896836 -0.22960889
-0.10963395 0.0094715133 -0.22960295
-0.10963128 0.0095532108 -0.22959101
-0.10962792 0.0096352138 -0.22959307
-0.10962489 0.0097190421 -0.22958709
-0.10962249 0.0097986553 -0.22957122
-0.10961942 0.0098805279 -0.22956729
-0.1096157 0.0099646598 -0.22957528
-0.10961256 0.010048529 -0.2295713
-0.10960969 0.010130316 -0.22956336
-0.10960673 0.010212144 -0.22955742
-0.10960367 0.010294018 -0.22955349
-0.1096006 0.010375887 -0.22954953
-0.10959774 0.010457674 -0.22954161
-0.1095947 0.010541501 -0.22953562
-0.10959125 0.010623548 -0.22953968
-0.10958754 0.010709634 -0.22954562
-0.10958505 0.010789292 -0.22953175
-0.11023454 -0.0094819963 -0.23286122
-0.11023176 -0.0094002541 -0.2328513
-0.11023192 -0.0093198195 -0.23278144
-0.11025047 -0.0092613455 -0.23234646
-0.11025119 -0.0091831274 -0.23226666
-0.1102524 -0.0091051264 -0.2321769
-0.1102538 -0.0090272129 -0.23208314
-0.11025383 -0.0089486884 -0.23201734
-0.1102533 -0.0088679492 -0.23196147
-0.11025237 -0.0087889899 -0.23191564
-0.11025126 -0.008707989 -0.23187175
-0.1102514 -0.0086295092 -0.23180395
-0.11025385 -0.0085540283 -0.23169027
-0.11025476 -0.0084758978 -0.23160648
-0.11025461 -0.0083972868 -0.23154469
-0.11025264 -0.008313939 -0.23151675
-0.11025045 -0.0082324585 -0.23149481
-0.11024952 -0.0081535 -0.23144899
-0.11025023 -0.0080752801 -0.23136921
-0.1102524 -0.0079996698 -0.23126152
-0.11025368 -0.0079236673 -0.23117179
-0.11025565 -0.0078479704 -0.23106809
-0.11025694 -0.007771967 -0.23097837
-0.11025707 -0.0076934863 -0.23091057
-0.11025731 -0.0076150503 -0.23084077
-0.11025774 -0.0075367009 -0.23076698
-0.11025728 -0.0074579585 -0.23071116
-0.11025596 -0.0073788259 -0.23067331
-0.11025416 -0.0072975196 -0.23064342
-0.11025215 -0.0072180806 -0.23061955
-0.11024958 -0.007136425 -0.23060563
-0.11024778 -0.0070551187 -0.23057573
-0.11024567 -0.0069756368 -0.23055387
-0.11024185 -0.006891463 -0.23056385
-0.11023696 -0.0068068076 -0.23059583
-0.11023255 -0.0067223702 -0.23061779
-0.11022785 -0.0066378023 -0.23064578
-0.11022268 -0.0065510627 -0.23068167
-0.11021828 -0.0064666253 -0.23070365
-0.11021473 -0.0063845348 -0.2307097
-0.11021071 -0.0063002734 -0.23072368
-0.11020581 -0.0062156171 -0.23075566
-0.11020141 -0.0061311806 -0.23077762
-0.11019739 -0.0060469192 -0.2307916
-0.11019377 -0.00596283 -0.23079762
-0.1101909 -0.005881045 -0.23078968
-0.11018851 -0.005799477 -0.23077175
-0.11018748 -0.0057204738 -0.23072791
-0.11018693 -0.0056416886 -0.2306741
-0.11018561 -0.005562555 -0.23063627
-0.11018448 -0.0054835081 -0.23059443
-0.11018296 -0.0054042879 -0.23056057
-0.11018086 -0.0053228512 -0.23053667
-0.11017878 -0.0052414136 -0.23051275
-0.11017611 -0.0051597152 -0.23050083
-0.11017382 -0.0050781928 -0.23048091
-0.11017181 -0.0049987528 -0.23045705
-0.11016895 -0.0049169678 -0.23044911
-0.11016542 -0.0048329225 -0.23045312
-0.11016148 -0.0047506578 -0.23046716
-0.11015824 -0.0046667447 -0.23046517
-0.11015518 -0.0045848712 -0.23046122
-0.11015067 -0.004500391 -0.2304852
-0.11014531 -0.0044135647 -0.23052511
-0.11014244 -0.0043317787 -0.23051716
-0.11014121 -0.004252689 -0.23047733
-0.11013969 -0.0041734688 -0.23044348
-0.11013856 -0.00409442 -0.23040164
-0.11013801 -0.0040156357 -0.23034781
-0.11013676 -0.0039384998 -0.23031002
-0.11013573 -0.0038594976 -0.23026618
-0.11013508 -0.0037806686 -0.23021437
-0.11013412 -0.0037036631 -0.23017058
-0.11013387 -0.0036250083 -0.23011078
-0.1101332 -0.0035481341 -0.23006099
-0.11013178 -0.0034689568 -0.23002516
-0.11013006 -0.0033896491 -0.2299953
-0.11012756 -0.0033099921 -0.22998142
-0.11012518 -0.0032284241 -0.2299635
-0.11012317 -0.003148986 -0.22993964
-0.11012059 -0.0030673314 -0.22992572
-0.11011753 -0.0029854588 -0.22992177
-0.11011437 -0.0029035434 -0.22991982
-0.11011124 -0.0028196722 -0.22991584
-0.11010854 -0.0027399287 -0.22990596
-0.11010665 -0.0026585786 -0.22987807
-0.11010425 -0.0025789663 -0.22986218
-0.11010158 -0.0024972688 -0.22985026
-0.11009967 -0.0024178727 -0.22982439
-0.11009939 -0.0023411727 -0.22976664
-0.1101018 -0.0022696014 -0.22965702
-0.11010104 -0.0021926835 -0.22960925
-0.1100997 -0.0021155048 -0.22957346
-0.11009895 -0.002036632 -0.22952363
-0.11009809 -0.0019596703 -0.22947784
-0.11009704 -0.001882622 -0.22943605
-0.11009552 -0.0018034009 -0.22940221
-0.11009446 -0.0017263517 -0.2293604
-0.11009333 -0.0016473047 -0.22931857
-0.11009112 -0.001567781 -0.22929871
-0.11008836 -0.0014860369 -0.22928877
-0.11008539 -0.0014042091 -0.22928286
-0.1100824 -0.0013243351 -0.22927895
-0.11007944 -0.0012425054 -0.22927302
-0.11007647 -0.0011606757 -0.22926708
-0.11007304 -0.001076676 -0.22926909
-0.1100692 -0.00099445321 -0.22928113
-0.11006479 -0.00091001764 -0.22930311
-0.11006136 -0.00082601607 -0.2293051
-0.11005867 -0.0007462725 -0.22929522
-0.11005408 -0.00065979362 -0.22931914
-0.11004938 -0.0005752258 -0.22934711
-0.11004622 -0.00049331039 -0.22934517
-0.11004326 -0.00041148067 -0.22933924
-0.1100399 -0.00032947771 -0.2293413
-0.11003628 -0.0002453886 -0.22934729
-0.11003312 -0.00016347319 -0.22934535
-0.11003006 -8.1600621e-05 -0.2293414
-0.11002623 2.5741756e-06 -0.2293514
-0.11002249 8.4752217e-05 -0.22936144
-0.11001925 0.00016866624 -0.22935945
-0.1100159 0.00025067106 -0.2293615
-0.11001235 0.00033275969 -0.22936755
-0.11000814 0.00041710958 -0.22938554
-0.11000441 0.00050124153 -0.22939354
-0.11000135 0.00058311224 -0.22938959
-0.10999858 0.00066485628 -0.22937965
-0.1099958 0.0007465966 -0.22936973
-0.10999216 0.00082873181 -0.22937778
-0.10998804 0.00091303885 -0.22939377
-0.10998452 0.00099708326 -0.22939777
-0.10998087 0.0010792166 -0.22940582
-0.10997724 0.0011633057 -0.22941181
-0.10997389 0.0012453087 -0.22941387
-0.10996968 0.0013296586 -0.22943184
-0.10996519 0.0014160927 -0.22945377
-0.10996203 0.0014980081 -0.22945184
-0.10995965 0.0015795752 -0.22943392
-0.10995676 0.0016594082 -0.22942802
-0.10995294 0.001743583 -0.22943802
-0.10994941 0.0018276274 -0.22944202
-0.10994596 0.0019096732 -0.22944607
-0.10994214 0.0019938499 -0.22945607
-0.10993832 0.0020780265 -0.22946607
-0.10993467 0.0021601599 -0.2294741
-0.10993153 0.0022440292 -0.2294701
-0.10992903 0.0023236871 -0.22945625
-0.10992616 0.0024054702 -0.2294483
-0.10992244 0.0024896022 -0.22945631
-0.10991862 0.0025737807 -0.22946629
-0.10991585 0.002655521 -0.22945637
-0.10991354 0.0027350914 -0.2294385
-0.10991087 0.0028167889 -0.22942656
-0.10990818 0.0028965324 -0.22941668
-0.10990512 0.002978405 -0.22941275
-0.10990168 0.0030624066 -0.22941475
-0.10989814 0.0031444971 -0.22942081
-0.10989431 0.0032286737 -0.22943079
-0.10988924 0.0033153687 -0.22946471
-0.10988399 0.0034041051 -0.22950056
-0.10988064 0.0034861099 -0.22950262
-0.10987806 0.0035677645 -0.2294887
-0.1098749 0.0036496818 -0.22948676
-0.10987165 0.0037316401 -0.22948681
-0.10986832 0.0038155988 -0.22948682
-0.10986535 0.0038974285 -0.22948089
-0.10986219 0.0039793439 -0.22947894
-0.10985903 0.0040612593 -0.22947699
-0.1098556 0.0041452609 -0.22947901
-0.10985205 0.0042273495 -0.22948505
-0.10984805 0.0043135677 -0.229497
-0.10984394 0.0043978728 -0.22951299
-0.10984117 0.004479615 -0.22950305
-0.10983887 0.0045591854 -0.22948518
-0.1098358 0.0046410579 -0.22948124
-0.10983303 0.0047228001 -0.22947131
-0.10983054 0.0048024561 -0.22945744
-0.10982805 0.0048840679 -0.22944152
-0.10982519 0.0049658511 -0.22943357
-0.10982193 0.0050478131 -0.22943363
-0.10981841 0.0051318575 -0.22943763
-0.10981448 0.005216077 -0.22944963
-0.1098098 0.0053025968 -0.22947554
-0.10980552 0.0053889453 -0.22949348
-0.1098015 0.0054732077 -0.22950748
-0.10979833 0.005555125 -0.22950552
-0.10979527 0.0056369975 -0.22950161
-0.10979175 0.0057210419 -0.2295056
-0.10978822 0.0058050845 -0.22950959
-0.10978506 0.0058870018 -0.22950765
-0.10978229 0.0059687439 -0.22949773
-0.10977913 0.0060506612 -0.22949579
-0.10977464 0.0061370954 -0.22951771
-0.10976959 0.0062257461 -0.22954959
-0.10976577 0.0063099228 -0.22955957
-0.10976195 0.0063940957 -0.22956955
-0.10975852 0.0064780992 -0.22957158
-0.10975602 0.0065577533 -0.22955769
-0.10975306 0.0066395849 -0.22955176
-0.10974943 0.0067236722 -0.22955775
-0.1097457 0.0068078041 -0.22956575
-0.10974264 0.0068896767 -0.22956182
-0.10974006 0.0069713313 -0.22954789
-0.10973796 0.0070508122 -0.22952603
-0.10973423 0.0071349461 -0.22953403
-0.10972793 0.007226117 -0.22958982
-0.10972365 0.0073124655 -0.22960775
-0.10972048 0.0073943809 -0.22960579
-0.10971762 0.0074761659 -0.22959787
-0.10971504 0.0075578205 -0.22958395
-0.10971179 0.0076397825 -0.22958401
-0.10970797 0.0077239573 -0.22959399
-0.10970436 0.0078099985 -0.22959796
-0.10970176 0.0078896992 -0.22958606
-0.10969966 0.007969182 -0.22956419
-0.10969774 0.0080485791 -0.22953835
-0.10969468 0.0081304498 -0.22953442
-0.10968963 0.0082191005 -0.22956628
-0.10968439 0.0083078369 -0.22960213
-0.10968113 0.0083897989 -0.22960219
-0.10967819 0.0084735826 -0.2295942
-0.1096755 0.0085533261 -0.22958434
-0.10967226 0.0086372402 -0.22958234
-0.10966939 0.0087190233 -0.22957441
-0.10966709 0.0087985955 -0.22955653
-0.10966385 0.0088825077 -0.22955455
-0.10966039 0.0089645535 -0.22955859
-0.10965763 0.0090462957 -0.22954866
-0.10965439 0.0091302097 -0.22954667
-0.10965028 0.0092145167 -0.22956267
-0.10964552 0.0093030371 -0.22958854
-0.10964103 0.0093894713 -0.22961047
-0.10963807 0.0094712991 -0.22960454
-0.10963549 0.0095529538 -0.22959059
-0.10963214 0.0096349586 -0.22959265
-0.10962909 0.0097187851 -0.22958668
-0.1096266 0.0097984411 -0.2295728
-0.10962337 0.009882357 -0.22957081
-0.10961974 0.0099664442 -0.22957681
-0.10961677 0.010048272 -0.22957087
-0.10961381 0.010130104 -0.22956493
-0.10961084 0.010211932 -0.229559
-0.10960761 0.010295846 -0.22955701
-0.10960454 0.010377716 -0.22955307
-0.10960175 0.010457506 -0.22954518
-0.10959871 0.010541331 -0.2295392
-0.10959518 0.010625377 -0.22954321
-0.10959165 0.010709422 -0.2295472
-0.10958906 0.010789122 -0.22953534
-0.11023645 -0.0094809495 -0.23285913
-0.11023369 -0.0093992073 -0.23284921
-0.11023374 -0.0093187289 -0.23278135
-0.11025238 -0.0092602968 -0.23234436
-0.1102531 -0.0091820788 -0.23226458
-0.11025431 -0.0091040768 -0.23217481
-0.11025571 -0.0090261633 -0.23208106
-0.11025575 -0.0089476397 -0.23201525
-0.11025523 -0.0088669006 -0.23195937
-0.11025429 -0.0087879403 -0.23191357
-0.11025317 -0.0087069385 -0.23186967
-0.11025341 -0.0086285025 -0.23179987
-0.11025576 -0.0085529787 -0.23168819
-0.11025668 -0.0084748473 -0.2316044
-0.11025643 -0.0083961934 -0.23154458
-0.11025446 -0.0083128456 -0.23151664
-0.11025254 -0.0082334494 -0.23149079
-0.11025143 -0.0081524495 -0.23144689
-0.11025215 -0.0080742296 -0.23136711
-0.11025441 -0.0079986621 -0.23125744
-0.1102556 -0.0079226159 -0.2311697
-0.11025757 -0.007846918 -0.231066
-0.11025885 -0.0077709146 -0.23097628
-0.11025899 -0.0076924339 -0.23090848
-0.11025932 -0.0076140417 -0.23083669
-0.11025965 -0.0075356485 -0.2307649
-0.11025928 -0.0074589048 -0.23070912
-0.11025797 -0.0073778164 -0.23066923
-0.11025617 -0.00729651 -0.23063934
-0.11025416 -0.007217071 -0.23061547
-0.11025159 -0.0071354164 -0.23060155
-0.1102497 -0.0070540663 -0.23057365
-0.11024759 -0.0069745844 -0.23055178
-0.11024377 -0.0068904096 -0.23056176
-0.11023887 -0.0068057552 -0.23059374
-0.11023436 -0.0067212731 -0.2306177
-0.11022977 -0.00663675 -0.23064369
-0.11022469 -0.0065500531 -0.23067759
-0.11022029 -0.0064656166 -0.23069957
-0.11021674 -0.0063835261 -0.23070562
-0.11021262 -0.006299221 -0.23072161
-0.11020783 -0.0062146084 -0.23075157
-0.11020352 -0.0061302148 -0.23077154
-0.1101994 -0.0060459096 -0.23078755
-0.11019577 -0.0059618205 -0.23079354
-0.11019281 -0.0058799926 -0.23078761
-0.11019043 -0.0057984246 -0.23076968
-0.11018939 -0.0057194214 -0.23072585
-0.11018885 -0.0056406362 -0.23067203
-0.11018762 -0.0055615464 -0.23063219
-0.11018639 -0.0054824557 -0.23059234
-0.11018496 -0.0054032784 -0.2305565
-0.11018287 -0.0053218417 -0.23053259
-0.11018069 -0.0052403612 -0.23051068
-0.1101781 -0.0051606614 -0.23049879
-0.11017581 -0.0050791372 -0.23047888
-0.11017382 -0.0049977433 -0.23045297
-0.11017095 -0.0049159583 -0.23044504
-0.11016743 -0.0048319129 -0.23044905
-0.11016349 -0.0047496483 -0.23046309
-0.11016015 -0.0046656914 -0.23046309
-0.11015709 -0.0045838188 -0.23045915
-0.11015259 -0.0044993386 -0.23048311
-0.11014732 -0.0044125551 -0.23052104
-0.11014435 -0.0043307263 -0.23051509
-0.11014322 -0.0042516794 -0.23047325
-0.11014161 -0.0041724155 -0.23044141
-0.11014047 -0.0040933676 -0.23039956
-0.11013992 -0.0040145824 -0.23034576
-0.11013877 -0.0039374903 -0.23030597
-0.11013763 -0.0038584443 -0.23026413
-0.11013699 -0.0037796143 -0.2302123
-0.11013594 -0.003702566 -0.23017052
-0.11013585 -0.0036259536 -0.23010874
-0.11013521 -0.0035471236 -0.23005693
-0.11013379 -0.0034679472 -0.23002109
-0.11013207 -0.0033886395 -0.22999123
-0.11012957 -0.0033089817 -0.22997734
-0.11012709 -0.0032273708 -0.22996143
-0.11012508 -0.0031479318 -0.22993755
-0.11012251 -0.0030662771 -0.22992364
-0.11011945 -0.0029844046 -0.2299197
-0.11011619 -0.0029024454 -0.22991976
-0.11011305 -0.0028185742 -0.22991577
-0.11011055 -0.0027389172 -0.22990189
-0.11010856 -0.0026575243 -0.22987598
-0.11010626 -0.0025779549 -0.22985812
-0.11010349 -0.0024962137 -0.22984818
-0.11010167 -0.0024168622 -0.22982034
-0.1101013 -0.0023401175 -0.22976455
-0.11010372 -0.0022685463 -0.22965497
-0.11010295 -0.0021916283 -0.22960718
-0.1101017 -0.0021144925 -0.22956938
-0.11010087 -0.0020355769 -0.22952154
-0.1100999 -0.0019585714 -0.22947776
-0.11009894 -0.0018815659 -0.22943398
-0.11009733 -0.001802302 -0.22940212
-0.11009637 -0.0017252974 -0.22935835
-0.11009523 -0.0016462505 -0.2293165
-0.11009303 -0.001566723 -0.22929664
-0.11009026 -0.0014849827 -0.2292867
-0.11008737 -0.0014051516 -0.22928083
-0.11008441 -0.0013233218 -0.22927488
-0.11008144 -0.001241494 -0.22926894
-0.11007848 -0.0011596642 -0.22926301
-0.11007495 -0.0010756198 -0.22926702
-0.11007111 -0.00099339709 -0.22927906
-0.1100667 -0.00090896152 -0.22930104
-0.11006327 -0.00082495995 -0.22930303
-0.11006067 -0.00074525923 -0.22929117
-0.11005609 -0.0006587822 -0.22931509
-0.11005129 -0.00057417154 -0.22934505
-0.11004813 -0.00049225427 -0.22934312
-0.11004516 -0.00041042641 -0.22933717
-0.11004181 -0.00032842159 -0.22933923
-0.11003818 -0.00024433248 -0.22934523
-0.11003493 -0.00016237423 -0.22934529
-0.11003187 -8.0501661e-05 -0.22934133
-0.11002814 3.6302954e-06 -0.22934934
-0.11002439 8.5808337e-05 -0.22935939
-0.11002116 0.00016972236 -0.22935739
-0.1100179 0.00025168248 -0.22935745
-0.11001425 0.00033381581 -0.2293655
-0.11001004 0.0004181657 -0.22938347
-0.11000632 0.00050229765 -0.22939147
-0.11000326 0.00058416836 -0.22938752
-0.11000048 0.00066591054 -0.2293776
-0.10999779 0.00074565597 -0.22936772
-0.10999407 0.00082978792 -0.22937572
-0.10999005 0.00091405027 -0.2293897
-0.10998642 0.00099813752 -0.22939572
-0.10998277 0.0010802709 -0.22940375
-0.10997915 0.0011643618 -0.22940975
-0.10997579 0.0012463648 -0.22941181
-0.10997168 0.00133067 -0.22942778
-0.1099671 0.001417147 -0.22945172
-0.10996394 0.0014990624 -0.22944978
-0.10996163 0.0015786327 -0.2294319
-0.10995877 0.0016604196 -0.22942397
-0.10995485 0.0017446391 -0.22943595
-0.10995141 0.0018286407 -0.22943796
-0.10994786 0.0019107293 -0.22944401
-0.10994405 0.0019949041 -0.22945401
-0.10994022 0.0020790827 -0.22946399
-0.10993657 0.002161216 -0.22947204
-0.10993344 0.0022450835 -0.22946805
-0.10993103 0.0023247004 -0.22945219
-0.10992806 0.0024065264 -0.22944626
-0.10992435 0.0024906583 -0.22945425
-0.1099207 0.0025727935 -0.2294623
-0.10991783 0.0026545785 -0.22945435
-0.10991545 0.0027361456 -0.22943643
-0.10991285 0.0028158445 -0.22942457
-0.10991009 0.0028975885 -0.22941464
-0.10990702 0.0029794611 -0.22941069
-0.10990359 0.0030634608 -0.2294127
-0.10990003 0.0031455532 -0.22941875
-0.10989621 0.003229728 -0.22942874
-0.10989115 0.0033164229 -0.22946265
-0.1098859 0.0034051612 -0.22949851
-0.10988255 0.003487166 -0.22950056
-0.10987987 0.0035688616 -0.22948864
-0.10987691 0.0036506932 -0.2294827
-0.10987356 0.0037326962 -0.22948475
-0.1098704 0.0038146116 -0.2294828
-0.10986725 0.0038984828 -0.22947884
-0.10986419 0.0039803553 -0.22947489
-0.10986103 0.0040622707 -0.22947294
-0.10985758 0.0041443184 -0.229477
-0.10985405 0.004228361 -0.22948101
-0.10985003 0.0043126233 -0.22949499
-0.10984594 0.0043988843 -0.22950894
-0.10984317 0.0044806264 -0.229499
-0.10984077 0.0045602396 -0.22948313
-0.10983781 0.0046420693 -0.2294772
-0.10983494 0.0047238544 -0.22946927
-0.10983244 0.0048035122 -0.22945538
-0.10982987 0.004885165 -0.22944146
-0.10982727 0.0049648657 -0.22942957
-0.10982384 0.0050488673 -0.22943158
-0.10982031 0.0051329117 -0.22943559
-0.10981639 0.0052171312 -0.22944757
-0.10981171 0.005303653 -0.2294735
-0.1098075 0.0053880028 -0.22949147
-0.1098034 0.0054742638 -0.22950542
-0.10980024 0.0055561811 -0.22950348
-0.10979728 0.0056380089 -0.22949755
-0.10979365 0.0057220981 -0.22950354
-0.10979012 0.0058061406 -0.22950755
-0.10978696 0.0058880579 -0.22950561
-0.10978419 0.0059697982 -0.22949567
-0.10978103 0.0060517155 -0.22949374
-0.10977655 0.0061381496 -0.22951566
-0.1097715 0.0062268004 -0.22954753
-0.10976768 0.006310977 -0.22955753
-0.10976385 0.00639515 -0.22956753
-0.1097606 0.0064771101 -0.22956757
-0.10975792 0.0065588094 -0.22955565
-0.10975496 0.0066406392 -0.22954971
-0.10975143 0.0067246836 -0.22955371
-0.10974751 0.0068089031 -0.22956571
-0.10974454 0.0068907309 -0.22955978
-0.10974197 0.0069723874 -0.22954585
-0.10973986 0.0070518684 -0.22952399
-0.10973631 0.0071339589 -0.22953004
-0.10972984 0.0072271712 -0.22958776
-0.10972555 0.0073135197 -0.2296057
-0.10972239 0.0073954351 -0.22960377
-0.10971952 0.007477222 -0.22959583
-0.10971703 0.0075568762 -0.22958195
-0.10971369 0.0076408368 -0.22958195
-0.10970996 0.0077249687 -0.22958995
-0.10970644 0.0078090131 -0.22959396
-0.10970376 0.0078907106 -0.22958204
-0.10970156 0.0079702362 -0.22956216
-0.10969964 0.0080496334 -0.22953629
-0.10969658 0.0081315041 -0.22953236
-0.10969154 0.0082201548 -0.22956423
-0.10968639 0.0083088484 -0.22959809
-0.10968304 0.0083908532 -0.22960015
-0.10968009 0.0084746368 -0.22959217
-0.1096774 0.0085543804 -0.22958228
-0.10967416 0.0086382944 -0.2295803
-0.10967129 0.0087200776 -0.22957236
-0.10966899 0.0087996498 -0.2295545
-0.10966583 0.0088815633 -0.22955255
-0.1096623 0.0089656077 -0.22955656
-0.10965953 0.0090473499 -0.22954662
-0.10965637 0.0091292653 -0.22954467
-0.10965218 0.009215571 -0.22956061
-0.10964733 0.009304136 -0.22958849
-0.10964303 0.0093904827 -0.22960642
-0.10963997 0.0094723534 -0.22960249
-0.10963739 0.009554008 -0.22958857
-0.10963394 0.0096360557 -0.22959262
-0.109631 0.0097198393 -0.22958463
-0.1096285 0.0097994972 -0.22957075
-0.10962544 0.0098813679 -0.22956683
-0.10962182 0.009965457 -0.22957283
-0.10961875 0.01004733 -0.22956887
-0.10961571 0.010131158 -0.22956289
-0.10961274 0.010212986 -0.22955696
-0.10960968 0.010294858 -0.22955301
-0.10960644 0.010378771 -0.22955103
-0.10960375 0.010458518 -0.22954115
-0.10960078 0.010540344 -0.22953522
-0.10959726 0.010624388 -0.22953922
-0.10959373 0.010708433 -0.22954321
-0.10959105 0.010790132 -0.22953129
-0.11023454 -0.0094824601 -0.23285985
-0.11023141 -0.0093985889 -0.23285586
-0.11023183 -0.0093202395 -0.23278207
-0.11025096 -0.0092620254 -0.23233509
-0.11025158 -0.0091837635 -0.23225731
-0.11025279 -0.0091057625 -0.23216754
-0.1102539 -0.0090277176 -0.23207977
-0.11025403 -0.0089492379 -0.23201197
-0.11025342 -0.008868454 -0.23195809
-0.11025257 -0.0087895384 -0.23191026
-0.11025146 -0.0087085366 -0.23186639
-0.11025169 -0.0086301006 -0.23179659
-0.11025415 -0.0085546207 -0.2316829
-0.11025506 -0.0084764883 -0.23159912
-0.11025471 -0.0083977906 -0.23154131
-0.11025254 -0.0083143562 -0.23151736
-0.11025064 -0.00823496 -0.23149151
-0.11024962 -0.0081540029 -0.23144561
