# .PCD v0.7 - Point Cloud Data file format
VERSION 0.7
FIELDS x y z
SIZE 4 4 4
TYPE F F F
COUNT 1 1 1
WIDTH 1269
HEIGHT 1
VIEWPOINT 0 0 0 1 0 0 0
POINTS 1269
DATA ascii
-0.029482249 -0.03291956 -0.26455221
-0.02947906 -0.032839596 -0.2645523
-0.029476244 -0.032761768 -0.26454648
-0.029473249 -0.03268189 -0.26454258
-0.029469866 -0.032601841 -0.26454669
-0.029466853 -0.032523923 -0.26454484
-0.029464033 -0.032446086 -0.264539
-0.029460844 -0.032366127 -0.26453912
-0.029458025 -0.032288294 -0.26453328
-0.029455131 -0.032208465 -0.26452738
-0.029451551 -0.032128327 -0.26453549
-0.029448634 -0.032050453 -0.26453164
-0.029445739 -0.03197062 -0.26452577
-0.029442159 -0.031890485 -0.26453388
-0.029439069 -0.031810567 -0.26453197
-0.029436523 -0.031734817 -0.26452219
-0.029433334 -0.031654857 -0.26452231
-0.029430047 -0.031574853 -0.2645244
-0.029426761 -0.031494848 -0.26452649
-0.029423747 -0.031416927 -0.26452467
-0.029420754 -0.031337053 -0.26452076
-0.029417273 -0.031256963 -0.26452687
-0.029414084 -0.031177001 -0.26452696
-0.029410973 -0.031099038 -0.26452714
-0.029407686 -0.031019034 -0.26452923
-0.029404497 -0.030939072 -0.26452935
-0.029401679 -0.03086124 -0.26452351
-0.029399056 -0.030783493 -0.26451367
-0.029395867 -0.03070353 -0.26451379
-0.029392384 -0.03062344 -0.26451987
-0.029389665 -0.03054565 -0.26451203
-0.029387802 -0.030470207 -0.26448828
-0.029385354 -0.030394504 -0.26447648
-0.029381502 -0.030312281 -0.26448852
-0.029377356 -0.030229932 -0.26450658
-0.029374167 -0.03014997 -0.26450667
-0.029370785 -0.030069921 -0.26451078
-0.029367596 -0.02998996 -0.26451087
-0.029364679 -0.029912084 -0.26450706
-0.029361589 -0.029832166 -0.26450515
-0.029358672 -0.029754288 -0.2645013
-0.030360065 -0.081474885 -0.27554607
-0.030356919 -0.081391014 -0.27554211
-0.030354887 -0.081303716 -0.27551207
-0.030352347 -0.081218153 -0.27549404
-0.030348398 -0.081135884 -0.27550811
-0.030344449 -0.081053622 -0.27552211
-0.030340716 -0.08096949 -0.27553013
-0.030337255 -0.080887444 -0.27553418
-0.030333599 -0.080805317 -0.27554223
-0.03033057 -0.080719531 -0.27553421
-0.030328322 -0.080634095 -0.27551019
-0.030324785 -0.080550052 -0.27551422
-0.030320425 -0.080469571 -0.27553827
-0.03031718 -0.080385655 -0.2755363
-0.030314129 -0.080301829 -0.27553031
-0.030310571 -0.080219738 -0.27553636
-0.030307034 -0.080135696 -0.27554035
-0.030303886 -0.080051824 -0.27553639
-0.030300956 -0.079966091 -0.27552637
-0.030297808 -0.079882219 -0.27552238
-0.030294759 -0.079798386 -0.27551639
-0.030291632 -0.07971257 -0.27551037
-0.030288562 -0.079630695 -0.27550644
-0.030285534 -0.079544909 -0.27549842
-0.03028268 -0.079461172 -0.27548844
-0.030279238 -0.079377174 -0.27549046
-0.030275388 -0.07929495 -0.2755025
-0.030271634 -0.07921277 -0.27551255
-0.030268291 -0.079128817 -0.27551255
-0.030265361 -0.079043075 -0.27550253
-0.030261898 -0.07896103 -0.27550659
-0.030258166 -0.078876898 -0.2755146
-0.030255213 -0.078793123 -0.27550662
-0.03025287 -0.078707643 -0.27548462
-0.030249743 -0.07862182 -0.27547857
-0.030246086 -0.078539684 -0.27548662
-0.030242547 -0.078455642 -0.27549064
-0.030239478 -0.078373767 -0.27548671
-0.030236352 -0.078287944 -0.27548066
-0.030233108 -0.078204028 -0.27547866
-0.030229451 -0.078121893 -0.27548674
-0.030226108 -0.07803794 -0.27548674
-0.030222766 -0.077953979 -0.27548677
-0.03021911 -0.077871844 -0.27549481
-0.030215453 -0.077789716 -0.27550286
-0.030212112 -0.077705756 -0.27550286
-0.030208964 -0.077621885 -0.27549887
-0.030206032 -0.077536151 -0.27548885
-0.030203179 -0.077452406 -0.27547887
-0.030199954 -0.077366538 -0.27547485
-0.030196298 -0.077284411 -0.27548289
-0.030192643 -0.077202275 -0.27549094
-0.030189084 -0.077120185 -0.27549699
-0.030185742 -0.077036224 -0.27549702
-0.030182399 -0.076952271 -0.27549702
-0.03017935 -0.076868445 -0.27549103
-0.03017671 -0.076782838 -0.27547503
-0.030173369 -0.076698877 -0.27547503
-0.030169714 -0.076616742 -0.27548307
-0.030166391 -0.076530829 -0.27548105
-0.030163342 -0.07644701 -0.27547508
-0.030160194 -0.076363131 -0.27547109
-0.030156637 -0.076281041 -0.27547714
-0.030152882 -0.076198868 -0.27548718
-0.030149756 -0.076113045 -0.27548116
-0.030146608 -0.076029174 -0.27547717
-0.030143168 -0.075945169 -0.2754792
-0.030139923 -0.07586126 -0.2754772
-0.030136874 -0.075777434 -0.27547121
-0.030133434 -0.075693429 -0.27547324
-0.030130189 -0.07560952 -0.27547124
-0.030126944 -0.075525604 -0.27546924
-0.030124307 -0.075439997 -0.27545324
-0.030121941 -0.075356469 -0.27543327
-0.030118618 -0.075270563 -0.27543125
-0.030114964 -0.075188428 -0.27543929
-0.030111307 -0.075106293 -0.27544734
-0.030107377 -0.075022072 -0.27545935
-0.030104015 -0.074940078 -0.27546141
-0.030100791 -0.07485421 -0.27545738
-0.030097526 -0.074772246 -0.27545744
-0.030094281 -0.07468833 -0.27545545
-0.030091153 -0.074602507 -0.27544942
-0.030087888 -0.074520551 -0.27544945
-0.030084057 -0.074436374 -0.27545947
-0.030080792 -0.074354418 -0.27545953
-0.030077862 -0.074268676 -0.27544951
-0.030074714 -0.074184805 -0.27544552
-0.030071154 -0.074102715 -0.27545157
-0.03006752 -0.074018627 -0.27545759
-0.030064372 -0.073934764 -0.2754536
-0.030061539 -0.073849067 -0.27544159
-0.030058391 -0.073765196 -0.27543759
-0.030054539 -0.073682971 -0.27544963
-0.030050786 -0.073600799 -0.27545968
-0.030047856 -0.073515058 -0.27544966
-0.030045509 -0.073429585 -0.27542767
-0.030042656 -0.07334584 -0.27541769
-0.03003902 -0.073261753 -0.27542371
-0.030035678 -0.0731778 -0.27542371
-0.030032434 -0.073093884 -0.27542171
-0.030028895 -0.073009841 -0.27542573
-0.030025631 -0.072927877 -0.27542579
-0.030022288 -0.072843924 -0.27542579
-0.030018553 -0.072759792 -0.27543378
-0.030015387 -0.072677881 -0.27543184
-0.030012749 -0.072592266 -0.27541584
-0.03000972 -0.072506487 -0.27540782
-0.030006064 -0.072424352 -0.27541587
-0.030002428 -0.072340265 -0.27542186
-0.029999476 -0.072256483 -0.2754139
-0.029996544 -0.072170742 -0.27540386
-0.029993497 -0.072086915 -0.2753979
-0.029989742 -0.072004743 -0.27540794
-0.02998589 -0.071922518 -0.27541998
-0.029982841 -0.071838692 -0.27541399
-0.029979911 -0.071752958 -0.27540398
-0.029976567 -0.071668997 -0.27540398
-0.029972911 -0.071586862 -0.27541202
-0.029969178 -0.07150273 -0.27542004
-0.029962689 -0.071334906 -0.27541608
-0.029960344 -0.071249433 -0.27539405
-0.029957879 -0.07116586 -0.27537608
-0.029954342 -0.071081817 -0.2753801
-0.02995049 -0.0709996 -0.27539214
-0.029946953 -0.070915557 -0.27539614
-0.029943513 -0.070831552 -0.27539816
-0.029940052 -0.070749506 -0.27540222
-0.029936709 -0.070665553 -0.27540222
-0.029905161 -0.069824852 -0.27536234
-0.029902719 -0.069739327 -0.27534235
-0.029899864 -0.06965559 -0.27533239
-0.029583663 -0.061617408 -0.27525407
-0.03006619 -0.061331391 -0.26497674
-0.03006654 -0.061251044 -0.26490289
-0.030066675 -0.06117256 -0.26483512
-0.030065147 -0.061093338 -0.26480126
-0.030062329 -0.061015505 -0.26479542
-0.030059533 -0.060935717 -0.26478752
-0.030056715 -0.060857885 -0.26478171
-0.030053508 -0.060779877 -0.26478386
-0.030049907 -0.060701698 -0.26479399
-0.030046504 -0.060623601 -0.26480013
-0.030043686 -0.060545769 -0.26479429
-0.030040791 -0.060465939 -0.26478839
-0.030038072 -0.060388148 -0.26478058
-0.030035567 -0.06030849 -0.26476669
-0.030032651 -0.060230616 -0.26476285
-0.030029129 -0.060154431 -0.26477304
-0.030025844 -0.060074426 -0.26477516
-0.030022832 -0.059996508 -0.26477331
-0.030019622 -0.0599185 -0.26477545
-0.030016415 -0.059840493 -0.2647776
-0.030013498 -0.059762616 -0.26477376
-0.030010702 -0.059682831 -0.26476589
-0.030007787 -0.059604954 -0.26476204
-0.030004676 -0.059526991 -0.26476219
-0.030001272 -0.059448894 -0.26476833
-0.029997867 -0.059370801 -0.2647745
-0.029995071 -0.059291013 -0.2647666
-0.029992253 -0.05921318 -0.26476076
-0.02998885 -0.059135087 -0.2647669
-0.02998564 -0.059057079 -0.26476908
-0.029982433 -0.058979072 -0.26477122
-0.029979419 -0.058901154 -0.26476938
-0.029976524 -0.058821321 -0.26476347
-0.029973317 -0.058743317 -0.26476562
-0.029969912 -0.058665223 -0.26477176
-0.029966606 -0.058587171 -0.26477593
-0.029963592 -0.058509253 -0.26477408
-0.029961068 -0.058431551 -0.26476225
-0.029958662 -0.058351934 -0.26474637
-0.029955454 -0.058273926 -0.26474851
-0.029951952 -0.058195792 -0.26475668
-0.029948646 -0.05811774 -0.26476082
-0.029945241 -0.058039647 -0.26476696
-0.029942054 -0.057959687 -0.26476705
-0.029939041 -0.057881765 -0.26476523
-0.029936027 -0.057803847 -0.26476339
-0.029933112 -0.05772597 -0.26475954
-0.029930294 -0.057648137 -0.2647537
-0.029926911 -0.057568088 -0.26475781
-0.029923508 -0.057489995 -0.26476395
-0.029920395 -0.057412028 -0.2647641
-0.029917384 -0.05733411 -0.26476225
-0.029914469 -0.057256233 -0.26475841
-0.029911574 -0.057176404 -0.26475254
-0.029908756 -0.057098571 -0.2647467
-0.029905645 -0.057020605 -0.26474684
-0.029902535 -0.056942642 -0.26474699
-0.029899424 -0.056864679 -0.26474714
-0.029896021 -0.056786586 -0.26475331
-0.029892616 -0.056708492 -0.26475945
-0.02988931 -0.05663044 -0.26476359
-0.029886805 -0.056550786 -0.26474971
-0.029884085 -0.056472994 -0.2647419
-0.02988117 -0.056395117 -0.26473805
-0.029878255 -0.05631724 -0.26473421
-0.029875048 -0.056239236 -0.26473635
-0.029871663 -0.056159187 -0.26474047
-0.029868748 -0.05608131 -0.26473662
-0.029865833 -0.056003433 -0.26473278
-0.029862918 -0.055925556 -0.26472893
-0.029860001 -0.055847682 -0.26472509
-0.029856618 -0.055767633 -0.2647292
-0.029852921 -0.055689409 -0.26474133
-0.029849909 -0.055611487 -0.26473948
-0.029847091 -0.055533655 -0.26473367
-0.029843882 -0.055455647 -0.26473579
-0.029840304 -0.055375513 -0.26474389
-0.02983729 -0.055297591 -0.26474205
-0.029834472 -0.055219758 -0.26473624
-0.02983146 -0.05514184 -0.26473439
-0.029828446 -0.055063918 -0.26473254
-0.029825356 -0.054984003 -0.26473063
-0.029822245 -0.054906037 -0.26473078
-0.029819233 -0.054828119 -0.26472893
-0.029816024 -0.054750111 -0.26473111
-0.029812913 -0.054672148 -0.26473126
-0.029810213 -0.054592405 -0.26472136
-0.029807396 -0.054514572 -0.26471552
-0.029804286 -0.054436609 -0.26471567
-0.029800881 -0.054358512 -0.26472184
-0.029797478 -0.054280419 -0.26472798
-0.029794291 -0.054200459 -0.26472807
-0.029791277 -0.054122537 -0.26472622
-0.029788557 -0.05404475 -0.26471841
-0.029785544 -0.053966828 -0.26471657
-0.029782629 -0.05388895 -0.26471272
-0.029779539 -0.053809036 -0.26471084
-0.029776331 -0.053731028 -0.26471299
-0.029773219 -0.053653065 -0.26471314
-0.029770499 -0.053575274 -0.2647053
-0.029767485 -0.053497355 -0.26470345
-0.029763907 -0.053417221 -0.26471156
-0.029760698 -0.053339213 -0.2647137
-0.029757783 -0.053261336 -0.26470986
-0.029754672 -0.053183373 -0.26471001
-0.029751465 -0.053105365 -0.26471215
-0.02974857 -0.053025533 -0.26470628
-0.029745361 -0.052947529 -0.26470843
-0.029742151 -0.052869521 -0.26471058
-0.029739041 -0.052791558 -0.26471072
-0.029736029 -0.052713636 -0.26470888
-0.029733231 -0.052633848 -0.26470101
-0.029730022 -0.052555844 -0.26470315
-0.029726423 -0.052477662 -0.26471329
-0.029723333 -0.052397743 -0.26471141
-0.029720321 -0.052319825 -0.26470956
-0.029717112 -0.052241817 -0.26471171
-0.029714001 -0.052163854 -0.26471186
-0.029711107 -0.052084021 -0.26470596
-0.029708192 -0.052006148 -0.26470214
-0.029704982 -0.05192814 -0.26470429
-0.029701676 -0.051850088 -0.26470843
-0.02969837 -0.051772039 -0.26471257
-0.029695181 -0.051692076 -0.26471269
-0.029692266 -0.051614203 -0.26470885
-0.02968945 -0.051536366 -0.26470301
-0.029686632 -0.051458534 -0.26469719
-0.029683521 -0.051380571 -0.26469731
-0.029680137 -0.051300522 -0.26470143
-0.029676929 -0.051222514 -0.26470357
-0.029673818 -0.051144551 -0.26470372
-0.029670728 -0.051064633 -0.26470184
-0.029667813 -0.050986759 -0.264698
-0.029664604 -0.050908752 -0.26470014
-0.029661592 -0.05083083 -0.2646983
-0.029658675 -0.050752953 -0.26469445
-0.029655585 -0.050673038 -0.26469257
-0.029652376 -0.05059503 -0.26469475
-0.029649854 -0.050517328 -0.26468289
-0.029647132 -0.050439537 -0.26467508
-0.029643729 -0.050361443 -0.26468122
-0.029640736 -0.050281569 -0.26467732
-0.029638017 -0.050203778 -0.26466948
-0.029634535 -0.050123688 -0.26467559
-0.029631034 -0.05004555 -0.26468372
-0.029627923 -0.049967587 -0.26468387
-0.029624343 -0.049887452 -0.26469198
-0.029620841 -0.049809314 -0.26470011
-0.02961822 -0.049731568 -0.26469028
-0.029615499 -0.04965378 -0.26468244
-0.029612292 -0.049575772 -0.26468462
-0.029609103 -0.049495809 -0.26468471
-0.029605992 -0.049417846 -0.26468486
-0.029602882 -0.049339883 -0.264685
-0.029599966 -0.049262006 -0.26468116
-0.029596779 -0.049182046 -0.26468128
-0.029593375 -0.049103953 -0.26468742
-0.029590068 -0.049025901 -0.26469156
-0.029587075 -0.048946027 -0.26468769
-0.029584551 -0.048868325 -0.26467586
-0.029582027 -0.048790623 -0.26466402
-0.029578721 -0.048712574 -0.26466817
-0.029575143 -0.048632436 -0.26467627
-0.029571934 -0.048554428 -0.26467842
-0.029568823 -0.048476465 -0.26467857
-0.029566005 -0.048398633 -0.26467273
-0.029562622 -0.048318584 -0.26467684
-0.029559512 -0.048240621 -0.26467699
-0.02955642 -0.048160702 -0.26467508
-0.0295537 -0.048082914 -0.26466727
-0.029550785 -0.048005037 -0.26466343
-0.029547675 -0.047927074 -0.26466358
-0.029544488 -0.047847111 -0.26466367
-0.029541181 -0.047769062 -0.26466781
-0.029537875 -0.04769101 -0.26467198
-0.029534686 -0.04761105 -0.26467207
-0.029531967 -0.047533259 -0.26466423
-0.029529441 -0.047455557 -0.26465243
-0.029526331 -0.047377594 -0.26465255
-0.029523144 -0.047297634 -0.26465267
-0.029520033 -0.047219671 -0.26465282
-0.029516455 -0.047139533 -0.26466092
-0.02951305 -0.04706144 -0.26466706
-0.029510036 -0.046983518 -0.26466522
-0.029506849 -0.046903558 -0.26466534
-0.029503835 -0.04682564 -0.26466349
-0.029501703 -0.046748109 -0.26464367
-0.029499276 -0.046670452 -0.26462984
-0.029495403 -0.046590187 -0.26464394
-0.029491413 -0.046511829 -0.26466206
-0.029488498 -0.046433955 -0.26465821
-0.029485602 -0.046354122 -0.26465231
-0.029482786 -0.04627629 -0.26464647
-0.029479772 -0.046198368 -0.26464465
-0.029476857 -0.046120495 -0.26464081
-0.029473376 -0.046040401 -0.26464692
-0.029469699 -0.045960225 -0.26465699
-0.029466491 -0.045882218 -0.26465914
-0.029463772 -0.045804426 -0.2646513
-0.029460954 -0.045726594 -0.26464549
-0.029457744 -0.045648586 -0.26464763
-0.029454362 -0.045568541 -0.26465172
-0.02945088 -0.045488447 -0.26465783
-0.029447965 -0.04541057 -0.26465398
-0.029445343 -0.045332823 -0.26464415
-0.02944272 -0.04525508 -0.26463431
-0.029439904 -0.045177244 -0.26462847
-0.029436519 -0.045097195 -0.26463258
-0.029432843 -0.045017019 -0.26464266
-0.029429439 -0.044938922 -0.26464882
-0.029426621 -0.044861089 -0.26464298
-0.029423531 -0.044781171 -0.26464108
-0.029420616 -0.044703297 -0.26463723
-0.029417701 -0.04462542 -0.26463342
-0.029414415 -0.044545416 -0.2646355
-0.029411597 -0.044467583 -0.26462966
-0.029408779 -0.044389747 -0.26462382
-0.029405396 -0.044309702 -0.26462793
-0.02940209 -0.044231649 -0.26463211
-0.029399097 -0.044151776 -0.2646282
-0.029396085 -0.044073857 -0.26462635
-0.029392779 -0.043995805 -0.2646305
-0.029389786 -0.043915931 -0.26462662
-0.029386774 -0.043838009 -0.26462477
-0.029383291 -0.043757919 -0.26463085
-0.029380474 -0.043680087 -0.26462501
-0.029377267 -0.043602079 -0.26462719
-0.029373687 -0.043521944 -0.26463526
-0.029370401 -0.04344194 -0.26463738
-0.029367875 -0.043364234 -0.26462555
-0.029365059 -0.043286406 -0.26461971
-0.029361654 -0.043208309 -0.26462585
-0.029358076 -0.043128174 -0.26463395
-0.02935479 -0.043048169 -0.26463604
-0.029352168 -0.042970423 -0.2646262
-0.029349448 -0.042892635 -0.2646184
-0.029345967 -0.042812541 -0.26462448
-0.029342661 -0.042734493 -0.26462865
-0.029339571 -0.042654574 -0.26462674
-0.029336656 -0.042576697 -0.2646229
-0.029333837 -0.042498864 -0.26461706
-0.029331118 -0.042421073 -0.26460922
-0.029328007 -0.04234311 -0.2646094
-0.029324818 -0.04226315 -0.26460949
-0.029321514 -0.042185098 -0.26461363
-0.029318325 -0.042105138 -0.26461375
-0.029315606 -0.042027347 -0.26460591
-0.029312788 -0.041949518 -0.26460007
-0.029309306 -0.041869424 -0.26460618
-0.029306021 -0.04178942 -0.26460826
-0.029303104 -0.041711543 -0.26460445
-0.029300092 -0.041633621 -0.2646026
-0.029296709 -0.041553572 -0.26460668
-0.029293228 -0.041473482 -0.26461279
-0.02929041 -0.041395649 -0.26460695
-0.029287688 -0.041317858 -0.26459911
-0.0292846 -0.041237943 -0.26459724
-0.029281586 -0.041160021 -0.26459539
-0.029278398 -0.041080058 -0.26459548
-0.02927519 -0.04100205 -0.26459762
-0.029272176 -0.040924132 -0.26459581
-0.029268989 -0.040844172 -0.2645959
-0.029265605 -0.040764123 -0.26459998
-0.029262789 -0.040686291 -0.26459417
-0.029259874 -0.040608414 -0.26459032
-0.029256392 -0.04052832 -0.2645964
-0.029253107 -0.040448315 -0.26459852
-0.02925019 -0.040370442 -0.26459467
-0.02924747 -0.04029265 -0.26458684
-0.029244654 -0.040214818 -0.26458099
-0.029241541 -0.040136855 -0.26458114
-0.029238354 -0.040056892 -0.26458126
-0.029235341 -0.039978974 -0.26457942
-0.029232154 -0.03989901 -0.26457953
-0.029228868 -0.039819006 -0.26458162
-0.029226147 -0.039741218 -0.26457378
-0.029224092 -0.039665684 -0.26455402
-0.029221002 -0.039585769 -0.26455212
-0.029217128 -0.039505504 -0.26456621
-0.029213354 -0.03942528 -0.26457831
-0.029210167 -0.03934532 -0.2645784
-0.029206958 -0.039267313 -0.26458055
-0.029204043 -0.039189436 -0.26457673
-0.029200856 -0.039109476 -0.26457682
-0.02919757 -0.039029472 -0.26457894
-0.029194284 -0.038949467 -0.26458102
-0.02919127 -0.038871545 -0.26457918
-0.029188551 -0.038793754 -0.26457137
-0.029185459 -0.038713835 -0.26456946
-0.029182348 -0.038635872 -0.26456961
-0.02917926 -0.038555957 -0.26456773
-0.029176343 -0.038478076 -0.26456389
-0.029173428 -0.038400203 -0.26456004
-0.029170338 -0.038320284 -0.26455817
-0.029167227 -0.038242318 -0.26455832
-0.029164039 -0.038162358 -0.2645584
-0.029160928 -0.038084395 -0.26455855
-0.029157838 -0.03800448 -0.26455668
-0.02915502 -0.037926644 -0.26455086
-0.029151909 -0.037848681 -0.26455098
-0.029148722 -0.037768722 -0.2645511
-0.029145436 -0.037688717 -0.26455319
-0.029142326 -0.037610754 -0.26455337
-0.029139431 -0.037530921 -0.26454747
-0.029136613 -0.037453089 -0.26454163
-0.02913323 -0.037373044 -0.26454574
-0.02912965 -0.037292905 -0.26455382
-0.029126344 -0.037214853 -0.26455799
-0.029123254 -0.037134938 -0.26455608
-0.029120436 -0.037057102 -0.26455027
-0.029117445 -0.036977232 -0.26454636
-0.029114235 -0.036899224 -0.26454851
-0.029111046 -0.036819261 -0.26454863
-0.029107763 -0.036739256 -0.26455072
-0.02910465 -0.03666129 -0.26455086
-0.029102225 -0.036583632 -0.26453704
-0.029099211 -0.036505714 -0.26453519
-0.029095925 -0.03642571 -0.2645373
-0.029093109 -0.036347874 -0.26453146
-0.029090289 -0.036270045 -0.26452565
-0.029086731 -0.036187954 -0.26453167
-0.029083524 -0.036109947 -0.26453382
-0.029080706 -0.036032114 -0.26452798
-0.02907742 -0.035952106 -0.26453009
-0.029074037 -0.035872057 -0.26453421
-0.029071122 -0.035794184 -0.26453036
-0.02906803 -0.035714265 -0.26452845
-0.02906492 -0.035636302 -0.26452863
-0.029061928 -0.035556428 -0.26452473
-0.02905911 -0.035478592 -0.26451889
-0.029055825 -0.035398588 -0.264521
-0.02905244 -0.035318539 -0.26452512
-0.029049329 -0.035240576 -0.26452523
-0.029046435 -0.035160746 -0.26451936
-0.02904352 -0.035082869 -0.26451552
-0.029040137 -0.03500282 -0.26451963
-0.02903685 -0.034922816 -0.26452172
-0.029034033 -0.034844983 -0.26451588
-0.02903102 -0.034767061 -0.26451403
-0.029027734 -0.034687057 -0.26451617
-0.029024351 -0.034607008 -0.26452026
-0.029021163 -0.034527048 -0.26452035
-0.029018052 -0.034449086 -0.26452053
-0.029015236 -0.034371249 -0.26451468
-0.02901271 -0.034293547 -0.26450285
-0.029009424 -0.034213543 -0.26450497
-0.029005846 -0.034133408 -0.26451305
-0.029003028 -0.034055576 -0.2645072
-0.029000796 -0.033978004 -0.26448938
-0.028997784 -0.033900082 -0.26448753
-0.02899364 -0.033817735 -0.26450557
-0.028990256 -0.033737686 -0.26450968
-0.028987536 -0.033659894 -0.26450184
-0.02898464 -0.033580065 -0.26449597
-0.028981725 -0.033502188 -0.26449212
-0.028978538 -0.033422228 -0.26449221
-0.028975328 -0.03334422 -0.26449436
-0.028972141 -0.033264257 -0.26449448
-0.028969049 -0.033184342 -0.26449257
-0.02896633 -0.033106551 -0.26448476
-0.028962653 -0.033026375 -0.26449484
-0.028959174 -0.032946281 -0.26450095
-0.028956454 -0.03286849 -0.26449311
-0.028953459 -0.032788619 -0.26448923
-0.028950447 -0.032710698 -0.26448739
-0.028947728 -0.03263291 -0.26447952
-0.028944343 -0.032552861 -0.26448363
-0.028940668 -0.032472681 -0.26449373
-0.028938046 -0.032394934 -0.2644839
-0.028935619 -0.032317277 -0.26447007
-0.028932899 -0.032239486 -0.26446223
-0.028929418 -0.032159396 -0.26446831
-0.02892584 -0.032079257 -0.26447642
-0.028922554 -0.031999253 -0.26447853
-0.028919268 -0.031919248 -0.26448065
-0.028915884 -0.031839199 -0.26448473
-0.028912794 -0.031759284 -0.26448286
-0.028909976 -0.031681448 -0.26447701
-0.028907256 -0.03160366 -0.26446918
-0.028904244 -0.031525739 -0.26446733
-0.028900959 -0.031445734 -0.26446944
-0.028897867 -0.031365819 -0.26446754
-0.028895322 -0.031290069 -0.26445776
-0.028892621 -0.031210326 -0.26444787
-0.02888998 -0.031134535 -0.26444009
-0.028886519 -0.031052487 -0.26444414
-0.028882746 -0.030972265 -0.26445624
-0.02887946 -0.03089226 -0.26445833
-0.028876642 -0.030814428 -0.26445249
-0.028874118 -0.030736724 -0.26444066
-0.028870637 -0.030656632 -0.26444677
-0.028867155 -0.030576542 -0.26445287
-0.028864728 -0.030498881 -0.26443905
-0.02886191 -0.030421048 -0.26443321
-0.028858995 -0.030343171 -0.26442936
-0.028856372 -0.030265426 -0.26441953
-0.028853087 -0.03018542 -0.26442164
-0.028850466 -0.030107673 -0.26441181
-0.028848311 -0.0300321 -0.26439402
-0.028844362 -0.029949836 -0.26440805
-0.028839651 -0.029865272 -0.26443604
-0.02883617 -0.029785179 -0.26444215
-0.029912343 -0.081507713 -0.27557403
-0.029909391 -0.081423923 -0.27556604
-0.029906342 -0.081340097 -0.27556005
-0.029902998 -0.081256136 -0.27556008
-0.029899657 -0.081172183 -0.27556008
-0.029896824 -0.081086487 -0.27554804
-0.029893676 -0.081002623 -0.27554408
-0.029889824 -0.080920398 -0.27555612
-0.029886559 -0.080838442 -0.27555618
-0.029883726 -0.080752745 -0.27554417
-0.029880989 -0.080667093 -0.27553016
-0.029877745 -0.080583178 -0.27552816
-0.029874206 -0.080499135 -0.27553216
-0.029870942 -0.080417179 -0.27553222
-0.029867599 -0.080333218 -0.27553225
-0.02986406 -0.080249175 -0.27553624
-0.029860718 -0.080165222 -0.27553624
-0.02985757 -0.080081344 -0.27553228
-0.029853914 -0.079999216 -0.27554032
-0.029850377 -0.079915166 -0.27554432
-0.029847132 -0.079831257 -0.27554232
-0.029844083 -0.079747431 -0.27553636
-0.029840641 -0.079663426 -0.27553836
-0.029837083 -0.079581335 -0.2755444
-0.029833741 -0.079497382 -0.27554443
-0.029830789 -0.079413593 -0.27553645
-0.029827055 -0.079329468 -0.27554446
-0.029823693 -0.07924746 -0.27554649
-0.029820956 -0.079161815 -0.27553248
-0.029817831 -0.079075992 -0.27552646
-0.029814368 -0.078993946 -0.27553052
-0.029810635 -0.078909814 -0.2755385
-0.02980737 -0.078827851 -0.27553856
-0.029804125 -0.078743935 -0.2755366
-0.029800782 -0.078659981 -0.2755366
-0.02979783 -0.078576192 -0.27552861
-0.029794801 -0.078490414 -0.27552062
-0.029791655 -0.078406543 -0.27551663
-0.029788703 -0.078322761 -0.27550864
-0.029785575 -0.078236938 -0.27550262
-0.029782213 -0.078154936 -0.27550468
-0.029778989 -0.078069061 -0.27550063
-0.029776232 -0.077985369 -0.27548867
-0.029772988 -0.077901453 -0.27548668
-0.02976945 -0.07781741 -0.2754907
-0.029766206 -0.077733502 -0.2754887
-0.029763058 -0.077649623 -0.27548474
-0.029759498 -0.07756754 -0.27549076
-0.029756058 -0.077483535 -0.27549279
-0.029752519 -0.077399492 -0.27549678
-0.029748864 -0.077317357 -0.27550483
-0.029745521 -0.077233404 -0.27550486
-0.029742375 -0.077149533 -0.27550086
-0.029739032 -0.077065572 -0.27550089
-0.029735571 -0.076983526 -0.27550495
-0.029732227 -0.076899573 -0.27550495
-0.029729199 -0.076813787 -0.2754969
-0.02972615 -0.076729961 -0.27549094
-0.029722806 -0.076646008 -0.27549094
-0.02971966 -0.076562136 -0.27548695
-0.029716806 -0.076478392 -0.27547699
-0.029713484 -0.076392487 -0.27547497
-0.029709924 -0.076310396 -0.27548099
-0.029706562 -0.076228395 -0.27548307
-0.029703435 -0.076142564 -0.27547702
-0.029700678 -0.076058872 -0.27546507
-0.029697455 -0.075973004 -0.27546105
-0.029693797 -0.075890869 -0.27546909
-0.029689947 -0.075808644 -0.27548113
-0.029686192 -0.075726472 -0.27549118
-0.029683046 -0.075642601 -0.27548718
-0.029680114 -0.075556859 -0.27547717
-0.029677065 -0.07547304 -0.27547118
-0.029673429 -0.075388946 -0.27547717
-0.029669989 -0.075304948 -0.2754792
-0.029666841 -0.075221077 -0.2754752
-0.029663987 -0.07513734 -0.27546525
-0.029660959 -0.075051554 -0.2754572
-0.029657694 -0.074969597 -0.27545726
-0.029653959 -0.074885465 -0.27546528
-0.029650498 -0.074803419 -0.27546933
-0.029646862 -0.074719332 -0.27547532
-0.029643521 -0.074635372 -0.27547535
-0.029640667 -0.074551634 -0.27546537
-0.029637735 -0.074465901 -0.27545536
-0.029634587 -0.074382029 -0.27545136
-0.02963144 -0.074298158 -0.27544737
-0.029628489 -0.074214369 -0.27543941
-0.02962495 -0.074130327 -0.2754434
-0.029621098 -0.074048109 -0.27545545
-0.029617462 -0.073964022 -0.27546144
-0.029614002 -0.073881969 -0.27546549
-0.029611072 -0.073796235 -0.27545547
-0.029607924 -0.073712364 -0.27545148
-0.029597778 -0.073462404 -0.27545556
-0.02959555 -0.073375016 -0.27542955
-0.029592991 -0.073291406 -0.27541357
-0.029589551 -0.073207408 -0.27541557
-0.029585699 -0.073125184 -0.27542761
-0.029582258 -0.073041186 -0.27542961
-0.029571623 -0.07279101 -0.27544367
-0.029569376 -0.072705574 -0.27541968
-0.029566541 -0.072619878 -0.27540767
-0.029563688 -0.072536141 -0.27539769
-0.029560249 -0.072452143 -0.27539968
-0.029556591 -0.072370008 -0.27540773
-0.029553054 -0.072285965 -0.27541175
-0.02954971 -0.072202004 -0.27541175
-0.029546173 -0.072117962 -0.27541578
-0.029542908 -0.072035998 -0.27541584
-0.029539468 -0.071952 -0.27541783
-0.029532585 -0.071783997 -0.27542186
-0.029500725 -0.070945121 -0.27539003
-0.029484715 -0.070523687 -0.27537405
-0.02948145 -0.070441723 -0.27537411
-0.029477715 -0.070357591 -0.2753821
-0.029474061 -0.070275463 -0.27539015
-0.029470522 -0.070191413 -0.27539417
-0.02946759 -0.070105679 -0.27538413
-0.029464932 -0.070022024 -0.27537018
-0.029616833 -0.061281011 -0.26497069
-0.029617086 -0.061200619 -0.26489887
-0.029616244 -0.061121702 -0.26485103
-0.029614717 -0.061042476 -0.26481718
-0.02961229 -0.060964819 -0.26480335
-0.029609375 -0.060886942 -0.26479954
-0.029606577 -0.060807154 -0.26479164
-0.029603954 -0.060729407 -0.2647818
-0.029601039 -0.060651533 -0.26477796
-0.02959783 -0.060573526 -0.2647801
-0.029594839 -0.060493652 -0.26477623
-0.029591629 -0.060415644 -0.26477838
-0.029588714 -0.060337767 -0.26477453
-0.029585799 -0.06025989 -0.26477069
-0.029582394 -0.060181797 -0.26477683
-0.029578796 -0.060103618 -0.26478696
-0.029575683 -0.060025655 -0.26478714
-0.029572595 -0.059945736 -0.26478523
-0.029569777 -0.059867904 -0.26477939
-0.029566959 -0.059790071 -0.26477355
-0.029563848 -0.059712104 -0.26477373
-0.029560933 -0.059634227 -0.26476988
-0.02955794 -0.059554353 -0.26476598
-0.029554537 -0.05947626 -0.26477212
-0.029551424 -0.059398297 -0.2647723
-0.029548511 -0.05932042 -0.26476842
-0.029545594 -0.059242547 -0.26476461
-0.029542407 -0.059162583 -0.2647647
-0.029539101 -0.059084531 -0.26476884
-0.029535988 -0.059006568 -0.26476902
-0.029532781 -0.058928564 -0.26477116
-0.029529866 -0.058850687 -0.26476732
-0.029526873 -0.058770813 -0.26476341
-0.029523762 -0.05869285 -0.26476359
-0.029520456 -0.058614798 -0.26476774
-0.029517638 -0.058536965 -0.26476189
-0.029514624 -0.058459044 -0.26476005
-0.029511437 -0.058379084 -0.26476017
-0.029508423 -0.058301162 -0.26475832
-0.029505216 -0.058223158 -0.26476046
-0.029502006 -0.058145151 -0.26476261
-0.0294987 -0.058067098 -0.26476675
-0.029495316 -0.057987049 -0.26477087
-0.029492304 -0.057909131 -0.26476902
-0.029489387 -0.057831254 -0.26476517
-0.029486571 -0.057753421 -0.26475933
-0.029483851 -0.057675634 -0.26475149
-0.029480856 -0.057595756 -0.26474762
-0.029477648 -0.057517752 -0.26474977
-0.029474245 -0.057439655 -0.2647559
-0.029471232 -0.057361737 -0.26475406
-0.029468022 -0.057283729 -0.2647562
-0.029464619 -0.057205636 -0.26476237
-0.029461704 -0.057127759 -0.26475853
-0.029458594 -0.057049796 -0.26475868
-0.029455209 -0.056969747 -0.26476276
-0.029452294 -0.05689187 -0.26475894
-0.029449379 -0.056813993 -0.2647551
-0.029446267 -0.05673603 -0.26475525
-0.029443353 -0.056658156 -0.2647514
-0.029440358 -0.056578279 -0.26474753
-0.029437151 -0.056500275 -0.26474968
-0.029434236 -0.056422397 -0.26474583
-0.029431026 -0.05634439 -0.26474798
-0.029427819 -0.056266382 -0.26475012
-0.029424826 -0.056186508 -0.26474625
-0.029421911 -0.056108631 -0.2647424
-0.029418506 -0.056030538 -0.26474854
-0.029415298 -0.05595253 -0.26475069
-0.029412188 -0.055874567 -0.26475084
-0.029409293 -0.055794738 -0.26474497
-0.02940667 -0.055716991 -0.26473513
-0.02940356 -0.055639029 -0.26473528
-0.029400252 -0.055560976 -0.26473942
-0.029397044 -0.055482969 -0.26474157
-0.02939415 -0.055403139 -0.2647357
-0.029391039 -0.055325177 -0.26473585
-0.029388417 -0.05524743 -0.26472601
-0.0293855 -0.055169553 -0.26472217
-0.029381998 -0.055091415 -0.26473033
-0.02937891 -0.055011496 -0.26472843
-0.029376481 -0.054933839 -0.2647146
-0.029373761 -0.054856051 -0.26470676
-0.029370554 -0.054778043 -0.26470894
-0.029366856 -0.05469982 -0.26472104
-0.02936318 -0.05461964 -0.26473114
-0.029359775 -0.054541547 -0.26473731
-0.029356763 -0.054463625 -0.26473546
-0.029354043 -0.054385837 -0.26472762
-0.029351223 -0.054308005 -0.26472178
-0.029348036 -0.054228041 -0.26472187
-0.029344926 -0.054150078 -0.26472205
-0.029341815 -0.054072116 -0.26472217
-0.0293389 -0.053994238 -0.26471835
-0.029335789 -0.053916276 -0.2647185
-0.029332502 -0.053836271 -0.26472062
-0.02932949 -0.053758349 -0.26471877
-0.029326476 -0.053680431 -0.26471692
-0.029323462 -0.053602509 -0.26471508
-0.029320646 -0.053524677 -0.26470923
-0.029317848 -0.053444888 -0.26470137
-0.029314933 -0.053367011 -0.26469749
-0.029311432 -0.053288877 -0.26470566
-0.02930793 -0.053210739 -0.26471379
-0.029305015 -0.053132862 -0.26470995
-0.029302021 -0.053052988 -0.26470608
-0.029298324 -0.052974764 -0.2647182
-0.029294647 -0.052894585 -0.26472831
-0.02929144 -0.052816577 -0.26473045
-0.029288914 -0.052738875 -0.26471859
-0.029286195 -0.052661084 -0.26471078
-0.029283376 -0.052583251 -0.26470494
-0.029280286 -0.052503332 -0.26470304
-0.029277077 -0.052425329 -0.26470518
-0.029273869 -0.052347321 -0.26470736
-0.029270759 -0.052269358 -0.26470751
-0.029267941 -0.052191526 -0.26470166
-0.029264851 -0.052111607 -0.26469976
-0.029261349 -0.052033469 -0.26470792
-0.029258139 -0.051955462 -0.26471007
-0.029255128 -0.051877543 -0.26470822
-0.029251939 -0.05179758 -0.26470834
-0.029248927 -0.051719662 -0.26470649
-0.029246498 -0.051642001 -0.26469266
-0.029243778 -0.051564213 -0.26468483
-0.0292402 -0.051484078 -0.2646929
-0.029236795 -0.051405981 -0.26469907
-0.029233783 -0.051328063 -0.26469722
-0.029231062 -0.051250271 -0.26468939
-0.029228244 -0.051172439 -0.26468354
-0.029224666 -0.051092304 -0.26469165
-0.02922136 -0.051014256 -0.26469579
-0.029218152 -0.050936248 -0.26469794
-0.029214768 -0.050856199 -0.26470202
-0.029211853 -0.050778322 -0.26469821
-0.02920923 -0.050700575 -0.26468837
-0.029206315 -0.050622702 -0.26468453
-0.029203029 -0.050542694 -0.26468664
-0.029200016 -0.050464775 -0.2646848
-0.029197101 -0.050386898 -0.26468095
-0.029193502 -0.050308719 -0.26469108
-0.029189434 -0.050228365 -0.26470917
-0.029186811 -0.050150618 -0.26469934
-0.029184189 -0.050072871 -0.26468951
-0.029181175 -0.049994953 -0.26468766
-0.029177792 -0.049914904 -0.26469174
-0.029174875 -0.04983703 -0.26468793
-0.029172156 -0.049759239 -0.26468009
-0.029169144 -0.049681317 -0.26467824
-0.029165663 -0.049601227 -0.26468432
-0.029162357 -0.049523175 -0.26468849
-0.029159244 -0.049445212 -0.26468864
-0.029155862 -0.049365163 -0.26469272
-0.029152654 -0.049287159 -0.26469487
-0.029149542 -0.049209196 -0.26469505
-0.029146647 -0.049129363 -0.26468915
-0.029143829 -0.049051531 -0.26468331
-0.029140718 -0.048973568 -0.26468349
-0.029137511 -0.04889556 -0.26468563
-0.029134322 -0.048815601 -0.26468572
-0.029131308 -0.048737679 -0.26468387
-0.029128492 -0.048659846 -0.26467803
-0.0291254 -0.048579928 -0.26467615
-0.029122388 -0.048502006 -0.26467431
-0.02911957 -0.048424177 -0.26466846
-0.029116556 -0.048346255 -0.26466662
-0.029112978 -0.04826612 -0.26467472
-0.029109575 -0.048188027 -0.26468086
-0.029106464 -0.04811006 -0.26468101
-0.029103568 -0.048030231 -0.26467514
-0.029101044 -0.047952529 -0.26466331
-0.029097933 -0.047874566 -0.26466346
-0.029094549 -0.047794517 -0.26466757
-0.029091731 -0.047716685 -0.26466173
-0.029088816 -0.047638807 -0.26465788
-0.029085413 -0.047560714 -0.26466402
-0.029082224 -0.047480755 -0.26466411
-0.02907921 -0.047402833 -0.26466227
-0.029076587 -0.047325086 -0.26465246
-0.029073479 -0.047247123 -0.26465261
-0.029069703 -0.047166899 -0.26466471
-0.029066125 -0.047086768 -0.26467279
-0.029063012 -0.047008801 -0.26467294
-0.029059902 -0.046930838 -0.26467308
-0.029057086 -0.046853006 -0.26466727
-0.029054385 -0.046773262 -0.26465738
-0.029051472 -0.046695385 -0.26465353
-0.029048262 -0.046617378 -0.26465568
-0.029044878 -0.046537329 -0.26465979
-0.029041572 -0.04645928 -0.26466393
-0.029038481 -0.046379361 -0.26466206
-0.029035566 -0.046301484 -0.26465821
-0.029032553 -0.046223566 -0.26465636
-0.029029833 -0.046145774 -0.26464853
-0.029026918 -0.046067901 -0.26464468
-0.029023437 -0.045987807 -0.26465076
-0.029019661 -0.045907587 -0.26466286
-0.029016355 -0.045829535 -0.26466703
-0.029013537 -0.045751702 -0.26466119
-0.029010721 -0.04567387 -0.26465535
-0.029007336 -0.045593821 -0.26465943
-0.02900403 -0.045515768 -0.26466361
-0.029001135 -0.045435939 -0.26465771
-0.028998513 -0.045358192 -0.26464787
-0.028995793 -0.045280404 -0.26464003
-0.028992878 -0.045202527 -0.26463619
-0.028989494 -0.045122478 -0.2646403
-0.028986013 -0.045042388 -0.26464641
-0.028982706 -0.044964336 -0.26465055
-0.028979888 -0.044886503 -0.26464471
-0.02897707 -0.044808671 -0.26463887
-0.02897398 -0.044728752 -0.26463699
-0.028970772 -0.044650745 -0.26463914
-0.028967388 -0.044570696 -0.26464322
-0.028964376 -0.044492777 -0.26464137
-0.028961089 -0.044412769 -0.26464349
-0.028957881 -0.044334766 -0.26464564
-0.028954966 -0.044256888 -0.26464179
-0.028951973 -0.044177014 -0.26463792
-0.028949155 -0.044099182 -0.26463208
-0.028946143 -0.04402126 -0.26463023
-0.028943129 -0.043943342 -0.26462838
-0.028940331 -0.043863554 -0.26462051
-0.028937515 -0.043785721 -0.26461467
-0.028934013 -0.043707583 -0.26462281
-0.028930336 -0.043627404 -0.26463288
-0.028927244 -0.043547489 -0.264631
-0.028924428 -0.043469653 -0.26462516
-0.028921708 -0.043391865 -0.26461732
-0.028918596 -0.043313898 -0.2646175
-0.02891531 -0.043233894 -0.26461959
-0.028912004 -0.043155845 -0.26462373
-0.028908622 -0.043075796 -0.26462784
-0.028905336 -0.042995792 -0.26462993
-0.02890203 -0.042917743 -0.26463407
-0.028899407 -0.042839997 -0.26462424
-0.028896492 -0.042762119 -0.26462042
-0.02889264 -0.042679898 -0.26463246
-0.028889626 -0.04260198 -0.26463062
-0.028887473 -0.042526405 -0.26461285
-0.02888448 -0.042446531 -0.26460895
-0.028881077 -0.042368434 -0.26461509
-0.028877692 -0.042288389 -0.2646192
-0.028874602 -0.04220847 -0.26461729
-0.028871685 -0.042130593 -0.26461345
-0.028868673 -0.042052675 -0.2646116
-0.028865388 -0.041972671 -0.26461372
-0.028862374 -0.041894749 -0.26461187
-0.028859284 -0.04181483 -0.26460999
-0.028856173 -0.041736867 -0.26461014
-0.028852887 -0.041656863 -0.26461226
-0.028849777 -0.0415789 -0.26461241
-0.028846588 -0.041498937 -0.2646125
-0.028843381 -0.041420929 -0.26461464
-0.028840367 -0.041343011 -0.26461282
-0.028837472 -0.041263178 -0.26460692
-0.028834555 -0.041185305 -0.26460308
-0.028831759 -0.041105516 -0.26459521
-0.028828844 -0.041027639 -0.26459137
-0.02882544 -0.040949546 -0.26459751
-0.028821588 -0.040867325 -0.26460955
-0.028818281 -0.040789276 -0.26461369
-0.028815387 -0.040709443 -0.26460782
-0.028812842 -0.040633697 -0.26459801
-0.028809849 -0.040553823 -0.26459414
-0.028806368 -0.040473729 -0.26460022
-0.028803453 -0.040395852 -0.2645964
-0.028800538 -0.040317975 -0.26459256
-0.028797816 -0.040240187 -0.26458472
-0.028795 -0.040162355 -0.26457888
-0.028791616 -0.040082306 -0.26458299
-0.028787743 -0.040002041 -0.26459706
-0.028784361 -0.039921992 -0.26460117
-0.028781543 -0.039844159 -0.26459533
-0.028778745 -0.039764371 -0.26458746
-0.028775927 -0.039686538 -0.26458162
-0.02877311 -0.039608706 -0.26457578
-0.028770097 -0.039530784 -0.26457393
-0.02876642 -0.039450608 -0.264584
-0.028763231 -0.039370645 -0.26458412
-0.028761078 -0.03929507 -0.26456636
-0.028758358 -0.039217282 -0.26455849
-0.028754976 -0.039137233 -0.26456261
-0.028752645 -0.039059617 -0.26454678
-0.028750023 -0.03898187 -0.26453698
-0.028746445 -0.038901739 -0.26454505
-0.028742202 -0.038819343 -0.26456508
-0.02873872 -0.038739249 -0.26457119
-0.028735999 -0.038661461 -0.26456335
-0.02873328 -0.038583674 -0.26455551
-0.028729897 -0.038503624 -0.26455963
-0.028726688 -0.038425617 -0.26456177
-0.028723598 -0.038345698 -0.26455986
-0.028720487 -0.038267735 -0.26456001
-0.028717397 -0.038187817 -0.26455814
-0.028714482 -0.038109943 -0.26455429
-0.028711196 -0.038029935 -0.26455641
-0.028708182 -0.037952013 -0.26455456
-0.028704993 -0.037872054 -0.26455465
-0.028701611 -0.037792005 -0.26455876
-0.0286985 -0.037714042 -0.26455891
-0.028695583 -0.037636168 -0.26455507
-0.028692788 -0.03755638 -0.26454717
-0.028689774 -0.037478458 -0.26454535
-0.028686488 -0.037398454 -0.26454744
-0.02868291 -0.037318319 -0.26455554
-0.028679896 -0.037240397 -0.2645537
-0.028677098 -0.037160613 -0.2645458
-0.028673891 -0.037082605 -0.26454797
-0.028670702 -0.037002642 -0.26454806
-0.028668374 -0.036925025 -0.26453224
-0.028665828 -0.036849279 -0.26452246
-0.028662346 -0.036769189 -0.26452857
-0.028658494 -0.036686968 -0.26454061
-0.028655015 -0.036606874 -0.26454669
-0.028651902 -0.036528911 -0.26454684
-0.028648987 -0.036451034 -0.264543
-0.028645897 -0.036371116 -0.26454112
-0.028642612 -0.036291111 -0.26454324
-0.02863913 -0.036211021 -0.26454931
-0.028635746 -0.036130972 -0.26455343
-0.028632831 -0.036053095 -0.26454958
-0.028630503 -0.035975479 -0.26453376
-0.028627781 -0.035897691 -0.26452592
-0.028624399 -0.035817642 -0.26453
-0.028620917 -0.035737548 -0.26453611
-0.028617904 -0.035659626 -0.26453429
-0.028615281 -0.035581883 -0.26452443
-0.028612465 -0.035504051 -0.26451862
-0.028609276 -0.035424091 -0.26451871
-0.028605599 -0.035343908 -0.26452881
-0.028602313 -0.035263903 -0.2645309
-0.028599495 -0.035186075 -0.26452506
-0.028596776 -0.035108283 -0.26451725
-0.028593881 -0.03502845 -0.26451135
-0.028590301 -0.034948319 -0.26451945
-0.028587094 -0.034870312 -0.2645216
-0.028584197 -0.034790479 -0.2645157
-0.028581185 -0.03471256 -0.26451385
-0.028577998 -0.034632601 -0.26451397
-0.028574985 -0.034554679 -0.26451212
-0.028572166 -0.034476846 -0.26450628
-0.028568881 -0.034396842 -0.2645084
-0.028565694 -0.034316879 -0.26450849
-0.028562797 -0.03423705 -0.26450261
-0.028559979 -0.034159213 -0.26449677
-0.028556675 -0.034081165 -0.26450092
-0.028553115 -0.033999074 -0.26450697
-0.028550003 -0.033921111 -0.26450711
-0.028547011 -0.033841237 -0.26450324
-0.028543998 -0.033763316 -0.26450139
-0.028540811 -0.033683356 -0.26450151
-0.028537525 -0.033603348 -0.2645036
-0.028534707 -0.033525519 -0.26449776
-0.028531888 -0.033447683 -0.26449192
-0.02852907 -0.03336985 -0.26448607
-0.028525785 -0.03328985 -0.26448819
-0.02852164 -0.033207495 -0.26450622
-0.028518725 -0.033129618 -0.26450238
-0.028516201 -0.033051915 -0.26449054
-0.02851348 -0.032974124 -0.26448274
-0.028510565 -0.03289625 -0.26447886
-0.028507475 -0.032816336 -0.26447698
-0.028504286 -0.032736368 -0.2644771
-0.028500708 -0.032656237 -0.26448518
-0.028497521 -0.032576274 -0.2644853
-0.028494701 -0.032498442 -0.26447946
-0.028491415 -0.032418437 -0.26448154
-0.028488403 -0.032340515 -0.2644797
-0.028485313 -0.032260597 -0.26447782
-0.028481832 -0.032180507 -0.26448393
-0.02847835 -0.032100417 -0.26449001
-0.028475162 -0.032020457 -0.26449013
-0.028472247 -0.03194258 -0.26448628
-0.028469624 -0.031864833 -0.26447645
-0.028466806 -0.031787001 -0.26447061
-0.028464183 -0.031709254 -0.2644608
-0.028461367 -0.031631418 -0.26445496
-0.028457711 -0.031549286 -0.26446301
-0.028454326 -0.031469241 -0.26446709
-0.02845151 -0.031391405 -0.26446125
-0.0284483 -0.031313397 -0.26446342
-0.02844445 -0.03123118 -0.26447546
-0.028441729 -0.031153388 -0.2644676
-0.028439596 -0.031075861 -0.26444781
-0.028436113 -0.030995768 -0.26445389
-0.028432339 -0.030915545 -0.26446599
-0.028429445 -0.030835714 -0.26446009
-0.02842653 -0.030757839 -0.26445624
-0.028423712 -0.030680005 -0.26445043
-0.028420893 -0.030602172 -0.26444459
-0.028417803 -0.030522253 -0.26444268
-0.028414421 -0.030442206 -0.26444679
-0.028410938 -0.030362114 -0.26445287
-0.028407849 -0.030282196 -0.264451
-0.028404836 -0.030204276 -0.26444915
-0.02840155 -0.030124271 -0.26445127
-0.028398458 -0.030044353 -0.26444936
-0.028396012 -0.029968649 -0.26443756
-0.028392922 -0.02988873 -0.26443568
-0.028389538 -0.029808681 -0.26443979
-0.029492227 -0.081544682 -0.27558818
-0.02948859 -0.081460595 -0.2755942
-0.029485444 -0.081376724 -0.27559021
-0.029482491 -0.081292942 -0.27558225
-0.02947956 -0.081207201 -0.27557221
-0.029476725 -0.081121504 -0.2755602
-0.029473577 -0.081037641 -0.27555621
-0.029469725 -0.080955416 -0.27556825
-0.029466167 -0.080873325 -0.27557433
-0.029463626 -0.080787763 -0.2755563
-0.029461104 -0.080700248 -0.27553624
-0.029457957 -0.08061637 -0.27553225
-0.029454615 -0.080532417 -0.27553228
-0.02945176 -0.08044868 -0.27552229
-0.029448612 -0.080364808 -0.27551833
-0.029445074 -0.080280766 -0.27552232
-0.029441731 -0.080196805 -0.27552235
-0.029438367 -0.080114804 -0.27552438
-0.02943483 -0.080030762 -0.2755284
-0.029431172 -0.079948626 -0.27553645
-0.02942732 -0.079866409 -0.27554849
-0.029423879 -0.079782404 -0.27555048
-0.029420439 -0.079698399 -0.27555251
-0.029416882 -0.079616316 -0.27555856
-0.029413734 -0.079532444 -0.27555457
-0.029410996 -0.079446793 -0.27554056
-0.029407967 -0.079361007 -0.27553254
-0.02940521 -0.079277314 -0.27552056
-0.029401867 -0.079193361 -0.27552056
-0.029398113 -0.079111181 -0.27553064
-0.029394671 -0.079027176 -0.27553263
-0.029391523 -0.078943312 -0.27552864
-0.029387966 -0.078861222 -0.27553469
-0.02938433 -0.078777134 -0.27554071
-0.029381378 -0.078693345 -0.27553272
-0.029378543 -0.078607656 -0.27552071
-0.029375397 -0.078523785 -0.27551672
-0.029371858 -0.078439742 -0.27552074
-0.0293683 -0.078357652 -0.27552679
-0.029364858 -0.078273654 -0.27552879
-0.029362004 -0.078189909 -0.27551883
-0.029359072 -0.078104168 -0.27550879
-0.029355729 -0.078020215 -0.27550882
-0.02935176 -0.077939905 -0.27552488
-0.029347733 -0.077855647 -0.27553886
-0.029344488 -0.077771731 -0.27553689
-0.029341945 -0.077686161 -0.27551889
-0.029338896 -0.077602342 -0.2755129
-0.029335532 -0.077520341 -0.27551496
-0.029332306 -0.077434465 -0.27551094
-0.029329062 -0.077350557 -0.27550894
-0.029325601 -0.077268511 -0.27551299
-0.029321965 -0.077184424 -0.27551901
-0.029318621 -0.077100463 -0.27551901
-0.02931528 -0.077016503 -0.27551901
-0.029312132 -0.076932639 -0.27551505
-0.029309297 -0.076846942 -0.27550304
-0.029306639 -0.076763287 -0.27548906
-0.029303588 -0.076679461 -0.27548307
-0.029299639 -0.076597199 -0.27549714
-0.029295905 -0.076513067 -0.27550513
-0.029282924 -0.076177411 -0.2754972
-0.02927956 -0.07609541 -0.27549922
-0.029276434 -0.076009586 -0.2754932
-0.029273188 -0.075925671 -0.27549124
-0.029269336 -0.075843446 -0.27550328
-0.029265992 -0.075759493 -0.27550328
-0.029263139 -0.075675756 -0.27549332
-0.02926011 -0.07558997 -0.27548528
-0.029256746 -0.075507969 -0.27548733
-0.029253403 -0.075424016 -0.27548736
-0.029250158 -0.0753401 -0.27548537
-0.029246619 -0.07525605 -0.27548939
-0.029242884 -0.075171918 -0.27549738
-0.029230295 -0.07483644 -0.27548146
-0.029227559 -0.074750789 -0.27546743
-0.029224314 -0.074666873 -0.27546543
-0.02922095 -0.074584872 -0.27546751
-0.029217726 -0.074499004 -0.27546346
-0.02921487 -0.074415267 -0.27545351
-0.029211821 -0.074331433 -0.27544752
-0.02920787 -0.074249178 -0.27546155
-0.029204018 -0.074166954 -0.27547359
-0.029200578 -0.074082956 -0.27547562
-0.02918791 -0.073745474 -0.27545962
-0.029184861 -0.073661648 -0.27545366
-0.029181302 -0.073579557 -0.27545971
-0.029177763 -0.073495515 -0.2754637
-0.029171664 -0.073327862 -0.27545175
-0.029168829 -0.073242165 -0.27543974
-0.029166093 -0.073156513 -0.27542573
-0.029162556 -0.073072471 -0.27542973
-0.029158605 -0.072990209 -0.27544376
-0.02915534 -0.072908252 -0.27544382
-0.029151997 -0.072824292 -0.27544385
-0.029148653 -0.072740331 -0.27544385
-0.029145429 -0.072654463 -0.27543983
-0.029142164 -0.072572507 -0.27543986
-0.029138409 -0.072490327 -0.27544993
-0.029134676 -0.072406195 -0.27545792
-0.029131841 -0.072320506 -0.27544591
-0.029129084 -0.072236806 -0.27543393
-0.028711904 -0.061506826 -0.27522606
-0.029194498 -0.061232641 -0.26495495
-0.029195042 -0.06115238 -0.26487714
-0.029194394 -0.061073549 -0.26482531
-0.029192358 -0.060996063 -0.2648035
-0.029189365 -0.060916189 -0.26479959
-0.029186253 -0.060838223 -0.26479977
-0.029183533 -0.060760435 -0.26479194
-0.02918054 -0.060680561 -0.26478803
-0.029177409 -0.06060455 -0.26479024
-0.02917422 -0.06052459 -0.26479036
-0.029171109 -0.060446627 -0.26479051
-0.0291679 -0.06036862 -0.26479265
-0.029164787 -0.060290657 -0.2647928
-0.029161872 -0.06021278 -0.26478896
-0.029158879 -0.060132906 -0.26478508
-0.029155865 -0.060054988 -0.26478323
-0.029152658 -0.05997698 -0.26478538
-0.029149741 -0.059899103 -0.26478153
-0.029146923 -0.05982127 -0.26477569
-0.02914354 -0.059741221 -0.26477981
-0.029140135 -0.059663128 -0.26478595
-0.02913722 -0.059585251 -0.2647821
-0.029134206 -0.059507329 -0.26478028
-0.029130802 -0.059429236 -0.26478642
-0.029127613 -0.059349276 -0.26478651
-0.029125284 -0.05927166 -0.26477069
-0.029122662 -0.059193913 -0.26476085
-0.02911916 -0.059115775 -0.26476902
-0.029115658 -0.059037641 -0.26477715
-0.029112274 -0.058957592 -0.26478124
-0.02910926 -0.05887967 -0.26477942
-0.029106148 -0.058801707 -0.26477957
-0.029103134 -0.058723789 -0.26477772
-0.029099926 -0.058645781 -0.26477987
-0.029096544 -0.058565732 -0.26478398
-0.029093724 -0.0584879 -0.26477814
-0.029090907 -0.058410067 -0.2647723
-0.029087894 -0.058332145 -0.26477045
-0.02908488 -0.058254227 -0.2647686
-0.029081495 -0.058174178 -0.26477271
-0.029078189 -0.058096129 -0.26477686
-0.029075176 -0.058018208 -0.26477501
-0.029072259 -0.05794033 -0.26477116
-0.029069442 -0.057862498 -0.26476532
-0.029066449 -0.057782624 -0.26476145
-0.029063044 -0.057704531 -0.26476759
-0.02906003 -0.057626609 -0.26476574
-0.029057309 -0.057548821 -0.2647579
-0.029054297 -0.057470899 -0.26475608
-0.02905101 -0.057390895 -0.26475817
-0.029047802 -0.057312887 -0.26476032
-0.029045083 -0.057235099 -0.26475248
-0.02904197 -0.057157136 -0.26475266
-0.029038273 -0.057078913 -0.26476479
-0.029034987 -0.056998909 -0.26476687
-0.029032169 -0.056921072 -0.26476103
-0.029029448 -0.056843285 -0.26475322
-0.02902624 -0.056765277 -0.26475537
-0.029023031 -0.056687269 -0.26475751
-0.029019941 -0.056607351 -0.26475561
-0.029016828 -0.056529388 -0.26475579
-0.029013326 -0.05645125 -0.26476392
-0.029010704 -0.056373507 -0.26475409
-0.029008374 -0.05629589 -0.26473826
-0.029004795 -0.056215756 -0.26474637
-0.029000903 -0.056137443 -0.26476249
-0.028997596 -0.056059394 -0.26476663
-0.028995071 -0.055981692 -0.2647548
-0.028992448 -0.055903945 -0.26474497
