# .PCD v0.7 - Point Cloud Data file format
VERSION 0.7
FIELDS x y z
SIZE 4 4 4
TYPE F F F
COUNT 1 1 1
WIDTH 1261
HEIGHT 1
VIEWPOINT 0 0 0 1 0 0 0
POINTS 1261
DATA ascii
-0.067734197 -0.031788025 -0.24107715
-0.067731045 -0.031712018 -0.24107936
-0.067727998 -0.031636052 -0.24107955
-0.067725159 -0.031558219 -0.24107373
-0.06772209 -0.031484209 -0.24107598
-0.067718461 -0.031407982 -0.24108817
-0.067715213 -0.031331934 -0.24109238
-0.067712046 -0.031257879 -0.24109662
-0.067708217 -0.031181568 -0.2411128
-0.067704462 -0.031107256 -0.24112904
-0.067701414 -0.031031292 -0.24112925
-0.067698658 -0.030955454 -0.24112347
-0.067695998 -0.030879661 -0.24111569
-0.067693263 -0.030801874 -0.24110785
-0.067691013 -0.030724302 -0.24109004
-0.067689344 -0.030646987 -0.24106024
-0.067687094 -0.030569414 -0.24104244
-0.067684628 -0.030493708 -0.24103066
-0.067681991 -0.030415963 -0.24102083
-0.06767904 -0.03034004 -0.24101904
-0.067675889 -0.030264033 -0.24102125
-0.067672938 -0.03018811 -0.24101946
-0.067670085 -0.030112233 -0.24101567
-0.067667037 -0.030036267 -0.24101588
-0.067663789 -0.029960215 -0.24102008
-0.067660742 -0.029884253 -0.24102029
-0.067657687 -0.029808287 -0.2410205
-0.067654423 -0.029734191 -0.24102674
-0.067650378 -0.029659748 -0.24104898
-0.067646436 -0.029585347 -0.2410692
-0.067642801 -0.029509123 -0.24108139
-0.067639537 -0.029435027 -0.24108763
-0.067636386 -0.029359017 -0.24108985
-0.067634135 -0.029281445 -0.24107203
-0.067632474 -0.02920413 -0.24104223
-0.067630731 -0.029124819 -0.24101238
-0.067628868 -0.029047418 -0.24098659
-0.067625701 -0.028973367 -0.24099085
-0.067622066 -0.028897142 -0.24100304
-0.067619018 -0.028821178 -0.24100325
-0.067616165 -0.028745297 -0.24099946
-0.067613408 -0.028669463 -0.24099366
-0.067610748 -0.028593671 -0.24098587
-0.067608006 -0.028515883 -0.24097806
-0.067605443 -0.028440133 -0.24096829
-0.067601815 -0.02836391 -0.24098048
-0.067597866 -0.02828951 -0.2410007
-0.067594208 -0.028215241 -0.24101493
-0.067590363 -0.028140884 -0.24103317
-0.067586631 -0.028064616 -0.24104735
-0.067583673 -0.027988695 -0.24104556
-0.067581311 -0.027913032 -0.2410318
-0.067578666 -0.027835285 -0.24102196
-0.067576401 -0.027759667 -0.2410062
-0.067574248 -0.027682137 -0.24098638
-0.067571998 -0.027604563 -0.24096857
-0.067569338 -0.027528772 -0.24096078
-0.06756629 -0.027452806 -0.240961
-0.06756302 -0.02737871 -0.24096724
-0.067559488 -0.02730253 -0.24097744
-0.067556143 -0.027226435 -0.24098364
-0.067553192 -0.027150512 -0.24098185
-0.067550436 -0.027074678 -0.24097607
-0.067547776 -0.026998885 -0.24096829
-0.067544721 -0.026922923 -0.2409685
-0.067541189 -0.02684674 -0.24097869
-0.067537822 -0.0267726 -0.24098694
-0.067533679 -0.026698114 -0.24101116
-0.06752944 -0.026623584 -0.24103737
-0.067526005 -0.026547447 -0.24104556
-0.06752266 -0.02647135 -0.24105176
-0.06751959 -0.02639734 -0.24105403
-0.067517146 -0.026319683 -0.2410402
-0.067515165 -0.026244193 -0.24101844
-0.067513913 -0.026165098 -0.24097861
-0.067511939 -0.026089609 -0.24095684
-0.067509495 -0.026011949 -0.24094303
-0.067506835 -0.025936157 -0.24093525
-0.067503177 -0.025861887 -0.24094948
-0.067499347 -0.025785577 -0.24096566
-0.067496493 -0.0257097 -0.24096188
-0.067493834 -0.025633905 -0.2409541
-0.067490786 -0.025557943 -0.24095431
-0.067487828 -0.025482021 -0.24095252
-0.067485072 -0.025406186 -0.24094674
-0.067482121 -0.025330264 -0.24094495
-0.067478582 -0.025254082 -0.24095514
-0.067474224 -0.025181465 -0.24098541
-0.067470007 -0.025104981 -0.24100959
-0.067467056 -0.025029059 -0.24100779
-0.06746459 -0.024953354 -0.240996
-0.067462027 -0.024877604 -0.24098623
-0.06745939 -0.024799859 -0.24097642
-0.067457609 -0.024724457 -0.24095066
-0.06745594 -0.024647143 -0.24092087
-0.067453593 -0.024569526 -0.24090505
-0.067450717 -0.024495604 -0.24090329
-0.06744796 -0.024419768 -0.24089752
-0.067444913 -0.024343804 -0.24089773
-0.067441963 -0.024267882 -0.24089593
-0.067439102 -0.024192004 -0.24089214
-0.067436546 -0.024116255 -0.24088237
-0.067433588 -0.024040332 -0.24088058
-0.067430541 -0.023964368 -0.24088079
-0.067427292 -0.023888316 -0.24088499
-0.067423664 -0.023812093 -0.24089718
-0.06741932 -0.02373752 -0.2409254
-0.067414984 -0.023662947 -0.24095362
-0.067411527 -0.023588764 -0.24096385
-0.067408867 -0.023512971 -0.24095607
-0.067406327 -0.023435269 -0.24094427
-0.06740357 -0.023359433 -0.24093848
-0.067400403 -0.023285381 -0.24094272
-0.067397758 -0.023207635 -0.2409329
-0.067395881 -0.02313219 -0.24090913
-0.067393608 -0.02305657 -0.24089336
-0.067390658 -0.022980649 -0.24089158
-0.067387708 -0.022904728 -0.24088979
-0.067384854 -0.022828847 -0.240886
-0.067381799 -0.022752883 -0.24088621
-0.067378558 -0.022676833 -0.24089041
-0.067375705 -0.022600953 -0.24088663
-0.067373142 -0.022525206 -0.24087685
-0.067370579 -0.022449456 -0.24086708
-0.067368113 -0.022373751 -0.24085531
-0.06736467 -0.022297613 -0.2408635
-0.067359753 -0.022222782 -0.24090369
-0.067355804 -0.022148382 -0.24092391
-0.067352757 -0.022072418 -0.24092412
-0.067349702 -0.021996452 -0.24092433
-0.067346945 -0.021920618 -0.24091855
-0.067344479 -0.021844912 -0.24090677
-0.067341924 -0.021769164 -0.240897
-0.067340158 -0.021691807 -0.24086919
-0.067338571 -0.021616491 -0.24083945
-0.067335717 -0.021540612 -0.24083567
-0.067332081 -0.021464389 -0.24084786
-0.06732823 -0.021390032 -0.24086609
-0.067324795 -0.021313895 -0.24087429
-0.067322135 -0.021238102 -0.24086651
-0.067319572 -0.021162353 -0.24085672
-0.067316711 -0.021086477 -0.24085294
-0.067313373 -0.02101038 -0.24085914
-0.067310207 -0.020936327 -0.24086338
-0.067306668 -0.020860147 -0.24087358
-0.067302935 -0.020783879 -0.24088776
-0.067298889 -0.020709436 -0.24090999
-0.06729506 -0.020633124 -0.24092618
-0.067291521 -0.020556943 -0.24093637
-0.067288652 -0.020483021 -0.24093463
-0.067286305 -0.020405402 -0.24091882
-0.067284226 -0.02032987 -0.24089906
-0.067282446 -0.020254469 -0.24087331
-0.067280173 -0.020178851 -0.24085754
-0.067277223 -0.020102929 -0.24085574
-0.067274466 -0.020027094 -0.24084994
-0.067272 -0.019951388 -0.24083817
-0.067268759 -0.019875336 -0.24084237
-0.067265704 -0.019799372 -0.24084258
-0.067262836 -0.019725449 -0.24084085
-0.067259975 -0.019649569 -0.24083707
-0.067256927 -0.019573607 -0.24083728
-0.067253783 -0.019497598 -0.24083948
-0.067250729 -0.019421631 -0.24083969
-0.067247875 -0.019345755 -0.24083589
-0.067244634 -0.019269703 -0.24084011
-0.067240685 -0.019195303 -0.24086033
-0.06723734 -0.019119209 -0.24086651
-0.06723468 -0.019043416 -0.24085873
-0.06723173 -0.018967494 -0.24085695
-0.067228876 -0.018891618 -0.24085316
-0.067227289 -0.018816302 -0.24082342
-0.067226186 -0.018741202 -0.24078369
-0.06722372 -0.018665496 -0.24077192
-0.067220286 -0.018589359 -0.24078012
-0.067217335 -0.018513437 -0.24077831
-0.067214869 -0.018437732 -0.24076654
-0.067212112 -0.018361896 -0.24076076
-0.067209154 -0.018285975 -0.24075897
-0.067206286 -0.018212052 -0.24075723
-0.067203425 -0.018136173 -0.24075344
-0.067200474 -0.018060252 -0.24075165
-0.067197524 -0.017984331 -0.24074987
-0.067194767 -0.017908495 -0.24074408
-0.067191616 -0.017832488 -0.24074629
-0.067187674 -0.017758088 -0.24076651
-0.067183547 -0.017681647 -0.2407887
-0.067180015 -0.017605465 -0.24079889
-0.067177154 -0.017529586 -0.24079511
-0.067174673 -0.017455837 -0.24078536
-0.067172326 -0.01737822 -0.24076955
-0.067170039 -0.017304556 -0.24075583
-0.067167476 -0.017228808 -0.24074605
-0.067164324 -0.017152799 -0.24074826
-0.067160785 -0.017076619 -0.24075845
-0.067157447 -0.017000524 -0.24076465
-0.067154787 -0.016924731 -0.24075687
-0.067152299 -0.016850982 -0.24074714
-0.06714984 -0.016775277 -0.24073537
-0.067147471 -0.016699614 -0.24072158
-0.067145102 -0.016623951 -0.24070781
-0.067142442 -0.01654816 -0.24070004
-0.067138806 -0.016471935 -0.24071223
-0.067135565 -0.016395885 -0.24071643
-0.067132592 -0.016321918 -0.24071668
-0.067127787 -0.016245175 -0.24075285
-0.067123272 -0.016168561 -0.24078301
-0.067120515 -0.016092725 -0.24077722
-0.06711825 -0.016017107 -0.24076146
-0.06711559 -0.015941314 -0.24075368
-0.067113221 -0.015865654 -0.24073991
-0.067111611 -0.015792292 -0.2407122
-0.067110024 -0.015716976 -0.24068245
-0.067107953 -0.015641443 -0.24066269
-0.067105293 -0.015565652 -0.2406549
-0.067102343 -0.015489731 -0.24065311
-0.067099586 -0.015413895 -0.24064732
-0.067096904 -0.015340059 -0.24064159
-0.067093655 -0.015264007 -0.2406458
-0.067090511 -0.015187999 -0.240648
-0.067087851 -0.015112207 -0.24064022
-0.0670847 -0.015036199 -0.24064243
-0.067081265 -0.014960062 -0.24065062
-0.067078315 -0.01488414 -0.24064884
-0.067074947 -0.01481 -0.24065709
-0.067070343 -0.014733342 -0.24068925
-0.067066021 -0.014656816 -0.24071541
-0.067062482 -0.014580633 -0.24072561
-0.067059822 -0.014504842 -0.24071783
-0.067058429 -0.014429613 -0.24068408
-0.067057043 -0.014354385 -0.24065033
-0.067054555 -0.014280634 -0.24064061
-0.067051508 -0.014204669 -0.24064082
-0.067048557 -0.014128747 -0.24063903
-0.067045502 -0.014052782 -0.24063924
-0.067042261 -0.01397673 -0.24064344
-0.067039207 -0.013900766 -0.24064365
-0.067036435 -0.013826886 -0.24063991
-0.067033775 -0.013751094 -0.24063213
-0.067031406 -0.013675433 -0.24061835
-0.067029037 -0.01359977 -0.24060458
-0.067026086 -0.013523849 -0.24060279
-0.067023017 -0.013449838 -0.24060504
-0.067019574 -0.013373701 -0.24061324
-0.067015067 -0.013297087 -0.24064341
-0.067010671 -0.013218561 -0.24066952
-0.067007504 -0.013144508 -0.24067378
-0.06700445 -0.013068544 -0.24067399
-0.067001015 -0.012992405 -0.24068218
-0.066998161 -0.012916527 -0.2406784
-0.066997252 -0.012841514 -0.24063466
-0.066996232 -0.012768413 -0.24059498
-0.066993669 -0.012692664 -0.24058521
-0.066990525 -0.012616656 -0.24058741
-0.066987842 -0.012542819 -0.24058168
-0.06698481 -0.0124649 -0.24057984
-0.066981837 -0.012390932 -0.24058008
-0.066978984 -0.012315054 -0.2405763
-0.066976324 -0.012239262 -0.24056852
-0.066973567 -0.012163428 -0.24056274
-0.06697052 -0.012087462 -0.24056295
-0.066967741 -0.012013583 -0.24055922
-0.066964887 -0.011937704 -0.24055542
-0.066961154 -0.011861436 -0.24056962
-0.066955984 -0.011782565 -0.2406117
-0.066951372 -0.011705908 -0.24064387
-0.066948026 -0.011629813 -0.24065007
-0.066945173 -0.011553935 -0.24064629
-0.0669429 -0.011478316 -0.24063052
-0.066942371 -0.011405431 -0.24058084
-0.066942222 -0.011332719 -0.24052319
-0.066939466 -0.011256884 -0.24051741
-0.066935733 -0.011180617 -0.24053159
-0.066932298 -0.011104479 -0.24053979
-0.06692905 -0.011028427 -0.24054399
-0.066925608 -0.010952289 -0.24055219
-0.06692227 -0.010876195 -0.24055839
-0.066919394 -0.010802271 -0.24055664
-0.066916443 -0.010726349 -0.24055484
-0.066912904 -0.010650168 -0.24056505
-0.066909954 -0.010574247 -0.24056326
-0.066907585 -0.010498584 -0.24054947
-0.066904441 -0.010422576 -0.24055168
-0.066900313 -0.010346136 -0.24057387
-0.066895723 -0.010267524 -0.24060398
-0.066891797 -0.01019117 -0.24062216
-0.066889606 -0.010117549 -0.24060644
-0.066887528 -0.010042017 -0.24058668
-0.066884965 -0.0099662691 -0.24057689
-0.066882677 -0.0098926043 -0.24056318
-0.066880703 -0.009817115 -0.24054141
-0.066878334 -0.0097414544 -0.24052764
-0.06687595 -0.0096677467 -0.24051592
-0.066873483 -0.0095920414 -0.24050415
-0.06687139 -0.0095184632 -0.24048643
-0.06686902 -0.0094428016 -0.24047264
-0.066865973 -0.0093668373 -0.24047285
-0.066862628 -0.0092907418 -0.24047905
-0.066859484 -0.0092147347 -0.24048126
-0.066857114 -0.0091390721 -0.24046749
-0.066854455 -0.0090632811 -0.24045971
-0.066851012 -0.0089871427 -0.24046791
-0.066847384 -0.0089109186 -0.2404801
-0.066843063 -0.0088343909 -0.24050626
-0.066838667 -0.0087558655 -0.2405324
-0.066835329 -0.0086797709 -0.2405386
-0.066832468 -0.0086038923 -0.24053481
-0.066829987 -0.0085301418 -0.24052508
-0.066827908 -0.0084546097 -0.24050531
-0.066826403 -0.0083812922 -0.24047562
-0.066824131 -0.0083056735 -0.24045984
-0.066821843 -0.0082320096 -0.24044612
-0.066819474 -0.0081563471 -0.24043235
-0.066816136 -0.0080802534 -0.24043855
-0.066812597 -0.0080040712 -0.24044874
-0.066809349 -0.0079280203 -0.24045295
-0.066806398 -0.007852098 -0.24045116
-0.066803351 -0.0077761337 -0.24045137
-0.066800103 -0.0077000828 -0.24045557
-0.066797249 -0.0076242043 -0.24045178
-0.066794783 -0.0075484989 -0.24044001
-0.066792205 -0.0074747056 -0.24043226
-0.066789053 -0.0073986975 -0.24043447
-0.066785909 -0.0073226895 -0.24043667
-0.066781417 -0.0072441204 -0.24046481
-0.066776529 -0.007165378 -0.24050091
-0.066772237 -0.0070868963 -0.24052504
-0.066768892 -0.0070108026 -0.24053124
-0.066766135 -0.0069349669 -0.24052545
-0.066763751 -0.0068612602 -0.24051371
-0.066762336 -0.0067879856 -0.24048203
-0.066759869 -0.0067122811 -0.24047025
-0.066756725 -0.0066362722 -0.24047245
-0.066753581 -0.0065602642 -0.24047467
-0.066750333 -0.0064842124 -0.24047886
-0.066747479 -0.0064083347 -0.24047509
-0.066744916 -0.0063325865 -0.2404653
-0.066742823 -0.0062590092 -0.24044758
-0.066740647 -0.0061834324 -0.24042982
-0.066738069 -0.0061096391 -0.24042208
-0.066735208 -0.0060337605 -0.2404183
-0.066731773 -0.005957623 -0.2404265
-0.066727668 -0.005879228 -0.24044663
-0.066723272 -0.0058007017 -0.24047275
-0.066719539 -0.0057244357 -0.24048693
-0.066716515 -0.0056465156 -0.2404851
-0.066713542 -0.0055725481 -0.24048536
-0.066710591 -0.0054966258 -0.24048357
-0.066708319 -0.005421008 -0.2404678
-0.066706806 -0.0053476905 -0.24043809
-0.066705205 -0.0052743293 -0.24041039
-0.066703007 -0.0052007083 -0.24039468
-0.066700354 -0.0051249173 -0.24038689
-0.066697009 -0.0050488226 -0.24039309
-0.066693857 -0.0049728137 -0.24039529
-0.066690736 -0.0048948508 -0.24039546
-0.066687487 -0.0048187999 -0.24039966
-0.066684052 -0.0047426615 -0.24040785
-0.066681094 -0.0046667401 -0.24040607
-0.066678144 -0.0045908187 -0.24040428
-0.066675097 -0.0045148544 -0.24040449
-0.066671848 -0.0044388026 -0.24040869
-0.066667847 -0.0043604504 -0.24042682
-0.066663548 -0.0042819679 -0.24045095
-0.066660695 -0.0042060893 -0.24044716
-0.066658795 -0.0041325986 -0.24042544
-0.066656403 -0.0040588919 -0.24041373
-0.066653453 -0.0039829705 -0.24041194
-0.066651747 -0.0039095655 -0.24038623
-0.066651016 -0.0038365936 -0.24034055
-0.066649221 -0.0037631458 -0.24031684
-0.066646263 -0.0036872253 -0.24031505
-0.066643491 -0.0036133453 -0.24031131
-0.066640362 -0.0035353815 -0.24031147
-0.06663692 -0.003459244 -0.24031965
-0.06663321 -0.0033810223 -0.2403318
-0.066629574 -0.0033047963 -0.24034399
-0.066626325 -0.0032287454 -0.2403482
-0.066623181 -0.0031527383 -0.24035041
-0.066619664 -0.0030746022 -0.24035856
-0.06661652 -0.0029985933 -0.24036077
-0.066613562 -0.0029226718 -0.24035898
-0.06660831 -0.0028418032 -0.24040103
-0.06660296 -0.0027608899 -0.24044508
-0.066599719 -0.0026848391 -0.24044928
-0.066597059 -0.0026090471 -0.2404415
-0.066595256 -0.0025355993 -0.24041778
-0.06659402 -0.0024643661 -0.24038413
-0.066592604 -0.0023910906 -0.24035244
-0.066590242 -0.002315429 -0.24033865
-0.066587381 -0.0022395523 -0.24033488
-0.066584624 -0.0021637166 -0.2403291
-0.06658148 -0.0020877086 -0.24033131
-0.066577941 -0.0020115273 -0.2403415
-0.066574797 -0.0019355183 -0.24034369
-0.066571668 -0.0018575564 -0.24034387
-0.066568419 -0.0017815046 -0.24034807
-0.066565081 -0.00170541 -0.24035427
-0.066561759 -0.0016273614 -0.24035841
-0.06655851 -0.0015513096 -0.24036261
-0.066555269 -0.0014752578 -0.24036682
-0.066551462 -0.0013969932 -0.24038096
-0.066546768 -0.0013183374 -0.24041308
-0.066543058 -0.0012401156 -0.24042523
-0.066540591 -0.0011644103 -0.24041346
-0.066538028 -0.0010886621 -0.24040367
-0.066535547 -0.0010149106 -0.24039394
-0.066532791 -0.0009390749 -0.24038815
-0.066530988 -0.00086562708 -0.24036445
-0.066531859 -0.00079925731 -0.24029095
-0.066530153 -0.00072585233 -0.24026524
-0.06652683 -0.00064780191 -0.24026939
-0.066523485 -0.00057170726 -0.24027559
-0.066520728 -0.00049587339 -0.24026981
-0.066518247 -0.00042212382 -0.24026008
-0.066514924 -0.0003440734 -0.24026424
-0.066511482 -0.00026793405 -0.24027243
-0.066508256 -0.00018992834 -0.24027458
-0.066505112 -0.00011392124 -0.24027678
-0.06650167 -3.7783757e-05 -0.24028498
-0.06649778 4.2481348e-05 -0.24029908
-0.066493683 0.00012087636 -0.24031922
-0.066489577 0.00019927137 -0.24033935
-0.066486433 0.00027528033 -0.24034154
-0.066483475 0.00035120174 -0.24033976
-0.06648092 0.00042694993 -0.24033
-0.06647902 0.0005004406 -0.24030828
-0.066477783 0.00057167374 -0.24027464
-0.066477031 0.00064269081 -0.24023099
-0.06647484 0.00071631186 -0.24021527
-0.066471517 0.00079436041 -0.24021941
-0.066468075 0.00087049976 -0.24022761
-0.066464849 0.00094850548 -0.24022979
-0.066461995 0.0010243822 -0.240226
-0.066458948 0.0011003483 -0.24022621
-0.066455506 0.0011764858 -0.2402344
-0.066452183 0.0012545362 -0.24023855
-0.066449329 0.0013304129 -0.24023476
-0.066446088 0.0014064647 -0.24023896
-0.06644237 0.0014846865 -0.24025112
-0.066438466 0.0015629958 -0.24026726
-0.066434555 0.0016413052 -0.2402834
-0.066430844 0.0017195269 -0.24029553
-0.066427425 0.0017976202 -0.24030168
-0.066424549 0.001871543 -0.24029994
-0.066422284 0.0019471627 -0.24028417
-0.066420384 0.0020206515 -0.24026245
-0.06641905 0.0020919293 -0.2402308
-0.06641715 0.00216542 -0.2402091
-0.066414095 0.0022413861 -0.24020931
-0.066410579 0.0023195222 -0.24021746
-0.066407628 0.0023954436 -0.24021566
-0.066404678 0.002471365 -0.24021387
-0.066401161 0.0025495011 -0.24022204
-0.06639801 0.0026255101 -0.24022424
-0.066395156 0.0027013849 -0.24022044
-0.066392303 0.0027772635 -0.24021667
-0.066389449 0.002853144 -0.24021286
-0.066386297 0.0029291511 -0.24021506
-0.066382781 0.003007289 -0.24022323
-0.066378877 0.0030855983 -0.24023935
-0.066374399 0.0031661186 -0.24026546
-0.066370979 0.0032442119 -0.2402716
-0.066368401 0.0033180062 -0.24026385
-0.066366032 0.0033936687 -0.24025008
-0.066364035 0.0034672022 -0.24023037
-0.066362038 0.0035407357 -0.24021067
-0.066360511 0.0036120974 -0.240183
-0.066359274 0.0036833324 -0.24014935
-0.066356808 0.0037590377 -0.24013758
-0.066353664 0.0038350467 -0.24013978
-0.066350609 0.0039110109 -0.24013999
-0.066347949 0.0039868038 -0.24013221
-0.066345096 0.0040626805 -0.24012843
-0.066342048 0.0041386448 -0.24012864
-0.066338725 0.0042166933 -0.24013278
-0.066335574 0.0042927023 -0.24013498
-0.066332623 0.0043686256 -0.2401332
-0.066329867 0.0044444595 -0.24012741
-0.066326819 0.0045204237 -0.24012762
-0.066321582 0.0046032481 -0.24016765
-0.066316724 0.0046839453 -0.2402017
-0.066313595 0.0047619082 -0.24020186
-0.066310838 0.0048377421 -0.24019608
-0.066308454 0.0049114507 -0.24018435
-0.066306353 0.004985027 -0.24016663
-0.066304065 0.0050586928 -0.24015291
-0.066302069 0.0051322263 -0.2401332
-0.066299975 0.0052058026 -0.24011546
-0.066297024 0.0052817259 -0.24011368
-0.066294461 0.0053574722 -0.2401039
-0.066291802 0.0054332633 -0.24009612
-0.066288754 0.0055092294 -0.24009633
-0.066285603 0.0055852365 -0.24009854
-0.066283412 0.0056588575 -0.24008282
-0.066281237 0.0057344344 -0.24006504
-0.066277899 0.005810529 -0.24007125
-0.06627477 0.0058884919 -0.24007142
-0.066272482 0.0059621558 -0.24005769
-0.066269331 0.0060381629 -0.24005988
-0.066263631 0.0061231591 -0.24010783
-0.066259332 0.0062016416 -0.24013197
-0.066256307 0.0062795617 -0.24013013
-0.066253915 0.0063532665 -0.2401184
-0.066251725 0.0064268876 -0.24010268
-0.066249922 0.0065003335 -0.24007897
-0.066247731 0.0065739565 -0.24006325
-0.066245444 0.0066476185 -0.24004951
-0.066243641 0.0067210663 -0.24002582
-0.066241354 0.0067947302 -0.24001208
-0.066238008 0.0068708248 -0.24001828
-0.066234879 0.0069487896 -0.24001846
-0.066232122 0.0070246235 -0.24001268
-0.066229537 0.0070984177 -0.24000493
-0.066226885 0.0071742106 -0.23999715
-0.066223927 0.007250132 -0.23999536
-0.066220686 0.007326182 -0.23999956
-0.06621746 0.0074041877 -0.24000172
-0.066214211 0.0074802395 -0.24000593
-0.066210404 0.007558506 -0.24002007
-0.066206321 0.0076388568 -0.24003816
-0.066203468 0.0077147335 -0.24003437
-0.066200711 0.0077905692 -0.24002859
-0.066197194 0.0078687035 -0.24003673
-0.066194706 0.0079424549 -0.24002701
-0.066192903 0.0080159027 -0.24000329
-0.066190712 0.0080895238 -0.23998758
-0.066188425 0.0081631877 -0.23997384
-0.066185571 0.0082390644 -0.23997006
-0.066182718 0.0083149429 -0.23996627
-0.066179857 0.0083908234 -0.23996249
-0.066176906 0.0084667448 -0.2399607
-0.066174619 0.0085404087 -0.23994698
-0.066172332 0.0086140726 -0.23993325
-0.067624949 -0.039909694 -0.24134168
-0.067622304 -0.039831951 -0.24133186
-0.067619666 -0.039754204 -0.24132204
-0.067618407 -0.039675109 -0.24128219
-0.067616783 -0.039593887 -0.24124831
-0.067614242 -0.039516181 -0.24123649
-0.067611501 -0.039438393 -0.24122867
-0.067608625 -0.039364468 -0.24122694
-0.06760487 -0.039290156 -0.24124315
-0.067601122 -0.03921584 -0.2412594
-0.067598164 -0.039139919 -0.24125761
-0.067595623 -0.039062217 -0.24124578
-0.06759306 -0.038986471 -0.241236
-0.067590006 -0.038910508 -0.24123621
-0.067586765 -0.038834453 -0.24124041
-0.067583591 -0.038760401 -0.24124466
-0.067579746 -0.038686045 -0.24126288
-0.067575172 -0.038615294 -0.24129918
-0.06757132 -0.038540937 -0.24131742
-0.067568466 -0.03846506 -0.24131364
-0.067565605 -0.038389184 -0.24130985
-0.06756328 -0.038309611 -0.24129198
-0.067560911 -0.038233951 -0.24127822
-0.067557961 -0.038158029 -0.24127643
-0.067555219 -0.038080238 -0.2412686
-0.067552559 -0.038004447 -0.24126081
-0.067550115 -0.037926786 -0.241247
-0.06754718 -0.037848912 -0.24124315
-0.06754382 -0.037774771 -0.24125141
-0.067540862 -0.03769885 -0.24124962
-0.067538515 -0.03762123 -0.2412338
-0.067536384 -0.037541747 -0.24121195
-0.067534111 -0.037466131 -0.24119619
-0.06753096 -0.03739012 -0.24119839
-0.067527622 -0.037314028 -0.24120459
-0.067523964 -0.037239756 -0.24121882
-0.067520089 -0.037167355 -0.24123909
-0.067516245 -0.037092999 -0.24125731
-0.067512877 -0.037018858 -0.24126557
-0.067510039 -0.036941025 -0.24125972
-0.06750758 -0.03686532 -0.24124795
-0.067505032 -0.036787618 -0.24123612
-0.067502901 -0.036708131 -0.24121428
-0.067501254 -0.036628865 -0.24118245
-0.067499198 -0.036551379 -0.24116063
-0.067496054 -0.036475368 -0.24116284
-0.067492612 -0.03639923 -0.24117103
-0.067489639 -0.036325265 -0.24117127
-0.067486681 -0.036249343 -0.24116948
-0.067483753 -0.036171466 -0.24116567
-0.067481086 -0.036095671 -0.24115789
-0.067478254 -0.036017843 -0.24115205
-0.067475304 -0.035941921 -0.24115026
-0.067472346 -0.035866 -0.24114847
-0.06746918 -0.035791948 -0.24115273
-0.067465641 -0.035715766 -0.24116291
-0.067461669 -0.035643321 -0.24118519
-0.067457408 -0.035570744 -0.24121344
-0.067453757 -0.035496477 -0.24122769
-0.067450725 -0.035418555 -0.24122584
-0.067448162 -0.035342809 -0.24121606
-0.067445226 -0.035264932 -0.24121223
-0.06744317 -0.035187446 -0.24119043
-0.067442134 -0.03510648 -0.24114457
-0.067440078 -0.035028994 -0.24112275
-0.06743712 -0.034953073 -0.24112096
-0.067434169 -0.034877151 -0.24111918
-0.067431018 -0.034801144 -0.24112138
-0.067427561 -0.034726962 -0.24113162
-0.067424312 -0.034650907 -0.24113582
-0.067421168 -0.034574904 -0.24113803
-0.067417823 -0.034498807 -0.24114423
-0.067414753 -0.034424797 -0.24114648
-0.067411505 -0.034348745 -0.24115068
-0.067408159 -0.034272652 -0.24115688
-0.067404799 -0.034198508 -0.24116513
-0.067400344 -0.03412585 -0.24119738
-0.067396298 -0.034051407 -0.24121961
-0.067393638 -0.033975616 -0.24121182
-0.067391187 -0.033897955 -0.241198
-0.06738884 -0.033820339 -0.24118218
-0.06738659 -0.033742763 -0.24116437
-0.067384847 -0.033663455 -0.24113452
-0.067383498 -0.033584315 -0.24109669
-0.067380853 -0.033506569 -0.24108687
-0.067377396 -0.033432387 -0.24109712
-0.067374051 -0.03335629 -0.24110332
-0.067371003 -0.033280328 -0.24110352
-0.067368045 -0.033204406 -0.24110173
-0.067365289 -0.033128571 -0.24109593
-0.067362748 -0.033050865 -0.24108413
-0.067360185 -0.032975119 -0.24107435
-0.067357324 -0.032899238 -0.24107055
-0.067354277 -0.032823276 -0.24107078
-0.067350931 -0.032747179 -0.24107696
-0.067346886 -0.032672741 -0.24109919
-0.067342721 -0.032600205 -0.24112546
-0.067338988 -0.032523938 -0.24113964
-0.067336231 -0.032448106 -0.24113385
-0.067334466 -0.032370746 -0.24110606
-0.067332216 -0.032293171 -0.24108824
-0.067329578 -0.032215428 -0.24107842
-0.067327619 -0.032137983 -0.24105462
-0.067325659 -0.032060541 -0.24103081
-0.067322515 -0.03198453 -0.24103302
-0.067318954 -0.031910304 -0.24104527
-0.067315511 -0.031834166 -0.24105346
-0.067312464 -0.031758204 -0.24105366
-0.067309804 -0.031682413 -0.24104588
-0.067306966 -0.031604581 -0.24104005
-0.067303814 -0.03152857 -0.24104226
-0.067300864 -0.031452648 -0.24104047
-0.067297712 -0.031376638 -0.24104267
-0.067294255 -0.031302456 -0.2410529
-0.06729091 -0.031226363 -0.24105909
-0.067287154 -0.031152051 -0.24107534
-0.067283012 -0.031077564 -0.24109957
-0.067279361 -0.031003293 -0.24111378
-0.067276798 -0.030927546 -0.24110402
-0.06727466 -0.03084806 -0.24108216
-0.067273095 -0.03077079 -0.24105036
-0.067271352 -0.030691478 -0.24102053
-0.067268983 -0.030615818 -0.24100675
-0.067265935 -0.030539852 -0.24100696
-0.067263387 -0.03046215 -0.24099514
-0.067260534 -0.030386271 -0.24099135
-0.067257173 -0.030312132 -0.24099959
-0.067254119 -0.030236166 -0.2409998
-0.067251578 -0.030158464 -0.24098799
-0.067249015 -0.030082714 -0.2409782
-0.067246258 -0.03000688 -0.24097243
-0.067243323 -0.029929005 -0.24096859
-0.06724035 -0.029855037 -0.24096885
-0.067237005 -0.029778942 -0.24097504
-0.067233056 -0.029704543 -0.24099526
-0.067228504 -0.029631838 -0.24102952
-0.067224674 -0.029555526 -0.24104571
-0.067221403 -0.02948143 -0.24105194
-0.067218646 -0.029405596 -0.24104616
-0.067216612 -0.029326152 -0.24102232
-0.06721504 -0.029248882 -0.24099052
-0.06721279 -0.02917131 -0.2409727
-0.067209743 -0.029095344 -0.24097291
-0.06720648 -0.029021248 -0.24097916
-0.067203328 -0.028945241 -0.24098137
-0.067200281 -0.028869275 -0.24098158
-0.067197129 -0.028793268 -0.24098378
-0.067194372 -0.028717432 -0.24097799
-0.067191824 -0.02863973 -0.24096617
-0.067189366 -0.028564025 -0.2409544
-0.067186117 -0.028487973 -0.2409586
-0.067182772 -0.02841188 -0.2409648
-0.067179725 -0.028335914 -0.24096501
-0.067176551 -0.028261861 -0.24096927
-0.067172527 -0.028185463 -0.24098945
-0.067168966 -0.028111236 -0.24100168
-0.067165919 -0.028035272 -0.24100187
-0.067163065 -0.027959393 -0.24099809
-0.06716001 -0.027883429 -0.2409983
-0.067157567 -0.027805768 -0.2409845
-0.067156002 -0.027728498 -0.2409527
-0.067153946 -0.027651012 -0.24093089
-0.067150891 -0.027575046 -0.24093109
-0.067147724 -0.027500993 -0.24093534
-0.067144774 -0.027425073 -0.24093354
-0.067141816 -0.027349152 -0.24093175
-0.067138568 -0.0272731 -0.24093597
-0.06713552 -0.027197134 -0.24093616
-0.06713286 -0.027121343 -0.24092838
-0.06712991 -0.027045421 -0.24092659
-0.067126952 -0.0269695 -0.24092481
-0.067124411 -0.026891798 -0.24091299
-0.067121148 -0.0268177 -0.24091923
-0.067116611 -0.026743041 -0.24095145
-0.067112073 -0.026668381 -0.24098365
-0.067108132 -0.026593981 -0.24100389
-0.067105077 -0.026518017 -0.24100408
-0.067102805 -0.026442397 -0.24098831
-0.067100145 -0.026366606 -0.24098054
-0.067096904 -0.026290556 -0.24098474
-0.067093559 -0.02621446 -0.24099094
-0.067091092 -0.026138756 -0.24097916
-0.067089327 -0.026061399 -0.24095136
-0.067087173 -0.025983868 -0.24093156
-0.06708461 -0.02590812 -0.24092178
-0.067081854 -0.025832284 -0.24091598
-0.067078315 -0.025756104 -0.24092618
-0.067075171 -0.025680097 -0.24092838
-0.067072406 -0.025604261 -0.2409226
-0.06706965 -0.025528427 -0.24091682
-0.067066796 -0.025452549 -0.24091303
-0.067063846 -0.025376627 -0.24091125
-0.067060381 -0.025302444 -0.2409215
-0.067056336 -0.025228001 -0.24094371
-0.067052014 -0.025151473 -0.2409699
-0.06704887 -0.025075465 -0.24097209
-0.067046307 -0.024999717 -0.2409623
-0.067043938 -0.024924055 -0.24094853
-0.067041568 -0.024848394 -0.24093476
-0.067039222 -0.024770778 -0.24091895
-0.067038335 -0.024693809 -0.24087317
-0.067036472 -0.024616409 -0.24084738
-0.067033522 -0.024540488 -0.24084559
-0.06702996 -0.024466261 -0.24085782
-0.067026623 -0.024390165 -0.24086401
-0.06702406 -0.024314418 -0.24085423
-0.067021199 -0.02423854 -0.24085045
-0.067018248 -0.024162617 -0.24084866
-0.067015201 -0.024086654 -0.24084887
-0.067012146 -0.024010688 -0.24084909
-0.067009173 -0.023936722 -0.24084935
-0.067006238 -0.023858845 -0.2408455
-0.067002974 -0.023784749 -0.24085175
-0.066999026 -0.02371035 -0.24087198
-0.066994905 -0.023633908 -0.24089414
-0.066991344 -0.023559682 -0.24090639
-0.066987321 -0.023483284 -0.24092656
-0.066983856 -0.0234091 -0.24093682
-0.066981509 -0.023331484 -0.24092099
-0.066979527 -0.023255996 -0.24089924
-0.066977456 -0.023180464 -0.24087948
-0.0669754 -0.023102976 -0.24085766
-0.066972449 -0.023027055 -0.24085587
-0.066969275 -0.022953002 -0.24086012
-0.066966444 -0.022875169 -0.24085429
-0.066963688 -0.022799335 -0.24084851
-0.066960439 -0.022723284 -0.24085271
-0.066957369 -0.022649273 -0.24085496
-0.066954315 -0.022573307 -0.24085516
-0.066951461 -0.02249743 -0.24085137
-0.066949189 -0.022421811 -0.24083561
-0.066946842 -0.022344194 -0.24081981
-0.066943288 -0.022269968 -0.24083203
-0.066938654 -0.022195265 -0.24086624
-0.066934332 -0.022118738 -0.24089241
-0.066930972 -0.022044599 -0.24090067
-0.066928424 -0.021966895 -0.24088883
-0.066925861 -0.021891147 -0.24087906
-0.066923499 -0.021815486 -0.24086529
-0.066921614 -0.02174004 -0.24084154
-0.066919833 -0.021664638 -0.24081576
-0.066917486 -0.02158702 -0.24079995
-0.066914633 -0.021511143 -0.24079616
-0.066911556 -0.021437133 -0.24079841
-0.066908412 -0.021361124 -0.24080062
-0.06690526 -0.021285117 -0.24080282
-0.066902213 -0.021209151 -0.24080303
-0.066899158 -0.021133186 -0.24080324
-0.066896379 -0.021059306 -0.24079952
-0.066893138 -0.020983255 -0.24080372
-0.066889599 -0.020907074 -0.24081391
-0.066885963 -0.020830849 -0.2408261
-0.066881627 -0.020756276 -0.24085431
-0.066877283 -0.020681703 -0.24088252
-0.066873938 -0.020605609 -0.24088873
-0.066870794 -0.020529602 -0.24089092
-0.066867739 -0.020453636 -0.24089113
-0.066864595 -0.020377629 -0.24089333
-0.066862009 -0.020303834 -0.24088562
-0.066860639 -0.020226652 -0.24084982
-0.06685856 -0.02015112 -0.24083006
-0.066855513 -0.020075154 -0.24083026
-0.06685295 -0.019999405 -0.24082048
-0.066850387 -0.019923657 -0.24081071
-0.066847533 -0.019847779 -0.24080692
-0.066844575 -0.019771857 -0.24080513
-0.066842012 -0.019696109 -0.24079534
-0.066839449 -0.019620361 -0.24078557
-0.066836476 -0.019546393 -0.24078584
-0.066833228 -0.019470343 -0.24079002
-0.066830471 -0.019394508 -0.24078424
-0.066827327 -0.019318501 -0.24078645
-0.066823788 -0.019242318 -0.24079666
-0.06682013 -0.019168049 -0.24081087
-0.066816688 -0.019091912 -0.24081907
-0.066813447 -0.01901586 -0.24082328
-0.066811174 -0.01894024 -0.2408075
-0.066809192 -0.018864753 -0.24078575
-0.066807024 -0.018789176 -0.24076799
-0.066804849 -0.018713601 -0.24075022
-0.066802479 -0.018637938 -0.24073645
-0.066800207 -0.018562321 -0.24072069
-0.066797547 -0.01848653 -0.2407129
-0.066794306 -0.018410478 -0.24071711
-0.066790864 -0.01833434 -0.24072529
-0.066787399 -0.018260157 -0.24073553
-0.066784158 -0.018184105 -0.24073973
-0.066781402 -0.018108271 -0.24073395
-0.066778839 -0.018032521 -0.24072418
-0.066775687 -0.017956514 -0.24072638
-0.066772439 -0.017880462 -0.24073058
-0.066769294 -0.017804455 -0.24073279
-0.066765055 -0.017729925 -0.24075902
-0.066760443 -0.017653268 -0.24079117
-0.066757001 -0.01757713 -0.24079937
-0.066754319 -0.017503293 -0.24079363
-0.066751875 -0.017425634 -0.2407798
-0.066749781 -0.017352056 -0.24076208
-0.066749163 -0.017277174 -0.24071236
-0.066747695 -0.017199945 -0.24067858
-0.066744722 -0.017125979 -0.24067883
-0.06674128 -0.017049842 -0.24068703
-0.066737935 -0.016973747 -0.24069323
-0.066734493 -0.016897609 -0.24070142
-0.066731542 -0.016821686 -0.24069963
-0.066729061 -0.016747937 -0.2406899
-0.066726103 -0.016672015 -0.24068812
-0.06672325 -0.016596137 -0.24068433
-0.066720098 -0.016520128 -0.24068654
-0.066716656 -0.01644399 -0.24069473
-0.066713102 -0.016369764 -0.24070697
-0.066709176 -0.01629341 -0.24072516
-0.066705339 -0.0162171 -0.24074134
-0.066702291 -0.016141135 -0.24074154
-0.066699728 -0.016065385 -0.24073176
-0.06669648 -0.015989335 -0.24073596
-0.066693142 -0.015913241 -0.24074218
-0.066691041 -0.015839662 -0.24072444
-0.066690922 -0.015764996 -0.24066475
-0.066689625 -0.015689811 -0.24062899
-0.066687256 -0.015614148 -0.24061522
-0.066684984 -0.015538529 -0.24059945
-0.066682614 -0.015462868 -0.24058568
-0.066679545 -0.015388858 -0.24058793
-0.066676199 -0.015312763 -0.24059413
-0.066672765 -0.015236625 -0.24060233
-0.066669129 -0.0151604 -0.24061453
-0.066666268 -0.015084523 -0.24061073
-0.066664368 -0.015011031 -0.24058902
-0.066661805 -0.014935283 -0.24057925
-0.066658564 -0.014859232 -0.24058345
-0.066654146 -0.014782662 -0.24061161
-0.066649146 -0.014705831 -0.24065176
-0.066645406 -0.014629563 -0.24066594
-0.06664294 -0.014553858 -0.24065417
-0.06664028 -0.014478067 -0.24064639
-0.066637136 -0.014402058 -0.2406486
-0.066634357 -0.014328178 -0.24064487
-0.06663277 -0.014252862 -0.24061511
-0.066630796 -0.014177374 -0.24059334
-0.066628031 -0.014101539 -0.24058756
-0.066624887 -0.014025531 -0.24058977
-0.066621713 -0.013951477 -0.24059403
-0.066618375 -0.013875383 -0.24060023
-0.066615418 -0.013799461 -0.24059844
-0.066612467 -0.013723539 -0.24059665
-0.066609614 -0.013647662 -0.24059287
-0.066607222 -0.013573954 -0.24058113
-0.066604272 -0.013498032 -0.24057934
-0.066600442 -0.013421722 -0.24059552
-0.066596121 -0.013345194 -0.24062169
-0.06659133 -0.013266496 -0.24065581
-0.06658797 -0.013192356 -0.24066405
-0.066585019 -0.013116434 -0.24066226
-0.066581771 -0.013040383 -0.24066646
-0.066579401 -0.012964722 -0.24065268
-0.066577621 -0.012889319 -0.24062693
-0.066576108 -0.012816002 -0.24059723
-0.066574618 -0.012740728 -0.24056548
-0.066572152 -0.012665024 -0.24055371
-0.066569276 -0.0125911 -0.24055196
-0.066566423 -0.012515223 -0.24054818
-0.066563174 -0.012439171 -0.24055238
-0.066559739 -0.012363033 -0.24056058
-0.066556878 -0.012287155 -0.24055681
-0.066554315 -0.012211407 -0.24054702
-0.066552028 -0.012137742 -0.24053329
-0.066549078 -0.01206182 -0.2405315
-0.066545337 -0.011985552 -0.24054569
-0.066541702 -0.011909328 -0.24055788
-0.066538259 -0.011833191 -0.24056607
-0.066534162 -0.011754796 -0.24058622
-0.066530131 -0.011678398 -0.24060638
-0.066527255 -0.011604474 -0.24060464
-0.066525668 -0.011529159 -0.2405749
-0.066524059 -0.011455798 -0.2405472
-0.066522568 -0.011380525 -0.24051544
-0.066521063 -0.011307207 -0.24048576
-0.066517912 -0.011231199 -0.24048793
-0.06651447 -0.011155061 -0.24049614
-0.066511519 -0.01107914 -0.24049436
-0.066508472 -0.011003175 -0.24049456
-0.066505127 -0.01092708 -0.24050076
-0.066501684 -0.010850943 -0.24050896
-0.066498637 -0.010774978 -0.24050917
-0.066495679 -0.010699056 -0.24050736
-0.066492535 -0.010623048 -0.24050957
-0.06648919 -0.010546953 -0.24051578
-0.066485725 -0.01047277 -0.24052602
-0.066482209 -0.010394635 -0.24053417
-0.066478088 -0.010318194 -0.24055636
-0.066473767 -0.010241667 -0.24058253
-0.066470914 -0.010165787 -0.24057874
-0.066468351 -0.01009004 -0.24056895
-0.066465788 -0.010014292 -0.24055918
-0.066464178 -0.0099409297 -0.24053147
-0.066462666 -0.0098676123 -0.24050176
-0.0664602 -0.0097919069 -0.24048999
-0.066457637 -0.0097161587 -0.24048021
-0.066455059 -0.0096423654 -0.24047248
-0.06645181 -0.0095663136 -0.2404767
-0.066448756 -0.0094903484 -0.24047689
-0.066446289 -0.009414644 -0.24046512
-0.066443928 -0.0093389824 -0.24045134
-0.06644097 -0.009263061 -0.24044955
-0.066438287 -0.0091892239 -0.24044381
-0.066435926 -0.0091135614 -0.24043006
-0.066433363 -0.0090378132 -0.24042027
-0.06643039 -0.0089638466 -0.24042052
-0.066426575 -0.008885581 -0.24043468
-0.066421866 -0.008808881 -0.24046883
-0.066417761 -0.0087304851 -0.24048896
-0.066414811 -0.0086545628 -0.24048717
-0.066412225 -0.0085807694 -0.24047944
-0.066409469 -0.0085049346 -0.24047366
-0.066407196 -0.0084293159 -0.24045788
-0.066406079 -0.0083561707 -0.24042019
-0.066404663 -0.0082828971 -0.24038848
-0.066401616 -0.0082069319 -0.24038869
-0.066397414 -0.0081284931 -0.24041083
-0.06639339 -0.0080520958 -0.24043101
-0.066390626 -0.007976261 -0.24042521
-0.066387773 -0.0079003824 -0.24042144
-0.066384897 -0.0078264587 -0.24041969
-0.066382043 -0.0077505801 -0.2404159
-0.066379286 -0.0076747462 -0.24041012
-0.066376232 -0.0075987801 -0.24041033
-0.066372596 -0.0075225569 -0.24042252
-0.06636896 -0.0074463319 -0.24043471
-0.066364661 -0.0073678503 -0.24045885
-0.066359781 -0.0072891088 -0.24049494
-0.066356435 -0.0072130132 -0.24050114
-0.066353872 -0.0071372651 -0.24049136
-0.066350818 -0.0070613008 -0.24049158
-0.066347867 -0.0069853794 -0.2404898
-0.066345483 -0.0069116717 -0.24047805
-0.066343598 -0.0068362262 -0.24045432
-0.066341892 -0.0067628222 -0.2404286
-0.066339038 -0.0066869445 -0.24042481
-0.066335596 -0.0066108061 -0.24043301
-0.066332348 -0.0065347543 -0.24043721
-0.066329494 -0.0064588767 -0.24043342
-0.066326931 -0.0063831285 -0.24042365
-0.066324353 -0.0063093342 -0.2404159
-0.066321686 -0.0062335432 -0.24040812
-0.066318832 -0.0061576637 -0.24040434
-0.066315487 -0.006081569 -0.24041054
-0.066311873 -0.0060033901 -0.24042068
-0.066308334 -0.0059272088 -0.24043088
-0.066304035 -0.0058487281 -0.240455
-0.066299915 -0.005772287 -0.24047719
-0.066297151 -0.0056964513 -0.24047139
-0.06629508 -0.0056209201 -0.24045163
-0.066292591 -0.0055471696 -0.2404419
-0.066290125 -0.0054714642 -0.24043012
-0.066288911 -0.0053982763 -0.24039444
-0.066287987 -0.0053252187 -0.24035275
-0.066285111 -0.005251294 -0.24035101
-0.066281103 -0.0051729428 -0.24036914
-0.066277564 -0.0050967615 -0.24037933
-0.066274516 -0.0050207954 -0.24037954
-0.066271953 -0.0049450472 -0.24036977
-0.06626986 -0.0048714699 -0.24035203
-0.066266708 -0.0047954628 -0.24035425
-0.066263191 -0.0047173267 -0.24036241
-0.066260234 -0.0046414044 -0.24036062
-0.066256993 -0.0045653544 -0.24036482
-0.066253453 -0.0044891732 -0.24037501
-0.066249914 -0.004412991 -0.2403852
-0.066245809 -0.004334596 -0.24040534
-0.066241995 -0.0042563304 -0.24041948
-0.066239432 -0.0041805822 -0.2404097
-0.06623666 -0.0041067023 -0.24040596
-0.066233605 -0.0040307371 -0.24040616
-0.066230945 -0.0039549451 -0.24039838
-0.066228673 -0.0038793255 -0.24038261
-0.066227064 -0.0038059652 -0.24035491
-0.066224873 -0.0037323451 -0.24033919
-0.066222213 -0.0036565531 -0.24033141
-0.066219456 -0.0035807183 -0.24032563
-0.066216484 -0.0035067517 -0.24032587
-0.066214114 -0.0034310892 -0.2403121
-0.066211455 -0.0033552982 -0.24030432
-0.066208206 -0.0032792464 -0.24030852
-0.066205062 -0.0032032374 -0.24031073
-0.066201814 -0.0031271875 -0.24031493
-0.066198587 -0.0030491808 -0.24031709
-0.06619554 -0.0029732166 -0.2403173
-0.066191509 -0.0028968193 -0.24033748
-0.066186175 -0.0028139502 -0.24037948
-0.066182539 -0.002737727 -0.24039167
-0.066180177 -0.0026620654 -0.2403779
-0.066177785 -0.0025883578 -0.24036616
-0.066175126 -0.0025125658 -0.2403584
-0.066172659 -0.0024368614 -0.24034661
-0.066170938 -0.0023654113 -0.24032296
-0.066169247 -0.0022900524 -0.2402952
-0.066166766 -0.0022163019 -0.24028549
-0.066164106 -0.0021405108 -0.24027768
-0.06616164 -0.0020648045 -0.24026591
-0.066158667 -0.001990838 -0.24026617
-0.066154949 -0.0019126162 -0.24027832
-0.066151433 -0.0018344801 -0.24028647
-0.066148557 -0.0017605564 -0.24028473
-0.066145331 -0.0016825506 -0.24028689
-0.066141985 -0.001606456 -0.24029309
-0.066138662 -0.0015284065 -0.24029724
-0.066135027 -0.0014521834 -0.24030942
-0.066130728 -0.0013737008 -0.24033356
-0.06612616 -0.0012931339 -0.24036163
-0.066122815 -0.0012170393 -0.24036783
-0.066120155 -0.0011412483 -0.24036005
-0.066117957 -0.0010676272 -0.24034432
-0.066115499 -0.00099192187 -0.24033254
-0.066113301 -0.00091830082 -0.24031682
-0.066111691 -0.00084493868 -0.24028912
-0.066110454 -0.0007737074 -0.24025548
-0.066108659 -0.00070025958 -0.24023177
-0.066106096 -0.00062451139 -0.24022198
-0.066103429 -0.0005487185 -0.2402142
-0.066100948 -0.00047496893 -0.24020448
-0.066097721 -0.00039696321 -0.24020663
-0.066094086 -0.00032073818 -0.24021882
-0.066090763 -0.00024268776 -0.24022296
-0.066087902 -0.00016681105 -0.24021919
-0.066084757 -9.0802088e-05 -0.2402214
-0.066081509 -1.475215e-05 -0.2402256
-0.066078365 6.1256811e-05 -0.2402278
-0.066073596 0.00014190935 -0.24025986
-0.066069312 0.00022234768 -0.24028194
-0.066066444 0.00029627047 -0.24028021
-0.066063412 0.00037419051 -0.24027836
-0.066060163 0.00045024045 -0.24028258
-0.066057697 0.0005259458 -0.24027081
-0.06605617 0.00059730932 -0.24024314
-0.066054754 0.00067058206 -0.24021143
-0.06605266 0.00074416026 -0.24019372
-0.066049807 0.00082003884 -0.24018994
-0.066046186 0.00089821965 -0.24020007
-0.066042751 0.00097435713 -0.24020828
-0.066039987 0.001050191 -0.24020249
-0.066037133 0.0011260677 -0.2401987
-0.06603457 0.0012018178 -0.24018893
-0.06603238 0.0012754388 -0.24017321
-0.066029519 0.0013513155 -0.24016942
-0.06602598 0.0014274977 -0.24017961
-0.066022195 0.0015077181 -0.2401917
-0.066017501 0.001586372 -0.24022382
-0.06601207 0.001669284 -0.24026784
-0.066008456 0.0017474629 -0.24027798
-0.066006072 0.0018211715 -0.24026625
-0.066003509 0.0018969197 -0.24025646
-0.066002071 0.0019682404 -0.24022682
-0.066001132 0.0020393413 -0.24018717
-0.065999329 0.0021127909 -0.24016346
-0.065996937 0.0021864958 -0.24015173
-0.065994374 0.0022622459 -0.24014196
-0.065991424 0.0023381673 -0.24014017
-0.065987706 0.0024163891 -0.24015231
-0.065984383 0.0024944395 -0.24015647
-0.06598141 0.0025684051 -0.24015671
-0.065978475 0.0026462823 -0.2401529
-0.065975428 0.0027222447 -0.2401531
-0.065971717 0.0028004684 -0.24016523
-0.065968275 0.0028766058 -0.24017343
-0.065965049 0.0029546116 -0.24017559
-0.065961428 0.0030327924 -0.24018574
-0.065957226 0.0031112283 -0.24020787
-0.065953046 0.0031916238 -0.24022797
-0.065949999 0.0032675881 -0.24022816
-0.065947138 0.0033434667 -0.24022438
-0.065944575 0.0034192149 -0.24021459
-0.065942556 0.0034907945 -0.24019693
-0.065941148 0.003564069 -0.24016523
-0.06593962 0.0036354326 -0.24013756
-0.065937154 0.0037111379 -0.24012579
-0.0659343 0.0037870146 -0.24012201
-0.065930858 0.0038631521 -0.2401302
-0.065927632 0.0039411597 -0.24013236
-0.065925531 0.004014736 -0.24011464
-0.065923437 0.0040883143 -0.24009693
-0.065920487 0.0041642357 -0.24009514
-0.06591697 0.0042423718 -0.24010327
-0.065913819 0.0043183807 -0.24010548
-0.065911159 0.0043941699 -0.2400977
-0.065908402 0.0044700056 -0.24009192
-0.0659042 0.0045484453 -0.24011405
-0.065899253 0.0046311412 -0.24014807
-0.065895915 0.004707234 -0.24015427
-0.065893352 0.0047829822 -0.24014449
-0.065890864 0.0048567317 -0.24013476
-0.065888494 0.0049323943 -0.24012098
-0.065886304 0.0050060153 -0.24010527
-0.06588421 0.0050795935 -0.24008754
-0.065882675 0.0051509552 -0.24005988
-0.065880112 0.0052267034 -0.24005011
-0.065875836 0.0053071417 -0.24007219
-0.065871924 0.0053854492 -0.24008834
-0.065869361 0.0054611973 -0.24007855
-0.06586688 0.0055349488 -0.24006882
-0.065863729 0.0056109577 -0.24007103
-0.065860599 0.0056889206 -0.24007119
-0.065858118 0.0057626702 -0.24006146
-0.065855652 0.0058383755 -0.24004969
-0.06585297 0.0059122127 -0.24004395
-0.065850019 0.0059881322 -0.24004215
-0.065846033 0.0060684402 -0.24005824
-0.065841556 0.0061489642 -0.24008432
-0.065838307 0.006225016 -0.24008852
-0.06583555 0.0063008517 -0.24008274
-0.065832794 0.0063766837 -0.24007696
-0.065830231 0.0064524319 -0.24006718
-0.065827847 0.0065261405 -0.24005544
-0.065825745 0.0065997168 -0.24003774
-0.065824412 0.0066709947 -0.24000609
-0.065824114 0.006737886 -0.23995656
-0.065822504 0.0068112463 -0.23992884
-0.06581869 0.0068895109 -0.239943
-0.065814786 0.0069678202 -0.23995912
-0.06581156 0.0070458278 -0.23996128
-0.065808602 0.0071217492 -0.23995949
-0.065805748 0.0071976278 -0.23995569
-0.065803364 0.0072713327 -0.23994398
-0.065800697 0.0073471256 -0.2399362
-0.065797552 0.0074231327 -0.23993839
-0.065793939 0.0075013116 -0.23994854
-0.065788992 0.0075840093 -0.23998258
-0.065783665 0.0076668747 -0.24002458
-0.065780237 0.0077449679 -0.24003072
-0.065777853 0.0078186765 -0.24001899
-0.065775461 0.0078923814 -0.24000727
-0.065773465 0.0079659149 -0.23998755
-0.065773085 0.0080348048 -0.23993796
-0.065772317 0.0081038661 -0.23989639
-0.06576927 0.0081798322 -0.2398966
-0.065765552 0.008258054 -0.23990873
-0.065761842 0.008336274 -0.23992087
-0.065758519 0.0084143244 -0.23992503
-0.065755755 0.008490162 -0.23991925
-0.065752611 0.0085661691 -0.23992145
-0.067325212 -0.039949551 -0.24133049
-0.067322649 -0.039873801 -0.24132071
-0.067319788 -0.039797924 -0.24131693
-0.067316227 -0.039723698 -0.24132916
-0.067313582 -0.039645951 -0.24131933
-0.067312248 -0.039564855 -0.24127945
-0.067310505 -0.039485544 -0.24124962
-0.06730786 -0.039407801 -0.24123979
-0.067304395 -0.039333619 -0.24125004
-0.067300446 -0.039259218 -0.24127026
-0.067297272 -0.039185166 -0.24127451
-0.067294635 -0.03910742 -0.24126469
-0.067292184 -0.039029758 -0.24125087
-0.067289323 -0.038953878 -0.24124709
-0.067286372 -0.038877957 -0.24124528
-0.067283295 -0.03880395 -0.24124755
-0.067279659 -0.038727723 -0.24125974
-0.067275591 -0.038655236 -0.24128401
-0.067271717 -0.038582835 -0.24130428
-0.067268468 -0.038506784 -0.24130848
-0.067265101 -0.038432643 -0.24131674
-0.067261562 -0.038356461 -0.24132691
-0.067259192 -0.0382808 -0.24131314
-0.067257054 -0.038201317 -0.2412913
-0.067254804 -0.038123742 -0.24127348
-0.067252666 -0.038044259 -0.24125162
-0.067250222 -0.037966598 -0.2412378
-0.067247048 -0.037892547 -0.24124205
-0.067243777 -0.037818447 -0.24124829
-0.067240551 -0.037740443 -0.24125046
-0.067237675 -0.037666522 -0.24124871
-0.06723503 -0.037588775 -0.24123889
-0.067232385 -0.037511028 -0.24122906
-0.067229427 -0.037435107 -0.24122727
-0.067226574 -0.037359226 -0.24122348
-0.067223907 -0.037283435 -0.24121571
-0.067220464 -0.037207298 -0.2412239
-0.06721659 -0.037134897 -0.24124418
-0.067212939 -0.037060626 -0.24125841
-0.067209885 -0.036984663 -0.24125862
-0.067207024 -0.036908783 -0.24125484
-0.067204498 -0.036829129 -0.24124098
-0.067202345 -0.036751598 -0.24122116
-0.067200594 -0.036672283 -0.24119133
-0.06719885 -0.036592975 -0.24116147
-0.06719628 -0.036517225 -0.24115169
-0.067193136 -0.036441214 -0.2411539
-0.067190371 -0.036365382 -0.24114811
-0.067187726 -0.036287636 -0.24113829
-0.067184672 -0.036211669 -0.2411385
-0.067181528 -0.036135666 -0.24114071
-0.067178182 -0.03605957 -0.24114691
-0.067174815 -0.035985429 -0.24115515
-0.06717176 -0.035909463 -0.24115536
-0.067168802 -0.035833545 -0.24115357
-0.067165442 -0.035759404 -0.24116181
-0.067161486 -0.035685003 -0.24118204
-0.067157224 -0.035612427 -0.2412103
-0.067153759 -0.035538249 -0.24122053
-0.067150921 -0.035460413 -0.24121472
-0.067148164 -0.03538458 -0.24120894
-0.067145519 -0.035306834 -0.24119911
-0.067142464 -0.035230868 -0.24119931
-0.067139298 -0.035156816 -0.24120356
-0.067136556 -0.035079025 -0.24119574
-0.067135416 -0.034998018 -0.24115187
-0.067133665 -0.034918707 -0.24112202
-0.067131005 -0.034842916 -0.24111423
-0.067127854 -0.034766905 -0.24111645
-0.067124508 -0.034690812 -0.24112265
-0.067121342 -0.034616761 -0.24112689
-0.067117989 -0.034540664 -0.24113309
-0.067114845 -0.034464657 -0.2411353
-0.067111768 -0.034390643 -0.24113756
-0.067108519 -0.034314595 -0.24114177
-0.067105271 -0.034238547 -0.24114597
-0.067101613 -0.034164272 -0.24116018
-0.06709747 -0.034089789 -0.24118441
-0.06709379 -0.034017473 -0.24120069
-0.067090563 -0.033939466 -0.24120285
-0.067087896 -0.033863675 -0.24119507
-0.067086153 -0.033784363 -0.24116522
-0.067085184 -0.033705398 -0.2411194
-0.067083247 -0.033625998 -0.24109356
-0.06708058 -0.03355021 -0.24108577
-0.067076944 -0.033473983 -0.24109796
-0.067073382 -0.033399761 -0.24111021
