# .PCD v0.7 - Point Cloud Data file format
VERSION 0.7
FIELDS x y z
SIZE 4 4 4
TYPE F F F
COUNT 1 1 1
WIDTH 1295
HEIGHT 1
VIEWPOINT 0 0 0 1 0 0 0
POINTS 1295
DATA ascii
-0.17335662 -0.022110378 -0.26105839
-0.17335331 -0.022030374 -0.26106051
-0.17335062 -0.021948675 -0.26104859
-0.17334391 -0.021865204 -0.26111856
-0.17334324 -0.021786368 -0.26106673
-0.17333995 -0.021704409 -0.26106682
-0.17333762 -0.021624837 -0.26104894
-0.17333345 -0.02154249 -0.26106697
-0.17333005 -0.021462442 -0.26107112
-0.17333007 -0.021381956 -0.26100326
-0.17332609 -0.021301648 -0.26101935
-0.17332239 -0.02122147 -0.26102948
-0.17332047 -0.021140117 -0.26100159
-0.17331833 -0.021060633 -0.26097971
-0.17331544 -0.020978848 -0.26097178
-0.17331213 -0.020898845 -0.2609739
-0.17330737 -0.020816237 -0.26100394
-0.17330185 -0.020733284 -0.26104993
-0.17329817 -0.020651152 -0.261058
-0.1732969 -0.020572057 -0.26101816
-0.17329516 -0.020492744 -0.26098832
-0.17329223 -0.020412914 -0.26098245
-0.17328808 -0.020330567 -0.26100048
-0.1732873 -0.020251688 -0.26095068
-0.17328323 -0.020169383 -0.26096672
-0.17328081 -0.020089768 -0.26095086
-0.17327839 -0.020008199 -0.26093295
-0.17327325 -0.019925419 -0.26097095
-0.17327102 -0.019845892 -0.2609511
-0.17326888 -0.019766405 -0.26092926
-0.17326559 -0.019684447 -0.26092932
-0.17326161 -0.019604141 -0.26094541
-0.17325707 -0.019519666 -0.2609694
-0.17325348 -0.019439531 -0.26097751
-0.17325096 -0.01935792 -0.26096159
-0.17324814 -0.019278131 -0.26095372
-0.17324455 -0.019197999 -0.26096183
-0.17324106 -0.019115955 -0.26096588
-0.17323758 -0.019033909 -0.26096994
-0.17323449 -0.018952036 -0.26096603
-0.17323177 -0.018872293 -0.26095617
-0.17322943 -0.018792722 -0.26093829
-0.17322664 -0.018710978 -0.26092839
-0.17322303 -0.018630845 -0.2609365
-0.17321935 -0.018548714 -0.26094455
-0.17321634 -0.01846884 -0.26094067
-0.17321296 -0.018386837 -0.26094273
-0.17320977 -0.018304924 -0.26094079
-0.17320724 -0.018225266 -0.26092693
-0.17320415 -0.018143393 -0.260923
-0.17320055 -0.018063258 -0.26093113
-0.17319763 -0.017983429 -0.26092523
-0.17319493 -0.01790173 -0.26091331
-0.17319201 -0.017821901 -0.26090744
-0.1731894 -0.017740242 -0.26089352
-0.17318688 -0.017660584 -0.26087967
-0.17318347 -0.017580539 -0.26088378
-0.17317913 -0.01749615 -0.26090378
-0.17317544 -0.017415972 -0.26091385
-0.17317234 -0.0173341 -0.26090994
-0.17316914 -0.01725414 -0.26091006
-0.17316595 -0.017172225 -0.26090813
-0.17316265 -0.017090267 -0.26090819
-0.17315885 -0.017010048 -0.26092029
-0.17315577 -0.016928175 -0.26091635
-0.17315353 -0.016848646 -0.2608965
-0.17315044 -0.016766775 -0.26089257
-0.17314608 -0.01668434 -0.26091462
-0.17314202 -0.016602036 -0.26093066
-0.1731391 -0.016522206 -0.26092479
-0.17313629 -0.016440462 -0.26091486
-0.17313328 -0.016360588 -0.26091099
-0.17313048 -0.016278848 -0.26090106
-0.17312786 -0.016199145 -0.2608892
-0.17312467 -0.01611723 -0.26088727
-0.17312126 -0.016037185 -0.26089138
-0.17311825 -0.015957311 -0.2608875
-0.17311545 -0.015875567 -0.26087761
-0.17311263 -0.01579578 -0.26086971
-0.17310905 -0.015713692 -0.26087579
-0.17310546 -0.015631605 -0.26088184
-0.17310284 -0.015551902 -0.26086998
-0.17309955 -0.015469944 -0.26087004
-0.17309569 -0.015387726 -0.26088208
-0.17309277 -0.015307895 -0.26087621
-0.17308986 -0.01522611 -0.26086831
-0.17308676 -0.015146192 -0.2608664
-0.17308386 -0.015064407 -0.26085848
-0.17308094 -0.014984576 -0.26085261
-0.17307785 -0.014902703 -0.2608487
-0.17307493 -0.014822874 -0.2608428
-0.17307211 -0.014743087 -0.26083493
-0.17306882 -0.014661128 -0.26083499
-0.17306525 -0.014579039 -0.26084107
-0.17306195 -0.014497081 -0.26084113
-0.17305884 -0.014417164 -0.26083925
-0.17305574 -0.014337245 -0.26083738
-0.17305253 -0.014255331 -0.26083544
-0.17304972 -0.014175544 -0.26082757
-0.17304653 -0.014093628 -0.26082563
-0.17304304 -0.014011583 -0.26082969
-0.17303954 -0.013931492 -0.2608358
-0.17303616 -0.013849491 -0.26083785
-0.17303288 -0.013767533 -0.26083794
-0.17302929 -0.013685444 -0.26084399
-0.17302591 -0.013603443 -0.26084608
-0.17302328 -0.013523742 -0.26083422
-0.17302075 -0.013444085 -0.26082033
-0.17301756 -0.013362169 -0.26081839
-0.17301418 -0.013280166 -0.26082045
-0.17301106 -0.01320025 -0.2608186
-0.17300779 -0.013118291 -0.26081866
-0.17300476 -0.013038417 -0.26081479
-0.17300195 -0.012958631 -0.26080692
-0.17299829 -0.012874544 -0.26081291
-0.17299469 -0.012794411 -0.26082101
-0.1729916 -0.012712538 -0.26081708
-0.17298841 -0.012630623 -0.26081514
-0.17298569 -0.012550879 -0.26080531
-0.17298296 -0.012471135 -0.26079541
-0.17297977 -0.012389219 -0.26079351
-0.17297685 -0.012309387 -0.26078761
-0.17297377 -0.012227517 -0.26078367
-0.17297055 -0.012147555 -0.26078379
-0.17296755 -0.012065727 -0.26077789
-0.17296445 -0.01198581 -0.26077598
-0.17296097 -0.011903765 -0.26078007
-0.17295787 -0.011821892 -0.26077613
-0.1729544 -0.011739848 -0.26078019
-0.17295071 -0.011657717 -0.26078826
-0.17294741 -0.011577712 -0.26079035
-0.17294422 -0.011495799 -0.26078844
-0.1729413 -0.011415967 -0.26078254
-0.17293841 -0.011334181 -0.26077464
-0.17293501 -0.011252181 -0.2607767
-0.1729317 -0.011172176 -0.26077881
-0.17292851 -0.011090261 -0.26077688
-0.17292532 -0.011008346 -0.26077497
-0.17292231 -0.010928472 -0.26077107
-0.17291921 -0.0108466 -0.26076716
-0.17291601 -0.010766639 -0.26076728
-0.17291272 -0.010684681 -0.26076734
-0.17290963 -0.010602809 -0.26076341
-0.17290662 -0.010522935 -0.26075953
-0.17290352 -0.010441062 -0.2607556
-0.17290051 -0.010361189 -0.26075172
-0.17289752 -0.010279359 -0.26074579
-0.1728943 -0.0101994 -0.26074591
-0.17289063 -0.010117268 -0.26075399
-0.17288724 -0.010035265 -0.26075605
-0.17288435 -0.0099534802 -0.26074812
-0.17288123 -0.0098735634 -0.26074624
-0.17287785 -0.0097915623 -0.2607483
-0.17287466 -0.0097096469 -0.26074636
-0.17287174 -0.0096298158 -0.26074049
-0.17286874 -0.0095479861 -0.26073459
-0.17286573 -0.009468114 -0.26073068
-0.17286263 -0.0093862414 -0.26072678
-0.17285962 -0.0093063675 -0.26072288
-0.17285663 -0.0092245396 -0.26071697
-0.17285371 -0.0091447085 -0.26071107
-0.17285042 -0.0090627503 -0.26071116
-0.17284723 -0.0089808349 -0.26070923
-0.17284365 -0.0088987462 -0.26071531
-0.17284016 -0.0088167004 -0.26071936
-0.17283715 -0.0087368265 -0.26071548
-0.17283453 -0.0086571258 -0.26070359
-0.17283183 -0.0085754264 -0.2606917
-0.17282891 -0.0084955953 -0.2606858
-0.17282562 -0.0084136371 -0.26068589
-0.17282204 -0.0083315484 -0.26069194
-0.17281856 -0.0082495045 -0.26069599
-0.17281535 -0.008169543 -0.26069611
-0.17281216 -0.0080876276 -0.26069418
-0.17280906 -0.0080057569 -0.26069027
-0.17280586 -0.0079257954 -0.26069039
-0.17280267 -0.0078438818 -0.26068845
-0.17279994 -0.0077641383 -0.26067856
-0.17279676 -0.0076822229 -0.26067662
-0.17279318 -0.0076001342 -0.2606827
-0.17278989 -0.0075181741 -0.26068279
-0.17278707 -0.0074383859 -0.26067489
-0.17278408 -0.0073565599 -0.26066896
-0.17278145 -0.0072768573 -0.2606571
-0.17277853 -0.0071970262 -0.26065123
-0.17277515 -0.0071150251 -0.26065329
-0.17277148 -0.0070309397 -0.26065931
-0.17276837 -0.006951021 -0.26065743
-0.17276555 -0.0068712328 -0.26064956
-0.17276256 -0.0067894049 -0.26064363
-0.17275947 -0.0067075342 -0.2606397
-0.17275579 -0.0066254009 -0.26064777
-0.17275241 -0.0065434016 -0.26064983
-0.17274949 -0.0064635687 -0.26064396
-0.1727462 -0.0063816123 -0.26064402
-0.17274281 -0.0062996075 -0.26064608
-0.17273954 -0.0062176511 -0.26064616
-0.17273661 -0.00613782 -0.26064026
-0.17273352 -0.0060559493 -0.26063636
-0.17273013 -0.0059739444 -0.26063842
-0.17272693 -0.0058939867 -0.26063854
-0.17272402 -0.0058121998 -0.26063061
-0.17272121 -0.0057324134 -0.26062274
-0.17271811 -0.0056505408 -0.26061881
-0.17271492 -0.0055686273 -0.26061687
-0.17271172 -0.0054886639 -0.26061702
-0.17270826 -0.0054046661 -0.26061901
-0.17270523 -0.0053247903 -0.26061514
-0.17270233 -0.0052449629 -0.26060927
-0.17269923 -0.0051630884 -0.26060534
-0.17269604 -0.0050811749 -0.2606034
-0.17269312 -0.0050013419 -0.26059753
-0.17269003 -0.0049194712 -0.26059359
-0.17268664 -0.0048374683 -0.26059568
-0.17268325 -0.004755469 -0.26059774
-0.17268014 -0.0046755504 -0.26059586
-0.17267686 -0.0045935921 -0.26059592
-0.17267367 -0.0045116749 -0.26059398
-0.17267065 -0.0044318028 -0.26059011
-0.17266756 -0.0043499302 -0.2605862
-0.17266408 -0.0042678844 -0.26059026
-0.17266062 -0.0041838866 -0.26059228
-0.1726578 -0.0041040983 -0.26058438
-0.17265497 -0.00402431 -0.26057652
-0.17265217 -0.0039425679 -0.26056659
-0.17264946 -0.0038628243 -0.26055673
-0.17264616 -0.0037808642 -0.26055679
-0.17264248 -0.0036987327 -0.26056486
-0.17263901 -0.0036166888 -0.26056892
-0.17263572 -0.0035347324 -0.26056898
-0.1726328 -0.0034548994 -0.26056311
-0.17263 -0.0033731591 -0.26055318
-0.17262709 -0.0032933261 -0.26054731
-0.1726238 -0.0032113679 -0.26054737
-0.17262033 -0.0031273682 -0.2605494
-0.17261712 -0.0030474085 -0.26054952
-0.17261383 -0.0029654484 -0.26054958
-0.17261074 -0.0028835777 -0.26054567
-0.17260773 -0.0028037038 -0.26054177
-0.17260464 -0.0027218331 -0.26053786
-0.17260191 -0.0026420876 -0.26052797
-0.17259921 -0.0025603902 -0.26051608
-0.17259601 -0.0024804287 -0.26051617
-0.17259301 -0.0023986008 -0.26051027
-0.17258982 -0.0023166835 -0.26050833
-0.17258643 -0.0022346843 -0.26051039
-0.17258324 -0.002152767 -0.26050848
-0.17258042 -0.0020729806 -0.26050061
-0.17257731 -0.001993062 -0.2604987
-0.17257394 -0.001909107 -0.26049873
-0.17257036 -0.0018270165 -0.26050478
-0.17256698 -0.0017450172 -0.26050687
-0.17256425 -0.0016652718 -0.26049697
-0.17256106 -0.0015833583 -0.26049507
-0.17255758 -0.0015013106 -0.26049912
-0.17255458 -0.0014194828 -0.26049319
-0.1725513 -0.0013375245 -0.26049328
-0.17254819 -0.0012576077 -0.26049137
-0.1725449 -0.0011756495 -0.26049146
-0.17254125 -0.0010915622 -0.26049745
-0.17253833 -0.001011733 -0.26049158
-0.17253552 -0.00092998892 -0.26048166
-0.17253251 -0.00085011683 -0.26047778
-0.17252895 -0.00076607242 -0.2604818
-0.17252566 -0.00068411417 -0.26048186
-0.17252284 -0.00060432591 -0.260474
-0.17251976 -0.0005224552 -0.26047006
-0.17251666 -0.0004405845 -0.26046616
-0.17251374 -0.00036075152 -0.26046026
-0.17251065 -0.00027887896 -0.26045632
-0.17250717 -0.00019683503 -0.26046041
-0.17250387 -0.00011487864 -0.26046047
-0.1725006 -3.2916665e-05 -0.26046056
-0.17249778 4.6867877e-05 -0.26045266
-0.17249478 0.0001286976 -0.26044673
-0.17249168 0.00021056831 -0.26044282
-0.17248811 0.00029265881 -0.26044887
-0.17248473 0.0003746599 -0.26045096
-0.172482 0.00045440532 -0.26044106
-0.17247909 0.00053618848 -0.26043314
-0.17247562 0.00061823614 -0.26043722
-0.17247252 0.00070010498 -0.26043329
-0.17246979 0.00077985227 -0.26042342
-0.17246661 0.00086176582 -0.26042148
-0.17246361 0.00094359554 -0.26041555
-0.17246079 0.0010233819 -0.26040769
-0.17245752 0.0011053421 -0.26040775
-0.17245403 0.0011873841 -0.26041183
-0.17245093 0.0012692567 -0.26040789
-0.17244804 0.0013510436 -0.2604
-0.17244492 0.0014309622 -0.26039809
-0.17244107 0.0015151333 -0.2604081
-0.17243676 0.0016014781 -0.26042604
-0.17243373 0.0016813502 -0.26042217
-0.17243131 0.0017609652 -0.26040632
-0.17242831 0.0018427931 -0.26040038
-0.17242482 0.0019248389 -0.26040444
-0.17242154 0.0020067971 -0.26040453
-0.1744404 -0.049910057 -0.26168466
-0.17443714 -0.049826145 -0.26168269
-0.17443395 -0.049744226 -0.26168075
-0.17443086 -0.049662359 -0.26167682
-0.17442757 -0.049580395 -0.26167688
-0.17442445 -0.04950048 -0.261675
-0.17442128 -0.049416609 -0.26167101
-0.174418 -0.049334653 -0.2616711
-0.17441478 -0.049254693 -0.26167119
-0.17441131 -0.049172647 -0.26167527
-0.17440821 -0.049090773 -0.26167133
-0.17440492 -0.049008816 -0.26167142
-0.17440152 -0.048928767 -0.26167554
-0.17439842 -0.048846897 -0.2616716
-0.17439555 -0.048763156 -0.26166162
-0.17439267 -0.048679419 -0.26165166
-0.17438959 -0.048597544 -0.26164773
-0.17438619 -0.048515543 -0.26164979
-0.17438309 -0.048435628 -0.26164791
-0.17437972 -0.048351668 -0.26164794
-0.17437631 -0.048271626 -0.26165205
-0.17437322 -0.048189752 -0.26164812
-0.17437004 -0.048107836 -0.26164618
-0.17436643 -0.048027702 -0.26165432
-0.17436314 -0.047945745 -0.26165438
-0.17436007 -0.047861915 -0.26164839
-0.17435737 -0.047780219 -0.2616365
-0.17435418 -0.047698304 -0.26163456
-0.17435057 -0.047618169 -0.26164263
-0.174347 -0.047536083 -0.26164871
-0.17434409 -0.047454298 -0.26164079
-0.17434141 -0.047370642 -0.26162684
-0.17433822 -0.047288727 -0.2616249
-0.17433444 -0.047208507 -0.261637
-0.17433095 -0.047126461 -0.26164106
-0.17432827 -0.047042809 -0.26162711
-0.17432567 -0.046959199 -0.26161116
-0.17432268 -0.046877369 -0.26160523
-0.1743196 -0.046795495 -0.2616013
-0.17431621 -0.046713494 -0.26160336
-0.17431261 -0.046633363 -0.26161146
-0.17430891 -0.046553187 -0.26162156
-0.17430553 -0.046471182 -0.26162362
-0.17430282 -0.046389483 -0.26161173
-0.17429973 -0.046307612 -0.2616078
-0.17429584 -0.046227351 -0.26162189
-0.17429224 -0.046147216 -0.26163
-0.17428966 -0.046063606 -0.26161402
-0.17428695 -0.045981906 -0.26160213
-0.17428356 -0.045899905 -0.26160419
-0.17428006 -0.045819812 -0.2616103
-0.17427677 -0.045737855 -0.26161036
-0.17427368 -0.045655984 -0.26160643
-0.17427069 -0.045574155 -0.26160049
-0.17426771 -0.045490369 -0.26159254
-0.17426471 -0.045408543 -0.26158661
-0.17426121 -0.045328453 -0.26159275
-0.17425783 -0.045246448 -0.2615948
-0.17425473 -0.045164578 -0.26159087
-0.17425103 -0.045084402 -0.26160097
-0.17424734 -0.045004226 -0.26161107
-0.17424406 -0.044922266 -0.26161113
-0.17424126 -0.044840526 -0.26160121
-0.17423835 -0.044758737 -0.26159328
-0.17423478 -0.044676654 -0.26159936
-0.17423128 -0.04459656 -0.26160547
-0.1742283 -0.044512779 -0.26159748
-0.17422591 -0.04442925 -0.26157755
-0.1742233 -0.044347599 -0.26156363
-0.17421962 -0.044265468 -0.26157171
-0.17421603 -0.044185333 -0.26157981
-0.17421293 -0.044103459 -0.26157588
-0.17420974 -0.044021547 -0.26157394
-0.17420644 -0.043941543 -0.26157606
-0.17420325 -0.043859627 -0.26157412
-0.17420015 -0.043777753 -0.26157019
-0.17419706 -0.043695882 -0.26156628
-0.17419368 -0.043613881 -0.26156834
-0.17419049 -0.043531965 -0.2615664
-0.17418769 -0.043450221 -0.26155651
-0.1741845 -0.04336831 -0.26155457
-0.1741811 -0.043286309 -0.26155663
-0.1741782 -0.043206476 -0.26155075
-0.17417541 -0.04312278 -0.2615388
-0.17417222 -0.043040864 -0.26153687
-0.17416841 -0.0429626 -0.26155099
-0.17416452 -0.042882338 -0.26156509
-0.17416123 -0.042800374 -0.26156515
-0.17415814 -0.042718507 -0.26156124
-0.17415515 -0.042636678 -0.26155531
-0.17415234 -0.042554934 -0.26154539
-0.17414916 -0.042473018 -0.26154345
-0.17414594 -0.042393059 -0.26154357
-0.17414266 -0.042311102 -0.26154363
-0.17413966 -0.042229272 -0.26153773
-0.17413667 -0.042147443 -0.2615318
-0.17413346 -0.042065527 -0.26152986
-0.17413019 -0.041983567 -0.26152992
-0.17412727 -0.041903738 -0.26152408
-0.1741242 -0.041819908 -0.26151809
-0.17412089 -0.041739911 -0.26152021
-0.17411759 -0.041657947 -0.26152027
-0.17411448 -0.041578032 -0.26151839
-0.1741111 -0.041496031 -0.26152045
-0.17410791 -0.041414116 -0.26151854
-0.17410482 -0.041332241 -0.2615146
-0.17410183 -0.041250415 -0.26150867
-0.17409873 -0.041168541 -0.26150477
-0.17409581 -0.041088711 -0.26149887
-0.17409234 -0.041006666 -0.26150292
-0.17408903 -0.040926665 -0.26150507
-0.17408624 -0.040842965 -0.26149309
-0.17408305 -0.04076105 -0.26149115
-0.17407964 -0.040681001 -0.26149526
-0.17407614 -0.040600915 -0.26150137
-0.17407276 -0.04051891 -0.26150343
-0.17406976 -0.040437084 -0.2614975
-0.17406696 -0.04035534 -0.2614876
-0.17406416 -0.040273599 -0.26147768
-0.17406088 -0.040191639 -0.26147774
-0.17405769 -0.040109724 -0.2614758
-0.17405419 -0.040029634 -0.26148194
-0.17405078 -0.039949588 -0.26148602
-0.17404778 -0.039867759 -0.26148009
-0.17404489 -0.039785974 -0.2614722
-0.17404179 -0.039704099 -0.26146826
-0.1740388 -0.039622273 -0.26146233
-0.17403561 -0.039540358 -0.26146042
-0.1740323 -0.039460354 -0.26146251
-0.17402892 -0.039378352 -0.2614646
-0.17402552 -0.039298303 -0.26146871
-0.17402223 -0.039216347 -0.26146877
-0.17401922 -0.039136469 -0.26146489
-0.17401603 -0.039054558 -0.26146296
-0.17401254 -0.038972512 -0.26146701
-0.17400904 -0.038892422 -0.26147312
-0.17400594 -0.038810551 -0.26146922
-0.17400293 -0.038730677 -0.26146531
-0.17399964 -0.038648717 -0.2614654
-0.17399645 -0.038566802 -0.26146346
-0.17399333 -0.038486883 -0.26146159
-0.17399015 -0.038404971 -0.26145965
-0.17398696 -0.038323052 -0.26145774
-0.17398356 -0.038243007 -0.26146182
-0.17398056 -0.038161177 -0.26145589
-0.17397746 -0.038079306 -0.26145199
-0.17397428 -0.037997391 -0.26145005
-0.17397155 -0.037917648 -0.26144019
-0.17396827 -0.037835687 -0.26144025
-0.17396457 -0.037755512 -0.26145035
-0.17396148 -0.037673641 -0.26144642
-0.17395878 -0.037591942 -0.2614345
-0.17395587 -0.037510157 -0.2614266
-0.17395259 -0.037428197 -0.26142666
-0.17394938 -0.037348237 -0.26142678
-0.17394638 -0.037266407 -0.26142085
-0.17394319 -0.037184492 -0.26141891
-0.17393979 -0.037104446 -0.26142302
-0.17393619 -0.037024312 -0.26143113
-0.17393281 -0.036942311 -0.26143318
-0.1739302 -0.036860652 -0.2614193
-0.17392752 -0.036777001 -0.26140532
-0.17392431 -0.036697038 -0.26140544
-0.1739209 -0.036616992 -0.26140955
-0.17391741 -0.03653495 -0.2614136
-0.17391421 -0.036454991 -0.26141372
-0.17391102 -0.036373071 -0.26141179
-0.17390803 -0.036291242 -0.26140589
-0.17390472 -0.036211241 -0.261408
-0.17390102 -0.036131062 -0.2614181
-0.17389783 -0.03604915 -0.26141617
-0.17389493 -0.035967361 -0.26140824
-0.17389223 -0.035885662 -0.26139632
-0.17388943 -0.035803922 -0.26138639
-0.17388593 -0.035723832 -0.26139253
-0.17388232 -0.035643697 -0.26140061
-0.17387953 -0.035561956 -0.26139069
-0.17387682 -0.035480257 -0.26137877
-0.17387363 -0.035398342 -0.26137686
-0.17387043 -0.035318382 -0.26137698
-0.17386694 -0.035236336 -0.26138103
-0.17386334 -0.035156202 -0.26138914
-0.17386074 -0.035074547 -0.26137522
-0.17385833 -0.034992978 -0.26135731
-0.17385514 -0.034911063 -0.2613554
-0.17385173 -0.034831017 -0.26135951
-0.17384815 -0.034748927 -0.26136556
-0.17384504 -0.034669008 -0.26136369
-0.17384185 -0.034587093 -0.26136175
-0.17383847 -0.034505092 -0.2613638
-0.17383496 -0.034425002 -0.26136991
-0.17383167 -0.034343045 -0.26137
-0.17382905 -0.034263343 -0.26135811
-0.17382586 -0.034181427 -0.26135617
-0.17382267 -0.034099512 -0.26135427
-0.17381975 -0.034019679 -0.26134837
-0.17381656 -0.033937767 -0.26134646
-0.17381318 -0.033855766 -0.26134852
-0.17381026 -0.033775933 -0.26134264
-0.17380707 -0.033694018 -0.26134071
-0.17380387 -0.033614058 -0.26134083
-0.17380066 -0.033532143 -0.26133889
-0.17379738 -0.033450183 -0.26133898
-0.17379457 -0.033370398 -0.26133108
-0.17379166 -0.033288613 -0.26132315
-0.17378816 -0.033208519 -0.26132929
-0.17378478 -0.033126518 -0.26133135
-0.17378177 -0.033046648 -0.26132745
-0.17377897 -0.032964904 -0.26131755
-0.17377616 -0.03288316 -0.26130763
-0.17377317 -0.03280133 -0.2613017
-0.17376998 -0.032719418 -0.26129979
-0.17376667 -0.032639414 -0.26130188
-0.17376317 -0.032559324 -0.26130798
-0.17375979 -0.032477319 -0.26131004
-0.17375638 -0.032397274 -0.26131418
-0.17375308 -0.032315314 -0.26131424
-0.17374998 -0.032235399 -0.26131237
-0.17374718 -0.032153659 -0.26130244
-0.17374447 -0.032071956 -0.26129052
-0.17374116 -0.031991951 -0.26129264
-0.17373778 -0.03190995 -0.26129469
-0.17373438 -0.031829905 -0.26129881
-0.17373097 -0.031749859 -0.26130292
-0.17372797 -0.03166803 -0.26129699
-0.17372479 -0.031586114 -0.26129508
-0.1737217 -0.031504244 -0.26129115
-0.17371897 -0.031424496 -0.26128125
-0.17371607 -0.031342711 -0.26127335
-0.17371288 -0.031260796 -0.26127142
-0.17370977 -0.031180879 -0.26126954
-0.17370649 -0.031098921 -0.2612696
-0.17370307 -0.031018874 -0.26127371
-0.17369999 -0.030937001 -0.26126978
-0.17369677 -0.030857041 -0.2612699
-0.17369299 -0.030776821 -0.261282
-0.1736894 -0.030694734 -0.26128805
-0.17368661 -0.03061299 -0.26127815
-0.17368388 -0.030533247 -0.26126826
-0.17368089 -0.030451417 -0.26126236
-0.17367789 -0.030369589 -0.26125643
-0.17367499 -0.030287804 -0.2612485
-0.17367189 -0.030207887 -0.26124662
-0.17366886 -0.030128013 -0.26124275
-0.17366567 -0.030046098 -0.26124081
-0.17366259 -0.029964225 -0.26123688
-0.17365959 -0.029882398 -0.26123095
-0.17365637 -0.029802436 -0.26123106
-0.17365268 -0.029722258 -0.2612412
-0.1736494 -0.0296403 -0.26124126
-0.17364717 -0.029560773 -0.26122141
-0.17364436 -0.029479031 -0.26121145
-0.17364068 -0.029396899 -0.26121953
-0.17363727 -0.029316852 -0.26122364
-0.17363408 -0.029234936 -0.26122171
-0.17363107 -0.029155063 -0.26121783
-0.17362817 -0.029073277 -0.26120991
-0.17362526 -0.028993446 -0.26120403
-0.17362177 -0.028911401 -0.26120809
-0.17361827 -0.028831311 -0.2612142
-0.17361479 -0.028749267 -0.26121825
-0.17361167 -0.02866935 -0.2612164
-0.17360859 -0.028587477 -0.26121247
-0.17360547 -0.02850756 -0.26121056
-0.17360248 -0.028425731 -0.26120466
-0.17359956 -0.0283459 -0.26119876
-0.17359637 -0.028263986 -0.26119685
-0.17359337 -0.028182156 -0.26119092
-0.17359036 -0.028102282 -0.26118705
-0.17358688 -0.028020237 -0.2611911
-0.17358367 -0.027940277 -0.26119122
-0.17358038 -0.027858319 -0.26119131
-0.17357726 -0.027778402 -0.2611894
-0.17357397 -0.027696442 -0.26118946
-0.17357057 -0.027616395 -0.26119357
-0.17356747 -0.027534524 -0.26118967
-0.17356478 -0.027452825 -0.26117775
-0.17356205 -0.027373081 -0.26116788
-0.17355904 -0.027293205 -0.26116398
-0.17355555 -0.027211161 -0.26116806
-0.17355208 -0.027129117 -0.26117212
-0.17354906 -0.027049242 -0.26116824
-0.17354606 -0.026967414 -0.26116231
-0.17354286 -0.026887452 -0.26116243
-0.17353947 -0.026805451 -0.26116449
-0.17353655 -0.02672562 -0.26115862
-0.17353405 -0.026644008 -0.2611427
-0.17353103 -0.026564134 -0.26113883
-0.17352755 -0.026482088 -0.26114291
-0.17352453 -0.026402215 -0.26113901
-0.17352106 -0.026320171 -0.26114309
-0.17351726 -0.02623995 -0.26115519
-0.17351416 -0.026158078 -0.26115125
-0.17351145 -0.026078334 -0.26114136
-0.17350854 -0.025996549 -0.26113346
-0.17350563 -0.025916718 -0.26112759
-0.17350195 -0.025834586 -0.26113564
-0.17349873 -0.025754625 -0.26113576
-0.17349613 -0.02567297 -0.26112184
-0.17349294 -0.025591055 -0.2611199
-0.17348963 -0.025511051 -0.26112202
-0.17348644 -0.025429135 -0.26112008
-0.17348343 -0.025349261 -0.26111621
-0.1734807 -0.025269518 -0.26110634
-0.17347752 -0.025187602 -0.2611044
-0.17347383 -0.025105471 -0.26111245
-0.17347074 -0.025025554 -0.2611106
-0.17346774 -0.024943724 -0.26110467
-0.17346433 -0.024863677 -0.26110879
-0.17346114 -0.024781762 -0.26110685
-0.17345802 -0.024701845 -0.26110497
-0.17345484 -0.024619929 -0.26110303
-0.17345211 -0.024540186 -0.26109317
-0.17344853 -0.024458097 -0.26109922
-0.17344484 -0.02437792 -0.26110932
-0.17344195 -0.024296135 -0.26110142
-0.17343846 -0.024214091 -0.26110548
-0.17343515 -0.024134086 -0.26110756
-0.17343242 -0.024054343 -0.2610977
-0.17342943 -0.023972513 -0.26109177
-0.17342661 -0.023892727 -0.2610839
-0.17342351 -0.023810854 -0.26108
-0.17342031 -0.023730893 -0.26108009
-0.17341702 -0.023648934 -0.26108018
-0.17341402 -0.023567107 -0.26107424
-0.17341082 -0.023487145 -0.26107436
-0.17340763 -0.02340523 -0.26107243
-0.17340451 -0.023325313 -0.26107055
-0.17340131 -0.023245353 -0.26107067
-0.17339782 -0.023163307 -0.26107472
-0.17339492 -0.023081522 -0.26106679
-0.17339201 -0.023001691 -0.26106092
-0.17338863 -0.02291969 -0.26106298
-0.17338541 -0.022839729 -0.2610631
-0.17338173 -0.022757597 -0.26107118
-0.17337842 -0.022677595 -0.26107329
-0.17337514 -0.022595637 -0.26107335
-0.17337164 -0.022515545 -0.26107946
-0.17336865 -0.022433717 -0.26107353
-0.17336611 -0.022354059 -0.26105967
-0.17336303 -0.022272186 -0.26105574
-0.17335984 -0.022190271 -0.2610538
-0.17335632 -0.022110181 -0.26105991
-0.17335303 -0.022030178 -0.26106203
-0.17335042 -0.021948522 -0.26104811
-0.17334352 -0.021864964 -0.26112208
-0.17334294 -0.02178617 -0.26106828
-0.17333947 -0.021704126 -0.26107234
-0.17333724 -0.021624597 -0.26105249
-0.17333306 -0.021542249 -0.26107052
-0.17332976 -0.021462247 -0.26107264
-0.17332968 -0.021381713 -0.2610068
-0.17332579 -0.021301452 -0.2610209
-0.17332202 -0.021219276 -0.26103094
-0.17332007 -0.021139879 -0.2610051
-0.17331804 -0.021060437 -0.26098123
-0.17331514 -0.020978652 -0.26097333
-0.17331193 -0.02089869 -0.26097342
-0.17330727 -0.020816127 -0.26100147
-0.17330165 -0.020733129 -0.26104948
-0.17329788 -0.020650957 -0.26105952
-0.17329651 -0.020571817 -0.26102167
-0.17329477 -0.020492505 -0.26099184
-0.17329195 -0.020412717 -0.26098397
-0.17328778 -0.020330369 -0.261002
-0.17328721 -0.020251576 -0.26094821
-0.17328304 -0.020169228 -0.26096624
-0.17328042 -0.020089528 -0.26095438
-0.17327811 -0.020008001 -0.26093447
-0.17327306 -0.019925265 -0.2609705
-0.17327082 -0.019845737 -0.26095062
-0.17326851 -0.019764211 -0.26093072
-0.17326531 -0.019684251 -0.26093084
-0.17326124 -0.019601945 -0.2609469
-0.17325687 -0.019519512 -0.26096892
-0.17325328 -0.019439379 -0.26097703
-0.17325076 -0.019357767 -0.26096112
-0.17324795 -0.019277979 -0.26095325
-0.17324427 -0.019195847 -0.26096132
-0.17324087 -0.0191158 -0.26096541
-0.17323738 -0.019033756 -0.26096946
-0.17323419 -0.018951841 -0.26096755
-0.17323147 -0.018872095 -0.26095769
-0.17322914 -0.018792525 -0.26093984
-0.17322634 -0.018710781 -0.26092988
-0.17322274 -0.018630648 -0.26093799
-0.17321907 -0.018548517 -0.26094607
-0.17321604 -0.018468643 -0.26094219
-0.17321266 -0.018386642 -0.26094425
-0.17320958 -0.018304769 -0.26094031
-0.17320694 -0.018225068 -0.26092845
-0.17320375 -0.018143153 -0.26092651
-0.17320035 -0.018063106 -0.26093063
-0.17319743 -0.017983275 -0.26092476
-0.17319463 -0.017901532 -0.26091486
-0.17319182 -0.017821746 -0.26090696
-0.1731891 -0.017740047 -0.26089507
-0.17318659 -0.017660389 -0.26088119
-0.17318317 -0.017580342 -0.2608853
-0.17317884 -0.017495953 -0.2609053
-0.17317514 -0.017415777 -0.2609154
-0.17317204 -0.017333904 -0.26091146
-0.17316894 -0.017253987 -0.26090959
-0.17316565 -0.017172027 -0.26090965
-0.17316236 -0.017090071 -0.26090974
-0.17315857 -0.017009851 -0.26092181
-0.17315547 -0.016927978 -0.2609179
-0.17315334 -0.016848493 -0.26089603
-0.17315015 -0.016766578 -0.26089412
-0.17314579 -0.016684145 -0.26091614
-0.17314182 -0.016601883 -0.26093018
-0.1731388 -0.016522009 -0.26092631
-0.173136 -0.016440265 -0.26091641
-0.17313309 -0.016360436 -0.26091051
-0.17313018 -0.016278651 -0.26090261
-0.17312756 -0.016198948 -0.26089072
-0.17312427 -0.016116992 -0.26089078
-0.17312096 -0.016036987 -0.2608929
-0.17311795 -0.015957113 -0.26088902
-0.17311525 -0.015875414 -0.26087713
-0.17311233 -0.015795583 -0.26087123
-0.17310876 -0.015713494 -0.26087731
-0.17310517 -0.015631407 -0.26088336
-0.17310254 -0.015551705 -0.2608715
-0.17309935 -0.01546979 -0.26086956
-0.17309548 -0.015387572 -0.2608816
-0.17309247 -0.015307698 -0.26087773
-0.17308958 -0.015225913 -0.2608698
-0.17308655 -0.015146038 -0.26086593
-0.17308366 -0.015064253 -0.260858
-0.17308064 -0.014984379 -0.26085413
-0.17307764 -0.01490255 -0.26084822
-0.17307474 -0.01482272 -0.26084232
-0.17307182 -0.014742889 -0.26083645
-0.17306852 -0.01466093 -0.26083654
-0.17306495 -0.014578842 -0.26084256
-0.17306156 -0.014496841 -0.26084465
-0.17305864 -0.014417009 -0.26083878
-0.17305544 -0.014337049 -0.2608389
-0.17305225 -0.014255134 -0.26083696
-0.17304942 -0.014175346 -0.26082909
-0.17304623 -0.014093431 -0.26082715
-0.17304276 -0.014011387 -0.26083124
-0.17303917 -0.013929298 -0.26083729
-0.17303596 -0.013849338 -0.26083738
-0.17303267 -0.01376738 -0.26083747
-0.17302899 -0.013685248 -0.26084551
-0.17302571 -0.01360329 -0.2608456
-0.17302299 -0.013523545 -0.26083571
-0.17302056 -0.01344393 -0.26081985
-0.17301726 -0.013361971 -0.26081991
-0.17301399 -0.013280013 -0.26081997
-0.17301087 -0.013200096 -0.26081812
-0.17300749 -0.013118094 -0.26082018
-0.17300457 -0.013038264 -0.26081431
-0.17300168 -0.012956478 -0.26080638
-0.172998 -0.012874346 -0.26081443
-0.17299432 -0.012792215 -0.26082247
-0.17299131 -0.012712341 -0.2608186
-0.17298821 -0.012630469 -0.26081467
-0.17298539 -0.012550682 -0.2608068
-0.17298266 -0.012470938 -0.26079693
-0.17297958 -0.012389066 -0.26079303
-0.17297655 -0.012309192 -0.26078913
-0.17297347 -0.01222732 -0.26078522
-0.17297016 -0.012147315 -0.26078731
-0.17296726 -0.01206553 -0.26077938
-0.17296398 -0.011983572 -0.26077947
-0.17296067 -0.011903567 -0.26078159
-0.17295757 -0.011821695 -0.26077765
-0.1729541 -0.011739651 -0.26078171
-0.17295042 -0.011657519 -0.26078978
-0.1729472 -0.011577559 -0.26078987
-0.17294382 -0.011495558 -0.26079196
-0.17294109 -0.011415813 -0.26078206
-0.17293809 -0.011333983 -0.26077616
-0.17293471 -0.011251982 -0.26077822
-0.17293151 -0.011172022 -0.26077834
-0.17292832 -0.011090106 -0.2607764
-0.17292513 -0.011008192 -0.26077449
-0.1729221 -0.010928318 -0.26077059
-0.17291902 -0.010846445 -0.26076669
-0.1729158 -0.010766486 -0.2607668
-0.17291252 -0.010684527 -0.26076686
-0.17290942 -0.010602655 -0.26076293
-0.17290641 -0.010522781 -0.26075906
-0.17290331 -0.010440908 -0.26075512
-0.17290021 -0.010360991 -0.26075324
-0.17289722 -0.010279163 -0.26074731
-0.17289393 -0.010197205 -0.26074737
-0.17289032 -0.010117071 -0.26075548
-0.17288697 -0.010033116 -0.26075551
-0.17288405 -0.0099532828 -0.26074964
-0.17288093 -0.009873366 -0.26074776
-0.17287755 -0.0097913649 -0.26074982
-0.17287445 -0.0097094923 -0.26074588
-0.17287153 -0.0096296612 -0.26074001
-0.17286845 -0.0095477886 -0.26073611
-0.17286544 -0.0094679166 -0.26073223
-0.17286234 -0.009386044 -0.2607283
-0.17285922 -0.0093061272 -0.26072639
-0.17285633 -0.0092243403 -0.26071849
-0.17285341 -0.0091445111 -0.26071262
-0.17285022 -0.0090625957 -0.26071069
-0.17284693 -0.0089806374 -0.26071075
-0.17284335 -0.0088985488 -0.2607168
-0.17283997 -0.0088165477 -0.26071888
-0.17283694 -0.0087366737 -0.26071501
-0.17283423 -0.0086569265 -0.26070511
-0.17283152 -0.0085752308 -0.26069319
-0.17282861 -0.0084953979 -0.26068735
-0.17282532 -0.0084134396 -0.26068741
-0.17282175 -0.008331351 -0.26069346
-0.17281826 -0.0082493071 -0.26069751
-0.17281514 -0.0081693884 -0.26069564
-0.17281187 -0.0080874301 -0.2606957
-0.17280877 -0.0080055594 -0.26069176
-0.17280556 -0.007925598 -0.26069188
-0.17280246 -0.0078437272 -0.26068798
-0.17279974 -0.0077639818 -0.26067808
-0.17279655 -0.0076820683 -0.26067615
-0.17279287 -0.0075999349 -0.26068422
-0.17278959 -0.0075179785 -0.26068428
-0.17278668 -0.0074361898 -0.26067638
-0.17278378 -0.0073563606 -0.26067048
-0.17278114 -0.0072766598 -0.26065862
-0.17277814 -0.007194832 -0.26065272
-0.17277485 -0.0071148276 -0.26065481
-0.17277129 -0.0070307832 -0.26065883
-0.17276807 -0.0069508236 -0.26065895
-0.17276508 -0.0068689957 -0.26065302
-0.17276226 -0.0067892075 -0.26064515
-0.17275907 -0.0067072921 -0.26064321
-0.17275549 -0.0066252034 -0.26064926
-0.1727522 -0.0065432452 -0.26064935
-0.17274919 -0.0064633712 -0.26064548
-0.1727459 -0.006381413 -0.26064554
-0.17274252 -0.0062994119 -0.26064759
-0.17273922 -0.0062174536 -0.26064765
-0.1727363 -0.0061376225 -0.26064181
-0.17273331 -0.0060557928 -0.26063588
-0.17272992 -0.0059737917 -0.26063794
-0.17272665 -0.0058918335 -0.260638
-0.17272373 -0.0058120023 -0.26063213
-0.17272091 -0.0057322159 -0.26062426
-0.17271781 -0.0056503434 -0.26062033
-0.17271452 -0.0055683851 -0.26062039
-0.17271124 -0.0054864269 -0.26062047
-0.17270786 -0.0054044239 -0.26062253
-0.17270483 -0.00532455 -0.26061866
-0.17270212 -0.0052448064 -0.26060879
-0.17269893 -0.0051628891 -0.26060686
-0.17269583 -0.0050810203 -0.26060292
-0.17269282 -0.0050011445 -0.26059905
-0.17268972 -0.0049192738 -0.26059511
-0.17268644 -0.0048373137 -0.26059517
-0.17268296 -0.0047552697 -0.26059926
-0.17267984 -0.0046753511 -0.26059738
-0.17267665 -0.0045934375 -0.26059544
-0.17267336 -0.0045114774 -0.2605955
-0.17267035 -0.0044316053 -0.26059163
-0.17266725 -0.0043497309 -0.26058769
-0.17266367 -0.0042676441 -0.26059377
-0.17266031 -0.0041836873 -0.26059377
-0.17265749 -0.0041039009 -0.2605859
-0.17265467 -0.0040241107 -0.26057804
-0.17265187 -0.0039423704 -0.26056811
-0.17264915 -0.003862625 -0.26055825
-0.17264596 -0.0037807114 -0.26055631
-0.17264219 -0.0036985353 -0.26056635
-0.17263861 -0.0036164485 -0.26057243
-0.17263532 -0.0035344902 -0.26057249
-0.17263241 -0.0034527034 -0.26056457
-0.1726297 -0.0033729598 -0.2605547
-0.17262678 -0.0032931305 -0.26054883
-0.17262349 -0.0032111704 -0.26054889
-0.17262003 -0.0031271707 -0.26055092
-0.17261682 -0.0030472111 -0.26055104
-0.17261335 -0.0029632114 -0.26055306
-0.17261043 -0.0028833803 -0.26054716
-0.17260724 -0.0028014649 -0.26054525
-0.17260423 -0.0027215909 -0.26054138
-0.17260161 -0.0026418902 -0.26052949
-0.17259881 -0.002560148 -0.26051956
-0.17259552 -0.0024781898 -0.26051965
-0.17259261 -0.0023983587 -0.26051378
-0.17258951 -0.0023164861 -0.26050985
-0.17258622 -0.0022345278 -0.26050991
-0.17258294 -0.0021525696 -0.26050997
-0.17258011 -0.0020727832 -0.2605021
-0.17257702 -0.0019909106 -0.26049817
-0.17257354 -0.0019088648 -0.26050225
-0.17257005 -0.001826819 -0.2605063
-0.17256667 -0.0017448179 -0.26050836
-0.17256396 -0.0016650725 -0.26049849
-0.17256077 -0.001583159 -0.26049656
-0.1725572 -0.0014991164 -0.26050058
-0.17255418 -0.0014192425 -0.26049671
-0.17255099 -0.0013373271 -0.26049477
-0.1725478 -0.0012554117 -0.26049286
-0.17254449 -0.0011754073 -0.26049495
-0.17254093 -0.0010913648 -0.26049897
-0.17253801 -0.0010115355 -0.2604931
-0.17253532 -0.00092983432 -0.26048118
-0.17253231 -0.00084996037 -0.2604773
-0.17252864 -0.00076587312 -0.26048332
-0.17252536 -0.00068391673 -0.26048338
-0.17252244 -0.00060408562 -0.26047751
-0.17251953 -0.0005223006 -0.26046959
-0.17251635 -0.00044038519 -0.26046765
-0.17251344 -0.00036055408 -0.26046178
-0.17251024 -0.00027863868 -0.26045984
-0.17250676 -0.00019659288 -0.26046392
-0.17250347 -0.0001146365 -0.26046398
-0.17250028 -3.2721087e-05 -0.26046205
-0.17249729 4.9108639e-05 -0.26045614
-0.17249447 0.00012889691 -0.26044828
-0.17249128 0.00021081045 -0.26044634
-0.17248772 0.000294853 -0.26045036
-0.17248434 0.00037685595 -0.26045242
-0.17248161 0.00045659952 -0.26044253
-0.17247869 0.00053643063 -0.26043665
-0.17247513 0.00062047318 -0.26044068
-0.17247221 0.00070030428 -0.26043481
-0.1724695 0.00078004971 -0.26042491
-0.1724664 0.00086192042 -0.26042101
-0.17246331 0.00094379485 -0.26041707
-0.17246039 0.0010236222 -0.2604112
-0.1724572 0.0011055395 -0.26040927
-0.17245364 0.001189582 -0.26041329
-0.17245053 0.0012694988 -0.26041141
-0.17244764 0.0013512839 -0.26040348
-0.17244461 0.0014311597 -0.26039961
-0.17244059 0.0015173722 -0.26041156
-0.17243645 0.0016016755 -0.26042756
-0.17243333 0.0016815923 -0.26042569
-0.1724309 0.0017612074 -0.26040983
-0.17242791 0.0018430352 -0.26040387
-0.17242453 0.0019250363 -0.26040596
-0.17242113 0.0020070393 -0.26040801
-0.17444105 -0.049906373 -0.26168567
-0.17443787 -0.049824461 -0.26168373
-0.17443468 -0.049742542 -0.2616818
-0.17443159 -0.049660675 -0.26167786
-0.1744283 -0.049578715 -0.26167792
-0.17442518 -0.049498796 -0.26167607
-0.17442203 -0.049414933 -0.26167208
-0.17441873 -0.049332969 -0.26167214
-0.17441551 -0.049253009 -0.26167226
-0.17441204 -0.049170963 -0.26167631
-0.17440894 -0.049089096 -0.26167241
-0.17440566 -0.049007133 -0.26167247
-0.17440225 -0.048927087 -0.26167658
-0.17439918 -0.048843257 -0.26167059
-0.17439628 -0.048761476 -0.26166266
-0.1743934 -0.048677735 -0.26165271
-0.17439032 -0.048595861 -0.26164877
-0.17438683 -0.048513815 -0.26165286
-0.17438382 -0.048433945 -0.26164898
-0.17438045 -0.048349984 -0.26164901
-0.17437704 -0.048269942 -0.26165313
-0.17437395 -0.048188068 -0.26164919
-0.17437077 -0.048106156 -0.26164725
-0.17436726 -0.048026063 -0.26165336
-0.17436388 -0.047944061 -0.26165542
-0.1743609 -0.047860276 -0.26164746
-0.1743581 -0.047778536 -0.26163754
-0.17435491 -0.04769662 -0.2616356
-0.17435122 -0.047616445 -0.2616457
-0.17434773 -0.047534399 -0.26164979
-0.17434484 -0.047452614 -0.26164186
-0.17434214 -0.047368959 -0.26162788
-0.17433895 -0.047287047 -0.26162595
-0.17433517 -0.047206827 -0.26163805
-0.17433168 -0.047124781 -0.26164213
-0.174329 -0.047041126 -0.26162815
-0.1743264 -0.046957515 -0.26161221
-0.17432341 -0.046875685 -0.26160628
-0.17432033 -0.046793815 -0.26160234
-0.17431694 -0.046711814 -0.26160443
-0.17431334 -0.046631679 -0.26161253
-0.17430964 -0.046551503 -0.26162264
-0.17430626 -0.046469502 -0.26162469
-0.17430355 -0.046387803 -0.26161277
-0.17430046 -0.046305928 -0.26160884
-0.17429657 -0.046225667 -0.26162297
-0.17429297 -0.046145536 -0.26163104
-0.17429039 -0.046061926 -0.2616151
-0.17428768 -0.045980223 -0.26160318
-0.17428429 -0.045898221 -0.26160526
-0.17428079 -0.045818131 -0.26161134
-0.1742775 -0.045736175 -0.2616114
-0.1742745 -0.045654345 -0.2616055
-0.17427142 -0.045572475 -0.26160157
-0.17426844 -0.045488689 -0.26159358
-0.17426544 -0.045406863 -0.26158768
-0.17426194 -0.045326769 -0.26159379
-0.17425856 -0.045244768 -0.26159585
-0.17425546 -0.045162898 -0.26159191
-0.17425177 -0.045082718 -0.26160201
-0.17424817 -0.045002587 -0.26161012
-0.17424479 -0.044920586 -0.26161218
-0.17424199 -0.044838842 -0.26160228
-0.17423908 -0.044757057 -0.26159436
-0.17423551 -0.04467497 -0.2616004
-0.17423201 -0.044594876 -0.26160651
-0.17422903 -0.044511095 -0.26159856
-0.17422664 -0.044427574 -0.26157862
-0.17422403 -0.044345915 -0.2615647
-0.17422035 -0.044263784 -0.26157275
-0.17421676 -0.044183649 -0.26158085
-0.17421366 -0.044101778 -0.26157692
-0.17421047 -0.044019863 -0.26157498
-0.17420717 -0.043939859 -0.26157713
-0.17420408 -0.043857988 -0.2615732
-0.17420088 -0.043776073 -0.26157126
-0.17419779 -0.043694198 -0.26156732
-0.17419441 -0.043612197 -0.26156938
-0.17419122 -0.043530285 -0.26156747
-0.17418842 -0.043448545 -0.26155755
-0.17418513 -0.043366581 -0.26155761
-0.17418183 -0.043284625 -0.2615577
-0.17417894 -0.04320284 -0.26154977
-0.17417614 -0.043121099 -0.26153985
-0.17417295 -0.04303918 -0.26153791
-0.17416914 -0.042960919 -0.26155207
-0.17416525 -0.042880654 -0.26156616
-0.17416196 -0.042798694 -0.26156622
-0.17415887 -0.042716824 -0.26156229
-0.17415588 -0.042634994 -0.26155639
-0.17415307 -0.042553253 -0.26154643
-0.17414989 -0.042471338 -0.26154453
-0.17414667 -0.042391375 -0.26154464
-0.17414348 -0.042309463 -0.26154271
-0.17414039 -0.042227589 -0.26153877
-0.1741374 -0.042145759 -0.26153284
-0.17413419 -0.042063843 -0.26153094
-0.17413092 -0.041981887 -0.261531
-0.174128 -0.041902054 -0.26152512
-0.17412493 -0.041818231 -0.26151913
-0.17412162 -0.041738227 -0.26152128
-0.17411833 -0.041656267 -0.26152134
-0.17411521 -0.041576348 -0.26151943
-0.17411193 -0.041494392 -0.26151952
-0.17410864 -0.041412435 -0.26151958
-0.17410555 -0.041330561 -0.26151568
-0.17410256 -0.041248731 -0.26150975
-0.17409946 -0.041166861 -0.26150581
-0.17409654 -0.041087031 -0.26149994
-0.17409307 -0.041004986 -0.26150399
-0.17408976 -0.040924981 -0.26150611
-0.17408708 -0.040841326 -0.26149213
-0.17408378 -0.04075937 -0.26149222
-0.17408037 -0.040679321 -0.26149634
-0.17407687 -0.040599231 -0.26150244
-0.17407349 -0.04051723 -0.2615045
-0.17407049 -0.0404354 -0.26149857
-0.17406769 -0.04035366 -0.26148865
-0.1740648 -0.040271871 -0.26148075
-0.17406161 -0.040189959 -0.26147881
-0.17405842 -0.04010804 -0.26147687
-0.17405492 -0.040027954 -0.26148298
-0.17405151 -0.039947905 -0.2614871
-0.17404851 -0.039866075 -0.26148117
-0.17404562 -0.03978429 -0.26147324
-0.17404252 -0.039702423 -0.26146933
-0.17403953 -0.039620589 -0.2614634
-0.17403634 -0.039538674 -0.26146147
-0.17403303 -0.03945867 -0.26146358
-0.17402965 -0.039376672 -0.26146564
-0.17402625 -0.039296623 -0.26146975
-0.17402296 -0.039214663 -0.26146984
-0.17401995 -0.039134793 -0.26146594
-0.17401674 -0.039052874 -0.261464
-0.17401327 -0.038970828 -0.26146808
-0.17400977 -0.038890742 -0.26147419
-0.17400667 -0.038808867 -0.26147026
-0.17400366 -0.038728993 -0.26146638
-0.17400037 -0.038647037 -0.26146644
-0.17399728 -0.038565163 -0.26146251
-0.17399406 -0.038485203 -0.26146263
-0.17399098 -0.038403332 -0.26145869
-0.17398769 -0.038321372 -0.26145878
-0.17398438 -0.038241368 -0.2614609
-0.17398129 -0.038159497 -0.26145697
-0.17397819 -0.038077623 -0.26145303
-0.17397501 -0.037995711 -0.26145113
-0.17397228 -0.037915967 -0.26144123
-0.173969 -0.037834007 -0.26144129
-0.17396531 -0.037753828 -0.26145142
-0.17396221 -0.037671957 -0.26144749
-0.17395951 -0.037590258 -0.26143557
-0.1739566 -0.037508473 -0.26142764
-0.17395332 -0.037426516 -0.2614277
-0.17395011 -0.037346557 -0.26142782
-0.17394711 -0.037264727 -0.26142192
-0.17394392 -0.037182808 -0.26141998
-0.17394052 -0.037102763 -0.26142409
-0.17393692 -0.037022632 -0.26143217
-0.17393354 -0.036940627 -0.26143426
-0.17393093 -0.036858972 -0.26142034
-0.17392825 -0.036775321 -0.26140639
-0.17392504 -0.036695357 -0.26140651
-0.17392163 -0.036615312 -0.26141059
-0.17391814 -0.036533266 -0.26141468
-0.17391494 -0.036453307 -0.2614148
-0.17391175 -0.036371391 -0.26141286
-0.17390865 -0.036289521 -0.26140893
-0.17390545 -0.036209561 -0.26140904
-0.17390175 -0.036129382 -0.26141915
-0.17389856 -0.036047466 -0.26141721
-0.17389566 -0.035965681 -0.26140928
-0.17389296 -0.035883982 -0.26139739
-0.17389016 -0.035802238 -0.26138747
-0.17388666 -0.035722151 -0.26139358
-0.17388305 -0.035642013 -0.26140168
-0.17388025 -0.035560273 -0.26139176
-0.17387755 -0.035478577 -0.26137984
-0.17387426 -0.035396617 -0.2613799
-0.17387116 -0.035316698 -0.26137802
-0.17386767 -0.035234652 -0.2613821
-0.17386407 -0.035154521 -0.26139021
-0.17386156 -0.035072908 -0.26137429
-0.17385915 -0.034991339 -0.26135638
-0.17385596 -0.034909423 -0.26135445
-0.17385246 -0.034829333 -0.26136056
-0.17384888 -0.034747243 -0.26136661
-0.17384577 -0.034667328 -0.26136473
-0.17384258 -0.034585413 -0.26136279
-0.17383927 -0.034505408 -0.26136494
-0.17383569 -0.034423321 -0.26137096
-0.17383251 -0.034341406 -0.26136905
-0.17382978 -0.034261663 -0.26135918
-0.17382659 -0.034179747 -0.26135725
-0.1738234 -0.034097832 -0.26135534
-0.17382048 -0.034018002 -0.26134944
-0.17381729 -0.033936083 -0.2613475
-0.17381391 -0.033854082 -0.26134959
-0.17381099 -0.033774253 -0.26134372
-0.1738078 -0.033692338 -0.26134178
-0.17380458 -0.033612378 -0.26134187
-0.1738015 -0.033530504 -0.26133797
-0.1737982 -0.033448547 -0.26133803
-0.17379528 -0.033368714 -0.26133215
-0.17379239 -0.033286929 -0.26132423
-0.17378889 -0.033206839 -0.26133034
-0.17378551 -0.033124838 -0.26133239
-0.17378248 -0.033044964 -0.26132852
-0.1737797 -0.032963224 -0.26131862
-0.17377698 -0.032881521 -0.2613067
-0.17377399 -0.032799695 -0.26130077
-0.1737708 -0.032717779 -0.26129884
-0.1737674 -0.03263773 -0.26130295
-0.1737639 -0.032557644 -0.26130906
-0.1737605 -0.032475639 -0.26131111
-0.17375711 -0.032395594 -0.26131523
-0.17375381 -0.032313634 -0.26131529
-0.1737507 -0.032233715 -0.26131341
-0.1737479 -0.032151975 -0.26130348
-0.1737452 -0.032070275 -0.26129159
-0.17374189 -0.031990271 -0.26129371
-0.17373851 -0.03190827 -0.26129577
-0.17373511 -0.031828225 -0.26129988
-0.1737317 -0.031748176 -0.26130399
-0.1737287 -0.031666346 -0.26129806
-0.17372552 -0.031584434 -0.26129612
-0.17372242 -0.03150256 -0.26129222
-0.1737197 -0.031422816 -0.26128232
-0.1737168 -0.031341031 -0.2612744
-0.17371361 -0.031259116 -0.26127249
-0.1737105 -0.031179197 -0.26127058
-0.17370722 -0.031097241 -0.26127067
-0.1737038 -0.031017194 -0.26127478
-0.17370062 -0.030935278 -0.26127285
-0.1736975 -0.030855361 -0.26127097
-0.17369372 -0.030775141 -0.26128307
-0.17369023 -0.030693095 -0.26128712
-0.17368743 -0.030611353 -0.2612772
-0.17368461 -0.030531567 -0.26126933
-0.17368162 -0.030449737 -0.2612634
-0.17367862 -0.030367907 -0.2612575
-0.17367572 -0.030286122 -0.26124957
-0.17367271 -0.030206248 -0.2612457
-0.17366959 -0.030126331 -0.26124382
-0.1736664 -0.030044416 -0.26124188
-0.1736633 -0.029962543 -0.26123795
-0.17366031 -0.029880716 -0.26123202
-0.1736571 -0.029800754 -0.26123214
-0.1736535 -0.029720621 -0.26124024
-0.17365012 -0.02963862 -0.26124233
-0.17364788 -0.029559091 -0.26122245
-0.17364508 -0.02947735 -0.26121253
-0.17364141 -0.029395219 -0.26122057
-0.173638 -0.02931517 -0.26122469
-0.17363481 -0.029233256 -0.26122278
-0.17363189 -0.029153425 -0.26121691
-0.1736289 -0.029071596 -0.26121098
-0.17362598 -0.028991766 -0.26120508
-0.1736225 -0.02890972 -0.26120916
-0.1736189 -0.028829588 -0.26121727
-0.17361541 -0.028747542 -0.26122132
-0.1736124 -0.028667668 -0.26121745
-0.17360932 -0.028585795 -0.26121351
-0.1736062 -0.028505879 -0.26121163
-0.17360321 -0.028424051 -0.26120573
-0.17360029 -0.02834422 -0.26119983
-0.1735971 -0.028262304 -0.26119792
-0.1735941 -0.028180476 -0.26119196
-0.17359108 -0.0281006 -0.26118812
-0.17358761 -0.028018557 -0.26119217
-0.17358439 -0.027938595 -0.26119229
-0.17358111 -0.027856637 -0.26119235
-0.17357799 -0.02777672 -0.26119047
-0.1735747 -0.027694762 -0.26119053
-0.17357139 -0.027614757 -0.26119265
-0.1735682 -0.027532842 -0.26119071
-0.17356551 -0.027451143 -0.26117879
-0.17356278 -0.027371399 -0.26116896
-0.17355977 -0.027291525 -0.26116505
-0.17355628 -0.027209481 -0.26116911
-0.1735528 -0.027127435 -0.26117319
-0.17354989 -0.027047604 -0.26116732
-0.17354679 -0.026965734 -0.26116338
-0.17354359 -0.026885772 -0.2611635
-0.17354019 -0.026803771 -0.26116556
-0.17353728 -0.02672394 -0.26115969
-0.17353477 -0.026642326 -0.26114377
-0.17353176 -0.026562452 -0.2611399
-0.17352827 -0.026480408 -0.26114395
-0.17352526 -0.026400534 -0.26114008
-0.17352177 -0.026318489 -0.26114416
-0.17351799 -0.02623827 -0.26115623
-0.17351489 -0.026156398 -0.26115233
-0.17351216 -0.026076652 -0.26114243
-0.17350917 -0.025994824 -0.26113653
-0.17350635 -0.025915036 -0.26112863
-0.17350277 -0.025832949 -0.26113471
-0.17349946 -0.025752945 -0.26113683
-0.17349696 -0.025671333 -0.26112092
-0.17349377 -0.025589418 -0.26111898
-0.17349036 -0.02550937 -0.26112309
-0.17348717 -0.025427455 -0.26112115
-0.17348416 -0.025347581 -0.26111728
-0.17348143 -0.025267836 -0.26110741
-0.17347825 -0.02518592 -0.26110548
-0.17347457 -0.025103791 -0.26111352
-0.17347136 -0.025023829 -0.26111364
-0.17346846 -0.024942044 -0.26110572
-0.17346506 -0.024861997 -0.26110983
-0.17346187 -0.024780082 -0.26110792
-0.17345884 -0.024700208 -0.26110405
-0.17345557 -0.024618249 -0.26110411
-0.17345284 -0.024538506 -0.26109424
-0.17344916 -0.024456372 -0.26110229
-0.17344557 -0.02437624 -0.2611104
-0.17344266 -0.024294455 -0.26110247
-0.17343919 -0.024212409 -0.26110655
-0.17343588 -0.024132406 -0.26110864
-0.17343315 -0.024052661 -0.26109877
-0.17343025 -0.023970876 -0.26109087
-0.17342734 -0.023891045 -0.26108497
-0.17342435 -0.023809217 -0.26107904
-0.17342104 -0.023729213 -0.26108116
-0.17341775 -0.023647254 -0.26108122
-0.17341475 -0.023565425 -0.26107532
-0.17341155 -0.023485465 -0.26107544
-0.17340845 -0.023403592 -0.2610715
-0.17340533 -0.023323676 -0.26106963
-0.17340203 -0.023243671 -0.26107174
-0.17339855 -0.023161627 -0.26107579
-0.17339565 -0.023079842 -0.26106787
-0.17339273 -0.023000011 -0.261062
-0.17338935 -0.022918008 -0.26106405
-0.17338614 -0.022838049 -0.26106417
-0.17338246 -0.022755917 -0.26107222
-0.17337915 -0.022675913 -0.26107433
-0.17337586 -0.022593955 -0.26107442
-0.17337246 -0.022513907 -0.26107854
-0.17336947 -0.02243208 -0.26107261
-0.17336693 -0.022352422 -0.26105875
-0.17336366 -0.022270463 -0.26105881
-0.17336047 -0.022188548 -0.26105687
-0.17335697 -0.022108458 -0.26106298
-0.17335366 -0.022028454 -0.2610651
-0.17335114 -0.02194684 -0.26104918
-0.17334764 -0.02186675 -0.26105529
-0.17334357 -0.021784447 -0.26107132
-0.17334019 -0.021702444 -0.26107341
-0.17333786 -0.021622874 -0.26105553
-0.17333379 -0.021540569 -0.26107156
-0.17333058 -0.021460608 -0.26107171
-0.17333061 -0.021380121 -0.26100385
-0.17332672 -0.021299858 -0.26101798
-0.17332292 -0.021219637 -0.26103008
-0.1733208 -0.021138199 -0.26100618
-0.17331867 -0.021058712 -0.2609843
-0.17331576 -0.020976927 -0.26097637
