# .PCD v0.7 - Point Cloud Data file format
VERSION 0.7
FIELDS x y z
SIZE 4 4 4
TYPE F F F
COUNT 1 1 1
WIDTH 1258
HEIGHT 1
VIEWPOINT 0 0 0 1 0 0 0
POINTS 1258
DATA ascii
-0.030364348 -0.017393885 -0.25361547
-0.030360792 -0.017309843 -0.25361946
-0.030357607 -0.017227927 -0.25361753
-0.030354246 -0.01714397 -0.25361758
-0.030350866 -0.017061967 -0.25361961
-0.030347701 -0.016978098 -0.25361568
-0.030344633 -0.016894272 -0.25360969
-0.030341545 -0.016812399 -0.25360575
-0.030338282 -0.016728487 -0.25360379
-0.030335292 -0.016646657 -0.25359786
-0.030331736 -0.016562615 -0.25360185
-0.030328374 -0.016478658 -0.25360191
-0.030325189 -0.016396742 -0.25359997
-0.030321829 -0.016312785 -0.2536
-0.030318936 -0.016231 -0.25359207
-0.030315675 -0.016147086 -0.25359008
-0.030312587 -0.016065214 -0.25358614
-0.030309517 -0.015981387 -0.25358018
-0.030306157 -0.01589743 -0.25358021
-0.03030307 -0.01581556 -0.25357628
-0.030299904 -0.015731689 -0.25357229
-0.030296719 -0.015649773 -0.25357038
-0.030293554 -0.015565904 -0.25356638
-0.030290291 -0.01548199 -0.25356442
-0.03028691 -0.015399989 -0.25356647
-0.030283745 -0.015316118 -0.25356251
-0.03028095 -0.015234376 -0.25355259
-0.030277785 -0.015150506 -0.25354862
-0.03027413 -0.01506642 -0.25355464
-0.030270457 -0.014984288 -0.25356269
-0.030267293 -0.014900418 -0.2535587
-0.030264204 -0.014818545 -0.25355479
-0.030260552 -0.01473446 -0.25356078
-0.030256899 -0.014650373 -0.2535668
-0.030253615 -0.014568415 -0.25356686
-0.030250255 -0.014484458 -0.25356689
-0.03024709 -0.014400588 -0.25356293
-0.030244198 -0.014318802 -0.253555
-0.030241128 -0.014234976 -0.25354904
-0.030237943 -0.014153061 -0.2535471
-0.030234583 -0.014069104 -0.25354713
-0.03023169 -0.013987319 -0.2535392
-0.030228622 -0.013903491 -0.25353321
-0.030225066 -0.013819449 -0.25353724
-0.030221589 -0.013737403 -0.25354129
-0.03021862 -0.013653619 -0.25353333
-0.030215725 -0.013571834 -0.25352541
-0.030212268 -0.013487834 -0.25352743
-0.030208712 -0.013403791 -0.25353146
-0.030205624 -0.013321919 -0.25352752
-0.030202361 -0.013238005 -0.25352553
-0.030199001 -0.013154048 -0.25352556
-0.030195815 -0.013072134 -0.25352362
-0.030192552 -0.01298822 -0.25352165
-0.030189855 -0.012906522 -0.25350973
-0.030186983 -0.012822781 -0.25349975
-0.030183133 -0.012738608 -0.25350976
-0.030179091 -0.012654349 -0.25352377
-0.030176003 -0.012572477 -0.25351983
-0.030173326 -0.012488822 -0.25350589
-0.030170139 -0.012406908 -0.25350395
-0.030166585 -0.012322865 -0.25350797
-0.030163029 -0.012238822 -0.25351197
-0.03015957 -0.012154821 -0.25351399
-0.030156776 -0.01207308 -0.2535041
-0.030153785 -0.011991251 -0.25349817
-0.030150229 -0.011907207 -0.25350216
-0.030146772 -0.011823207 -0.25350419
-0.030143704 -0.011739381 -0.25349823
-0.030140616 -0.011657509 -0.25349429
-0.030137256 -0.011573553 -0.25349432
-0.030133797 -0.011489552 -0.25349632
-0.030130319 -0.011407507 -0.2535004
-0.030126764 -0.011323464 -0.2535044
-0.030124066 -0.011241765 -0.25349247
-0.030121388 -0.011158112 -0.25347853
-0.030118398 -0.011076283 -0.2534726
-0.030115038 -0.010992326 -0.25347263
-0.030111579 -0.010908326 -0.25347462
-0.030108102 -0.010826281 -0.25347871
-0.030104643 -0.010742281 -0.25348073
-0.030101478 -0.010658411 -0.25347674
-0.03009839 -0.010576539 -0.25347281
-0.030095322 -0.010492712 -0.25346684
-0.030092236 -0.01041084 -0.25346291
-0.030088387 -0.010326668 -0.25347292
-0.03008483 -0.010242624 -0.25347692
-0.030081958 -0.010158883 -0.25346696
-0.030078968 -0.010077055 -0.25346106
-0.030075315 -0.0099929683 -0.25346705
-0.030072052 -0.0099090552 -0.25346509
-0.030069452 -0.0098273996 -0.25345117
-0.030066656 -0.0097456574 -0.25344124
-0.030062925 -0.0096595725 -0.2534472
-0.030059349 -0.0095774839 -0.25345325
-0.030055795 -0.0094934413 -0.25345728
-0.030052532 -0.0094095282 -0.25345531
-0.03004954 -0.0093276994 -0.25344938
-0.030046375 -0.0092438292 -0.25344542
-0.030043308 -0.0091600018 -0.25343943
-0.030040123 -0.0090780873 -0.25343752
-0.030036664 -0.0089940866 -0.25343952
-0.030033771 -0.0089123007 -0.25343162
-0.030030802 -0.008828518 -0.25342363
-0.030027246 -0.0087444745 -0.25342765
-0.030023962 -0.0086625163 -0.25342771
-0.03002109 -0.0085787764 -0.25341776
-0.030018294 -0.0084970342 -0.25340784
-0.030014738 -0.0084129907 -0.25341183
-0.030011086 -0.0083289035 -0.25341785
-0.030007822 -0.0082449913 -0.25341588
-0.030004637 -0.0081630759 -0.25341395
-0.030001277 -0.008079119 -0.25341398
-0.029997818 -0.0079951184 -0.253416
-0.029994458 -0.0079111625 -0.253416
-0.029991273 -0.007829247 -0.25341406
-0.029987913 -0.0077452902 -0.25341409
-0.029984921 -0.0076634614 -0.25340816
-0.029981855 -0.0075796349 -0.2534022
-0.029978592 -0.0074957218 -0.25340021
-0.029975601 -0.007413893 -0.25339431
-0.029972533 -0.0073300656 -0.25338835
-0.029969251 -0.0072481073 -0.2533884
-0.029965889 -0.0071641505 -0.2533884
-0.029962627 -0.0070802374 -0.25338644
-0.029959831 -0.0069984952 -0.25337651
-0.029956764 -0.0069146687 -0.25337055
-0.029952915 -0.0068304949 -0.25338054
-0.029949263 -0.0067464076 -0.25338656
-0.029946195 -0.006662583 -0.2533806
-0.029943008 -0.0065806657 -0.25337866
-0.029939746 -0.0064967535 -0.25337669
-0.029936658 -0.006414881 -0.25337276
-0.02993359 -0.0063310545 -0.25336677
-0.029930523 -0.006247228 -0.25336081
-0.029927239 -0.0061652679 -0.25336087
-0.029923977 -0.0060813557 -0.2533589
-0.02992091 -0.0059975293 -0.25335294
-0.029917547 -0.0059135724 -0.25335294
-0.029914169 -0.0058315713 -0.25335503
-0.029911101 -0.0057477448 -0.25334907
-0.029908013 -0.0056658704 -0.25334513
-0.029904749 -0.0055819582 -0.25334314
-0.029901389 -0.0054980032 -0.25334316
-0.029897541 -0.0054138303 -0.25335318
-0.029894082 -0.0053298287 -0.25335518
-0.029891483 -0.0052481741 -0.25334126
-0.029889077 -0.0051666051 -0.25332338
-0.029885717 -0.0050826482 -0.25332338
-0.02988226 -0.0049986485 -0.2533254
-0.029878877 -0.0049166456 -0.25332746
-0.029875051 -0.0048305187 -0.25333542
-0.029871104 -0.004746303 -0.25334743
-0.029868133 -0.0046625193 -0.25333947
-0.029865904 -0.00458299 -0.25331959
-0.02986264 -0.0044990778 -0.25331762
-0.029858988 -0.0044149905 -0.25332364
-0.029855628 -0.0043310337 -0.25332367
-0.029852072 -0.0042469911 -0.25332767
-0.029848984 -0.0041651204 -0.25332373
-0.029845916 -0.0040812902 -0.25331777
-0.029843023 -0.0039995071 -0.25330985
-0.029840151 -0.0039157663 -0.25329989
-0.029836887 -0.0038318541 -0.2532979
-0.029833507 -0.0037498493 -0.25329995
-0.029829971 -0.0036638528 -0.25330195
-0.029826786 -0.0035819393 -0.25330001
-0.029823795 -0.0035001095 -0.25329408
-0.029820923 -0.0034163687 -0.25328413
-0.029817367 -0.0033323262 -0.25328815
-0.029814202 -0.0032484569 -0.25328416
-0.029811017 -0.0031665415 -0.25328222
-0.029807188 -0.0030804146 -0.25329018
-0.029803827 -0.0029964559 -0.25329021
-0.029800739 -0.0029145852 -0.25328627
-0.029797282 -0.0028305836 -0.2532883
-0.029794779 -0.0027489737 -0.25327238
-0.029792275 -0.00266736 -0.2532565
-0.029788624 -0.0025832728 -0.25326249
-0.02978497 -0.0024991874 -0.25326851
-0.029781999 -0.0024154037 -0.25326052
-0.029778738 -0.0023314897 -0.25325856
-0.029775551 -0.0022495743 -0.25325662
-0.029771723 -0.0021634456 -0.25326461
-0.029767971 -0.0020793173 -0.25327259
-0.029764514 -0.0019953176 -0.25327462
-0.029761817 -0.0019136202 -0.2532627
-0.029759705 -0.0018321779 -0.2532388
-0.029756714 -0.0017503519 -0.25323287
-0.02975269 -0.0016641356 -0.25324485
-0.029749233 -0.0015801378 -0.25324684
-0.029746437 -0.0014983937 -0.25323692
-0.029743174 -0.0014144816 -0.25323495
-0.029739618 -0.0013304371 -0.25323898
-0.029736258 -0.0012464821 -0.25323898
-0.029732702 -0.0011624396 -0.253243
-0.029729517 -0.0010805223 -0.25324106
-0.029726645 -0.00099678151 -0.25323111
-0.029723752 -0.00091499835 -0.25322318
-0.029720489 -0.00083108246 -0.25322121
-0.029716834 -0.00074699707 -0.25322723
-0.029713474 -0.00066304021 -0.25322723
-0.029710213 -0.00057912618 -0.25322527
-0.029706949 -0.00049521402 -0.25322327
-0.02970396 -0.00041338429 -0.25321734
-0.029700696 -0.00032947212 -0.25321537
-0.029697804 -0.0002476871 -0.25320745
-0.029694736 -0.00016386062 -0.25320148
-0.029691374 -7.9903752e-05 -0.25320151
-0.029688014 4.0531158e-06 -0.25320154
-0.029684654 8.8011846e-05 -0.25320154
-0.029681293 0.00017196685 -0.25320157
-0.029678205 0.00025383942 -0.25319764
-0.029674942 0.00033775158 -0.25319567
-0.029671289 0.0004218407 -0.25320166
-0.029667754 0.0005078353 -0.25320366
-0.029664762 0.00058966689 -0.25319773
-0.029662065 0.00067136437 -0.25318581
-0.029658997 0.00075519085 -0.25317985
-0.029655637 0.00083914772 -0.25317985
-0.029652277 0.00092310458 -0.25317988
-0.029648915 0.0010070615 -0.25317991
-0.029645829 0.0010889322 -0.25317597
-0.029642195 0.0011749733 -0.25317994
-0.029638834 0.0012589283 -0.25317997
-0.029635942 0.0013407171 -0.25317204
-0.029632777 0.0014245845 -0.25316805
-0.029629786 0.0015064143 -0.25316215
-0.029626718 0.0015902407 -0.25315616
-0.029623065 0.001674328 -0.25316218
-0.029619236 0.0017604567 -0.25317013
-0.029616246 0.0018422846 -0.2531642
-0.029613178 0.0019261111 -0.25315824
-0.029610014 0.0020099804 -0.25315428
-0.029607022 0.0020918101 -0.25314835
-0.029603565 0.0021758117 -0.25315034
-0.029599912 0.0022598952 -0.25315636
-0.029596649 0.0023438092 -0.2531544
-0.029593386 0.0024277214 -0.25315243
-0.029590219 0.0025115944 -0.25314844
-0.029587328 0.0025933795 -0.25314051
-0.029584259 0.002677206 -0.25313455
-0.029580802 0.0027612038 -0.25313658
-0.029577442 0.0028451625 -0.25313658
-0.029574547 0.0029269475 -0.25312865
-0.029571772 0.0030106455 -0.2531167
-0.029568315 0.0030946434 -0.25311872
-0.029564954 0.0031786002 -0.25311875
-0.029562159 0.0032603443 -0.2531088
-0.029558994 0.0033442117 -0.25310484
-0.029555164 0.0034303404 -0.25311279
-0.029551707 0.0035143401 -0.25311482
-0.02954825 0.0035983399 -0.25311685
-0.029544692 0.0036823824 -0.25312084
-0.029541431 0.0037662964 -0.25311887
-0.029538557 0.0038500372 -0.25310892
-0.029535763 0.0039317794 -0.25309899
-0.029532401 0.0040157363 -0.25309902
-0.029528944 0.004099736 -0.25310102
-0.029525388 0.0041837785 -0.25310504
-0.029522125 0.0042676944 -0.25310308
-0.029519057 0.004351519 -0.25309709
-0.02951597 0.0044333916 -0.25309318
-0.029512901 0.0045172162 -0.25308719
-0.029509345 0.0046012588 -0.25309122
-0.029506374 0.0046850443 -0.25308323
-0.02950358 0.0047667865 -0.25307333
-0.029499752 0.0048529152 -0.25308129
-0.029495534 0.0049392153 -0.25309724
-0.029492563 0.0050229989 -0.25308925
-0.029490333 0.0051025264 -0.2530694
-0.02948707 0.0051864404 -0.25306743
-0.029483613 0.0052704401 -0.25306946
-0.029480077 0.0053564385 -0.25307143
-0.029476229 0.0054406095 -0.25308144
-0.029473258 0.0055243932 -0.25307345
-0.029471222 0.005603835 -0.25304961
-0.029467959 0.005687749 -0.25304765
-0.029464405 0.0057717916 -0.25305164
-0.029461239 0.0058556627 -0.25304765
-0.029457878 0.0059396196 -0.2530477
-0.029453289 0.0060280468 -0.25306958
-0.031012569 -0.034109119 -0.25400382
-0.031007899 -0.034028508 -0.25403389
-0.031004343 -0.033944465 -0.25403792
-0.03100108 -0.033860553 -0.25403595
-0.0309985 -0.033776943 -0.25401998
-0.030995531 -0.033693157 -0.25401199
-0.030992443 -0.033611286 -0.25400808
-0.030989492 -0.033525549 -0.25399807
-0.030986913 -0.033441938 -0.25398213
-0.032465376 -0.031572957 -0.22159764
-0.032425351 -0.031549308 -0.22241235
-0.030976402 -0.033193804 -0.25399426
-0.030973431 -0.033110023 -0.2539863
-0.030971143 -0.033026543 -0.25396433
-0.030968193 -0.032940805 -0.25395432
-0.030964617 -0.032858714 -0.25396037
-0.030960944 -0.032776583 -0.25396842
-0.03095739 -0.03269254 -0.25397244
-0.030954419 -0.032608755 -0.25396448
-0.030951254 -0.032524884 -0.25396049
-0.030947873 -0.032442883 -0.25396258
-0.030944396 -0.032360841 -0.25396663
-0.030941132 -0.032276925 -0.25396463
-0.030937966 -0.032193057 -0.25396067
-0.030934997 -0.032109272 -0.25395271
-0.030932222 -0.032025576 -0.25394073
-0.03092894 -0.031943616 -0.25394082
-0.030924682 -0.031861223 -0.25396085
-0.030921126 -0.031777181 -0.25396487
-0.030918252 -0.031693444 -0.25395489
-0.030915165 -0.031611569 -0.25395095
-0.030911805 -0.031527612 -0.25395098
-0.030908834 -0.031443831 -0.25394303
-0.030905863 -0.031360045 -0.25393504
-0.030902289 -0.031277958 -0.25394112
-0.030898226 -0.031195654 -0.25395715
-0.030895159 -0.031111825 -0.25395116
-0.030891992 -0.031027956 -0.2539472
-0.030888535 -0.030943956 -0.25394922
-0.030885467 -0.03086013 -0.25394326
-0.030882379 -0.030778257 -0.25393933
-0.030879408 -0.030694474 -0.25393134
-0.030876243 -0.030610604 -0.25392738
-0.030873155 -0.030528732 -0.25392345
-0.030870184 -0.03044495 -0.25391549
-0.030866923 -0.030361034 -0.25391349
-0.030863542 -0.030279033 -0.25391558
-0.030860571 -0.030195249 -0.25390762
-0.030857114 -0.03011125 -0.25390962
-0.030853441 -0.030029118 -0.25391766
-0.030849982 -0.029945118 -0.25391969
-0.030846408 -0.02986303 -0.25392574
-0.030843243 -0.02977916 -0.25392178
-0.030840468 -0.029695462 -0.25390983
-0.030837497 -0.029611681 -0.25390184
-0.030834507 -0.029529851 -0.25389591
-0.03083105 -0.029445851 -0.25389794
-0.030827278 -0.029363677 -0.25390798
-0.030824114 -0.029279806 -0.25390401
-0.030821143 -0.029196022 -0.25389603
-0.030817958 -0.029114109 -0.25389409
-0.030814793 -0.029030237 -0.25389016
-0.03081153 -0.028946323 -0.25388816
-0.030808344 -0.028864408 -0.25388622
-0.030805178 -0.028780539 -0.25388226
-0.0308017 -0.028698493 -0.25388631
-0.030798145 -0.02861445 -0.25389034
-0.03079498 -0.028530579 -0.25388634
-0.030791599 -0.028448578 -0.25388843
-0.030788338 -0.028364664 -0.25388643
-0.030784976 -0.028280709 -0.25388646
-0.030781401 -0.028198618 -0.25389254
-0.030778041 -0.028114663 -0.25389254
-0.030774856 -0.028032748 -0.2538906
-0.030771691 -0.027948879 -0.25388664
-0.03076872 -0.027865093 -0.25387865
-0.030765731 -0.027783265 -0.25387272
-0.03076276 -0.027699482 -0.25386477
-0.030759301 -0.027615482 -0.25386679
-0.030755434 -0.027533263 -0.25387883
-0.030752366 -0.027449436 -0.25387287
-0.030749787 -0.027365826 -0.2538569
-0.03074662 -0.027281955 -0.25385293
-0.030743143 -0.027199911 -0.25385699
-0.030739587 -0.027115868 -0.25386101
-0.030736109 -0.027033823 -0.25386506
-0.030733138 -0.026950039 -0.25385711
-0.030730052 -0.026868168 -0.25385317
-0.030726984 -0.02678434 -0.25384721
-0.030724013 -0.026700556 -0.25383922
-0.030721121 -0.026618771 -0.2538313
-0.030717956 -0.0265349 -0.25382733
-0.030714693 -0.026450988 -0.25382537
-0.030711215 -0.026368942 -0.25382942
-0.030707758 -0.026284942 -0.25383145
-0.030704474 -0.026202984 -0.25383151
-0.0307016 -0.026119243 -0.25382155
-0.030698435 -0.026035374 -0.25381756
-0.030694569 -0.025953155 -0.2538296
-0.030691501 -0.025869329 -0.25382364
-0.030688822 -0.025785675 -0.25380969
-0.030685345 -0.025703629 -0.25381374
-0.030681496 -0.025619457 -0.25382376
-0.030678215 -0.025537498 -0.25382382
-0.030675048 -0.025453629 -0.25381982
-0.030672058 -0.025371799 -0.25381392
-0.030668795 -0.025287887 -0.25381193
-0.030665142 -0.0252038 -0.25381795
-0.030661957 -0.025121884 -0.25381601
-0.030659085 -0.025038145 -0.25380605
-0.030655997 -0.024956273 -0.25380212
-0.030652929 -0.024872446 -0.25379616
-0.030649958 -0.024788663 -0.25378817
-0.030647065 -0.024706876 -0.25378025
-0.030643217 -0.024622703 -0.25379026
-0.030639544 -0.024540571 -0.25379831
-0.030636087 -0.024456572 -0.25380033
-0.030632922 -0.024372702 -0.25379637
-0.030630127 -0.02429096 -0.25378644
-0.030627158 -0.024207177 -0.25377846
-0.030623991 -0.024123305 -0.25377449
-0.030621098 -0.02404152 -0.25376657
-0.030617446 -0.023957435 -0.25377259
-0.030613579 -0.023875216 -0.25378466
-0.03061012 -0.023791216 -0.25378665
-0.030607149 -0.023707433 -0.2537787
-0.030603867 -0.023625474 -0.25377876
-0.030600408 -0.023541475 -0.25378078
-0.030597419 -0.023459645 -0.25377485
-0.030594351 -0.023375819 -0.25376886
-0.030591166 -0.023293903 -0.25376695
-0.03058839 -0.023210207 -0.25375497
-0.030585323 -0.023126379 -0.25374901
-0.030582041 -0.02304442 -0.25374907
-0.030578874 -0.022960551 -0.25374508
-0.030575786 -0.022878679 -0.25374117
-0.030572036 -0.022794548 -0.25374919
-0.03056848 -0.022710506 -0.25375319
-0.030565491 -0.022628676 -0.25374728
-0.030562423 -0.02254485 -0.25374129
-0.030559042 -0.022462849 -0.25374335
-0.030555779 -0.022378935 -0.25374138
-0.030552322 -0.022294935 -0.25374341
-0.030549137 -0.022213019 -0.25374147
-0.030546166 -0.022129236 -0.25373352
-0.030542981 -0.02204732 -0.25373158
-0.030539425 -0.021963278 -0.25373557
-0.030536065 -0.021879321 -0.2537356
-0.03053288 -0.021797406 -0.25373366
-0.030529812 -0.021713579 -0.2537277
-0.030526822 -0.021631751 -0.25372177
-0.030523755 -0.021547923 -0.25371581
-0.030520862 -0.021466138 -0.25370789
-0.030517794 -0.021382311 -0.25370193
-0.030514434 -0.021298354 -0.25370193
-0.030510761 -0.021216223 -0.25370997
-0.030507497 -0.021132309 -0.253708
-0.030504216 -0.021050351 -0.25370806
-0.030500367 -0.020966178 -0.25371808
-0.030497104 -0.020882264 -0.25371611
-0.030494308 -0.020800523 -0.25370619
-0.030491143 -0.020716652 -0.25370222
-0.030488152 -0.020634823 -0.25369629
-0.030484987 -0.020550953 -0.2536923
-0.03048153 -0.020466954 -0.25369433
-0.030478053 -0.020384908 -0.25369838
-0.030474868 -0.020302992 -0.25369644
-0.030471604 -0.02021908 -0.25369447
-0.030468633 -0.020135297 -0.25368652
-0.030465839 -0.020053554 -0.25367659
-0.030462284 -0.019969512 -0.25368062
-0.030458903 -0.019887509 -0.25368267
-0.030455738 -0.01980364 -0.25367871
-0.030452572 -0.019719768 -0.25367472
-0.03044929 -0.01963781 -0.25367481
-0.030445831 -0.01955381 -0.2536768
-0.030442744 -0.019471938 -0.2536729
-0.030439969 -0.019388242 -0.25366092
-0.030437173 -0.0193065 -0.25365099
-0.03043391 -0.019222585 -0.25364903
-0.030430257 -0.0191385 -0.25365502
-0.030427169 -0.019056628 -0.25365111
-0.030424394 -0.01897293 -0.25363913
-0.030421015 -0.018890928 -0.25364122
-0.030417459 -0.018806886 -0.25364521
-0.030414294 -0.018723015 -0.25364125
-0.030410815 -0.018640969 -0.2536453
-0.030407261 -0.018556926 -0.25364932
-0.03040427 -0.018475099 -0.25364339
-0.030401397 -0.018391358 -0.25363344
-0.0303987 -0.018309658 -0.25362152
-0.03039534 -0.018225703 -0.25362152
-0.030391589 -0.018141573 -0.25362954
-0.030388208 -0.01805957 -0.25363159
-0.030384652 -0.017975528 -0.25363562
-0.030381566 -0.017893655 -0.25363168
-0.030378498 -0.017809829 -0.25362572
-0.030375235 -0.017725915 -0.25362375
-0.03037205 -0.017643999 -0.25362182
-0.030368786 -0.017560087 -0.25361985
-0.030365698 -0.017478215 -0.25361592
-0.030362241 -0.017394215 -0.25361791
-0.03035849 -0.017310085 -0.25362593
-0.030355403 -0.017228212 -0.253622
-0.030352335 -0.017144386 -0.25361603
-0.03034915 -0.01706247 -0.2536141
-0.03034579 -0.016978513 -0.25361413
-0.030342527 -0.016894601 -0.25361216
-0.030339245 -0.016812641 -0.25361222
-0.030336371 -0.016728902 -0.25360224
-0.030333284 -0.01664703 -0.25359833
-0.03032963 -0.016562942 -0.25360432
-0.030326366 -0.01647903 -0.25360236
-0.03032328 -0.016397158 -0.25359842
-0.030320309 -0.016313374 -0.25359046
-0.030317221 -0.016231503 -0.25358653
-0.030313568 -0.016147416 -0.25359255
-0.030310404 -0.016063545 -0.25358856
-0.030307608 -0.015981805 -0.25357866
-0.030304443 -0.015897933 -0.25357467
-0.030301355 -0.015816063 -0.25357074
-0.030298091 -0.015732149 -0.25356877
-0.030295005 -0.015650276 -0.25356483
-0.030291546 -0.015566276 -0.25356686
-0.030287992 -0.015482233 -0.25357085
-0.030284904 -0.015400361 -0.25356692
-0.030281737 -0.015316491 -0.25356296
-0.030278651 -0.015234619 -0.25355902
-0.030275388 -0.015150706 -0.25355706
-0.030272027 -0.015066749 -0.25355709
-0.030268842 -0.014984834 -0.25355515
-0.030265383 -0.014900834 -0.25355718
-0.030262005 -0.014818832 -0.25355923
-0.030258546 -0.014734833 -0.25356126
-0.030255089 -0.014650833 -0.25356326
-0.030251512 -0.014568744 -0.2535693
-0.030247957 -0.014484701 -0.25357333
-0.030245084 -0.014400961 -0.25356337
-0.030242581 -0.014319348 -0.25354746
-0.030239319 -0.014235435 -0.25354549
-0.030236231 -0.014153562 -0.25354156
-0.030233163 -0.014069736 -0.25353557
-0.030229978 -0.013987821 -0.25353366
-0.030226521 -0.013903821 -0.25353566
-0.030222867 -0.013819735 -0.25354168
-0.030219585 -0.013737775 -0.25354174
-0.030216418 -0.013653906 -0.25353777
-0.030213546 -0.013570165 -0.25352779
-0.030210458 -0.013488294 -0.25352389
-0.030206904 -0.01340425 -0.25352788
-0.030203249 -0.013320164 -0.2535339
-0.030199774 -0.013238119 -0.25353795
-0.030196412 -0.013154162 -0.25353798
-0.030193422 -0.013072333 -0.25353205
-0.030190257 -0.012988463 -0.25352809
-0.03018719 -0.012904637 -0.2535221
-0.030184297 -0.012822851 -0.2535142
-0.030180935 -0.012738894 -0.2535142
-0.030177556 -0.012656893 -0.25351626
-0.030174389 -0.012573022 -0.25351229
-0.030171128 -0.012489108 -0.25351033
-0.03016804 -0.012407237 -0.25350639
-0.030165069 -0.012323454 -0.25349844
-0.030161884 -0.012241539 -0.2534965
-0.030158427 -0.012157539 -0.25349852
-0.030155066 -0.012073582 -0.25349852
-0.030151783 -0.011991624 -0.25349861
-0.030148325 -0.011907623 -0.25350061
-0.03014477 -0.01182358 -0.25350463
-0.030141313 -0.011739581 -0.25350666
-0.030138321 -0.011657752 -0.25350073
-0.030135527 -0.01157601 -0.25349081
-0.030132068 -0.01149201 -0.25349283
-0.030128319 -0.011407879 -0.25350082
-0.03012486 -0.011323879 -0.25350285
-0.03012226 -0.011242224 -0.25348893
-0.030119387 -0.011158484 -0.25347897
-0.030116202 -0.011076569 -0.25347704
-0.030112647 -0.010992525 -0.25348103
-0.030109189 -0.010908525 -0.25348306
-0.030106101 -0.010826654 -0.25347912
-0.030102838 -0.01074274 -0.25347716
-0.030099381 -0.01065874 -0.25347918
-0.030096196 -0.010576825 -0.25347725
-0.030093322 -0.010493085 -0.25346726
-0.030089961 -0.010409128 -0.25346729
-0.030086387 -0.01032704 -0.25347334
-0.030083319 -0.010243213 -0.25346738
-0.030080426 -0.010161428 -0.25345945
-0.030076792 -0.010075387 -0.25346345
-0.03007351 -0.0099934274 -0.25346351
-0.030070346 -0.0099095572 -0.25345951
-0.03006755 -0.009827815 -0.25344959
-0.030064482 -0.0097439885 -0.25344363
-0.030060537 -0.0096597718 -0.25345564
-0.030056981 -0.0095757293 -0.25345963
-0.030053893 -0.0094938567 -0.25345573
-0.030050728 -0.0094099874 -0.25345173
-0.030047834 -0.0093282014 -0.25344384
-0.030044671 -0.0092443321 -0.25343984
-0.030041484 -0.0091624167 -0.25343794
-0.030038223 -0.0090785027 -0.25343594
-0.030035153 -0.0089946762 -0.25342995
-0.030031871 -0.008912717 -0.25343004
-0.030028315 -0.0088286735 -0.25343406
-0.030024759 -0.008744631 -0.25343806
-0.030021869 -0.0086628459 -0.25343013
-0.030019093 -0.0085791489 -0.25341818
-0.030015908 -0.0084972335 -0.25341624
-0.030012449 -0.0084132338 -0.25341827
-0.030009089 -0.008329276 -0.2534183
-0.030006001 -0.0082474044 -0.25341436
-0.030002836 -0.0081635341 -0.25341037
-0.029999183 -0.0080794487 -0.25341639
-0.029995821 -0.0079954909 -0.25341642
-0.029992461 -0.007911535 -0.25341642
-0.029989276 -0.0078296196 -0.25341451
-0.029986307 -0.0077458359 -0.25340652
-0.029983414 -0.0076640509 -0.2533986
-0.029980151 -0.0075801369 -0.25339663
-0.029976692 -0.0074961372 -0.25339866
-0.02997341 -0.0074141789 -0.25339872
-0.029970245 -0.0073303077 -0.25339475
-0.029967157 -0.007248437 -0.25339082
-0.029963894 -0.007164523 -0.25338882
-0.029960826 -0.0070806965 -0.25338286
-0.029957933 -0.0069989106 -0.25337493
-0.029954476 -0.0069149109 -0.25337696
-0.02995092 -0.0068308674 -0.25338098
-0.029947657 -0.0067469552 -0.25337899
-0.029944863 -0.0066652112 -0.25336909
-0.029941697 -0.0065813418 -0.2533651
-0.02993824 -0.0064973421 -0.25336713
-0.029935054 -0.0064154267 -0.25336519
-0.029931791 -0.0063315146 -0.25336322
-0.029928431 -0.0062475577 -0.25336325
-0.02992544 -0.006165728 -0.25335732
-0.029922275 -0.0060818586 -0.25335333
-0.029918622 -0.0059977733 -0.25335935
-0.02991497 -0.005913686 -0.25336537
-0.02991198 -0.0058318563 -0.25335944
-0.029909281 -0.0057501569 -0.25334752
-0.029906116 -0.0056662876 -0.25334355
-0.029902756 -0.0055823307 -0.25334358
-0.029899297 -0.005498331 -0.25334558
-0.029895645 -0.0054142457 -0.2533516
-0.029892556 -0.0053323731 -0.25334767
-0.029889781 -0.0052486751 -0.25333571
-0.029887183 -0.0051670205 -0.25332177
-0.029884016 -0.0050831512 -0.2533178
-0.029880635 -0.0050011482 -0.25331989
-0.029876515 -0.004914891 -0.25333381
-0.029872667 -0.004830718 -0.25334382
-0.029869404 -0.004746804 -0.25334185
-0.029866707 -0.0046651065 -0.25332993
-0.029863639 -0.0045812801 -0.25332397
-0.029860182 -0.0044972785 -0.253326
-0.029856704 -0.0044152327 -0.25333005
-0.029853538 -0.0043313634 -0.25332606
-0.029850569 -0.0042475816 -0.2533181
-0.029847188 -0.0041655786 -0.25332016
-0.029843457 -0.0040794946 -0.25332612
-0.029840857 -0.0039978381 -0.2533122
-0.029838257 -0.0039161816 -0.25329831
-0.029834701 -0.0038321391 -0.25330234
-0.029831145 -0.0037480984 -0.25330633
-0.029827883 -0.0036641825 -0.25330436
-0.029824795 -0.0035823118 -0.25330043
-0.029821903 -0.0035005268 -0.2532925
-0.029818835 -0.0034166984 -0.25328654
-0.029815279 -0.003332654 -0.25329053
-0.029811822 -0.0032486562 -0.25329256
-0.029808462 -0.0031646993 -0.25329256
-0.029805373 -0.0030828286 -0.25328866
-0.029802207 -0.0029989555 -0.25328469
-0.029799042 -0.0029150862 -0.2532807
-0.029795974 -0.0028312597 -0.25327474
-0.029792596 -0.0027492587 -0.2532768
-0.029788844 -0.0026651286 -0.25328481
-0.029785309 -0.0025791321 -0.25328678
-0.029782513 -0.002497388 -0.25327685
-0.029780012 -0.0024157763 -0.25326094
-0.029776845 -0.0023319069 -0.25325698
-0.029773464 -0.002249904 -0.25325903
-0.029770104 -0.0021659471 -0.25325906
-0.029766276 -0.0020798203 -0.25326702
-0.029762624 -0.001995733 -0.25327301
-0.029760687 -0.0019163359 -0.25324717
-0.029758086 -0.0018346794 -0.25323325
-0.029754356 -0.0017485954 -0.25323921
-0.029750312 -0.0016643349 -0.25325322
-0.029746855 -0.0015803371 -0.25325525
-0.029744059 -0.001498593 -0.25324532
-0.029740991 -0.0014147665 -0.25323936
-0.029737534 -0.0013307668 -0.25324136
-0.029734075 -0.0012467671 -0.25324339
-0.029730618 -0.0011627693 -0.25324541
-0.02972753 -0.0010808948 -0.25324148
-0.029724658 -0.00099715404 -0.25323153
-0.029721864 -0.00091541372 -0.25322157
-0.029718501 -0.00083145685 -0.25322163
-0.029714946 -0.00074741244 -0.25322562
-0.029711682 -0.00066350028 -0.25322366
-0.029708225 -0.00057949871 -0.25322568
-0.029704962 -0.00049558654 -0.25322369
-0.029702265 -0.0004138872 -0.25321177
-0.029699471 -0.00033214688 -0.25320184
-0.029696304 -0.0002482757 -0.25319788
-0.029693216 -0.00016640313 -0.25319394
-0.029689681 -8.0406666e-05 -0.25319591
-0.029686224 3.5949051e-06 -0.25319794
-0.029682864 8.7551773e-05 -0.25319797
-0.029679308 0.00017159432 -0.25320196
-0.029675948 0.00025555119 -0.25320199
-0.029672585 0.00033950619 -0.25320202
-0.029669225 0.00042346492 -0.25320202
-0.029665964 0.00050737709 -0.25320005
-0.029662974 0.00058920681 -0.25319412
-0.029659612 0.00067316182 -0.25319415
-0.029656252 0.00075712055 -0.25319415
-0.029653654 0.00083877519 -0.25318027
-0.02965115 0.00092038885 -0.25316435
-0.029647693 0.0010043867 -0.25316638
-0.029644234 0.0010883883 -0.25316837
-0.029640211 0.0011746008 -0.25318033
-0.029636851 0.0012585558 -0.25318035
-0.029633861 0.0013403874 -0.25317442
-0.029630501 0.0014243424 -0.25317445
-0.029627802 0.0015060417 -0.25316253
-0.02962493 0.0015897825 -0.25315255
-0.029621374 0.0016738269 -0.2531566
-0.029617917 0.0017578248 -0.2531586
-0.029614458 0.0018418264 -0.2531606
-0.029611001 0.0019258242 -0.25316262
-0.029607737 0.0020097382 -0.25316066
-0.029604845 0.0020915233 -0.25315273
-0.029601485 0.002175482 -0.25315273
-0.029598027 0.0022594798 -0.25315475
-0.029594861 0.002343351 -0.25315079
-0.029591694 0.0024272203 -0.25314683
-0.029588509 0.0025091376 -0.25314489
-0.02958554 0.0025929194 -0.25313693
-0.029582744 0.0026746616 -0.25312701
-0.029579384 0.0027586184 -0.25312701
-0.029575361 0.0028448328 -0.25313896
-0.029572001 0.0029287897 -0.25313899
-0.029569596 0.0030103587 -0.25312108
-0.029566899 0.0030920561 -0.25310916
-0.029563343 0.0031761024 -0.25311318
-0.029559709 0.0032621399 -0.25311714
-0.029556349 0.0033460986 -0.25311717
-0.029552989 0.0034300555 -0.2531172
-0.029549237 0.0035141837 -0.25312519
-0.02954578 0.0035981853 -0.25312722
-0.029542712 0.0036820099 -0.25312126
-0.029539917 0.0037637539 -0.25311133
-0.029536948 0.0038475357 -0.25310335
-0.029533781 0.0039314069 -0.25309938
-0.029530227 0.0040154494 -0.25310338
-0.029526768 0.0040994491 -0.2531054
-0.029523797 0.0041832328 -0.25309744
-0.029520633 0.004267104 -0.25309348
-0.029517077 0.0043511465 -0.25309747
-0.029513989 0.0044330191 -0.25309354
-0.029510649 0.0045189299 -0.25309151
-0.029507561 0.0046008006 -0.25308761
-0.029503928 0.0046868417 -0.25309157
-0.029500568 0.0047708005 -0.25309157
-0.029497579 0.0048526283 -0.25308567
-0.029494412 0.0049364977 -0.25308168
-0.029491149 0.0050204117 -0.25307971
-0.029488452 0.005102111 -0.25306779
-0.029485658 0.0051838532 -0.25305787
-0.029481828 0.0052699801 -0.25306582
-0.029477902 0.0053561516 -0.25307581
-0.029475011 0.0054379366 -0.25306788
-0.029472236 0.0055216327 -0.25305593
-0.02946944 0.0056033768 -0.25304598
-0.02946608 0.0056873336 -0.25304601
-0.029462153 0.0057735033 -0.25305596
-0.0294585 0.0058575887 -0.25306198
-0.029454965 0.0059435889 -0.25306395
-0.029451508 0.0060275868 -0.25306597
-0.031010209 -0.034026407 -0.25404435
-0.031006945 -0.033942491 -0.25404239
-0.031003781 -0.033858623 -0.25403839
-0.031001199 -0.033775009 -0.25402245
-0.030998327 -0.033691272 -0.25401247
-0.030995239 -0.033609398 -0.25400856
-0.030992189 -0.033523619 -0.25400054
-0.030989707 -0.03344005 -0.25398257
-0.032453392 -0.031588055 -0.22192022
-0.03243091 -0.0315447 -0.22235282
-0.032415684 -0.031490821 -0.2226253
-0.030976223 -0.033108134 -0.25398675
-0.03097374 -0.033024568 -0.25396878
-0.030970886 -0.032938872 -0.25395679
-0.030967407 -0.032856826 -0.25396085
-0.030963734 -0.032774694 -0.25396889
-0.030960277 -0.032690696 -0.25397092
-0.030957306 -0.032606911 -0.25396293
-0.030954022 -0.032524955 -0.25396302
-0.030950662 -0.032440998 -0.25396302
-0.030947182 -0.032358952 -0.25396711
-0.030943919 -0.032275036 -0.25396511
-0.030940851 -0.032191209 -0.25395915
-0.030937783 -0.032107383 -0.25395319
-0.030935008 -0.032023687 -0.25394121
-0.030931724 -0.031941727 -0.25394127
-0.030927563 -0.031859383 -0.2539593
-0.030924007 -0.031775337 -0.25396335
-0.030921036 -0.031691555 -0.25395536
-0.030917948 -0.031609684 -0.25395143
-0.030914588 -0.031525724 -0.25395146
-0.030911617 -0.031441942 -0.2539435
-0.030908646 -0.03135816 -0.25393552
-0.03090507 -0.03127607 -0.25394157
-0.030901104 -0.031193808 -0.25395563
-0.030898036 -0.031109981 -0.25394964
-0.03089487 -0.031026112 -0.25394568
-0.030891411 -0.030942112 -0.25394768
-0.030888246 -0.030858241 -0.25394371
-0.030885255 -0.030776413 -0.25393778
-0.030882284 -0.03069263 -0.25392982
-0.030879119 -0.03060876 -0.25392586
-0.030875836 -0.030526802 -0.25392592
-0.030872768 -0.030442975 -0.25391996
-0.0308697 -0.030359147 -0.25391397
-0.030866416 -0.030277189 -0.25391403
-0.030863445 -0.030193405 -0.25390607
-0.030860085 -0.03010945 -0.2539061
-0.030856412 -0.030027317 -0.25391415
-0.030852757 -0.029943231 -0.25392017
-0.030849084 -0.0298611 -0.25392821
-0.030846016 -0.029777274 -0.25392225
-0.030843338 -0.029693618 -0.25390828
-0.030840367 -0.029609835 -0.25390032
-0.030837376 -0.029528007 -0.25389439
-0.03083382 -0.029443964 -0.25389838
-0.030830147 -0.029361831 -0.25390646
-0.030826883 -0.029277919 -0.25390449
-0.030823816 -0.029194092 -0.2538985
-0.030820727 -0.02911222 -0.25389457
-0.030817561 -0.02902835 -0.2538906
-0.030814396 -0.028944481 -0.25388664
-0.030811209 -0.028862566 -0.2538847
-0.030807946 -0.028778652 -0.25388271
-0.030804468 -0.028696606 -0.25388679
-0.030801009 -0.028612606 -0.25388882
-0.030797843 -0.028528735 -0.25388482
-0.030794464 -0.028446734 -0.25388688
-0.030791102 -0.028362777 -0.25388691
-0.030787839 -0.028278865 -0.25388491
-0.030784165 -0.028196733 -0.25389299
-0.030780708 -0.028112734 -0.25389501
-0.03077762 -0.028030861 -0.25389108
-0.030774454 -0.02794699 -0.25388712
-0.030771483 -0.027863208 -0.25387913
-0.030768491 -0.027781378 -0.2538732
-0.030765619 -0.027697638 -0.25386325
-0.030762259 -0.027613681 -0.25386328
-0.03075839 -0.027531464 -0.25387532
-0.030755322 -0.027447637 -0.25386935
-0.030752741 -0.027364027 -0.25385338
-0.030749381 -0.02728007 -0.25385341
-0.030745901 -0.027198024 -0.25385746
-0.030742249 -0.027113939 -0.25386348
-0.030738868 -0.027031936 -0.25386554
-0.030735897 -0.026948154 -0.25385758
-0.030732829 -0.026864327 -0.25385159
-0.030729838 -0.026782498 -0.25384569
-0.030726867 -0.026698714 -0.2538377
-0.030723799 -0.026614888 -0.25383174
-0.030720711 -0.026533015 -0.25382781
-0.030717447 -0.026449103 -0.25382584
-0.030714067 -0.0263671 -0.2538279
-0.030710608 -0.0262831 -0.2538299
-0.030707326 -0.026201142 -0.25382999
-0.030704452 -0.026117401 -0.25382
-0.030701285 -0.026033532 -0.25381604
-0.03069732 -0.02595127 -0.25383008
-0.030694252 -0.025867444 -0.25382411
-0.030691672 -0.025783833 -0.25380814
-0.030688193 -0.025701787 -0.25381222
-0.030684344 -0.025617614 -0.25382221
-0.030680964 -0.025535613 -0.25382429
-0.030677797 -0.025451742 -0.2538203
-0.030675001 -0.02537 -0.25381041
-0.030671641 -0.025286043 -0.25381041
-0.030667989 -0.025201958 -0.25381643
-0.030664705 -0.025119999 -0.25381649
-0.030661929 -0.025036301 -0.25380453
-0.030658841 -0.024954429 -0.2538006
-0.030655578 -0.024870517 -0.25379863
-0.030652704 -0.024786776 -0.25378865
-0.030649908 -0.024705034 -0.25377876
-0.030646158 -0.024620906 -0.25378674
-0.030642387 -0.024538729 -0.25379679
-0.030639026 -0.024454772 -0.25379682
-0.030635763 -0.02437086 -0.25379485
-0.03063287 -0.024289073 -0.25378692
-0.030629899 -0.02420529 -0.25377893
-0.03062683 -0.024121463 -0.25377297
-0.03062384 -0.024039635 -0.25376704
-0.030620381 -0.023955636 -0.25376907
-0.030616513 -0.023873417 -0.25378111
-0.030612957 -0.023789374 -0.25378513
-0.030609889 -0.023705548 -0.25377917
-0.030606605 -0.023623588 -0.25377923
-0.030603148 -0.023539588 -0.25378126
-0.030600157 -0.02345776 -0.25377533
-0.030597089 -0.023373934 -0.25376934
-0.030593902 -0.023292018 -0.2537674
-0.030591322 -0.023208408 -0.25375146
-0.030588156 -0.023124536 -0.25374749
-0.030584874 -0.023042578 -0.25374755
-0.030581707 -0.022958709 -0.25374359
-0.030578444 -0.022874795 -0.25374162
-0.030574966 -0.022792749 -0.25374568
-0.030571312 -0.022708664 -0.25375167
-0.03056832 -0.022626836 -0.25374573
-0.030565253 -0.022543008 -0.25373977
-0.030561872 -0.022461006 -0.25374186
-0.030558512 -0.02237705 -0.25374186
-0.030555053 -0.02229305 -0.25374389
-0.030551868 -0.022211134 -0.25374195
-0.030548897 -0.022127351 -0.25373399
-0.030545712 -0.022045435 -0.25373206
-0.030542156 -0.021961393 -0.25373605
-0.030538892 -0.021877479 -0.25373408
-0.030535804 -0.021795608 -0.25373015
-0.030532638 -0.021711737 -0.25372618
-0.030529648 -0.021629909 -0.25372025
-0.030526482 -0.021546038 -0.25371629
-0.030523511 -0.021462254 -0.2537083
-0.030520618 -0.021380469 -0.25370041
-0.030517159 -0.021296469 -0.2537024
-0.030513583 -0.021214381 -0.25370845
-0.030510223 -0.021130424 -0.25370848
-0.030507037 -0.021048509 -0.25370657
-0.030503286 -0.02096438 -0.25371456
-0.030499926 -0.020880423 -0.25371459
-0.030497033 -0.020798638 -0.25370666
-0.030493964 -0.02071481 -0.2537007
-0.030490972 -0.020632982 -0.25369477
-0.030487807 -0.020549111 -0.25369078
-0.030484252 -0.020465069 -0.2536948
-0.030480772 -0.020383023 -0.25369886
-0.030477587 -0.020301107 -0.25369692
-0.030474324 -0.020217195 -0.25369495
-0.030471256 -0.020133369 -0.25368899
-0.03046846 -0.020051626 -0.25367907
-0.030465001 -0.019967627 -0.25368109
-0.030461717 -0.019885667 -0.25368115
-0.030458553 -0.019801797 -0.25367719
-0.030455386 -0.019717928 -0.2536732
-0.030452201 -0.019636013 -0.25367126
-0.030448548 -0.019551925 -0.25367728
-0.03044546 -0.019470055 -0.25367337
-0.030442685 -0.019386357 -0.25366139
-0.030439986 -0.019304657 -0.25364947
-0.030436723 -0.019220745 -0.25364751
-0.03043307 -0.019136658 -0.25365353
-0.030429982 -0.019054785 -0.25364959
-0.030427108 -0.018971046 -0.25363961
-0.030423824 -0.018889088 -0.2536397
-0.030420367 -0.018805087 -0.25364169
-0.030417103 -0.018721174 -0.25363973
-0.030413624 -0.018639129 -0.25364378
-0.030410068 -0.018555086 -0.2536478
-0.03040698 -0.018473214 -0.25364387
-0.030404108 -0.018389475 -0.25363392
-0.030401409 -0.018307775 -0.253622
-0.030398048 -0.018223818 -0.253622
-0.030394297 -0.018139688 -0.25363001
-0.030390916 -0.018057685 -0.25363207
-0.030387457 -0.017973687 -0.2536341
-0.030384369 -0.017891815 -0.25363016
-0.030381205 -0.017807946 -0.2536262
-0.030378038 -0.017724074 -0.25362223
-0.030374853 -0.017642159 -0.2536203
-0.03037159 -0.017558247 -0.2536183
-0.030368501 -0.017476374 -0.2536144
-0.030365042 -0.017392375 -0.25361639
-0.030361291 -0.017308244 -0.25362441
-0.030358203 -0.017226372 -0.25362048
-0.030355135 -0.017142545 -0.25361452
-0.030351851 -0.017060587 -0.25361457
-0.030348588 -0.016976673 -0.25361261
-0.030345324 -0.016892761 -0.25361061
-0.030342139 -0.016810846 -0.2536087
-0.03033917 -0.016727062 -0.25360072
-0.030335983 -0.016645147 -0.25359881
-0.030332331 -0.016561059 -0.2536048
-0.030329067 -0.016477145 -0.25360283
-0.030326076 -0.016395317 -0.2535969
-0.030323105 -0.016311534 -0.25358891
-0.030320017 -0.016229663 -0.25358501
-0.030316364 -0.016145576 -0.25359103
-0.030313198 -0.016061706 -0.25358704
-0.030310402 -0.015979964 -0.25357711
-0.030307334 -0.015896138 -0.25357115
-0.030304149 -0.015814222 -0.25356925
-0.030300865 -0.015732262 -0.25356928
-0.0302977 -0.015648393 -0.25356531
-0.030294241 -0.015564393 -0.25356734
-0.030290782 -0.015480394 -0.25356933
-0.030287597 -0.015398478 -0.2535674
-0.030284431 -0.015314608 -0.25356346
-0.030281439 -0.015232779 -0.2535575
-0.030278079 -0.015148822 -0.25355753
-0.030274913 -0.015064952 -0.25355357
-0.030271631 -0.014982994 -0.25355363
-0.030268172 -0.014898994 -0.25355566
-0.030264791 -0.014816992 -0.25355771
-0.030261235 -0.014732949 -0.25356174
-0.030257776 -0.014648949 -0.25356373
-0.030254299 -0.014566904 -0.25356781
-0.03025084 -0.014482904 -0.25356984
-0.030247871 -0.014399121 -0.25356185
-0.030245269 -0.014317464 -0.25354794
-0.030242005 -0.014233552 -0.25354597
-0.030238917 -0.014151679 -0.25354204
-0.030235752 -0.014067809 -0.25353807
-0.030232664 -0.013985937 -0.25353414
-0.030229205 -0.013901938 -0.25353613
-0.030225649 -0.013817895 -0.25354016
-0.030222367 -0.013735936 -0.25354022
-0.030219201 -0.013652066 -0.25353625
-0.030216327 -0.013568326 -0.2535263
-0.030213239 -0.013486454 -0.25352237
-0.030209586 -0.013402367 -0.25352836
-0.030205932 -0.013318281 -0.25353438
-0.030202553 -0.013236279 -0.25353646
-0.030199191 -0.013152322 -0.25353646
-0.030196201 -0.013070494 -0.25353053
-0.030193131 -0.012986667 -0.25352457
-0.030190064 -0.012902839 -0.25351858
-0.030187072 -0.012821011 -0.25351268
-0.030183712 -0.012737054 -0.25351268
-0.030180331 -0.012655053 -0.25351477
-0.030177165 -0.012571182 -0.25351077
-0.030173998 -0.012487313 -0.25350681
-0.030170912 -0.01240544 -0.25350288
-0.030167941 -0.012321658 -0.25349492
-0.030164657 -0.012239698 -0.25349498
-0.030161101 -0.012155656 -0.253499
-0.030157838 -0.012071743 -0.253497
-0.030154457 -0.011989741 -0.25349909
-0.030150998 -0.01190574 -0.25350109
-0.030147541 -0.01182174 -0.25350311
-0.030144082 -0.011737741 -0.25350514
-0.03014119 -0.011655956 -0.25349721
-0.030138295 -0.01157417 -0.25348929
-0.030134741 -0.011490127 -0.25349331
-0.03013099 -0.011405997 -0.2535013
-0.030127531 -0.011321997 -0.25350332
-0.030125028 -0.011240385 -0.25348741
-0.030122153 -0.011156645 -0.25347745
-0.030118871 -0.011074685 -0.25347751
-0.030115413 -0.010990686 -0.25347954
-0.030111857 -0.010906643 -0.25348353
-0.030108867 -0.010824814 -0.25347763
-0.030105701 -0.010740943 -0.25347364
-0.030102145 -0.010656901 -0.25347766
-0.030098861 -0.010574942 -0.25347775
-0.030095989 -0.010491202 -0.25346777
-0.030092627 -0.010407246 -0.2534678
-0.030089052 -0.010325157 -0.25347385
-0.030085985 -0.010241331 -0.25346786
-0.030083187 -0.010159588 -0.25345793
-0.030079827 -0.010075631 -0.25345796
-0.030076172 -0.0099915452 -0.25346398
-0.030072909 -0.0099076321 -0.25346202
-0.030070212 -0.0098259337 -0.2534501
-0.030067319 -0.0097441468 -0.25344217
-0.030063393 -0.0096579762 -0.25345212
-0.03005974 -0.0095738899 -0.25345814
-0.030056652 -0.0094920183 -0.25345421
-0.030053485 -0.009408148 -0.25345024
-0.030050494 -0.0093263192 -0.25344431
-0.030047426 -0.0092424927 -0.25343835
-0.030044144 -0.0091605345 -0.25343841
-0.030040978 -0.0090766642 -0.25343442
-0.030037811 -0.008992794 -0.25343046
-0.030034529 -0.0089108348 -0.25343052
-0.03003107 -0.0088268351 -0.25343254
-0.030027611 -0.0087428354 -0.25343457
-0.030024718 -0.0086610503 -0.25342664
-0.030021846 -0.0085773095 -0.25341666
-0.030018562 -0.0084953513 -0.25341672
-0.0300152 -0.0084113954 -0.25341675
-0.030011937 -0.0083274813 -0.25341475
-0.030008752 -0.0082455659 -0.25341284
-0.030005585 -0.0081616957 -0.25340888
-0.030001933 -0.0080776094 -0.25341487
-0.029998573 -0.0079936525 -0.2534149
-0.029995309 -0.0079097394 -0.25341293
-0.029991928 -0.0078277374 -0.25341499
-0.029988958 -0.0077439537 -0.253407
-0.029986065 -0.0076621687 -0.25339907
-0.029982802 -0.0075782556 -0.25339711
-0.029979343 -0.0074942568 -0.25339913
-0.029976059 -0.0074122967 -0.25339919
-0.029972991 -0.0073284702 -0.25339323
-0.029970001 -0.0072466414 -0.2533873
-0.029966639 -0.0071626855 -0.25338733
-0.029963475 -0.0070788153 -0.25338334
-0.02996058 -0.0069970302 -0.25337544
-0.029957123 -0.0069130305 -0.25337744
-0.029953565 -0.0068289861 -0.25338146
-0.029950302 -0.0067450739 -0.25337949
-0.029947506 -0.0066633299 -0.25336957
-0.029944342 -0.0065794606 -0.25336558
-0.029940883 -0.0064954609 -0.2533676
-0.029937794 -0.0064135902 -0.25336367
-0.029934434 -0.0063296333 -0.2533637
-0.029931072 -0.0062456764 -0.25336373
-0.029928083 -0.0061638467 -0.2533578
-0.029925015 -0.0060800202 -0.25335181
-0.029921457 -0.0059959777 -0.25335583
-0.029917805 -0.0059118904 -0.25336185
-0.029914815 -0.0058300626 -0.25335592
-0.029912116 -0.0057483632 -0.253344
-0.029908853 -0.0056644492 -0.25334203
-0.029905492 -0.0055804923 -0.25334203
-0.029902034 -0.0054964926 -0.25334406
-0.029898381 -0.0054124072 -0.25335008
-0.029895194 -0.0053304918 -0.25334814
-0.029892612 -0.0052468814 -0.2533322
-0.029889915 -0.0051651821 -0.25332028
-0.029886749 -0.0050813109 -0.25331631
-0.02988337 -0.0049993098 -0.25331837
-0.029879346 -0.0049130972 -0.25333032
-0.029875496 -0.0048289225 -0.2533403
-0.029872233 -0.0047450103 -0.25333834
-0.029869536 -0.0046633109 -0.25332642
-0.029866448 -0.0045814384 -0.25332251
-0.029862814 -0.0044953991 -0.25332648
-0.029859433 -0.0044133943 -0.25332853
-0.029856268 -0.0043295249 -0.25332457
-0.029853471 -0.0042477828 -0.25331464
-0.029849917 -0.0041637421 -0.25331867
-0.029846184 -0.0040776581 -0.25332463
-0.029843584 -0.0039959997 -0.25331071
-0.029840887 -0.0039143022 -0.25329879
-0.029837428 -0.0038303025 -0.25330082
-0.029833969 -0.0037463028 -0.25330281
-0.029830609 -0.0036623441 -0.25330284
-0.02982752 -0.0035804734 -0.25329891
-0.029824628 -0.0034986883 -0.25329098
-0.02982156 -0.0034148619 -0.25328502
-0.029818099 -0.0033308603 -0.25328702
-0.029814642 -0.0032468624 -0.25328904
-0.029811185 -0.0031628609 -0.25329107
-0.029807998 -0.0030809473 -0.25328913
-0.029804831 -0.0029970743 -0.25328517
-0.029801667 -0.0029132068 -0.25328118
-0.029798597 -0.0028293785 -0.25327522
-0.029795315 -0.0027474221 -0.25327528
-0.029791564 -0.002663292 -0.25328329
-0.029788028 -0.0025772937 -0.25328526
-0.029785134 -0.0024955086 -0.25327733
-0.029782729 -0.0024139397 -0.25325942
-0.029779641 -0.0023320653 -0.25325549
-0.029776182 -0.0022480674 -0.25325751
-0.029772822 -0.0021641105 -0.25325754
-0.029768895 -0.002077939 -0.2532675
-0.02976534 -0.0019938964 -0.25327152
-0.029763402 -0.0019144975 -0.25324565
-0.0297608 -0.0018328428 -0.25323176
-0.029757148 -0.0017487556 -0.25323778
-0.029753026 -0.0016625002 -0.25325173
-0.029749472 -0.0015784558 -0.25325572
-0.029746676 -0.0014967136 -0.25324583
-0.029743705 -0.0014129281 -0.25323784
-0.029740246 -0.0013289303 -0.25323987
-0.02973669 -0.0012448858 -0.25324386
-0.02973333 -0.0011609308 -0.25324389
-0.029730242 -0.0010790564 -0.25323996
-0.029727269 -0.00099527463 -0.253232
-0.029724475 -0.00091353245 -0.25322208
-0.029721113 -0.00082957745 -0.25322211
-0.029717656 -0.00074557588 -0.25322413
-0.029714392 -0.00066166185 -0.25322214
-0.029711109 -0.00057970546 -0.2532222
-0.02970767 -0.00049374998 -0.25322217
-0.029704973 -0.00041205063 -0.25321025
-0.029702175 -0.00033030845 -0.25320035
-0.029698912 -0.00024639629 -0.25319836
-0.029695826 -0.00016452372 -0.25319445
-0.029692288 -7.8527257e-05 -0.25319642
-0.029688831 5.4761767e-06 -0.25319842
-0.029685469 8.9431182e-05 -0.25319844
-0.02968201 0.00017343089 -0.25320047
-0.029678728 0.00025538914 -0.25320053
-0.02967529 0.00034134462 -0.2532005
-0.029672006 0.00042330287 -0.25320056
-0.029668568 0.00050925463 -0.25320053
-0.029665578 0.00059108622 -0.2531946
-0.029662315 0.00067499839 -0.25319263
-0.029658953 0.00075895526 -0.25319266
-0.029656451 0.00084056892 -0.25317675
-0.029653849 0.00092222355 -0.25316283
-0.02965039 0.0010062233 -0.25316486
-0.029646836 0.0010902658 -0.25316888
-0.029642811 0.0011764802 -0.2531808
-0.029639352 0.0012604818 -0.25318283
-0.029636461 0.0013422668 -0.2531749
-0.029633295 0.001426138 -0.25317094
-0.029630499 0.0015078783 -0.25316101
-0.0296278 0.0015895776 -0.25314909
-0.029624069 0.0016756617 -0.25315505
-0.029620513 0.0017597061 -0.25315908
-0.029617153 0.0018436611 -0.25315911
-0.029613694 0.0019276608 -0.25316113
-0.029610332 0.0020116176 -0.25316113
-0.029607439 0.0020934027 -0.2531532
-0.029604275 0.0021772739 -0.25314924
-0.029600816 0.0022612736 -0.25315124
-0.029597649 0.0023451429 -0.2531473
-0.029594485 0.0024290122 -0.25314331
-0.029591201 0.0025109723 -0.25314337
-0.029588133 0.0025947988 -0.25313741
-0.029585239 0.0026765838 -0.25312948
-0.029581975 0.0027604979 -0.25312752
-0.029578051 0.0028466694 -0.25313747
-0.029574787 0.0029305816 -0.2531355
-0.029572381 0.0030121524 -0.25311756
-0.029569585 0.0030938927 -0.25310767
-0.029565932 0.0031779818 -0.25311369
-0.029562298 0.0032640193 -0.25311762
-0.029559035 0.0033479333 -0.25311565
-0.029555771 0.0034318473 -0.25311369
-0.02955202 0.0035159774 -0.25312167
-0.029548367 0.0036000647 -0.25312769
-0.029545397 0.0036838464 -0.25311974
-0.029542504 0.0037656333 -0.25311181
-0.02953963 0.0038493723 -0.25310186
-0.029536366 0.0039332863 -0.25309986
-0.029532811 0.0040173288 -0.25310388
-0.02952945 0.0041012838 -0.25310391
-0.029526383 0.0041851122 -0.25309795
-0.029523216 0.0042689815 -0.25309396
-0.02951966 0.0043530259 -0.25309795
-0.029516572 0.0044348966 -0.25309405
-0.029513231 0.0045208093 -0.25309202
-0.029510144 0.00460268 -0.25308809
-0.029506508 0.0046887212 -0.25309205
-0.029503148 0.004772678 -0.25309208
-0.029500255 0.0048544649 -0.25308415
-0.029497091 0.0049383342 -0.25308019
-0.029493729 0.0050222911 -0.25308019
-0.029491128 0.0051039457 -0.2530663
-0.029488333 0.0051856898 -0.25305638
-0.029484602 0.0052717719 -0.25306234
-0.029480577 0.0053579863 -0.25307429
-0.029477587 0.005439816 -0.25306839
-0.029474812 0.0055235103 -0.25305641
-0.029472016 0.0056052543 -0.25304648
-0.029468928 0.005687125 -0.25304255
-0.029464826 0.0057753399 -0.25305447
-0.029461171 0.0058594253 -0.25306046
-0.029457539 0.0059454665 -0.25306445
-0.029454257 0.0060274247 -0.25306451
-0.031000515 -0.033948265 -0.25415564
-0.030999925 -0.033861611 -0.25409564
-0.030999236 -0.033774912 -0.25403765
-0.030996967 -0.033689477 -0.25401366
-0.030993879 -0.033607606 -0.25400972
-0.030990615 -0.033523694 -0.25400773
-0.030988036 -0.033440083 -0.25399178
-0.030985767 -0.033354647 -0.25396779
-0.032463148 -0.031502858 -0.22161971
-0.032441251 -0.031459764 -0.2220403
-0.032423452 -0.031408671 -0.22236881
