# .PCD v0.7 - Point Cloud Data file format
VERSION 0.7
FIELDS x y z
SIZE 4 4 4
TYPE F F F
COUNT 1 1 1
WIDTH 1303
HEIGHT 1
VIEWPOINT 0 0 0 1 0 0 0
POINTS 1303
DATA ascii
-0.11174266 -0.04080864 -0.22736952
-0.11173818 -0.040732019 -0.22739968
-0.11173379 -0.040655445 -0.22742784
-0.11173002 -0.040575221 -0.22743994
-0.11172645 -0.040495086 -0.22744802
-0.11172288 -0.040414952 -0.22745611
-0.11171931 -0.040334813 -0.2274642
-0.11171523 -0.040256415 -0.22748432
-0.11171103 -0.040179923 -0.22750849
-0.11170697 -0.040099572 -0.22752658
-0.1117034 -0.040019438 -0.22753465
-0.11170032 -0.039939515 -0.22753276
-0.11169656 -0.039859295 -0.22754484
-0.11169095 -0.039786104 -0.22760105
-0.11168619 -0.0397074 -0.22763517
-0.11168241 -0.039629132 -0.22764929
-0.11167894 -0.039549038 -0.22765538
-0.11167517 -0.039468817 -0.22766748
-0.1116714 -0.03938859 -0.22767957
-0.11166774 -0.039308414 -0.22768965
-0.11166365 -0.039230011 -0.22770977
-0.11165876 -0.039155174 -0.22774996
-0.11165349 -0.039078206 -0.22779609
-0.11164881 -0.039001502 -0.22783023
-0.11164453 -0.038923014 -0.22785434
-0.11163997 -0.038844395 -0.22788446
-0.11163628 -0.038766168 -0.2278966
-0.11163321 -0.038684297 -0.22789267
-0.11162976 -0.038602252 -0.22789669
-0.11162539 -0.038523719 -0.22792281
-0.11162081 -0.038447056 -0.22795497
-0.11161672 -0.038368657 -0.2279751
-0.11161216 -0.038290039 -0.2280052
-0.11160779 -0.03821151 -0.22803131
-0.11160371 -0.038133111 -0.22805144
-0.11159934 -0.038054578 -0.22807755
-0.11159446 -0.037977785 -0.22811569
-0.1115898 -0.037899125 -0.2281478
-0.11158531 -0.037822507 -0.22817796
-0.11158125 -0.037742153 -0.22819602
-0.11157778 -0.037662059 -0.22820213
-0.11157431 -0.037581965 -0.22820821
-0.11157044 -0.0375017 -0.22822231
-0.11156677 -0.037421521 -0.22823238
-0.11156282 -0.037341211 -0.22824848
-0.11155813 -0.037264504 -0.22828262
-0.11155364 -0.037187882 -0.22831276
-0.11154959 -0.037107531 -0.22833085
-0.11154521 -0.037029002 -0.22835696
-0.11154055 -0.036950342 -0.22838905
-0.11153647 -0.03687194 -0.22840919
-0.11153239 -0.036793541 -0.22842932
-0.11152804 -0.036713056 -0.22845337
-0.11152457 -0.036632963 -0.22845948
-0.11152121 -0.036550961 -0.22846153
-0.11151724 -0.036472604 -0.22847965
-0.11151257 -0.03639394 -0.22851175
-0.11150762 -0.036315151 -0.22854987
-0.11150341 -0.036238663 -0.22857401
-0.11149877 -0.036158048 -0.22860408
-0.11149438 -0.036081471 -0.22863224
-0.11149061 -0.03600125 -0.22864431
-0.11148685 -0.035921022 -0.22865641
-0.11148269 -0.035840627 -0.22867648
-0.11147854 -0.035760231 -0.22869655
-0.11147446 -0.035681829 -0.22871667
-0.11147029 -0.035603389 -0.22873878
-0.11146584 -0.03552286 -0.22876486
-0.11146166 -0.035444416 -0.22878698
-0.111458 -0.03536424 -0.22879706
-0.11145444 -0.035282146 -0.22880311
-0.11145027 -0.035203703 -0.22882524
-0.1114451 -0.035126779 -0.22886936
-0.11144012 -0.035049941 -0.22890951
-0.11143577 -0.034969456 -0.22893357
-0.11143201 -0.034889236 -0.22894566
-0.11142883 -0.034809273 -0.22894576
-0.11142547 -0.034727268 -0.22894782
-0.1114217 -0.034647048 -0.22895992
-0.11141735 -0.034566559 -0.22898397
-0.11141288 -0.034487985 -0.22901209
-0.11140881 -0.03440959 -0.2290322
-0.11140475 -0.034329236 -0.22905028
-0.11139999 -0.034250531 -0.22908439
-0.11139491 -0.034173645 -0.22912651
-0.11139045 -0.034095075 -0.22915465
-0.11138678 -0.034014896 -0.22916472
-0.11138333 -0.03393285 -0.22916877
-0.11137995 -0.033852801 -0.22917286
-0.11137611 -0.033770576 -0.2291849
-0.11137234 -0.033690356 -0.229197
-0.11136807 -0.033611871 -0.22922111
-0.11136292 -0.033532992 -0.22926319
-0.11135785 -0.033456109 -0.22930533
-0.11135349 -0.033375625 -0.22932941
-0.11134902 -0.033297051 -0.22935751
-0.11134507 -0.033216737 -0.2293736
-0.11134142 -0.033134606 -0.22938164
-0.11133804 -0.033054557 -0.22938573
-0.11133388 -0.032974161 -0.22940581
-0.11132893 -0.032895371 -0.22944391
-0.11132427 -0.032816708 -0.229476
-0.1113196 -0.032738049 -0.22950812
-0.11131555 -0.032657694 -0.22952619
-0.11131229 -0.032575734 -0.22952625
-0.11130862 -0.032495555 -0.22953632
-0.11130417 -0.032415025 -0.2295624
-0.1112996 -0.032336406 -0.2295925
-0.11129494 -0.032257743 -0.22962461
-0.1112902 -0.032177087 -0.22965667
-0.11128613 -0.032098688 -0.2296768
-0.11128209 -0.032016378 -0.22969282
-0.11127842 -0.031936198 -0.22970292
-0.11127436 -0.031855844 -0.22972099
-0.11126941 -0.031777054 -0.22975908
-0.11126435 -0.031698219 -0.22979918
-0.11125989 -0.031619646 -0.22982728
-0.11125614 -0.031537469 -0.22983733
-0.11125269 -0.031455424 -0.22984138
-0.11124901 -0.031375244 -0.22985148
-0.11124508 -0.031292975 -0.22986551
-0.11124109 -0.031214621 -0.22988364
-0.11123636 -0.031133965 -0.22991568
-0.1112321 -0.031053523 -0.22993776
-0.11122775 -0.030973036 -0.22996184
-0.11122309 -0.030894376 -0.22999394
-0.11121864 -0.030813847 -0.23002
-0.11121439 -0.030733407 -0.23004207
-0.11121082 -0.03065327 -0.23005016
-0.11120717 -0.030571137 -0.23005819
-0.11120292 -0.030490696 -0.23008028
-0.11119876 -0.030410297 -0.23010036
-0.11119451 -0.030329857 -0.23012242
-0.11118967 -0.030249154 -0.23015648
-0.11118591 -0.030168932 -0.23016855
-0.11118165 -0.030088492 -0.23019063
-0.11117711 -0.030007919 -0.23021871
-0.11117285 -0.029927477 -0.23024078
-0.111169 -0.029847212 -0.23025484
-0.11116435 -0.029766597 -0.2302849
-0.11115951 -0.029685892 -0.23031896
-0.11115545 -0.029605538 -0.23033705
-0.11115171 -0.029523361 -0.23034708
-0.11114784 -0.029443095 -0.23036116
-0.11114351 -0.029360656 -0.23038319
-0.11113926 -0.029280216 -0.23040527
-0.11113491 -0.029199731 -0.23042934
-0.11113095 -0.029119421 -0.23044541
-0.11112701 -0.029037155 -0.23045945
-0.11112276 -0.028956715 -0.23048152
-0.11111841 -0.02887623 -0.23050559
-0.11111376 -0.028795615 -0.23053566
-0.11110844 -0.028714694 -0.23057969
-0.11110407 -0.028636165 -0.23060581
-0.11110032 -0.028553987 -0.23061584
-0.11109638 -0.028471721 -0.23062988
-0.11109222 -0.028391324 -0.23064995
-0.11108819 -0.028309016 -0.23066598
-0.11108384 -0.028228533 -0.23069006
-0.1110793 -0.02814796 -0.23071811
-0.11107524 -0.028067606 -0.2307362
-0.11107168 -0.027985515 -0.23074225
-0.11106735 -0.027903076 -0.23076427
-0.11106262 -0.027822418 -0.23079632
-0.11105836 -0.027741976 -0.23081839
-0.11105452 -0.027659755 -0.23083043
-0.11105126 -0.027577795 -0.23083049
-0.11104832 -0.027494013 -0.2308225
-0.11104506 -0.027412053 -0.23082256
-0.111041 -0.027331699 -0.23084065
-0.11103507 -0.027252473 -0.23089871
-0.11102855 -0.027172983 -0.23096876
-0.11102372 -0.027092278 -0.23100282
-0.11101939 -0.027009841 -0.23102483
-0.11101574 -0.026927706 -0.23103288
-0.11101219 -0.026845617 -0.23103893
-0.11100823 -0.026765306 -0.23105502
-0.1110037 -0.026682781 -0.23108104
-0.11099906 -0.026602164 -0.23111109
-0.11099454 -0.026519639 -0.2311371
-0.11099048 -0.026439283 -0.23115519
-0.11098615 -0.026356846 -0.23117721
-0.1109819 -0.026276404 -0.23119928
-0.11097766 -0.02619401 -0.23121931
-0.11097293 -0.02611335 -0.23125136
-0.11096811 -0.026030693 -0.23128337
-0.11096356 -0.025950123 -0.23131144
-0.11095923 -0.025867682 -0.23133346
-0.11095548 -0.025785506 -0.23134351
-0.11095254 -0.025701722 -0.23133552
-0.11095006 -0.02562011 -0.23131961
-0.11094692 -0.025536239 -0.23131561
-0.1109418 -0.025455408 -0.23135565
-0.11093576 -0.025376135 -0.23141573
-0.11093055 -0.025293306 -0.23145573
-0.1109265 -0.025212951 -0.2314738
-0.11092256 -0.025130685 -0.23148784
-0.11091813 -0.025048204 -0.23151186
-0.11091252 -0.024967153 -0.2315619
-0.11090738 -0.024886319 -0.23160194
-0.11090305 -0.024803881 -0.23162395
-0.11089902 -0.024721572 -0.23164
-0.11089517 -0.024639349 -0.23165202
-0.11089153 -0.024557218 -0.23166007
-0.11088759 -0.024474952 -0.2316741
-0.11088306 -0.024392426 -0.23170012
-0.11087863 -0.024309944 -0.23172414
-0.11087409 -0.024229372 -0.23175222
-0.11086947 -0.024146803 -0.23178023
-0.11086494 -0.024064276 -0.23180625
-0.1108608 -0.023981925 -0.23182428
-0.11085667 -0.023899572 -0.23184231
-0.11085263 -0.023817264 -0.23185834
-0.1108486 -0.023734957 -0.23187438
-0.11084436 -0.023652561 -0.2318944
-0.11083993 -0.023570077 -0.23191842
-0.11083529 -0.023489462 -0.23194848
-0.11083059 -0.023404894 -0.23197645
-0.11082634 -0.023324452 -0.2319985
-0.11082193 -0.023240019 -0.2320205
-0.1108177 -0.023157623 -0.23204052
-0.11081354 -0.023077223 -0.2320606
-0.11080933 -0.022992874 -0.23207858
-0.1108049 -0.022910392 -0.2321026
-0.11080077 -0.022828039 -0.23212063
-0.11079653 -0.022745645 -0.23214066
-0.11079182 -0.022663031 -0.23217067
-0.11078749 -0.022580592 -0.2321927
-0.11078374 -0.022498414 -0.23220274
-0.11077982 -0.022414196 -0.23221472
-0.1107752 -0.022331625 -0.23224275
-0.11076988 -0.022250704 -0.23228678
-0.11076527 -0.022166181 -0.23231275
-0.11076133 -0.022083916 -0.23232679
-0.1107571 -0.022001522 -0.23234682
-0.11075258 -0.021918995 -0.23237284
-0.11074863 -0.02183673 -0.23238686
-0.11074442 -0.02175238 -0.23240486
-0.11073989 -0.021669853 -0.23243088
-0.11073547 -0.021587372 -0.2324549
-0.11073153 -0.021505106 -0.23246893
-0.11072761 -0.021420889 -0.23248091
-0.11072367 -0.021338623 -0.23249495
-0.11071856 -0.021255836 -0.23253295
-0.11071228 -0.021172525 -0.23259491
-0.11070688 -0.021089608 -0.23263893
-0.11070264 -0.021007212 -0.23265894
-0.11069902 -0.020923123 -0.23266494
-0.11069586 -0.020841207 -0.23266301
-0.11069204 -0.020757031 -0.23267299
-0.1106879 -0.020674679 -0.23269102
-0.11068359 -0.020590287 -0.232711
-0.11067955 -0.020507978 -0.23272704
-0.11067573 -0.020423803 -0.23273703
-0.11067199 -0.020341625 -0.23274708
-0.11066729 -0.020257058 -0.23277503
-0.11066167 -0.020176006 -0.23282507
-0.11065678 -0.020091351 -0.23285703
-0.11065264 -0.020009 -0.23287505
-0.11064804 -0.019924477 -0.23290104
-0.1106438 -0.019842081 -0.23292106
-0.1106394 -0.019757643 -0.23294303
-0.11063468 -0.019675031 -0.23297304
-0.11063007 -0.019590506 -0.23299903
-0.11062545 -0.019507935 -0.23302704
-0.11062124 -0.019423587 -0.23304501
-0.11061711 -0.019341234 -0.23306304
-0.11061279 -0.019256841 -0.23308304
-0.11060847 -0.019174403 -0.23310506
-0.11060464 -0.019090228 -0.23311505
-0.11060053 -0.019005921 -0.23313104
-0.11059571 -0.018923264 -0.23316304
-0.11059111 -0.018838739 -0.23318902
-0.11058678 -0.0187563 -0.23321104
-0.11224619 -0.039777011 -0.216023
-0.11224072 -0.039709773 -0.21608134
-0.11223261 -0.039651174 -0.21620184
-0.11222158 -0.03960108 -0.21639048
-0.11221458 -0.039539047 -0.21648493
-0.11218897 -0.039533496 -0.21701431
-0.11218432 -0.039462697 -0.21705259
-0.11216549 -0.039436609 -0.21742363
-0.11215181 -0.039395157 -0.21767443
-0.11214302 -0.039336249 -0.2178089
-0.11213798 -0.039265275 -0.21785519
-0.11211047 -0.039262801 -0.21842659
-0.1121036 -0.039198864 -0.21851701
-0.11209694 -0.039133057 -0.21860136
-0.11208764 -0.039075885 -0.21874787
-0.11207895 -0.039017022 -0.21888036
-0.11207227 -0.03895317 -0.21896675
-0.11206581 -0.038887449 -0.21904713
-0.11204017 -0.03888385 -0.21957856
-0.11203422 -0.038816392 -0.2196469
-0.11202458 -0.038763002 -0.21980348
-0.11201286 -0.038712602 -0.22000611
-0.11200438 -0.038651876 -0.22013254
-0.11199681 -0.038589582 -0.22023898
-0.11198276 -0.038546 -0.2204957
-0.11197589 -0.038482059 -0.22058611
-0.11196327 -0.038433224 -0.22080874
-0.11195266 -0.038379394 -0.22098531
-0.11190712 -0.038339414 -0.22190152
-0.1118028 -0.038290836 -0.22403643
-0.11179718 -0.038219601 -0.22409469
-0.11179126 -0.038148232 -0.22415893
-0.11177817 -0.038097225 -0.22438952
-0.11175206 -0.038083598 -0.22492269
-0.11174614 -0.038012229 -0.22498694
-0.11173872 -0.037944116 -0.22508524
-0.1117329 -0.037872795 -0.22514749
-0.11172761 -0.037797783 -0.22519568
-0.1117214 -0.037726283 -0.22526592
-0.11158931 -0.037457164 -0.22779721
-0.11158624 -0.037375294 -0.22779328
-0.11158257 -0.037295111 -0.22780336
-0.11157849 -0.037216712 -0.2278235
-0.11157431 -0.037138268 -0.22784561
-0.11156994 -0.037059739 -0.22787172
-0.11156548 -0.036981165 -0.22789983
-0.1115612 -0.036902681 -0.22792396
-0.11155744 -0.036822453 -0.22793603
-0.11155355 -0.036744144 -0.22795215
-0.11154928 -0.036665656 -0.22797628
-0.11154503 -0.036585215 -0.22799835
-0.11154065 -0.036506686 -0.22802445
-0.11153587 -0.036429934 -0.2280606
-0.11153099 -0.036353141 -0.22809875
-0.11152683 -0.036272742 -0.22811882
-0.11152346 -0.036192693 -0.22812292
-0.1115201 -0.036110692 -0.22812498
-0.11151622 -0.036032379 -0.2281411
-0.11151204 -0.035953939 -0.22816321
-0.11150769 -0.03587345 -0.22818729
-0.11150323 -0.035794877 -0.2282154
-0.11149854 -0.035718173 -0.22824955
-0.11149427 -0.035639685 -0.22827366
-0.1114898 -0.035561111 -0.22830176
-0.11148554 -0.035480671 -0.22832385
-0.11148147 -0.035402268 -0.22834396
-0.1114774 -0.035321917 -0.22836205
-0.11147335 -0.035241563 -0.22838011
-0.11146946 -0.035163254 -0.22839625
-0.11146531 -0.035082854 -0.22841632
-0.11146145 -0.035002589 -0.22843041
-0.11145768 -0.034922365 -0.22844249
-0.11145391 -0.034842141 -0.22845457
-0.11145015 -0.034761921 -0.22846666
-0.11144607 -0.034683518 -0.22848678
-0.1114414 -0.034604855 -0.2285189
-0.11143693 -0.034526281 -0.22854701
-0.11143237 -0.034447666 -0.22857711
-0.1114279 -0.034369092 -0.22860521
-0.11142384 -0.034288738 -0.2286233
-0.11141996 -0.034210425 -0.22863942
-0.11141619 -0.034130204 -0.22865151
-0.11141233 -0.034049936 -0.22866559
-0.11140846 -0.033969671 -0.22867967
-0.11140439 -0.033891268 -0.2286998
-0.11139982 -0.03381265 -0.2287299
-0.11139528 -0.033732079 -0.22875796
-0.11139078 -0.033655461 -0.22878812
-0.11138643 -0.033574976 -0.22881219
-0.11138228 -0.033494577 -0.22883227
-0.1113782 -0.033416182 -0.22885239
-0.11137404 -0.033335783 -0.22887245
-0.11137047 -0.033255644 -0.22888055
-0.11136661 -0.033175379 -0.22889462
-0.11136224 -0.03309685 -0.22892076
-0.11135738 -0.033018097 -0.22895685
-0.11135252 -0.032939352 -0.22899295
-0.11134825 -0.032860868 -0.22901706
-0.11134458 -0.032780685 -0.22902715
-0.11134113 -0.032698639 -0.22903121
-0.11133757 -0.032616548 -0.22903726
-0.11133362 -0.032536238 -0.22905332
-0.11132953 -0.03245784 -0.22907345
-0.11132538 -0.032377444 -0.22909352
-0.11132132 -0.03229709 -0.22911161
-0.11131705 -0.032218602 -0.22913572
-0.1113126 -0.032138076 -0.2291618
-0.11130825 -0.032057591 -0.22918585
-0.11130427 -0.031979233 -0.22920398
-0.11129962 -0.031898618 -0.22923404
-0.11129535 -0.03182013 -0.22925815
-0.11129119 -0.031739734 -0.22927822
-0.11128704 -0.031659335 -0.22929829
-0.11128308 -0.031579025 -0.22931439
-0.11127912 -0.031498715 -0.22933047
-0.11127525 -0.03141845 -0.22934455
-0.1112711 -0.031338051 -0.22936462
-0.11126694 -0.031257655 -0.22938469
-0.11126317 -0.031177431 -0.22939679
-0.11125901 -0.031097032 -0.22941685
-0.11125426 -0.031018328 -0.22945094
-0.11124949 -0.030939624 -0.22948506
-0.11124563 -0.030859359 -0.22949913
-0.11124186 -0.030779134 -0.22951123
-0.11123751 -0.03069865 -0.22953528
-0.11123306 -0.030618122 -0.22956136
-0.11122881 -0.03053768 -0.22958343
-0.11122456 -0.03045724 -0.2296055
-0.11122048 -0.030378841 -0.22962563
-0.11121622 -0.030298401 -0.2296477
-0.11121197 -0.030217959 -0.22966976
-0.11120772 -0.030137518 -0.22969183
-0.11120376 -0.030057207 -0.22970791
-0.11119951 -0.029976767 -0.22973
-0.11119506 -0.029896237 -0.22975606
-0.11119139 -0.029816058 -0.22976615
-0.11118784 -0.029733967 -0.2297722
-0.11118387 -0.029653657 -0.22978827
-0.11117914 -0.029572999 -0.22982033
-0.11117449 -0.029492384 -0.22985038
-0.11116973 -0.02941368 -0.22988449
-0.11116479 -0.029332932 -0.22992054
-0.11116032 -0.029254358 -0.22994865
-0.11115597 -0.029173873 -0.22997272
-0.11115204 -0.029091612 -0.22998676
-0.11114846 -0.029011473 -0.22999485
-0.11114482 -0.028929342 -0.23000289
-0.11114076 -0.028848987 -0.23002097
-0.11113621 -0.028768413 -0.23004903
-0.11113176 -0.028687887 -0.23007509
-0.11112753 -0.028605491 -0.23009512
-0.11112347 -0.028525136 -0.23011321
-0.11111951 -0.028444827 -0.23012927
-0.11111546 -0.028364472 -0.23014736
-0.11111122 -0.028282076 -0.23016739
-0.11110677 -0.02820155 -0.23019347
-0.11110222 -0.028120978 -0.23022151
-0.11109768 -0.028040405 -0.23024958
-0.11109331 -0.027961876 -0.23027569
-0.11108888 -0.027879395 -0.23029971
-0.11108422 -0.027800733 -0.23033181
-0.11107979 -0.02771825 -0.23035583
-0.11107583 -0.02763794 -0.23037192
-0.11107177 -0.027557585 -0.23039
-0.11106683 -0.02747684 -0.23042604
-0.11106219 -0.027396224 -0.23045611
-0.11105844 -0.027314048 -0.23046616
-0.1110546 -0.027231826 -0.2304782
-0.11105064 -0.027151516 -0.23049426
-0.1110467 -0.027069252 -0.2305083
-0.11104295 -0.026987072 -0.23051834
-0.11103921 -0.026904896 -0.23052838
-0.11103495 -0.026824456 -0.23055047
-0.11103012 -0.026743751 -0.2305845
-0.11102479 -0.026662832 -0.23062855
-0.11102044 -0.026582349 -0.23065262
-0.1110165 -0.026500084 -0.23066665
-0.11101273 -0.026419859 -0.23067874
-0.1110087 -0.026337553 -0.23069477
-0.11100435 -0.026257066 -0.23071884
-0.11099972 -0.026174497 -0.23074687
-0.11099527 -0.026093969 -0.23077293
-0.11099102 -0.026013527 -0.230795
-0.11098718 -0.025931306 -0.23080704
-0.11098324 -0.025849041 -0.23082107
-0.11097849 -0.025768384 -0.23085313
-0.11097416 -0.025685944 -0.23087515
-0.11097032 -0.025603723 -0.23088719
-0.11096627 -0.025523368 -0.23090526
-0.11096213 -0.025441017 -0.2309233
-0.1109577 -0.025358535 -0.23094732
-0.11095237 -0.025277615 -0.23099136
-0.11094734 -0.025196824 -0.23102941
-0.11094318 -0.025116427 -0.23104948
-0.11093953 -0.025034294 -0.23105752
-0.11093618 -0.024952291 -0.23105958
-0.11093245 -0.024868159 -0.23106757
-0.1109283 -0.024787761 -0.23108765
-0.11092387 -0.02470528 -0.23111168
-0.11091923 -0.024624664 -0.23114173
-0.1109148 -0.024542181 -0.23116577
-0.11091086 -0.024459917 -0.23117979
-0.11090651 -0.024379432 -0.23120385
-0.11090198 -0.024296906 -0.23122987
-0.11089775 -0.02421451 -0.2312499
-0.11089361 -0.024132159 -0.23126793
-0.11088917 -0.024051629 -0.23129401
-0.11088454 -0.02396906 -0.23132202
-0.11087932 -0.023888184 -0.23136406
-0.1108745 -0.023805527 -0.23139605
-0.11087075 -0.023723349 -0.23140611
-0.1108672 -0.023641258 -0.23141214
-0.11086326 -0.023558993 -0.23142618
-0.11085842 -0.023478292 -0.23146024
-0.11085341 -0.023395548 -0.23149624
-0.11084937 -0.023313239 -0.23151228
-0.11084543 -0.023230975 -0.23152632
-0.1108411 -0.023148537 -0.23154834
-0.11083696 -0.023066185 -0.23156637
-0.11083312 -0.022983963 -0.23157841
-0.11082928 -0.022901742 -0.23159045
-0.11082634 -0.022817958 -0.23158246
-0.11082329 -0.022734132 -0.23157647
-0.11081933 -0.022653822 -0.23159257
-0.11081383 -0.02257086 -0.23163855
-0.11080782 -0.022489633 -0.23169658
-0.11080242 -0.022406716 -0.23174056
-0.11079808 -0.022324277 -0.23176259
-0.11079405 -0.022241969 -0.23177862
-0.11078991 -0.022159617 -0.23179665
-0.11078607 -0.022077397 -0.23180869
-0.11078195 -0.021993089 -0.23182467
-0.1107775 -0.02191256 -0.23185074
-0.11077298 -0.021830035 -0.23187676
-0.11076865 -0.021747597 -0.23189878
-0.11076432 -0.021665156 -0.23192081
-0.11075991 -0.02158072 -0.23194277
-0.11075537 -0.021500148 -0.23197085
-0.11075094 -0.021417666 -0.23199487
-0.11074644 -0.021333186 -0.23201886
-0.11074269 -0.021251008 -0.23202889
-0.11073904 -0.021168875 -0.23203692
-0.11073451 -0.021086348 -0.23206295
-0.1107295 -0.021003604 -0.23209895
-0.11072499 -0.020919124 -0.23212293
-0.11072057 -0.02083664 -0.23214695
-0.11071595 -0.020754071 -0.23217496
-0.11071191 -0.020671763 -0.232191
-0.11070797 -0.020589499 -0.23220503
-0.11070317 -0.020504886 -0.23223498
-0.11069854 -0.020422317 -0.23226301
-0.11069412 -0.020339835 -0.23228705
-0.11068939 -0.020257222 -0.23231706
-0.11068497 -0.02017474 -0.23234107
-0.11068027 -0.020090172 -0.23236904
-0.11067613 -0.020007819 -0.23238707
-0.11067241 -0.019923687 -0.23239505
-0.11066866 -0.019841511 -0.2324051
-0.11066473 -0.019759245 -0.23241913
-0.11066022 -0.019674765 -0.23244312
-0.11065549 -0.019592151 -0.23247313
-0.11065128 -0.019507803 -0.23249111
-0.11064734 -0.019425537 -0.23250514
-0.1106433 -0.019343229 -0.23252118
-0.1106387 -0.019258706 -0.23254715
-0.11063418 -0.01917618 -0.23257318
-0.11062948 -0.019091612 -0.23260114
-0.11062486 -0.019009043 -0.23262915
-0.11062033 -0.018926516 -0.23265517
-0.11061543 -0.018841861 -0.23268712
-0.11061022 -0.018759029 -0.23272714
-0.11060533 -0.018674375 -0.23275909
-0.11060139 -0.01859211 -0.23277313
-0.11059766 -0.018507978 -0.23278113
-0.11059414 -0.018423934 -0.23278512
-0.1105901 -0.018341625 -0.23280117
-0.11058608 -0.018257363 -0.23281515
-0.11058223 -0.018175142 -0.23282719
-0.11057754 -0.018090574 -0.23285516
-0.11057233 -0.018007742 -0.23289515
-0.11056773 -0.017923219 -0.23292112
-0.11056332 -0.017838782 -0.23294309
-0.1105585 -0.017756125 -0.23297511
-0.11055349 -0.017673381 -0.23301113
-0.1105485 -0.017588682 -0.23304507
-0.11054467 -0.017504508 -0.23305508
-0.11054163 -0.017420679 -0.23304909
-0.11053827 -0.017338676 -0.23305115
-0.11053367 -0.017254153 -0.23307711
-0.11052848 -0.017169368 -0.23311505
-0.11052395 -0.017086841 -0.23314108
-0.11052004 -0.017002622 -0.23315307
-0.11051612 -0.016918404 -0.23316507
-0.11051151 -0.016833879 -0.23319104
-0.11242198 -0.039195634 -0.21183896
-0.11241414 -0.039139122 -0.21195552
-0.11240764 -0.039077312 -0.21203998
-0.11239146 -0.039050445 -0.21235505
-0.11238395 -0.038990147 -0.21246153
-0.1123746 -0.038938843 -0.21261415
-0.11236972 -0.038871866 -0.21266052
-0.11235327 -0.038842916 -0.21297956
-0.11234961 -0.038770601 -0.21299583
-0.11232527 -0.038765609 -0.21349925
-0.11231997 -0.038700417 -0.21355565
-0.11231268 -0.038638256 -0.21365608
-0.11230627 -0.038576484 -0.21373853
-0.11230282 -0.038504254 -0.21375081
-0.11226556 -0.038534731 -0.21455282
-0.11225755 -0.038476177 -0.21467131
-0.11225085 -0.038414277 -0.21475977
-0.11224376 -0.038352199 -0.21485621
-0.11223657 -0.038290083 -0.21495464
-0.11221793 -0.038264085 -0.21532169
-0.11221113 -0.038202144 -0.21541214
-0.11219457 -0.03816529 -0.21572697
-0.11218747 -0.038103215 -0.21582341
-0.11216775 -0.038078696 -0.21621448
-0.11216167 -0.038013145 -0.21628685
-0.11215641 -0.037944037 -0.21633917
-0.11215085 -0.037876755 -0.21639952
-0.11213136 -0.037848409 -0.21678248
-0.11212286 -0.037789635 -0.21691099
-0.11211428 -0.037728861 -0.21703942
-0.11210579 -0.037670087 -0.21716791
-0.11209893 -0.03760419 -0.21725628
-0.11209397 -0.037535213 -0.21730259
-0.11207016 -0.037516724 -0.21778372
-0.11206522 -0.037445791 -0.21782799
-0.11206086 -0.037375122 -0.21786028
-0.11201933 -0.037401728 -0.21874809
-0.11200882 -0.03734795 -0.21892267
-0.11200226 -0.037282184 -0.21900503
-0.11199572 -0.037214462 -0.21908535
-0.11198772 -0.037153952 -0.2192018
-0.11197593 -0.037101559 -0.2194044
-0.11196544 -0.037045822 -0.2195769
-0.11195554 -0.036990345 -0.21973744
-0.11194384 -0.036937993 -0.21993802
-0.11193216 -0.036883686 -0.22013655
-0.11192542 -0.036815882 -0.22022086
-0.11190101 -0.036799081 -0.22071601
-0.11189426 -0.036731273 -0.22080034
-0.11188653 -0.036664985 -0.22090666
-0.11187888 -0.036600698 -0.22101304
-0.11187243 -0.03653302 -0.22109136
-0.11186581 -0.036463305 -0.22117163
-0.11183831 -0.036451019 -0.22173482
-0.11180703 -0.036444895 -0.2223821
-0.1117981 -0.036380038 -0.22251442
-0.11179148 -0.036310319 -0.22259471
-0.11178555 -0.036240906 -0.222661
-0.11174686 -0.036249146 -0.22347446
-0.11174256 -0.036172614 -0.22350061
-0.11173735 -0.036099598 -0.22354883
-0.11172993 -0.036031485 -0.22364715
-0.11171858 -0.035973404 -0.22383559
-0.11167794 -0.035990588 -0.2246972
-0.11167577 -0.035907153 -0.22467324
-0.11167206 -0.035830881 -0.22468743
-0.11166626 -0.035757605 -0.22474763
-0.11165836 -0.035689276 -0.2248559
-0.11165044 -0.03562095 -0.2249642
-0.11164305 -0.035550881 -0.22506043
-0.11163613 -0.035481036 -0.22514671
-0.11162864 -0.035410926 -0.22524494
-0.11162044 -0.035342466 -0.22535923
-0.11159866 -0.03530721 -0.225784
-0.11159347 -0.035232238 -0.22583018
-0.1115877 -0.03515701 -0.22588834
-0.11153372 -0.035193764 -0.22704417
-0.11152855 -0.035116836 -0.2270883
-0.11148144 -0.035133101 -0.22808377
-0.11147607 -0.035056088 -0.22813189
-0.11147019 -0.034980811 -0.22819206
-0.11146543 -0.034902107 -0.22822616
-0.11146095 -0.034825489 -0.22825631
-0.11145648 -0.034746915 -0.22828443
-0.11145203 -0.034666389 -0.2283105
-0.11144785 -0.034587942 -0.22833261
-0.11144358 -0.034509458 -0.22835673
-0.11143952 -0.034429103 -0.22837481
-0.11143573 -0.034350835 -0.22838894
-0.11143177 -0.034270525 -0.22840503
-0.11142752 -0.034190085 -0.2284271
-0.11142334 -0.034111641 -0.22844921
-0.11141887 -0.034033068 -0.22847733
-0.11141479 -0.033954669 -0.22849745
-0.11141144 -0.033872664 -0.22849949
-0.11140857 -0.033790879 -0.22849157
-0.11140493 -0.033708744 -0.22849961
-0.11140055 -0.033630215 -0.22852571
-0.11139567 -0.033553421 -0.22856387
-0.1113913 -0.033474892 -0.22858998
-0.11138704 -0.033394448 -0.22861205
-0.11138267 -0.033315919 -0.22863816
-0.11137862 -0.033235565 -0.22865623
-0.11137485 -0.033155344 -0.22866833
-0.11137099 -0.033075076 -0.2286824
-0.111367 -0.032996722 -0.22870053
-0.11136314 -0.032916453 -0.22871462
-0.11135867 -0.032837879 -0.22874272
-0.11135401 -0.032759219 -0.22877483
-0.11134995 -0.032678865 -0.22879291
-0.11134519 -0.032600161 -0.228827
-0.11134103 -0.032519761 -0.22884709
-0.11133646 -0.032441147 -0.22887719
-0.111332 -0.032362573 -0.22890531
-0.11132784 -0.032282174 -0.22892538
-0.11132347 -0.032203645 -0.22895148
-0.11131921 -0.032123204 -0.22897357
-0.11131515 -0.03204285 -0.22899164
-0.11131197 -0.031962886 -0.22899173
-0.11130852 -0.031880841 -0.2289958
-0.11130446 -0.031800486 -0.22901386
-0.11130041 -0.031720132 -0.22903195
-0.11129654 -0.031639867 -0.22904602
-0.11129236 -0.031561423 -0.22906815
-0.1112875 -0.031482674 -0.22910425
-0.11128376 -0.031400498 -0.22911429
-0.11127999 -0.031320274 -0.22912638
-0.11127572 -0.031241786 -0.2291505
-0.11127166 -0.031161435 -0.22916856
-0.1112676 -0.03108108 -0.22918664
-0.11126325 -0.031000596 -0.2292107
-0.11125878 -0.030922024 -0.22923882
-0.11125463 -0.030841626 -0.22925889
-0.11125086 -0.030761402 -0.22927098
-0.11124661 -0.030680962 -0.22929305
-0.11124165 -0.030602168 -0.22933115
-0.11123679 -0.030523419 -0.22936726
-0.11123274 -0.030443067 -0.22938532
-0.11122906 -0.030362889 -0.22939542
-0.11122512 -0.030280624 -0.22940946
-0.11122107 -0.030200269 -0.22942752
-0.11121669 -0.03012174 -0.22945365
-0.11121205 -0.030041125 -0.22948369
-0.11120749 -0.029962506 -0.22951381
-0.11120304 -0.029881978 -0.22953987
-0.11119859 -0.029801451 -0.22956595
-0.11119412 -0.029722877 -0.22959405
-0.11119037 -0.029640699 -0.2296041
-0.11118731 -0.029558826 -0.22960016
-0.11118354 -0.029478604 -0.22961223
-0.11117949 -0.029398249 -0.22963032
-0.11117525 -0.029315855 -0.22965035
-0.11117117 -0.029237455 -0.22967046
-0.11116643 -0.029156797 -0.22970253
-0.11116169 -0.029076137 -0.22973458
-0.11115743 -0.028995696 -0.22975665
-0.11115328 -0.028915299 -0.22977673
-0.11114912 -0.028834902 -0.2297968
-0.11114487 -0.02875446 -0.22981888
-0.11114081 -0.028674105 -0.22983694
-0.11113697 -0.028591884 -0.229849
-0.1111333 -0.028511705 -0.22985908
-0.11112875 -0.028431134 -0.22988714
-0.1111244 -0.028350649 -0.22991121
-0.11112025 -0.028270252 -0.22993128
-0.1111156 -0.028189637 -0.22996134
-0.11111135 -0.028109197 -0.22998342
-0.11110729 -0.028028842 -0.23000149
-0.11110323 -0.027948488 -0.23001957
-0.11109929 -0.027866224 -0.23003361
-0.11109535 -0.027783958 -0.23004764
-0.11109178 -0.027703824 -0.23005573
-0.11108793 -0.027621601 -0.23006776
-0.11108327 -0.027542941 -0.23009989
-0.11107865 -0.02746037 -0.2301279
-0.11107399 -0.027381711 -0.23016
-0.11106856 -0.027300747 -0.23020603
-0.11106411 -0.027220219 -0.23023209
-0.11106056 -0.027138129 -0.23023814
-0.1110574 -0.027056212 -0.2302362
-0.11105385 -0.026974121 -0.23024225
-0.11104921 -0.026893508 -0.23027232
-0.11104456 -0.026812891 -0.23030238
-0.1110405 -0.026732538 -0.23032045
-0.11103627 -0.026650142 -0.23034048
-0.11103231 -0.026569832 -0.23035656
-0.11102847 -0.026487611 -0.23036858
-0.11102431 -0.026407214 -0.23038867
-0.11101986 -0.026326684 -0.23041475
-0.11101544 -0.026244203 -0.23043875
-0.11101108 -0.026163718 -0.23046282
-0.11100625 -0.026083015 -0.23049688
-0.11100201 -0.026000619 -0.23051691
-0.11099776 -0.025920179 -0.23053898
-0.11099341 -0.025839694 -0.23056304
-0.11098947 -0.02575743 -0.23057708
-0.11098543 -0.025675122 -0.23059312
-0.11098137 -0.025594767 -0.23061119
-0.11097743 -0.025512503 -0.23062524
-0.110973 -0.02543002 -0.23064925
-0.11096865 -0.025349535 -0.23067331
-0.11096432 -0.025267098 -0.23069534
-0.11095968 -0.025186483 -0.23072541
-0.11095493 -0.025105823 -0.23075747
-0.1109508 -0.025023472 -0.23077549
-0.11094683 -0.024943162 -0.23079157
-0.110943 -0.024860941 -0.23080361
-0.11093896 -0.024778631 -0.23081964
-0.1109347 -0.02469819 -0.23084173
-0.11093047 -0.024615794 -0.23086174
-0.11092634 -0.024533443 -0.23087978
-0.1109223 -0.024451135 -0.2308958
-0.11091795 -0.024370652 -0.23091987
-0.11091301 -0.024289904 -0.23095593
-0.11090849 -0.02420738 -0.23098195
-0.11090503 -0.024125332 -0.23098598
-0.1109018 -0.024041418 -0.230984
-0.11089812 -0.023961239 -0.23099409
-0.11089331 -0.023878582 -0.23102611
-0.11088856 -0.023797922 -0.23105815
-0.11088375 -0.023715265 -0.23109016
-0.11087881 -0.023634519 -0.23112622
-0.11087399 -0.023551863 -0.23115823
-0.11086954 -0.023471335 -0.2311843
-0.11086531 -0.023388941 -0.23120433
-0.11086108 -0.023306545 -0.23122436
-0.11085714 -0.023224279 -0.23123839
-0.1108529 -0.023141883 -0.23125842
-0.11084867 -0.023059487 -0.23127845
-0.11084443 -0.022977093 -0.23129848
-0.1108404 -0.022894785 -0.23131451
-0.11083636 -0.022812476 -0.23133053
-0.11083262 -0.022730298 -0.23134057
-0.11082836 -0.022649858 -0.23136264
-0.11082315 -0.022567028 -0.23140264
-0.11081824 -0.022484327 -0.23143664
-0.11081362 -0.022401758 -0.23146467
-0.11080958 -0.022319449 -0.2314807
-0.11080564 -0.022237185 -0.23149472
-0.1108015 -0.022154834 -0.23151276
-0.11079707 -0.022072351 -0.23153678
-0.11079293 -0.021989997 -0.23155482
-0.11078851 -0.021907516 -0.23157884
-0.11078386 -0.021826901 -0.2316089
-0.11077934 -0.021744374 -0.23163491
-0.11077561 -0.021660242 -0.2316429
-0.11077274 -0.021578457 -0.23163497
-0.11076921 -0.021494413 -0.23163898
-0.11076447 -0.021413755 -0.23167104
-0.11075965 -0.021331098 -0.23170304
-0.11075532 -0.021248657 -0.23172507
-0.11075111 -0.021164309 -0.23174307
-0.11074647 -0.021083692 -0.23177312
-0.11074185 -0.021001123 -0.23180114
-0.11073693 -0.020918423 -0.23183514
-0.1107326 -0.020835984 -0.23185715
-0.110728 -0.02075146 -0.23188314
-0.11072405 -0.020669196 -0.23189718
-0.11072031 -0.020587018 -0.23190722
-0.11071627 -0.020504709 -0.23192325
-0.11071233 -0.020422446 -0.23193729
-0.11070861 -0.020338314 -0.23194528
-0.11070467 -0.020256048 -0.23195931
-0.11069994 -0.020173434 -0.23198932
-0.11069515 -0.020088824 -0.23201931
-0.11069041 -0.020008165 -0.23205134
-0.1106859 -0.019923685 -0.23207533
-0.11068215 -0.019841507 -0.23208536
-0.11067763 -0.019758981 -0.23211139
-0.11067283 -0.01967437 -0.23214135
-0.11066879 -0.019592062 -0.23215738
-0.11066478 -0.019507799 -0.23217137
-0.11066093 -0.019425578 -0.23218341
-0.11065699 -0.019343313 -0.23219743
-0.11065219 -0.019258702 -0.23222741
-0.11064767 -0.019176176 -0.23225343
-0.11064354 -0.019093825 -0.23227146
-0.11063922 -0.019009432 -0.23229143
-0.11063509 -0.018927079 -0.23230946
-0.11063088 -0.018842729 -0.23232745
-0.11062684 -0.01876042 -0.23234349
-0.11062221 -0.018677851 -0.23237151
-0.11061722 -0.018593153 -0.23240545
-0.11061289 -0.018510714 -0.23242748
-0.11060858 -0.018426321 -0.23244746
-0.11060406 -0.018343795 -0.23247349
-0.11060013 -0.018259576 -0.23248547
-0.11059658 -0.018177485 -0.23249152
-0.11059274 -0.018095264 -0.23250356
-0.11058755 -0.018010478 -0.2325415
-0.11058225 -0.017927604 -0.23258352
-0.11057755 -0.017843038 -0.23261148
-0.11057331 -0.017760642 -0.2326315
-0.110569 -0.017676249 -0.23265149
-0.11056428 -0.017593635 -0.23268151
-0.11056007 -0.017509285 -0.23269948
-0.11055624 -0.017425109 -0.23270947
-0.11055152 -0.017342497 -0.23273948
-0.11054672 -0.017257884 -0.23276946
-0.11054249 -0.01717549 -0.23278949
-0.11053818 -0.017091097 -0.23280945
-0.11053329 -0.017006442 -0.23284143
-0.11052915 -0.016924091 -0.23285945
-0.11052524 -0.016839871 -0.23287144
-0.11052082 -0.016755434 -0.23289341
-0.11051669 -0.016673082 -0.23291145
-0.11051247 -0.016588733 -0.23292944
-0.11050817 -0.01650434 -0.23294941
-0.11050393 -0.016421944 -0.23296943
-0.11049972 -0.016337594 -0.23298742
-0.11049512 -0.016253071 -0.23301339
-0.11049032 -0.016168458 -0.23304336
-0.11048572 -0.016083935 -0.23306933
-0.11048158 -0.016001582 -0.23308736
-0.11047757 -0.01591732 -0.23310134
-0.11047345 -0.015833015 -0.23311734
-0.11046962 -0.01574884 -0.23312733
-0.11046502 -0.015664315 -0.2331533
-0.1104442 -0.00058700889 -0.2211026
-0.11044195 -0.00051139109 -0.22108683
-0.11047181 -0.00043834001 -0.22040373
-0.11047025 -0.00036302768 -0.22037396
-0.11048599 -0.00032882579 -0.22001746
-0.11048461 -0.00025555678 -0.21998577
-0.11048456 -0.0001848489 -0.21992815
-0.11048498 -0.00011631474 -0.21986258
-0.11050941 -0.00010366738 -0.21934274
-0.11050881 -3.0744821e-05 -0.21929505
-0.11052175 0.00014804117 -0.2188772
-0.11052178 0.00021675043 -0.21881962
-0.1105222 0.00028528459 -0.21875405
-0.11052272 0.00035377406 -0.21868649
-0.1105241 0.00041991845 -0.218603
-0.11052386 0.000490712 -0.21854937
-0.11052304 0.00056176633 -0.21850774
-0.11052261 0.00063264929 -0.21845809
-0.11052254 0.00070139952 -0.2184025
-0.11052115 0.00077466853 -0.2183708
-0.11052023 0.00084576942 -0.21833114
-0.11051969 0.00091669336 -0.2182835
-0.11051916 0.0009876173 -0.21823588
-0.11051719 0.0010611489 -0.21821615
-0.11051531 0.0011346359 -0.21819441
-0.11051307 0.0012102537 -0.21817863
-0.11051089 0.0012838747 -0.21816291
-0.11050922 0.0013572741 -0.21813719
-0.11050697 0.0014328919 -0.21812141
-0.1105048 0.0015065111 -0.21810567
-0.11050206 0.0015823469 -0.21809988
-0.11049896 0.0016603097 -0.21810004
-0.11049584 0.0017363187 -0.21810222
-0.11049234 0.0018144585 -0.21811037
-0.11048858 0.0018946826 -0.21812245
-0.11048488 0.0019729063 -0.21813458
-0.1104814 0.0020510443 -0.21814272
-0.11047817 0.0021270961 -0.21814692
-0.11047497 0.0022051036 -0.21814907
-0.11047158 0.0022831988 -0.21815521
-0.11046808 0.0023613386 -0.21816334
-0.11046316 0.0024440382 -0.21819735
-0.11045757 0.0025270414 -0.21824534
-0.11045253 0.0026078336 -0.21828339
-0.11044752 0.002690576 -0.21831939
-0.1104425 0.0027733184 -0.21835539
-0.11043778 0.0028559323 -0.21838541
-0.11043258 0.0029387642 -0.21842541
-0.11042879 0.0030170325 -0.21843953
-0.11042579 0.0030949544 -0.2184377
-0.11042315 0.0031707454 -0.21842989
-0.11042061 0.0032464918 -0.2184201
-0.11041787 0.0033223275 -0.21841432
-0.11041504 0.0033982042 -0.21841052
-0.11041231 0.0034740418 -0.21840473
-0.11040911 0.0035520494 -0.21840687
-0.11040591 0.0036300551 -0.21840903
-0.11040288 0.0037060212 -0.21840921
-0.11039948 0.0037841164 -0.21841536
-0.11039542 0.003864469 -0.21843344
-0.11039098 0.0039449967 -0.21845952
-0.11038682 0.0040253978 -0.21847957
-0.11038266 0.0041057933 -0.21849966
-0.11037795 0.0041884053 -0.21852967
-0.11037254 0.0042713229 -0.21857366
-0.11036792 0.0043538939 -0.21860167
-0.11036234 0.0044388548 -0.21864761
-0.11035666 0.0045238566 -0.21869555
-0.11035003 0.0046112519 -0.21876143
-0.11034492 0.004694039 -0.21879943
-0.11033934 0.004778998 -0.21884537
-0.11033386 0.0048639122 -0.21888931
-0.11033027 0.0049420968 -0.21889946
-0.11032707 0.0050201025 -0.2189016
-0.11032348 0.0050982833 -0.21891174
-0.11031989 0.005176466 -0.21892187
-0.11031661 0.0052564722 -0.21892399
-0.11031339 0.005332524 -0.21892816
-0.11031018 0.0054105315 -0.2189303
-0.11030689 0.0054885838 -0.21893445
-0.11030349 0.0055666789 -0.2189406
-0.11029992 0.0056468137 -0.21894869
-0.11029567 0.0057272539 -0.21897075
-0.11029056 0.0058100428 -0.21900877
-0.1102847 0.0058970843 -0.21905865
-0.11027922 0.0059820022 -0.21910259
-0.1102744 0.006064659 -0.21913461
-0.11027025 0.0061450563 -0.21915469
-0.11026514 0.0062278435 -0.21919268
-0.11025976 0.0063127168 -0.21923463
-0.11025361 0.0063998923 -0.21929051
-0.11024871 0.0064845476 -0.21932247
-0.11024447 0.0065649897 -0.21934456
-0.11023661 0.0066568553 -0.21943229
-0.11022858 0.0067507681 -0.21952197
-0.11022518 0.0068288613 -0.21952811
-0.11022294 0.0069044791 -0.21951234
-0.1102201 0.0069803577 -0.21950854
-0.11021719 0.007058233 -0.21950468
-0.11021429 0.0071361121 -0.21950084
-0.11021079 0.00721425 -0.21950901
-0.11020721 0.0072943848 -0.21951708
-0.11020402 0.0073723905 -0.21951923
-0.11019986 0.0074527897 -0.21953931
-0.11019468 0.0075375754 -0.21957725
-0.11018863 0.0076247063 -0.21963114
-0.11018506 0.0077048447 -0.21963924
-0.11018166 0.007782938 -0.21964538
-0.11017638 0.0078677647 -0.21968533
-0.11017175 0.0079503339 -0.21971335
-0.11016495 0.0080397706 -0.21978116
-0.110159 0.0081268605 -0.21983305
-0.11015552 0.0082069505 -0.21983914
-0.11014965 0.0082920436 -0.21989107
-0.11014637 0.0083720479 -0.21989319
-0.11012275 0.0086516049 -0.2201543
-0.11012004 0.0087293945 -0.22014646
-0.11011712 0.0088072717 -0.22014263
-0.11011552 0.0088786744 -0.22011694
-0.11011452 0.008951772 -0.22007726
-0.11011378 0.0090208296 -0.22003564
-0.11258219 -0.038662866 -0.20804375
-0.112579 -0.038592719 -0.20805207
-0.11257531 -0.038524307 -0.20807242
-0.11256918 -0.038464628 -0.20815094
-0.11256124 -0.038408063 -0.20826949
-0.11255337 -0.038355462 -0.20839015
-0.11254655 -0.03829547 -0.20848262
-0.11253799 -0.03824256 -0.20861724
-0.11252832 -0.038193077 -0.20877793
-0.11251632 -0.038150411 -0.20899272
-0.11249866 -0.038124844 -0.2093398
-0.11248496 -0.038085349 -0.20959263
-0.11247429 -0.038037386 -0.20977533
-0.11246796 -0.037977614 -0.20985784
-0.11246044 -0.037919275 -0.20996636
-0.112452 -0.037864454 -0.21009693
-0.11241902 -0.037888989 -0.21080488
-0.11240368 -0.037856609 -0.21109784
-0.11239868 -0.037791543 -0.21114825
-0.11237942 -0.037769191 -0.21153137
-0.11237524 -0.037700564 -0.21156171
-0.11236894 -0.037636884 -0.21164012
-0.11235958 -0.037585579 -0.21179277
-0.11234872 -0.037537526 -0.21197945
-0.11233757 -0.037489347 -0.21217215
-0.11232743 -0.037437692 -0.21234077
-0.11231942 -0.037379138 -0.21245927
-0.11231364 -0.037313722 -0.21252565
-0.11230703 -0.037251867 -0.21261211
-0.11229326 -0.037210368 -0.21286489
-0.11228384 -0.03715511 -0.21301544
-0.11226946 -0.037115306 -0.21328226
-0.11226279 -0.037051454 -0.21336867
-0.11224438 -0.03702163 -0.21372762
-0.11223903 -0.036952481 -0.21378194
-0.11221842 -0.036927566 -0.21419096
-0.11220861 -0.036872134 -0.21434951
-0.1122007 -0.03681362 -0.21446602
-0.11217869 -0.036792003 -0.21490711
-0.11217453 -0.036721423 -0.21493541
-0.11215966 -0.036681399 -0.2152122
-0.1121538 -0.036613986 -0.21527854
-0.11214782 -0.036548484 -0.21534893
-0.1121242 -0.036530077 -0.21582606
-0.11212096 -0.036455981 -0.21583229
-0.11210483 -0.036415391 -0.21613505
-0.11210159 -0.036341295 -0.21614128
-0.11207254 -0.036336169 -0.21674262
-0.1120661 -0.036268495 -0.21682094
-0.11205721 -0.036209546 -0.21695742
-0.11204934 -0.036147125 -0.21706983
-0.11204057 -0.036086261 -0.21720228
-0.11203221 -0.036023624 -0.21732467
-0.11202585 -0.035957947 -0.21740304
-0.11200423 -0.035926692 -0.21782792
-0.11199667 -0.035862446 -0.21793228
-0.11199 -0.035796635 -0.21801665
-0.11198528 -0.035723835 -0.21805489
-0.11196315 -0.035694316 -0.21849179
-0.11195872 -0.035621651 -0.21852404
-0.11195378 -0.035550721 -0.21856833
-0.11190727 -0.035584919 -0.21956623
-0.11190374 -0.035510689 -0.21957844
-0.11189812 -0.035439454 -0.21963671
-0.11188724 -0.035383545 -0.21981722
-0.11188021 -0.035315607 -0.21990752
-0.11186312 -0.035272628 -0.22022821
-0.11185498 -0.035208121 -0.22034457
-0.11184873 -0.035140533 -0.2204189
-0.11183908 -0.035079286 -0.22056931
-0.1118232 -0.035032921 -0.22086194
-0.11181358 -0.034969714 -0.22101033
-0.11179942 -0.034918226 -0.22126286
-0.11179078 -0.034853503 -0.2213892
-0.11178378 -0.034783609 -0.22147746
-0.11177866 -0.034710638 -0.2215237
-0.11175699 -0.034675427 -0.22194648
-0.11174103 -0.034627065 -0.22223906
-0.11171396 -0.034601226 -0.22278196
-0.11170775 -0.034529731 -0.2228522
-0.11170325 -0.034455068 -0.22288439
-0.11164568 -0.034498069 -0.22412029
-0.11164029 -0.034423009 -0.22417048
-0.11163177 -0.034356378 -0.22429277
-0.11162346 -0.034289826 -0.22441109
-0.11161586 -0.034219675 -0.22451133
-0.11160544 -0.034158073 -0.22467771
-0.11159083 -0.034102462 -0.22493616
-0.11156337 -0.034076449 -0.22548704
-0.11155839 -0.033999614 -0.22552718
-0.11155129 -0.033929676 -0.22561744
-0.11154282 -0.033859134 -0.22573566
-0.11153632 -0.033787504 -0.2258119
-0.11152661 -0.033722304 -0.22596021
-0.11151394 -0.033659697 -0.22617254
-0.11150834 -0.03358651 -0.22622874
-0.11150339 -0.03350772 -0.22626683
-0.111498 -0.033432662 -0.22631702
-0.11149111 -0.033360858 -0.22640124
-0.11142983 -0.033307962 -0.22763485
-0.11139418 -0.033288103 -0.22836173
-0.111377 -0.033235267 -0.22867617
-0.11137282 -0.033156823 -0.2286983
-0.11136857 -0.033076383 -0.22872037
-0.11136449 -0.032997984 -0.22874048
-0.11136062 -0.032917716 -0.22875458
-0.11135647 -0.032837316 -0.22877467
-0.11135091 -0.032760218 -0.22882676
-0.11134435 -0.032684639 -0.22890091
-0.11134017 -0.032606199 -0.22892302
-0.11133582 -0.032525711 -0.2289471
-0.11133155 -0.032447226 -0.22897121
-0.11132759 -0.032366917 -0.22898731
-0.11132383 -0.032286692 -0.22899939
-0.11131947 -0.032206208 -0.22902346
-0.11131491 -0.032127589 -0.22905356
-0.11131044 -0.032049015 -0.22908168
-0.11130667 -0.031968791 -0.22909376
-0.11130312 -0.031886704 -0.22909981
-0.11129895 -0.031808261 -0.22912192
-0.1112942 -0.031727601 -0.22915399
-0.11129015 -0.03164725 -0.22917205
-0.11128636 -0.031568978 -0.22918619
-0.11128242 -0.031486712 -0.22920021
-0.11127844 -0.031408358 -0.22921835
-0.11127341 -0.031327568 -0.22925639
-0.11126894 -0.031248996 -0.22928451
-0.11126537 -0.031168859 -0.2292926
-0.11126121 -0.031088464 -0.22931267
-0.11125725 -0.031008152 -0.22932875
-0.11125329 -0.030927841 -0.22934484
-0.11124904 -0.0308474 -0.2293669
-0.11124466 -0.030768871 -0.22939302
-0.11123993 -0.030688211 -0.22942507
-0.11123545 -0.030609637 -0.22945318
-0.11123101 -0.03052911 -0.22947925
-0.11122654 -0.030450536 -0.22950736
-0.11122189 -0.030369921 -0.22953743
-0.11121804 -0.030289654 -0.22955151
-0.11121477 -0.030207694 -0.22955157
-0.11121072 -0.030127341 -0.22956964
-0.11120637 -0.030046856 -0.22959372
-0.11120269 -0.029966675 -0.2296038
-0.11119886 -0.029884454 -0.22961584
-0.1111947 -0.029804058 -0.22963592
-0.11119093 -0.029723834 -0.22964799
-0.11118707 -0.029643567 -0.22966209
-0.11118301 -0.029563215 -0.22968015
-0.11117847 -0.029482642 -0.22970822
-0.11117431 -0.029402245 -0.2297283
-0.11117046 -0.029320024 -0.22974032
-0.11116641 -0.029239669 -0.22975841
-0.11116235 -0.029159317 -0.2297765
-0.11115771 -0.0290787 -0.22980654
-0.11115314 -0.029000085 -0.22983664
-0.11114821 -0.028919339 -0.2298727
-0.11114325 -0.028840546 -0.22991081
-0.11113909 -0.028760148 -0.22993088
-0.11113535 -0.02867797 -0.22994092
-0.1111316 -0.028595794 -0.22995096
-0.11112794 -0.028515615 -0.22996105
-0.11112399 -0.028433349 -0.22997507
-0.11111993 -0.028352994 -0.22999316
-0.11111578 -0.028272599 -0.23001324
-0.11111192 -0.02819233 -0.23002732
-0.11110759 -0.028109893 -0.23004934
-0.11110314 -0.028029364 -0.23007542
-0.11109889 -0.027948923 -0.23009749
-0.11109444 -0.027868396 -0.23012355
-0.11109018 -0.027787954 -0.23014563
-0.11108612 -0.027707601 -0.23016369
-0.11108187 -0.027627159 -0.23018578
-0.11107762 -0.027546719 -0.23020785
-0.11107338 -0.027464323 -0.23022786
-0.11106962 -0.0273841 -0.23023996
-0.11106529 -0.027301662 -0.23026198
-0.11106113 -0.027221264 -0.23028205
-0.11105717 -0.027140955 -0.23029813
-0.11105284 -0.027058516 -0.23032016
-0.1110483 -0.026977943 -0.23034823
-0.11104365 -0.026897328 -0.23037829
-0.11103959 -0.026816973 -0.23039636
-0.11103585 -0.026734795 -0.2304064
-0.11103201 -0.026652576 -0.23041844
-0.11102766 -0.02657209 -0.23044251
-0.11102332 -0.026489653 -0.23046455
-0.11101878 -0.02640908 -0.23049259
-0.11101414 -0.026328465 -0.23052266
-0.11100949 -0.02624785 -0.23055272
-0.11100514 -0.026167365 -0.23057678
-0.1110013 -0.026085144 -0.23058882
-0.11099785 -0.026003096 -0.23059288
-0.1109941 -0.02592092 -0.23060292
-0.11098956 -0.025840348 -0.23063098
-0.11098462 -0.025759602 -0.23066704
-0.11098048 -0.025677249 -0.23068506
-0.11097664 -0.02559503 -0.2306971
-0.11097249 -0.025514632 -0.23071718
-0.11096786 -0.025432063 -0.2307452
-0.11096341 -0.025351536 -0.23077124
-0.1109587 -0.025268922 -0.23080127
-0.11095425 -0.025188394 -0.23082733
-0.1109499 -0.025107909 -0.2308514
-0.11094566 -0.025025513 -0.23087144
-0.11094221 -0.024943467 -0.23087548
-0.11093895 -0.024861507 -0.23087554
-0.11093501 -0.024779242 -0.23088956
-0.11093047 -0.024698671 -0.23091763
-0.11092564 -0.024616014 -0.23094964
-0.1109211 -0.024535442 -0.23097771
-0.11091746 -0.024453308 -0.23098576
-0.1109139 -0.024371218 -0.23099181
-0.11090967 -0.024288822 -0.23101182
-0.11090485 -0.024206165 -0.23104385
-0.11090021 -0.02412555 -0.2310739
-0.11089549 -0.024042938 -0.23110391
-0.11089153 -0.023962628 -0.23111999
-0.11088808 -0.02388058 -0.23112404
-0.11088423 -0.023798358 -0.23113608
-0.11087932 -0.02371566 -0.23117009
-0.1108747 -0.023633089 -0.2311981
-0.11087044 -0.023552649 -0.23122017
-0.11086621 -0.023470253 -0.2312402
-0.11086256 -0.023388118 -0.23124824
-0.11085911 -0.023306072 -0.2312523
-0.11085488 -0.023223676 -0.23127232
-0.11084928 -0.023140671 -0.23132031
-0.11084425 -0.023059882 -0.23135835
-0.1108405 -0.022977704 -0.23136839
-0.11083636 -0.022895353 -0.23138642
-0.11083145 -0.022812653 -0.23142043
-0.11082702 -0.02273017 -0.23144446
-0.11082315 -0.022649903 -0.23145854
-0.11081924 -0.022565683 -0.23147053
-0.11081481 -0.0224832 -0.23149455
-0.11081077 -0.022400893 -0.23151059
-0.11080732 -0.022318847 -0.23151463
-0.11080348 -0.022236625 -0.23152667
-0.11079925 -0.022154231 -0.2315467
-0.11079511 -0.022071879 -0.23156473
-0.11079107 -0.021989569 -0.23158076
-0.11078694 -0.021907218 -0.23159879
-0.11078271 -0.021824822 -0.23161882
-0.11077798 -0.02174221 -0.23164883
-0.11077248 -0.021659248 -0.23169482
-0.11076747 -0.021576505 -0.23173083
-0.11076401 -0.021494457 -0.23173487
-0.11076056 -0.02141241 -0.23173892
-0.11075655 -0.021328148 -0.23175292
-0.11075239 -0.02124775 -0.23177299
-0.11074788 -0.02116327 -0.23179698
-0.11074375 -0.021080919 -0.231815
-0.11073961 -0.020998565 -0.23183303
-0.11073499 -0.020915996 -0.23186105
-0.11073027 -0.020833384 -0.23189105
-0.11072536 -0.020750683 -0.23192507
-0.11072063 -0.020668071 -0.23195508
-0.11071679 -0.020585848 -0.23196712
-0.11071306 -0.020501716 -0.23197511
-0.11070932 -0.02041954 -0.23198515
-0.1107046 -0.020336926 -0.23201516
-0.11069968 -0.020254226 -0.23204917
-0.11069545 -0.02017183 -0.23206919
-0.11069115 -0.020087438 -0.23208919
-0.11068691 -0.020005042 -0.23210922
-0.11068307 -0.019922821 -0.23212124
-0.11067885 -0.019838471 -0.23213923
-0.11067462 -0.019756075 -0.23215926
-0.11067039 -0.019673681 -0.23217928
-0.11066635 -0.019591372 -0.23219532
-0.11066224 -0.019507065 -0.23221131
-0.110658 -0.019424669 -0.23223132
-0.11065358 -0.019342188 -0.23225535
-0.11064897 -0.019257665 -0.23228133
-0.11064465 -0.019175226 -0.23230335
-0.11064053 -0.019090919 -0.23231933
-0.110636 -0.019008392 -0.23234534
-0.11063148 -0.018925866 -0.23237136
-0.11062688 -0.018841343 -0.23239733
-0.11062235 -0.018758817 -0.23242337
-0.11061804 -0.018674424 -0.23244333
-0.1106141 -0.018592158 -0.23245737
-0.11061025 -0.018509937 -0.23246941
-0.11060497 -0.018425109 -0.23250937
-0.11059957 -0.018342191 -0.23255336
-0.11059506 -0.018257711 -0.23257732
-0.11059142 -0.018175576 -0.23258537
-0.11058749 -0.018091356 -0.23259738
-0.11058345 -0.01800905 -0.2326134
-0.11057964 -0.017924873 -0.2326234
-0.11057562 -0.017840611 -0.23263738
-0.11057148 -0.01775826 -0.23265541
-0.11056708 -0.017673822 -0.2326774
-0.11056274 -0.017591383 -0.23269942
-0.11055824 -0.017506903 -0.23272339
-0.11055423 -0.017422641 -0.23273738
