# .PCD v0.7 - Point Cloud Data file format
VERSION 0.7
FIELDS x y z
SIZE 4 4 4
TYPE F F F
COUNT 1 1 1
WIDTH 1291
HEIGHT 1
VIEWPOINT 0 0 0 1 0 0 0
POINTS 1291
DATA ascii
-0.038663339 0.038178191 -0.26059902
-0.038656425 0.038265716 -0.26067087
-0.038649626 0.038355157 -0.2607387
-0.038643081 0.038440555 -0.26080459
-0.038635135 0.038532469 -0.26089433
-0.038512327 0.039062593 -0.26301581
-0.038509645 0.03914234 -0.26300591
-0.038506374 0.039222345 -0.263008
-0.038502909 0.039302435 -0.26301411
-0.038499735 0.039382398 -0.2630142
-0.038496759 0.039462272 -0.26301032
-0.038493685 0.039542191 -0.26300842
-0.038490318 0.03962224 -0.2630125
-0.038487047 0.039702244 -0.26301461
-0.038483974 0.039782166 -0.26301271
-0.038480628 0.039864168 -0.26301476
-0.038477629 0.039942086 -0.26301292
-0.038474653 0.040021963 -0.26300901
-0.038471773 0.040101796 -0.26300314
-0.038468875 0.040179674 -0.26299927
-0.038465723 0.040261589 -0.26299733
-0.038462821 0.040339462 -0.26299348
-0.038459674 0.040421382 -0.26299155
-0.038456403 0.040501386 -0.26299363
-0.038453404 0.040579304 -0.26299179
-0.038450524 0.040659137 -0.26298591
-0.038447745 0.040738925 -0.26297802
-0.038444668 0.040818844 -0.26297611
-0.038441498 0.040898807 -0.26297623
-0.038438424 0.040978722 -0.26297432
-0.038435154 0.04105873 -0.26297641
-0.038431786 0.041138779 -0.26298052
-0.038428634 0.041220695 -0.26297855
-0.038425833 0.041298531 -0.26297271
-0.038422953 0.04137836 -0.26296684
-0.038419977 0.041458234 -0.26296294
-0.038416903 0.041538153 -0.26296103
-0.038413633 0.041618161 -0.26296315
-0.038410362 0.041698165 -0.26296523
-0.038407192 0.041778125 -0.26296532
-0.038404115 0.041858047 -0.26296344
-0.038401335 0.041937832 -0.26295555
-0.038398534 0.042015664 -0.26294971
-0.03839536 0.042095628 -0.26294982
-0.03839248 0.042175457 -0.26294392
-0.038389698 0.042255245 -0.26293603
-0.038386624 0.042335168 -0.26293415
-0.038383823 0.042412996 -0.26292831
-0.038380846 0.042492874 -0.2629244
-0.038377769 0.042572789 -0.2629225
-0.038374696 0.042652711 -0.26292062
-0.038371623 0.042732626 -0.26291871
-0.038368646 0.042812504 -0.26291481
-0.038365573 0.042892419 -0.26291293
-0.038362399 0.042972382 -0.26291302
-0.038359225 0.043052346 -0.26291311
-0.038356055 0.043132305 -0.26291323
-0.038353272 0.043212093 -0.26290533
-0.038350374 0.043289971 -0.26290148
-0.0383472 0.043369934 -0.2629016
-0.038343854 0.043451935 -0.26290363
-0.038340781 0.043531857 -0.26290172
-0.038338076 0.043609641 -0.26289389
-0.038335197 0.043689474 -0.26288801
-0.038332023 0.043769438 -0.2628881
-0.038329046 0.043849312 -0.2628842
-0.038325876 0.043929275 -0.26288432
-0.038322333 0.044011366 -0.26289034
-0.038319357 0.04409124 -0.26288646
-0.038316846 0.044168942 -0.26287463
-0.03831397 0.044248775 -0.26286873
-0.038310602 0.044328824 -0.26287282
-0.038307525 0.044408742 -0.26287094
-0.038304918 0.044486485 -0.2628611
-0.038301941 0.044566363 -0.2628572
-0.038298965 0.044646233 -0.26285329
-0.038295891 0.044726156 -0.26285142
-0.038292915 0.04480603 -0.26284751
-0.038289741 0.044885993 -0.2628476
-0.038286276 0.044966087 -0.26285368
-0.038283225 0.045047954 -0.26284975
-0.03828042 0.04512579 -0.26284391
-0.038277347 0.045205709 -0.26284203
-0.038274273 0.045285627 -0.26284012
-0.038271196 0.045365542 -0.26283824
-0.03826822 0.04544542 -0.26283434
-0.038265243 0.045525298 -0.26283044
-0.038261976 0.045605302 -0.26283252
-0.03825824 0.045687482 -0.26284257
-0.038255066 0.045767441 -0.26284268
-0.038252555 0.045845143 -0.26283085
-0.038249776 0.045924932 -0.26282296
-0.038247168 0.046002679 -0.26281312
-0.03824456 0.046080422 -0.26280326
-0.038241487 0.04616034 -0.26280138
-0.038237847 0.046242476 -0.26280943
-0.038234673 0.046322439 -0.26280951
-0.0382316 0.046402358 -0.26280764
-0.038228154 0.046484403 -0.26281166
-0.040369388 -0.0037725866 -0.25968993
-0.040366195 -0.003694579 -0.25969207
-0.040363587 -0.0036168322 -0.25968224
-0.04036098 -0.0035390873 -0.2596724
-0.040357787 -0.0034610778 -0.25967455
-0.040354282 -0.0033848956 -0.25968474
-0.040350992 -0.0033068433 -0.25968888
-0.040347777 -0.0032307897 -0.25969306
-0.040344466 -0.0031546913 -0.25969926
-0.040342487 -0.0030732993 -0.25967336
-0.040341914 -0.0029886104 -0.25961539
-0.040339932 -0.0029072184 -0.25958949
-0.04033662 -0.0028311219 -0.25959566
-0.040333018 -0.0027548913 -0.25960785
-0.040329002 -0.0026804451 -0.25963005
-0.040324867 -0.0026079062 -0.25965631
-0.040320873 -0.0025315043 -0.25967646
-0.040317152 -0.0024571866 -0.2596927
-0.04031343 -0.0023828689 -0.25970891
-0.040309828 -0.002306642 -0.2597211
-0.040306535 -0.0022285897 -0.25972521
-0.04030342 -0.0021525808 -0.25972742
-0.040299933 -0.0020744428 -0.25973555
-0.040296309 -0.0020001661 -0.25974977
-0.040292706 -0.0019239392 -0.25976196
-0.040289707 -0.0018460173 -0.25976011
-0.040286906 -0.0017681848 -0.25975427
-0.04028381 -0.001690222 -0.25975442
-0.040281322 -0.0016105659 -0.25974053
-0.040280141 -0.0015275702 -0.2596966
-0.04027947 -0.0014428347 -0.25964063
-0.040277489 -0.0013614409 -0.25961474
-0.040275902 -0.001280224 -0.25958085
-0.040273994 -0.0012008268 -0.25955498
-0.040270902 -0.001122864 -0.2595551
-0.040267393 -0.0010466799 -0.25956529
-0.040263087 -0.00097210146 -0.25959349
-0.040259168 -0.00089769624 -0.25961372
-0.040255662 -0.00082151219 -0.25962389
-0.040251862 -0.00074519776 -0.25964007
-0.040248141 -0.00067088008 -0.25965631
-0.040244635 -0.00059469417 -0.25966647
-0.040240932 -0.00051842444 -0.25968063
-0.040237114 -0.00044406205 -0.25969887
-0.040233728 -0.00036596879 -0.25970501
-0.04023112 -0.00028822199 -0.25969517
-0.04022824 -0.00020839088 -0.25968927
-0.040225416 -0.0001325123 -0.25968546
-0.040222537 -5.2681193e-05 -0.25967959
-0.040220242 2.6889145e-05 -0.2596617
-0.040219139 0.00010788813 -0.25961781
-0.040217765 0.00019097328 -0.25957787
-0.040215861 0.00027036667 -0.25955203
-0.040213469 0.00034997985 -0.25953615
-0.040210687 0.00042976812 -0.25952828
-0.040207062 0.00050404295 -0.25954247
-0.040201563 0.00057719089 -0.25959671
-0.040196728 0.00064807758 -0.25963897
-0.040192928 0.00072439387 -0.25965515
-0.040189832 0.00080235675 -0.2596553
-0.040187225 0.00088010356 -0.25964546
-0.040184345 0.00095993653 -0.25963956
-0.040181544 0.001037769 -0.25963372
-0.040178623 0.0011136904 -0.25963193
-0.040175527 0.001191657 -0.25963205
-0.040172335 0.0012696628 -0.2596342
-0.040169336 0.0013475828 -0.25963235
-0.040167041 0.0014271531 -0.25961447
-0.040166959 0.0015116241 -0.25954655
-0.040165875 0.0015945788 -0.25950062
-0.040163778 0.0016740598 -0.25947875
-0.04016199 0.0017553661 -0.25944883
-0.040160283 0.0018346738 -0.25941899
-0.040157285 0.0019125938 -0.25941715
-0.040152978 0.0019871723 -0.25944534
-0.040148571 0.0020617954 -0.25947553
-0.040144674 0.0021381527 -0.25949371
-0.040141147 0.0022123866 -0.25950593
-0.040137056 0.0022888314 -0.2595281
-0.040132847 0.002363367 -0.2595543
-0.040128928 0.0024377704 -0.25957453
-0.040125247 0.0025159977 -0.25958663
-0.040122036 0.0025920514 -0.25959083
-0.040118333 0.0026683211 -0.25960502
-0.04011422 0.0027428158 -0.25962922
-0.040110227 0.0028192177 -0.2596494
-0.040106818 0.0028953571 -0.25965756
-0.040104114 0.0029731467 -0.25964972
-0.040101916 0.0030526742 -0.25962985
-0.040100228 0.003133934 -0.25959796
-0.040098831 0.0032150634 -0.25956005
-0.040096637 0.0032945909 -0.2595402
-0.040093422 0.0033706427 -0.25954437
-0.040089525 0.0034470037 -0.25956255
-0.040085316 0.0035215374 -0.25958875
-0.040080424 0.0035963785 -0.25962895
-0.040076427 0.0036727823 -0.2596491
-0.040073019 0.0037489235 -0.25965729
-0.040069416 0.0038251504 -0.25966948
-0.040065911 0.0039013345 -0.25967965
-0.040062815 0.0039792992 -0.25967979
-0.040059816 0.0040572193 -0.25967795
-0.040057406 0.0041348776 -0.25966412
-0.040054914 0.0042145345 -0.25965023
-0.040051606 0.0042906329 -0.25965643
-0.040048413 0.0043686396 -0.25965858
-0.040046312 0.0044481196 -0.2596367
-0.040044721 0.0045293393 -0.25960279
-0.040042602 0.0046068681 -0.259583
-0.040040307 0.0046864357 -0.25956511
-0.040038306 0.0047658738 -0.25954124
-0.040035523 0.004845662 -0.25953335
-0.040031802 0.0049199797 -0.25954956
-0.040027808 0.0049963808 -0.25956973
-0.040023912 0.0050727408 -0.25958791
-0.040019214 0.0051474944 -0.25962409
-0.040015124 0.0052239401 -0.25964627
-0.040011324 0.0053002555 -0.25966245
-0.040007699 0.0053745294 -0.25967664
-0.040004019 0.0054527549 -0.25968879
-0.04000061 0.005528897 -0.25969696
-0.039997317 0.0056069475 -0.2597011
-0.039994106 0.0056830002 -0.25970531
-0.03999101 0.0057609659 -0.25970545
-0.039987914 0.0058389287 -0.2597056
-0.039985016 0.0059168059 -0.25970176
-0.039982211 0.0059946394 -0.25969592
-0.039979916 0.0060742078 -0.25967804
-0.039978188 0.0061515616 -0.25965023
-0.03997609 0.0062310426 -0.25962836
-0.039973795 0.0063106129 -0.25961047
-0.039971091 0.0063884025 -0.25960264
-0.039967995 0.0064663664 -0.25960279
-0.039964292 0.0065426379 -0.25961697
-0.039960396 0.0066189962 -0.25963512
-0.039957497 0.0066968733 -0.25963128
-0.039954793 0.006774663 -0.25962344
-0.039951481 0.0068507595 -0.25962964
-0.039947897 0.0069289422 -0.25963977
-0.039944194 0.0070052138 -0.25965393
-0.039940882 0.0070813112 -0.25966012
-0.039938003 0.0071611423 -0.25965422
-0.039935496 0.0072388444 -0.25964239
-0.039932985 0.0073165465 -0.25963056
-0.039930183 0.0073943799 -0.25962472
-0.039927576 0.0074721258 -0.25961488
-0.039925184 0.0075517381 -0.259599
-0.039923161 0.0076292232 -0.25957718
-0.039920963 0.0077087469 -0.25955731
-0.039918162 0.0077865813 -0.25955147
-0.03991485 0.0078626769 -0.25955766
-0.03991076 0.0079391245 -0.25957984
-0.039906766 0.0080155265 -0.25959998
-0.039903261 0.0080917124 -0.25961018
-0.039899677 0.0081698932 -0.25962031
-0.039895877 0.0082462095 -0.25963649
-0.03989239 0.0083243484 -0.25964463
-0.039889175 0.0084004002 -0.2596488
-0.039885767 0.0084765414 -0.259657
-0.039881989 0.0085548116 -0.25967112
-0.039878286 0.0086310823 -0.25968528
-0.039875194 0.008709047 -0.25968543
-0.039873172 0.0087865302 -0.25966361
-0.039871659 0.0088657513 -0.25962976
-0.039869167 0.0089454073 -0.2596159
-0.039866053 0.0090214182 -0.25961807
-0.039863348 0.0090992069 -0.25961024
-0.03986115 0.0091787325 -0.25959036
-0.03985874 0.0092563909 -0.25957653
-0.039856132 0.0093341358 -0.25956669
-0.039853428 0.0094119264 -0.25955886
-0.039850235 0.009489933 -0.259561
-0.039846629 0.0095661627 -0.25957319
-0.039842635 0.0096425647 -0.25959334
-0.039838932 0.0097188354 -0.25960752
-0.039835427 0.0097950203 -0.25961769
-0.039831843 0.0098732039 -0.25962782
-0.039828729 0.009949212 -0.25963002
-0.039825633 0.010027177 -0.25963017
-0.039822146 0.010105316 -0.25963831
-0.039819032 0.010181325 -0.25964051
-0.039817028 0.010260763 -0.25961664
-0.039815128 0.010340158 -0.25959077
-0.039812595 0.010415906 -0.25958097
-0.039809696 0.010493782 -0.25957713
-0.039807089 0.010571528 -0.25956729
-0.039804697 0.01065114 -0.25955141
-0.039802577 0.010728668 -0.25953159
-0.039800361 0.01080624 -0.25951377
-0.039797459 0.010884117 -0.25950992
-0.039793875 0.0109623 -0.25952005
-0.039789371 0.011036967 -0.25955224
-0.039784502 0.011113761 -0.25959039
-0.039780606 0.01119012 -0.25960857
-0.039777312 0.011268171 -0.25961271
-0.039773807 0.011344356 -0.2596229
-0.039770104 0.011420627 -0.25963706
-0.039766621 0.011498766 -0.25964519
-0.039763816 0.011576599 -0.25963935
-0.039761111 0.011654388 -0.25963151
-0.0397586 0.01173209 -0.25961968
-0.039756484 0.011809618 -0.25959986
-0.03975407 0.011887277 -0.25958604
-0.039751366 0.011965066 -0.25957817
-0.039748952 0.012042725 -0.25956434
-0.039746832 0.012120252 -0.25954455
-0.039744832 0.012199691 -0.25952065
-0.039742712 0.012277219 -0.25950083
-0.039740007 0.012355009 -0.25949299
-0.039736912 0.012432972 -0.25949314
-0.039733991 0.012508895 -0.25949135
-0.039730407 0.012587078 -0.25950149
-0.039726414 0.012663479 -0.25952166
-0.03972242 0.012739882 -0.25954181
-0.039718524 0.012816241 -0.25955999
-0.039714724 0.012892556 -0.25957614
-0.039711237 0.012970695 -0.25958431
-0.039708145 0.013048659 -0.25958443
-0.039705515 0.01312445 -0.25957665
-0.03970281 0.01320224 -0.25956881
-0.039699521 0.013280292 -0.25957295
-0.039696034 0.01335843 -0.25958109
-0.039692916 0.01343444 -0.25958326
-0.039690211 0.013512229 -0.25957543
-0.039688386 0.013589626 -0.25954962
-0.039687067 0.013668759 -0.25951177
-0.039686237 0.013747673 -0.25946394
-0.039684117 0.0138252 -0.25944412
-0.039680611 0.013901385 -0.25945431
-0.039675936 0.013978094 -0.25948846
-0.039670672 0.014055064 -0.25953457
-0.039666191 0.014131684 -0.25956473
-0.039662194 0.014208087 -0.2595849
-0.039658397 0.014284402 -0.25960106
-0.039654616 0.014362672 -0.25961518
-0.039651208 0.014438812 -0.25962338
-0.039648015 0.01451682 -0.25962552
-0.039644919 0.014594784 -0.25962567
-0.039642196 0.01467062 -0.25961989
-0.039639413 0.014750407 -0.25961199
-0.039636686 0.014826242 -0.25960618
-0.039634079 0.014903988 -0.25959635
-0.039631862 0.014981559 -0.25957853
-0.039629646 0.01505913 -0.2595607
-0.03962823 0.015138307 -0.25952485
-0.039626889 0.015215485 -0.25948906
-0.03962516 0.015292838 -0.25946122
-0.03962275 0.015370497 -0.2594474
-0.039619245 0.015446682 -0.25945759
-0.039614975 0.015525169 -0.2594817
-0.039610494 0.01560179 -0.25951186
-0.039606109 0.015678367 -0.25954002
-0.039601821 0.015754901 -0.25956616
-0.039598122 0.015831172 -0.25958034
-0.039594829 0.015909223 -0.25958449
-0.039591443 0.015987318 -0.25959063
-0.039588347 0.016065283 -0.25959077
-0.039585523 0.016141161 -0.25958699
-0.039582331 0.016219169 -0.25958911
-0.039579138 0.016297176 -0.25959125
-0.039576411 0.016373012 -0.25958544
-0.039574802 0.016452275 -0.25955361
-0.039573852 0.016529279 -0.25950983
-0.039573003 0.01660624 -0.25946403
-0.039571173 0.016683636 -0.25943822
-0.039567884 0.016761687 -0.25944236
-0.039564282 0.016837915 -0.25945455
-0.039560501 0.016916186 -0.25946867
-0.039556019 0.016992806 -0.25949883
-0.039552145 0.01707112 -0.25951496
-0.039549224 0.017147042 -0.25951314
-0.03954652 0.017224832 -0.2595053
-0.039543424 0.017302796 -0.25950545
-0.039540015 0.017378936 -0.25951365
-0.039536431 0.017457118 -0.25952375
-0.039532728 0.01753339 -0.25953794
-0.039528757 0.017611748 -0.25955606
-0.039525248 0.017687932 -0.25956625
-0.039521862 0.017766027 -0.25957239
-0.039518863 0.017843947 -0.25957054
-0.039516743 0.017921474 -0.25955072
-0.039515015 0.017998828 -0.25952291
-0.039512776 0.018074445 -0.25950712
-0.039510462 0.018152058 -0.25949126
-0.03950844 0.018229544 -0.25946945
-0.039506517 0.018306984 -0.25944564
-0.039504297 0.018384555 -0.25942782
-0.039501864 0.018460259 -0.25941604
-0.039498381 0.018538397 -0.25942418
-0.039494112 0.018616885 -0.25944829
-0.039489727 0.018693462 -0.25947645
-0.039485853 0.018771775 -0.25949258
-0.039482638 0.018847829 -0.25949675
-0.039479546 0.018925793 -0.2594969
-0.039476741 0.019003626 -0.25949106
-0.039474115 0.019079419 -0.25948328
-0.039471213 0.019157294 -0.2594794
-0.039468314 0.019235171 -0.25947556
-0.039466269 0.019310702 -0.2594558
-0.039465223 0.019387748 -0.25941402
-0.039464179 0.019464796 -0.2593722
-0.039461963 0.019542368 -0.25935438
-0.039459549 0.019620026 -0.25934055
-0.039457604 0.019695513 -0.25931877
-0.039454799 0.019773345 -0.25931293
-0.039450534 0.019851834 -0.25933704
-0.039446149 0.019928411 -0.2593652
-0.039442077 0.020006811 -0.25938532
-0.039438181 0.02008317 -0.2594035
-0.0394345 0.020161396 -0.25941563
-0.039431114 0.020239491 -0.25942177
-0.039427996 0.0203155 -0.25942397
-0.039424412 0.020393683 -0.25943407
-0.039420538 0.020471996 -0.2594502
-0.039417226 0.020548094 -0.2594564
-0.03941413 0.020626057 -0.25945655
-0.039411135 0.020703977 -0.2594547
-0.039408311 0.020779857 -0.25945091
-0.039405409 0.020857733 -0.25944704
-0.039402902 0.020935435 -0.25943521
-0.039400466 0.02101114 -0.25942343
-0.039398249 0.021088712 -0.25940561
-0.039396226 0.021166194 -0.25938377
-0.039393894 0.021241855 -0.25937
-0.039391089 0.021319689 -0.25936416
-0.0393878 0.02139774 -0.2593683
-0.039383143 0.021476403 -0.2594004
-0.03937944 0.021552674 -0.25941458
-0.039376054 0.02163077 -0.25942072
-0.039372373 0.021708995 -0.25943285
-0.039368868 0.021785179 -0.25944301
-0.039365575 0.021863231 -0.25944716
-0.039362483 0.021941194 -0.25944731
-0.039359365 0.022017205 -0.25944951
-0.039356463 0.02209508 -0.25944567
-0.039354149 0.022172697 -0.25942984
-0.039351933 0.022250269 -0.25941199
-0.039349403 0.022326015 -0.25940222
-0.039346989 0.022403674 -0.25938839
-0.039345142 0.022479117 -0.2593646
-0.039343022 0.022556644 -0.25934479
-0.039340708 0.022634258 -0.25932896
-0.039338276 0.022709962 -0.25931716
-0.039334983 0.022788014 -0.2593213
-0.039331302 0.02286624 -0.25933343
-0.039326821 0.022942862 -0.25936359
-0.039322674 0.023023259 -0.25938368
-0.03931858 0.023099706 -0.25940582
-0.0393149 0.023177931 -0.25941795
-0.039311416 0.023256071 -0.25942609
-0.039307736 0.023334296 -0.25943822
-0.039304055 0.023412522 -0.25945035
-0.039300743 0.023488618 -0.25945655
-0.03929745 0.023566671 -0.25946069
-0.039293967 0.023644809 -0.25946882
-0.039290186 0.023723079 -0.25948295
-0.039286993 0.023801086 -0.2594851
-0.039284464 0.023876835 -0.25947529
-0.03928281 0.02395219 -0.25944754
-0.039281081 0.024029542 -0.25941974
-0.039278649 0.024105247 -0.25940794
-0.039275553 0.02418321 -0.25940809
-0.039272264 0.024261262 -0.25941223
-0.039269365 0.024339139 -0.25940838
-0.039266367 0.024417059 -0.25940654
-0.039262567 0.024493374 -0.25942272
-0.039257832 0.024574036 -0.25945476
-0.039253663 0.024652479 -0.2594769
-0.039250646 0.024728445 -0.25947708
-0.039248332 0.02480606 -0.25946125
-0.039245799 0.024881808 -0.25945145
-0.039242238 0.024961945 -0.25945953
-0.039238732 0.025038131 -0.25946972
-0.03923583 0.025116006 -0.25946587
-0.039233223 0.025193753 -0.25945604
-0.03923079 0.025269456 -0.25944424
-0.039228085 0.025347246 -0.2594364
-0.039225478 0.025424991 -0.25942659
-0.039223142 0.025500651 -0.2594128
-0.039221883 0.025575832 -0.25937703
-0.039220911 0.025650883 -0.25933528
-0.0392185 0.025728542 -0.25932145
-0.039214622 0.025806854 -0.25933757
-0.039210454 0.025885299 -0.25935969
-0.039206579 0.025963612 -0.25937581
-0.039202899 0.026041837 -0.25938794
-0.039199509 0.026119933 -0.25939411
-0.039196219 0.026197985 -0.25939822
-0.039192442 0.026276253 -0.25941238
-0.039188564 0.026354566 -0.2594285
-0.039185081 0.026432704 -0.25943661
-0.039181985 0.026510669 -0.25943679
-0.039178867 0.02658668 -0.25943896
-0.039175481 0.026664775 -0.2594451
-0.039172288 0.026742782 -0.25944725
-0.039169289 0.026820702 -0.2594454
-0.039166857 0.026896406 -0.25943363
-0.039164737 0.026973935 -0.25941378
-0.039162498 0.027049551 -0.25939801
-0.039160576 0.02712699 -0.2593742
-0.039159019 0.027202303 -0.25934443
-0.039157368 0.027277658 -0.25931665
-0.039155327 0.027353188 -0.25929689
-0.03915301 0.027430803 -0.25928104
-0.039149817 0.02750881 -0.25928319
-0.039145257 0.027587429 -0.25931332
-0.039140817 0.027667958 -0.25933936
-0.039137118 0.02774423 -0.25935355
-0.039133336 0.027822498 -0.25936767
-0.039129775 0.027902637 -0.25937575
-0.03912656 0.02797869 -0.25937995
-0.039123096 0.028058782 -0.25938603
-0.039119981 0.028134793 -0.25938824
-0.03911718 0.028212626 -0.25938237
-0.039115038 0.0282882 -0.2593646
-0.03911243 0.028365944 -0.25935477
-0.039109431 0.028443865 -0.25935292
-0.039107293 0.028519439 -0.25933516
-0.039105639 0.028594794 -0.25930738
-0.039103616 0.028672278 -0.25928557
-0.039100405 0.02874833 -0.25928974
-0.039096646 0.028828554 -0.25930184
-0.039092965 0.028906781 -0.25931394
-0.039089285 0.028985007 -0.2593261
-0.039085701 0.029063189 -0.25933623
-0.039082021 0.029141415 -0.25934836
-0.039078437 0.029219598 -0.2593585
-0.039075051 0.029297693 -0.25936463
-0.039071858 0.0293757 -0.25936678
-0.039068468 0.029453795 -0.25937292
-0.039065275 0.029531803 -0.25937507
-0.039062571 0.029609591 -0.25936723
-0.039060626 0.029685078 -0.25934544
-0.039058581 0.029760608 -0.25932568
-0.03905578 0.029838441 -0.25931984
-0.039052665 0.02991445 -0.25932202
-0.039049666 0.029992372 -0.25932017
-0.039047644 0.030069854 -0.25929835
-0.039045971 0.030143257 -0.25927263
-0.039043363 0.030221002 -0.2592628
-0.039040852 0.030298702 -0.25925094
-0.039038517 0.030374365 -0.25923717
-0.039035425 0.03045233 -0.25923732
-0.039031155 0.030530818 -0.25926143
-0.039026152 0.030613562 -0.25929743
-0.039021593 0.030692181 -0.25932753
-0.039017249 0.030772667 -0.25935161
-0.039013274 0.030851023 -0.25936973
-0.039009519 0.030931247 -0.2593818
-0.039006226 0.0310093 -0.25938594
-0.039002936 0.03108735 -0.25939009
-0.038999841 0.031165313 -0.25939023
-0.038996942 0.03124319 -0.25938639
-0.038994119 0.031319071 -0.25938261
-0.038992368 0.031394467 -0.25935683
-0.038991302 0.031469561 -0.25931707
-0.038989257 0.031545091 -0.25929731
-0.038986064 0.031623099 -0.25929946
-0.038982678 0.031701192 -0.2593056
-0.038979191 0.031779334 -0.25931373
-0.038975336 0.031859599 -0.2593278
-0.038971655 0.031937826 -0.25933993
-0.038967974 0.032016054 -0.25935206
-0.038964022 0.032096364 -0.25936815
-0.038960245 0.032174632 -0.25938228
-0.038956583 0.032254815 -0.25939235
-0.038952805 0.032333083 -0.25940648
-0.038949318 0.032411221 -0.25941461
-0.03894642 0.032489099 -0.2594108
-0.038943619 0.032566931 -0.25940493
-0.038940325 0.032644983 -0.25940907
-0.038936645 0.032723211 -0.2594212
-0.038933158 0.032801349 -0.25942934
-0.038930163 0.032879267 -0.25942749
-0.03892687 0.032957319 -0.25943163
-0.038924068 0.033035152 -0.25942579
-0.038921364 0.033112943 -0.25941795
-0.038917977 0.033191036 -0.25942409
-0.038914684 0.033269089 -0.25942823
-0.038911685 0.033347011 -0.25942639
-0.038908202 0.033425149 -0.25943452
-0.038904835 0.033505198 -0.2594386
-0.038902011 0.033581078 -0.25943482
-0.038899012 0.033658996 -0.25943297
-0.038895722 0.033737049 -0.25943711
-0.038891964 0.033817273 -0.25944918
-0.038888011 0.033897582 -0.25946528
-0.038884528 0.03397572 -0.25947341
-0.038881138 0.034053817 -0.25947952
-0.038878433 0.034131605 -0.25947168
-0.038876392 0.034207135 -0.25945193
-0.038873881 0.034284838 -0.25944009
-0.038870491 0.034362935 -0.25944623
-0.038866714 0.034441203 -0.25946036
-0.038863055 0.034521382 -0.25947043
-0.038860425 0.034597173 -0.25946265
-0.038858112 0.03467479 -0.25944683
-0.038855113 0.034752712 -0.25944498
-0.038851433 0.034830935 -0.25945711
-0.038847774 0.034911115 -0.25946718
-0.038843997 0.034989387 -0.25948131
-0.038839769 0.035071783 -0.25950134
-0.038835991 0.035150051 -0.25951546
-0.038832039 0.035230361 -0.25953156
-0.038828552 0.035308503 -0.25953966
-0.038825359 0.03538651 -0.25954181
-0.038821604 0.035466731 -0.25955391
-0.038818039 0.035546869 -0.25956202
-0.038814455 0.035625052 -0.25957212
-0.0388107 0.035705276 -0.25958422
-0.03880702 0.035783503 -0.25959635
-0.038803555 0.035863593 -0.25960243
-0.038800262 0.035941646 -0.25960657
-0.038796972 0.036019698 -0.25961071
-0.038793877 0.036097661 -0.25961086
-0.038791269 0.036175407 -0.25960103
-0.038788933 0.036251068 -0.25958723
-0.038785372 0.036331207 -0.25959533
-0.03877978 0.036414213 -0.25964332
-0.038774874 0.036496915 -0.25967732
-0.038771484 0.036575008 -0.25968346
-0.038768116 0.036655061 -0.25968754
-0.038764827 0.03673311 -0.25969172
-0.038761266 0.036813244 -0.25969979
-0.038757507 0.036893472 -0.25971186
-0.038753923 0.036971651 -0.25972199
-0.038750555 0.0370517 -0.25972611
-0.038746972 0.037129886 -0.25973624
-0.03874341 0.037210017 -0.25974432
-0.038739923 0.037288159 -0.25975245
-0.038735505 0.037370645 -0.25977647
-0.038731553 0.037450954 -0.25979257
-0.038729019 0.037526704 -0.25978276
-0.038726803 0.037604272 -0.25976494
-0.03872437 0.037679978 -0.25975314
-0.038721003 0.037760027 -0.25975725
-0.038717344 0.037840206 -0.25976732
-0.038713664 0.037918434 -0.25977945
-0.038710102 0.037998572 -0.25978756
-0.038706344 0.038078792 -0.25979963
-0.038702294 0.038159147 -0.25981772
-0.038697578 0.038241763 -0.2598477
-0.038692575 0.038324509 -0.2598837
-0.038687665 0.03840721 -0.25991774
-0.038682856 0.038489871 -0.25994974
-0.038676605 0.038575135 -0.26000965
-0.03867 0.038664486 -0.26007348
-0.038664605 0.038747407 -0.26011747
-0.038658176 0.038834713 -0.26017934
-0.038652316 0.038919806 -0.26023126
-0.038646452 0.0390049 -0.2602832
-0.038638599 0.039096773 -0.26037091
-0.03863303 0.039181735 -0.26041687
-0.038628414 0.039264306 -0.26044488
-0.038624171 0.03934475 -0.26046693
-0.038619749 0.039427232 -0.26049095
-0.038614765 0.03951193 -0.26052493
-0.038609371 0.039594855 -0.26056892
-0.038604189 0.039679639 -0.26060688
-0.038597293 0.039769121 -0.26067668
-0.038588762 0.039861299 -0.2607784
-0.038580619 0.039953303 -0.26087213
-0.038572475 0.040045306 -0.26096585
-0.038457621 0.040503141 -0.26298112
-0.038453788 0.040585361 -0.26299316
-0.038450617 0.040665325 -0.26299328
-0.038447443 0.040745288 -0.26299337
-0.038444564 0.040825117 -0.26298749
-0.03844149 0.040905036 -0.26298559
-0.038437828 0.040985219 -0.26299566
-0.038434386 0.041067265 -0.26299971
-0.038431115 0.041147269 -0.26300183
-0.038428333 0.041227058 -0.26299393
-0.038425531 0.04130489 -0.26298809
-0.038422067 0.041384984 -0.26299417
-0.038418815 0.041466944 -0.26299423
-0.038415644 0.041546904 -0.26299435
-0.038412474 0.041626867 -0.26299444
-0.03840977 0.041704655 -0.2629866
-0.038406789 0.041784532 -0.2629827
-0.038403444 0.041866533 -0.26298475
-0.03840027 0.041946497 -0.26298484
-0.038397294 0.042026371 -0.26298097
-0.038394395 0.042104248 -0.26297712
-0.038391516 0.042184081 -0.26297122
-0.038388342 0.042264044 -0.26297131
-0.038385171 0.042344004 -0.26297143
-0.038382195 0.042423878 -0.26296753
-0.038379021 0.042503841 -0.26296762
-0.038375948 0.04258376 -0.26296574
-0.038372971 0.042663634 -0.26296183
-0.038370091 0.042743467 -0.26295593
-0.038367111 0.042823341 -0.26295203
-0.038363844 0.042903345 -0.26295415
-0.038360942 0.042981222 -0.2629503
-0.038358063 0.043061055 -0.2629444
-0.038355086 0.043140929 -0.26294053
-0.038351916 0.043220889 -0.26294062
-0.038348742 0.043300852 -0.2629407
-0.038345568 0.043380812 -0.26294082
-0.038342692 0.043460645 -0.26293492
-0.038339809 0.043540478 -0.26292902
-0.03833703 0.043620266 -0.26292115
-0.038333565 0.043700356 -0.26292723
-0.0383301 0.04378045 -0.26293331
-0.038327318 0.043860234 -0.26292545
-0.03832471 0.043937981 -0.26291561
-0.038321733 0.044017859 -0.26291171
-0.038318191 0.044099949 -0.26291776
-0.038314823 0.044179998 -0.26292184
-0.038311478 0.044261999 -0.2629239
-0.038308576 0.04433988 -0.26292005
-0.038305797 0.044419665 -0.26291215
-0.03830272 0.044499584 -0.26291025
-0.038299549 0.044579547 -0.26291037
-0.038296573 0.044659421 -0.26290646
-0.03829379 0.044739209 -0.26289856
-0.038291182 0.044816956 -0.26288873
-0.038288206 0.04489683 -0.26288486
-0.038284741 0.04497692 -0.26289093
-0.038281199 0.04505901 -0.26289698
-0.038278319 0.045138843 -0.26289111
-0.038275342 0.045218721 -0.26288721
-0.038272168 0.045298681 -0.2628873
-0.038269464 0.045376472 -0.26287946
-0.038266391 0.045456387 -0.26287758
-0.038263217 0.04553635 -0.26287767
-0.038260631 0.045616053 -0.26286578
-0.03825736 0.045696057 -0.26286787
-0.038253527 0.045778278 -0.26287991
-0.038250744 0.045858063 -0.26287204
-0.038248431 0.045935679 -0.26285619
-0.038245354 0.046015598 -0.26285431
-0.038241792 0.046095736 -0.26286238
-0.038238347 0.046177782 -0.26286644
-0.038234711 0.046259917 -0.26287448
-0.038231634 0.046339836 -0.26287258
-0.038229123 0.046417538 -0.26286075
-0.038226906 0.04649511 -0.26284292
-0.040369246 -0.0037692022 -0.2596505
-0.040366661 -0.0036895033 -0.25963861
-0.040364075 -0.0036098026 -0.25962672
-0.040360957 -0.0035337918 -0.25962892
-0.040357668 -0.0034557413 -0.25963306
-0.040354259 -0.003379602 -0.25964123
-0.040350538 -0.0033052824 -0.25965744
-0.040347032 -0.0032290984 -0.25966763
-0.040344015 -0.0031531323 -0.25966781
-0.040340822 -0.0030751247 -0.25966999
-0.040337611 -0.0029990729 -0.25967416
-0.040334322 -0.0029210187 -0.2596783
-0.040330715 -0.0028447919 -0.25969049
-0.040327288 -0.0027706064 -0.25970072
-0.040323801 -0.0026924666 -0.25970885
-0.040320493 -0.0026163701 -0.25971505
-0.040317398 -0.0025384054 -0.2597152
-0.040314596 -0.002460571 -0.25970936
-0.040311597 -0.002382651 -0.25970751
-0.04030858 -0.0023066867 -0.25970769
-0.040305387 -0.0022286773 -0.25970984
-0.040302295 -0.0021507144 -0.25970998
-0.040299177 -0.0020747054 -0.25971219
-0.040296085 -0.0019967388 -0.25971234
-0.04029328 -0.0019189063 -0.25970647
-0.040290892 -0.001839295 -0.25969061
-0.04028862 -0.0017577708 -0.25967067
-0.040286109 -0.0016800687 -0.25965884
-0.040283523 -0.0016003698 -0.25964695
-0.040281523 -0.0015209299 -0.25962311
-0.040279131 -0.0014413167 -0.25960723
-0.040276445 -0.001361575 -0.25959733
-0.04027345 -0.0012836531 -0.25959548
-0.040269632 -0.0012092926 -0.25961369
-0.040265519 -0.0011347998 -0.25963792
-0.040261798 -0.0010604821 -0.25965413
-0.040258311 -0.00098234415 -0.25966227
-0.040255293 -0.00090637803 -0.25966245
-0.040252514 -0.00082658976 -0.25965458
-0.040249418 -0.00074862689 -0.25965473
-0.040245991 -0.00067443959 -0.25966495
-0.040242288 -0.000598168 -0.25967914
-0.040239289 -0.00052024797 -0.25967729
-0.040236607 -0.00044050254 -0.2596674
-0.040233806 -0.00036267005 -0.25966156
-0.040230691 -0.00028666109 -0.25966373
-0.040228419 -0.0002051387 -0.25964382
-0.040227123 -0.0001240503 -0.25960392
-0.040225141 -4.2658299e-05 -0.25957802
-0.040222339 3.5176054e-05 -0.25957218
-0.040218737 0.00011140294 -0.25958437
-0.040215131 0.0001876317 -0.25959653
-0.040211625 0.00026381575 -0.25960672
-0.040208217 0.00033995509 -0.25961488
-0.040204808 0.00041609816 -0.25962308
-0.040201109 0.00049236789 -0.25963724
-0.040197916 0.00057037547 -0.25963938
-0.040194508 0.00064651668 -0.25964758
-0.040190786 0.00072083436 -0.25966382
-0.040187087 0.00079710782 -0.25967798
-0.040183581 0.00087329 -0.25968817
-0.040180288 0.00095134228 -0.25969231
-0.04017698 0.0010274388 -0.25969848
-0.040173691 0.0011054911 -0.25970262
-0.040171299 0.0011851043 -0.25968677
-0.040169708 0.0012663212 -0.25965285
-0.040167924 0.0013476275 -0.25962296
-0.040166218 0.0014269333 -0.2595931
-0.040164627 0.001508154 -0.25955921
-0.040162433 0.0015876777 -0.25953931
-0.04015924 0.0016656835 -0.25954148
-0.040155344 0.0017420463 -0.25955963
-0.040151328 0.0018164925 -0.25958183
-0.040147606 0.0018908102 -0.25959808
-0.040144123 0.0019689482 -0.25960621
-0.040141027 0.0020469129 -0.25960636
-0.040137812 0.0021229666 -0.25961053
-0.040134307 0.0021991506 -0.25962073
-0.040130801 0.0022753347 -0.25963092
-0.040127415 0.0023534317 -0.25963703
-0.040124301 0.0024294406 -0.25963923
-0.040121421 0.0025092717 -0.25963333
-0.04011862 0.0025871042 -0.25962749
-0.040116109 0.0026648063 -0.25961566
-0.040115438 0.0027495399 -0.25955969
-0.040114827 0.0028303228 -0.25950584
-0.040112942 0.0029116701 -0.25947791
-0.040110532 0.0029893275 -0.25946409
-0.040107924 0.0030670743 -0.25945425
-0.040104948 0.0031469502 -0.25945035
-0.040101834 0.0032229591 -0.25945255
-0.040098131 0.0032992307 -0.25946674
-0.040093534 0.0033739414 -0.25950092
-0.040088911 0.0034466963 -0.25953716
-0.040085018 0.0035230555 -0.25955534
-0.040081725 0.0036011059 -0.25955945
-0.040078416 0.0036772061 -0.25956565
-0.04007481 0.003753433 -0.25957784
-0.04007072 0.0038298788 -0.25960001
-0.04006692 0.0039061941 -0.25961617
-0.040063415 0.0039823782 -0.25962636
-0.040060028 0.0040604724 -0.2596325
-0.040057108 0.0041363956 -0.25963068
-0.040053915 0.0042144032 -0.25963283
-0.040050626 0.0042924546 -0.25963697
-0.040047608 0.0043684226 -0.25963718
-0.04004512 0.0044480776 -0.25962329
-0.040043313 0.0045274291 -0.25959542
-0.040041313 0.0046068672 -0.25957155
-0.040038414 0.0046847444 -0.25956771
-0.040034518 0.0047611035 -0.25958589
-0.040030017 0.0048357686 -0.2596181
-0.04002561 0.0049103936 -0.25964826
-0.040021911 0.0049866643 -0.25966245
-0.040018719 0.0050646737 -0.2596646
-0.040015526 0.0051426804 -0.25966674
-0.040012334 0.0052206879 -0.25966889
-0.040009215 0.0052966988 -0.25967109
-0.040006317 0.005374575 -0.25966725
-0.040003028 0.0054526255 -0.25967139
-0.039999716 0.0055287238 -0.25967756
-0.039996818 0.0056066001 -0.25967371
-0.039995011 0.0056859497 -0.25964585
-0.039995104 0.0057683811 -0.25957596
-0.039994314 0.0058512036 -0.25952405
-0.039991904 0.0059288619 -0.25951022
-0.039989099 0.0060066953 -0.25950438
-0.039986514 0.0060863951 -0.25949249
-0.039983887 0.0061621871 -0.25948471
-0.039980303 0.0062403698 -0.25949484
-0.039975703 0.0063150804 -0.25952902
-0.039970811 0.0063899215 -0.2595692
-0.039966505 0.0064645 -0.25959742
-0.039962903 0.0065407287 -0.25960958
-0.0399592 0.0066169994 -0.25962377
-0.039955303 0.0066933595 -0.25964195
-0.039951406 0.0067697177 -0.25966009
-0.039947923 0.0068478566 -0.25966823
-0.039945003 0.006923778 -0.25966644
-0.039941907 0.0070017427 -0.25966659
-0.039938617 0.007079795 -0.25967073
-0.039935231 0.0071578901 -0.25967687
-0.039932527 0.0072356798 -0.25966901
-0.039930213 0.0073132934 -0.25965321
-0.039927606 0.0073910393 -0.25964335
-0.039925411 0.0074705649 -0.2596235
-0.039923117 0.0075501353 -0.25960562
-0.039920002 0.0076261433 -0.25960779
-0.039916106 0.0077025034 -0.25962597
-0.039912306 0.0077788187 -0.25964212
-0.0399088 0.0078550037 -0.25965232
-0.039905511 0.0079330541 -0.25965646
-0.039902512 0.0080109742 -0.25965461
-0.039899517 0.0080888942 -0.25965276
-0.039897006 0.0081665972 -0.25964093
-0.039894693 0.0082442127 -0.25962511
-0.039892301 0.008323825 -0.25960922
-0.039889596 0.0084016155 -0.25960138
-0.039886408 0.0084796222 -0.25960353
-0.039883193 0.0085556759 -0.25960773
-0.039880391 0.0086335093 -0.25960186
-0.039878 0.0087131225 -0.25958601
-0.039875977 0.0087906048 -0.25956416
-0.039873783 0.0088701323 -0.25954431
-0.03987176 0.0089476155 -0.2595225
-0.039869759 0.0090270536 -0.2594986
-0.039866861 0.0091049299 -0.25949478
-0.039862964 0.009181289 -0.25951293
-0.039858267 0.0092560435 -0.25954914
-0.039853178 0.0093309721 -0.25959331
-0.039849281 0.0094073303 -0.25961149
-0.039845582 0.0094836028 -0.25962564
-0.039841782 0.0095599173 -0.25964183
-0.039838105 0.0096381437 -0.25965396
-0.039834596 0.0097143278 -0.25966412
-0.039830994 0.0097905565 -0.25967631
-0.039827511 0.0098686954 -0.25968444
-0.039823808 0.009944967 -0.25969863
-0.039820399 0.010021107 -0.2597068
-0.039817501 0.010098984 -0.25970295
-0.039814893 0.01017673 -0.25969315
-0.039812602 0.010256299 -0.25967526
-0.039811283 0.010335432 -0.25963742
-0.039810061 0.01041452 -0.25959757
-0.039808061 0.010493958 -0.2595737
-0.039805457 0.010571705 -0.25956386
-0.03980244 0.010647671 -0.25956404
-0.039799049 0.010725766 -0.25957018
-0.039796129 0.010801689 -0.25956839
-0.039793253 0.01088152 -0.25956249
-0.039789841 0.01095766 -0.25957069
-0.039786045 0.011033976 -0.25958687
-0.039781757 0.011110509 -0.25961301
-0.039778057 0.011186782 -0.25962719
-0.039775256 0.011264615 -0.25962135
-0.03977216 0.011342579 -0.2596215
-0.039768673 0.011420717 -0.25962961
-0.039765462 0.011496771 -0.25963381
-0.039763149 0.011574386 -0.25961798
-0.039761733 0.011653562 -0.25958213
-0.039759539 0.011733088 -0.25956225
-0.039756734 0.01181092 -0.25955641
-0.039754324 0.011888579 -0.25954258
-0.039751988 0.011964239 -0.25952882
-0.039748698 0.012042291 -0.25953293
-0.039744899 0.012118607 -0.25954911
-0.039741218 0.012196832 -0.25956124
-0.03973791 0.01227293 -0.25956744
-0.039734405 0.012349114 -0.25957763
-0.039730821 0.012427296 -0.25958776
-0.039727412 0.012503438 -0.25959593
-0.039723538 0.01258175 -0.25961205
-0.039719835 0.012658022 -0.25962624
-0.039716743 0.012735986 -0.25962639
-0.039713942 0.01281382 -0.25962055
-0.039710823 0.012889829 -0.25962272
-0.039707243 0.012968011 -0.25963289
-0.03970442 0.01304389 -0.25962907
-0.039702319 0.013123372 -0.2596072
-0.039700396 0.013200812 -0.25958338
-0.039698083 0.013278427 -0.25956756
-0.039696179 0.013357823 -0.25954169
-0.039694548 0.013435131 -0.25951189
-0.039692625 0.013512571 -0.25948805
-0.039690018 0.013590317 -0.25947821
-0.039686318 0.013666589 -0.2594924
-0.039681152 0.013743516 -0.25953653
-0.039676379 0.013820267 -0.25957268
-0.039672386 0.01389667 -0.25959283
-0.039668389 0.013973073 -0.25961301
-0.039664809 0.014051255 -0.25962314
-0.039661322 0.014129394 -0.25963128
-0.039657913 0.014205534 -0.25963947
-0.039654799 0.014281544 -0.25964165
-0.039651919 0.014361376 -0.25963575
-0.039649196 0.014437211 -0.25962996
-0.039646395 0.014515044 -0.25962412
-0.039644763 0.014592353 -0.25959432
-0.039643444 0.014671486 -0.25955647
-0.039641034 0.014749144 -0.25954264
-0.039638232 0.014826978 -0.2595368
-0.039637089 0.014904069 -0.25949699
-0.039636258 0.014982983 -0.25944915
-0.039633825 0.015058687 -0.25943738
-0.039630342 0.015136826 -0.25944552
-0.039627053 0.015214877 -0.25944966
-0.039623156 0.015291236 -0.25946784
-0.039617989 0.015368163 -0.25951195
-0.039613411 0.015444827 -0.2595441
-0.039609127 0.015521361 -0.25957027
-0.03960513 0.015597763 -0.25959042
-0.039601743 0.015675858 -0.25959656
-0.039598454 0.01575391 -0.2596007
-0.039594851 0.015830139 -0.25961289
-0.039591756 0.015908102 -0.25961304
-0.039589345 0.015985761 -0.25959921
-0.039587226 0.016063288 -0.25957936
-0.039585594 0.016140597 -0.25954956
-0.039583571 0.016218081 -0.25952774
-0.039580379 0.016296089 -0.25952989
-0.039577361 0.016372055 -0.25953007
-0.039574854 0.016449757 -0.25951827
-0.039573029 0.016527154 -0.25949243
-0.039570812 0.016604725 -0.25947461
-0.039567523 0.016682778 -0.25947875
-0.039563529 0.01675918 -0.25949892
-0.039558947 0.016835844 -0.25953108
-0.039554778 0.016914289 -0.25955319
-0.039550591 0.016990779 -0.25957733
-0.039546303 0.017067311 -0.2596035
-0.039543014 0.017145364 -0.25960764
-0.039539725 0.017223414 -0.25961179
-0.039536122 0.017299643 -0.25962394
-0.039532732 0.017377738 -0.25963008
-0.039529443 0.01745579 -0.25963426
-0.039526522 0.017531712 -0.25963244
-0.0395246 0.017609153 -0.25960863
-0.039522871 0.017686505 -0.25958082
-0.039521534 0.017763684 -0.25954503
-0.03952039 0.017840775 -0.25950521
-0.039518271 0.017918302 -0.25948539
-0.039514787 0.017996442 -0.25949353
-0.039510597 0.018072931 -0.25951767
-0.039506331 0.018151419 -0.25954181
-0.039502729 0.018227646 -0.25955397
-0.039499439 0.018305698 -0.25955811
-0.039496832 0.018383443 -0.25954828
-0.039494321 0.018461145 -0.25953645
-0.039491303 0.018537112 -0.25953665
-0.039488308 0.018615033 -0.25953481
-0.0394857 0.018692778 -0.25952494
-0.039482586 0.018768787 -0.25952715
-0.039478708 0.018847102 -0.25954327
-0.039475106 0.018923329 -0.25955546
-0.03947201 0.019001294 -0.25955558
-0.039469305 0.019079084 -0.25954777
-0.039467089 0.019156653 -0.25952995
-0.039465558 0.01923392 -0.25949812
-0.039464198 0.019309144 -0.25946438
-0.03946159 0.019386889 -0.25945452
-0.039459083 0.019464592 -0.25944269
-0.039457351 0.019541945 -0.25941488
-0.03945541 0.019617431 -0.2593931
-0.039452899 0.019695133 -0.25938126
-0.039449707 0.019773141 -0.25938344
-0.03944581 0.0198495 -0.25940159
-0.039441645 0.019927945 -0.2594237
-0.039436989 0.020006606 -0.2594558
-0.039432995 0.02008301 -0.25947598
-0.039429802 0.020161018 -0.25947812
-0.039426588 0.020237071 -0.25948229
-0.039423592 0.020314991 -0.25948045
-0.03942069 0.020392869 -0.2594766
-0.039418161 0.020468617 -0.25946683
-0.039416142 0.020546099 -0.25944501
-0.039414022 0.020623628 -0.25942516
-0.039412294 0.02070098 -0.25939736
-0.039410736 0.020776292 -0.25936759
-0.039408717 0.020853776 -0.25934577
-0.039405718 0.020931697 -0.25934392
-0.039402798 0.021007618 -0.25934213
-0.039399706 0.021085583 -0.25934228
-0.039395828 0.021163896 -0.25935841
-0.039391346 0.021240517 -0.25938857
-0.039386593 0.021319224 -0.25942266
-0.039382525 0.021397624 -0.25944278
-0.039378844 0.02147585 -0.25945491
-0.039375238 0.021552078 -0.25946707
-0.039371658 0.021630261 -0.2594772
-0.039368074 0.021708444 -0.25948736
-0.039364569 0.021784626 -0.25949752
-0.039362058 0.02186233 -0.25948569
-0.039359942 0.021939857 -0.25946587
-0.039357215 0.022015691 -0.25946006
-0.039353926 0.022093743 -0.2594642
-0.03935083 0.022171708 -0.25946435
-0.039347835 0.022249628 -0.25946251
-0.039345011 0.022325506 -0.25945872
-0.0393425 0.022403209 -0.25944686
-0.039339796 0.022480998 -0.25943905
-0.039336585 0.022557052 -0.25944322
-0.039333489 0.022635017 -0.25944337
-0.039330199 0.022713067 -0.25944752
-0.039326422 0.022791337 -0.25946164
-0.039322644 0.022869606 -0.25947577
-0.039319627 0.022945572 -0.25947595
-0.039316729 0.023023449 -0.25947213
-0.039313633 0.023101414 -0.25947225
-0.039310515 0.023177423 -0.25947446
-0.039307225 0.023255475 -0.2594786
-0.039304033 0.023333482 -0.25948074
-0.039301232 0.023411315 -0.2594749
-0.039298799 0.02348702 -0.2594631
-0.039295997 0.023564853 -0.25945726
-0.03929349 0.023642555 -0.25944543
-0.039291546 0.02371804 -0.25942367
-0.039290108 0.023795264 -0.25938985
-0.039288748 0.023870487 -0.25935608
-0.039285928 0.023946367 -0.2593523
-0.039282635 0.024024418 -0.25935644
-0.039279055 0.0241026 -0.25936657
-0.039275374 0.024180826 -0.2593787
-0.039271988 0.024258921 -0.25938484
-0.039268382 0.02433515 -0.25939703
-0.03926453 0.024415417 -0.2594111
-0.039261121 0.024491558 -0.25941929
-0.039257243 0.024569871 -0.25943542
-0.039253272 0.024648227 -0.25945354
-0.039249886 0.024726324 -0.25945967
-0.039246399 0.024804462 -0.25946781
-0.039242916 0.0248826 -0.25947595
-0.039239429 0.024960738 -0.25948408
-0.039235845 0.02503892 -0.25949422
-0.039232537 0.025115019 -0.25950038
-0.039230026 0.025192721 -0.25948858
-0.039227907 0.025270248 -0.25946873
-0.039226647 0.02534543 -0.25943297
-0.039225385 0.02542061 -0.25939724
-0.039223149 0.025496226 -0.25938144
-0.039220445 0.025574015 -0.25937361
-0.039217055 0.025652111 -0.25937974
-0.039212227 0.025732815 -0.25941381
-0.03920757 0.025811477 -0.25944591
-0.039204452 0.025887487 -0.25944811
-0.039201066 0.025965583 -0.25945425
-0.039197776 0.026043633 -0.25945839
-0.039194878 0.02612151 -0.25945452
-0.039192077 0.026199345 -0.25944868
-0.039188862 0.026275396 -0.25945288
-0.039185669 0.026353404 -0.25945503
-0.039182868 0.026431236 -0.25944918
-0.039180458 0.026508898 -0.25943536
-0.039178513 0.026584383 -0.25941357
-0.039176371 0.026659954 -0.25939578
-0.039174154 0.026737526 -0.25937796
-0.039171919 0.026813144 -0.25936219
-0.039169312 0.026890889 -0.25935233
-0.039166022 0.026968941 -0.2593565
-0.03916271 0.027045038 -0.25936267
-0.039159518 0.027123045 -0.25936481
-0.039156035 0.027201183 -0.25937295
-0.039151497 0.027281757 -0.25940102
-0.039147329 0.027360201 -0.25942314
-0.039143451 0.027438516 -0.25943926
-0.039140161 0.027516566 -0.2594434
-0.039137069 0.027594531 -0.25944352
-0.039133877 0.027672539 -0.2594457
-0.039130684 0.027750546 -0.25944784
-0.039127667 0.027826512 -0.25944802
-0.039124962 0.027904302 -0.25944018
-0.039122257 0.027982092 -0.25943235
-0.039119259 0.028060012 -0.2594305
-0.039116535 0.028135847 -0.25942469
-0.039114688 0.028211288 -0.25940093
-0.039113522 0.028286427 -0.25936317
-0.039112262 0.028361607 -0.25932741
-0.039110806 0.028436873 -0.25929567
-0.039108783 0.028514359 -0.25927386
-0.039105669 0.028590368 -0.25927603
-0.039102476 0.028668376 -0.25927818
-0.039100356 0.028745903 -0.25925836
-0.039097533 0.028821781 -0.25925457
-0.039091825 0.028902879 -0.25930658
-0.039086606 0.028983757 -0.25934863
-0.039082944 0.029063938 -0.2593587
-0.039078973 0.029142294 -0.25937682
-0.039074998 0.029220652 -0.25939494
-0.039071906 0.029298617 -0.25939512
-0.039069179 0.02937445 -0.25938931
-0.039066009 0.029454414 -0.2593894
-0.039063673 0.029530074 -0.25937563
-0.039061729 0.02960556 -0.25935385
-0.039059024 0.029683348 -0.25934601
-0.039056495 0.029759098 -0.2593362
-0.039054573 0.029836537 -0.25931239
-0.039052628 0.029912023 -0.25929064
-0.039049804 0.029987901 -0.25928682
-0.03904622 0.030066084 -0.25929695
-0.039042171 0.03014644 -0.25931504
-0.039038394 0.030224711 -0.25932914
-0.039034616 0.030302979 -0.2593433
-0.039030857 0.030383203 -0.25935537
-0.039027665 0.030461211 -0.25935751
-0.039024279 0.030539306 -0.25936365
-0.039020598 0.030617531 -0.25937578
-0.039017115 0.030695669 -0.25938392
-0.039013725 0.030773766 -0.25939006
-0.03901073 0.030851686 -0.25938821
-0.039008394 0.030927347 -0.25937444
-0.039005883 0.031005047 -0.25936258
-0.039002888 0.031082969 -0.25936073
-0.038999207 0.031161195 -0.25937286
-0.038995918 0.031239247 -0.259377
-0.03899378 0.03131482 -0.25935924
-0.038992323 0.031390086 -0.25932747
-0.038990106 0.031467658 -0.25930965
-0.038986716 0.031545755 -0.25931579
-0.038982645 0.031624153 -0.25933591
-0.038978107 0.031704728 -0.25936395
-0.038973961 0.031785127 -0.25938404
-0.038970377 0.031863309 -0.25939417
-0.038966622 0.031943534 -0.25940627
-0.038962942 0.032021761 -0.25941837
-0.038959458 0.032099895 -0.25942653
-0.038956363 0.032177862 -0.25942665
-0.03895317 0.032255869 -0.2594288
-0.038950074 0.032333832 -0.25942898
-0.038947739 0.032409497 -0.25941518
-0.038945992 0.032484893 -0.2593894
-0.038943775 0.032562464 -0.25937158
-0.038941048 0.032638296 -0.2593658
-0.038938247 0.032716133 -0.25935996
-0.038936205 0.032791663 -0.25934017
-0.038935021 0.032864843 -0.25930446
-0.038932413 0.032942589 -0.25929463
-0.03892817 0.033023033 -0.25931668
-0.038924217 0.033103343 -0.25933278
-0.038920633 0.033181526 -0.25934291
-0.038916759 0.033259839 -0.25935903
-0.038912807 0.033340149 -0.2593751
-0.038908832 0.033418506 -0.25939322
-0.038905077 0.033498731 -0.25940531
-0.038901318 0.033578955 -0.25941738
-0.03889754 0.033657223 -0.25943151
-0.038893979 0.033737361 -0.25943959
-0.038890962 0.033813328 -0.2594398
-0.038887691 0.033893332 -0.25944191
-0.038884498 0.033971339 -0.25944406
-0.038881481 0.034047306 -0.25944424
-0.03887831 0.034127269 -0.25944433
-0.038875118 0.034205277 -0.2594465
-0.03887222 0.034283154 -0.25944263
-0.038869493 0.034358989 -0.25943685
-0.038866594 0.034436867 -0.259433
-0.03886389 0.034514658 -0.25942516
-0.038860794 0.034592621 -0.25942531
-0.038857505 0.034670673 -0.25942945
-0.038854118 0.034748767 -0.25943559
-0.038850732 0.03482686 -0.25944173
-0.038846973 0.034907084 -0.2594538
-0.038843311 0.034987263 -0.25946391
-0.038840123 0.035065271 -0.25946605
-0.038837492 0.035141066 -0.25945824
-0.038834497 0.035218984 -0.2594564
-0.038831227 0.035298992 -0.25945848
-0.038828403 0.035374872 -0.2594547
-0.038825504 0.035452746 -0.25945085
-0.038822215 0.035530798 -0.259455
-0.038818654 0.035610937 -0.25946307
-0.03881507 0.035689116 -0.2594732
-0.038811781 0.035767168 -0.25947735
-0.038809467 0.035844784 -0.25946152
-0.038807131 0.035920445 -0.25944772
-0.038804036 0.035998408 -0.25944787
-0.038800474 0.036078542 -0.25945598
-0.038796794 0.03615677 -0.25946811
-0.038792942 0.036237039 -0.2594822
-0.038788695 0.036317483 -0.25950426
-0.03878447 0.036399879 -0.25952429
-0.038780693 0.036478147 -0.25953841
-0.038776934 0.036558371 -0.25955048
-0.038773548 0.036636464 -0.25955662
-0.038770162 0.036714561 -0.25956276
-0.0387666 0.0367947 -0.25957084
-0.038763504 0.036872663 -0.25957102
-0.038760606 0.036950536 -0.25956714
-0.038757607 0.037028458 -0.25956529
-0.038754143 0.037108552 -0.2595714
-0.038750093 0.037188906 -0.25958946
-0.038745556 0.037269481 -0.25961754
-0.038741995 0.037349619 -0.25962561
-0.038739756 0.037425235 -0.25960985
-0.038737714 0.037500761 -0.25959006
-0.038734544 0.037580729 -0.25959015
-0.038729049 0.037663691 -0.25963613
-0.038723949 0.037746482 -0.25967413
-0.038720384 0.037826613 -0.25968224
-0.038716901 0.037904754 -0.25969037
-0.038713142 0.037984975 -0.25970244
-0.038709678 0.038065072 -0.25970855
-0.038706291 0.038143165 -0.25971466
-0.03870273 0.038223304 -0.25972277
-0.038699146 0.038301483 -0.2597329
-0.038695216 0.038383752 -0.25974694
-0.038691167 0.038464107 -0.25976503
-0.038687117 0.038544461 -0.25978309
-0.038682695 0.038626943 -0.25980711
-0.038679603 0.038704909 -0.25980726
-0.038677171 0.038780615 -0.25979546
-0.038674854 0.038858227 -0.25977963
-0.038672324 0.038933977 -0.25976986
-0.038669229 0.03901194 -0.25977001
-0.03866528 0.03909225 -0.25978607
