# .PCD v0.7 - Point Cloud Data file format
VERSION 0.7
FIELDS x y z
SIZE 4 4 4
TYPE F F F
COUNT 1 1 1
WIDTH 1305
HEIGHT 1
VIEWPOINT 0 0 0 1 0 0 0
POINTS 1305
DATA ascii
0.097043373 -0.048081294 -0.23607315
0.097046465 -0.048001379 -0.23607126
0.097049452 -0.047921501 -0.23606735
0.097052537 -0.047841586 -0.23606548
0.097055823 -0.047761582 -0.23606759
0.097059011 -0.047681615 -0.23606768
0.097061999 -0.047601745 -0.23606381
0.097065188 -0.047521781 -0.2360639
0.097068451 -0.047439821 -0.23606396
0.097071461 -0.047361903 -0.23606211
0.097074352 -0.04728207 -0.23605624
0.097077444 -0.047202155 -0.23605433
0.097080819 -0.047122106 -0.23605843
0.097084284 -0.04704006 -0.2360625
0.097088128 -0.046957836 -0.23607454
0.097092271 -0.046875488 -0.23609257
0.097095355 -0.046795569 -0.23609067
0.097097494 -0.046718039 -0.23607084
0.097099721 -0.046640471 -0.23605303
0.097102515 -0.046560682 -0.23604515
0.097106069 -0.046478592 -0.2360512
0.097109549 -0.046398498 -0.23605728
0.097112641 -0.046318583 -0.2360554
0.097115338 -0.04623884 -0.23604552
0.097118251 -0.046160959 -0.23604168
0.097121708 -0.046078913 -0.23604573
0.097125284 -0.045998778 -0.23605382
0.097128741 -0.045916736 -0.23605788
0.09713193 -0.045836769 -0.236058
0.097135015 -0.045756854 -0.23605609
0.09713877 -0.045674674 -0.23606613
0.097142518 -0.045592498 -0.23607618
0.097145312 -0.045512713 -0.23606829
0.097148031 -0.045434922 -0.23606047
0.097151585 -0.045352831 -0.23606652
0.097154967 -0.045272782 -0.23607062
0.097158059 -0.045192868 -0.23606873
0.097161122 -0.045110993 -0.23606479
0.097164504 -0.045030944 -0.23606887
0.09716779 -0.04495094 -0.23607099
0.097170874 -0.044871021 -0.23606908
0.09717387 -0.044791147 -0.23606521
0.097177133 -0.044709187 -0.23606527
0.097180411 -0.044629183 -0.23606735
0.097183406 -0.044549309 -0.23606348
0.097186103 -0.044469565 -0.23605359
0.097189188 -0.044389647 -0.23605171
0.097192474 -0.044309642 -0.23605381
0.097195461 -0.044229768 -0.23604992
0.09719836 -0.044149935 -0.23604403
0.097201347 -0.044070061 -0.23604015
0.097204536 -0.043990102 -0.23604026
0.097207621 -0.043910183 -0.23603836
0.097210512 -0.04383035 -0.23603247
0.097213604 -0.043750435 -0.23603058
0.097216591 -0.043670557 -0.23602669
0.097219482 -0.043590728 -0.2360208
0.09722285 -0.043508723 -0.23602286
0.097226225 -0.043428674 -0.23602697
0.097229704 -0.043348581 -0.23603305
0.097233258 -0.043266494 -0.2360391
0.097236641 -0.043186445 -0.23604321
0.097239144 -0.043106787 -0.23602933
0.097241767 -0.043029044 -0.23601949
0.097245514 -0.042946864 -0.23602954
0.097249173 -0.042864732 -0.23603758
0.097252063 -0.042784899 -0.23603171
0.097254954 -0.042705074 -0.23602581
0.09725824 -0.042625066 -0.23602793
0.0972616 -0.042543061 -0.23602998
0.097264685 -0.042463146 -0.23602808
0.097267486 -0.042383358 -0.23602021
0.097270571 -0.042303439 -0.2360183
0.097273663 -0.042223521 -0.23601642
0.097276941 -0.042143516 -0.23601851
0.097280301 -0.042061515 -0.23602057
0.09728349 -0.041981552 -0.23602068
0.097286656 -0.041899636 -0.23601875
0.097289741 -0.041819718 -0.23601684
0.097292736 -0.041739844 -0.23601297
0.097295724 -0.04165997 -0.23600906
0.097298712 -0.041580096 -0.23600519
0.097301707 -0.041500218 -0.23600128
0.097304888 -0.041420259 -0.2360014
0.097308077 -0.041340295 -0.23600151
0.09731105 -0.041258465 -0.23599556
0.097313762 -0.041180678 -0.23598774
0.097317025 -0.041098718 -0.23598778
0.097320214 -0.041018758 -0.2359879
0.0973235 -0.040938754 -0.23599
0.09732686 -0.040856749 -0.23599204
0.097330242 -0.0407767 -0.23599616
0.097333699 -0.040694654 -0.23600021
0.097336784 -0.040614739 -0.2359983
0.097339675 -0.040534906 -0.23599243
0.09734267 -0.040455028 -0.23598856
0.097345464 -0.040375244 -0.23598066
0.097348452 -0.04029537 -0.23597677
0.09735164 -0.040215407 -0.23597687
0.097355098 -0.040133361 -0.23598093
0.09735848 -0.040053312 -0.23598503
0.097361743 -0.039971352 -0.23598507
0.097364731 -0.039891478 -0.2359812
0.097368114 -0.039811429 -0.23598529
0.097371474 -0.039729424 -0.23598735
0.097374558 -0.039649509 -0.23598546
0.097377554 -0.039569639 -0.23598158
0.09738072 -0.03948772 -0.23597963
0.097383633 -0.039409842 -0.23597579
0.097386621 -0.039329968 -0.2359719
0.097390354 -0.039245836 -0.2359799
0.097393639 -0.039165832 -0.235982
0.097396135 -0.039086174 -0.23596811
0.097398661 -0.039008472 -0.2359563
0.097402044 -0.038928423 -0.23596039
0.097405776 -0.038844291 -0.23596838
0.097408958 -0.038764331 -0.2359685
0.097411945 -0.038684458 -0.2359646
0.097414844 -0.038604625 -0.23595873
0.097417831 -0.038524751 -0.23595484
0.097421192 -0.038442746 -0.23595689
0.097424574 -0.038362697 -0.23596099
0.097427838 -0.03828074 -0.23596105
0.09743122 -0.038200691 -0.23596515
0.097434774 -0.038118601 -0.2359712
0.097437762 -0.038038727 -0.23596731
0.09744066 -0.037958898 -0.23596142
0.097444117 -0.037876848 -0.23596548
0.097447202 -0.037796929 -0.23596358
0.097449727 -0.037719227 -0.23595175
0.097452328 -0.037639529 -0.23593988
0.097455218 -0.037559696 -0.23593399
0.097458772 -0.037477605 -0.23594004
0.097462237 -0.037395559 -0.23594409
0.09746515 -0.037317686 -0.23594025
0.097468309 -0.037235767 -0.23593831
0.097471967 -0.037153635 -0.23594636
0.097475149 -0.037073672 -0.23594646
0.09747795 -0.036993884 -0.23593858
0.097480841 -0.036914054 -0.23593269
0.097483829 -0.03683418 -0.2359288
0.097487018 -0.036754217 -0.23592892
0.097490475 -0.036672175 -0.23593296
0.097493738 -0.036590215 -0.23593302
0.095497109 -0.087709427 -0.23670214
0.095500074 -0.087627597 -0.23669621
0.09550295 -0.087545812 -0.23668826
0.095506348 -0.087467723 -0.23669441
0.095509946 -0.087389544 -0.23670456
0.095512919 -0.087307706 -0.23669863
0.095515989 -0.087225839 -0.23669468
0.095519193 -0.087147832 -0.23669682
0.095522575 -0.087067783 -0.23670092
0.095525742 -0.086985871 -0.23669899
0.095528729 -0.086905994 -0.23669511
0.095531598 -0.086824208 -0.23668718
0.095534183 -0.08674255 -0.23667325
0.095536977 -0.086662769 -0.23666537
0.09554024 -0.086580805 -0.23666543
0.095544055 -0.086504489 -0.2366816
0.095548235 -0.086426049 -0.23670372
0.095551006 -0.086344309 -0.2366938
0.095553391 -0.08626274 -0.23667587
0.09555646 -0.086180866 -0.23667195
0.095560275 -0.086104557 -0.23668812
0.095563754 -0.086024463 -0.23669422
0.095567137 -0.085944414 -0.23669833
0.095570125 -0.085864536 -0.23669443
0.095573097 -0.085782707 -0.23668849
0.095576085 -0.085702837 -0.23668461
0.095578857 -0.085621089 -0.23667468
0.095581852 -0.085541219 -0.23667079
0.095585331 -0.085461125 -0.23667689
0.095588394 -0.085379258 -0.23667294
0.095591389 -0.08529938 -0.23666906
0.095594667 -0.085219376 -0.23667116
0.095597856 -0.085139409 -0.23667127
0.095601045 -0.085059449 -0.23667139
0.09560442 -0.0849794 -0.23667547
0.095608212 -0.084901139 -0.2366896
0.095611498 -0.084821127 -0.23669171
0.095614076 -0.084739476 -0.2366778
0.095617168 -0.084659562 -0.23667589
0.095620744 -0.084579423 -0.23668399
0.095624022 -0.084499419 -0.23668608
0.095626704 -0.084417716 -0.23667416
0.095629498 -0.084337935 -0.23666628
0.095632687 -0.084257968 -0.23666638
0.095635965 -0.084177963 -0.23666848
0.095639251 -0.084097959 -0.2366706
0.095642224 -0.084016129 -0.23666465
0.095645599 -0.08393608 -0.23666877
0.095649004 -0.083857983 -0.2366749
0.095651872 -0.083776206 -0.23666698
0.09565416 -0.083694682 -0.23664705
0.095657036 -0.083612897 -0.23663913
0.09566053 -0.083534755 -0.23664726
0.095664106 -0.083454624 -0.23665537
0.095667392 -0.083374612 -0.23665747
0.095670581 -0.083294652 -0.23665757
0.095673665 -0.083214737 -0.23665568
0.095676854 -0.08313477 -0.23665579
0.095679648 -0.08305499 -0.2366479
0.095682621 -0.082973152 -0.23664197
0.095685899 -0.082893156 -0.23664407
0.095688798 -0.082813323 -0.23663819
0.095691666 -0.082731538 -0.23663026
0.095695071 -0.082653441 -0.2366364
0.095698334 -0.082571484 -0.23663646
0.095701419 -0.082491562 -0.23663457
0.095704608 -0.082411602 -0.23663467
0.095707282 -0.082329899 -0.23662275
0.09571027 -0.082250029 -0.23661886
0.095713459 -0.082170069 -0.23661897
0.095716551 -0.082090154 -0.23661707
0.095719926 -0.082010105 -0.23662117
0.095723525 -0.081931919 -0.2366313
0.095726907 -0.08185187 -0.23663542
0.095729485 -0.081770219 -0.23662148
0.09573216 -0.081688523 -0.23660955
0.095735349 -0.081608556 -0.23660967
0.095738538 -0.081528597 -0.23660977
0.095741719 -0.081448637 -0.23660988
0.095744886 -0.081366718 -0.23660794
0.095747977 -0.081286803 -0.23660605
0.095750868 -0.08120697 -0.23660016
0.095754147 -0.081126966 -0.23660226
0.095757335 -0.081046999 -0.23660237
0.095760226 -0.080967173 -0.23659649
0.095763221 -0.080887295 -0.23659259
0.095766291 -0.080805421 -0.23658866
0.095769182 -0.080725595 -0.23658277
0.095772579 -0.080647498 -0.23658893
0.095776252 -0.080567323 -0.236599
0.095779561 -0.08048927 -0.23660314
0.09578263 -0.080407396 -0.23659921
0.095785618 -0.080327526 -0.23659533
0.095788904 -0.080247521 -0.23659742
0.095791988 -0.080167606 -0.23659554
0.095794685 -0.080087855 -0.23658568
0.095797561 -0.08000607 -0.23657772
0.095801041 -0.079925984 -0.23658383
0.095804051 -0.079848059 -0.23658198
0.095807016 -0.079766229 -0.23657605
0.095810011 -0.079686359 -0.23657216
0.095812686 -0.079604656 -0.23656023
0.09581548 -0.079524875 -0.23655234
0.095819056 -0.079444736 -0.23656045
0.095822558 -0.079366595 -0.2365686
0.095825642 -0.07928668 -0.23656669
0.095828928 -0.079206675 -0.23656879
0.095832407 -0.079126582 -0.23657489
0.095835298 -0.079046756 -0.236569
0.095838077 -0.078965008 -0.23655909
0.095841475 -0.078886911 -0.23656522
0.095845245 -0.078806691 -0.2365773
0.09584824 -0.078726821 -0.23657343
0.095850721 -0.078645207 -0.2365575
0.095853806 -0.078565285 -0.23655561
0.095857285 -0.078485198 -0.23656172
0.09586028 -0.078405321 -0.23655781
0.095863171 -0.078325495 -0.23655194
0.095866159 -0.078245617 -0.23654804
0.095869422 -0.078163661 -0.2365481
0.095872335 -0.07808578 -0.23654425
0.095875598 -0.078003824 -0.23654431
0.095878907 -0.077925771 -0.23654847
0.095882185 -0.077845767 -0.23655057
0.095885083 -0.077765934 -0.23654468
0.095887855 -0.077684194 -0.23653474
0.095890746 -0.077604361 -0.23652887
0.095893934 -0.077524401 -0.23652896
0.095897339 -0.077446304 -0.23653512
0.095900618 -0.0773663 -0.23653722
0.09590371 -0.077286385 -0.23653534
0.095906794 -0.077206463 -0.23653343
0.095909789 -0.077126592 -0.23652956
0.095912777 -0.077046715 -0.23652565
0.095916063 -0.07696671 -0.23652777
0.095919341 -0.076886706 -0.23652986
0.095922239 -0.076806873 -0.23652399
0.095925227 -0.076727003 -0.2365201
0.095928513 -0.076646999 -0.2365222
0.095932089 -0.07656686 -0.23653029
0.095935367 -0.076486856 -0.23653239
0.095938168 -0.076407067 -0.23652451
0.095940746 -0.076325417 -0.23651059
0.095943637 -0.076245584 -0.2365047
0.095947236 -0.076167405 -0.23651484
0.095950812 -0.076087266 -0.23652293
0.095953897 -0.076007351 -0.23652104
0.095956892 -0.075927474 -0.23651715
0.095960192 -0.075849421 -0.2365213
0.095963553 -0.07576742 -0.23652336
0.095966443 -0.075687587 -0.23651746
0.095969439 -0.075607717 -0.23651358
0.095972426 -0.075527839 -0.23650968
0.095975518 -0.075447924 -0.2365078
0.095978901 -0.075367875 -0.23651189
0.095982179 -0.075287864 -0.236514
0.095985368 -0.075207904 -0.23651409
0.095988452 -0.075127989 -0.23651221
0.095991053 -0.07504829 -0.23650032
0.095993534 -0.074966677 -0.23648441
0.095996939 -0.074888587 -0.23649056
0.096000612 -0.074808404 -0.23650065
0.096003599 -0.074728534 -0.23649676
0.096006401 -0.074648745 -0.23648888
0.096009679 -0.074568734 -0.23649098
0.096012965 -0.074488729 -0.23649308
0.096016154 -0.07440877 -0.2364932
0.096019164 -0.074330851 -0.23649135
0.096021958 -0.074251063 -0.23648345
0.096025243 -0.074171059 -0.23648557
0.09602882 -0.07409092 -0.23649365
0.096031711 -0.074011087 -0.23648778
0.096034504 -0.073931307 -0.23647988
0.096037596 -0.073851384 -0.236478
0.096040487 -0.073771551 -0.2364721
0.096043281 -0.07369177 -0.23646423
0.096046545 -0.073609807 -0.23646429
0.096049652 -0.073531844 -0.23646444
0.096052542 -0.073452011 -0.23645855
0.096055731 -0.073372051 -0.23645866
0.09605892 -0.073292091 -0.23645876
0.096061811 -0.073212259 -0.23645288
0.096065 -0.073132299 -0.23645298
0.096068278 -0.073052295 -0.23645508
0.09607137 -0.072972372 -0.23645319
0.096074648 -0.072892368 -0.23645529
0.096077934 -0.072812364 -0.23645739
0.096080922 -0.072732493 -0.2364535
0.096084133 -0.072654486 -0.23645566
0.096087806 -0.072574303 -0.23646575
0.096090794 -0.072494432 -0.23646186
0.096093491 -0.072414689 -0.23645198
0.09609668 -0.072334722 -0.23645207
0.096099861 -0.072254762 -0.23645219
0.096102953 -0.072174847 -0.2364503
0.096105941 -0.072094969 -0.23644641
0.096108839 -0.072015136 -0.23644052
0.096112311 -0.07193505 -0.23644662
0.096115619 -0.071856998 -0.23645076
0.096118905 -0.071776994 -0.23645286
0.096122384 -0.0716969 -0.23645896
0.096125275 -0.071617067 -0.23645309
0.096127875 -0.071537368 -0.2364412
0.096130766 -0.071457535 -0.23643531
0.096133858 -0.07137762 -0.23643342
0.096137434 -0.071297482 -0.23644152
0.096140906 -0.071217395 -0.23644762
0.096143804 -0.071137562 -0.23644173
0.096146718 -0.071059689 -0.23643789
0.096149884 -0.07097777 -0.23643595
0.096152797 -0.070899889 -0.23643211
0.09615586 -0.070818022 -0.23642817
0.096159168 -0.07073997 -0.23643231
0.096162252 -0.070660055 -0.23643044
0.096164659 -0.070580438 -0.23641455
0.096167646 -0.070500568 -0.23641068
0.096171319 -0.070420384 -0.23642075
0.096174799 -0.070340291 -0.23642686
0.096178204 -0.070262201 -0.236433
0.09618149 -0.070182197 -0.2364351
0.096184574 -0.070102274 -0.23643321
0.096187763 -0.070022315 -0.23643331
0.096190654 -0.069942482 -0.23642743
0.096193641 -0.069862612 -0.23642354
0.096196637 -0.069782734 -0.23641965
0.096199624 -0.069702864 -0.23641576
0.096203201 -0.069622725 -0.23642385
0.096206501 -0.069544673 -0.23642801
0.096209399 -0.06946484 -0.23642212
0.096212782 -0.069384798 -0.23642622
0.096215963 -0.069304831 -0.23642632
0.096218854 -0.069224998 -0.23642044
0.096221946 -0.069145083 -0.23641855
0.096225031 -0.069065168 -0.23641665
0.096228026 -0.068985291 -0.23641276
0.096230917 -0.068905458 -0.23640686
0.096234009 -0.068825543 -0.23640499
0.096237093 -0.068745628 -0.23640308
0.0962402 -0.068667658 -0.23640326
0.096243486 -0.068587653 -0.23640534
0.096246868 -0.068507612 -0.23640946
0.096250542 -0.068427429 -0.23641953
0.096253842 -0.068349376 -0.23642369
0.096256636 -0.068269588 -0.2364158
0.096259415 -0.068187848 -0.23640588
0.096262328 -0.068109974 -0.23640203
0.09626551 -0.068030015 -0.23640214
0.096268214 -0.067950264 -0.23639226
0.096271299 -0.067870349 -0.23639037
0.096274875 -0.06779021 -0.23639846
0.096278064 -0.067710251 -0.23639856
0.096280761 -0.067630507 -0.23638868
0.096283555 -0.067550719 -0.2363808
0.096286274 -0.067472935 -0.23637296
0.096289754 -0.067392841 -0.23637906
0.09629333 -0.067312703 -0.23638716
0.096296705 -0.067232653 -0.23639125
0.096299604 -0.067152821 -0.23638538
0.096302494 -0.067072995 -0.23637947
0.096305385 -0.066993162 -0.2363736
0.096308284 -0.066913329 -0.23636772
0.096311368 -0.066833414 -0.23636582
0.096314967 -0.066755235 -0.23637596
0.096318543 -0.066675097 -0.23638405
0.096321821 -0.066595092 -0.23638615
0.096324816 -0.066515215 -0.23638226
0.09632761 -0.066435426 -0.23637438
0.096330307 -0.066355683 -0.23636451
0.096333124 -0.066277854 -0.23635866
0.096335903 -0.066196114 -0.23634875
0.096339203 -0.066118062 -0.23635289
0.09634307 -0.066037796 -0.23636696
0.096346259 -0.065957829 -0.23636708
0.096349053 -0.065878049 -0.23635918
0.096352629 -0.06579791 -0.23636729
0.096355833 -0.065719903 -0.23636943
0.096358418 -0.065638244 -0.23635551
0.096361116 -0.065558501 -0.23634563
0.096363828 -0.065480717 -0.2363378
0.096367113 -0.065400712 -0.2363399
0.096370786 -0.065320529 -0.23634999
0.096374556 -0.065240309 -0.23636207
0.096378036 -0.065160215 -0.23636818
0.096380852 -0.065082386 -0.23636234
0.09638375 -0.065002553 -0.23635644
0.096386738 -0.064922675 -0.23635256
0.09638992 -0.064842716 -0.23635265
0.096393205 -0.064762712 -0.23635477
0.096396491 -0.064682707 -0.23635687
0.096399873 -0.064602658 -0.23636097
0.096402586 -0.064524867 -0.23635313
0.096405558 -0.064443037 -0.2363472
0.096408866 -0.064364985 -0.23635134
0.096412048 -0.064285025 -0.23635146
0.096414842 -0.064205237 -0.23634356
0.096417248 -0.064125627 -0.23632771
0.096419655 -0.06404601 -0.23631182
0.096422642 -0.06396614 -0.23630795
0.096425951 -0.063888088 -0.23631208
0.096429527 -0.063807949 -0.23632018
0.096433297 -0.063727729 -0.23633227
0.096436776 -0.063647635 -0.23633835
0.096440054 -0.063567631 -0.23634046
0.096443146 -0.063487716 -0.23633857
0.096446037 -0.063407883 -0.23633268
0.096449047 -0.063329965 -0.23633084
0.096452311 -0.063248001 -0.2363309
0.09645503 -0.063170217 -0.23632306
0.096458018 -0.063090339 -0.23631918
0.09646111 -0.063010424 -0.23631728
0.096463807 -0.062930681 -0.2363074
0.096467189 -0.062850632 -0.2363115
0.096471056 -0.062770367 -0.23632559
0.096473776 -0.062692575 -0.23631775
0.096476085 -0.062613003 -0.23629987
0.096478976 -0.06253317 -0.236294
0.096482553 -0.062453039 -0.23630209
0.096485637 -0.06237312 -0.2363002
0.096488535 -0.062293287 -0.23629431
0.096491717 -0.062213328 -0.23629442
0.096494414 -0.062133584 -0.23628455
0.096497312 -0.062053751 -0.23627865
0.09650071 -0.061975658 -0.23628479
0.096503995 -0.061895654 -0.23628689
0.096506789 -0.061815865 -0.23627901
0.09650968 -0.061736036 -0.23627312
0.096512966 -0.061656028 -0.23627523
0.096516252 -0.061576024 -0.23627734
0.096518964 -0.061498236 -0.2362695
0.096522227 -0.061416276 -0.23626956
0.096526019 -0.061338007 -0.23628369
0.096528813 -0.061258219 -0.23627581
0.096531421 -0.06117852 -0.23626393
0.096534796 -0.061098471 -0.23626801
0.096538469 -0.061018292 -0.23627812
0.096541561 -0.060938373 -0.23627624
0.096544161 -0.060858674 -0.23626435
0.096546978 -0.060780842 -0.23625851
0.096550159 -0.060700879 -0.23625861
0.096553251 -0.06062096 -0.23625672
0.096556634 -0.060540911 -0.23626083
0.096560404 -0.06046069 -0.23627292
0.096563391 -0.060380816 -0.23626903
0.096565895 -0.060301159 -0.23625515
0.09656918 -0.060221154 -0.23625726
0.09657295 -0.06014093 -0.23626935
0.096576035 -0.060061011 -0.23626745
0.096578851 -0.059983179 -0.23626161
0.09658204 -0.059903219 -0.23626173
0.096585229 -0.059823256 -0.23626183
0.096588023 -0.059743471 -0.23625395
0.09659072 -0.059663724 -0.23624405
0.096593611 -0.059583895 -0.23623818
0.096597113 -0.059505757 -0.23624632
0.096600667 -0.059423666 -0.23625237
0.09660387 -0.059345659 -0.23625451
0.096607231 -0.059263658 -0.23625657
0.096610636 -0.059185565 -0.23626271
0.096614018 -0.059105515 -0.23626681
0.096616715 -0.059025772 -0.23625693
0.096619412 -0.058946028 -0.23624706
0.0966224 -0.058866151 -0.23624316
0.096625589 -0.058786191 -0.23624328
0.096628599 -0.058708273 -0.23624143
0.096631669 -0.058626398 -0.23623748
0.096634872 -0.058548391 -0.23623964
0.096638523 -0.058466259 -0.23624767
0.096641541 -0.058388337 -0.23624584
0.096644431 -0.058308505 -0.23623995
0.096647613 -0.058228545 -0.23624006
0.096650802 -0.058148585 -0.23624015
0.09665399 -0.058068622 -0.23624027
0.096656978 -0.057988748 -0.23623636
0.096659966 -0.057908874 -0.23623249
0.096663348 -0.057828825 -0.23623659
0.096666358 -0.057750903 -0.23623474
0.096668959 -0.057671204 -0.23622286
0.096672244 -0.0575912 -0.23622498
0.096675724 -0.057511106 -0.23623106
0.096679106 -0.057431057 -0.23623517
0.096682288 -0.057351097 -0.23623526
0.096685186 -0.057271264 -0.23622939
0.096688174 -0.057191391 -0.2362255
0.096691355 -0.057111431 -0.23622561
0.096694447 -0.057031512 -0.23622371
0.09669707 -0.056953765 -0.23621388
0.096699767 -0.056874022 -0.236204
0.096703246 -0.056793932 -0.23621009
0.096707113 -0.056713663 -0.23622417
0.096710376 -0.056631707 -0.23622423
0.096712701 -0.05655409 -0.23620841
0.096715599 -0.056474257 -0.23620254
0.096719176 -0.056394123 -0.23621061
0.096722551 -0.056314074 -0.23621473
0.09672603 -0.056233983 -0.23622081
0.096728824 -0.056154195 -0.23621294
0.096731327 -0.056074537 -0.23619905
0.09673471 -0.055994488 -0.23620316
0.096738383 -0.055914313 -0.23621324
0.096741274 -0.05583448 -0.23620737
0.09674409 -0.055756647 -0.23620152
0.096747749 -0.055674512 -0.23620957
0.096750565 -0.055596679 -0.23620373
0.096753553 -0.055516805 -0.23619984
0.096757203 -0.055434674 -0.23620789
0.096760318 -0.055356707 -0.23620805
0.096763581 -0.055274747 -0.2362081
0.096766293 -0.05519696 -0.23620026
0.096768893 -0.055117257 -0.23618838
0.096772276 -0.055037212 -0.23619249
0.096775755 -0.054957118 -0.23619859
0.096778944 -0.054877158 -0.23619869
0.096782416 -0.054797065 -0.23620479
0.096785605 -0.054717105 -0.23620489
0.096788697 -0.054637186 -0.23620299
0.096791781 -0.054557268 -0.23620111
0.096794873 -0.054477349 -0.2361992
0.096797958 -0.054397434 -0.23619732
0.096801043 -0.054317512 -0.23619542
0.096804038 -0.054237641 -0.23619154
0.09680742 -0.054157592 -0.23619565
0.0968109 -0.054077499 -0.23620173
0.096813984 -0.05399758 -0.23619986
0.096816875 -0.053917751 -0.23619395
0.09681987 -0.053837873 -0.23619008
0.096823052 -0.053757913 -0.23619017
0.09682624 -0.053677954 -0.23619029
0.096829429 -0.05359799 -0.23619038
0.096832417 -0.053518116 -0.2361865
0.096835405 -0.053438243 -0.2361826
0.096838593 -0.053358279 -0.23618272
0.096841976 -0.05327823 -0.23618682
0.096845157 -0.05319827 -0.23618692
0.096848153 -0.053118397 -0.23618303
0.096851431 -0.053038392 -0.23618513
0.096854426 -0.052958518 -0.23618124
0.096857607 -0.052878555 -0.23618135
0.096860893 -0.052798551 -0.23618346
0.096863613 -0.052720763 -0.23617563
0.0968666 -0.052640885 -0.23617172
0.096869983 -0.052560836 -0.23617584
0.096873052 -0.052478965 -0.2361719
0.096875869 -0.052401133 -0.23616606
0.09687905 -0.05232117 -0.23616615
0.096881941 -0.05224134 -0.23616028
0.096884936 -0.052161463 -0.23615637
0.096888587 -0.052079331 -0.23616442
0.096891969 -0.051999282 -0.23616853
0.096895158 -0.051919322 -0.23616864
0.096898243 -0.051839404 -0.23616675
0.096901335 -0.051759485 -0.23616485
0.096904323 -0.051679611 -0.23616096
0.096907608 -0.051599607 -0.23616305
0.096910521 -0.05152173 -0.23615924
0.096913688 -0.051439814 -0.2361573
0.096916966 -0.05135981 -0.23615938
0.096920252 -0.051279806 -0.2361615
0.09692324 -0.051199928 -0.2361576
0.096925959 -0.05112214 -0.23614976
0.096929029 -0.051040269 -0.23614582
0.09693221 -0.050960306 -0.23614594
0.096935593 -0.050880257 -0.23615003
0.096938878 -0.050800253 -0.23615214
0.096942164 -0.050720248 -0.23615423
0.096945345 -0.050640285 -0.23615435
0.096948341 -0.050560411 -0.23615046
0.096951425 -0.050480492 -0.23614857
0.096954316 -0.050400663 -0.23614268
0.096957698 -0.050320614 -0.23614678
0.096961081 -0.050240565 -0.23615088
0.096963972 -0.050160736 -0.23614499
0.096966863 -0.050080903 -0.2361391
0.096969761 -0.05000107 -0.23613322
0.096972845 -0.049921155 -0.23613133
0.096976034 -0.049841195 -0.23613143
0.096979216 -0.049761232 -0.23613153
0.096982501 -0.049681228 -0.23613364
0.096985392 -0.049601398 -0.23612776
0.096988291 -0.049521565 -0.23612186
0.096991569 -0.049441561 -0.23612398
0.096994951 -0.049361512 -0.23612806
0.096998118 -0.049279593 -0.23612612
0.097001225 -0.04920163 -0.23612627
0.097004585 -0.049119629 -0.23612835
0.09700758 -0.049039755 -0.23612446
0.097010665 -0.048959836 -0.23612255
0.097014047 -0.048879787 -0.23612666
0.09701772 -0.048799612 -0.23613675
0.097020812 -0.048719689 -0.23613486
0.097023115 -0.048640121 -0.23611699
0.097025149 -0.048562638 -0.23609518
0.097027943 -0.04848285 -0.23608729
0.097030938 -0.048402973 -0.2360834
0.09703356 -0.048325229 -0.23607357
0.097036161 -0.048245527 -0.23606169
0.097039245 -0.048165612 -0.2360598
0.097042605 -0.048083607 -0.23606184
0.097045988 -0.048003558 -0.23606595
0.097048901 -0.047925681 -0.23606211
0.097051971 -0.047843806 -0.23605818
0.097055249 -0.047763802 -0.23606029
0.097058244 -0.047683928 -0.23605639
0.097061329 -0.04760401 -0.23605449
0.097064517 -0.04752405 -0.2360546
0.097067699 -0.04744409 -0.2360547
0.097070694 -0.047364213 -0.23605081
0.097073779 -0.047284298 -0.23604894
0.097077064 -0.047204293 -0.23605102
0.09708035 -0.047124289 -0.23605314
0.097083613 -0.047042325 -0.2360532
0.09708719 -0.04696219 -0.23606128
0.097091131 -0.046879925 -0.23607533
0.09709432 -0.046799965 -0.23607543
0.097096726 -0.046720352 -0.23605955
0.097098857 -0.046642825 -0.23603973
0.097101577 -0.046565033 -0.2360319
0.097105227 -0.046482898 -0.23603995
0.097108804 -0.046402764 -0.23604804
0.097112067 -0.046320807 -0.2360481
0.09711469 -0.04624306 -0.23603827
0.097117484 -0.046163272 -0.23603038
0.097120762 -0.046083268 -0.23603249
0.097124226 -0.046001218 -0.23603654
0.097127803 -0.045921087 -0.23604463
0.09713126 -0.045839038 -0.23604868
0.097134344 -0.045759119 -0.23604679
0.097137727 -0.04567907 -0.2360509
0.097141579 -0.045596853 -0.23606294
0.097144663 -0.045516934 -0.23606104
0.09714736 -0.045437187 -0.23605117
0.097150646 -0.045357183 -0.23605326
0.0971542 -0.045275096 -0.23605931
0.097157389 -0.045195132 -0.23605943
0.097160667 -0.045115128 -0.23606151
0.097163931 -0.045033172 -0.23606157
0.097167119 -0.044953208 -0.23606169
0.09717001 -0.044873379 -0.23605579
0.097173005 -0.044793501 -0.23605192
0.09717609 -0.044713587 -0.23605001
0.097179376 -0.044633582 -0.23605213
0.09718246 -0.04455366 -0.23605022
0.097185455 -0.044473786 -0.23604634
0.097188346 -0.044393957 -0.23604044
0.097191334 -0.044314079 -0.23603655
0.097194523 -0.044234119 -0.23603667
0.09719751 -0.044154245 -0.23603278
0.097200505 -0.044074371 -0.23602889
0.09720359 -0.043994453 -0.236027
0.09720666 -0.043912582 -0.23602307
0.09720967 -0.04383466 -0.23602122
0.097212762 -0.043754742 -0.23601933
0.097215824 -0.043672867 -0.23601539
0.09721864 -0.043595038 -0.23600954
0.097222 -0.04351303 -0.23601161
0.097225286 -0.043433033 -0.23601371
0.097228467 -0.043353066 -0.2360138
0.097232595 -0.043268763 -0.2360298
0.097236171 -0.043188624 -0.23603791
0.097238675 -0.04310897 -0.23602402
0.097241387 -0.043031182 -0.23601618
0.097245045 -0.042949047 -0.23602423
0.097248502 -0.042867001 -0.23602828
0.097251222 -0.042789213 -0.23602045
0.097254187 -0.042707384 -0.23601452
0.097257279 -0.042627461 -0.23601262
0.097260758 -0.042547371 -0.23601872
0.097264118 -0.042465366 -0.23602077
0.097266935 -0.042387538 -0.23601493
0.097270198 -0.042305574 -0.23601499
0.097273476 -0.042225569 -0.23601711
0.097276568 -0.042145655 -0.2360152
0.097279638 -0.04206378 -0.23601127
0.097282819 -0.04198382 -0.23601139
0.097286008 -0.041903861 -0.23601148
0.097288996 -0.041823983 -0.2360076
0.097292088 -0.041744068 -0.23600569
0.097295344 -0.041662108 -0.23600575
0.097298339 -0.041582234 -0.23600188
0.09730123 -0.041502401 -0.23599598
0.097304225 -0.041422527 -0.2359921
0.097307503 -0.041342519 -0.23599419
0.097311065 -0.041260429 -0.23600024
0.097314052 -0.041180559 -0.23599637
0.097316749 -0.041100815 -0.23598647
0.097319469 -0.041023023 -0.23597865
0.097322457 -0.040943149 -0.23597476
0.097325914 -0.0408611 -0.23597881
0.097329296 -0.040781051 -0.23598291
0.097332463 -0.040699139 -0.23598096
0.097335547 -0.040619217 -0.23597908
0.097338542 -0.040539347 -0.23597518
0.097341999 -0.040457301 -0.23597923
0.097345188 -0.040377341 -0.23597935
0.097348079 -0.040297508 -0.23597345
0.097351268 -0.040217545 -0.23597357
0.097354449 -0.040137585 -0.23597367
0.097357519 -0.040055711 -0.23596972
0.097360529 -0.039977789 -0.23596789
0.097363599 -0.039895922 -0.23596394
0.097366974 -0.039815869 -0.23596805
0.097370729 -0.039733693 -0.2359781
0.097373992 -0.039651733 -0.23597816
0.097377278 -0.039571729 -0.23598026
0.097380266 -0.039491855 -0.23597637
0.097382866 -0.039412152 -0.23596448
0.097385682 -0.03933432 -0.23595865
0.097388849 -0.039252404 -0.2359567
0.097392224 -0.039172355 -0.23596081
0.097395487 -0.039090399 -0.23596087
0.097398482 -0.039010525 -0.23595697
0.097401664 -0.038930561 -0.23595709
0.097405031 -0.038848557 -0.23595914
0.09740831 -0.038768552 -0.23596124
0.097411476 -0.038686637 -0.23595931
0.097414196 -0.038608849 -0.23595145
0.097417183 -0.038528971 -0.23594758
0.09742064 -0.038446926 -0.23595163
0.097423732 -0.038367011 -0.23594972
0.097426802 -0.038285136 -0.23594579
0.097430453 -0.038203001 -0.23595385
0.097433932 -0.038122911 -0.23595995
0.097436994 -0.038041037 -0.23595601
0.097439989 -0.037961166 -0.23595212
0.097443372 -0.037881117 -0.23595622
0.097446069 -0.03780137 -0.23594633
0.097448491 -0.037723713 -0.2359325
0.097451486 -0.037643839 -0.23592862
0.097454943 -0.037561789 -0.23593268
0.097458497 -0.037479702 -0.23593873
0.097461879 -0.037399653 -0.23594283
0.09746448 -0.037319954 -0.23593095
0.09746737 -0.037240122 -0.23592506
0.097471029 -0.037157986 -0.23593311
0.097474679 -0.037075855 -0.23594116
0.097477764 -0.036995936 -0.23593926
0.097480565 -0.036916152 -0.23593138
0.097483829 -0.036834188 -0.23593144
0.09748701 -0.036754228 -0.23593155
0.097490199 -0.036674269 -0.23593165
0.097493283 -0.036594346 -0.23592976
0.095499411 -0.087713584 -0.23670945
0.095502675 -0.087631628 -0.23670952
0.095505565 -0.087551795 -0.23670363
0.095509045 -0.087471701 -0.23670973
0.095512442 -0.087393612 -0.23671587
0.095515415 -0.087311782 -0.23670994
0.095518187 -0.087230042 -0.23670001
0.095521376 -0.087150075 -0.23670012
0.095524967 -0.087071896 -0.23671025
0.095528133 -0.086989984 -0.23670831
0.095531121 -0.086910106 -0.23670441
0.095533997 -0.086828321 -0.2366965
0.095536672 -0.086746618 -0.23668458
0.095539562 -0.086666793 -0.23667869
0.095542848 -0.086586788 -0.23668079
0.09554664 -0.08650852 -0.23669492
0.09555053 -0.086430207 -0.23671106
0.095553398 -0.086348422 -0.23670313
0.095555976 -0.086266764 -0.23668918
0.095559068 -0.086186849 -0.2366873
0.095562547 -0.086106755 -0.23669341
0.09556593 -0.086026706 -0.23669749
0.095569327 -0.085948616 -0.23670363
0.095572613 -0.085868604 -0.23670575
0.095575482 -0.085786819 -0.23669782
0.095578253 -0.085705079 -0.2366879
0.095581226 -0.085623249 -0.23668195
0.095584311 -0.085543334 -0.23668006
0.095587619 -0.085465282 -0.2366842
0.095590681 -0.085383408 -0.23668027
0.095593773 -0.085303493 -0.23667839
0.095596954 -0.085223533 -0.23667848
0.095600121 -0.085141614 -0.23667654
0.095603429 -0.085063562 -0.2366807
0.095607102 -0.084983386 -0.23669079
0.09561079 -0.084905162 -0.23670292
0.09561386 -0.084823288 -0.23669899
0.09561646 -0.084743589 -0.23668711
0.095619433 -0.084661759 -0.23668118
0.095623106 -0.084581584 -0.23669127
0.095626213 -0.084503621 -0.23669142
0.095628962 -0.084419921 -0.23667945
0.09563186 -0.084340088 -0.23667356
0.095635042 -0.084260128 -0.23667365
0.095638521 -0.084180035 -0.23667976
0.095641509 -0.084100157 -0.23667587
0.095644385 -0.084018379 -0.23666793
0.095647782 -0.083940282 -0.2366741
0.095651165 -0.083860233 -0.23667818
0.095654055 -0.0837804 -0.23667231
0.095656537 -0.083698794 -0.23665638
0.095659412 -0.083617002 -0.23664844
0.095662989 -0.083536871 -0.23665655
0.09566658 -0.083458692 -0.23666668
0.095669866 -0.083378688 -0.2366688
0.09567295 -0.083298765 -0.23666689
0.095676139 -0.083218805 -0.23666701
0.095679127 -0.083138928 -0.2366631
0.095682003 -0.083057143 -0.23665518
0.095684893 -0.08297731 -0.2366493
0.095688179 -0.082897305 -0.23665139
0.095691241 -0.082815439 -0.23664746
0.095693938 -0.082735687 -0.23663758
0.095697321 -0.082655638 -0.23664168
0.095700607 -0.082575634 -0.23664379
0.095703691 -0.082495719 -0.23664188
0.09570688 -0.08241576 -0.236642
0.095709749 -0.082333975 -0.23663408
0.095712639 -0.082254142 -0.23662817
0.095715612 -0.082172312 -0.23662224
0.0957186 -0.082092434 -0.23661835
0.095722079 -0.082012348 -0.23662445
0.095725775 -0.081934124 -0.23663658
0.09572915 -0.081854075 -0.23664069
0.095732026 -0.08177229 -0.23663276
0.095734529 -0.081692629 -0.23661888
0.095737696 -0.081610717 -0.23661694
0.095740877 -0.08153075 -0.23661706
0.095743969 -0.081450835 -0.23661515
0.095747247 -0.081370831 -0.23661727
0.095750332 -0.081290916 -0.23661536
0.095753208 -0.081209123 -0.23660743
0.095756315 -0.08113116 -0.2366076
0.095759697 -0.081051111 -0.23661169
0.095762685 -0.080971241 -0.2366078
0.095765561 -0.080889456 -0.23659988
0.095768355 -0.080809668 -0.23659199
0.095771223 -0.080727883 -0.23658405
0.095774531 -0.08064983 -0.23658821
0.095778398 -0.080569565 -0.23660229
0.095782094 -0.080491342 -0.23661444
0.095785178 -0.080411419 -0.23661253
0.095787972 -0.080331638 -0.23660466
0.095791161 -0.080251671 -0.23660475
0.095794223 -0.080169797 -0.23660082
0.095797017 -0.080090016 -0.23659293
0.095800109 -0.080010094 -0.23659104
0.095803589 -0.079930007 -0.23659715
0.095806576 -0.07985013 -0.23659326
0.095809467 -0.079770297 -0.23658738
0.095812462 -0.079690427 -0.23658347
0.095815331 -0.079608634 -0.23657554
0.095818326 -0.079528764 -0.23657167
0.095821798 -0.07944867 -0.23657775
0.09582518 -0.079368621 -0.23658186
0.095828071 -0.079288796 -0.23657596
0.095831163 -0.079208873 -0.23657408
0.095834441 -0.079128869 -0.23657618
0.095837533 -0.079048954 -0.23657429
0.095840327 -0.078969166 -0.23656639
0.095844001 -0.078888983 -0.2365765
0.095847696 -0.078810759 -0.23658863
0.095850565 -0.078728974 -0.2365807
0.095852971 -0.078649357 -0.23656484
0.095856234 -0.078567401 -0.23656487
0.095859632 -0.078489304 -0.23657104
0.095862702 -0.078407437 -0.23656709
0.095865399 -0.078327693 -0.23655722
0.095868289 -0.07824786 -0.23655133
0.095871374 -0.078167945 -0.23654944
0.09587466 -0.078087941 -0.23655155
0.095877945 -0.078007929 -0.23655364
0.095881425 -0.077927843 -0.23655973
0.095884532 -0.07784988 -0.2365599
0.095887497 -0.077768043 -0.23655397
0.095890194 -0.077688307 -0.23654407
0.09589307 -0.077606514 -0.23653615
0.09589608 -0.077528596 -0.2365343
0.095899656 -0.077448457 -0.2365424
0.095902935 -0.077368453 -0.2365445
0.09590622 -0.077288449 -0.23654661
0.095909208 -0.077208579 -0.2365427
0.0959123 -0.077128664 -0.23654082
0.095915191 -0.077048831 -0.23653492
0.095918573 -0.076968782 -0.23653904
0.095921874 -0.076890729 -0.23654318
0.095924847 -0.0768089 -0.23653725
0.095927544 -0.076729156 -0.23652735
0.095930822 -0.076649152 -0.23652947
0.095934398 -0.076569013 -0.23653756
0.09593761 -0.076491013 -0.23653972
0.095940381 -0.076409265 -0.2365298
0.095942788 -0.076329656 -0.23651391
0.095945679 -0.076249823 -0.23650804
0.095949546 -0.076169558 -0.23652211
0.095953144 -0.076091379 -0.23653226
0.095956206 -0.076009504 -0.23652831
0.095959105 -0.075929672 -0.23652242
0.095962405 -0.075851619 -0.23652658
0.095965788 -0.07577157 -0.23653068
0.095968872 -0.075691655 -0.23652878
0.095971867 -0.075611778 -0.23652491
0.095974855 -0.075531907 -0.23652101
0.095977746 -0.075452074 -0.23651512
0.095981129 -0.075372025 -0.23651922
0.095984407 -0.075292021 -0.23652132
0.095987596 -0.075212061 -0.23652142
0.095990777 -0.075132102 -0.23652154
0.095993377 -0.075052395 -0.23650965
0.095995858 -0.074970789 -0.23649374
0.095999241 -0.07489074 -0.23649783
0.096002936 -0.074812517 -0.23650998
0.096005924 -0.074732639 -0.23650607
0.096008815 -0.074652806 -0.2365002
0.096012101 -0.074572802 -0.23650229
0.096015483 -0.074492753 -0.2365064
0.096018471 -0.074412882 -0.2365025
0.09602166 -0.074332923 -0.23650262
0.09602455 -0.07425309 -0.23649673
0.096027635 -0.074173167 -0.23649484
0.096031114 -0.074093074 -0.23650093
0.096034005 -0.074013248 -0.23649505
0.096036606 -0.073933542 -0.23648317
0.096039601 -0.073853672 -0.23647928
0.096042588 -0.073773794 -0.23647539
0.096045382 -0.073694006 -0.23646751
0.096048668 -0.073614001 -0.23646961
0.096051753 -0.073534086 -0.23646772
0.09605474 -0.073454209 -0.23646381
0.096058026 -0.073374204 -0.23646593
0.096060917 -0.073294371 -0.23646004
0.096063711 -0.073214591 -0.23645216
0.09606719 -0.073134497 -0.23645827
0.096070595 -0.0730564 -0.23646441
0.096073851 -0.072974443 -0.23646447
0.096077159 -0.072896391 -0.23646861
0.096080437 -0.072816387 -0.23647071
0.096083336 -0.072736554 -0.23646483
0.096086517 -0.072656594 -0.23646495
0.096089996 -0.072576508 -0.23647103
0.096092887 -0.072496675 -0.23646516
0.096095487 -0.072416976 -0.23645326
0.096098773 -0.072336964 -0.23645537
0.096102253 -0.072256878 -0.23646146
0.096105434 -0.072176911 -0.23646156
0.096108228 -0.072097123 -0.23645368
0.096111029 -0.072017342 -0.2364458
0.096114695 -0.071937159 -0.23645589
0.096118003 -0.071859106 -0.23646004
0.096121088 -0.071779191 -0.23645815
0.096124567 -0.071699098 -0.23646425
0.096127458 -0.071619265 -0.23645836
0.096130155 -0.071539521 -0.23644848
0.096133053 -0.071459696 -0.2364426
0.096136138 -0.071379773 -0.2364407
0.096139617 -0.07129968 -0.2364468
0.096142896 -0.071219675 -0.23644891
0.096145689 -0.071139887 -0.23644102
0.09614861 -0.071062014 -0.23643717
0.096151985 -0.070981964 -0.23644128
0.096154876 -0.070902131 -0.23643538
0.096158162 -0.070822127 -0.2364375
0.096161641 -0.070742041 -0.23644359
0.096164823 -0.070662074 -0.2364437
0.096167132 -0.070582502 -0.23642583
0.096170023 -0.070502676 -0.23641995
0.096173599 -0.070422538 -0.23642804
0.096177004 -0.070344448 -0.23643418
0.096180379 -0.070264399 -0.23643827
0.096183762 -0.07018435 -0.23644239
0.096186951 -0.070104383 -0.23644248
0.096190132 -0.070024423 -0.2364426
0.096193023 -0.06994459 -0.23643671
0.096195936 -0.069866717 -0.23643285
0.096199006 -0.069784842 -0.23642893
0.096202016 -0.069706924 -0.23642708
0.096205689 -0.069626749 -0.23643717
0.096208975 -0.069546737 -0.23643927
0.096211769 -0.069466956 -0.23643139
0.096215054 -0.069386944 -0.23643351
0.096218236 -0.069306985 -0.2364336
0.096221127 -0.069227159 -0.23642771
0.096224412 -0.069147147 -0.23642981
0.096227422 -0.069069229 -0.23642796
0.096230492 -0.068987355 -0.23642403
0.096233398 -0.068909481 -0.23642018
0.09623649 -0.068829566 -0.23641831
0.096239671 -0.068749599 -0.23641841
0.096242957 -0.068669595 -0.23642051
0.096246049 -0.06858968 -0.23641862
0.096249327 -0.068509676 -0.23642072
0.096253 -0.068429492 -0.23643081
0.096256204 -0.068351485 -0.23643297
0.096259005 -0.068271697 -0.23642507
0.096261799 -0.068191916 -0.2364172
0.096264787 -0.068112038 -0.2364133
0.096267872 -0.068032123 -0.23641142
0.096270472 -0.067952417 -0.23639953
0.096273467 -0.067872547 -0.23639564
0.096277043 -0.067792408 -0.23640373
0.096280247 -0.067714401 -0.23640589
0.096283212 -0.067632571 -0.23639995
0.096285909 -0.067552827 -0.23639008
0.096288726 -0.067474999 -0.23638424
0.096292302 -0.06739486 -0.23639233
0.096295878 -0.067314722 -0.23640043
0.096298873 -0.067234851 -0.23639654
0.096301861 -0.067154974 -0.23639265
0.096304774 -0.0670771 -0.2363888
0.09630774 -0.066995271 -0.23638287
0.096310459 -0.066917479 -0.23637503
0.096313626 -0.066835567 -0.2363731
0.096317224 -0.066757381 -0.23638323
0.096320599 -0.066677339 -0.23638734
0.096323885 -0.066597328 -0.23638944
0.096327066 -0.066517368 -0.23638955
0.096329868 -0.06643758 -0.23638165
0.096332662 -0.066357791 -0.23637378
0.096335478 -0.066279963 -0.23636794
0.09633825 -0.066198222 -0.23635802
0.096341357 -0.066120252 -0.23635817
0.096345127 -0.066040032 -0.23637025
0.096348412 -0.065960027 -0.23637235
0.0963514 -0.065880157 -0.23636846
0.096354976 -0.065800019 -0.23637655
0.096358277 -0.065721966 -0.2363807
0.096361056 -0.065640226 -0.23637077
0.096363679 -0.065562479 -0.23636094
0.096366175 -0.065482825 -0.23634708
0.096369267 -0.065402903 -0.23634517
0.096373037 -0.065322682 -0.23635727
0.096377194 -0.065242283 -0.23637734
0.096380502 -0.065164238 -0.2363815
0.096383102 -0.065084532 -0.23636961
0.09638609 -0.065004662 -0.23636574
0.096389078 -0.064924784 -0.23636183
0.096391976 -0.064844951 -0.23635595
0.096395157 -0.064764991 -0.23635605
0.096398637 -0.064684898 -0.23636214
0.096402019 -0.064604849 -0.23636626
0.096404836 -0.06452702 -0.23636042
0.096407704 -0.064445235 -0.23635249
0.096411102 -0.064367138 -0.23635861
0.096414484 -0.064287089 -0.23636273
0.096417278 -0.064207301 -0.23635483
0.096419588 -0.064127736 -0.23633698
0.096421994 -0.064048119 -0.23632109
0.096424885 -0.063968286 -0.23631522
0.096428186 -0.063890241 -0.23631936
0.096431859 -0.063810058 -0.23632945
0.096435629 -0.063729838 -0.23634154
0.096439011 -0.063649788 -0.23634565
0.096441999 -0.063569911 -0.23634174
0.096445091 -0.063489996 -0.23633987
0.096448079 -0.063410118 -0.23633596
0.096451089 -0.0633322 -0.23633412
0.096454449 -0.063250199 -0.23633619
0.096457362 -0.063172325 -0.23633234
0.096460253 -0.063092493 -0.23632646
0.096463442 -0.063012533 -0.23632655
0.096466236 -0.062932745 -0.23631868
0.096469417 -0.062852778 -0.23631877
0.096472897 -0.062772691 -0.23632488
0.096475713 -0.062694855 -0.23631904
0.096478313 -0.062615156 -0.23630716
0.096481204 -0.062535323 -0.23630127
0.096484683 -0.062455233 -0.23630738
0.096487671 -0.062375359 -0.23630348
0.096490569 -0.062295526 -0.23629761
0.096493557 -0.062215652 -0.2362937
0.096496351 -0.062135864 -0.23628584
0.096499339 -0.06205599 -0.23628195
0.096502744 -0.061977897 -0.23628807
0.096506029 -0.061897893 -0.23629019
0.09650892 -0.06181806 -0.23628429
0.096511811 -0.06173823 -0.23627841
0.096515097 -0.061658226 -0.23628052
0.096518181 -0.061578307 -0.23627862
0.096520707 -0.061500601 -0.23626679
0.096523866 -0.061418686 -0.23626485
0.096527465 -0.061340507 -0.23627499
0.096530356 -0.061260674 -0.2362691
0.096533254 -0.061180845 -0.23626322
0.096536726 -0.061100751 -0.23626933
0.096540302 -0.061020616 -0.23627742
0.096543297 -0.060940742 -0.23627353
0.09654589 -0.060861044 -0.23626164
0.096548706 -0.060783207 -0.23625579
0.096552089 -0.060703158 -0.23625991
0.096555278 -0.060623199 -0.23626
0.096558653 -0.06054315 -0.23626411
0.096562527 -0.060462885 -0.23627821
0.096565612 -0.060382966 -0.2362763
0.096568212 -0.060303267 -0.23626444
0.096571393 -0.060223304 -0.23626453
0.096575171 -0.060143083 -0.23627663
0.096578352 -0.06006312 -0.23627673
0.096581072 -0.059985332 -0.23626888
0.096584156 -0.059905414 -0.236267
0.096587345 -0.05982545 -0.2362671
0.096590333 -0.059745576 -0.23626322
0.096592933 -0.059665877 -0.23625134
0.096595921 -0.059586003 -0.23624745
0.096599229 -0.059507951 -0.23625159
0.096602783 -0.059425861 -0.23625764
0.096606083 -0.059347808 -0.23626179
0.096609443 -0.059265807 -0.23626384
0.096612751 -0.059187755 -0.23626798
0.096616127 -0.05910771 -0.2362721
0.096619025 -0.059027877 -0.23626621
0.096621521 -0.058948219 -0.23625234
0.096624516 -0.058868345 -0.23624845
0.096627697 -0.058788385 -0.23624855
0.096630707 -0.058710463 -0.23624671
0.096633777 -0.058628593 -0.23624277
0.096636884 -0.058550626 -0.23624292
0.096640535 -0.058468495 -0.23625097
0.096643649 -0.058390532 -0.23625112
0.09664654 -0.058310702 -0.23624524
0.096649624 -0.05823078 -0.23624334
0.096652716 -0.058150865 -0.23624146
0.096655801 -0.058070946 -0.23623955
0.096658789 -0.057991073 -0.23623566
0.096662074 -0.057911068 -0.23623776
0.096665554 -0.057830974 -0.23624387
0.096668541 -0.057751101 -0.23623998
0.096671239 -0.057671357 -0.23623011
0.096674547 -0.057593305 -0.23623425
0.096678019 -0.057513215 -0.23624034
0.096681304 -0.05743321 -0.23624244
0.096684486 -0.057353247 -0.23624255
0.096687384 -0.057273418 -0.23623666
0.096690468 -0.057193499 -0.23623478
0.096693657 -0.057113536 -0.23623487
0.096696839 -0.057033576 -0.23623499
0.096699536 -0.056953833 -0.2362251
0.096702136 -0.05687413 -0.23621322
0.096705616 -0.05679404 -0.23621932
0.096709482 -0.056713771 -0.23623341
0.096712768 -0.056633767 -0.2362355
0.09671519 -0.056556109 -0.23622169
0.096717983 -0.056476321 -0.2362138
0.096721366 -0.056396272 -0.2362179
0.096724845 -0.056316182 -0.236224
0.096728422 -0.056236044 -0.2362321
0.096731409 -0.05615617 -0.2362282
0.09673401 -0.056076471 -0.23621632
0.096737199 -0.055996507 -0.23621643
0.096740678 -0.055916417 -0.23622252
0.096743569 -0.055836584 -0.23621663
0.096746363 -0.0557568 -0.23620877
0.096749939 -0.055676661 -0.23621684
0.096752927 -0.055596787 -0.23621297
0.096755743 -0.055518955 -0.23620713
0.096759394 -0.05543682 -0.23621517
0.096762873 -0.05535673 -0.23622127
0.096765965 -0.055276811 -0.23621938
0.096768387 -0.055199154 -0.23620555
0.096771277 -0.055119321 -0.23619966
0.096774757 -0.055039227 -0.23620576
0.096778139 -0.054959182 -0.23620985
0.096781202 -0.054877307 -0.23620592
0.096784413 -0.054799303 -0.23620808
0.096787594 -0.05471934 -0.23620817
0.096790686 -0.054639421 -0.23620628
0.096793771 -0.054559503 -0.23620439
0.096796855 -0.054479584 -0.23620249
0.096800044 -0.054399624 -0.2362026
0.096803032 -0.054319751 -0.23619871
0.09680593 -0.054239918 -0.23619282
0.096809208 -0.054159913 -0.23619494
0.096812688 -0.054079823 -0.23620103
0.096815869 -0.05399986 -0.23620114
0.096818961 -0.053919941 -0.23619924
0.096821949 -0.053840067 -0.23619536
0.096825138 -0.053760108 -0.23619546
0.096828222 -0.053680189 -0.23619357
0.096831411 -0.053600226 -0.23619367
0.096834689 -0.053520221 -0.23619577
0.096837685 -0.053440347 -0.23619188
0.096840672 -0.053360473 -0.23618799
0.096844152 -0.05328038 -0.2361941
0.096847236 -0.053200461 -0.23619221
0.09685003 -0.053120673 -0.23618433
0.096853219 -0.053040713 -0.23618442
0.096856505 -0.052960709 -0.23618653
0.096859589 -0.05288079 -0.23618464
0.096862972 -0.052800741 -0.23618874
0.096865587 -0.052722998 -0.2361789
0.09686856 -0.052641168 -0.23617297
0.096871942 -0.052561119 -0.23617707
0.096875221 -0.052481115 -0.23617917
0.096878313 -0.052401196 -0.2361773
0.096881591 -0.052321188 -0.23617938
0.096884489 -0.052241359 -0.23617351
0.096887298 -0.052163526 -0.23616767
0.096890658 -0.052081525 -0.23616973
0.096894041 -0.052001476 -0.23617381
0.096897326 -0.051921472 -0.23617592
0.096900314 -0.051841594 -0.23617202
0.096903302 -0.05176172 -0.23616815
0.096906394 -0.051681802 -0.23616624
0.096909575 -0.051601842 -0.23616634
0.096912764 -0.051521879 -0.23616646
0.096915849 -0.05144196 -0.23616457
0.096919037 -0.051362 -0.23616467
0.096922316 -0.051281996 -0.23616678
0.096925408 -0.051202077 -0.23616488
0.096928298 -0.051122248 -0.236159
0.096931189 -0.051042415 -0.2361531
0.096934378 -0.050962456 -0.23615322
0.096937656 -0.050882448 -0.23615532
0.096940942 -0.050802443 -0.23615742
0.096944228 -0.050722439 -0.23615952
0.096947685 -0.050640393 -0.23616357
0.096950598 -0.050562516 -0.23615974
0.096953489 -0.050482683 -0.23615384
0.096956573 -0.050402768 -0.23615196
0.096960053 -0.050322674 -0.23615804
0.096963413 -0.050240673 -0.2361601
0.096966036 -0.050162926 -0.23615026
0.09696883 -0.050083138 -0.2361424
0.09697172 -0.050003305 -0.2361365
0.096975006 -0.049923301 -0.23613861
0.096978284 -0.049843296 -0.2361407
0.096981473 -0.049763337 -0.23614082
0.096984737 -0.049681377 -0.23614088
0.096987456 -0.049603589 -0.23613304
0.09699025 -0.049523801 -0.23612516
0.096993625 -0.049443752 -0.23612925
0.096997283 -0.049361616 -0.2361373
0.097000465 -0.049281657 -0.23613741
0.09700346 -0.049201779 -0.23613352
0.097006641 -0.049121819 -0.23613362
0.097009823 -0.04904186 -0.23613372
0.097012915 -0.048961937 -0.23613183
0.097016096 -0.048881978 -0.23613194
0.097019657 -0.048799887 -0.23613799
0.097022839 -0.048719928 -0.23613811
0.097025171 -0.048642311 -0.23612227
0.097027302 -0.048564784 -0.23610246
0.097029999 -0.048485041 -0.23609257
0.097032987 -0.048405163 -0.23608869
0.097035781 -0.048325375 -0.2360808
0.097038381 -0.048245676 -0.23606892
0.097041391 -0.048167758 -0.23606709
0.097044751 -0.048085753 -0.23606913
0.09704794 -0.048005793 -0.23606923
0.097051024 -0.047925875 -0.23606735
0.097054116 -0.047845956 -0.23606546
0.097057395 -0.047765952 -0.23606756
0.097060487 -0.047686033 -0.23606567
0.097063474 -0.047606159 -0.23606178
0.097066559 -0.04752624 -0.23605987
0.097069748 -0.047446281 -0.23605999
0.097072735 -0.047366403 -0.23605609
0.097075626 -0.047286574 -0.23605022
0.097079009 -0.047206525 -0.23605432
0.097082369 -0.04712452 -0.23605636
0.097085655 -0.047044516 -0.23605847
0.097089425 -0.046964295 -0.23607056
0.097093545 -0.046879988 -0.23608655
0.097096629 -0.04680007 -0.23608465
0.097098865 -0.046722502 -0.23606683
0.097100995 -0.046644971 -0.23604703
0.097103789 -0.046565183 -0.23603913
0.097107269 -0.046485092 -0.23604523
0.09711092 -0.046402957 -0.23605327
0.097114004 -0.046323039 -0.23605138
0.097116798 -0.04624325 -0.23604351
0.097119614 -0.046165418 -0.23603766
