# .PCD v0.7 - Point Cloud Data file format
VERSION 0.7
FIELDS x y z
SIZE 4 4 4
TYPE F F F
COUNT 1 1 1
WIDTH 1294
HEIGHT 1
VIEWPOINT 0 0 0 1 0 0 0
POINTS 1294
DATA ascii
-0.11063816 -0.038483843 -0.24844021
-0.1106343 -0.038403578 -0.24845429
-0.11063083 -0.038323484 -0.24846038
-0.11062777 -0.03824161 -0.24845645
-0.11062521 -0.038158007 -0.24844047
-0.11062276 -0.038074441 -0.2484225
-0.11061969 -0.037992567 -0.24841857
-0.11061595 -0.037910387 -0.24842861
-0.11061298 -0.037828561 -0.24842268
-0.11061011 -0.037746772 -0.24841474
-0.11060616 -0.037666462 -0.24843082
-0.11060157 -0.037589803 -0.24846298
-0.11059719 -0.03751127 -0.24848908
-0.11059384 -0.037429269 -0.24849114
-0.11059128 -0.037345659 -0.24847516
-0.11058922 -0.037262268 -0.24844921
-0.11058626 -0.037180439 -0.24844328
-0.11058271 -0.037098348 -0.24844933
-0.11057953 -0.037018389 -0.24844941
-0.11057637 -0.036936469 -0.24844748
-0.11057331 -0.036854595 -0.24844354
-0.11056983 -0.036774509 -0.24844964
-0.11056657 -0.036692545 -0.24844968
-0.11056392 -0.036608893 -0.24843572
-0.11056105 -0.036527108 -0.24842779
-0.11055799 -0.036445234 -0.24842384
-0.11055483 -0.036363319 -0.24842191
-0.11055126 -0.03628318 -0.24843
-0.11054759 -0.036203004 -0.24844009
-0.11054434 -0.036121044 -0.24844015
-0.11054147 -0.036039259 -0.2484322
-0.11053831 -0.035957344 -0.24843027
-0.11053456 -0.035875164 -0.2484403
-0.11053119 -0.035795115 -0.24844441
-0.11052803 -0.035713203 -0.24844246
-0.11052526 -0.035631459 -0.24843255
-0.1105229 -0.035547934 -0.24841258
-0.11052015 -0.035464242 -0.2484006
-0.11051667 -0.035384148 -0.24840668
-0.11051323 -0.035302103 -0.24841075
-0.11051026 -0.035220273 -0.2484048
-0.11050718 -0.035140354 -0.24840291
-0.11050352 -0.035058219 -0.24841094
-0.11050035 -0.034978259 -0.24841106
-0.11049721 -0.034894388 -0.24840707
-0.11049383 -0.034814339 -0.24841116
-0.11049036 -0.034734245 -0.24841726
-0.11048691 -0.0346522 -0.24842131
-0.11048385 -0.034570329 -0.24841738
-0.11048108 -0.034488585 -0.24840742
-0.11047801 -0.034406714 -0.2484035
-0.11047464 -0.034326665 -0.2484076
-0.11047118 -0.034244616 -0.24841166
-0.11046842 -0.034162875 -0.24840172
-0.11046576 -0.034079224 -0.24838774
-0.11046258 -0.033999264 -0.24838784
-0.11045882 -0.033919036 -0.24839993
-0.11045505 -0.033838816 -0.24841201
-0.1104518 -0.033756852 -0.24841207
-0.11044864 -0.03367494 -0.24841014
-0.11044577 -0.033593155 -0.24840219
-0.11044319 -0.033511501 -0.24838828
-0.11044022 -0.033429671 -0.24838233
-0.11043685 -0.033349622 -0.24838643
-0.11043359 -0.033267662 -0.24838649
-0.11043034 -0.033185702 -0.24838653
-0.11042725 -0.033105783 -0.24838465
-0.1104238 -0.033023737 -0.24838869
-0.11042113 -0.032942042 -0.24837676
-0.11041838 -0.032858342 -0.24836479
-0.1104144 -0.032779988 -0.24838293
-0.11041005 -0.032699503 -0.24840698
-0.11040658 -0.032619409 -0.24841309
-0.11040331 -0.032537453 -0.24841313
-0.11039994 -0.032457404 -0.24841723
-0.11039708 -0.032375619 -0.2484093
-0.11039452 -0.032292008 -0.24839333
-0.11039146 -0.032210134 -0.24838939
-0.11038828 -0.032130174 -0.24838948
-0.11038512 -0.032048255 -0.24838755
-0.11038196 -0.031966344 -0.24838561
-0.11037878 -0.031886376 -0.24838571
-0.11037584 -0.031802595 -0.24837774
-0.11037266 -0.031722635 -0.24837783
-0.1103694 -0.031640675 -0.24837789
-0.11036623 -0.03155876 -0.24837595
-0.11036295 -0.031478755 -0.24837804
-0.1103598 -0.031396836 -0.2483761
-0.11035683 -0.031315006 -0.24837017
-0.11035367 -0.031233093 -0.24836822
-0.11035049 -0.031153129 -0.24836832
-0.11034682 -0.03107295 -0.24837841
-0.11034296 -0.030992685 -0.24839249
-0.11034029 -0.030910986 -0.24838057
-0.11033773 -0.030827377 -0.2483646
-0.11033446 -0.030747371 -0.24836671
-0.11033101 -0.030665327 -0.24837075
-0.11032843 -0.03058367 -0.24835682
-0.11032537 -0.030501798 -0.24835289
-0.11032189 -0.030421706 -0.24835898
-0.11031864 -0.030339748 -0.24835904
-0.11031565 -0.030259872 -0.24835515
-0.1103123 -0.030177869 -0.24835719
-0.11030904 -0.030095909 -0.24835725
-0.11030617 -0.030014124 -0.24834932
-0.11030309 -0.029934205 -0.24834743
-0.11029942 -0.029854026 -0.2483575
-0.11029587 -0.029771935 -0.24836355
-0.11029299 -0.029692102 -0.24835767
-0.11029033 -0.029608451 -0.24834369
-0.11028747 -0.029526666 -0.24833576
-0.11028409 -0.029446617 -0.24833986
-0.11028063 -0.029364571 -0.24834391
-0.11027716 -0.029284477 -0.24834999
-0.1102733 -0.029204212 -0.24836409
-0.11027012 -0.029124249 -0.24836418
-0.11026776 -0.029040728 -0.24834423
-0.11026519 -0.028959073 -0.2483303
-0.11026222 -0.028877243 -0.24832436
-0.11025935 -0.028795458 -0.24831644
-0.110256 -0.028713455 -0.24831849
-0.11025221 -0.028635185 -0.24833262
-0.11024876 -0.028553139 -0.24833666
-0.11024608 -0.028471442 -0.24832474
-0.11024363 -0.028387876 -0.24830678
-0.11024106 -0.028306223 -0.24829283
-0.11023758 -0.02822613 -0.24829894
-0.11023372 -0.028145863 -0.24831302
-0.11023036 -0.02806386 -0.24831507
-0.11022689 -0.027983768 -0.24832118
-0.11022283 -0.027903413 -0.24833924
-0.11021917 -0.027823232 -0.24834934
-0.11021601 -0.027741317 -0.24834739
-0.11021362 -0.02765975 -0.24832946
-0.11021066 -0.027577922 -0.24832353
-0.11020719 -0.027497828 -0.24832964
-0.11020371 -0.027417736 -0.24833572
-0.11020075 -0.027335908 -0.24832979
-0.11019808 -0.027254209 -0.24831787
-0.11019531 -0.027172467 -0.24830793
-0.11019225 -0.027090594 -0.24830399
-0.11018887 -0.027010545 -0.24830809
-0.1101851 -0.026930323 -0.24832016
-0.11018115 -0.026850011 -0.24833626
-0.11017728 -0.026769746 -0.24835034
-0.11017393 -0.026687741 -0.24835238
-0.11017135 -0.026606087 -0.24833846
-0.11016897 -0.026524521 -0.24832055
-0.11016591 -0.026442647 -0.2483166
-0.11016294 -0.026360817 -0.24831067
-0.11016037 -0.026279163 -0.24829674
-0.11015758 -0.026199376 -0.24828887
-0.11015461 -0.026117548 -0.24828291
-0.11015175 -0.026035763 -0.24827498
-0.11014818 -0.025955627 -0.24828309
-0.11014473 -0.025873579 -0.24828713
-0.11014184 -0.02579375 -0.24828124
-0.11013848 -0.025711745 -0.2482833
-0.110135 -0.025631653 -0.24828938
-0.11013205 -0.025549825 -0.24828345
-0.11012947 -0.025468171 -0.24826953
-0.1101265 -0.025386341 -0.2482636
-0.11012244 -0.025305986 -0.24828166
-0.1101179 -0.025225416 -0.24830973
-0.11011433 -0.025145279 -0.24831782
-0.11011117 -0.025063362 -0.24831587
-0.11010859 -0.024981707 -0.24830195
-0.11010641 -0.024900228 -0.24828005
-0.11010354 -0.024818443 -0.24827211
-0.11010038 -0.024736527 -0.24827015
-0.11009691 -0.024656434 -0.24827626
-0.11009324 -0.024576254 -0.24828635
-0.11008967 -0.024496119 -0.24829444
-0.11008612 -0.024414029 -0.24830049
-0.11008304 -0.02433411 -0.24829859
-0.11008007 -0.024252281 -0.24829265
-0.11007769 -0.024170713 -0.24827473
-0.11007551 -0.024089232 -0.24825282
-0.11007235 -0.024007317 -0.24825087
-0.11006819 -0.023926919 -0.24827096
-0.11006442 -0.023846695 -0.24828303
-0.11006125 -0.023766734 -0.24828315
-0.11005799 -0.023684774 -0.24828319
-0.11005483 -0.023602858 -0.24828126
-0.11005215 -0.023521163 -0.24826932
-0.11004946 -0.023441415 -0.24825945
-0.1100466 -0.023359632 -0.24825151
-0.11004373 -0.023277847 -0.24824357
-0.11004065 -0.023197928 -0.24824168
-0.11003749 -0.023116011 -0.24823974
-0.11003462 -0.023034226 -0.2482318
-0.11003144 -0.022954265 -0.24823192
-0.11002769 -0.022872087 -0.24824195
-0.11002412 -0.022791952 -0.24825004
-0.11002056 -0.022711817 -0.24825813
-0.11001652 -0.022629507 -0.24827416
-0.11001314 -0.022549458 -0.24827826
-0.11001144 -0.022468196 -0.24824637
-0.11001103 -0.022385545 -0.24818645
-0.11000897 -0.022302154 -0.2481605
-0.1100051 -0.022221889 -0.24817458
-0.11000083 -0.022143401 -0.24819869
-0.10999621 -0.02206083 -0.24822672
-0.10999215 -0.021980477 -0.24824479
-0.10998867 -0.021900386 -0.24825087
-0.10998571 -0.021818556 -0.24824494
-0.10998302 -0.021738812 -0.24823508
-0.10998005 -0.021656983 -0.24822913
-0.10997651 -0.021574892 -0.24823517
-0.10997313 -0.021494843 -0.24823928
-0.10996958 -0.021412754 -0.24824531
-0.10996689 -0.021333009 -0.24823543
-0.10996521 -0.021249793 -0.24820149
-0.10996252 -0.02117005 -0.24819161
-0.10995838 -0.021087699 -0.24820963
-0.1099553 -0.02100778 -0.24820775
-0.10995241 -0.020927949 -0.24820185
-0.10994837 -0.02084564 -0.24821788
-0.10994422 -0.020765243 -0.24823797
-0.10994067 -0.020683153 -0.24824402
-0.10993768 -0.020603277 -0.24824011
-0.10993472 -0.020521449 -0.24823418
-0.10993244 -0.020439925 -0.24821427
-0.10993033 -0.020360442 -0.2481924
-0.10992717 -0.020278526 -0.24819045
-0.10992321 -0.020198217 -0.24820653
-0.10991956 -0.020116081 -0.24821457
-0.10991599 -0.020035945 -0.24822268
-0.10991273 -0.019953987 -0.24822274
-0.10991026 -0.019872375 -0.24820679
-0.10990785 -0.019792762 -0.24819094
-0.10990459 -0.019710803 -0.24819098
-0.10990054 -0.019630449 -0.24820906
-0.10989658 -0.019550137 -0.24822514
-0.10989293 -0.019468006 -0.2482332
-0.10989026 -0.019386306 -0.24822125
-0.10988766 -0.019306606 -0.24820937
-0.10988402 -0.019224472 -0.24821742
-0.10988171 -0.019144904 -0.24819955
-0.10987975 -0.019061554 -0.2481716
-0.10987549 -0.018981114 -0.24819368
-0.10987163 -0.018900847 -0.24820775
-0.10986925 -0.01881928 -0.24818984
-0.10986686 -0.018737713 -0.24817191
-0.10986408 -0.018657925 -0.24816403
-0.10986023 -0.018575704 -0.24817607
-0.10985657 -0.018495524 -0.24818616
-0.10985389 -0.018413827 -0.24817422
-0.1098514 -0.018334169 -0.24816035
-0.10984746 -0.018251905 -0.24817437
-0.10984389 -0.018171769 -0.24818248
-0.10984102 -0.018089984 -0.24817455
-0.10983767 -0.018007981 -0.2481766
-0.1098338 -0.017927714 -0.24819067
-0.10983045 -0.017845711 -0.24819273
-0.10982765 -0.017765922 -0.24818483
-0.10982528 -0.017684355 -0.24816692
-0.10982358 -0.017603094 -0.24813503
-0.10982011 -0.017523 -0.24814111
-0.10981685 -0.017441042 -0.24814117
-0.10981396 -0.017361211 -0.24813528
-0.1098102 -0.017280987 -0.24814737
-0.10980635 -0.017198766 -0.24815941
-0.10980278 -0.017118629 -0.2481675
-0.10979923 -0.017036539 -0.24817353
-0.10979588 -0.016954536 -0.24817559
-0.10979299 -0.016874705 -0.24816971
-0.10978992 -0.016792832 -0.24816577
-0.10978664 -0.016712828 -0.24816787
-0.10978359 -0.016630955 -0.24816394
-0.10978099 -0.016551254 -0.24815205
-0.10977802 -0.016469426 -0.24814612
-0.10977389 -0.016387073 -0.24816415
-0.10976963 -0.016306633 -0.24818622
-0.10976667 -0.016224803 -0.24818027
-0.10976427 -0.01614519 -0.24816442
-0.10976189 -0.016063623 -0.24814647
-0.10975949 -0.01598401 -0.2481306
-0.10975623 -0.01590205 -0.24813066
-0.1097522 -0.015819741 -0.24814671
-0.10974862 -0.015739607 -0.24815479
-0.10974564 -0.015659731 -0.24815089
-0.10974258 -0.015577859 -0.24814695
-0.10973893 -0.015495725 -0.248155
-0.10973487 -0.015415371 -0.24817309
-0.10973211 -0.01533363 -0.24816315
-0.10973068 -0.015254453 -0.24812731
-0.10972878 -0.015173103 -0.2480994
-0.10972746 -0.015093969 -0.24806157
-0.10972547 -0.015012576 -0.24803564
-0.10972124 -0.014930181 -0.24805567
-0.10971562 -0.014849129 -0.2481057
-0.10971139 -0.014766734 -0.24812573
-0.1097083 -0.014686815 -0.24812384
-0.10970534 -0.014604987 -0.24811789
-0.10970215 -0.014525025 -0.248118
-0.10969871 -0.014442978 -0.24812204
-0.10969545 -0.014361018 -0.24812211
-0.10969188 -0.014280883 -0.2481302
-0.10968833 -0.014198792 -0.24813625
-0.10968544 -0.014118961 -0.24813035
-0.10968208 -0.014036958 -0.24813241
-0.10967834 -0.013954781 -0.24814245
-0.10967477 -0.013874644 -0.24815054
-0.10967151 -0.013792684 -0.24815059
-0.10966862 -0.013712854 -0.2481447
-0.10966586 -0.013631112 -0.24813476
-0.10966326 -0.013551412 -0.2481229
-0.10966039 -0.013469626 -0.24811497
-0.10965772 -0.013387928 -0.24810304
-0.10965513 -0.013308228 -0.24809116
-0.10965145 -0.013228049 -0.24810123
-0.10964742 -0.01314574 -0.24811727
-0.10964397 -0.013063693 -0.24812132
-0.10964061 -0.01298169 -0.24812338
-0.10963753 -0.012901772 -0.24812147
-0.10963444 -0.012821854 -0.24811959
-0.10963119 -0.012739894 -0.24811965
-0.10962813 -0.012658021 -0.2481157
-0.10962553 -0.012578322 -0.24810383
-0.10962315 -0.012496754 -0.24808592
-0.10962085 -0.012417184 -0.24806803
-0.10961895 -0.012335835 -0.24804014
-0.10961685 -0.012256353 -0.24801826
-0.10961252 -0.012173913 -0.24804029
-0.10960778 -0.012093255 -0.24807234
-0.10960422 -0.012011165 -0.24807839
-0.10960068 -0.011929074 -0.24808443
-0.10959645 -0.011846678 -0.24810447
-0.10959326 -0.011766717 -0.24810456
-0.1095904 -0.011684932 -0.24809663
-0.10958761 -0.011605144 -0.24808875
-0.10958484 -0.011523402 -0.24807882
-0.10958166 -0.011443441 -0.24807891
-0.1095785 -0.011361524 -0.24807698
-0.1095759 -0.011281824 -0.24806508
-0.10957254 -0.011199821 -0.24806714
-0.10956889 -0.011117687 -0.24807519
-0.10956562 -0.011037681 -0.24807729
-0.10956197 -0.010955548 -0.24808532
-0.10955862 -0.010873545 -0.24808738
-0.10956272 -0.0097149387 -0.24704285
-0.1095608 -0.0096355435 -0.24701698
-0.10956326 -0.0095600635 -0.2469033
-0.10956328 -0.0094834939 -0.24683954
-0.10955904 -0.0094010988 -0.24685957
-0.10957667 -0.0093461424 -0.24644664
-0.1095732 -0.0092660496 -0.24645273
-0.10959075 -0.0092090955 -0.24603976
-0.1095958 -0.0091387015 -0.24587624
-0.10964004 -0.0091152741 -0.24493453
-0.10963704 -0.009037354 -0.24493268
-0.10985637 -0.009231572 -0.24052133
-0.10985268 -0.0091533465 -0.24053346
-0.10984823 -0.0090728179 -0.24055952
-0.11013082 -0.0092815533 -0.23484169
-0.11012796 -0.0092076296 -0.23483995
-0.11024611 -0.0092859464 -0.23244199
-0.11024576 -0.0092170639 -0.2323924
-0.11024901 -0.0091497935 -0.23226891
-0.11025097 -0.0090839118 -0.23217344
-0.11025129 -0.0090153348 -0.23210986
-0.11025348 -0.0089475857 -0.23200835
-0.11025564 -0.0088817906 -0.23190889
-0.11025432 -0.0088105183 -0.23187721
-0.11025282 -0.0087391585 -0.23184955
-0.11025392 -0.0086709298 -0.23177001
-0.11025464 -0.008602526 -0.23169845
-0.11025399 -0.0085335132 -0.23165485
-0.11025432 -0.0084649362 -0.23159128
-0.11025532 -0.0083966646 -0.23151372
-0.11025555 -0.0083280429 -0.23145217
-0.1102552 -0.0082591604 -0.23140258
-0.11025438 -0.0081881061 -0.23136091
-0.110255 -0.0081196595 -0.23129135
-0.11025637 -0.008053516 -0.23120786
-0.11025736 -0.0079871984 -0.23113236
-0.11025739 -0.007918491 -0.23107478
-0.11025665 -0.0078494335 -0.23103318
-0.11025785 -0.0077812485 -0.23095164
-0.11025796 -0.0077145388 -0.23089412
-0.11025829 -0.0076459609 -0.23083055
-0.11025928 -0.0075796433 -0.23075503
-0.11025941 -0.0075109787 -0.23069546
-0.11025809 -0.0074397065 -0.23066381
-0.11025666 -0.0073703444 -0.23063618
-0.11025602 -0.0073013315 -0.23059258
-0.11025605 -0.0072326232 -0.230535
-0.11025511 -0.007163479 -0.23049739
-0.11025427 -0.0070943786 -0.2304578
-0.11025391 -0.007025497 -0.23040819
-0.11025238 -0.0069560912 -0.23038258
-0.11025078 -0.0068846885 -0.2303569
-0.11024925 -0.0068152826 -0.23033129
-0.11024601 -0.0067411838 -0.23033753
-0.11024246 -0.0066689104 -0.23035179
-0.11023968 -0.0065969825 -0.23035008
-0.11023682 -0.0065230578 -0.23034833
-0.11023357 -0.0064509148 -0.2303566
-0.11022934 -0.0063763801 -0.23038283
-0.11022542 -0.0063019767 -0.23040304
-0.1102214 -0.0062275287 -0.23042525
-0.11021767 -0.0061532119 -0.23044147
-0.11021461 -0.0060811564 -0.23044577
-0.11021051 -0.0060047107 -0.23046793
-0.1102057 -0.0059299143 -0.23050612
-0.11020227 -0.0058557289 -0.23051634
-0.11019998 -0.0057840198 -0.23050466
-0.1101972 -0.0057120938 -0.23050296
-0.11019414 -0.0056400374 -0.23050724
-0.11019224 -0.0055685025 -0.23048756
-0.1101912 -0.0054993145 -0.23045194
-0.11019055 -0.0054303017 -0.23040836
-0.11019027 -0.0053634178 -0.23035881
-0.11019222 -0.0052994899 -0.23026538
-0.1101934 -0.0052332589 -0.23018587
-0.11019246 -0.0051641166 -0.23014826
-0.11019093 -0.0050947107 -0.23012266
-0.11018901 -0.0050251307 -0.23010501
-0.11018577 -0.0049510319 -0.23011124
-0.11018185 -0.0048766285 -0.23013146
-0.11017811 -0.0048023118 -0.23014769
-0.11017448 -0.0047280388 -0.23016192
-0.11017112 -0.0046558511 -0.23017219
-0.11016779 -0.0045817094 -0.23018041
-0.11016415 -0.0045074364 -0.23019464
-0.11016148 -0.0044355541 -0.23019095
-0.11015937 -0.0043658866 -0.23017731
-0.11015678 -0.0042940471 -0.23017161
-0.1101544 -0.0042222952 -0.23016191
-0.11015211 -0.0041505862 -0.23015022
-0.11015002 -0.0040789656 -0.23013455
-0.1101484 -0.0040095169 -0.23011091
-0.11014792 -0.0039425455 -0.23006538
-0.11014766 -0.0038737068 -0.23001377
-0.11014546 -0.0038039964 -0.23000214
-0.11014201 -0.00372981 -0.23001236
-0.11013858 -0.0036556246 -0.23002258
-0.11013485 -0.0035813078 -0.23003882
-0.11013246 -0.0035095559 -0.23002912
-0.11013141 -0.0034423228 -0.22999555
-0.11013027 -0.003373092 -0.22996195
-0.11012894 -0.0033037737 -0.22993232
-0.11012722 -0.0032342803 -0.2299107
-0.11012608 -0.0031650495 -0.22987708
-0.11012484 -0.0030957758 -0.22984546
-0.11012352 -0.0030264575 -0.22981584
-0.11012238 -0.0029572267 -0.22978224
-0.11012094 -0.0028878646 -0.22975461
-0.11011922 -0.0028183721 -0.22973299
-0.11011684 -0.0027466193 -0.2297233
-0.11011387 -0.0026746057 -0.22972558
-0.11011063 -0.0026005078 -0.22973183
-0.11010756 -0.0025284514 -0.2297361
-0.11010508 -0.0024566548 -0.2297284
-0.11010365 -0.0023872936 -0.22970079
-0.11010163 -0.0023176698 -0.22968516
-0.11009905 -0.0022458313 -0.22967945
-0.11009743 -0.0021763816 -0.22965583
-0.11009583 -0.002104979 -0.22963016
-0.110094 -0.0020354427 -0.22961052
-0.11009275 -0.001968123 -0.22958094
-0.11009161 -0.0018988904 -0.22954735
-0.11009114 -0.0018319199 -0.2295018
-0.11009037 -0.0017648172 -0.22946224
-0.11008924 -0.0016955873 -0.22942862
-0.11008856 -0.0016285283 -0.22938707
-0.11008731 -0.0015612077 -0.22935751
-0.11008549 -0.0014916714 -0.22933787
-0.11008406 -0.0014223093 -0.22931024
-0.11008283 -0.0013530347 -0.22927864
-0.11008111 -0.0012835432 -0.229257
-0.11007889 -0.0012138318 -0.22924536
-0.11007612 -0.0011419058 -0.22924365
-0.11007317 -0.0010679383 -0.2292439
-0.1100704 -0.00099601224 -0.22924221
-0.11006762 -0.0009240862 -0.22924049
-0.11006446 -0.00085198507 -0.22924677
-0.11006112 -0.00077784248 -0.22925501
-0.11005768 -0.00070365705 -0.22926524
-0.11005366 -0.00062920898 -0.22928745
-0.11005022 -0.00055502355 -0.22929768
-0.11004659 -0.00048075058 -0.2293119
-0.1100421 -0.00040413067 -0.22934206
-0.11003827 -0.00032977015 -0.22936028
-0.11003511 -0.00025766902 -0.22936657
-0.11003196 -0.00018361583 -0.2293708
-0.11002862 -0.00010947324 -0.22937903
-0.1100249 -3.5157427e-05 -0.22939526
-0.11002156 3.8985163e-05 -0.2294035
-0.11001945 0.00010865182 -0.22938985
-0.11001735 0.00018027425 -0.22937417
-0.11001468 0.00025215559 -0.22937047
-0.11001161 0.00032421201 -0.22937475
-0.11000864 0.00039622746 -0.22937703
-0.11000539 0.00047032535 -0.22938327
-0.11000139 0.00054672733 -0.22940344
-0.10999727 0.00062121637 -0.22942765
-0.1099944 0.00069318898 -0.22942795
-0.10999126 0.00076724216 -0.2294322
-0.10998829 0.00083925761 -0.22943448
-0.1099859 0.00091100857 -0.22942477
-0.10998323 0.00098288991 -0.22942108
-0.10998016 0.0010549482 -0.22942537
-0.10997731 0.001128871 -0.22942361
-0.10997463 0.0012007561 -0.22941992
-0.10997215 0.0012725499 -0.22941221
-0.10996957 0.0013443921 -0.22940651
-0.10996631 0.0014165342 -0.22941479
-0.1099624 0.0014928915 -0.22943297
-0.10995878 0.0015671663 -0.22944719
-0.10995477 0.0016435664 -0.22946736
-0.10995009 0.001720272 -0.22950152
-0.10994721 0.0017922446 -0.22950181
-0.10994513 0.0018638652 -0.22948611
-0.10994254 0.0019357018 -0.22948042
-0.10993977 0.0020076297 -0.22947872
-0.109937 0.0020795558 -0.22947702
-0.10993385 0.0021536108 -0.22948125
-0.10993183 0.0022232346 -0.2294656
-0.10993021 0.0022926833 -0.22944197
-0.1099265 0.0023689531 -0.22945616
-0.10992172 0.0024457052 -0.22949231
-0.10991838 0.0025198478 -0.22950053
-0.10991639 0.0025914256 -0.22948286
-0.10991447 0.0026610047 -0.22946522
-0.10991103 0.0027351901 -0.22947544
-0.10990789 0.0028092451 -0.22947969
-0.10990578 0.0028789137 -0.22946605
-0.10990359 0.0029505752 -0.22945237
-0.10990071 0.0030225478 -0.22945264
-0.10989711 0.0030987747 -0.22946483
-0.10989433 0.0031706989 -0.22946313
-0.10989146 0.0032426715 -0.22946343
-0.10988821 0.0033167675 -0.22946966
-0.10988544 0.0033886954 -0.22946796
-0.10988268 0.0034625754 -0.2294642
-0.10987839 0.0035391077 -0.22949037
-0.1098738 0.0036157705 -0.2295225
-0.10987039 0.0036919117 -0.22953069
-0.10986722 0.003764011 -0.22953698
-0.10986494 0.0038357191 -0.2295253
-0.10986302 0.0039053001 -0.22950765
-0.10986017 0.0039792247 -0.2295059
-0.10985683 0.0040533673 -0.22951414
-0.10985376 0.0041254237 -0.22951841
-0.10985081 0.0041993894 -0.22951867
-0.10984833 0.0042711869 -0.22951096
-0.10984536 0.0043432005 -0.22951326
-0.10984099 0.0044217296 -0.22953936
-0.10983746 0.0044959597 -0.2295516
-0.10983488 0.0045678001 -0.22954589
-0.10983258 0.0046395082 -0.22953421
-0.10982981 0.0047114342 -0.22953251
-0.10982696 0.004785357 -0.22953075
-0.10982485 0.0048550237 -0.22951712
-0.10982229 0.004928818 -0.22950937
-0.10981885 0.0050030053 -0.22951961
-0.10981571 0.0050770603 -0.22952384
-0.10981313 0.0051488969 -0.22951813
-0.10981055 0.0052207373 -0.22951244
-0.1098078 0.0052946191 -0.22950868
-0.10980539 0.005364418 -0.22950104
-0.1098032 0.0054360796 -0.22948736
-0.10980015 0.0055100918 -0.22948959
-0.10979539 0.0055887979 -0.22952369
-0.10979139 0.005665198 -0.22954386
-0.10978834 0.0057392083 -0.2295461
-0.10978586 0.0058110058 -0.22953841
-0.10978319 0.005882889 -0.22953472
-0.10977995 0.0059569851 -0.22954094
-0.1097768 0.006031042 -0.22954518
-0.10977405 0.0061049219 -0.22954142
-0.10977174 0.0061746761 -0.22953179
-0.10976918 0.0062484685 -0.22952405
-0.10976621 0.0063204821 -0.22952633
-0.1097627 0.0063966662 -0.2295365
-0.10975803 0.0064753275 -0.22956862
-0.10975413 0.0065516867 -0.22958679
-0.10975099 0.0066257399 -0.22959103
-0.10974804 0.0066997092 -0.22959128
-0.10974509 0.0067736767 -0.22959152
-0.10974231 0.0068456028 -0.22958982
-0.10973953 0.0069175288 -0.22958812
-0.10973735 0.0069891941 -0.22957441
-0.10973497 0.0070609469 -0.22956473
-0.10973162 0.0071350876 -0.22957297
-0.10972848 0.0072091427 -0.22957718
-0.10972543 0.0072831549 -0.22957945
-0.10972248 0.0073571224 -0.22957969
-0.10971971 0.0074290503 -0.22957797
-0.10971543 0.0075075366 -0.2296021
-0.10971067 0.0075862408 -0.22963619
-0.1107415 -0.041098475 -0.24845809
-0.11073834 -0.041016564 -0.24845615
-0.11073569 -0.040932909 -0.24844217
-0.11073425 -0.040845871 -0.24840015
-0.1107316 -0.04076222 -0.24838617
-0.11072662 -0.040685385 -0.24842632
-0.11072163 -0.0406105 -0.24846849
-0.11071745 -0.040532053 -0.24849063
-0.11071439 -0.040450182 -0.24848668
-0.11071275 -0.040363055 -0.24844864
-0.11071032 -0.040277537 -0.24842864
-0.11070553 -0.040200785 -0.24846478
-0.11070095 -0.040124126 -0.24849695
-0.1106988 -0.040038735 -0.24847093
-0.11069828 -0.03994818 -0.24840684
-0.1106957 -0.039866522 -0.24839291
-0.11069247 -0.03978261 -0.24839091
-0.1106896 -0.039700825 -0.248383
-0.11068623 -0.039620776 -0.24838708
-0.11068166 -0.039542161 -0.2484172
-0.11067778 -0.039463848 -0.24843332
-0.11067503 -0.039380148 -0.24842136
-0.11067238 -0.0392965 -0.24840738
-0.11066912 -0.039214537 -0.24840744
-0.11066606 -0.039132666 -0.24840349
-0.11066289 -0.03905075 -0.24840155
-0.11065903 -0.038970482 -0.24841563
-0.11065546 -0.038890347 -0.24842373
-0.1106526 -0.038808562 -0.2484158
-0.11064934 -0.038726605 -0.24841586
-0.11064557 -0.038646378 -0.24842793
-0.11064212 -0.038564336 -0.24843198
-0.11063845 -0.038484152 -0.24844208
-0.11063466 -0.038405884 -0.24845621
-0.11063112 -0.038323794 -0.24846224
-0.11062815 -0.038241964 -0.2484563
-0.1106255 -0.038158312 -0.24844234
-0.11062294 -0.038074702 -0.24842638
-0.11061998 -0.037992872 -0.24842045
-0.11061633 -0.037910741 -0.24842848
-0.11061337 -0.037828915 -0.24842255
-0.1106105 -0.037747126 -0.24841461
-0.11060654 -0.037666813 -0.2484307
-0.11060195 -0.037590154 -0.24846284
-0.11059758 -0.037511624 -0.24848895
-0.11059423 -0.03742962 -0.24849102
-0.11059158 -0.037345968 -0.24847704
-0.1105895 -0.037262578 -0.24845108
-0.11058654 -0.037180744 -0.24844514
-0.11058299 -0.037098657 -0.24845119
-0.11057981 -0.037018694 -0.24845129
-0.11057675 -0.036936823 -0.24844736
-0.11057369 -0.036854949 -0.24844342
-0.11057024 -0.036772903 -0.24844746
-0.11056696 -0.036692895 -0.24844956
-0.11056431 -0.036609244 -0.24843559
-0.11056144 -0.036527462 -0.24842766
-0.11055838 -0.036445588 -0.24842373
-0.11055522 -0.036363669 -0.24842179
-0.11055164 -0.036283534 -0.24842986
-0.11054797 -0.036203355 -0.24843995
-0.11054472 -0.036121394 -0.24844001
-0.11054185 -0.036039609 -0.24843207
-0.11053869 -0.035957694 -0.24843013
-0.11053494 -0.035875518 -0.24844018
-0.11053157 -0.035795469 -0.24844427
-0.11052841 -0.035713553 -0.24844232
-0.11052554 -0.035631768 -0.24843439
-0.11052318 -0.035548247 -0.24841443
-0.11052044 -0.035464548 -0.24840246
-0.11051696 -0.035384454 -0.24840856
-0.11051351 -0.035302408 -0.24841261
-0.11051064 -0.035220623 -0.24840468
-0.11050746 -0.035140663 -0.24840477
-0.11050391 -0.035058573 -0.24841082
-0.11050063 -0.034978569 -0.24841292
-0.11049749 -0.034894697 -0.24840894
-0.11049421 -0.034814693 -0.24841103
-0.11049074 -0.034734599 -0.24841714
-0.11048739 -0.034652594 -0.24841918
-0.11048423 -0.034570679 -0.24841724
-0.11048146 -0.034488939 -0.2484073
-0.11047839 -0.034407064 -0.24840337
-0.11047502 -0.034327015 -0.24840747
-0.11047147 -0.034244925 -0.24841352
-0.1104688 -0.034163229 -0.24840158
-0.11046614 -0.034079574 -0.2483876
-0.11046296 -0.033999614 -0.24838772
-0.1104592 -0.03391939 -0.24839979
-0.11045543 -0.033839166 -0.24841188
-0.11045208 -0.033757161 -0.24841394
-0.11044902 -0.033675291 -0.24841
-0.11044615 -0.033593506 -0.24840206
-0.11044357 -0.033511851 -0.24838814
-0.11044061 -0.033430025 -0.24838221
-0.11043723 -0.033349976 -0.24838629
-0.11043388 -0.033267971 -0.24838835
-0.11043072 -0.033186056 -0.24838641
-0.11042754 -0.033106096 -0.24838652
-0.11042418 -0.033024088 -0.24838856
-0.11042151 -0.032942392 -0.24837664
-0.11041876 -0.032858696 -0.24836466
-0.11041478 -0.032780342 -0.24838279
-0.11041043 -0.032699853 -0.24840686
-0.11040676 -0.032619674 -0.24841695
-0.11040358 -0.032539714 -0.24841705
-0.11040022 -0.032457709 -0.24841911
-0.11039755 -0.032376014 -0.24840719
-0.1103949 -0.032292359 -0.24839321
-0.11039184 -0.032210484 -0.24838926
-0.11038856 -0.03213048 -0.24839136
-0.1103855 -0.032048609 -0.24838743
-0.11038224 -0.031966649 -0.24838749
-0.11037906 -0.031886689 -0.24838758
-0.11037621 -0.031802945 -0.24837761
-0.11037304 -0.031722985 -0.24837771
-0.11036977 -0.031641025 -0.24837776
-0.11036661 -0.03155911 -0.24837582
-0.11036333 -0.031479105 -0.24837792
-0.11036008 -0.031397145 -0.24837798
-0.11035721 -0.03131536 -0.24837004
-0.11035405 -0.031233445 -0.2483681
-0.11035077 -0.031153439 -0.2483702
-0.1103472 -0.031073302 -0.24837828
-0.11034334 -0.030993037 -0.24839237
-0.11034067 -0.030911338 -0.24838045
-0.11033821 -0.030827774 -0.24836248
-0.11033493 -0.030747766 -0.24836457
-0.11033139 -0.030665677 -0.24837062
-0.11032881 -0.030584022 -0.2483567
-0.11032575 -0.03050215 -0.24835277
-0.11032218 -0.030422013 -0.24836086
-0.11031891 -0.030340055 -0.2483609
-0.11031593 -0.030260179 -0.24835703
-0.11031258 -0.030178176 -0.24835907
-0.1103095 -0.030098258 -0.24835718
-0.11030655 -0.030014474 -0.24834919
-0.11030347 -0.029934557 -0.24834731
-0.1102998 -0.029854376 -0.24835739
-0.11029625 -0.029772287 -0.24836344
-0.11029336 -0.029692456 -0.24835753
-0.11029071 -0.029608803 -0.24834356
-0.11028785 -0.029527018 -0.24833563
-0.11028446 -0.029446969 -0.24833974
-0.11028092 -0.029364878 -0.24834579
-0.11027754 -0.029284829 -0.24834988
-0.11027367 -0.029204562 -0.24836397
-0.1102705 -0.029124603 -0.24836406
-0.11026824 -0.029041123 -0.2483421
-0.11026566 -0.028959468 -0.24832818
-0.1102626 -0.028877595 -0.24832425
-0.11025983 -0.028795853 -0.24831431
-0.11025637 -0.028713807 -0.24831837
-0.11025259 -0.028635539 -0.2483325
-0.11024914 -0.028553491 -0.24833654
-0.11024637 -0.028471749 -0.2483266
-0.11024391 -0.028388184 -0.24830863
-0.11024144 -0.028306574 -0.24829271
-0.11023796 -0.02822648 -0.24829882
-0.11023419 -0.028146259 -0.24831089
-0.11023074 -0.028064212 -0.24831495
-0.11022727 -0.02798412 -0.24832104
-0.11022321 -0.027903765 -0.24833912
-0.11021954 -0.027823584 -0.24834922
-0.11021638 -0.027741669 -0.24834727
-0.110214 -0.027660102 -0.24832934
-0.11021104 -0.027578272 -0.24832341
-0.11020747 -0.027498137 -0.2483315
-0.110204 -0.027418043 -0.2483376
-0.11020113 -0.027336258 -0.24832967
-0.11019855 -0.027254604 -0.24831575
-0.11019568 -0.027172819 -0.24830779
-0.11019262 -0.027090946 -0.24830386
-0.11018924 -0.027010897 -0.24830796
-0.11018548 -0.026930675 -0.24832004
-0.11018142 -0.02685032 -0.24833813
-0.11017766 -0.026770096 -0.24835022
-0.1101742 -0.02668805 -0.24835426
-0.11017173 -0.026606439 -0.24833834
-0.11016935 -0.026524872 -0.24832043
-0.11016628 -0.026442999 -0.24831648
-0.11016332 -0.026361171 -0.24831054
-0.11016075 -0.026279517 -0.24829662
-0.11015776 -0.026199641 -0.24829273
-0.11015499 -0.026117899 -0.24828279
-0.11015203 -0.026036071 -0.24827686
-0.11014855 -0.025955979 -0.24828295
-0.1101451 -0.025873933 -0.24828699
-0.11014221 -0.0257941 -0.24828112
-0.11013895 -0.025712142 -0.24828118
-0.11013538 -0.025632005 -0.24828926
-0.11013232 -0.025550133 -0.24828532
-0.11012984 -0.025468521 -0.24826941
-0.11012688 -0.025386693 -0.24826346
-0.11012282 -0.02530634 -0.24828154
-0.11011828 -0.025225766 -0.24830961
-0.1101147 -0.025145631 -0.24831769
-0.11011154 -0.025063716 -0.24831575
-0.11010887 -0.024982017 -0.24830383
-0.11010668 -0.024900537 -0.24828191
-0.11010392 -0.024818795 -0.24827199
-0.11010066 -0.024736835 -0.24827203
-0.11009728 -0.024656786 -0.24827614
-0.11009362 -0.024576606 -0.24828622
-0.11009005 -0.02449647 -0.24829432
-0.11008649 -0.024414379 -0.24830037
-0.11008331 -0.02433442 -0.24830046
-0.11008035 -0.02425259 -0.24829453
-0.11007797 -0.024171021 -0.24827661
-0.11007588 -0.024089586 -0.2482527
-0.11007263 -0.024007626 -0.24825275
-0.11006857 -0.023927271 -0.24827084
-0.11006471 -0.023847004 -0.24828491
-0.11006162 -0.023767086 -0.24828301
-0.11005837 -0.023685127 -0.24828307
-0.1100552 -0.02360321 -0.24828114
-0.11005253 -0.023521513 -0.2482692
-0.11004984 -0.023441769 -0.24825932
-0.11004697 -0.023359984 -0.24825139
-0.11004411 -0.023278199 -0.24824345
-0.11004102 -0.02319828 -0.24824156
-0.11003777 -0.02311632 -0.24824162
-0.11003499 -0.02303458 -0.24823168
-0.11003172 -0.022954574 -0.2482338
-0.11002807 -0.022872439 -0.24824183
-0.11002459 -0.022792347 -0.24824792
-0.11002085 -0.022710169 -0.24825796
-0.11001699 -0.022629902 -0.24827205
-0.11001351 -0.022549812 -0.24827814
-0.11001182 -0.022468548 -0.24824625
-0.11001131 -0.022385854 -0.24818833
-0.11000915 -0.022302419 -0.24816437
-0.11000548 -0.02222224 -0.24817446
-0.11000121 -0.022143753 -0.24819857
-0.10999658 -0.022061184 -0.24822658
-0.10999253 -0.02198083 -0.24824467
-0.10998905 -0.021900736 -0.24825077
-0.10998608 -0.021818908 -0.24824482
-0.1099833 -0.021739122 -0.24823695
-0.10998033 -0.021657292 -0.24823101
-0.10997688 -0.021575246 -0.24823505
-0.1099734 -0.021495152 -0.24824116
-0.10996985 -0.021413062 -0.24824721
-0.10996716 -0.021333318 -0.24823731
-0.10996559 -0.021250146 -0.24820137
-0.10996289 -0.021170402 -0.24819149
-0.10995875 -0.021088049 -0.24820951
-0.10995567 -0.02100813 -0.24820763
-0.10995279 -0.020928301 -0.24820173
-0.10994875 -0.020845992 -0.24821776
-0.10994459 -0.020765595 -0.24823785
-0.10994095 -0.02068346 -0.24824588
-0.10993796 -0.020603586 -0.24824199
-0.10993509 -0.020521801 -0.24823406
-0.10993271 -0.020440234 -0.24821615
-0.1099307 -0.020360794 -0.24819228
-0.10992745 -0.020278834 -0.24819234
-0.10992358 -0.020198569 -0.24820642
-0.10991994 -0.020116434 -0.24821445
-0.10991626 -0.020036254 -0.24822456
-0.1099131 -0.019954339 -0.24822262
-0.10991063 -0.019872727 -0.24820668
-0.10990822 -0.019793114 -0.24819082
-0.10990487 -0.019711111 -0.24819286
-0.10990091 -0.019630801 -0.24820894
-0.10989695 -0.019550489 -0.24822503
-0.1098933 -0.019468356 -0.24823307
-0.10989063 -0.019386658 -0.24822114
-0.10988803 -0.019306958 -0.24820925
-0.10988439 -0.019224824 -0.24821731
-0.10988189 -0.019145168 -0.24820343
-0.10988011 -0.019061906 -0.24817148
-0.10987577 -0.018981423 -0.24819554
-0.109872 -0.018901199 -0.24820763
-0.10986952 -0.018819587 -0.24819171
-0.10986732 -0.018740062 -0.24817184
-0.10986435 -0.018658234 -0.24816591
-0.10986061 -0.018576056 -0.24817595
-0.10985694 -0.018495876 -0.24818604
-0.10985427 -0.018414179 -0.2481741
-0.10985177 -0.018334521 -0.24816024
-0.10984773 -0.018252213 -0.24817628
-0.10984426 -0.018172121 -0.24818236
-0.10984129 -0.018090291 -0.24817643
-0.10983802 -0.018010287 -0.24817851
-0.10983407 -0.017928023 -0.24819255
-0.10983072 -0.017846018 -0.24819461
-0.10982793 -0.017766232 -0.24818672
-0.10982555 -0.017684665 -0.2481688
-0.10982395 -0.017603446 -0.24813491
-0.10982048 -0.017523352 -0.24814101
-0.10981722 -0.017441392 -0.24814105
-0.10981433 -0.017361563 -0.24813518
-0.10981057 -0.017281339 -0.24814725
-0.10980672 -0.017199118 -0.24815929
-0.10980316 -0.017118981 -0.24816738
-0.1097996 -0.017036891 -0.24817343
-0.10979625 -0.016954888 -0.24817547
-0.10979336 -0.016875057 -0.2481696
-0.1097903 -0.016793184 -0.24816565
-0.10978702 -0.01671318 -0.24816775
-0.10978405 -0.01663135 -0.24816182
-0.10978136 -0.016551606 -0.24815193
-0.1097784 -0.016469777 -0.248146
-0.10977426 -0.016387425 -0.24816403
-0.10977001 -0.016306985 -0.24818611
-0.10976704 -0.016225155 -0.24818017
-0.10976464 -0.016145542 -0.2481643
-0.10976216 -0.016063932 -0.24814837
-0.10975986 -0.015984362 -0.2481305
-0.10975651 -0.015902359 -0.24813254
-0.10975257 -0.015820093 -0.24814658
-0.109749 -0.015739959 -0.24815467
-0.10974601 -0.015660083 -0.24815078
-0.10974295 -0.015578211 -0.24814683
-0.10973921 -0.015496033 -0.24815689
-0.10973524 -0.015415723 -0.24817297
-0.10973247 -0.015333981 -0.24816304
-0.10973105 -0.015254804 -0.24812719
-0.10972916 -0.015173455 -0.2480993
-0.10972783 -0.015094321 -0.24806145
-0.10972584 -0.015012927 -0.24803554
-0.10972161 -0.014930532 -0.24805555
-0.10971599 -0.014849481 -0.24810559
-0.10971175 -0.014767086 -0.24812561
-0.10970867 -0.014687167 -0.24812374
-0.10970561 -0.014605295 -0.24811977
-0.10970243 -0.014525333 -0.24811989
-0.10969897 -0.014443287 -0.24812394
-0.10969581 -0.01436137 -0.24812199
-0.10969225 -0.014281235 -0.24813008
-0.10968859 -0.0141991 -0.24813813
-0.10968571 -0.014119269 -0.24813223
-0.10968236 -0.014037266 -0.24813429
-0.10967861 -0.013955088 -0.24814433
-0.10967514 -0.013874996 -0.24815044
-0.10967178 -0.013792994 -0.24815248
-0.10966899 -0.013713205 -0.2481446
-0.10966622 -0.013631464 -0.24813467
-0.10966363 -0.013551764 -0.24812278
-0.10966076 -0.013469978 -0.24811485
-0.10965818 -0.013388325 -0.24810092
-0.10965549 -0.01330858 -0.24809104
-0.10965183 -0.013228401 -0.24810112
-0.10964779 -0.013146092 -0.24811716
-0.10964423 -0.013064002 -0.2481232
-0.10964088 -0.012981998 -0.24812527
-0.10963789 -0.012902124 -0.24812137
-0.10963481 -0.012822206 -0.24811947
-0.10963155 -0.012740246 -0.24811953
-0.10962859 -0.012658417 -0.2481136
-0.1096259 -0.012578674 -0.24810371
-0.10962342 -0.012497062 -0.24808779
-0.10962112 -0.012417493 -0.24806993
-0.10961922 -0.012336143 -0.24804202
-0.10961722 -0.012256704 -0.24801815
-0.10961288 -0.012174265 -0.24804017
-0.10960807 -0.012091609 -0.24807218
-0.1096046 -0.012011516 -0.24807829
-0.10960104 -0.011929426 -0.24808432
-0.10959681 -0.01184703 -0.24810435
-0.10959363 -0.011767069 -0.24810445
-0.10959076 -0.011685284 -0.24809653
-0.10958797 -0.011605496 -0.24808863
-0.1095852 -0.011523754 -0.2480787
-0.10958202 -0.011443792 -0.24807882
-0.10957877 -0.011361833 -0.24807885
-0.10957627 -0.011282176 -0.24806498
-0.10957281 -0.011200129 -0.24806903
-0.10956927 -0.011118039 -0.24807508
-0.10956589 -0.01103799 -0.24807918
-0.10956234 -0.0109559 -0.24808523
-0.10955898 -0.010873897 -0.24808727
-0.109556 -0.010794022 -0.24808338
-0.10956308 -0.0097152889 -0.24704275
-0.10956117 -0.0096358936 -0.24701688
-0.10956352 -0.0095603708 -0.24690519
-0.10956364 -0.009483845 -0.24683943
-0.10955941 -0.0094014499 -0.24685946
-0.10957703 -0.0093464926 -0.24644653
-0.10957356 -0.0092664007 -0.24645263
-0.10959101 -0.0092094019 -0.24604166
-0.10959596 -0.0091389641 -0.24588013
-0.1096404 -0.0091156233 -0.24493444
-0.1096373 -0.0090376595 -0.24493459
-0.10985672 -0.0092319176 -0.24052122
-0.10985304 -0.0091536921 -0.24053335
-0.10984849 -0.0090731205 -0.24056141
-0.11013117 -0.0092818951 -0.23484159
-0.11012822 -0.0092079267 -0.23484182
-0.11024626 -0.0092861988 -0.23244587
-0.11024573 -0.0092152739 -0.23239824
-0.11024925 -0.0091500897 -0.23227081
-0.11025131 -0.0090842508 -0.23217332
-0.11025155 -0.00901563 -0.23211175
-0.11025362 -0.0089478372 -0.23201224
-0.11025588 -0.0088820858 -0.23191077
-0.11025467 -0.0088108564 -0.2318771
-0.11025316 -0.0087394975 -0.23184945
-0.11025417 -0.008671225 -0.23177189
-0.11025498 -0.008602865 -0.23169833
-0.11025424 -0.0085338084 -0.23165673
-0.11025456 -0.0084652314 -0.23159316
-0.11025557 -0.0083969589 -0.23151562
-0.1102558 -0.0083283382 -0.23145404
-0.11025544 -0.0082594557 -0.23140445
-0.11025462 -0.0081884004 -0.23136282
-0.11025524 -0.0081199547 -0.23129326
-0.11025652 -0.0080537666 -0.23121175
-0.11025751 -0.0079874499 -0.23113625
-0.11025764 -0.0079187853 -0.23107667
-0.11025679 -0.0078496849 -0.23103708
-0.110258 -0.0077814991 -0.23095553
-0.11025821 -0.0077148331 -0.230896
-0.11025853 -0.0076462552 -0.23083243
-0.11025952 -0.0075799376 -0.23075692
-0.11025965 -0.007511273 -0.23069735
-0.11025844 -0.0074400445 -0.23066369
-0.11025691 -0.0073706387 -0.23063806
-0.11025636 -0.0073016696 -0.23059246
-0.11025629 -0.0072329175 -0.23053688
-0.11025545 -0.0071638171 -0.23049729
-0.11025451 -0.0070946729 -0.23045968
-0.11025415 -0.0070257904 -0.2304101
-0.11025272 -0.0069564292 -0.23038247
-0.11025112 -0.0068850257 -0.23035681
-0.11024949 -0.0068155769 -0.23033318
-0.11024635 -0.0067415209 -0.23033741
-0.11024279 -0.0066692475 -0.23035169
-0.11023992 -0.0065972768 -0.23035197
-0.11023707 -0.0065233521 -0.23035023
-0.11023381 -0.0064512081 -0.23035851
-0.11022969 -0.0063767172 -0.23038271
-0.11022577 -0.0063023139 -0.23040293
-0.11022174 -0.0062278667 -0.23042515
-0.11021801 -0.00615355 -0.23044136
-0.11021484 -0.0060814498 -0.23044765
-0.11021075 -0.006005005 -0.23046982
-0.11020605 -0.0059302524 -0.230506
-0.11020251 -0.0058560232 -0.23051825
-0.11020022 -0.0057843141 -0.23050654
-0.11019735 -0.0057123443 -0.23050684
-0.1101943 -0.005638333 -0.23050909
-0.11019249 -0.0055687968 -0.23048945
-0.11019144 -0.0054996088 -0.23045385
-0.11019079 -0.0054305959 -0.23041025
-0.11019032 -0.0053636245 -0.2303647
-0.11019238 -0.0052977856 -0.23026723
-0.11019364 -0.0052335532 -0.23018777
-0.1101927 -0.00516441 -0.23015016
-0.11019117 -0.005095005 -0.23012453
-0.11018936 -0.0050254688 -0.23010492
-0.11018611 -0.0049513699 -0.23011114
-0.11018219 -0.0048769657 -0.23013136
-0.11017846 -0.0048026498 -0.23014757
-0.11017473 -0.0047283331 -0.23016381
-0.11017147 -0.0046561891 -0.23017208
-0.11016813 -0.0045820475 -0.23018032
-0.1101644 -0.0045077298 -0.23019654
-0.11016172 -0.0044358475 -0.23019284
-0.1101597 -0.0043662246 -0.23017719
-0.11015712 -0.0042943843 -0.2301715
-0.11015474 -0.0042226333 -0.2301618
-0.11015236 -0.0041508805 -0.23015213
-0.11015026 -0.004079259 -0.23013642
-0.11014864 -0.0040098103 -0.23011279
-0.11014816 -0.0039428398 -0.23006725
-0.11014801 -0.0038740439 -0.23001367
-0.1101457 -0.0038042897 -0.23000401
-0.11014236 -0.0037301481 -0.23001225
-0.11013892 -0.0036559626 -0.23002249
-0.11013509 -0.0035816021 -0.2300407
-0.11013271 -0.0035098502 -0.23003101
-0.11013175 -0.00344266 -0.22999546
-0.11013051 -0.0033733854 -0.22996384
-0.11012918 -0.003304068 -0.22993422
-0.11012755 -0.0032346174 -0.2299106
-0.11012642 -0.0031653866 -0.229877
-0.11012509 -0.0030960692 -0.22984737
-0.11012385 -0.0030267946 -0.22981575
-0.11012271 -0.0029575638 -0.22978213
-0.11012118 -0.002888158 -0.22975652
-0.11011956 -0.0028187092 -0.22973289
-0.11011708 -0.0027469127 -0.22972518
-0.11011411 -0.0026749 -0.22972748
-0.11011087 -0.0026008021 -0.22973371
-0.1101078 -0.0025287447 -0.229738
-0.11010532 -0.0024569491 -0.22973031
-0.11010389 -0.002387587 -0.22970268
-0.11010187 -0.0023179632 -0.22968705
-0.11009929 -0.0022461247 -0.22968134
-0.11009767 -0.0021766759 -0.22965771
-0.11009607 -0.0021052724 -0.22963205
-0.11009425 -0.002035737 -0.22961241
-0.11009299 -0.0019684164 -0.22958285
-0.11009186 -0.0018991837 -0.22954923
-0.11009138 -0.0018322133 -0.22950369
-0.11009071 -0.0017651543 -0.22946215
-0.11008947 -0.0016958807 -0.22943053
-0.1100889 -0.0016288646 -0.22938697
-0.11008765 -0.0015615448 -0.22935739
-0.11008565 -0.0014899662 -0.22933972
-0.1100844 -0.0014226465 -0.22931015
-0.11008307 -0.0013533281 -0.22928053
-0.11008134 -0.0012838356 -0.22925889
-0.11007913 -0.0012141243 -0.22924727
-0.11007646 -0.0011422429 -0.22924355
-0.11007341 -0.0010682307 -0.2292458
-0.11007064 -0.00099630468 -0.22924408
-0.11006796 -0.00092442334 -0.22924039
-0.1100648 -0.00085232034 -0.22924668
-0.11006145 -0.00077817962 -0.2292549
-0.11005802 -0.00070399418 -0.22926514
-0.11005399 -0.00062954612 -0.22928734
-0.11005056 -0.00055536069 -0.22929758
-0.11004692 -0.00048108771 -0.22931179
-0.11004244 -0.00040446781 -0.22934195
-0.11003861 -0.00033010729 -0.22936018
-0.11003545 -0.00025800616 -0.22936645
-0.11003231 -0.00018395297 -0.2293707
-0.11002896 -0.00010981038 -0.22937894
-0.11002523 -3.5494566e-05 -0.22939515
-0.1100218 3.8690865e-05 -0.22940539
-0.11001978 0.00010831468 -0.22938974
-0.11001769 0.00017993711 -0.22937405
-0.11001501 0.00025181845 -0.22937036
-0.11001194 0.00032387674 -0.22937465
-0.11000898 0.00039589033 -0.22937694
-0.11000574 0.00046998821 -0.22938317
-0.11000163 0.00054643489 -0.22940534
-0.10999762 0.00062087923 -0.22942755
-0.10999464 0.00069289468 -0.22942984
-0.1099916 0.00076690502 -0.22943208
-0.10998863 0.00083892047 -0.22943437
-0.10998624 0.00091067143 -0.22942469
-0.10998356 0.00098255277 -0.22942097
-0.10998049 0.0010546111 -0.22942525
-0.10997765 0.0011285339 -0.22942351
-0.10997497 0.0012004189 -0.22941981
-0.10997248 0.0012722127 -0.22941211
-0.10996991 0.0013440549 -0.22940642
-0.10996655 0.0014162399 -0.2294167
-0.10996274 0.0014925543 -0.22943287
-0.10995911 0.0015668292 -0.2294471
-0.10995511 0.0016432293 -0.22946726
-0.10995042 0.0017199349 -0.22950141
-0.10994755 0.0017919075 -0.22950169
-0.10994536 0.0018635709 -0.22948802
-0.10994278 0.0019354094 -0.22948231
-0.10994001 0.0020073373 -0.22948059
-0.10993724 0.0020792633 -0.2294789
-0.10993419 0.0021532737 -0.22948115
-0.10993217 0.0022228975 -0.22946551
-0.10993045 0.0022923909 -0.22944388
-0.10992683 0.0023686159 -0.22945607
-0.10992205 0.0024453681 -0.2294922
-0.10991871 0.0025195107 -0.22950044
-0.10991663 0.0025911313 -0.22948475
-0.10991471 0.0026607104 -0.22946712
-0.10991137 0.002734853 -0.22947535
-0.10990822 0.002808908 -0.22947958
-0.10990611 0.0028785765 -0.22946595
-0.10990392 0.0029502381 -0.22945225
-0.10990105 0.0030222107 -0.22945255
-0.10989743 0.0030984376 -0.22946472
-0.10989466 0.0031703636 -0.22946303
-0.10989179 0.0032423344 -0.22946332
-0.10988855 0.0033164322 -0.22946955
-0.10988577 0.0033883564 -0.22946784
-0.10988302 0.0034622382 -0.2294641
-0.10987873 0.0035387706 -0.22949025
-0.10987404 0.0036154781 -0.2295244
-0.10987063 0.0036916193 -0.2295326
-0.10986746 0.0037637167 -0.22953889
-0.10986517 0.0038354248 -0.22952719
-0.10986336 0.0039049629 -0.22950757
-0.1098605 0.0039788876 -0.22950581
-0.10985716 0.0040530302 -0.22951403
-0.10985409 0.0041250866 -0.22951832
-0.10985124 0.0041990094 -0.22951657
-0.10984866 0.0042708497 -0.22951087
-0.1098457 0.0043428633 -0.22951315
-0.10984132 0.0044213925 -0.22953928
-0.10983779 0.0044956226 -0.22955149
-0.10983521 0.004567463 -0.2295458
-0.10983282 0.0046392139 -0.22953612
-0.10983015 0.0047110971 -0.22953241
-0.10982729 0.0047850199 -0.22953066
-0.10982519 0.0048546866 -0.22951701
-0.10982253 0.0049285237 -0.22951126
-0.10981919 0.0050026663 -0.2295195
-0.10981604 0.0050767232 -0.22952373
-0.10981336 0.0051486026 -0.22952004
-0.10981088 0.0052204002 -0.22951235
-0.10980813 0.005294282 -0.22950859
-0.10980573 0.005364079 -0.22950095
-0.10980354 0.0054357424 -0.22948724
-0.10980049 0.0055097546 -0.22948951
-0.10979563 0.0055885036 -0.2295256
-0.10979163 0.0056649055 -0.22954576
-0.10978868 0.0057388712 -0.22954601
-0.1097861 0.0058107115 -0.22954032
-0.10978352 0.0058825519 -0.22953461
-0.10978028 0.0059566479 -0.22954085
-0.10977714 0.0060307048 -0.22954509
-0.10977438 0.0061045848 -0.22954133
-0.10977207 0.006174339 -0.22953169
-0.10976952 0.0062481314 -0.22952394
-0.10976654 0.006320145 -0.22952622
-0.10976303 0.006396329 -0.22953641
-0.10975836 0.0064749904 -0.22956851
-0.10975446 0.0065513495 -0.22958669
-0.10975131 0.0066254027 -0.22959092
-0.10974827 0.0066994149 -0.22959317
-0.10974542 0.0067733396 -0.22959143
-0.10974264 0.0068452656 -0.22958972
-0.10973977 0.0069172345 -0.22959
-0.10973758 0.0069888998 -0.22957632
-0.1097352 0.0070606545 -0.22956663
-0.10973196 0.0071347505 -0.22957286
-0.10972872 0.0072088502 -0.22957909
-0.10972577 0.0072828177 -0.22957934
-0.10972282 0.0073567852 -0.2295796
-0.10972004 0.0074287131 -0.22957788
-0.10971577 0.0075071994 -0.22960201
-0.10971101 0.0075859036 -0.2296361
-0.11074187 -0.04109982 -0.2484545
-0.11073861 -0.04101786 -0.24845456
-0.11073596 -0.040934209 -0.24844058
-0.11073452 -0.040847167 -0.24839856
-0.11073187 -0.04076352 -0.24838458
-0.11072699 -0.040686723 -0.24842274
-0.11072189 -0.040611796 -0.24846691
-0.11071774 -0.040531397 -0.248487
-0.11071466 -0.040451482 -0.24848509
-0.11071302 -0.040364355 -0.24844706
-0.11071058 -0.040278837 -0.24842705
-0.1107059 -0.04020213 -0.24846119
-0.11070122 -0.040125422 -0.24849534
-0.11069898 -0.04003999 -0.24847135
-0.11069865 -0.039949521 -0.24840325
-0.11069607 -0.039867867 -0.24838933
-0.11069274 -0.03978391 -0.24838933
-0.11068987 -0.039702125 -0.24838141
-0.1106865 -0.039622076 -0.2483855
-0.11068193 -0.039543457 -0.24841562
-0.11067814 -0.039465189 -0.24842975
-0.11067539 -0.039381493 -0.24841776
-0.11067265 -0.039297797 -0.24840578
-0.11066939 -0.03921584 -0.24840584
-0.11066632 -0.039133966 -0.24840191
-0.11066316 -0.039052047 -0.24839997
-0.1106594 -0.038971826 -0.24841204
-0.11065583 -0.038891688 -0.24842015
-0.11065286 -0.038809858 -0.24841422
-0.11064961 -0.038727902 -0.24841425
-0.11064593 -0.038647722 -0.24842435
-0.11064239 -0.038565632 -0.2484304
-0.11063872 -0.038485453 -0.24844047
-0.11063493 -0.038407184 -0.24845462
-0.11063148 -0.038325138 -0.24845867
-0.11062852 -0.038243309 -0.24845272
-0.11062586 -0.038159654 -0.24843875
-0.11062321 -0.038076006 -0.24842478
-0.11062025 -0.037994176 -0.24841885
-0.1106167 -0.037912086 -0.2484249
-0.11061373 -0.037830256 -0.24841896
-0.11061087 -0.037748471 -0.24841103
-0.1106069 -0.037668161 -0.24842711
-0.11060232 -0.037591495 -0.24845926
-0.11059795 -0.037512966 -0.24848537
-0.11059459 -0.037430961 -0.24848743
-0.11059194 -0.037347309 -0.24847347
-0.11058977 -0.037263878 -0.2484495
-0.1105869 -0.037182089 -0.24844156
-0.11058336 -0.037100002 -0.24844761
-0.11058018 -0.037020039 -0.24844772
-0.11057702 -0.036938123 -0.24844578
-0.11057395 -0.036856249 -0.24844185
-0.1105705 -0.036774203 -0.24844587
-0.11056722 -0.036694199 -0.24844798
-0.11056467 -0.036610588 -0.24843201
-0.1105618 -0.036528803 -0.24842408
-0.11055864 -0.036446884 -0.24842215
-0.11055548 -0.036364973 -0.24842021
-0.11055191 -0.036284834 -0.24842829
-0.11054824 -0.036204655 -0.24843837
-0.11054499 -0.036122695 -0.24843843
-0.11054212 -0.03604091 -0.24843049
-0.11053896 -0.03595899 -0.24842855
-0.11053531 -0.035876859 -0.2484366
-0.11053193 -0.03579681 -0.2484407
-0.11052877 -0.035714895 -0.24843875
-0.11052591 -0.03563311 -0.24843082
-0.11052355 -0.035549589 -0.24841087
-0.11052079 -0.035465892 -0.2483989
-0.11051732 -0.035385799 -0.24840498
-0.11051378 -0.035303712 -0.24841103
-0.11051091 -0.035221923 -0.2484031
-0.11050782 -0.035142004 -0.24840119
-0.11050418 -0.035059869 -0.24840924
