# .PCD v0.7 - Point Cloud Data file format
VERSION 0.7
FIELDS x y z
SIZE 4 4 4
TYPE F F F
COUNT 1 1 1
WIDTH 1291
HEIGHT 1
VIEWPOINT 0 0 0 1 0 0 0
POINTS 1291
DATA ascii
-0.043971043 0.014224321 -0.25975212
-0.043970291 0.014301238 -0.25970435
-0.043967783 0.014378941 -0.25969249
-0.043964669 0.01445495 -0.2596947
-0.043961868 0.014532783 -0.25968885
-0.043958776 0.014610747 -0.259689
-0.043955367 0.014686888 -0.2596972
-0.043951865 0.014763072 -0.25970736
-0.043947972 0.014839431 -0.25972554
-0.043944273 0.014915704 -0.2597397
-0.043940984 0.014993755 -0.25974387
-0.043937284 0.015070027 -0.25975803
-0.043933585 0.015146298 -0.25977221
-0.043930374 0.015222352 -0.25977638
-0.043926675 0.015298625 -0.25979057
-0.043923073 0.015374851 -0.25980273
-0.043919884 0.01545286 -0.25980487
-0.043917768 0.015530388 -0.25978506
-0.04391643 0.015607566 -0.25974926
-0.043914899 0.015684832 -0.25971746
-0.043912973 0.015762271 -0.25969362
-0.043909766 0.015838325 -0.25969782
-0.043905381 0.015914902 -0.25972599
-0.043901682 0.015991174 -0.25974014
-0.043898277 0.016067315 -0.25974834
-0.043893699 0.01614398 -0.2597805
-0.043889023 0.016220689 -0.25981462
-0.043885522 0.016296873 -0.25982481
-0.043883111 0.016374532 -0.25981098
-0.043880485 0.016450323 -0.25980318
-0.043877099 0.016528418 -0.25980932
-0.043873694 0.016604559 -0.25981751
-0.043870501 0.016682567 -0.25981966
-0.043867875 0.016758358 -0.25981188
-0.043865565 0.016835973 -0.25979602
-0.043863326 0.01691159 -0.25978026
-0.04386092 0.01698925 -0.2597664
-0.043858215 0.017067039 -0.25975859
-0.043855298 0.017142961 -0.25975677
-0.043853059 0.017218579 -0.25974098
-0.043852527 0.017297361 -0.25968716
-0.043852653 0.017373884 -0.25962141
-0.04385034 0.017451499 -0.25960559
-0.043844767 0.017526647 -0.25965974
-0.043838337 0.017604141 -0.25972983
-0.04383444 0.0176805 -0.25974801
-0.043830939 0.017756686 -0.25975817
-0.043826967 0.017835042 -0.25977629
-0.043823268 0.017911313 -0.25979048
-0.043819956 0.017987411 -0.25979668
-0.043816864 0.018065374 -0.25979683
-0.043813948 0.018141298 -0.25979501
-0.043811049 0.018219175 -0.25979117
-0.04380862 0.018294878 -0.25977939
-0.04380621 0.018372538 -0.25976554
-0.043803971 0.018448154 -0.25974977
-0.04380127 0.018525943 -0.25974193
-0.04379886 0.018603602 -0.2597281
-0.04379721 0.018678958 -0.25970033
-0.043795094 0.018756485 -0.25968051
-0.043792468 0.018832276 -0.2596727
-0.043789547 0.018908199 -0.25967091
-0.043785967 0.018986382 -0.25968105
-0.043782074 0.019062741 -0.25969923
-0.043778181 0.0191391 -0.25971738
-0.0437745 0.019217325 -0.2597295
-0.043771386 0.019293334 -0.25973171
-0.0437681 0.019371387 -0.25973585
-0.043764498 0.019447615 -0.25974801
-0.043760605 0.019523975 -0.25976619
-0.043756533 0.019602375 -0.25978631
-0.043753032 0.019678559 -0.2597965
-0.04375023 0.019756394 -0.25979066
-0.043747701 0.01983214 -0.25978085
-0.043744978 0.019907976 -0.25977504
-0.043741692 0.019986028 -0.25977919
-0.043738674 0.020061994 -0.25977939
-0.04373607 0.020139739 -0.25976956
-0.043733835 0.020215357 -0.25975376
-0.043732397 0.020292578 -0.25971997
-0.043731451 0.020369582 -0.25967619
-0.043729313 0.020445155 -0.2596584
-0.043725342 0.020523513 -0.25967652
-0.043721255 0.020599959 -0.25969869
-0.043718044 0.020676013 -0.25970286
-0.043714754 0.020754064 -0.259707
-0.043711253 0.020830248 -0.2597172
-0.043708257 0.020908169 -0.25971535
-0.043705631 0.02098396 -0.25970757
-0.043702908 0.021059796 -0.25970176
-0.043700203 0.021137586 -0.25969392
-0.043696895 0.021213682 -0.25970009
-0.043693509 0.021291777 -0.25970626
-0.043691665 0.02136722 -0.25968248
-0.043690305 0.021442443 -0.25964871
-0.04368731 0.021520365 -0.25964686
-0.043684293 0.021596331 -0.25964707
-0.043682761 0.021673596 -0.25961524
-0.043682087 0.021748515 -0.2595675
-0.043681607 0.021823345 -0.25951579
-0.043679394 0.021900916 -0.25949797
-0.0436754 0.02197732 -0.25951815
-0.043671042 0.022055851 -0.25954422
-0.043667439 0.02213208 -0.25955641
-0.043662883 0.022210699 -0.25958651
-0.043658011 0.022287494 -0.25962466
-0.043654528 0.022365633 -0.2596328
-0.043651026 0.022441817 -0.25964296
-0.043647055 0.022520175 -0.25966111
-0.043643452 0.022596402 -0.25967327
-0.043640457 0.022674324 -0.25967142
-0.043637343 0.022750333 -0.2596736
-0.04363386 0.022828471 -0.25968176
-0.043630745 0.022904482 -0.25968394
-0.043627948 0.022982314 -0.2596781
-0.043626785 0.023057451 -0.25964034
-0.04362601 0.023132414 -0.25959462
-0.043623503 0.023210116 -0.25958276
-0.043620877 0.023285907 -0.25957498
-0.043618839 0.023361437 -0.25955519
-0.043616232 0.023439184 -0.25954536
-0.043613121 0.023515193 -0.25954756
-0.043609247 0.023593506 -0.25956368
-0.043604083 0.023670433 -0.25960782
-0.043598942 0.023749314 -0.2596499
-0.043594971 0.023827672 -0.25966802
-0.043591075 0.023904029 -0.25968617
-0.043587398 0.023982257 -0.25969833
-0.043583818 0.024060439 -0.25970846
-0.0435808 0.024136405 -0.25970864
-0.043577611 0.024214413 -0.25971079
-0.043573912 0.024290685 -0.25972497
-0.043571111 0.024368517 -0.25971913
-0.04356917 0.024444003 -0.25969735
-0.043566737 0.024519708 -0.25968558
-0.043563742 0.024597628 -0.25968373
-0.04356141 0.024673289 -0.25966993
-0.043559778 0.024750598 -0.25964013
-0.043560255 0.02482304 -0.25957048
-0.043559287 0.024898088 -0.2595287
-0.043556195 0.024976052 -0.25952888
-0.043552302 0.025052411 -0.25954702
-0.043546963 0.025131378 -0.25959313
-0.043541238 0.025210522 -0.25964719
-0.04353717 0.025288923 -0.25966731
-0.043533295 0.025367238 -0.25968343
-0.043529615 0.025445463 -0.25969556
-0.04352621 0.025521604 -0.25970376
-0.043522824 0.025599699 -0.25970986
-0.043519124 0.025675971 -0.25972405
-0.043515176 0.025756281 -0.25974014
-0.043511964 0.025832336 -0.25974432
-0.043509163 0.025910169 -0.25973848
-0.043506049 0.02598618 -0.25974068
-0.043502938 0.026062189 -0.25974286
-0.04350004 0.026140064 -0.25973901
-0.043497045 0.026217986 -0.25973716
-0.043494906 0.026293559 -0.25971937
-0.043493256 0.026368914 -0.25969163
-0.043490238 0.02644488 -0.25969183
-0.04348705 0.026522888 -0.25969395
-0.043484814 0.026598506 -0.25967818
-0.043481719 0.026676469 -0.2596783
-0.043477163 0.026755087 -0.25970843
-0.043472901 0.026833575 -0.25973254
-0.043469317 0.02691176 -0.25974268
-0.043466009 0.026987856 -0.25974888
-0.043463308 0.027065646 -0.25974101
-0.043461267 0.027141176 -0.25972125
-0.043458834 0.02721688 -0.25970945
-0.043455645 0.027294887 -0.25971159
-0.043452434 0.027370941 -0.2597158
-0.043449342 0.027448904 -0.25971594
-0.043447789 0.027524216 -0.25968617
-0.043446042 0.027599614 -0.25966042
-0.043443903 0.027675189 -0.25964263
-0.043442447 0.027750455 -0.25961086
-0.043440796 0.02782581 -0.25958312
-0.043437801 0.027903732 -0.25958124
-0.043433711 0.027980179 -0.25960341
-0.043429762 0.028060488 -0.25961947
-0.043426551 0.028136544 -0.25962368
-0.043422971 0.028214725 -0.25963381
-0.043419391 0.028292907 -0.25964394
-0.043416079 0.028369006 -0.25965011
-0.04341289 0.028447013 -0.25965226
-0.043410089 0.028524846 -0.25964642
-0.043407269 0.028600724 -0.25964263
-0.043404371 0.028678602 -0.25963879
-0.043401256 0.028754611 -0.25964099
-0.04339797 0.028832663 -0.25964513
-0.043394484 0.028910801 -0.25965327
-0.043391101 0.028988898 -0.25965941
-0.043389428 0.029062297 -0.25963366
-0.043388657 0.029137259 -0.25958794
-0.043386519 0.029212832 -0.25957015
-0.043384381 0.029288407 -0.25955239
-0.043382145 0.029364023 -0.25953659
-0.043379247 0.029441901 -0.25953275
-0.04337623 0.029517867 -0.25953293
-0.043372944 0.029595917 -0.25953707
-0.043368973 0.029674275 -0.25955522
-0.043365099 0.02975259 -0.25957131
-0.043361615 0.029830728 -0.25957948
-0.04335811 0.029906912 -0.25958964
-0.043354161 0.029987223 -0.25960571
-0.043350756 0.030063365 -0.2596139
-0.043347858 0.030141242 -0.25961006
-0.043344568 0.030219292 -0.2596142
-0.043341551 0.030295258 -0.25961441
-0.043338362 0.030373266 -0.25961652
-0.043335073 0.030451318 -0.25962067
-0.043332078 0.030529238 -0.25961882
-0.043329746 0.030604899 -0.25960505
-0.043327317 0.030680602 -0.25959325
-0.043324981 0.030756265 -0.25957948
-0.043323427 0.030831575 -0.25954971
-0.043320801 0.030907366 -0.25954193
-0.043317124 0.030985592 -0.25955406
-0.043313347 0.031063862 -0.25956818
-0.043309398 0.031144174 -0.25958425
-0.043305796 0.031220403 -0.25959641
-0.043302901 0.03129828 -0.25959259
-0.043300271 0.031374071 -0.25958478
-0.043296985 0.031452119 -0.25958893
-0.043294087 0.03153 -0.25958508
-0.043291755 0.031605661 -0.25957131
-0.043289032 0.031681493 -0.2595655
-0.04328623 0.031759329 -0.25955966
-0.043283701 0.031835075 -0.25954989
-0.0432809 0.031912908 -0.25954401
-0.043277789 0.031988919 -0.25954622
-0.043274891 0.032066796 -0.25954238
-0.043273047 0.032142237 -0.25951859
-0.043271862 0.03221542 -0.25948289
-0.043269139 0.032291256 -0.25947708
-0.043265752 0.032369353 -0.25948325
-0.043262564 0.032447357 -0.25948536
-0.043258689 0.032525674 -0.25950152
-0.043255009 0.032603897 -0.25951365
-0.043251626 0.032681994 -0.25951976
-0.043247655 0.032760352 -0.25953791
-0.043244757 0.032838225 -0.25953406
-0.043242715 0.032913756 -0.25951427
-0.043240089 0.032989547 -0.25950646
-0.043236997 0.033067513 -0.25950661
-0.043233804 0.033145517 -0.25950876
-0.043230519 0.033223569 -0.2595129
-0.043227307 0.033299625 -0.2595171
-0.043224681 0.033375416 -0.25950933
-0.043222368 0.033453032 -0.25949347
-0.043220405 0.033526562 -0.25947374
-0.043218091 0.033604179 -0.25945792
-0.043216422 0.033677578 -0.2594322
-0.043214768 0.033752933 -0.25940442
-0.043212924 0.033828378 -0.25938067
-0.043210767 0.033901997 -0.25936493
-0.043207869 0.03397987 -0.25936109
-0.043203898 0.034058228 -0.25937921
-0.043199167 0.034138888 -0.25941125
-0.043193676 0.034221854 -0.25945723
-0.043189432 0.034302294 -0.25947931
-0.043186437 0.034380216 -0.25947747
-0.043184105 0.034455881 -0.25946367
-0.043181188 0.034531802 -0.25946188
-0.043177042 0.034612197 -0.25948194
-0.043173462 0.03469038 -0.2594921
-0.043170463 0.034768302 -0.25949025
-0.043167178 0.034846354 -0.25949436
-0.04316416 0.03492232 -0.25949454
-0.043161362 0.035000153 -0.25948873
-0.04315817 0.03507816 -0.25949085
-0.043155447 0.035153996 -0.25948507
-0.043153971 0.035227306 -0.25945535
-0.043153372 0.035300229 -0.25940767
-0.0431518 0.035373587 -0.25937995
-0.043148607 0.035451595 -0.2593821
-0.043144364 0.035532035 -0.25940418
-0.043140493 0.035610348 -0.25942028
-0.043136053 0.035690881 -0.25944635
-0.043131616 0.035771411 -0.2594724
-0.043128036 0.035849594 -0.25948256
-0.043124769 0.035929598 -0.25948465
-0.043121655 0.036005609 -0.25948682
-0.043118659 0.036083527 -0.25948498
-0.043115467 0.036161534 -0.25948712
-0.043112181 0.036239587 -0.25949126
-0.043109361 0.036315463 -0.25948745
-0.043106832 0.036391214 -0.25947767
-0.043104224 0.03646896 -0.25946784
-0.043101892 0.036544621 -0.25945404
-0.043099929 0.036618151 -0.25943434
-0.043098085 0.036693595 -0.25941056
-0.043095849 0.036769211 -0.25939476
-0.043092951 0.036847088 -0.25939092
-0.043089468 0.036925226 -0.25939906
-0.043085888 0.037003409 -0.25940919
-0.043082599 0.037081461 -0.25941333
-0.043078844 0.037161686 -0.2594254
-0.043074969 0.037239999 -0.25944155
-0.043071583 0.037318096 -0.25944769
-0.043068394 0.037396103 -0.25944984
-0.043065205 0.037474111 -0.25945199
-0.043061819 0.037552208 -0.25945812
-0.043058258 0.037632342 -0.2594662
-0.043055534 0.037708178 -0.25946039
-0.043052908 0.037783969 -0.25945261
-0.043049447 0.037864063 -0.25945872
-0.04304567 0.037942331 -0.25947282
-0.043042578 0.038020294 -0.25947297
-0.043040343 0.038095914 -0.2594572
-0.043038007 0.038171574 -0.2594434
-0.043035481 0.038247321 -0.25943363
-0.043033633 0.038322762 -0.25940984
-0.043031495 0.038398337 -0.25939208
-0.043028109 0.03847643 -0.25939822
-0.043024529 0.038554616 -0.25940832
-0.043021046 0.038632751 -0.25941646
-0.043017291 0.038712978 -0.25942856
-0.043013908 0.038791072 -0.2594347
-0.043010619 0.038869124 -0.25943884
-0.043007135 0.038947262 -0.25944698
-0.043003574 0.0390274 -0.25945505
-0.043000288 0.039105453 -0.2594592
-0.042997368 0.039181374 -0.25945741
-0.042994566 0.039259203 -0.25945157
-0.042992137 0.039334912 -0.25943977
-0.042989805 0.039410569 -0.259426
-0.042987179 0.039486364 -0.25941819
-0.042984474 0.039564155 -0.25941035
-0.042982046 0.039639857 -0.25939858
-0.042979885 0.039713476 -0.25938284
-0.04297765 0.039789092 -0.25936705
-0.042975415 0.039864711 -0.25935125
-0.042972907 0.039942414 -0.25933942
-0.042970184 0.040018246 -0.25933364
-0.042967167 0.040094212 -0.25933382
-0.042963412 0.04017444 -0.25934592
-0.042959362 0.040254794 -0.25936398
-0.042956077 0.040332843 -0.25936812
-0.042952612 0.040412936 -0.2593742
-0.042949229 0.04049103 -0.25938034
-0.042945549 0.040569257 -0.2593925
-0.0429416 0.040649571 -0.25940856
-0.042938136 0.040729664 -0.25941464
-0.042935219 0.040805586 -0.25941285
-0.04293232 0.040883459 -0.25940901
-0.0429295 0.040959343 -0.2594052
-0.042926893 0.041037086 -0.25939536
-0.042924464 0.041112792 -0.25938356
-0.042921837 0.041188583 -0.25937578
-0.042919114 0.041264419 -0.25936997
-0.042916782 0.041340075 -0.2593562
-0.042913884 0.041417956 -0.25935236
-0.042910226 0.041498136 -0.25936243
-0.042906448 0.041576408 -0.25937656
-0.04290279 0.041656587 -0.25938666
-0.042899504 0.041734636 -0.2593908
-0.042895749 0.041814864 -0.25940287
-0.042891994 0.041895084 -0.25941497
-0.042887945 0.041975439 -0.25943303
-0.042884834 0.042051449 -0.25943524
-0.042881839 0.042129371 -0.25943339
-0.04287855 0.042207424 -0.25943753
-0.042874698 0.042287692 -0.2594516
-0.042870279 0.042370178 -0.25947562
-0.042866331 0.042450488 -0.25949168
-0.042863529 0.042528316 -0.25948584
-0.04286176 0.042601764 -0.25946212
-0.042859603 0.042675383 -0.25944638
-0.042856041 0.042755518 -0.25945449
-0.042852655 0.042833615 -0.25946063
-0.042849194 0.042913705 -0.25946671
-0.042844854 0.042994194 -0.25949079
-0.042840045 0.04307685 -0.2595228
-0.042836096 0.043157164 -0.25953886
-0.042833198 0.043235041 -0.25953501
-0.042829812 0.043313134 -0.25954115
-0.042826153 0.043393314 -0.25955123
-0.042822495 0.043473497 -0.25956133
-0.042818818 0.043551721 -0.25957346
-0.042815454 0.04363177 -0.25957754
-0.042812165 0.043709822 -0.25958169
-0.042809442 0.043785658 -0.2595759
-0.042806543 0.043863535 -0.25957203
-0.042803548 0.043941457 -0.25957018
-0.042800825 0.044017293 -0.2595644
-0.042797927 0.044095166 -0.25956056
-0.042794835 0.044173133 -0.2595607
-0.042791743 0.044251096 -0.25956085
-0.042788453 0.044329148 -0.259565
-0.042785458 0.04440707 -0.25956315
-0.042782832 0.044482857 -0.25955534
-0.042779934 0.044560738 -0.2595515
-0.042776179 0.044640962 -0.2595636
-0.042771664 0.044723488 -0.25958961
-0.042767812 0.044803757 -0.25960368
-0.04276472 0.04488172 -0.25960383
-0.04276114 0.044959903 -0.25961396
-0.042757481 0.045040082 -0.25962403
-0.042753629 0.045120351 -0.25963813
-0.042749211 0.045202833 -0.25966215
-0.042745456 0.045283057 -0.25967422
-0.042741604 0.045363329 -0.25968832
-0.042737383 0.045445725 -0.25970832
-0.042732671 0.045528337 -0.25973833
-0.042728528 0.045608737 -0.25975841
-0.042725727 0.045686573 -0.25975257
-0.042723197 0.045762315 -0.2597428
-0.042719737 0.045842409 -0.25974888
-0.042715885 0.045922678 -0.25976294
-0.0445919 -0.0039383564 -0.26365161
-0.044588827 -0.0038584396 -0.2636497
-0.044586048 -0.0037786514 -0.26364183
-0.044583052 -0.0037007295 -0.26363999
-0.044579491 -0.0036205929 -0.26364809
-0.044576205 -0.0035425425 -0.26365221
-0.044573739 -0.0034609325 -0.26363629
-0.044571154 -0.0033812299 -0.2636244
-0.044567648 -0.0033050478 -0.26363459
-0.044563681 -0.00322669 -0.26365271
-0.044560175 -0.0031505041 -0.2636629
-0.044557005 -0.0030705426 -0.26366299
-0.044554032 -0.0029906686 -0.26365912
-0.044550937 -0.0029127039 -0.26365924
-0.044547357 -0.0028345212 -0.26366937
-0.044544071 -0.0027564708 -0.26367351
-0.044541504 -0.0026748162 -0.2636596
-0.044538923 -0.0025951155 -0.26364771
-0.044535633 -0.002517065 -0.26365185
-0.044532269 -0.0024370141 -0.26365596
-0.04452898 -0.0023589619 -0.26366007
-0.044525303 -0.0022807363 -0.26367223
-0.044521797 -0.0022045523 -0.2636824
-0.044519234 -0.0021228995 -0.26366848
-0.044515967 -0.0020428915 -0.26367056
-0.044512462 -0.0019667074 -0.26368076
-0.044508979 -0.0018885694 -0.26368889
-0.044505909 -0.0018086489 -0.26368698
-0.04450313 -0.0017288625 -0.26367909
-0.044500563 -0.0016472079 -0.26366517
-0.044497784 -0.0015674215 -0.2636573
-0.044494711 -0.0014875028 -0.26365539
-0.044491816 -0.0014096256 -0.26365155
-0.04448843 -0.0013315305 -0.26365769
-0.044484459 -0.0012531746 -0.26367581
-0.04448127 -0.0011751652 -0.26367795
-0.044478703 -0.0010935105 -0.26366401
-0.044475611 -0.0010155477 -0.26366419
-0.044471838 -0.00093727931 -0.26367828
-0.044468254 -0.00085909478 -0.26368842
-0.044465259 -0.00078117475 -0.26368657
-0.044462286 -0.00070129894 -0.26368269
-0.044459604 -0.00062155537 -0.2636728
-0.044456217 -0.00054346025 -0.26367894
-0.044452637 -0.00046527945 -0.26368907
-0.044449564 -0.00038536079 -0.26368716
-0.044446785 -0.00030557066 -0.2636793
-0.044443592 -0.00022756308 -0.26368144
-0.04444021 -0.00014946982 -0.26368755
-0.044436727 -7.1329996e-05 -0.26369572
-0.044433556 8.6314976e-06 -0.26369581
-0.044431187 9.0198591e-05 -0.2636779
-0.044428505 0.00016994216 -0.263668
-0.044425022 0.00024808198 -0.26367614
-0.044421345 0.00032630749 -0.26368827
-0.044499461 0.00095503591 -0.26154128
-0.044499885 0.0010412429 -0.26146132
-0.044499315 0.0011259336 -0.26140335
-0.044498723 0.0012086686 -0.26134741
-0.044498246 0.0012933165 -0.26128748
-0.044497069 0.0013763122 -0.26124355
-0.044496067 0.0014572702 -0.26119766
-0.044500031 0.0015536733 -0.2610355
-0.044500336 0.001637971 -0.2609596
-0.044501465 0.0017258283 -0.2608636
-0.044500891 0.0018105172 -0.26080564
-0.044497173 0.0018848348 -0.26082185
-0.044507977 0.0019978154 -0.26050347
-0.044508792 0.0020838492 -0.26041549
-0.04450769 0.0021648481 -0.2603716
-0.044506706 0.0022477582 -0.26032367
-0.044506919 0.0023320988 -0.26024973
-0.044505838 0.0024150535 -0.26020381
-0.044504423 0.002494229 -0.26016796
-0.044502836 0.0025754459 -0.26013407
-0.044501051 0.0026567522 -0.26010415
-0.044499345 0.0027360618 -0.26007432
-0.044498049 0.0028171465 -0.26003441
-0.044496246 0.0028964989 -0.26000655
-0.044494051 0.0029760227 -0.25998667
-0.044492461 0.0030572414 -0.25995278
-0.044490635 0.0031346381 -0.25992697
-0.044488054 0.0032143369 -0.25991508
-0.044485547 0.003292039 -0.25990325
-0.044483136 0.0033696964 -0.25988942
-0.044480432 0.003447488 -0.25988159
-0.044477437 0.003525408 -0.25987971
-0.044474538 0.0036032852 -0.25987589
-0.044471741 0.0036811195 -0.25987002
-0.044469014 0.0037569534 -0.25986424
-0.044466019 0.0038348734 -0.25986239
-0.044462223 0.0039111897 -0.25987858
-0.044458505 0.0039855074 -0.25989479
-0.04445551 0.0040634293 -0.25989294
-0.044452589 0.0041393507 -0.25989112
-0.044448696 0.0042157099 -0.2599093
-0.044443786 0.004288597 -0.25995153
-0.044439599 0.0043650875 -0.25997567
-0.044436388 0.0044411402 -0.25997987
-0.044433586 0.0045189727 -0.25997403
-0.044430785 0.0045968071 -0.25996819
-0.044428062 0.0046726419 -0.25996238
-0.044425283 0.0047524292 -0.25995451
-0.044421878 0.0048285704 -0.25996268
-0.044418667 0.0049046231 -0.25996688
-0.044415865 0.0049824556 -0.25996104
-0.044413358 0.0050601596 -0.25994921
-0.044410948 0.0051378179 -0.25993538
-0.044408463 0.005217474 -0.25992149
-0.044406343 0.0052950028 -0.25990167
-0.04440444 0.0053743962 -0.2598758
-0.04440254 0.0054537905 -0.25984994
-0.04440064 0.0055331858 -0.25982407
-0.044398032 0.0056109326 -0.25981423
-0.044394627 0.0056870729 -0.25982243
-0.044390537 0.0057635196 -0.2598446
-0.044386428 0.0058380105 -0.2598688
-0.044382632 0.0059143268 -0.25988495
-0.044379517 0.0059903366 -0.25988716
-0.044376697 0.0060662162 -0.25988334
-0.044373602 0.006144179 -0.25988352
-0.044370294 0.0062202765 -0.25988969
-0.044367008 0.0062983278 -0.25989383
-0.044364184 0.0063742064 -0.25989002
-0.044361874 0.006451821 -0.25987419
-0.044359971 0.0065312171 -0.25984836
-0.044358265 0.0066105239 -0.25981849
-0.044356462 0.0066898745 -0.25979063
-0.044354245 0.0067674452 -0.25977278
-0.044351954 0.0068470147 -0.25975493
-0.044350248 0.0069263224 -0.25972506
-0.044347622 0.0070021134 -0.25971729
-0.044343144 0.0070787352 -0.25974742
-0.04433823 0.0071516223 -0.25978965
-0.044334315 0.0072260266 -0.25980985
-0.044330638 0.0073042531 -0.25982201
-0.044326723 0.0073786583 -0.25984222
-0.044323318 0.0074547995 -0.25985038
-0.044320226 0.0075327624 -0.25985056
-0.044317111 0.0076087723 -0.25985274
-0.044313412 0.0076850448 -0.25986689
-0.044310201 0.0077610984 -0.2598711
-0.044307712 0.0078407545 -0.25985721
-0.044305302 0.0079184128 -0.25984338
-0.044302776 0.0079941619 -0.2598336
-0.04429939 0.0080722552 -0.25983971
-0.04429647 0.0081481785 -0.25983793
-0.044294473 0.0082276165 -0.25981405
-0.044291865 0.0083053624 -0.25980422
-0.044288851 0.0083813285 -0.25980443
-0.044286344 0.0084590316 -0.2597926
-0.04428415 0.0085385572 -0.25977272
-0.044281229 0.0086144786 -0.2597709
-0.044277139 0.0086909253 -0.25979307
-0.044272739 0.0087655485 -0.25982326
-0.044268746 0.0088419523 -0.25984344
-0.044264734 0.0089164004 -0.25986564
-0.04426096 0.0089946687 -0.25987977
-0.044257846 0.0090706795 -0.25988197
-0.044254635 0.0091467332 -0.25988615
-0.044251326 0.0092228306 -0.25989234
-0.044248816 0.0093005328 -0.25988051
-0.044246212 0.0093782777 -0.25987068
-0.044242904 0.0094543761 -0.25987685
-0.044239812 0.0095323408 -0.259877
-0.044237889 0.0096097793 -0.25985318
-0.04423587 0.0096872635 -0.25983137
-0.044233967 0.0097666588 -0.2598055
-0.044231948 0.009844142 -0.25978369
-0.044229243 0.0099219326 -0.25977585
-0.044226345 0.0099998079 -0.259772
-0.044223428 0.010075731 -0.25977018
-0.044220041 0.010153826 -0.25977632
-0.044216517 0.010228056 -0.25978854
-0.044213325 0.010306064 -0.25979069
-0.044210311 0.010382031 -0.2597909
-0.044207219 0.010459995 -0.25979105
-0.044204298 0.010535918 -0.25978923
-0.044201303 0.010613838 -0.25978738
-0.044198483 0.010689717 -0.2597836
-0.044195682 0.01076755 -0.25977775
-0.044192977 0.010845341 -0.25976992
-0.04419018 0.010923173 -0.25976408
-0.044187162 0.010999139 -0.25976425
-0.044184752 0.011076798 -0.25975043
-0.044182539 0.011154369 -0.2597326
-0.044179816 0.011230204 -0.25972682
-0.044177327 0.01130986 -0.25971293
-0.044175208 0.011387387 -0.25969309
-0.044172972 0.011463005 -0.25967732
-0.044170976 0.011542443 -0.25965345
-0.044168055 0.011618365 -0.25965166
-0.044163968 0.011694812 -0.25967383
-0.044159271 0.011769567 -0.25971001
-0.04415489 0.011846144 -0.25973815
-0.044151582 0.01192224 -0.25974435
-0.044148393 0.012000249 -0.25974649
-0.044144984 0.012076389 -0.25975466
-0.044141091 0.012152748 -0.25977284
-0.044137489 0.012228977 -0.25978503
-0.044134475 0.012304943 -0.25978521
-0.044131577 0.01238282 -0.25978136
-0.04412856 0.012458785 -0.25978157
-0.044125251 0.012534883 -0.25978774
-0.04412245 0.012612716 -0.2597819
-0.044120528 0.012690157 -0.25975809
-0.044118509 0.012767641 -0.25973627
-0.044116292 0.012845213 -0.25971845
-0.044113785 0.012922914 -0.25970662
-0.044111062 0.012998749 -0.2597008
-0.044107266 0.013075065 -0.25971699
-0.044102687 0.013151729 -0.25974914
-0.044098012 0.013228438 -0.25978327
-0.044094004 0.013302887 -0.2598055
-0.044090692 0.013378984 -0.25981167
-0.0440876 0.013456947 -0.25981182
-0.044084389 0.013533002 -0.25981602
-0.044080712 0.013611228 -0.25982815
-0.044077013 0.0136875 -0.25984231
-0.044073507 0.013763683 -0.2598525
-0.04407059 0.013839606 -0.25985068
-0.044067886 0.013917396 -0.25984284
-0.044065282 0.013995142 -0.25983304
-0.04406295 0.014070802 -0.25981924
-0.044060927 0.014148286 -0.25979742
-0.044059515 0.014227463 -0.25976157
-0.044058956 0.014304291 -0.25970978
-0.044057444 0.014383512 -0.25967592
-0.04405443 0.014459478 -0.25967613
-0.044050731 0.014535749 -0.25969028
-0.044046935 0.014612065 -0.25970647
-0.044042941 0.014688468 -0.25972664
-0.044039752 0.014766475 -0.25972879
-0.044037029 0.014842311 -0.25972301
-0.044033818 0.014918365 -0.25972718
-0.044030432 0.01499646 -0.25973332
-0.044026926 0.015072644 -0.25974351
-0.04402284 0.01514909 -0.25976565
-0.044019237 0.015225319 -0.25977784
-0.044016536 0.015303109 -0.25977001
-0.044013616 0.01537903 -0.25976819
-0.044010308 0.015455128 -0.25977439
-0.044007216 0.015533092 -0.25977454
-0.044005197 0.015610576 -0.25975269
-0.044002667 0.015686324 -0.25974292
-0.043998968 0.015762595 -0.2597571
-0.043995775 0.015840603 -0.25975925
-0.043993756 0.015918087 -0.25973743
-0.043990936 0.015993966 -0.25973362
-0.043986943 0.01607037 -0.25975376
-0.043982465 0.01614699 -0.25978392
-0.043978181 0.016223524 -0.25981009
-0.043974578 0.016299753 -0.25982225
-0.043971293 0.016377803 -0.25982642
-0.043968275 0.016453769 -0.2598266
-0.04396528 0.016531691 -0.25982475
-0.043962654 0.016607482 -0.25981697
-0.043960243 0.016685141 -0.25980312
-0.043957129 0.01676115 -0.25980532
-0.043953821 0.016837247 -0.25981152
-0.043951411 0.016914906 -0.25979769
-0.043949097 0.016992521 -0.25978184
-0.043946572 0.017068269 -0.25977206
-0.043943867 0.017146058 -0.25976422
-0.043941632 0.017221674 -0.25974843
-0.043940317 0.017300807 -0.25971058
-0.043938957 0.017376032 -0.25967681
-0.043936059 0.017453909 -0.259673
-0.043931872 0.017530398 -0.25969714
-0.043927394 0.01760702 -0.2597273
-0.043923598 0.017683335 -0.25974345
-0.043920189 0.017759476 -0.25975165
-0.04391671 0.017837616 -0.25975978
-0.043913204 0.0179138 -0.25976998
-0.043909408 0.017990116 -0.25978613
-0.043905728 0.018068342 -0.25979829
-0.043903105 0.018144133 -0.25979048
-0.043900985 0.01822166 -0.25977066
-0.043898772 0.018299231 -0.25975281
-0.043896634 0.018374804 -0.25973505
-0.043894321 0.018452421 -0.25971922
-0.043891206 0.01852843 -0.2597214
-0.043887213 0.018604834 -0.25974157
-0.043883927 0.018682884 -0.25974572
-0.043881886 0.018758414 -0.25972593
-0.043879867 0.018835898 -0.25970411
-0.043877535 0.018911557 -0.25969034
-0.043874245 0.01898961 -0.25969446
-0.043870058 0.019066099 -0.25971863
-0.043866262 0.019142415 -0.25973481
-0.043862581 0.019220641 -0.25974694
-0.043858983 0.01929687 -0.25975913
-0.043855693 0.01937492 -0.25976324
-0.043852288 0.019451061 -0.25977144
-0.043848395 0.01952742 -0.25978962
-0.043844424 0.019605778 -0.25980774
-0.043841213 0.019681832 -0.25981194
-0.043838702 0.019759534 -0.25980008
-0.04383608 0.019835325 -0.2597923
-0.043833353 0.019911161 -0.25978649
-0.043830357 0.019989081 -0.25978464
-0.043827634 0.020064916 -0.25977886
-0.04382503 0.020142661 -0.25976902
-0.043822892 0.020218235 -0.25975123
-0.04382126 0.020295545 -0.25972143
-0.043819826 0.020372767 -0.2596876
-0.043817788 0.020448297 -0.25966784
-0.043814499 0.020526348 -0.25967199
-0.043810215 0.020602882 -0.25969815
-0.043806028 0.020679371 -0.25972229
-0.043802544 0.020757511 -0.25973043
-0.043799724 0.02083339 -0.25972664
-0.043797314 0.020911047 -0.25971282
-0.043794785 0.020986795 -0.25970301
-0.043791573 0.021062849 -0.25970721
-0.043788482 0.021140814 -0.25970736
-0.043785661 0.021216692 -0.25970358
-0.043782469 0.0212947 -0.25970572
-0.043779746 0.021370536 -0.25969991
-0.043777704 0.021446064 -0.25968012
-0.043775197 0.021523766 -0.25966829
-0.043772668 0.021599514 -0.25965852
-0.04377104 0.021676823 -0.25962871
-0.043769974 0.021751918 -0.25958896
-0.043768421 0.021827228 -0.25955918
-0.043766305 0.021904757 -0.25953937
-0.043763582 0.021980591 -0.25953358
-0.043760587 0.022058513 -0.25953171
-0.043756496 0.02213496 -0.25955388
-0.043751746 0.022213666 -0.25958797
-0.043747462 0.022290198 -0.25961414
-0.043743003 0.022368774 -0.25964224
-0.043739129 0.022447087 -0.25965837
-0.043735724 0.022523228 -0.25966656
-0.043731928 0.022599544 -0.25968271
-0.043728247 0.02267777 -0.25969484
-0.043725133 0.022753779 -0.25969705
-0.043721847 0.022831831 -0.25970119
-0.043718636 0.022907885 -0.25970536
-0.043715738 0.022985762 -0.25970152
-0.043714087 0.023061117 -0.25967377
-0.043712631 0.023136385 -0.259642
-0.043711491 0.023213476 -0.25960222
-0.043710325 0.023288611 -0.25956446
-0.04370809 0.023364229 -0.25954866
-0.04370451 0.023442412 -0.2595588
-0.043701105 0.023518553 -0.25956699
-0.043697521 0.023596734 -0.25957713
-0.043692362 0.023673661 -0.25962126
-0.043687414 0.023752455 -0.25965935
-0.043683443 0.023830812 -0.25967747
-0.043679181 0.023909301 -0.25970158
-0.043675285 0.02398566 -0.25971976
-0.043672193 0.024063624 -0.25971991
-0.04366947 0.024139458 -0.2597141
-0.043666184 0.024217511 -0.25971824
-0.043662872 0.024293607 -0.25972444
-0.04365978 0.024371572 -0.25972459
-0.043656863 0.024447493 -0.25972277
-0.043654062 0.024525328 -0.25971693
-0.043651629 0.024601031 -0.25970516
-0.043649882 0.024676431 -0.25967938
-0.043648448 0.024753653 -0.25964558
-0.043648239 0.024826398 -0.25958991
-0.043647368 0.024901405 -0.25954616
-0.04364562 0.024976801 -0.25952038
-0.043642238 0.025054898 -0.25952652
-0.043636121 0.025134215 -0.2595886
-0.043630198 0.025213446 -0.25964665
-0.043625642 0.025292065 -0.25967675
-0.043622255 0.02537016 -0.25968289
-0.043619238 0.025446124 -0.25968307
-0.043615367 0.025524439 -0.25969923
-0.043611493 0.025602752 -0.25971532
-0.043608282 0.025678806 -0.25971952
-0.043604799 0.025756944 -0.25972766
-0.043600634 0.025835389 -0.25974977
-0.043597151 0.025913529 -0.25975791
-0.043594133 0.025989495 -0.25975811
-0.043591138 0.026067415 -0.25975627
-0.043588221 0.026143337 -0.25975445
-0.043585517 0.026221126 -0.25974661
-0.043583672 0.026296569 -0.25972283
-0.043581728 0.026372055 -0.25970107
-0.043579396 0.026447717 -0.2596873
-0.043577082 0.02652533 -0.25967145
-0.043574847 0.026600948 -0.25965565
-0.043571461 0.026679043 -0.25966182
-0.043566417 0.026757881 -0.25970191
-0.043561179 0.026836805 -0.25974599
-0.043557208 0.026915163 -0.25976411
-0.043554582 0.026990954 -0.25975633
-0.043553147 0.027068175 -0.2597225
-0.043551009 0.027143748 -0.25970474
-0.043547601 0.02721989 -0.2597129
-0.043543629 0.027298246 -0.25973105
-0.043540832 0.02737608 -0.25972518
-0.04353879 0.027451608 -0.25970542
-0.043537334 0.027526878 -0.25967366
-0.043536052 0.027600102 -0.25963995
-0.043533742 0.027677719 -0.25962412
-0.043531016 0.027753554 -0.25961834
-0.043528508 0.027831256 -0.25960648
-0.043525882 0.027907047 -0.2595987
-0.043522671 0.027983101 -0.25960287
-0.043518528 0.028063498 -0.25962296
-0.04351446 0.028141901 -0.25964308
-0.043511152 0.028217997 -0.25964928
-0.043507766 0.028296093 -0.25965542
-0.043504477 0.028374143 -0.25965953
-0.04350185 0.028449936 -0.25965175
-0.043499053 0.028527768 -0.25964591
-0.043495469 0.028605951 -0.25965604
-0.043492064 0.028682092 -0.25966424
-0.043488774 0.028760143 -0.25966835
-0.043485682 0.028838107 -0.25966853
-0.043482669 0.028914073 -0.25966871
-0.043479964 0.028991863 -0.25966087
-0.043478291 0.029065264 -0.25963515
-0.043477129 0.029140402 -0.25959739
-0.043475088 0.02921593 -0.25957763
-0.043472756 0.029291591 -0.25956383
-0.043471396 0.029366814 -0.25953007
-0.043469846 0.029442128 -0.25950032
-0.043466438 0.029518267 -0.25950849
-0.043461416 0.029599059 -0.25954655
-0.043457054 0.02967759 -0.25957265
-0.043453667 0.029755685 -0.25957879
-0.043450087 0.029833868 -0.25958893
-0.043446507 0.029912051 -0.25959906
-0.043442734 0.029990321 -0.25961319
-0.043439053 0.030068547 -0.25962532
-0.043435864 0.030146554 -0.25962746
-0.043433141 0.03022239 -0.25962165
-0.043430027 0.030298399 -0.25962386
-0.043426078 0.03037871 -0.25963992
-0.043423157 0.030454634 -0.25963813
-0.043420747 0.030532293 -0.2596243
-0.043417927 0.03060817 -0.25962049
-0.043415301 0.030683961 -0.25961271
-0.043413453 0.030759405 -0.25958893
-0.043411903 0.030834716 -0.25955915
-0.043408908 0.030912636 -0.25955731
-0.043405499 0.030988777 -0.2595655
-0.043401822 0.031067003 -0.25957763
-0.04339797 0.031147271 -0.25959173
-0.043394387 0.031225454 -0.25960183
-0.043391198 0.031303462 -0.25960398
-0.043388572 0.031379253 -0.2595962
-0.043386042 0.031455003 -0.25958639
-0.043383047 0.031532921 -0.25958455
-0.043379936 0.031608932 -0.25958675
-0.043377038 0.031686805 -0.25958291
-0.043374412 0.0317626 -0.2595751
-0.04337132 0.031840563 -0.25957525
-0.043368593 0.031916399 -0.25956947
-0.043366458 0.031991974 -0.25955167
-0.043364707 0.03206737 -0.2595259
-0.043362666 0.0321429 -0.25950614
-0.043360531 0.032218471 -0.25948837
-0.043358292 0.032294091 -0.25947258
-0.0433552 0.032372057 -0.25947273
-0.043350469 0.032452717 -0.2595048
-0.043346304 0.032531161 -0.25952691
-0.043342821 0.032609299 -0.25953501
-0.043339532 0.032687351 -0.25953919
-0.043336615 0.032763273 -0.25953737
-0.043333717 0.03284115 -0.25953352
-0.043330427 0.032919202 -0.25953767
-0.043327216 0.032995254 -0.25954187
-0.043324612 0.033073001 -0.25953203
-0.043322083 0.033148747 -0.25952223
-0.043319382 0.033226538 -0.25951439
-0.043316659 0.033302374 -0.25950861
-0.043313738 0.033378296 -0.25950679
-0.043310646 0.033456258 -0.25950694
-0.04330802 0.033532053 -0.25949913
-0.043305706 0.033609666 -0.25948331
-0.043304134 0.033683024 -0.25945559
-0.043301996 0.033758596 -0.2594378
-0.043300908 0.033831738 -0.2594001
-0.043300115 0.033904742 -0.25935641
-0.043297589 0.033980493 -0.25934663
-0.043293443 0.034060888 -0.25936669
-0.04328832 0.034141727 -0.25940675
-0.043282833 0.034224689 -0.25945273
-0.043278765 0.034303091 -0.25947285
-0.04327577 0.03438101 -0.259471
-0.043273065 0.034458801 -0.25946316
-0.043269757 0.034534898 -0.25946933
-0.043265708 0.034615252 -0.25948742
-0.043261934 0.034693524 -0.25950155
-0.043258645 0.034771573 -0.25950569
-0.043255746 0.03484945 -0.25950184
-0.043252632 0.034925461 -0.25950402
-0.043249365 0.035005465 -0.25950614
-0.043246545 0.035081346 -0.25950232
-0.043243844 0.035159133 -0.25949448
-0.043241218 0.035234928 -0.25948668
-0.043240033 0.035308108 -0.259451
-0.043240294 0.03537868 -0.25938737
-0.043238621 0.035452083 -0.25936165
-0.043235332 0.035530135 -0.2593658
-0.043230407 0.035610884 -0.25940183
-0.043224916 0.035693847 -0.25944781
-0.043220479 0.035774376 -0.25947389
-0.043216333 0.035854772 -0.25949395
-0.043213047 0.035932824 -0.25949812
-0.043209855 0.036010832 -0.25950024
-0.043206468 0.036088929 -0.2595064
-0.043203473 0.03616685 -0.25950456
-0.04320085 0.036242642 -0.25949675
-0.043197952 0.036320519 -0.2594929
-0.043195326 0.03639631 -0.2594851
-0.043192603 0.036472145 -0.25947931
-0.043190267 0.036547806 -0.25946552
-0.043188423 0.036623247 -0.25944173
-0.043186285 0.036698822 -0.25942397
-0.043183755 0.036774568 -0.25941417
-0.04318076 0.03685249 -0.25941232
-0.043177277 0.036930628 -0.25942045
-0.0431736 0.037008852 -0.25943261
-0.043170039 0.03708899 -0.25944069
-0.043166827 0.037165046 -0.25944489
-0.043163367 0.037245139 -0.25945097
-0.043160174 0.037323147 -0.25945312
-0.043156963 0.037399199 -0.25945729
-0.043153871 0.037477165 -0.25945744
-0.043150779 0.037555128 -0.25945759
-0.043147217 0.037635267 -0.25946569
-0.043143541 0.03771349 -0.25947782
-0.043140154 0.037791587 -0.25948396
-0.043137256 0.037869461 -0.25948012
-0.043134339 0.037945382 -0.2594783
-0.043131147 0.03802339 -0.25948045
-0.043128151 0.038101312 -0.2594786
-0.043126013 0.038176887 -0.25946081
-0.043124732 0.038250111 -0.25942713
-0.04312316 0.038323469 -0.25939938
-0.043120358 0.038401302 -0.25939354
-0.043116972 0.038479395 -0.25939968
-0.043113392 0.038557582 -0.25940982
-0.043109246 0.038637981 -0.2594299
-0.043104909 0.038718466 -0.25945395
-0.043101154 0.03879869 -0.25946605
-0.043097865 0.038876742 -0.25947016
-0.043094847 0.038952708 -0.25947037
-0.043091755 0.039030671 -0.25947052
-0.043088857 0.039108548 -0.25946668
-0.043086719 0.03918412 -0.25944889
-0.043084484 0.039259739 -0.25943312
-0.043081369 0.03933575 -0.2594353
-0.043078277 0.039413713 -0.25943545
-0.043075476 0.039491545 -0.25942963
-0.043072946 0.039567292 -0.25941983
-0.043070711 0.039642908 -0.25940403
-0.043068942 0.039716356 -0.25938031
-0.043067098 0.039791796 -0.25935653
-0.043064669 0.039867502 -0.25934476
-0.043061942 0.039943337 -0.25933897
-0.043058753 0.040021345 -0.25934109
-0.04305527 0.040099483 -0.25934923
-0.043051612 0.040179662 -0.25935933
-0.043047663 0.040259972 -0.25937539
-0.043043811 0.040340241 -0.25938949
-0.043040328 0.040418383 -0.25939763
-0.043037038 0.040496431 -0.25940177
-0.043033849 0.040574439 -0.25940391
-0.043030169 0.04065267 -0.25941604
-0.043026805 0.040732715 -0.25942013
-0.043024082 0.040808551 -0.25941435
-0.04302099 0.040886514 -0.25941449
-0.043017332 0.040966697 -0.25942457
-0.043014608 0.041042529 -0.25941879
-0.04301247 0.041118108 -0.25940099
-0.043010604 0.041191593 -0.25937927
-0.043008074 0.041267343 -0.25936949
-0.043004885 0.04134535 -0.25937164
-0.043001421 0.04142544 -0.25937772
-0.042998038 0.041503537 -0.25938386
-0.042994749 0.04158159 -0.25938797
-0.042990603 0.041661985 -0.25940806
-0.042986654 0.041742295 -0.25942415
-0.042983267 0.041820392 -0.25943029
-0.04297971 0.04190053 -0.25943837
-0.042976614 0.041978493 -0.25943851
-0.042973697 0.042054418 -0.25943673
-0.042970233 0.042134508 -0.25944281
-0.042966284 0.042214818 -0.2594589
-0.042962801 0.04229296 -0.25946701
-0.042959806 0.042370882 -0.25946516
-0.042955954 0.042451151 -0.25947925
-0.042951807 0.042531546 -0.25949931
-0.042947587 0.042613946 -0.25951934
-0.042943634 0.042694256 -0.25953543
-0.042940911 0.042770091 -0.25952962
-0.042938579 0.042845748 -0.25951585
-0.042935487 0.042923715 -0.259516
-0.042932492 0.043001637 -0.25951415
-0.042929593 0.04307951 -0.25951028
-0.042925917 0.043157738 -0.25952244
-0.042921964 0.043238051 -0.2595385
-0.042918112 0.043318316 -0.25955257
-0.042914629 0.043396458 -0.2595607
-0.042911068 0.043476593 -0.25956881
-0.042907216 0.043556862 -0.25958288
-0.042904221 0.04363478 -0.25958103
-0.042901497 0.043710619 -0.25957525
-0.042898696 0.043788448 -0.25956941
-0.042895604 0.043866411 -0.25956953
-0.042891752 0.043946683 -0.25958362
-0.0428879 0.044026949 -0.25959772
-0.042884804 0.044104911 -0.25959784
-0.042882647 0.044178534 -0.2595821
-0.042880509 0.044254106 -0.25956434
-0.042877883 0.044329897 -0.25955653
-0.042874694 0.044407904 -0.25955868
-0.042871132 0.044488043 -0.25956678
-0.042867649 0.044566181 -0.25957492
-0.042863991 0.04464636 -0.25958499
-0.042860337 0.044726543 -0.2595951
-0.042856678 0.044806723 -0.25960517
-0.042852435 0.044887163 -0.25962722
-0.042849071 0.044967212 -0.25963134
-0.042845976 0.045045178 -0.25963148
-0.042842221 0.045125403 -0.25964355
-0.042837784 0.045205928 -0.25966963
-0.042834323 0.045286022 -0.25967571
-0.042830002 0.045368463 -0.25969774
-0.042825487 0.045450993 -0.25972375
-0.042821344 0.045531392 -0.25974381
-0.042816926 0.045613877 -0.25976783
-0.042813562 0.045693927 -0.25977194
-0.042811032 0.045769673 -0.25976214
-0.042807844 0.04584768 -0.25976428
-0.042804088 0.045927905 -0.25977635
-0.044681318 -0.0039363466 -0.26364896
-0.044677738 -0.003858164 -0.26365909
-0.044674665 -0.0037782472 -0.26365718
-0.044671983 -0.0036985017 -0.26364732
-0.044668909 -0.0036185831 -0.26364541
-0.044665936 -0.0035387091 -0.26364151
-0.044663057 -0.003458878 -0.26363564
-0.044659577 -0.0033807382 -0.26364374
-0.044656169 -0.003304597 -0.26365194
-0.044652998 -0.0032246355 -0.26365206
-0.044650026 -0.0031447615 -0.26364815
-0.044646855 -0.0030648001 -0.26364827
-0.044643763 -0.0029868335 -0.26364839
-0.044640571 -0.0029088277 -0.26365054
-0.044637207 -0.0028287768 -0.26365465
-0.044634014 -0.0027507674 -0.2636568
-0.044630848 -0.0026708078 -0.26365688
-0.044627853 -0.0025928877 -0.26365504
-0.044624779 -0.0025129691 -0.26365313
-0.04462149 -0.0024349168 -0.26365727
-0.044617813 -0.0023566894 -0.2636694
-0.044614427 -0.0022785962 -0.26367554
-0.044611041 -0.0022004992 -0.26368168
-0.044608045 -0.0021225791 -0.26367983
-0.044604875 -0.0020426195 -0.26367992
-0.044601806 -0.0019627009 -0.26367804
-0.044599123 -0.0018829536 -0.26366815
-0.044596147 -0.0018030815 -0.26366425
-0.044592861 -0.0017250292 -0.26366842
-0.044589281 -0.0016468465 -0.26367855
-0.044585992 -0.0015687943 -0.26368266
-0.044583231 -0.0014870539 -0.26367274
-0.044579946 -0.0014090035 -0.26367688
-0.044576753 -0.0013309941 -0.26367903
-0.04457419 -0.0012493394 -0.26366511
-0.044570684 -0.0011731554 -0.26367527
-0.044566616 -0.0010947529 -0.26369542
-0.044563718 -0.0010168776 -0.26369154
-0.044560745 -0.00093700364 -0.26368767
-0.044557773 -0.00085712969 -0.26368377
-0.04455499 -0.00077733956 -0.26367587
-0.044551507 -0.0006992016 -0.263684
-0.044547733 -0.00062093139 -0.26369816
-0.044544954 -0.00054114684 -0.26369023
-0.044542175 -0.00046135671 -0.26368237
-0.044538885 -0.00038330629 -0.26368651
-0.044535913 -0.00030343048 -0.2636826
-0.044532817 -0.00022546574 -0.26368275
-0.04452914 -0.0001472421 -0.26369488
-0.044525873 -6.7235902e-05 -0.26369697
-0.044523071 1.0598451e-05 -0.26369113
-0.044519708 9.0649351e-05 -0.26369524
-0.044516712 0.00016856939 -0.26369339
-0.044514343 0.00025013462 -0.26367545
-0.04451137 0.00033001043 -0.26367158
-0.044507787 0.00040819496 -0.26368171
-0.044585615 0.00086228922 -0.26168472
-0.04458994 0.0011313297 -0.26137263
-0.044588547 0.0012124591 -0.26133475
-0.044587255 0.0012935493 -0.26129484
-0.044586778 0.0013781935 -0.26123488
-0.044586208 0.0014628842 -0.26117694
-0.044586729 0.0015490483 -0.26109496
-0.044585552 0.001632046 -0.26105103
-0.044583142 0.0017097052 -0.2610372
-0.044593792 0.0020760559 -0.26051298
-0.044598334 0.0022546742 -0.26027095
-0.044597641 0.002337452 -0.26021701
-0.044596463 0.0024204496 -0.26017308
-0.04459437 0.0024999343 -0.26015124
-0.044592347 0.0025774166 -0.26012939
-0.044590857 0.0026585907 -0.26009351
-0.044588976 0.002739938 -0.26006562
-0.044587776 0.0028209835 -0.26002371
-0.044586364 0.002900159 -0.25998786
-0.044583779 0.0029798597 -0.25997597
-0.044581175 0.0030576047 -0.25996614
-0.044578765 0.0031352639 -0.25995231
-0.044576667 0.0032147467 -0.25993043
-0.044574473 0.0032942705 -0.25991058
-0.044571966 0.0033719726 -0.25989872
-0.044569165 0.0034498069 -0.25989288
-0.044566561 0.0035275519 -0.25988305
-0.044564053 0.003605254 -0.25987121
-0.044561543 0.003682958 -0.25985938
-0.044558547 0.003760878 -0.25985754
-0.044555046 0.003837062 -0.25986773
-0.044551641 0.0039132033 -0.25987589
-0.044548545 0.0039911671 -0.25987604
-0.044544827 0.0040654857 -0.25989226
-0.044540111 0.0041382834 -0.25993049
-0.044536822 0.0042163366 -0.25993463
-0.044533513 0.0042924322 -0.25994083
-0.044530109 0.0043685734 -0.25994903
-0.044526897 0.004444628 -0.2599532
-0.044523902 0.0045225481 -0.25995135
-0.044521395 0.0046002502 -0.25993952
-0.044517986 0.0046763914 -0.25994772
-0.044514503 0.0047545303 -0.25995582
-0.04451178 0.004830366 -0.25995004
-0.044508785 0.004908286 -0.25994819
-0.044505887 0.0049861623 -0.25994435
-0.044503085 0.0050639967 -0.25993851
-0.044500191 0.0051418729 -0.25993466
-0.044497877 0.0052194875 -0.25991881
-0.044495758 0.0052970164 -0.25989899
-0.044493977 0.0053783208 -0.2598691
-0.044492465 0.005457541 -0.25983524
-0.044490054 0.0055351993 -0.25982141
-0.044486865 0.0056132078 -0.25982356
-0.044483848 0.0056891739 -0.25982374
-0.044480246 0.0057654027 -0.25983593
-0.044476233 0.0058398489 -0.25985813
-0.044472635 0.0059160776 -0.25987032
-0.044469323 0.005992176 -0.25987649
-0.044465624 0.0060684476 -0.25989068
-0.044462338 0.006146498 -0.25989482
-0.044459224 0.0062225079 -0.25989702
-0.044456616 0.0063002547 -0.25988719
-0.044454012 0.0063779997 -0.25987732
-0.044451602 0.0064556589 -0.2598635
-0.044449292 0.0065332744 -0.25984767
-0.044447485 0.006612625 -0.25981981
-0.044446189 0.0066937115 -0.25977993
-0.044444874 0.0067728441 -0.25974208
-0.044443656 0.006851932 -0.25970224
-0.044440854 0.0069297664 -0.25969639
-0.04443616 0.0070045199 -0.2597326
-0.04443156 0.0070792306 -0.25976679
-0.044427451 0.0071537225 -0.25979099
-0.044423535 0.0072281277 -0.25981119
-0.044419352 0.0073046181 -0.25983536
-0.04441575 0.0073808469 -0.25984752
-0.044412851 0.0074587222 -0.25984371
-0.044409543 0.0075348197 -0.25984988
-0.044406526 0.0076107858 -0.25985008
-0.044402946 0.0076889684 -0.25986022
-0.044399127 0.0077633299 -0.25987843
-0.044395722 0.0078394711 -0.25988662
-0.044392534 0.0079174777 -0.25988877
-0.044389926 0.0079952246 -0.2598789
-0.044388413 0.0080744447 -0.25984508
-0.044387195 0.0081535336 -0.25980523
-0.044385098 0.0082330145 -0.25978336
-0.044382669 0.0083087198 -0.25977159
-0.044379771 0.0083865961 -0.25976771
-0.044376582 0.0084646046 -0.25976986
-0.044373661 0.008540527 -0.25976807
-0.044370353 0.0086166235 -0.25977424
-0.044365659 0.0086913779 -0.25981045
-0.044361062 0.0087660886 -0.25984463
-0.044357263 0.0088424031 -0.25986081
-0.044353567 0.0089186765 -0.25987497
-0.044349965 0.0089949043 -0.25988716
-0.044346653 0.0090710009 -0.25989336
-0.04434327 0.009149096 -0.25989947
-0.044339962 0.0092251934 -0.25990567
-0.044336751 0.0093012471 -0.25990987
-0.044333655 0.0093792118 -0.25990999
-0.044330955 0.0094570005 -0.25990215
-0.044328835 0.0095345285 -0.25988233
-0.044326816 0.0096120127 -0.25986052
-0.04432499 0.0096894084 -0.25983471
-0.044323381 0.0097686732 -0.25980285
-0.044321675 0.00984798 -0.25977299
-0.044319246 0.0099236835 -0.25976121
-0.04431615 0.010001648 -0.25976136
-0.04431304 0.010077659 -0.25976354
-0.044309653 0.010155752 -0.25976968
-0.044306248 0.010231894 -0.25977787
-0.044302937 0.010307991 -0.25978404
-0.044299629 0.010384089 -0.25979024
-0.044296339 0.01046214 -0.25979438
-0.044293422 0.010538062 -0.25979257
-0.044290621 0.010615896 -0.25978673
-0.044288017 0.010693642 -0.25977689
-0.044285197 0.010769521 -0.25977311
-0.044282101 0.010847485 -0.25977325
-0.044279087 0.010923451 -0.25977343
-0.044276483 0.011001197 -0.2597636
-0.044274267 0.011078767 -0.25974578
-0.044271857 0.011156427 -0.25973195
-0.044269152 0.011234216 -0.25972411
-0.044266354 0.011312049 -0.25971824
-0.044263728 0.011387841 -0.25971046
-0.044261221 0.011465544 -0.25969863
-0.044258907 0.011543158 -0.2596828
-0.044256203 0.011620947 -0.25967497
-0.044252701 0.011697132 -0.25968516
-0.044248298 0.011771755 -0.25971535
-0.044243623 0.011848464 -0.2597495
-0.044240121 0.011924648 -0.25975966
-0.0442372 0.012000571 -0.25975788
-0.044234205 0.012078491 -0.25975603
-0.0442308 0.012154631 -0.25976419
-0.044227295 0.012230816 -0.25977439
-0.044223987 0.012306914 -0.25978059
-0.044221185 0.012384747 -0.25977471
-0.044218678 0.012462449 -0.25976288
-0.044216365 0.012540064 -0.25974706
-0.044214033 0.012615725 -0.25973326
-0.044211429 0.01269347 -0.25972342
-0.044208627 0.012771305 -0.25971758
-0.044205904 0.01284714 -0.2597118
-0.044202812 0.012925103 -0.25971195
-0.044199407 0.013001244 -0.25972012
-0.044194829 0.013077909 -0.25975227
-0.044190329 0.013152575 -0.25978446
-0.044186436 0.013228935 -0.25980264
-0.044183128 0.013305032 -0.25980884
-0.044180013 0.013381043 -0.25981101
-0.044176627 0.013459137 -0.25981715
-0.04417244 0.013535627 -0.25984132
-0.04416845 0.01361203 -0.25986147
-0.044165239 0.013688084 -0.25986567
-0.044162318 0.013764006 -0.25986385
-0.044159323 0.013841927 -0.25986201
-0.044156719 0.013919672 -0.25985217
-0.044154309 0.01399733 -0.25983834
-0.044151779 0.014073079 -0.25982857
-0.044149663 0.014150606 -0.25980872
-0.044148445 0.014229695 -0.2597689
-0.044147007 0.014306918 -0.25973508
-0.044145573 0.014384139 -0.25970128
-0.04414326 0.014461754 -0.25968546
-0.044139758 0.014537939 -0.25969565
-0.044135667 0.014614386 -0.25971779
-0.044131968 0.014690657 -0.25973198
-0.044128779 0.014768665 -0.25973412
-0.044125762 0.014844631 -0.25973433
-0.044122357 0.014920772 -0.2597425
-0.044118561 0.014997087 -0.25975868
-0.044115175 0.015075183 -0.25976482
-0.044111867 0.01515128 -0.25977099
-0.044108361 0.015227464 -0.25978118
-0.044104956 0.015303605 -0.25978935
-0.04410157 0.015381699 -0.25979549
-0.044099137 0.015457405 -0.25978372
-0.04409663 0.015535107 -0.25977188
-0.04409381 0.015610985 -0.25976807
-0.044090815 0.015688905 -0.25976622
-0.044087898 0.015764829 -0.25976443
-0.044084512 0.015842924 -0.25977057
-0.044081692 0.015918802 -0.25976676
