# .PCD v0.7 - Point Cloud Data file format
VERSION 0.7
FIELDS x y z
SIZE 4 4 4
TYPE F F F
COUNT 1 1 1
WIDTH 1262
HEIGHT 1
VIEWPOINT 0 0 0 1 0 0 0
POINTS 1262
DATA ascii
-0.03926206 -0.027820047 -0.26465088
-0.039258741 -0.027741997 -0.26465502
-0.039256025 -0.027662253 -0.26464516
-0.039253291 -0.027584463 -0.26463732
-0.039250772 -0.027504805 -0.26462346
-0.039248038 -0.027427018 -0.2646156
-0.039244622 -0.027348923 -0.26462176
-0.039241128 -0.027268833 -0.26462787
-0.039237905 -0.027190827 -0.26463002
-0.03923488 -0.027112907 -0.26462817
-0.039231658 -0.027034901 -0.26463035
-0.039228629 -0.026956979 -0.2646285
-0.039225429 -0.02687702 -0.26462859
-0.039222304 -0.026799057 -0.26462877
-0.039219376 -0.026721181 -0.26462492
-0.039216075 -0.026641177 -0.26462704
-0.03921305 -0.026563257 -0.26462519
-0.039210219 -0.026485424 -0.26461935
-0.039207093 -0.026407462 -0.26461953
-0.039203696 -0.026327413 -0.26462364
-0.039201058 -0.026249668 -0.26461381
-0.039198227 -0.026171835 -0.26460797
-0.039194733 -0.026091743 -0.26461405
-0.039191805 -0.026013868 -0.26461023
-0.039189365 -0.025936209 -0.2645964
-0.039186161 -0.025856247 -0.26459652
-0.039182842 -0.025778197 -0.26460069
-0.039179623 -0.025700193 -0.26460284
-0.039176613 -0.025620317 -0.26459894
-0.039173394 -0.025542311 -0.26460111
-0.039169878 -0.025464175 -0.26460925
-0.039166853 -0.025386255 -0.2646074
-0.039164528 -0.025306685 -0.26458955
-0.039161794 -0.025228895 -0.26458171
-0.03915818 -0.025150716 -0.26459184
-0.03915498 -0.025070755 -0.26459196
-0.039152052 -0.024992879 -0.26458812
-0.039148927 -0.024914917 -0.2645883
-0.039145999 -0.024837039 -0.26458445
-0.039143186 -0.024757251 -0.26457658
-0.039140355 -0.024679419 -0.26457074
-0.039137036 -0.02460137 -0.26457489
-0.039133735 -0.024521366 -0.264577
-0.039130904 -0.024443533 -0.26457116
-0.039127976 -0.024365656 -0.26456732
-0.03912485 -0.024287693 -0.26456749
-0.039121825 -0.024209773 -0.26456565
-0.039118428 -0.024129726 -0.26456976
-0.039115205 -0.02405172 -0.26457191
-0.039111886 -0.02397367 -0.26457605
-0.039108664 -0.023895664 -0.26457822
-0.039105833 -0.023817832 -0.26457238
-0.039103314 -0.023738174 -0.26455849
-0.039100386 -0.023660298 -0.26455468
-0.039097067 -0.023582248 -0.26455882
-0.039093766 -0.023502244 -0.26456094
-0.039090935 -0.023424411 -0.2645551
-0.03908781 -0.023346448 -0.26455525
-0.039084494 -0.023268398 -0.26455939
-0.039081581 -0.023188569 -0.26455355
-0.039078947 -0.023110822 -0.26454371
-0.039076507 -0.023033163 -0.26452988
-0.039073985 -0.022953505 -0.264516
-0.039071251 -0.022875715 -0.26450819
-0.039067056 -0.022797275 -0.2645303
-0.039062761 -0.022718793 -0.26455444
-0.03905993 -0.02264096 -0.2645486
-0.039057117 -0.022561172 -0.26454073
-0.039053798 -0.022483123 -0.26454484
-0.039050087 -0.0224049 -0.264557
-0.039047159 -0.022327023 -0.26455319
-0.039044738 -0.022247409 -0.2645373
-0.03904181 -0.022169534 -0.26453346
-0.039038781 -0.022091614 -0.26453161
-0.039035659 -0.022013651 -0.26453179
-0.039032359 -0.021933647 -0.26453388
-0.039029233 -0.021855684 -0.26453406
-0.039026305 -0.021777807 -0.26453021
-0.039023202 -0.02169789 -0.26452833
-0.039020173 -0.02161997 -0.26452649
-0.039017051 -0.021542007 -0.26452667
-0.039013926 -0.021464044 -0.26452681
-0.039010823 -0.021384127 -0.26452494
-0.039007992 -0.021306295 -0.2645191
-0.039005257 -0.021228505 -0.26451126
-0.039001938 -0.021150455 -0.2645154
-0.038998909 -0.021072535 -0.26451355
-0.038996197 -0.020992791 -0.26450369
-0.038992975 -0.020914786 -0.26450586
-0.038989168 -0.020836519 -0.26451999
-0.038985945 -0.020758513 -0.26452214
-0.038983136 -0.020678725 -0.26451427
-0.038980499 -0.020600978 -0.26450443
-0.038977765 -0.020523189 -0.26449659
-0.038974348 -0.020445097 -0.26450276
-0.038971048 -0.020365093 -0.26450485
-0.038967729 -0.020287042 -0.26450902
-0.038964897 -0.02020921 -0.26450318
-0.038962845 -0.020131724 -0.26448137
-0.038959742 -0.020051807 -0.26447949
-0.038955934 -0.019973541 -0.26449361
-0.038952615 -0.01989549 -0.26449776
-0.038949296 -0.01981744 -0.26450193
-0.038946096 -0.01973748 -0.26450205
-0.038943361 -0.019659691 -0.26449421
-0.038940627 -0.019581901 -0.26448637
-0.038937502 -0.019503938 -0.26448652
-0.038933814 -0.01942376 -0.26449662
-0.038930688 -0.019345798 -0.26449677
-0.038928054 -0.019268051 -0.26448697
-0.03892532 -0.019190261 -0.26447913
-0.038922213 -0.019110344 -0.26447725
-0.038919188 -0.019032424 -0.26447541
-0.038915966 -0.018954419 -0.26447755
-0.038913328 -0.018876672 -0.26446772
-0.038910713 -0.018796971 -0.26445585
-0.038907394 -0.018718923 -0.26446
-0.038903683 -0.018640699 -0.26447213
-0.038900364 -0.018562648 -0.2644763
-0.038897727 -0.018484903 -0.26446646
-0.038894624 -0.018404987 -0.26446459
-0.038891111 -0.018326849 -0.26447272
-0.03888781 -0.018246844 -0.26447484
-0.038885172 -0.018169099 -0.264465
-0.038882341 -0.018091267 -0.26445919
-0.038879413 -0.01801339 -0.26445535
-0.038876288 -0.017935427 -0.2644555
-0.038872696 -0.017855294 -0.2644636
-0.038869672 -0.017777374 -0.26446176
-0.038866743 -0.017699497 -0.26445791
-0.03886354 -0.017619537 -0.26445803
-0.038860515 -0.017541617 -0.26445618
-0.038857095 -0.017463524 -0.26446235
-0.038853973 -0.017385561 -0.2644625
-0.038851626 -0.017307945 -0.26444668
-0.038848624 -0.017228071 -0.2644428
-0.038845107 -0.017149935 -0.26445094
-0.038841981 -0.017071972 -0.26445109
-0.038838975 -0.016992098 -0.26444721
-0.038835462 -0.016913962 -0.26445535
-0.038832437 -0.016836042 -0.26445353
-0.038830481 -0.016758598 -0.26442972
-0.038827866 -0.016678898 -0.26441783
-0.038824156 -0.016600676 -0.26442999
-0.038820643 -0.016522538 -0.26443815
-0.038817614 -0.01644462 -0.2644363
-0.038814608 -0.016364746 -0.2644324
-0.038811971 -0.016286999 -0.2644226
-0.038809139 -0.016209166 -0.26441675
-0.038805917 -0.016131159 -0.2644189
-0.038802519 -0.016051114 -0.26442301
-0.038799301 -0.015973106 -0.26442516
-0.038796857 -0.015895447 -0.26441133
-0.03879432 -0.015817743 -0.26439953
-0.038790338 -0.015737437 -0.26441562
-0.03878624 -0.01565904 -0.26443574
-0.038783308 -0.015581164 -0.26443189
-0.038780205 -0.015501246 -0.26443002
-0.038776886 -0.015423196 -0.26443416
-0.038774248 -0.01534545 -0.26442432
-0.038771633 -0.01526575 -0.26441246
-0.038768604 -0.01518783 -0.26441061
-0.038764995 -0.015109651 -0.26442075
-0.038761303 -0.015029473 -0.26443085
-0.038758472 -0.01495164 -0.26442504
-0.038755838 -0.014873894 -0.2644152
-0.038752809 -0.014795974 -0.26441336
-0.038749803 -0.0147161 -0.26440948
-0.038746484 -0.01463805 -0.26441363
-0.038742971 -0.014559914 -0.26442176
-0.038739573 -0.014479866 -0.26442587
-0.038736645 -0.014401991 -0.26442203
-0.03873381 -0.014324157 -0.26441622
-0.038731176 -0.014246412 -0.26440638
-0.038728245 -0.014168535 -0.26440254
-0.038725238 -0.014088661 -0.26439866
-0.038722407 -0.014010828 -0.26439282
-0.038719207 -0.013930867 -0.26439294
-0.038715791 -0.013852775 -0.26439908
-0.038712762 -0.013774855 -0.26439726
-0.038709931 -0.013697022 -0.26439142
-0.038706437 -0.013616931 -0.2643975
-0.038703214 -0.013538925 -0.26439968
-0.03870048 -0.013461135 -0.26439184
-0.038697183 -0.013381131 -0.26439396
-0.03869357 -0.013302952 -0.26440409
-0.038690448 -0.013224989 -0.26440424
-0.038687635 -0.013145201 -0.26439637
-0.038684703 -0.013067326 -0.26439255
-0.038682166 -0.012989622 -0.26438069
-0.038680017 -0.012912093 -0.2643609
-0.038676795 -0.012834087 -0.26436305
-0.038672913 -0.012753822 -0.26437715
-0.03866969 -0.012675816 -0.26437929
-0.038666956 -0.012598027 -0.26437145
-0.038663559 -0.012517979 -0.26437557
-0.038660046 -0.012439843 -0.26438373
-0.038656745 -0.012359839 -0.26438582
-0.03865362 -0.012281876 -0.264386
-0.038650885 -0.012204086 -0.26437816
-0.038648076 -0.012124298 -0.26437026
-0.038644951 -0.012046335 -0.26437044
-0.038641751 -0.011966375 -0.26437053
-0.038638625 -0.011888412 -0.26437071
-0.038635794 -0.011810579 -0.26436487
-0.038632866 -0.011732703 -0.26436102
-0.038629271 -0.011652568 -0.26436913
-0.038625855 -0.011574476 -0.26437527
-0.038622849 -0.011494601 -0.2643714
-0.038619921 -0.011416726 -0.26436755
-0.03861738 -0.011339023 -0.26435572
-0.038614452 -0.011261147 -0.2643519
-0.038611151 -0.011181142 -0.26435399
-0.038607735 -0.011103049 -0.26436016
-0.038604144 -0.011022914 -0.26436824
-0.038601313 -0.010945082 -0.26436242
-0.038598578 -0.010867293 -0.26435459
-0.038595475 -0.010787375 -0.26435271
-0.038592253 -0.010709369 -0.26435485
-0.038588934 -0.010631319 -0.264359
-0.038585633 -0.010551315 -0.26436111
-0.038582608 -0.010473396 -0.2643593
-0.038579796 -0.010393608 -0.2643514
-0.038577061 -0.010315818 -0.26434356
-0.038573742 -0.01023777 -0.26434773
-0.038570445 -0.010157764 -0.26434982
-0.038567711 -0.010079975 -0.26434201
-0.038564779 -0.010002099 -0.26433817
-0.038561851 -0.0099242227 -0.26433432
-0.038559116 -0.009846434 -0.26432651
-0.038555916 -0.0097664725 -0.2643266
-0.038552694 -0.0096884668 -0.26432878
-0.038549785 -0.0096086357 -0.26432288
-0.038546856 -0.0095307594 -0.26431903
-0.038543731 -0.0094527956 -0.26431921
-0.03854043 -0.0093727922 -0.2643213
-0.038537599 -0.0092949588 -0.26431549
-0.038534865 -0.0092171691 -0.26430765
-0.038531743 -0.0091392081 -0.2643078
-0.038528737 -0.0090593323 -0.26430392
-0.038526099 -0.0089815864 -0.26429409
-0.038523268 -0.008903753 -0.26428825
-0.038520824 -0.0088260956 -0.26427442
-0.038518969 -0.0087486953 -0.26424861
-0.038559102 -0.0087429732 -0.26340726
-0.038714916 -0.0083645741 -0.25984359
-0.038717177 -0.0082968567 -0.25974005
-0.038724426 -0.0082392134 -0.25954089
-0.038726002 -0.0081711933 -0.25945136
-0.03872633 -0.008100654 -0.25938576
-0.038727514 -0.0080324598 -0.25930423
-0.038728211 -0.0079640513 -0.25923267
-0.038728636 -0.0078935558 -0.25916508
-0.038728278 -0.0078227138 -0.25911343
-0.038727749 -0.0077498304 -0.25906378
-0.038727295 -0.0076789446 -0.25901413
-0.038726747 -0.007608017 -0.25896651
-0.038725726 -0.0075349174 -0.25892681
-0.038724318 -0.0074616438 -0.2588951
-0.038722813 -0.0073883273 -0.25886542
-0.038721111 -0.0073149232 -0.2588397
-0.038719606 -0.0072416076 -0.25880998
-0.038718197 -0.007168334 -0.25877827
-0.038716592 -0.0070949737 -0.25875059
-0.038714699 -0.007021484 -0.25872886
-0.038712803 -0.0069479924 -0.25870717
-0.038711101 -0.0068745892 -0.25868145
-0.038709126 -0.0067991028 -0.25865966
-0.03870694 -0.0067254826 -0.25864395
-0.038704768 -0.0066499067 -0.25862616
-0.038702775 -0.0065763732 -0.25860646
-0.038700294 -0.0065026237 -0.25859672
-0.038697638 -0.0064268317 -0.25858894
-0.038695469 -0.0063512567 -0.25857118
-0.038693279 -0.0062776366 -0.25855544
-0.03869082 -0.0062019322 -0.25854367
-0.038688142 -0.0061280951 -0.25853792
-0.038685117 -0.0060501751 -0.2585361
-0.038682539 -0.0059763808 -0.25852835
-0.038680173 -0.0059007201 -0.25851458
-0.038677886 -0.0058270562 -0.25850084
-0.038675133 -0.0057512214 -0.25849506
-0.038672283 -0.0056753438 -0.25849128
-0.03866943 -0.0055994652 -0.25848749
-0.038666774 -0.0055236733 -0.25847971
-0.038664002 -0.0054497933 -0.25847596
-0.038660858 -0.0053737853 -0.25847816
-0.038657341 -0.0052956492 -0.2584863
-0.038654003 -0.0052195545 -0.2584925
-0.03865049 -0.0051414175 -0.25850064
-0.038647149 -0.0050653219 -0.25850683
-0.038643442 -0.0049870992 -0.25851899
-0.038639732 -0.0049088765 -0.25853112
-0.038636491 -0.0048328238 -0.25853533
-0.038633052 -0.0047566853 -0.25854352
-0.038629245 -0.0046784207 -0.25855765
-0.038626101 -0.0046024118 -0.25855985
-0.038623054 -0.0045264456 -0.25856006
-0.038619637 -0.0044483542 -0.2585662
-0.038616396 -0.0043723024 -0.2585704
-0.038613252 -0.0042962935 -0.25857261
-0.03861003 -0.0042182878 -0.25857478
-0.038606595 -0.0041421484 -0.25858295
-0.038603351 -0.0040660966 -0.25858718
-0.038600132 -0.0039880909 -0.25858933
-0.038596988 -0.0039120819 -0.25859153
-0.038593374 -0.003833903 -0.25860167
-0.038589839 -0.0037577227 -0.25861186
-0.038586229 -0.0036795419 -0.25862199
-0.038582791 -0.0036034025 -0.25863019
-0.038579375 -0.0035253093 -0.25863636
-0.03857594 -0.0034491718 -0.25864452
-0.038572621 -0.0033711214 -0.25864869
-0.038569376 -0.0032950696 -0.2586529
-0.038566157 -0.0032170638 -0.25865504
-0.038562622 -0.0031408835 -0.25866523
-0.038559109 -0.0030627456 -0.25867337
-0.038556062 -0.0029867813 -0.25867358
-0.038552448 -0.0029086005 -0.25868374
-0.038548917 -0.0028324202 -0.25869393
-0.038545791 -0.0027544573 -0.25869408
-0.03854255 -0.0026784055 -0.25869828
-0.038539134 -0.0026003104 -0.25870442
-0.038535696 -0.0025241729 -0.25871262
-0.038532376 -0.0024461225 -0.25871676
-0.038529038 -0.0023700278 -0.25872296
-0.038525328 -0.0022918042 -0.25873512
-0.038522009 -0.0022137556 -0.25873926
-0.038518962 -0.0021377914 -0.25873947
-0.038516015 -0.0020618699 -0.25873768
-0.038512673 -0.0019857753 -0.25874388
-0.03850916 -0.0019076392 -0.25875202
-0.038505644 -0.0018295012 -0.25876015
-0.0385026 -0.001753537 -0.25876036
-0.038499944 -0.001677746 -0.25875258
-0.038496897 -0.0016017817 -0.25875279
-0.038493577 -0.0015237313 -0.25875694
-0.038490139 -0.0014475919 -0.25876513
-0.038486626 -0.0013694558 -0.25877327
-0.038483404 -0.0012914483 -0.25877544
-0.038480066 -0.0012153536 -0.25878164
-0.038476747 -0.0011373032 -0.25878578
-0.038473796 -0.0010613836 -0.258784
-0.038470652 -0.00098537654 -0.2587862
-0.038467705 -0.00090945512 -0.25878441
-0.038465045 -0.00083366223 -0.25877661
-0.038461629 -0.00075557083 -0.25878274
-0.038458019 -0.00067739002 -0.25879291
-0.038454875 -0.0006013792 -0.25879511
-0.038451828 -0.00052541494 -0.25879532
-0.038448781 -0.00044945069 -0.25879553
-0.038445853 -0.00037157536 -0.25879169
-0.0384431 -0.00029574148 -0.2587859
-0.038440149 -0.00021982007 -0.25878412
-0.038436636 -0.0001416821 -0.25879225
-0.038433392 -6.5630302e-05 -0.25879645
-0.038430445 1.0292977e-05 -0.25879467
-0.038427886 8.6039305e-05 -0.25878489
-0.038424935 0.00016196072 -0.2587831
-0.038421713 0.00023996644 -0.25878525
-0.038418766 0.00031588785 -0.25878346
-0.038415816 0.00039180927 -0.25878167
-0.038412478 0.00046790391 -0.25878787
-0.038409628 0.00054378435 -0.25878406
-0.038406793 0.00062161684 -0.25877821
-0.038403846 0.00069753826 -0.25877643
-0.038400799 0.00077350438 -0.25877666
-0.038397655 0.00084951147 -0.25877884
-0.038394626 0.00092743151 -0.25877702
-0.038391873 0.0010032654 -0.25877124
-0.038389489 0.0010769721 -0.2587595
-0.038386367 0.0011549369 -0.25875965
-0.038382657 0.0012331586 -0.25877178
-0.038379416 0.0013092104 -0.25877598
-0.038376562 0.001385089 -0.25877219
-0.038373515 0.0014610533 -0.2587724
-0.038370684 0.0015388876 -0.25876656
-0.038368106 0.0016126819 -0.25875884
-0.038365256 0.0016885605 -0.25875506
-0.038362503 0.0017643925 -0.25874925
-0.038359746 0.0018402264 -0.25874346
-0.038356721 0.0019181482 -0.25874162
-0.038353946 0.0019920263 -0.25873789
-0.038351193 0.0020678639 -0.25873211
-0.038348068 0.0021458268 -0.25873226
-0.03834502 0.0022217911 -0.25873247
-0.038342267 0.0022976268 -0.25872669
-0.038339514 0.0023734607 -0.2587209
-0.038336664 0.0024493393 -0.25871712
-0.038333811 0.0025252178 -0.2587133
-0.038330764 0.0026011821 -0.25871351
-0.038327642 0.002679145 -0.25871366
-0.038324594 0.0027551092 -0.25871387
-0.038321547 0.0028310753 -0.25871408
-0.038318794 0.0029069092 -0.2587083
-0.038316138 0.0029827002 -0.25870052
-0.038313381 0.0030585378 -0.25869474
-0.038310628 0.0031343717 -0.25868896
-0.038307954 0.0032082088 -0.2586832
-0.038305297 0.0032839999 -0.25867543
-0.038302541 0.0033598356 -0.25866961
-0.038299497 0.0034358017 -0.25866985
-0.038296841 0.0035115909 -0.25866205
-0.038294554 0.0035852529 -0.25864834
-0.038291428 0.0036632158 -0.25864848
-0.038288187 0.0037392695 -0.25865269
-0.038284868 0.0038173199 -0.25865683
-0.038281452 0.0038954113 -0.258663
-0.03827811 0.0039715078 -0.2586692
-0.038275357 0.0040473435 -0.25866339
-0.038273171 0.0041209627 -0.25864768
-0.038270805 0.0041966233 -0.25863388
-0.038267955 0.0042725038 -0.2586301
-0.038265005 0.0043484233 -0.25862831
-0.038262252 0.0044242572 -0.25862253
-0.038259674 0.0044980496 -0.25861478
-0.038257211 0.0045737568 -0.25860304
-0.038254261 0.0046496782 -0.25860122
-0.038250942 0.0047277287 -0.25860536
-0.038247995 0.0048036501 -0.25860357
-0.038245708 0.0048773121 -0.25858986
-0.038243052 0.004953105 -0.25858206
-0.038239907 0.005029114 -0.25858426
-0.038236957 0.0051050354 -0.25858247
-0.038234301 0.0051808264 -0.25857469
-0.038231254 0.0052567907 -0.2585749
-0.038227938 0.0053348392 -0.25857905
-0.038225181 0.005410675 -0.25857326
-0.040101573 -0.043190975 -0.25998372
-0.040098447 -0.043113012 -0.2599839
-0.040095888 -0.043037266 -0.25997412
-0.040092938 -0.042961344 -0.25997233
-0.040089402 -0.042885162 -0.25998253
-0.04008624 -0.042811107 -0.25998676
-0.040083095 -0.0427351 -0.25998896
-0.040080048 -0.042659134 -0.25998917
-0.04007731 -0.042581346 -0.25998133
-0.040074654 -0.042505555 -0.25997356
-0.040071607 -0.042429589 -0.25997376
-0.040068679 -0.042351715 -0.25996992
-0.040065728 -0.04227579 -0.25996813
-0.040062368 -0.042201649 -0.25997636
-0.040059321 -0.042125687 -0.25997657
-0.04005637 -0.042049766 -0.25997478
-0.040053226 -0.041973755 -0.25997698
-0.040050395 -0.041895922 -0.25997114
-0.040047638 -0.041820087 -0.25996536
-0.040044397 -0.041744038 -0.25996956
-0.040041253 -0.041668028 -0.25997177
-0.040038515 -0.041590236 -0.25996393
-0.040035665 -0.041514359 -0.25996014
-0.040032715 -0.041438438 -0.25995836
-0.040029764 -0.041362517 -0.25995654
-0.040026911 -0.04128664 -0.25995278
-0.04002367 -0.041210588 -0.25995696
-0.040020213 -0.041136406 -0.25996721
-0.040017359 -0.041060522 -0.25996342
-0.040014431 -0.040982649 -0.25995958
-0.040011186 -0.040906597 -0.25996378
-0.040008139 -0.040830631 -0.25996399
-0.040005289 -0.040754754 -0.2599602
-0.040001929 -0.04068061 -0.25996843
-0.0399989 -0.040602691 -0.25996661
-0.039996557 -0.040525079 -0.25995079
-0.0399938 -0.040449243 -0.25994501
-0.03999085 -0.040373322 -0.25994319
-0.039987922 -0.040295444 -0.25993937
-0.039984681 -0.040219393 -0.25994357
-0.039981611 -0.040145382 -0.25994581
-0.03997878 -0.04006755 -0.25993997
-0.039975926 -0.039991673 -0.25993618
-0.039972976 -0.039915752 -0.2599344
-0.039969951 -0.03983783 -0.25993258
-0.039967097 -0.039761953 -0.25992876
-0.039964363 -0.039684162 -0.25992092
-0.039961509 -0.039608285 -0.25991714
-0.039958559 -0.039532363 -0.25991535
-0.039955612 -0.039456442 -0.25991356
-0.039952464 -0.039380431 -0.25991577
-0.039949417 -0.039304469 -0.25991598
-0.03994637 -0.039228506 -0.25991619
-0.039943419 -0.039152585 -0.2599144
-0.039940588 -0.039074749 -0.25990856
-0.039937951 -0.038997002 -0.25989872
-0.039935216 -0.03891921 -0.25989091
-0.039932169 -0.038843252 -0.25989109
-0.039929416 -0.038767416 -0.25988531
-0.039926581 -0.038689584 -0.25987947
-0.039923634 -0.038613662 -0.25987768
-0.039920878 -0.038537823 -0.2598719
-0.039917927 -0.038461901 -0.25987011
-0.039914589 -0.038385808 -0.25987631
-0.039911345 -0.038309757 -0.25988051
-0.039908689 -0.038233966 -0.25987273
-0.039906558 -0.038154483 -0.25985086
-0.039904311 -0.038076907 -0.25983304
-0.039901458 -0.038001031 -0.25982925
-0.039898723 -0.037923239 -0.25982141
-0.039895874 -0.037847362 -0.25981763
-0.039892748 -0.0377694 -0.25981781
-0.039889894 -0.037693523 -0.25981399
-0.039886944 -0.037617601 -0.25981221
-0.039884288 -0.037541807 -0.25980443
-0.039881554 -0.037464019 -0.25979662
-0.039878506 -0.037388053 -0.2597968
-0.039875261 -0.037312001 -0.259801
-0.039872412 -0.037236124 -0.25979722
-0.03986948 -0.037158251 -0.25979337
-0.039866529 -0.037082329 -0.25979158
-0.039863873 -0.037006535 -0.2597838
-0.039861042 -0.036928698 -0.25977796
-0.039858092 -0.036852777 -0.25977618
-0.039855238 -0.0367769 -0.25977239
-0.039852407 -0.036699068 -0.25976655
-0.039849456 -0.03662315 -0.25976476
-0.039846312 -0.036547139 -0.25976697
-0.039843459 -0.036471263 -0.25976318
-0.039840627 -0.036393426 -0.25975734
-0.039838262 -0.036317766 -0.25974357
-0.039835624 -0.036240019 -0.25973374
-0.039832775 -0.036164142 -0.25972995
-0.039829921 -0.036088265 -0.25972617
-0.03982709 -0.036010433 -0.25972033
-0.039824236 -0.035934553 -0.25971654
-0.039820995 -0.035858504 -0.25972074
-0.039817948 -0.035782538 -0.25972095
-0.039815504 -0.035704877 -0.25970712
-0.03981277 -0.035627089 -0.25969929
-0.039809722 -0.035551123 -0.25969949
-0.039806578 -0.035475112 -0.2597017
-0.039803434 -0.035399105 -0.2597039
-0.039800581 -0.035323229 -0.25970012
-0.039797924 -0.035247438 -0.25969231
-0.039795287 -0.035169691 -0.25968251
-0.03979224 -0.035093725 -0.25968271
-0.039788995 -0.035017677 -0.25968689
-0.039785851 -0.034941666 -0.25968909
-0.039782997 -0.034865789 -0.25968531
-0.039780051 -0.034789868 -0.25968352
-0.039776806 -0.034713816 -0.25968772
-0.039773468 -0.034637719 -0.25969392
-0.03977083 -0.034559973 -0.25968409
-0.039768271 -0.034484223 -0.25967431
-0.039764833 -0.034408085 -0.25968251
-0.039761081 -0.034333773 -0.25969875
-0.039757546 -0.034257591 -0.25970894
-0.039753992 -0.034183361 -0.25972116
-0.039750457 -0.034107182 -0.25973135
-0.039747216 -0.03403113 -0.25973555
-0.039743971 -0.033955079 -0.25973976
-0.039740827 -0.033879071 -0.25974196
-0.039737467 -0.033804931 -0.25975019
-0.039733835 -0.033728704 -0.25976238
-0.039730474 -0.033654563 -0.25977063
-0.039726745 -0.033578295 -0.25978482
-0.039722994 -0.033503983 -0.25980103
-0.039719559 -0.033427842 -0.25980923
-0.039715808 -0.03335353 -0.25982547
-0.039711669 -0.033279043 -0.25984967
-0.039707236 -0.033204425 -0.25987989
-0.0397029 -0.033129852 -0.25990808
-0.039698955 -0.033055451 -0.25992832
-0.039694618 -0.032980878 -0.25995654
-0.039689973 -0.032908127 -0.25999278
-0.039685246 -0.032833382 -0.26002899
-0.039680794 -0.032760717 -0.26006123
-0.039676555 -0.032686189 -0.26008746
-0.039671831 -0.032611441 -0.26012367
-0.039666891 -0.032538563 -0.26016587
-0.039661657 -0.032465551 -0.26021412
-0.039656036 -0.032392368 -0.26027036
-0.039649904 -0.032320924 -0.2603386
-0.039644379 -0.032247782 -0.26039281
-0.039638832 -0.032176599 -0.26044908
-0.039631724 -0.032104719 -0.2605373
-0.039623313 -0.032036185 -0.26065558
-0.039616674 -0.031966478 -0.26073587
-0.039607871 -0.031897772 -0.26086211
-0.039594304 -0.031834804 -0.26109242
-0.039425738 -0.031983711 -0.2647306
-0.039532769 -0.031758368 -0.26231149
-0.039526951 -0.031685099 -0.26237172
-0.039512899 -0.031621911 -0.26261199
-0.03944793 -0.031459522 -0.26383105
-0.039438736 -0.031390641 -0.26396531
-0.039414689 -0.031336758 -0.26442161
-0.039408971 -0.03126353 -0.26447982
-0.039400499 -0.031191047 -0.26459602
-0.039393824 -0.031115431 -0.26467216
-0.039389607 -0.031038947 -0.2646963
-0.039386578 -0.030961027 -0.26469448
-0.039383452 -0.030883064 -0.26469463
-0.039380249 -0.030803105 -0.26469475
-0.039377514 -0.030725315 -0.26468691
-0.039374605 -0.030645482 -0.26468104
-0.039371286 -0.030567434 -0.26468518
-0.039368354 -0.030489558 -0.26468134
-0.039365347 -0.030409683 -0.26467746
-0.03936271 -0.030331939 -0.26466763
-0.039359607 -0.030252021 -0.26466575
-0.039355993 -0.03017384 -0.26467589
-0.03935267 -0.03009579 -0.26468006
-0.039349839 -0.030017959 -0.26467422
-0.039346736 -0.02993804 -0.26467234
-0.039343417 -0.02985999 -0.26467648
-0.039340191 -0.029781986 -0.26467866
-0.039336774 -0.029703893 -0.2646848
-0.039333552 -0.029625885 -0.26468694
-0.039330643 -0.029546056 -0.26468107
-0.039328221 -0.029466441 -0.26466519
-0.039325289 -0.029388566 -0.26466137
-0.039321873 -0.029310472 -0.26466751
-0.039318863 -0.029230598 -0.26466364
-0.03931623 -0.029152852 -0.2646538
-0.039312907 -0.029074803 -0.26465794
-0.039309394 -0.028996665 -0.26466608
-0.039306287 -0.028916748 -0.2646642
-0.039303161 -0.028838785 -0.26466435
-0.039299551 -0.028760605 -0.26467451
-0.039296426 -0.028682644 -0.26467466
-0.039294004 -0.028603029 -0.26465881
-0.039290994 -0.028523155 -0.26465493
-0.039287869 -0.028445192 -0.26465508
-0.039284743 -0.028367229 -0.26465523
-0.039281521 -0.028289221 -0.26465738
-0.039278515 -0.028209349 -0.2646535
-0.039275877 -0.028131602 -0.26464367
-0.039273065 -0.028051816 -0.2646358
-0.039269745 -0.027973766 -0.26463994
-0.03926662 -0.027895803 -0.26464009
-0.039263107 -0.027817667 -0.26464826
-0.039259687 -0.027739573 -0.2646544
-0.039256971 -0.02765983 -0.26464453
-0.039254237 -0.02758204 -0.2646367
-0.039251719 -0.027502382 -0.26462284
-0.039248906 -0.027422596 -0.26461494
-0.039245564 -0.027346499 -0.26462114
-0.03924207 -0.027266409 -0.26462725
-0.039238945 -0.027188446 -0.2646274
-0.039235819 -0.027110483 -0.26462758
-0.039232597 -0.027032478 -0.26462972
-0.039229572 -0.026954558 -0.26462787
-0.039226368 -0.026874598 -0.26462799
-0.039223436 -0.026796721 -0.26462418
-0.039220311 -0.026718758 -0.2646243
-0.039217111 -0.026638798 -0.26462442
-0.039214179 -0.026560921 -0.2646206
-0.039211251 -0.026483044 -0.26461676
-0.039208028 -0.02640504 -0.2646189
-0.039204728 -0.026325036 -0.26462102
-0.03920209 -0.026247289 -0.26461118
-0.039199159 -0.026169412 -0.26460734
-0.039195664 -0.026089322 -0.26461345
-0.039192833 -0.026011489 -0.26460761
-0.039190389 -0.02593383 -0.26459378
-0.039187089 -0.025853826 -0.2645959
-0.039183769 -0.025775775 -0.26460007
-0.039180547 -0.02569777 -0.26460221
-0.039177541 -0.025617896 -0.26459831
-0.039174415 -0.025539933 -0.26459849
-0.039170802 -0.025461752 -0.26460862
-0.039167874 -0.025383877 -0.26460481
-0.039165549 -0.025304306 -0.26458693
-0.039162718 -0.025226474 -0.26458108
-0.039159104 -0.025148293 -0.26459125
-0.0391559 -0.025068333 -0.26459134
-0.039152972 -0.024990456 -0.26458752
-0.039149847 -0.024912493 -0.26458767
-0.039147012 -0.024834661 -0.26458183
-0.039144199 -0.024754874 -0.26457396
-0.039141271 -0.024676997 -0.26457012
-0.039137952 -0.024598949 -0.26457429
-0.039134651 -0.024518944 -0.26457638
-0.03913182 -0.024441112 -0.26457053
-0.039128888 -0.024363235 -0.26456672
-0.03912586 -0.024285315 -0.26456487
-0.039122835 -0.024207396 -0.26456305
-0.039119437 -0.024127349 -0.26456714
-0.039116114 -0.024049299 -0.26457128
-0.039112795 -0.023971248 -0.26457545
-0.039109573 -0.023893243 -0.2645776
-0.039106838 -0.023815453 -0.26456976
-0.03910422 -0.023735752 -0.2645579
-0.039101388 -0.02365792 -0.26455206
-0.039097972 -0.023579827 -0.26455823
-0.039094672 -0.023499822 -0.26456034
-0.039091837 -0.02342199 -0.2645545
-0.039088715 -0.023344027 -0.26455465
-0.039085396 -0.023265978 -0.26455879
-0.039082482 -0.023186147 -0.26455292
-0.039079845 -0.0231084 -0.26454309
-0.039077405 -0.023030741 -0.26452926
-0.039074883 -0.022951083 -0.2645154
-0.039072149 -0.022873294 -0.26450756
-0.03906795 -0.022794854 -0.26452971
-0.039063655 -0.022716371 -0.26455382
-0.03906092 -0.022638582 -0.26454598
-0.039058108 -0.022558795 -0.26453811
-0.039054692 -0.022480702 -0.26454425
-0.039050981 -0.022402478 -0.26455641
-0.03904815 -0.022324646 -0.26455057
-0.039045628 -0.022244988 -0.26453671
-0.0390427 -0.022167113 -0.26453286
-0.039039671 -0.022089193 -0.26453102
-0.039036546 -0.02201123 -0.2645312
-0.039033245 -0.021931225 -0.26453328
-0.03903012 -0.021853263 -0.26453346
-0.039027192 -0.021775387 -0.26452962
-0.039024085 -0.021695469 -0.26452774
-0.03902106 -0.02161755 -0.26452589
-0.039018031 -0.02153963 -0.26452404
-0.039014809 -0.021461625 -0.26452619
-0.039011803 -0.021381751 -0.26452231
-0.039008968 -0.021303918 -0.26451647
-0.039006136 -0.021226084 -0.26451063
-0.039002817 -0.021148035 -0.2645148
-0.038999788 -0.021070115 -0.26451296
-0.038997073 -0.020990372 -0.26450309
-0.03899385 -0.020912366 -0.26450524
-0.038990043 -0.0208341 -0.26451939
-0.038986821 -0.020756092 -0.26452154
-0.038984008 -0.020676306 -0.26451367
-0.038981467 -0.020598602 -0.26450184
-0.038978636 -0.020520769 -0.264496
-0.03897522 -0.020442676 -0.26450214
-0.038972016 -0.020362716 -0.26450226
-0.0389686 -0.020284623 -0.26450843
-0.038965765 -0.02020679 -0.26450258
-0.038963713 -0.020129304 -0.26448077
-0.03896061 -0.020049386 -0.26447886
-0.038956899 -0.019971164 -0.26449102
-0.038953483 -0.019893071 -0.26449716
-0.038950182 -0.019813066 -0.26449928
-0.03894696 -0.019735061 -0.26450142
-0.038944323 -0.019657314 -0.26449162
-0.038941588 -0.019579524 -0.26448378
-0.038938366 -0.019501518 -0.26448593
-0.038934674 -0.019421341 -0.26449603
-0.038931549 -0.019343378 -0.26449618
-0.038929008 -0.019265676 -0.26448435
-0.038926177 -0.019187843 -0.2644785
-0.03892317 -0.019107968 -0.26447463
-0.038920045 -0.019030005 -0.26447481
-0.038916823 -0.018951999 -0.26447695
-0.038914185 -0.018874254 -0.26446712
-0.038911663 -0.018794596 -0.26445323
-0.038908247 -0.018716503 -0.2644594
-0.038904633 -0.018638324 -0.26446956
-0.038901314 -0.018560274 -0.26447371
-0.03889858 -0.018482484 -0.26446587
-0.038895473 -0.018402567 -0.26446399
-0.03889196 -0.018324431 -0.26447213
-0.038888756 -0.01824447 -0.26447225
-0.038886022 -0.01816668 -0.26446441
-0.038883191 -0.018088847 -0.26445857
-0.038880259 -0.01801097 -0.26445475
-0.038877133 -0.017933009 -0.2644549
-0.038873542 -0.017852874 -0.26446301
-0.038870513 -0.017774954 -0.26446116
-0.038867585 -0.017697079 -0.26445732
-0.038864382 -0.017617118 -0.26445743
-0.038861353 -0.017539198 -0.26445559
-0.038858034 -0.017461149 -0.26445973
-0.038854811 -0.017383143 -0.2644619
-0.038852468 -0.017305527 -0.26444608
-0.038849555 -0.017225696 -0.26444021
-0.038845945 -0.017147517 -0.26445034
-0.03884282 -0.017069552 -0.26445049
-0.038839813 -0.016989678 -0.26444662
-0.038836394 -0.016911587 -0.26445276
-0.038833365 -0.016833667 -0.26445094
-0.038831413 -0.016756224 -0.26442713
-0.038828697 -0.01667648 -0.26441723
-0.038824987 -0.016598256 -0.26442939
-0.03882147 -0.01652012 -0.26443753
-0.038818542 -0.016442245 -0.26443368
-0.038815439 -0.016362328 -0.2644318
-0.038812801 -0.016284581 -0.264422
-0.038809966 -0.016206749 -0.26441616
-0.038806744 -0.016128741 -0.2644183
-0.038803346 -0.016048694 -0.26442242
-0.038800124 -0.015970688 -0.26442456
-0.038797684 -0.015893029 -0.26441073
-0.038795143 -0.015815325 -0.2643989
-0.038791157 -0.015735019 -0.264415
-0.038787156 -0.015656665 -0.26443315
-0.038784228 -0.01557879 -0.2644293
-0.038781121 -0.015498872 -0.26442742
-0.038777802 -0.015420822 -0.26443157
-0.038775068 -0.015343033 -0.26442373
-0.038772449 -0.015263332 -0.26441187
-0.038769521 -0.015185456 -0.26440802
-0.038765907 -0.015107276 -0.26441818
-0.038762216 -0.015027098 -0.26442826
-0.038759287 -0.014949223 -0.26442444
-0.03875665 -0.014871476 -0.26441461
-0.038753621 -0.014793557 -0.26441276
-0.038750615 -0.014713682 -0.26440889
-0.038747296 -0.014635633 -0.26441303
-0.038743779 -0.014557498 -0.26442116
-0.038740478 -0.014477492 -0.26442328
-0.038737454 -0.014399573 -0.26442146
-0.038734619 -0.014321741 -0.26441562
-0.038732078 -0.014244038 -0.26440379
-0.03872915 -0.014166161 -0.26439995
-0.038726043 -0.014086244 -0.26439807
-0.038723212 -0.014008411 -0.26439223
-0.038720012 -0.013928451 -0.26439235
-0.038716592 -0.013850357 -0.26439849
-0.038713664 -0.013772481 -0.26439464
-0.038710732 -0.013694605 -0.26439083
-0.038707335 -0.013614558 -0.26439491
-0.038704015 -0.013536507 -0.26439908
-0.038701378 -0.013458761 -0.26438925
-0.03869798 -0.013378715 -0.26439333
-0.038694367 -0.013300534 -0.26440349
-0.038691241 -0.013222571 -0.26440364
-0.038688429 -0.013142784 -0.26439577
-0.038685501 -0.013064908 -0.26439196
-0.03868296 -0.012987206 -0.2643801
-0.03868081 -0.012909676 -0.26436031
-0.038677685 -0.012831714 -0.26436046
-0.038673703 -0.012751406 -0.26437655
-0.03867048 -0.012673399 -0.2643787
-0.038667746 -0.01259561 -0.26437086
-0.038664348 -0.012515563 -0.26437497
-0.038660929 -0.01243747 -0.26438111
-0.038657628 -0.012357465 -0.26438323
-0.038654506 -0.012279503 -0.26438338
-0.038651671 -0.01220167 -0.26437756
-0.038648859 -0.012121882 -0.26436967
-0.038645834 -0.012043962 -0.26436785
-0.038642533 -0.011963959 -0.26436993
-0.038639408 -0.011885996 -0.26437011
-0.038636573 -0.011808163 -0.26436427
-0.038633741 -0.01173033 -0.26435843
-0.038630053 -0.011650153 -0.26436853
-0.038626634 -0.011572059 -0.26437467
-0.038623627 -0.011492185 -0.2643708
-0.038620796 -0.011414353 -0.26436496
-0.038618255 -0.011336651 -0.26435316
-0.038615324 -0.011258774 -0.26434931
-0.038612023 -0.01117877 -0.2643514
-0.03860851 -0.011100633 -0.26435956
-0.038604915 -0.011020499 -0.26436767
-0.038602084 -0.010942666 -0.26436183
-0.038599446 -0.01086492 -0.26435199
-0.038596343 -0.010785003 -0.26435012
-0.038593121 -0.010706997 -0.26435226
-0.038589798 -0.010628947 -0.26435643
-0.038586501 -0.010548943 -0.26435852
-0.038583472 -0.010471024 -0.26435667
-0.038580563 -0.010391193 -0.2643508
-0.038577829 -0.010313403 -0.26434296
-0.038574509 -0.010235354 -0.26434714
-0.038571209 -0.010155349 -0.26434922
-0.038568471 -0.010077559 -0.26434141
-0.038565543 -0.0099996831 -0.26433757
-0.038562611 -0.0099218078 -0.26433372
-0.038559876 -0.0098440191 -0.26432592
-0.038556773 -0.0097641004 -0.26432401
-0.038553454 -0.0096860519 -0.26432818
-0.038550541 -0.0096062198 -0.26432228
-0.03854771 -0.0095283873 -0.26431644
-0.038544584 -0.0094504245 -0.26431662
-0.038541283 -0.0093704201 -0.2643187
-0.038538452 -0.0092925876 -0.26431289
-0.038535718 -0.009214798 -0.26430506
-0.038532495 -0.0091367923 -0.2643072
-0.038529485 -0.0090569183 -0.26430333
-0.038526852 -0.0089791715 -0.26429349
-0.038524114 -0.0089013819 -0.26428568
-0.038521674 -0.0088237235 -0.26427186
-0.038519893 -0.0087483209 -0.26424611
-0.03855985 -0.0087405564 -0.26340666
-0.038715567 -0.0083621079 -0.25984499
-0.038717922 -0.0082944352 -0.25973949
-0.038725175 -0.0082367901 -0.25954032
-0.038726747 -0.00816877 -0.25945079
-0.038727172 -0.0080982745 -0.25938317
-0.038728356 -0.0080300802 -0.25930163
-0.038729053 -0.0079616709 -0.25923008
-0.038729381 -0.0078911316 -0.25916448
-0.03872912 -0.0078203334 -0.25911087
-0.03872849 -0.0077474071 -0.25906318
-0.03872804 -0.0076765213 -0.25901353
-0.038727488 -0.0076055937 -0.25896591
-0.038726468 -0.0075324932 -0.25892621
-0.038725059 -0.0074592195 -0.2588945
-0.038723648 -0.0073859468 -0.25886282
-0.038721949 -0.0073125428 -0.2588371
-0.03872044 -0.0072392272 -0.25880742
-0.038719032 -0.0071659535 -0.25877571
-0.03871733 -0.0070925504 -0.25874999
-0.038715433 -0.0070190597 -0.25872827
-0.038713537 -0.00694557 -0.25870657
-0.038711835 -0.0068721659 -0.25868085
-0.03870986 -0.0067966785 -0.25865906
-0.03870767 -0.0067230584 -0.25864336
-0.038705502 -0.0066474825 -0.2586256
-0.038703606 -0.0065739919 -0.25860387
-0.038701024 -0.0065001994 -0.25859612
-0.038698465 -0.0064244503 -0.25858635
-0.0386962 -0.0063488325 -0.25857058
-0.038694009 -0.0062752124 -0.25855488
-0.038691547 -0.0061995089 -0.25854307
-0.038688868 -0.0061256718 -0.25853735
-0.038686018 -0.0060497932 -0.25853354
-0.038683262 -0.0059739575 -0.25852776
-0.038680896 -0.0058982968 -0.25851399
-0.038678609 -0.0058246329 -0.25850028
-0.038675856 -0.0057487972 -0.2584945
-0.038673002 -0.0056729205 -0.25849068
-0.038670152 -0.005597041 -0.2584869
-0.038667493 -0.00552125 -0.25847912
-0.038664721 -0.0054473691 -0.25847536
-0.038661674 -0.0053714048 -0.25847557
-0.03865806 -0.0052932259 -0.25848573
-0.038654719 -0.0052171312 -0.25849193
-0.038651302 -0.005139037 -0.25849807
-0.038647864 -0.0050628986 -0.25850627
-0.038644154 -0.0049846759 -0.2585184
-0.03864054 -0.004906496 -0.25852856
-0.038637202 -0.0048304005 -0.25853473
-0.038633764 -0.0047542639 -0.25854295
-0.038629957 -0.0046759956 -0.25855708
-0.038626812 -0.0045999885 -0.25855929
-0.038623765 -0.0045240223 -0.25855947
-0.038620345 -0.0044459309 -0.25856563
-0.038617201 -0.004369922 -0.25856784
-0.038614057 -0.0042939149 -0.25857005
-0.038610738 -0.0042158645 -0.25857419
-0.038607396 -0.0041397698 -0.25858039
-0.038604058 -0.0040636733 -0.25858659
-0.038600836 -0.0039856676 -0.25858873
-0.038597688 -0.0039096605 -0.25859094
-0.038594153 -0.0038334783 -0.25860113
-0.038590543 -0.0037552994 -0.25861126
-0.038587008 -0.0036791153 -0.25862145
-0.038583588 -0.0036010239 -0.25862762
-0.038580172 -0.0035229307 -0.25863376
-0.038576733 -0.0034467913 -0.25864196
-0.038573414 -0.0033687428 -0.2586461
-0.038570173 -0.003292691 -0.2586503
-0.038567029 -0.003216682 -0.25865251
-0.038563415 -0.0031385049 -0.25866264
-0.038559802 -0.0030603241 -0.2586728
-0.038556755 -0.002984358 -0.25867301
-0.038553141 -0.0029061791 -0.25868315
-0.038549606 -0.0028299969 -0.25869334
-0.038546655 -0.0027540755 -0.25869155
-0.038543336 -0.002676025 -0.25869569
-0.038539819 -0.0025978889 -0.25870383
-0.038536482 -0.0025217943 -0.25871003
-0.038533162 -0.0024437457 -0.2587142
-0.038529821 -0.0023676511 -0.2587204
-0.03852611 -0.0022894274 -0.25873253
-0.038522694 -0.0022113342 -0.25873867
-0.038519647 -0.0021353681 -0.25873888
-0.038516697 -0.0020594485 -0.25873709
-0.038513355 -0.0019833539 -0.25874329
-0.038509939 -0.0019052606 -0.25874943
-0.038506325 -0.0018270798 -0.25875959
-0.038503278 -0.0017511155 -0.2587598
-0.038500622 -0.0016753245 -0.25875199
-0.038497671 -0.0015994012 -0.2587502
-0.038494255 -0.0015213098 -0.25875637
-0.038490914 -0.0014452152 -0.25876254
-0.038487397 -0.0013670772 -0.2587707
-0.038484078 -0.0012890287 -0.25877485
-0.038480837 -0.0012129769 -0.25877905
-0.038477518 -0.0011349265 -0.25878322
-0.038474567 -0.001059005 -0.25878143
-0.038471326 -0.0009829551 -0.25878561
-0.038468376 -0.00090703368 -0.25878382
-0.038465716 -0.00083124079 -0.25877604
-0.0384623 -0.00075314939 -0.25878218
-0.038458765 -0.00067696534 -0.25879237
-0.038455639 -0.00059900247 -0.25879252
-0.038452495 -0.00052299351 -0.25879472
-0.038449448 -0.00044702925 -0.25879496
-0.038446516 -0.00036915392 -0.25879109
-0.038443763 -0.00029332004 -0.25878531
-0.038440812 -0.00021739863 -0.25878352
-0.038437299 -0.00013926253 -0.25879169
-0.038434055 -6.3210726e-05 -0.25879589
-0.038431104 1.2712553e-05 -0.25879407
-0.038428545 8.8460743e-05 -0.25878429
-0.038425695 0.00016433746 -0.25878051
-0.038422547 0.00024034455 -0.25878271
-0.038419601 0.00031626597 -0.25878093
-0.038416475 0.00039423071 -0.25878108
-0.038413133 0.00047032535 -0.25878727
-0.038410284 0.00054620579 -0.25878349
-0.038407449 0.00062403828 -0.25877765
-0.038404498 0.0006999597 -0.25877586
-0.038401451 0.00077592209 -0.25877607
-0.038398404 0.00085188821 -0.25877628
-0.038395457 0.00092780963 -0.25877446
-0.038392525 0.001005685 -0.25877064
-0.038390141 0.0010793936 -0.2587589
-0.038387015 0.0011573564 -0.25875908
-0.038383305 0.0012355801 -0.25877121
-0.038380161 0.001311589 -0.25877342
-0.03837721 0.0013875086 -0.25877163
-0.03837426 0.00146343 -0.25876984
-0.038371332 0.0015413053 -0.258766
-0.03836875 0.0016150996 -0.25875825
-0.038365901 0.0016909782 -0.25875446
-0.038363144 0.0017668139 -0.25874868
-0.038360391 0.0018426478 -0.2587429
-0.03835744 0.0019185692 -0.25874108
-0.038354587 0.0019944478 -0.25873733
-0.038351931 0.0020702407 -0.25872952
-0.038348805 0.0021482017 -0.2587297
-0.038345661 0.0022242106 -0.2587319
-0.038342904 0.0023000445 -0.25872609
-0.038340151 0.0023758803 -0.25872031
-0.038337395 0.0024517141 -0.25871453
-0.038334545 0.0025275946 -0.25871074
-0.038331397 0.0026036017 -0.25871295
-0.038328275 0.0026815664 -0.2587131
-0.038325325 0.002757486 -0.25871131
-0.038322181 0.0028334931 -0.25871351
-0.038319424 0.0029093288 -0.25870773
-0.038316768 0.0029851198 -0.25869995
-0.038314015 0.0030609556 -0.25869417
-0.038311258 0.0031367913 -0.25868836
-0.038308483 0.0032106712 -0.25868464
-0.038305923 0.0032864176 -0.25867486
-0.038303267 0.0033622123 -0.25866705
-0.03830022 0.0034381766 -0.25866726
-0.038297463 0.0035140105 -0.25866148
-0.038295176 0.0035876743 -0.25864774
-0.03829205 0.0036656354 -0.25864792
-0.038288906 0.0037416462 -0.25865012
-0.038285587 0.0038196947 -0.25865427
-0.038282074 0.0038978308 -0.2586624
-0.038278829 0.0039738826 -0.2586666
-0.038275979 0.0040497612 -0.25866282
-0.038273886 0.0041233376 -0.25864512
-0.038271423 0.0041990429 -0.25863332
-0.03826857 0.0042749196 -0.25862953
-0.03826572 0.0043507982 -0.25862575
-0.038262866 0.0044266768 -0.25862196
-0.038260289 0.0045004692 -0.25861421
-0.038257822 0.0045761764 -0.25860244
-0.038254876 0.0046520978 -0.25860065
-0.038251556 0.0047301464 -0.25860479
-0.038248606 0.0048060678 -0.25860301
-0.038246319 0.0048797317 -0.25858927
-0.038243659 0.0049555246 -0.25858149
-0.038240515 0.0050315335 -0.25858369
-0.038237564 0.0051074531 -0.25858191
-0.038234908 0.0051832441 -0.25857413
-0.038231861 0.0052592084 -0.25857434
-0.038228542 0.0053372588 -0.25857848
-0.038225785 0.0054130927 -0.2585727
-0.040099155 -0.043193474 -0.25998676
-0.040096126 -0.043115556 -0.25998491
-0.040093571 -0.043039806 -0.25997514
-0.040090717 -0.042963929 -0.25997135
-0.040087085 -0.042887706 -0.25998354
-0.040083826 -0.042813607 -0.25998977
-0.040080778 -0.04273764 -0.25998998
-0.040077731 -0.042661678 -0.25999019
-0.040074978 -0.042585842 -0.2599844
-0.040072341 -0.042508096 -0.25997457
-0.040069293 -0.042432129 -0.25997478
-0.040066462 -0.042354301 -0.25996894
-0.040063415 -0.042278331 -0.25996915
-0.040060055 -0.042204194 -0.2599774
-0.040057011 -0.042128228 -0.25997758
-0.040054061 -0.042052306 -0.25997579
-0.040050916 -0.041976295 -0.259978
-0.040047988 -0.041898422 -0.25997418
-0.040045332 -0.041822631 -0.25996637
-0.040042087 -0.041746579 -0.25997058
-0.040038943 -0.041670568 -0.25997278
-0.040036287 -0.041594781 -0.259965
-0.040033456 -0.041516945 -0.25995916
-0.040030409 -0.041440979 -0.25995937
-0.040027365 -0.041365013 -0.25995958
-0.040024512 -0.041289136 -0.25995579
-0.040021367 -0.041213132 -0.259958
-0.04001791 -0.041138947 -0.25996822
-0.04001496 -0.041063026 -0.25996643
-0.040012129 -0.040985189 -0.25996059
-0.040008985 -0.040909182 -0.2599628
-0.04000584 -0.040833175 -0.259965
-0.040002991 -0.040757298 -0.25996122
-0.039999727 -0.040683199 -0.25996745
-0.039996583 -0.040607192 -0.25996965
-0.039994262 -0.040527619 -0.2599518
-0.039991505 -0.040451784 -0.25994602
-0.039988458 -0.040375821 -0.25994623
-0.039985705 -0.040299986 -0.25994045
-0.039982464 -0.040223934 -0.25994462
-0.03997932 -0.040147927 -0.25994682
-0.039976489 -0.040070094 -0.25994101
-0.039973635 -0.039994214 -0.2599372
-0.039970689 -0.039918292 -0.25993541
-0.03996766 -0.03984037 -0.25993359
-0.03996481 -0.039764494 -0.25992981
-0.039962076 -0.039686706 -0.25992197
-0.039959226 -0.039610825 -0.25991815
-0.039956275 -0.039534904 -0.25991637
-0.039953325 -0.039458983 -0.25991458
-0.039950181 -0.039382972 -0.25991678
-0.039947134 -0.039307009 -0.25991699
-0.03994409 -0.039231047 -0.2599172
-0.03994114 -0.039155126 -0.25991541
-0.039938308 -0.039077289 -0.25990957
-0.039935671 -0.038999546 -0.25989974
-0.039933015 -0.038923755 -0.25989196
-0.039930064 -0.038847834 -0.25989017
-0.039927136 -0.038769957 -0.25988632
-0.039924286 -0.038694076 -0.25988254
-0.039921433 -0.0386182 -0.25987875
-0.039918602 -0.038540363 -0.25987291
-0.039915651 -0.038464442 -0.25987113
-0.039912313 -0.038388349 -0.25987732
-0.039908975 -0.038312253 -0.25988352
-0.039906416 -0.038236506 -0.25987375
-0.039904285 -0.038157023 -0.25985187
-0.039902039 -0.038079448 -0.25983405
-0.039899286 -0.038003616 -0.25982827
-0.039896455 -0.03792578 -0.25982246
-0.039893601 -0.037849903 -0.25981867
-0.039890558 -0.037773937 -0.25981885
-0.039887607 -0.037698016 -0.25981706
-0.039884657 -0.037622094 -0.25981528
-0.039881922 -0.037544303 -0.25980747
-0.039879289 -0.03746656 -0.25979763
-0.039876241 -0.037390593 -0.25979781
-0.039873097 -0.037314586 -0.25980002
-0.039870147 -0.037238665 -0.25979823
-0.039867315 -0.037160829 -0.25979239
-0.039864369 -0.037084911 -0.2597906
-0.039861612 -0.037009075 -0.25978482
-0.039858781 -0.036931239 -0.25977901
-0.03985583 -0.036855318 -0.25977722
-0.039852981 -0.036779441 -0.2597734
-0.039850246 -0.036701649 -0.25976557
-0.039847199 -0.036625687 -0.2597658
-0.039844152 -0.036549725 -0.25976598
-0.039841205 -0.036473803 -0.25976419
-0.039838448 -0.036397964 -0.25975841
-0.039836008 -0.036320306 -0.25974458
-0.039833371 -0.03624256 -0.25973475
-0.039830521 -0.036166683 -0.25973096
-0.039827768 -0.036090847 -0.25972518
-0.039824836 -0.03601297 -0.25972134
-0.039821986 -0.035937093 -0.25971755
-0.039818745 -0.035861041 -0.25972176
-0.039815698 -0.035785075 -0.25972196
-0.039813157 -0.035707377 -0.25971013
-0.039810523 -0.03562963 -0.2597003
-0.039807554 -0.035555661 -0.25970057
-0.039804332 -0.035477653 -0.25970274
-0.039801188 -0.035401646 -0.25970492
-0.039798237 -0.035325725 -0.25970313
-0.039795581 -0.035249934 -0.25969535
-0.039792944 -0.035172187 -0.25968552
-0.039789997 -0.035096265 -0.25968373
-0.039786756 -0.035020214 -0.25968793
-0.039783608 -0.034944206 -0.25969014
-0.039780758 -0.034868326 -0.25968635
-0.039777808 -0.034792405 -0.25968456
-0.039774567 -0.034716353 -0.25968874
-0.039771326 -0.034640301 -0.25969297
-0.039768688 -0.034562558 -0.25968313
-0.039766032 -0.034486763 -0.25967535
-0.039762598 -0.034410626 -0.25968355
-0.039758846 -0.034336314 -0.25969976
-0.039755315 -0.034260131 -0.25970995
-0.039751757 -0.034185901 -0.25972217
-0.039748225 -0.034109719 -0.25973237
-0.039744981 -0.034033671 -0.25973657
-0.03974174 -0.033957615 -0.25974077
-0.039738577 -0.033883564 -0.25974503
-0.039735138 -0.033807427 -0.25975323
-0.039731607 -0.033731245 -0.25976342
-0.039728247 -0.033657104 -0.25977165
-0.039724518 -0.033580836 -0.25978583
-0.039720863 -0.033506565 -0.25980008
-0.039717428 -0.033430427 -0.25980824
-0.03971358 -0.033356071 -0.25982648
-0.039709441 -0.03328158 -0.25985071
-0.039705008 -0.033206962 -0.2598809
-0.039700676 -0.033132389 -0.25990912
-0.039696634 -0.033057947 -0.25993136
-0.039692398 -0.032983415 -0.25995755
-0.039687749 -0.032910667 -0.25999379
-0.039683025 -0.032835919 -0.26003
-0.039678574 -0.032763258 -0.26006228
-0.039674338 -0.032688726 -0.26008847
-0.039669611 -0.032613978 -0.26012468
-0.039664477 -0.032541014 -0.26017094
-0.039659441 -0.032468088 -0.26021516
-0.039653718 -0.032394864 -0.26027337
-0.039647687 -0.032323461 -0.26033962
-0.039642163 -0.032250322 -0.26039386
-0.039636716 -0.032179181 -0.2604481
-0.039629415 -0.032107215 -0.26054034
-0.0396211 -0.032038726 -0.2606566
-0.039614558 -0.031969063 -0.26073489
-0.039605659 -0.031900313 -0.26086316
-0.039592095 -0.031837344 -0.26109344
-0.039423507 -0.031988207 -0.26473367
-0.03953056 -0.031760909 -0.26231253
-0.039524645 -0.031687595 -0.26237473
-0.039510593 -0.031624407 -0.26261503
-0.039446209 -0.031462278 -0.26382208
-0.03943643 -0.031393141 -0.26396832
-0.039412584 -0.031339344 -0.26442063
-0.039406765 -0.031266071 -0.26448086
-0.039398395 -0.031193631 -0.26459503
-0.039391696 -0.031119972 -0.26467323
-0.039387502 -0.031041533 -0.26469535
-0.039384376 -0.030963568 -0.26469553
-0.039381251 -0.030885607 -0.26469567
-0.039378051 -0.030805644 -0.26469579
-0.039375316 -0.030727856 -0.26468796
-0.03937231 -0.03064798 -0.26468408
-0.039369185 -0.030570019 -0.26468423
-0.03936616 -0.030492099 -0.26468238
-0.039363153 -0.030412225 -0.26467851
-0.039360516 -0.03033448 -0.26466867
-0.039357409 -0.030254561 -0.2646668
-0.039353702 -0.030176338 -0.26467893
-0.03935048 -0.03009833 -0.26468107
-0.039347649 -0.0300205 -0.26467526
-0.039344445 -0.029940538 -0.26467538
-0.039341222 -0.029862531 -0.26467752
-0.039337903 -0.029784482 -0.26468167
-0.039334588 -0.029706433 -0.26468581
-0.039331365 -0.029628426 -0.26468799
-0.039328456 -0.029548595 -0.26468211
-0.039326109 -0.02947098 -0.26466626
-0.039323103 -0.029391104 -0.26466238
-0.039319783 -0.029313056 -0.26466656
-0.039316777 -0.02923318 -0.26466268
-0.039314043 -0.029155392 -0.26465482
-0.039310724 -0.029077342 -0.26465899
-0.039307211 -0.028999206 -0.26466712
-0.039304107 -0.028919289 -0.26466525
-0.039300885 -0.028841281 -0.26466739
-0.039297368 -0.028763145 -0.26467556
-0.039294343 -0.028685227 -0.26467371
-0.039291825 -0.028605569 -0.26465982
-0.039288994 -0.028527737 -0.26465398
-0.039285693 -0.028447732 -0.26465613
-0.039282568 -0.028369769 -0.26465628
-0.039279345 -0.028291762 -0.26465845
-0.039276339 -0.028211888 -0.26465455
-0.039273802 -0.028134186 -0.26464272
-0.039270893 -0.028054357 -0.26463684
-0.039267574 -0.027976304 -0.26464099
-0.039264351 -0.0278983 -0.26464313
-0.039260935 -0.027820207 -0.2646493
-0.039257519 -0.027742114 -0.26465544
