# .PCD v0.7 - Point Cloud Data file format
VERSION 0.7
FIELDS x y z
SIZE 4 4 4
TYPE F F F
COUNT 1 1 1
WIDTH 1285
HEIGHT 1
VIEWPOINT 0 0 0 1 0 0 0
POINTS 1285
DATA ascii
-0.11012892 -0.0033887634 -0.22998823
-0.11012633 -0.0033090627 -0.22997636
-0.11012395 -0.0032274947 -0.22995844
-0.11012194 -0.0031480566 -0.22993457
-0.11011937 -0.0030664019 -0.22992064
-0.1101163 -0.0029845294 -0.22991671
-0.11011314 -0.002902614 -0.22991475
-0.11011 -0.0028187418 -0.22991078
-0.11010741 -0.002739042 -0.2298989
-0.11010542 -0.0026576491 -0.22987299
-0.11010312 -0.0025780797 -0.22985512
-0.11010025 -0.0024962947 -0.22984719
-0.11009843 -0.0024169423 -0.22981933
-0.11009815 -0.0023402432 -0.22976157
-0.11010048 -0.0022686273 -0.22965395
-0.1100999 -0.0021917969 -0.22960219
-0.11009856 -0.0021146173 -0.2295664
-0.11009772 -0.0020357016 -0.22951856
-0.11009676 -0.0019586962 -0.22947478
-0.11009571 -0.0018816479 -0.22943299
-0.11009418 -0.0018024268 -0.22939913
-0.11009323 -0.0017254222 -0.22935535
-0.1100921 -0.0016463753 -0.22931351
-0.11008999 -0.0015668925 -0.22929165
-0.11008712 -0.0014851075 -0.22928372
-0.11008423 -0.0014052764 -0.22927782
-0.11008126 -0.0013234466 -0.22927189
-0.11007839 -0.0012416616 -0.22926396
-0.11007543 -0.0011598319 -0.22925802
-0.11007198 -0.0010777861 -0.22926207
-0.11006796 -0.00099352375 -0.22927606
-0.11006366 -0.00090913102 -0.22929603
-0.1100603 -0.0008271262 -0.22929808
-0.11005762 -0.00074542873 -0.22928616
-0.11005294 -0.000658907 -0.22931209
-0.11004805 -0.00057425164 -0.22934404
-0.11004489 -0.00049233623 -0.2293421
-0.11004202 -0.00041055121 -0.22933418
-0.11003867 -0.00032854825 -0.22933623
-0.11003504 -0.00024445727 -0.22934222
-0.11003188 -0.00016254187 -0.22934029
-0.11002872 -8.0626458e-05 -0.22933835
-0.1100249 3.548339e-06 -0.22934833
-0.11002115 8.572638e-05 -0.22935838
-0.11001782 0.00016968325 -0.22935838
-0.11001466 0.00025160052 -0.22935644
-0.11001111 0.00033369102 -0.22936249
-0.110007 0.0004179962 -0.22937848
-0.11000308 0.0005022157 -0.22939047
-0.10999992 0.00058412924 -0.22938854
-0.10999715 0.00066587329 -0.2293786
-0.10999455 0.00074557401 -0.22936672
-0.10999092 0.00082966313 -0.22937271
-0.1099868 0.00091396831 -0.22938871
-0.10998318 0.00099805743 -0.2293947
-0.10997963 0.0010801461 -0.22940075
-0.109976 0.001164237 -0.22940674
-0.10997265 0.00124624 -0.2294088
-0.10996844 0.001330588 -0.22942679
-0.10996385 0.0014170669 -0.2294507
-0.10996069 0.0014989823 -0.22944877
-0.10995839 0.0015785508 -0.22943091
-0.10995552 0.0016603377 -0.22942296
-0.1099517 0.0017445143 -0.22943297
-0.10994817 0.0018285587 -0.22943696
-0.10994462 0.0019106474 -0.22944301
-0.1099408 0.001994824 -0.229453
-0.10993697 0.0020790007 -0.229463
-0.10993343 0.0021610912 -0.22946905
-0.10993028 0.0022449587 -0.22946505
-0.10992789 0.0023245737 -0.22944918
-0.10992492 0.0024064016 -0.22944325
-0.1099211 0.0024905764 -0.22945324
-0.10991745 0.0025727116 -0.22946128
-0.10991468 0.0026544519 -0.22945136
-0.1099122 0.0027360655 -0.22943543
-0.10990961 0.0028157644 -0.22942355
-0.10990684 0.0028975066 -0.22941363
-0.10990378 0.0029793791 -0.22940969
-0.10990024 0.0030634236 -0.22941369
-0.10989679 0.0031454712 -0.22941774
-0.10989297 0.0032296479 -0.22942773
-0.1098879 0.0033163428 -0.22946164
-0.10988266 0.0034050792 -0.22949751
-0.1098794 0.0034870394 -0.22949755
-0.10987683 0.003568694 -0.22948363
-0.10987367 0.0036506113 -0.2294817
-0.10987031 0.0037326142 -0.22948375
-0.10986705 0.0038145725 -0.22948381
-0.10986401 0.0038984008 -0.22947782
-0.10986095 0.0039802734 -0.22947389
-0.10985779 0.0040621888 -0.22947195
-0.10985433 0.0041442364 -0.229476
-0.10985081 0.004228279 -0.22948
-0.10984688 0.0043124985 -0.22949198
-0.10984277 0.0043968055 -0.22950797
-0.1098401 0.0044785049 -0.22949605
-0.10983762 0.0045601148 -0.22948012
-0.10983456 0.0046419892 -0.22947618
-0.10983169 0.0047237724 -0.22946826
-0.1098291 0.004803475 -0.22945637
-0.10982662 0.0048850849 -0.22944045
-0.10982402 0.0049647857 -0.22942856
-0.10982059 0.0050487854 -0.22943057
-0.10981706 0.0051328316 -0.22943458
-0.10981324 0.0052170064 -0.22944456
-0.10980856 0.0053035282 -0.22947049
-0.10980435 0.0053878762 -0.22948849
-0.10980015 0.0054741818 -0.22950441
-0.1097969 0.005556142 -0.22950447
-0.10979403 0.005637927 -0.22949654
-0.1097904 0.0057220161 -0.22950253
-0.10978688 0.0058060586 -0.22950654
-0.10978381 0.0058879331 -0.2295026
-0.10978114 0.0059696306 -0.22949067
-0.10977788 0.0060515907 -0.22949073
-0.1097734 0.0061380249 -0.22951266
-0.10976825 0.0062267203 -0.22954652
-0.10976443 0.0063108951 -0.22955652
-0.1097607 0.0063950252 -0.22956452
-0.10975745 0.0064769872 -0.22956458
-0.10975477 0.0065586846 -0.22955264
-0.10975181 0.0066405144 -0.22954671
-0.10974818 0.0067246016 -0.22955272
-0.10974446 0.0068087336 -0.2295607
-0.10974139 0.0068906061 -0.22955677
-0.10973892 0.0069722179 -0.22954084
-0.10973679 0.0070497468 -0.22952102
-0.10973306 0.0071338788 -0.22952902
-0.10972659 0.0072270893 -0.22958675
-0.1097223 0.0073134378 -0.22960469
-0.10971914 0.0073953532 -0.22960275
-0.10971637 0.0074770972 -0.22959282
-0.10971378 0.0075567961 -0.22958094
-0.10971044 0.0076407548 -0.22958095
-0.10970662 0.0077249315 -0.22959094
-0.10970309 0.0078089759 -0.22959495
-0.10970052 0.0078906287 -0.22958101
-0.10969848 0.0079681128 -0.22955918
-0.1096964 0.0080495514 -0.22953528
-0.10969343 0.0081313793 -0.22952935
-0.10968839 0.00822003 -0.22956122
-0.10968314 0.0083087683 -0.22959708
-0.10967979 0.0083907712 -0.22959913
-0.10967684 0.0084745549 -0.22959116
-0.10967415 0.0085542984 -0.22958127
-0.10967091 0.0086382143 -0.22957927
-0.10966814 0.0087199528 -0.22956936
-0.10966584 0.008799525 -0.22955148
-0.10966267 0.0088814385 -0.22954954
-0.10965905 0.0089655258 -0.22955555
-0.10965618 0.0090473127 -0.22954762
-0.10965312 0.0091291852 -0.22954367
-0.10964902 0.0092154462 -0.2295576
-0.10964427 0.0093039684 -0.22958349
-0.10963979 0.0093904007 -0.22960541
-0.10963682 0.0094722286 -0.22959948
-0.10963442 0.0095518436 -0.22958361
-0.10963089 0.009635888 -0.22958761
-0.10962775 0.0097197592 -0.22958362
-0.10962525 0.0097994152 -0.22956973
-0.10962211 0.0098832864 -0.22956575
-0.10961866 0.0099653322 -0.22956981
-0.1096157 0.010047162 -0.22956386
-0.10961273 0.01012899 -0.22955793
-0.10960949 0.010212904 -0.22955595
-0.10960606 0.010296905 -0.22955796
-0.10960309 0.010378733 -0.22955202
-0.1096004 0.010458481 -0.22954214
-0.10959753 0.010540262 -0.22953419
-0.10959411 0.010624263 -0.22953621
-0.10959048 0.010708353 -0.22954221
-0.1095878 0.010790052 -0.22953027
-0.1102346 -0.009483167 -0.23286673
-0.11023185 -0.0093994718 -0.23285477
-0.11023227 -0.0093211215 -0.23278098
-0.11025082 -0.0092626465 -0.232346
-0.11025154 -0.0091844276 -0.23226622
-0.11025284 -0.0091064703 -0.23217444
-0.11025424 -0.0090285558 -0.23208067
-0.11025428 -0.0089500323 -0.23201486
-0.11025376 -0.0088692931 -0.23195902
-0.11025282 -0.0087903328 -0.23191318
-0.11025171 -0.008709332 -0.23186931
-0.11025194 -0.008630896 -0.23179951
-0.1102543 -0.0085553713 -0.23168781
-0.11025511 -0.0084771961 -0.23160602
-0.11025496 -0.008398586 -0.23154423
-0.11025299 -0.0083152382 -0.23151627
-0.11025108 -0.0082358429 -0.2314904
-0.11025006 -0.0081548858 -0.23144454
-0.11025058 -0.0080765793 -0.23136875
-0.11025275 -0.008000969 -0.23126104
-0.11025403 -0.0079249656 -0.23117134
-0.1102561 -0.0078493115 -0.23106563
-0.11025739 -0.0077733081 -0.23097591
-0.11025752 -0.0076948283 -0.23090811
-0.11025775 -0.0076163914 -0.23083831
-0.11025828 -0.0075380858 -0.23076253
-0.11025781 -0.0074612983 -0.23070875
-0.1102565 -0.0073802099 -0.23066887
-0.1102547 -0.0072989035 -0.23063895
-0.1102526 -0.0072194217 -0.23061709
-0.11025012 -0.0071378099 -0.23060116
-0.11024823 -0.0070564598 -0.23057327
-0.11024612 -0.0069769789 -0.23055139
-0.1102422 -0.0068927603 -0.23056339
-0.1102374 -0.0068081487 -0.23059335
-0.110233 -0.0067237113 -0.23061535
-0.1102284 -0.0066391872 -0.23064131
-0.11022323 -0.0065524476 -0.23067722
-0.11021882 -0.0064680111 -0.23069918
-0.11021517 -0.0063858759 -0.23070723
-0.11021116 -0.0063016145 -0.23072124
-0.11020636 -0.0062170029 -0.23075119
-0.11020186 -0.0061325217 -0.23077518
-0.11019783 -0.0060482603 -0.23078915
-0.11019421 -0.0059641711 -0.23079515
-0.11019135 -0.0058823861 -0.23078722
-0.11018886 -0.0058007753 -0.2307713
-0.11018783 -0.0057217721 -0.23072746
-0.11018738 -0.0056430306 -0.23067164
-0.11018615 -0.0055639409 -0.2306318
-0.11018492 -0.0054848492 -0.23059197
-0.1101834 -0.0054056291 -0.23055813
-0.11018131 -0.0053241923 -0.2305342
-0.11017922 -0.0052427556 -0.23051029
-0.11017673 -0.0051630987 -0.23049642
-0.11017445 -0.0050815744 -0.2304765
-0.11017236 -0.0050001377 -0.2304526
-0.1101694 -0.004918308 -0.23044667
-0.11016596 -0.0048343074 -0.23044866
-0.11016202 -0.0047520418 -0.2304627
-0.11015879 -0.0046681296 -0.23046072
-0.11015572 -0.0045862561 -0.23045677
-0.11015122 -0.0045017758 -0.23048076
-0.11014595 -0.0044149924 -0.23051864
-0.11014279 -0.004333077 -0.2305167
-0.11014156 -0.0042539863 -0.23047689
-0.11014004 -0.0041747661 -0.23044303
-0.110139 -0.0040957611 -0.23039919
-0.11013836 -0.004016933 -0.23034737
-0.11013731 -0.0039398838 -0.23030558
-0.11013627 -0.0038608816 -0.23026174
-0.11013562 -0.0037820525 -0.23020992
-0.11013467 -0.0037050471 -0.23016614
-0.11013439 -0.0036283471 -0.23010837
-0.11013365 -0.0035494743 -0.23005855
-0.11013232 -0.0034703407 -0.2300207
-0.1101306 -0.003391033 -0.22999084
-0.11012801 -0.0033113323 -0.22997898
-0.11012553 -0.0032297214 -0.22996303
-0.11012362 -0.0031503262 -0.22993718
-0.11012104 -0.0030686716 -0.22992325
-0.11011798 -0.002986799 -0.22991931
-0.11011482 -0.0029048836 -0.22991738
-0.11011168 -0.0028210115 -0.22991338
-0.11010899 -0.0027412688 -0.22990352
-0.11010709 -0.0026599187 -0.22987561
-0.11010469 -0.0025803056 -0.22985972
-0.11010203 -0.0024986081 -0.2298478
-0.11010011 -0.0024192128 -0.22982195
-0.11009984 -0.0023425128 -0.22976419
-0.11010215 -0.0022708969 -0.22965658
-0.11010149 -0.0021940228 -0.22960681
-0.11010024 -0.0021168869 -0.229569
-0.1100994 -0.0020379722 -0.22952117
-0.11009854 -0.0019610096 -0.22947539
-0.11009739 -0.0018839166 -0.22943559
-0.11009586 -0.0018046964 -0.22940175
-0.1100949 -0.0017276909 -0.22935796
-0.11009368 -0.0016486011 -0.22931811
-0.11009157 -0.0015691184 -0.22929627
-0.1100888 -0.0014873762 -0.22928633
-0.11008583 -0.0014055483 -0.22928038
-0.11008295 -0.0013257172 -0.22927451
-0.11007998 -0.0012438875 -0.22926857
-0.11007702 -0.0011620596 -0.22926264
-0.11007348 -0.0010780133 -0.22926664
-0.11006954 -0.00099574961 -0.22928067
-0.11006524 -0.00091135688 -0.22930065
-0.1100619 -0.00082739815 -0.22930066
-0.11005921 -0.00074765459 -0.22929078
-0.11005453 -0.00066113286 -0.22931671
-0.11004973 -0.0005765222 -0.22934666
-0.11004657 -0.00049460493 -0.22934473
-0.1100437 -0.00041281991 -0.2293368
-0.11004035 -0.00033081695 -0.22933884
-0.11003672 -0.00024672784 -0.22934484
-0.11003347 -0.00016476959 -0.2293449
-0.1100304 -8.2897022e-05 -0.22934096
-0.11002658 1.2796372e-06 -0.22935095
-0.11002293 8.3412975e-05 -0.229359
-0.11001959 0.00016737171 -0.229359
-0.11001624 0.00024937466 -0.22936106
-0.1100127 0.00033146515 -0.22936711
-0.11000858 0.00041577034 -0.22938308
-0.11000485 0.00049990229 -0.22939108
-0.11000169 0.00058181584 -0.22938915
-0.10999882 0.00066360272 -0.2293812
-0.10999615 0.0007453002 -0.22936928
-0.1099925 0.0008274354 -0.22937733
-0.10998849 0.00091169775 -0.22939131
-0.10998486 0.00099578686 -0.22939733
-0.10998131 0.0010778774 -0.22940338
-0.10997768 0.0011619665 -0.22940937
-0.10997423 0.0012440123 -0.22941342
-0.10997002 0.0013283622 -0.22943139
-0.10996553 0.0014147963 -0.22945333
-0.10996237 0.0014967117 -0.22945139
-0.10996017 0.0015762374 -0.22943152
-0.10995711 0.0016581118 -0.22942758
-0.10995328 0.0017422885 -0.22943757
-0.10994985 0.0018262882 -0.22943959
-0.1099463 0.0019083787 -0.22944562
-0.10994248 0.0019925535 -0.22945562
-0.10993876 0.0020766873 -0.22946361
-0.1099351 0.0021588206 -0.22947165
-0.10993197 0.00224269 -0.22946768
-0.10992957 0.002322305 -0.22945181
-0.10992651 0.0024041757 -0.22944787
-0.10992278 0.0024883077 -0.22945586
-0.10991913 0.0025704429 -0.22946391
-0.10991619 0.0026542246 -0.22945592
-0.10991389 0.002733795 -0.22943805
-0.10991139 0.002813451 -0.22942418
-0.10990852 0.0028952379 -0.22941624
-0.10990546 0.0029771086 -0.22941232
-0.10990202 0.0030611102 -0.22941431
-0.10989848 0.0031432025 -0.22942036
-0.10989466 0.0032273773 -0.22943035
-0.10988958 0.0033140723 -0.22946426
-0.10988444 0.0034027658 -0.22949812
-0.10988108 0.0034847707 -0.22950017
-0.10987841 0.0035664681 -0.22948825
-0.10987535 0.0036483407 -0.22948432
-0.10987199 0.0037303437 -0.22948638
-0.10986866 0.0038143024 -0.22948638
-0.1098657 0.0038961321 -0.22948045
-0.10986254 0.0039780475 -0.22947851
-0.10985938 0.0040599629 -0.22947656
-0.10985594 0.0041439645 -0.22947857
-0.10985239 0.0042260531 -0.22948462
-0.10984839 0.0043122713 -0.22949655
-0.10984438 0.0043965336 -0.22951055
-0.10984161 0.0044782758 -0.22950062
-0.10983931 0.0045578443 -0.22948274
-0.10983624 0.0046397187 -0.22947881
-0.10983337 0.0047215037 -0.22947086
-0.10983078 0.0048012044 -0.22945899
-0.1098283 0.0048828144 -0.22944307
-0.10982563 0.0049645118 -0.22943114
-0.10982237 0.005046472 -0.22943118
-0.10981875 0.0051305611 -0.22943719
-0.10981493 0.0052147359 -0.22944719
-0.10981025 0.0053012576 -0.22947311
-0.10980586 0.0053876489 -0.22949305
-0.10980184 0.0054719113 -0.22950703
-0.10979868 0.0055538304 -0.22950509
-0.10979562 0.0056357011 -0.22950116
-0.10979209 0.0057197455 -0.22950515
-0.10978856 0.0058037881 -0.22950915
-0.1097855 0.0058856625 -0.22950521
-0.10978273 0.0059674047 -0.22949529
-0.10977957 0.0060493201 -0.22949335
-0.10977508 0.0061357543 -0.22951528
-0.10977003 0.0062244069 -0.22954714
-0.10976611 0.0063086264 -0.22955914
-0.10976229 0.0063927993 -0.22956912
-0.10975913 0.0064747166 -0.22956719
-0.10975646 0.0065564141 -0.22955525
-0.1097535 0.0066382438 -0.22954932
-0.10974987 0.0067223329 -0.22955532
-0.10974605 0.0068065077 -0.22956532
-0.10974308 0.0068883356 -0.22955939
-0.1097405 0.0069699921 -0.22954546
-0.1097383 0.0070495158 -0.2295256
-0.10973457 0.0071336497 -0.22953358
-0.10972828 0.0072248206 -0.22958937
-0.10972409 0.0073111244 -0.22960532
-0.10972083 0.0073930845 -0.22960536
-0.10971806 0.0074748266 -0.22959544
-0.10971539 0.0075565241 -0.2295835
-0.10971213 0.0076384861 -0.22958356
-0.10970831 0.0077226609 -0.22959358
-0.1097047 0.0078087021 -0.22959751
-0.1097022 0.0078883599 -0.22958364
-0.1097001 0.0079678427 -0.22956178
-0.10969818 0.008047238 -0.22953591
-0.10969502 0.0081291534 -0.22953397
-0.10969007 0.0082177594 -0.22956385
-0.10968482 0.0083064977 -0.22959971
-0.10968147 0.0083885025 -0.22960176
-0.10967863 0.0084722415 -0.22959177
-0.10967593 0.008551985 -0.22958189
-0.1096726 0.0086359438 -0.22958191
-0.10966983 0.0087176822 -0.22957197
-0.10966752 0.0087972544 -0.2295541
-0.10966437 0.008879168 -0.22955216
-0.10966074 0.0089632571 -0.22955817
-0.10965787 0.009045044 -0.22955023
-0.10965473 0.0091289133 -0.22954625
-0.10965062 0.0092132203 -0.22956222
-0.10964596 0.0093016978 -0.22958611
-0.10964157 0.0093880873 -0.22960603
-0.1096385 0.0094699599 -0.2296021
-0.10963593 0.0095516145 -0.22958818
-0.10963258 0.0096336175 -0.22959024
-0.10962944 0.0097174887 -0.22958624
-0.10962694 0.0097971447 -0.22957237
-0.1096238 0.0098810159 -0.22956839
-0.10962035 0.0099630617 -0.22957243
-0.10961738 0.010044891 -0.22956648
-0.10961425 0.010128763 -0.22956251
-0.10961109 0.010210678 -0.22956057
-0.10960765 0.01029468 -0.22956258
-0.10960478 0.010376465 -0.22955464
-0.10960209 0.01045621 -0.22954476
-0.10959915 0.010539992 -0.22953677
-0.10959579 0.010621995 -0.22953883
-0.10959209 0.010708081 -0.22954477
-0.10958949 0.010787781 -0.2295329
-0.11023565 -0.0094839428 -0.23286536
-0.11023299 -0.0094022444 -0.23285341
-0.11023314 -0.0093218107 -0.23278359
-0.11025187 -0.0092634223 -0.2323446
-0.1102525 -0.0091851596 -0.23226681
-0.1102538 -0.0091072023 -0.23217505
-0.1102552 -0.0090292878 -0.23208129
-0.11025525 -0.0089507643 -0.23201548
-0.11025472 -0.0088700252 -0.23195961
-0.11025378 -0.0087910648 -0.23191379
-0.11025267 -0.008710064 -0.23186991
-0.1102529 -0.008631628 -0.23180011
-0.11025526 -0.0085561043 -0.23168841
-0.11025608 -0.0084779281 -0.23160663
-0.11025592 -0.008399318 -0.23154482
-0.11025395 -0.0083159702 -0.23151688
-0.11025204 -0.0082365749 -0.23149101
-0.11025093 -0.0081555741 -0.23144713
-0.11025155 -0.0080773113 -0.23136935
-0.11025371 -0.0080017 -0.23126166
-0.1102551 -0.0079257414 -0.23116994
-0.11025707 -0.0078500435 -0.23106623
-0.11025835 -0.0077740401 -0.23097652
-0.11025848 -0.0076955594 -0.23090871
-0.11025882 -0.0076171672 -0.23083693
-0.11025924 -0.0075388178 -0.23076314
-0.1102586 -0.0074599879 -0.23071131
-0.11025737 -0.0073808981 -0.23067147
-0.11025567 -0.0072996356 -0.23063956
-0.11025357 -0.0072201537 -0.2306177
-0.11025108 -0.0071385428 -0.23060179
-0.11024919 -0.0070571918 -0.23057388
-0.11024709 -0.0069777109 -0.23055202
-0.11024317 -0.0068934914 -0.230564
-0.11023837 -0.0068088807 -0.23059396
-0.11023396 -0.0067244433 -0.23061594
-0.11022936 -0.0066399192 -0.23064192
-0.11022419 -0.0065531787 -0.23067781
-0.11021969 -0.0064686993 -0.2307018
-0.11021614 -0.0063866088 -0.23070784
-0.11021212 -0.0063023455 -0.23072183
-0.11020733 -0.006217734 -0.2307518
-0.11020282 -0.0061332546 -0.23077577
-0.1101988 -0.0060489913 -0.23078975
-0.11019517 -0.0059649022 -0.23079576
-0.11019231 -0.0058831181 -0.23078781
-0.11018983 -0.0058015063 -0.2307719
-0.1101888 -0.0057225022 -0.23072806
-0.11018835 -0.0056437617 -0.23067224
-0.11018712 -0.0055646719 -0.23063242
-0.11018589 -0.0054855812 -0.23059258
-0.11018436 -0.0054063601 -0.23055872
-0.11018228 -0.0053249234 -0.23053482
-0.11018019 -0.0052434858 -0.23051091
-0.1101777 -0.0051638298 -0.23049703
-0.11017541 -0.0050823055 -0.23047711
-0.11017332 -0.0050008688 -0.23045319
-0.11017045 -0.0049190829 -0.23044527
-0.11016693 -0.0048350394 -0.23044926
-0.11016299 -0.0047527738 -0.2304633
-0.11015975 -0.0046688598 -0.23046133
-0.11015669 -0.0045869872 -0.23045738
-0.11015218 -0.0045025069 -0.23048136
-0.11014682 -0.0044156797 -0.23052126
-0.11014376 -0.0043338072 -0.23051731
-0.11014253 -0.0042547174 -0.23047748
-0.11014101 -0.0041754972 -0.23044363
-0.11013988 -0.0040964503 -0.23040178
-0.11013933 -0.0040176651 -0.23034796
-0.11013827 -0.0039406158 -0.23030618
-0.11013714 -0.0038615689 -0.23026435
-0.11013659 -0.0037827836 -0.23021051
-0.11013554 -0.0037057344 -0.23016873
-0.11013536 -0.0036290791 -0.23010898
-0.11013462 -0.0035502054 -0.23005915
-0.11013329 -0.0034710718 -0.2300213
-0.11013158 -0.0033917641 -0.22999147
-0.11012898 -0.0033120634 -0.22997957
-0.1101265 -0.0032304525 -0.22996366
-0.11012459 -0.0031510573 -0.22993779
-0.11012201 -0.0030694026 -0.22992387
-0.11011885 -0.0029874863 -0.22992192
-0.11011579 -0.0029056147 -0.22991799
-0.11011265 -0.0028217435 -0.22991401
-0.11010996 -0.0027420009 -0.22990412
-0.11010807 -0.0026606508 -0.22987621
-0.11010566 -0.0025810376 -0.22986034
-0.110103 -0.0024993392 -0.22984841
-0.11010108 -0.0024199449 -0.22982255
-0.11010081 -0.0023432439 -0.22976479
-0.11010322 -0.0022716727 -0.22965518
-0.11010246 -0.0021947538 -0.2296074
-0.11010121 -0.0021176189 -0.22956961
-0.11010027 -0.0020386595 -0.22952378
-0.11009951 -0.0019617416 -0.229476
-0.11009835 -0.0018846486 -0.2294362
-0.11009683 -0.0018054275 -0.22940236
-0.11009587 -0.0017284229 -0.22935857
-0.11009474 -0.001649376 -0.22931674
-0.11009244 -0.0015698057 -0.22929886
-0.11008977 -0.0014881082 -0.22928694
-0.11008681 -0.0014062785 -0.22928099
-0.11008392 -0.0013264474 -0.22927511
-0.11008095 -0.0012446195 -0.22926918
-0.11007798 -0.0011627898 -0.22926325
-0.11007446 -0.0010787454 -0.22926724
-0.11007052 -0.00099647976 -0.22928128
-0.11006621 -0.00091208704 -0.22930126
-0.11006287 -0.00082813017 -0.22930127
-0.11006018 -0.00074838474 -0.22929138
-0.1100555 -0.00066186488 -0.22931731
-0.1100507 -0.00057725236 -0.22934726
-0.11004754 -0.00049533695 -0.22934532
-0.11004467 -0.00041355193 -0.22933739
-0.11004132 -0.00033154897 -0.22933945
-0.11003769 -0.00024745986 -0.22934544
-0.11003444 -0.00016549975 -0.2293455
-0.11003137 -8.3627179e-05 -0.22934157
-0.11002755 5.4761767e-07 -0.22935155
-0.11002391 8.2680956e-05 -0.2293596
-0.11002057 0.00016663969 -0.22935961
-0.11001722 0.0002486445 -0.22936165
-0.11001366 0.00033073314 -0.2293677
-0.11000955 0.00041504018 -0.22938371
-0.11000583 0.00049917027 -0.22939169
-0.11000267 0.00058108568 -0.22938976
-0.1099998 0.00066287257 -0.22938183
-0.10999712 0.00074457005 -0.22936989
-0.10999348 0.00082670525 -0.22937794
-0.10998946 0.00091096759 -0.22939193
-0.10998584 0.0009950567 -0.22939792
-0.10998228 0.0010771453 -0.22940397
-0.10997866 0.0011612345 -0.22940998
-0.1099752 0.0012432802 -0.22941402
-0.10997099 0.0013276301 -0.22943202
-0.10996651 0.0014140662 -0.22945392
-0.10996335 0.0014959816 -0.22945198
-0.10996114 0.0015755091 -0.22943214
-0.10995808 0.0016573817 -0.22942819
-0.10995426 0.0017415583 -0.22943819
-0.10995083 0.001825558 -0.22944018
-0.10994728 0.0019076485 -0.22944623
-0.10994346 0.0019918215 -0.22945623
-0.10993973 0.0020759553 -0.22946423
-0.10993609 0.0021580886 -0.22947226
-0.10993294 0.0022419598 -0.22946829
-0.10993055 0.002321573 -0.2294524
-0.10992748 0.0024034455 -0.22944847
-0.10992376 0.0024875775 -0.22945647
-0.10992011 0.0025697127 -0.22946452
-0.10991725 0.0026514959 -0.22945657
-0.10991486 0.0027330648 -0.22943866
-0.10991237 0.0028127208 -0.22942477
-0.1099095 0.0028945077 -0.22941685
-0.10990653 0.0029763356 -0.22941092
-0.10990301 0.00306038 -0.22941491
-0.10989945 0.0031424705 -0.22942096
-0.10989553 0.0032266881 -0.22943296
-0.10989057 0.0033133421 -0.22946486
-0.10988542 0.0034020357 -0.22949873
-0.10988206 0.0034840405 -0.22950079
-0.10987939 0.003565738 -0.22948885
-0.10987633 0.0036476124 -0.22948492
-0.10987297 0.0037296135 -0.22948697
-0.10986982 0.003811527 -0.22948503
-0.10986667 0.0038954001 -0.22948104
-0.10986351 0.0039773155 -0.2294791
-0.10986035 0.0040592309 -0.22947717
-0.1098571 0.004141191 -0.22947723
-0.10985337 0.004225323 -0.22948521
-0.10984945 0.0043095425 -0.22949719
-0.10984536 0.0043958034 -0.22951114
-0.10984259 0.0044775456 -0.22950122
-0.10984029 0.0045571141 -0.22948334
-0.10983722 0.0046389885 -0.2294794
-0.10983436 0.0047207735 -0.22947147
-0.10983176 0.0048004743 -0.22945958
-0.10982938 0.0048820414 -0.22944167
-0.10982661 0.0049637817 -0.22943175
-0.10982326 0.0050457846 -0.2294338
-0.10981973 0.005129829 -0.2294378
-0.10981581 0.0052140485 -0.22944978
-0.10981122 0.0053005274 -0.22947371
-0.10980684 0.0053869188 -0.22949365
-0.10980282 0.0054711811 -0.22950764
-0.10979966 0.0055530965 -0.22950569
-0.1097966 0.0056349691 -0.22950177
-0.10979307 0.0057190135 -0.22950576
-0.10978954 0.0058030598 -0.22950977
-0.10978648 0.0058849324 -0.22950584
-0.10978371 0.0059666745 -0.2294959
-0.10978055 0.0060485899 -0.22949395
-0.10977606 0.0061350241 -0.22951588
-0.10977101 0.0062236749 -0.22954775
-0.10976709 0.0063078944 -0.22955975
-0.10976327 0.0063920692 -0.22956973
-0.10976011 0.0064739864 -0.2295678
-0.10975744 0.0065556839 -0.22955588
-0.10975448 0.0066375136 -0.22954993
-0.10975085 0.0067216028 -0.22955593
-0.10974703 0.0068057775 -0.22956592
-0.10974406 0.0068876054 -0.22955999
-0.10974149 0.0069692619 -0.22954607
-0.10973928 0.0070487857 -0.22952619
-0.10973556 0.0071329176 -0.22953419
-0.10972926 0.0072240904 -0.22958997
-0.10972507 0.0073103942 -0.22960591
-0.10972182 0.0073923543 -0.22960597
-0.10971905 0.0074740965 -0.22959605
-0.10971645 0.0075537954 -0.22958416
-0.10971311 0.0076377559 -0.22958419
-0.10970929 0.0077219289 -0.22959417
-0.10970586 0.0078059305 -0.22959617
-0.10970329 0.0078875832 -0.22958225
-0.10970108 0.0079671107 -0.22956237
-0.10969917 0.008046506 -0.22953653
-0.10969601 0.0081284214 -0.22953458
-0.10969105 0.0082170293 -0.22956446
-0.10968572 0.0083058104 -0.22960231
-0.10968246 0.0083877724 -0.22960237
-0.10967961 0.0084715094 -0.22959238
-0.10967692 0.0085512549 -0.2295825
-0.10967368 0.008635167 -0.22958052
-0.10967082 0.0087169521 -0.22957258
-0.10966851 0.0087965224 -0.22955471
-0.10966525 0.0088784825 -0.22955477
-0.10966173 0.0089625269 -0.22955877
-0.10965896 0.0090442691 -0.22954884
-0.1096558 0.0091261845 -0.2295469
-0.1096516 0.0092124902 -0.22956283
-0.10964685 0.0093010087 -0.22958872
-0.10964246 0.0093874019 -0.22960864
-0.1096395 0.0094692297 -0.22960271
-0.10963692 0.0095508844 -0.22958878
-0.10963356 0.0096328873 -0.22959083
-0.10963043 0.0097167585 -0.22958685
-0.10962793 0.0097964145 -0.22957298
-0.10962479 0.0098802857 -0.22956899
-0.10962134 0.0099623315 -0.22957304
-0.10961828 0.010044206 -0.22956911
-0.10961524 0.010128032 -0.22956312
-0.10961207 0.010209946 -0.22956118
-0.10960864 0.010293948 -0.22956318
-0.10960577 0.010375734 -0.22955525
-0.10960308 0.010455478 -0.22954535
-0.10960013 0.010539262 -0.22953738
-0.10959678 0.010621265 -0.22953945
-0.10959308 0.01070735 -0.22954538
-0.10959049 0.010787051 -0.22953351
-0.11023419 -0.0094827274 -0.23287098
-0.11023164 -0.0093991188 -0.23285502
-0.11023197 -0.0093207248 -0.23278323
-0.1102507 -0.0092623364 -0.23234424
-0.11025143 -0.0091841184 -0.23226446
-0.11025273 -0.0091061611 -0.2321727
-0.11025403 -0.0090282029 -0.23208092
-0.11025418 -0.0089497222 -0.23201312
-0.11025365 -0.008868983 -0.23195726
-0.11025261 -0.0087899799 -0.23191342
-0.11025169 -0.0087090656 -0.23186556
-0.11025183 -0.0086305859 -0.23179775
-0.11025409 -0.0085550183 -0.23168805
-0.110255 -0.008476886 -0.23160428
-0.11025485 -0.0083982758 -0.23154247
-0.11025298 -0.0083149709 -0.23151252
-0.11025106 -0.0082355756 -0.23148666
-0.11024995 -0.0081545748 -0.23144278
-0.11025058 -0.008076312 -0.231365
-0.11025254 -0.0080006141 -0.23126128
-0.11025403 -0.0079246983 -0.23116758
-0.1102559 -0.0078489566 -0.23106587
-0.11025728 -0.007772997 -0.23097415
-0.11025742 -0.0076945163 -0.23090637
-0.11025765 -0.0076160803 -0.23083656
-0.11025807 -0.00753773 -0.23076278
-0.1102576 -0.0074609425 -0.23070899
-0.1102563 -0.007379855 -0.23066911
-0.11025468 -0.0073005902 -0.23063725
-0.11025249 -0.0072191097 -0.23061535
-0.11025002 -0.0071374988 -0.23059942
-0.11024803 -0.0070561059 -0.23057352
-0.11024602 -0.0069766669 -0.23054966
-0.1102422 -0.0068924911 -0.23055965
-0.1102373 -0.0068078367 -0.23059161
-0.11023289 -0.0067234002 -0.23061359
-0.11022829 -0.0066388762 -0.23063955
-0.1102232 -0.0065541342 -0.23067552
-0.11021872 -0.0064676991 -0.23069745
-0.11021516 -0.0063856086 -0.2307035
-0.11021115 -0.0063013462 -0.23071748
-0.11020635 -0.0062167346 -0.23074745
-0.11020184 -0.0061322544 -0.23077142
-0.11019783 -0.006047992 -0.2307854
-0.1101942 -0.0059639029 -0.23079142
-0.11019123 -0.0058820751 -0.23078547
-0.11018886 -0.0058005061 -0.23076755
-0.11018782 -0.0057215029 -0.23072371
-0.11018728 -0.0056427177 -0.2306699
-0.11018605 -0.0055636279 -0.23063007
-0.11018482 -0.0054845372 -0.23059022
-0.11018329 -0.0054053171 -0.23055637
-0.1101812 -0.0053238794 -0.23053247
-0.11017912 -0.0052424427 -0.23050855
-0.11017662 -0.0051627867 -0.23049468
-0.11017424 -0.0050812187 -0.23047675
-0.11017225 -0.0049998248 -0.23045085
-0.11016938 -0.0049180398 -0.23044291
-0.11016603 -0.0048360368 -0.23044497
-0.11016201 -0.0047517745 -0.23045896
-0.11015867 -0.0046678167 -0.23045897
-0.11015571 -0.0045859879 -0.23045303
-0.11015111 -0.0045014638 -0.230479
-0.11014584 -0.0044146804 -0.23051691
-0.11014269 -0.0043327641 -0.23051497
-0.11014146 -0.0042536743 -0.23047513
-0.11014003 -0.004174497 -0.23043928
-0.1101389 -0.00409545 -0.23039745
-0.11013843 -0.0040186616 -0.23034367
-0.11013719 -0.0039395718 -0.23030382
-0.11013617 -0.0038605696 -0.23025998
-0.11013569 -0.003783782 -0.23020622
-0.11013447 -0.0037046913 -0.23016638
-0.11013429 -0.003628036 -0.23010662
-0.11013354 -0.0035491623 -0.23005679
-0.11013231 -0.0034700716 -0.23001695
-0.1101305 -0.0033907201 -0.2299891
-0.1101279 -0.0033110194 -0.22997722
-0.11012553 -0.0032294523 -0.22995931
-0.11012352 -0.0031500133 -0.22993544
-0.11012084 -0.0030683149 -0.22992352
-0.11011788 -0.0029864861 -0.22991759
-0.11011472 -0.0029045707 -0.22991563
-0.11011158 -0.0028207004 -0.22991166
-0.11010888 -0.0027409568 -0.22990176
-0.11010699 -0.0026596067 -0.22987387
-0.11010469 -0.0025800373 -0.22985598
-0.11010182 -0.0024982523 -0.22984806
-0.11010001 -0.0024188999 -0.22982019
-0.11009964 -0.0023421561 -0.22976443
-0.11010195 -0.0022705412 -0.22965683
-0.11010148 -0.0021937536 -0.22960305
-0.11010004 -0.0021165302 -0.22956926
-0.1100992 -0.0020376146 -0.22952142
-0.11009834 -0.0019606538 -0.22947565
-0.11009728 -0.0018836036 -0.22943386
-0.11009576 -0.0018043835 -0.22940001
-0.1100947 -0.0017273352 -0.22935823
-0.11009357 -0.0016482882 -0.22931638
-0.11009146 -0.0015688054 -0.22929451
-0.11008869 -0.0014870632 -0.22928458
-0.11008581 -0.0014072321 -0.22927868
-0.11008284 -0.0013254024 -0.22927275
-0.11007997 -0.0012436174 -0.22926483
-0.11007701 -0.0011617877 -0.22925889
-0.11007356 -0.0010797419 -0.22926295
-0.11006954 -0.00099547952 -0.22927693
-0.11006513 -0.00091104209 -0.2292989
-0.11006188 -0.00082908385 -0.22929896
-0.1100591 -0.00074734166 -0.22928903
-0.11005443 -0.00066081993 -0.22931495
-0.11004963 -0.00057620928 -0.22934492
-0.11004647 -0.00049429201 -0.22934297
-0.1100436 -0.00041250698 -0.22933504
-0.11004025 -0.00033050403 -0.2293371
-0.11003662 -0.00024641491 -0.2293431
-0.11003336 -0.0001644548 -0.22934315
-0.1100303 -8.2582235e-05 -0.22933921
-0.11002648 1.5925616e-06 -0.22934921
-0.11002273 8.376874e-05 -0.22935925
-0.1100194 0.00016772747 -0.22935927
-0.11001614 0.00024968758 -0.22935931
-0.11001269 0.00033173338 -0.22936337
-0.11000858 0.00041604042 -0.22937936
-0.11000465 0.00050025992 -0.22939134
-0.11000149 0.00058217533 -0.2293894
-0.10999873 0.00066391751 -0.22937948
-0.10999613 0.00074361823 -0.22936758
-0.1099925 0.00082770735 -0.22937359
-0.10998838 0.00091201253 -0.22938958
-0.10998476 0.00099610165 -0.22939558
-0.10998121 0.0010781884 -0.22940162
-0.10997758 0.0011622794 -0.22940762
-0.10997413 0.0012443252 -0.22941166
-0.10997002 0.0013286322 -0.22942767
-0.10996543 0.0014151111 -0.22945158
-0.10996227 0.0014970265 -0.22944964
-0.10995997 0.0015765969 -0.22943178
-0.109957 0.0016584266 -0.22942585
-0.10995328 0.0017425586 -0.22943383
-0.10994975 0.001826603 -0.22943783
-0.1099462 0.0019086935 -0.22944388
-0.10994238 0.0019928664 -0.22945388
-0.10993865 0.0020770002 -0.22946188
-0.10993501 0.0021591336 -0.22946993
-0.10993186 0.0022430029 -0.22946593
-0.10992946 0.0023226179 -0.22945006
-0.1099265 0.0024044458 -0.22944412
-0.10992268 0.0024886206 -0.22945412
-0.10991903 0.0025707558 -0.22946216
-0.10991617 0.0026525408 -0.22945422
-0.10991378 0.0027341098 -0.22943631
-0.10991119 0.0028138086 -0.22942442
-0.10990842 0.0028955508 -0.22941451
-0.10990535 0.0029774234 -0.22941056
-0.10990183 0.0030614678 -0.22941455
-0.10989837 0.0031435136 -0.22941862
-0.10989455 0.0032276902 -0.22942862
-0.10988948 0.0033143871 -0.22946253
-0.10988424 0.0034031235 -0.22949839
-0.10988089 0.0034851283 -0.22950044
-0.10987831 0.0035667829 -0.22948653
-0.10987525 0.0036486555 -0.22948256
-0.10987189 0.0037306584 -0.22948463
-0.10986864 0.0038126148 -0.22948468
-0.10986559 0.003896445 -0.2294787
-0.10986253 0.0039783157 -0.22947475
-0.10985937 0.0040602311 -0.22947282
-0.10985592 0.0041422788 -0.22947687
-0.10985239 0.0042263232 -0.22948088
-0.10984847 0.0043105427 -0.22949287
-0.10984436 0.0043948498 -0.22950885
-0.10984159 0.0044765919 -0.22949892
-0.1098392 0.004558159 -0.22948101
-0.10983615 0.0046400335 -0.22947706
-0.10983328 0.0047218166 -0.22946912
-0.10983068 0.0048015192 -0.22945726
-0.1098282 0.0048831291 -0.22944134
-0.10982561 0.0049628299 -0.22942945
-0.10982218 0.0050468296 -0.22943145
-0.10981864 0.005130874 -0.22943547
-0.10981482 0.0052150488 -0.22944546
-0.10981014 0.0053015724 -0.22947137
-0.10980584 0.0053859651 -0.22949135
-0.10980174 0.0054722261 -0.2295053
-0.10979858 0.0055541415 -0.22950336
-0.10979562 0.0056359693 -0.22949743
-0.10979199 0.0057200585 -0.22950342
-0.10978846 0.0058041029 -0.22950742
-0.10978539 0.0058859773 -0.22950348
-0.10978263 0.0059677176 -0.22949356
-0.10977947 0.0060496349 -0.22949162
-0.10977498 0.0061360691 -0.22951354
-0.10976984 0.0062247626 -0.22954741
-0.10976601 0.0063089374 -0.22955739
-0.10976229 0.0063930694 -0.22956541
-0.10975903 0.0064750314 -0.22956546
-0.10975626 0.0065567717 -0.22955552
-0.1097533 0.0066386014 -0.22954959
-0.10974976 0.0067226458 -0.2295536
-0.10974594 0.0068068225 -0.22956359
-0.10974298 0.0068886504 -0.22955763
-0.10974041 0.0069703069 -0.22954373
-0.1097382 0.0070498306 -0.22952387
-0.10973465 0.007131923 -0.2295299
-0.10972818 0.0072251335 -0.22958764
-0.10972389 0.007311482 -0.22960557
-0.10972073 0.0073933974 -0.22960363
-0.10971796 0.0074751414 -0.22959369
-0.10971536 0.0075548403 -0.22958183
-0.10971203 0.007638799 -0.22958183
-0.1097082 0.0077229738 -0.22959182
-0.10970468 0.0078070182 -0.22959583
-0.1097021 0.007888671 -0.22958191
-0.10970008 0.0079661552 -0.22956008
-0.10969798 0.0080475938 -0.22953618
-0.10969492 0.0081294663 -0.22953224
-0.10968997 0.0082180742 -0.2295621
-0.10968473 0.0083068106 -0.22959796
-0.10968138 0.0083888154 -0.22960001
-0.10967843 0.0084725972 -0.22959204
-0.10967574 0.0085523427 -0.22958216
-0.1096725 0.0086362548 -0.22958016
-0.10966973 0.008717997 -0.22957024
-0.10966743 0.0087975673 -0.22955237
-0.10966427 0.0088794827 -0.22955042
-0.10966064 0.00896357 -0.22955644
-0.10965777 0.0090453569 -0.2295485
-0.10965471 0.0091272295 -0.22954455
-0.10965061 0.0092134904 -0.2295585
-0.10964586 0.0093020089 -0.22958437
-0.10964137 0.0093884449 -0.2296063
-0.10963841 0.0094702728 -0.22960037
-0.10963601 0.0095498879 -0.22958449
-0.10963248 0.0096339323 -0.22958849
-0.10962934 0.0097178016 -0.22958452
-0.10962675 0.0097975023 -0.22957262
-0.1096237 0.0098813307 -0.22956665
-0.10962025 0.0099633764 -0.2295707
-0.10961729 0.010045206 -0.22956476
-0.10961415 0.010129077 -0.22956078
-0.10961109 0.010210946 -0.22955683
-0.10960765 0.010294948 -0.22955886
-0.10960469 0.010376777 -0.22955289
-0.109602 0.010456523 -0.22954303
-0.10959913 0.010538306 -0.22953509
-0.10959569 0.010622308 -0.2295371
-0.10959207 0.010706397 -0.2295431
-0.1095894 0.010788096 -0.22953117
-0.11023402 -0.0094811618 -0.23286699
-0.11023127 -0.0093974657 -0.23285502
-0.1102316 -0.0093190726 -0.23278323
-0.11025034 -0.0092606824 -0.23234424
-0.11025106 -0.0091824643 -0.23226446
-0.11025227 -0.0091044633 -0.23217469
-0.11025367 -0.0090265479 -0.23208092
-0.11025371 -0.0089480244 -0.23201512
-0.11025319 -0.0088672852 -0.23195925
-0.11025225 -0.0087883249 -0.23191343
-0.11025123 -0.0087073678 -0.23186755
-0.11025137 -0.0086288871 -0.23179975
-0.11025372 -0.0085533634 -0.23168805
-0.11025454 -0.0084751882 -0.23160627
-0.11025438 -0.0083965771 -0.23154446
-0.11025251 -0.0083132721 -0.23151451
-0.1102506 -0.0082338769 -0.23148866
-0.11024958 -0.0081529198 -0.23144278
-0.11025011 -0.0080746133 -0.23136699
-0.11025217 -0.0079989592 -0.2312613
-0.11025356 -0.0079229996 -0.23116958
-0.11025552 -0.0078473017 -0.23106587
-0.11025681 -0.0077712974 -0.23097616
-0.11025704 -0.0076928604 -0.23090637
-0.11025728 -0.0076144245 -0.23083657
-0.1102577 -0.0075360741 -0.23076278
-0.11025723 -0.0074592866 -0.230709
-0.11025593 -0.0073781982 -0.23066911
-0.11025413 -0.0072968919 -0.23063922
-0.11025212 -0.0072174538 -0.23061535
-0.11024954 -0.0071357992 -0.23060143
-0.11024765 -0.0070544491 -0.23057352
-0.11024554 -0.0069749672 -0.23055166
-0.11024172 -0.0068907915 -0.23056164
-0.11023692 -0.0068061799 -0.23059161
-0.11023251 -0.0067217434 -0.23061359
-0.11022782 -0.0066371765 -0.23064157
-0.11022265 -0.0065504368 -0.23067747
-0.11021823 -0.0064659994 -0.23069945
-0.11021469 -0.0063839089 -0.2307055
-0.11021067 -0.0062996466 -0.23071948
-0.11020587 -0.0062150359 -0.23074944
-0.11020137 -0.0061305547 -0.23077342
-0.11019735 -0.0060462924 -0.23078741
-0.11019372 -0.0059622042 -0.23079342
-0.11019085 -0.0058804192 -0.23078549
-0.11018837 -0.0057988083 -0.23076956
-0.11018734 -0.0057198042 -0.23072574
-0.11018689 -0.0056410627 -0.23066992
-0.11018556 -0.0055619292 -0.23063207
-0.11018443 -0.0054828813 -0.23059022
-0.1101829 -0.0054036602 -0.23055638
-0.11018082 -0.0053222245 -0.23053247
-0.11017863 -0.005240744 -0.23051056
-0.11017613 -0.005161087 -0.23049667
-0.11017385 -0.0050795628 -0.23047677
-0.11017177 -0.0049981261 -0.23045287
-0.1101689 -0.0049163401 -0.23044492
-0.11016544 -0.0048342943 -0.23044898
-0.11016152 -0.0047500748 -0.23046097
-0.11015829 -0.0046661608 -0.23045897
-0.11015512 -0.0045842454 -0.23045704
-0.11015062 -0.0044997642 -0.230481
-0.11014535 -0.0044129817 -0.23051891
-0.11014229 -0.0043311082 -0.23051497
-0.11014096 -0.0042519756 -0.23047712
-0.11013953 -0.0041727982 -0.23044129
-0.1101384 -0.0040937513 -0.23039946
-0.11013786 -0.0040149651 -0.23034564
-0.1101368 -0.0039379159 -0.23030385
-0.11013567 -0.0038588699 -0.23026201
-0.11013503 -0.0037800409 -0.23021019
-0.11013407 -0.0037030354 -0.23016641
-0.11013379 -0.0036263354 -0.23010863
-0.11013314 -0.0035475055 -0.23005679
-0.11013172 -0.0034683282 -0.23002097
-0.11013 -0.0033890205 -0.22999111
-0.1101274 -0.0033093197 -0.22997923
-0.11012503 -0.0032277517 -0.22996131
-0.11012302 -0.0031483136 -0.22993743
-0.11012044 -0.003066659 -0.22992353
-0.11011738 -0.0029847864 -0.22991958
-0.11011431 -0.0029029148 -0.22991565
-0.11011118 -0.0028190436 -0.22991166
-0.11010848 -0.0027393 -0.22990178
-0.11010659 -0.0026579499 -0.22987387
-0.11010409 -0.0025782939 -0.22985999
-0.11010142 -0.0024965955 -0.22984806
-0.1100996 -0.002417244 -0.22982022
-0.11009923 -0.0023405002 -0.22976445
-0.11010154 -0.0022688843 -0.22965685
-0.11010098 -0.0021920539 -0.22960508
-0.11009963 -0.0021148734 -0.22956926
-0.11009879 -0.0020359578 -0.22952144
-0.11009793 -0.0019589961 -0.22947565
-0.11009677 -0.001881904 -0.22943586
-0.11009525 -0.0018026829 -0.22940202
-0.11009429 -0.0017256774 -0.22935823
-0.11009316 -0.0016466305 -0.22931638
-0.11009105 -0.0015671477 -0.22929452
-0.11008828 -0.0014854055 -0.2292846
-0.11008529 -0.0014055315 -0.22928071
-0.11008233 -0.0013237018 -0.22927476
-0.11007946 -0.0012419168 -0.22926684
-0.1100764 -0.0011600442 -0.2292629
-0.11007297 -0.0010760445 -0.2292649
-0.11006893 -0.00099373609 -0.22928093
-0.11006462 -0.0009093415 -0.22930092
-0.11006128 -0.00082538463 -0.22930093
-0.11005859 -0.00074564107 -0.22929105
-0.11005401 -0.00065916218 -0.22931498
-0.11004911 -0.00057450682 -0.22934693
-0.11004595 -0.00049259141 -0.22934499
-0.11004309 -0.00041080639 -0.22933707
-0.11003973 -0.00032880343 -0.22933911
-0.1100361 -0.00024471432 -0.22934511
-0.11003284 -0.00016275607 -0.22934517
-0.11002978 -8.0883503e-05 -0.22934124
-0.11002605 3.2484531e-06 -0.22934923
-0.11002231 8.5426494e-05 -0.22935927
-0.11001898 0.00016938522 -0.22935927
-0.11001562 0.00025138818 -0.22936133
-0.11001207 0.00033347681 -0.22936738
-0.11000795 0.00041778386 -0.22938336
-0.11000422 0.00050191581 -0.22939137
-0.11000106 0.00058383122 -0.22938941
-0.1099982 0.00066561811 -0.22938149
-0.10999553 0.00074731559 -0.22936955
-0.10999198 0.00082940608 -0.2293756
-0.10998796 0.00091366842 -0.22938959
-0.10998423 0.00099779852 -0.22939759
-0.10998068 0.001079889 -0.22940364
-0.10997705 0.0011639781 -0.22940964
-0.1099737 0.0012459811 -0.22941169
-0.10996939 0.0013303757 -0.22943167
-0.109965 0.001416767 -0.2294516
-0.10996184 0.0014986824 -0.22944966
-0.10995954 0.0015782528 -0.22943181
-0.10995647 0.0016601253 -0.22942784
-0.10995265 0.001744302 -0.22943786
-0.10994932 0.001828257 -0.22943786
-0.10994577 0.0019103475 -0.22944391
-0.10994194 0.0019945223 -0.22945389
-0.10993812 0.0020786989 -0.22946389
-0.10993447 0.0021608323 -0.22947192
-0.10993133 0.0022447035 -0.22946796
-0.10992893 0.0023243167 -0.22945207
-0.10992587 0.0024061892 -0.22944814
-0.10992214 0.0024903212 -0.22945614
-0.1099185 0.0025724564 -0.22946417
-0.10991563 0.0026542395 -0.22945625
-0.10991324 0.0027358066 -0.22943833
-0.10991075 0.0028154626 -0.22942445
-0.10990788 0.0028972495 -0.22941652
-0.10990492 0.0029790774 -0.22941059
-0.10990138 0.0030631218 -0.22941458
-0.10989784 0.0031452142 -0.22942063
-0.10989401 0.003229389 -0.22943062
-0.10988894 0.0033160858 -0.22946455
-0.10988379 0.0034047775 -0.2294984
-0.10988044 0.0034867823 -0.22950046
-0.10987777 0.0035684798 -0.22948852
-0.1098747 0.0036503542 -0.22948459
-0.10987135 0.0037323572 -0.22948664
-0.10986801 0.003816314 -0.22948664
-0.10986505 0.0038981438 -0.22948071
-0.10986198 0.0039800163 -0.22947678
-0.10985883 0.0040619317 -0.22947484
-0.10985547 0.0041439347 -0.2294769
-0.10985174 0.0042280667 -0.22948489
-0.10984782 0.0043122843 -0.22949688
-0.10984383 0.0043985024 -0.22950882
-0.10984106 0.0044802427 -0.22949889
-0.10983866 0.0045598559 -0.22948301
-0.10983559 0.0046417303 -0.22947909
-0.10983273 0.0047235154 -0.22947115
-0.10983013 0.0048032161 -0.22945927
-0.10982775 0.0048847832 -0.22944134
-0.10982498 0.0049665235 -0.22943142
-0.10982172 0.0050484855 -0.22943148
-0.10981819 0.0051325299 -0.22943547
-0.10981427 0.0052167494 -0.22944747
-0.10980959 0.0053032693 -0.2294734
-0.1098052 0.0053896606 -0.22949333
-0.10980119 0.0054739229 -0.22950733
-0.10979802 0.0055558421 -0.22950538
-0.10979506 0.0056376699 -0.22949943
-0.10979143 0.0057217572 -0.22950545
-0.1097879 0.0058057997 -0.22950944
-0.10978484 0.0058876742 -0.22950551
-0.10978207 0.0059694164 -0.22949558
-0.10977891 0.0060513318 -0.22949363
-0.10977443 0.0061377659 -0.22951555
-0.10976937 0.0062264185 -0.22954743
-0.10976555 0.0063105933 -0.22955742
-0.10976163 0.006394811 -0.22956941
-0.10975847 0.0064767282 -0.22956747
-0.1097558 0.0065584257 -0.22955555
-0.10975283 0.0066402555 -0.22954962
-0.10974921 0.0067243446 -0.22955561
-0.10974538 0.0068085194 -0.22956561
-0.10974242 0.0068903472 -0.22955967
-0.10973994 0.006971959 -0.22954375
-0.10973773 0.0070514847 -0.22952388
-0.10973391 0.0071356613 -0.22953388
-0.10972761 0.0072268322 -0.22958967
-0.10972342 0.007313136 -0.2296056
-0.10972026 0.0073950514 -0.22960365
-0.10971739 0.0074768383 -0.22959572
-0.10971479 0.0075565372 -0.22958384
-0.10971146 0.0076404959 -0.22958386
-0.10970764 0.0077246726 -0.22959386
-0.1097042 0.0078086704 -0.22959585
-0.10970163 0.007890325 -0.22958192
-0.10969952 0.0079698078 -0.22956006
-0.10969751 0.0080492478 -0.22953621
-0.10969435 0.0081311632 -0.22953427
-0.1096894 0.0082197711 -0.22956413
-0.10968415 0.0083085094 -0.2296
-0.10968079 0.0083905123 -0.22960204
-0.10967785 0.0084742941 -0.22959405
-0.10967526 0.0085539948 -0.22958219
-0.10967202 0.0086379088 -0.22958019
-0.10966915 0.0087196939 -0.22957227
-0.10966685 0.0087992642 -0.22955438
-0.10966359 0.0088812225 -0.22955444
-0.10966006 0.0089652687 -0.22955845
-0.10965729 0.0090470109 -0.22954851
-0.10965413 0.0091289263 -0.22954658
-0.10965003 0.0092151873 -0.22956052
-0.10964528 0.0093037076 -0.22958639
-0.10964089 0.009390099 -0.22960633
-0.10963792 0.0094719268 -0.2296004
-0.10963535 0.0095535815 -0.22958648
-0.10963199 0.0096355863 -0.22958852
-0.10962886 0.0097194556 -0.22958454
-0.10962626 0.0097991563 -0.22957265
-0.10962312 0.0098830275 -0.22956868
-0.10961976 0.0099650305 -0.22957073
-0.1096167 0.010046901 -0.22956678
-0.10961366 0.01013073 -0.22956081
-0.10961059 0.0102126 -0.22955686
-0.10960706 0.010296645 -0.22956088
-0.1096041 0.010378476 -0.22955494
-0.10960141 0.01045822 -0.22954506
-0.10959855 0.010541959 -0.22953507
-0.10959511 0.010624006 -0.22953913
-0.1095914 0.010710092 -0.22954507
-0.1095888 0.010789793 -0.2295332
-0.11023615 -0.009482584 -0.23287313
-0.1102335 -0.0093989316 -0.23285916
-0.11023384 -0.0093205385 -0.23278737
-0.11025257 -0.0092621502 -0.23234838
-0.11025319 -0.0091838883 -0.2322706
-0.1102545 -0.009105931 -0.23217884
-0.1102559 -0.0090280175 -0.23208506
-0.11025594 -0.0089494931 -0.23201925
-0.11025541 -0.0088687539 -0.2319634
-0.11025447 -0.0087897945 -0.23191756
-0.11025336 -0.0087087927 -0.23187369
-0.11025359 -0.0086303568 -0.23180389
-0.11025596 -0.008554833 -0.23169219
-0.11025677 -0.0084766578 -0.23161042
-0.11025661 -0.0083980467 -0.23154861
-0.11025465 -0.0083146989 -0.23152065
-0.11025273 -0.0082353037 -0.2314948
-0.11025172 -0.0081543475 -0.23144892
-0.11025234 -0.0080760848 -0.23137113
-0.11025441 -0.0080004307 -0.23126543
-0.11025579 -0.0079244711 -0.23117371
-0.11025775 -0.0078487732 -0.23107001
-0.11025904 -0.0077727698 -0.23098029
-0.11025927 -0.0076943338 -0.23091048
-0.1102595 -0.0076158978 -0.23084068
-0.11025994 -0.0075375475 -0.23076691
-0.11025947 -0.00746076 -0.23071313
-0.11025806 -0.0073796287 -0.23067524
-0.11025636 -0.0072983662 -0.23064335
-0.11025435 -0.0072189271 -0.23061949
-0.11025178 -0.0071372725 -0.23060554
-0.11024988 -0.0070559224 -0.23057765
-0.11024778 -0.0069764405 -0.23055577
-0.11024386 -0.006892222 -0.23056777
-0.11023905 -0.0068076113 -0.23059773
-0.11023465 -0.006723173 -0.23061973
-0.11023004 -0.0066386499 -0.23064569
-0.11022487 -0.0065519093 -0.2306816
-0.11022047 -0.0064674728 -0.23070356
-0.11021692 -0.0063853823 -0.23070963
-0.1102129 -0.0063011199 -0.23072362
-0.110208 -0.0062164646 -0.23075557
-0.11020359 -0.006132029 -0.23077756
-0.11019948 -0.006047722 -0.23079354
-0.11019595 -0.0059636766 -0.23079753
-0.11019298 -0.0058818487 -0.2307916
-0.1101906 -0.0058002807 -0.23077369
-0.11018957 -0.0057212766 -0.23072985
-0.11018902 -0.0056424923 -0.23067603
-0.11018779 -0.0055634025 -0.23063618
-0.11018656 -0.0054843118 -0.23059636
-0.11018503 -0.0054050907 -0.23056251
-0.11018295 -0.005323654 -0.23053859
-0.11018086 -0.0052422173 -0.23051468
-0.11017837 -0.0051625613 -0.2305008
-0.11017608 -0.0050810371 -0.23048088
-0.11017399 -0.0049995994 -0.23045698
-0.11017112 -0.0049178153 -0.23044905
-0.11016767 -0.0048357686 -0.2304531
-0.11016375 -0.0047515491 -0.23046508
-0.11016042 -0.0046675913 -0.2304651
-0.11015736 -0.0045857187 -0.23046115
-0.11015285 -0.0045012385 -0.23048513
-0.11014758 -0.004414455 -0.23052303
-0.11014452 -0.0043325815 -0.23051909
-0.11014319 -0.0042534489 -0.23048125
-0.11014177 -0.0041742716 -0.23044541
-0.11014064 -0.0040952247 -0.23040357
-0.11014009 -0.0040164394 -0.23034975
-0.11013893 -0.0039393473 -0.23030996
-0.11013789 -0.0038603451 -0.23026612
-0.11013725 -0.0037815161 -0.2302143
-0.11013629 -0.0037045097 -0.23017052
-0.11013602 -0.0036278106 -0.23011275
-0.11013538 -0.0035489816 -0.23006092
-0.11013395 -0.0034698043 -0.23002508
-0.11013223 -0.0033904966 -0.22999522
-0.11012973 -0.0033108396 -0.22998135
-0.11012726 -0.0032292278 -0.22996542
-0.11012524 -0.0031497898 -0.22994156
-0.11012267 -0.0030681351 -0.22992764
-0.1101196 -0.0029862616 -0.2299237
-0.11011644 -0.0029043462 -0.22992176
-0.11011331 -0.002820476 -0.22991778
-0.11011071 -0.0027407762 -0.2299059
-0.11010872 -0.0026593832 -0.22987998
-0.11010632 -0.0025797701 -0.22986411
-0.11010364 -0.0024980716 -0.22985218
-0.11010183 -0.0024187202 -0.22982433
-0.11010145 -0.0023419764 -0.22976856
-0.11010387 -0.0022704052 -0.22965896
-0.1101032 -0.0021935301 -0.22960919
-0.11010186 -0.0021163505 -0.22957337
-0.11010101 -0.0020374358 -0.22952555
-0.11010016 -0.0019604741 -0.22947977
-0.110099 -0.001883382 -0.22943997
-0.11009748 -0.00180416 -0.22940613
-0.11009652 -0.0017271563 -0.22936234
-0.11009539 -0.0016481075 -0.2293205
-0.11009328 -0.0015686266 -0.22929864
-0.11009041 -0.0014868397 -0.22929071
-0.11008752 -0.0014070105 -0.22928482
-0.11008456 -0.0013251808 -0.22927888
-0.11008159 -0.001243351 -0.22927293
-0.11007863 -0.0011615232 -0.22926702
-0.1100752 -0.0010775216 -0.22926901
-0.11007126 -0.00099525787 -0.22928305
-0.11006685 -0.00091082044 -0.22930503
-0.11006351 -0.00082686357 -0.22930503
-0.11006082 -0.00074711815 -0.22929516
-0.11005624 -0.00066064112 -0.2293191
-0.11005134 -0.00057598576 -0.22935104
-0.11004828 -0.00049411319 -0.22934709
-0.11004531 -0.00041228533 -0.22934116
-0.11004195 -0.00033028238 -0.22934321
-0.11003833 -0.00024619326 -0.22934923
