# .PCD v0.7 - Point Cloud Data file format
VERSION 0.7
FIELDS x y z
SIZE 4 4 4
TYPE F F F
COUNT 1 1 1
WIDTH 1303
HEIGHT 1
VIEWPOINT 0 0 0 1 0 0 0
POINTS 1303
DATA ascii
-0.075335495 0.032875035 -0.20830351
-0.075333618 0.032948524 -0.2082818
-0.075331844 0.033021972 -0.20825808
-0.07533057 0.033097155 -0.20822233
-0.075329401 0.033172294 -0.20818457
-0.075327717 0.033245694 -0.20815887
-0.075325549 0.033319313 -0.20814313
-0.075322576 0.033391327 -0.20814542
-0.075319119 0.033463556 -0.20815769
-0.075315446 0.033533923 -0.20817602
-0.075311504 0.033606373 -0.20819828
-0.075307637 0.033676822 -0.20822059
-0.075303286 0.03374749 -0.20825289
-0.075298853 0.033820156 -0.20828512
-0.075294793 0.033890694 -0.20831144
-0.075290725 0.033961233 -0.20833774
-0.075286977 0.034033593 -0.20835601
-0.075283326 0.034105912 -0.20837228
-0.075279579 0.034178272 -0.20839055
-0.075276293 0.034248464 -0.20840088
-0.075272955 0.034322605 -0.20840912
-0.075268894 0.034393143 -0.20843542
-0.075264931 0.034463637 -0.20845972
-0.075261295 0.034537911 -0.20847395
-0.075257823 0.034608185 -0.20848827
-0.075253777 0.034680679 -0.20851253
-0.075249933 0.034753084 -0.2085328
-0.075246453 0.034823362 -0.20854712
-0.075242214 0.034895942 -0.20857537
-0.075237766 0.034966655 -0.20860967
-0.075233921 0.03503906 -0.20862992
-0.075230263 0.035111375 -0.20864619
-0.075226322 0.035183825 -0.20866847
-0.075222671 0.03525614 -0.20868474
-0.075218998 0.035326507 -0.20870304
-0.075215466 0.035400733 -0.20871527
-0.075210817 0.035471532 -0.20875357
-0.075206071 0.035542376 -0.20879385
-0.075201228 0.035613265 -0.20883612
-0.075196311 0.035686146 -0.20887837
-0.075191274 0.035757121 -0.20892464
-0.075186037 0.035828181 -0.20897491
-0.075179711 0.035897765 -0.2090492
-0.075173289 0.035967395 -0.20912546
-0.075167373 0.03603876 -0.20918973
-0.075161166 0.036110256 -0.20925996
-0.075155742 0.036181401 -0.20931423
-0.075151287 0.036252115 -0.20934851
-0.075145863 0.036323261 -0.20940278
-0.075140335 0.036394451 -0.20945904
-0.075134829 0.036467597 -0.20951326
-0.075129308 0.036538787 -0.20956953
-0.075124174 0.036609806 -0.20961779
-0.075118959 0.036682822 -0.20966601
-0.075113222 0.036752142 -0.20972833
-0.075107224 0.036825508 -0.20979252
-0.075100511 0.036895264 -0.20987478
-0.075094499 0.036966674 -0.20994103
-0.075089291 0.03703969 -0.20998926
-0.075083375 0.037111051 -0.2100535
-0.075076967 0.037182637 -0.21012776
-0.075068593 0.037253134 -0.21024397
-0.075061098 0.037323244 -0.21034223
-0.075053141 0.037395522 -0.21044841
-0.075045347 0.037465759 -0.21055266
-0.075036392 0.037536517 -0.21068086
-0.075026065 0.03760789 -0.21083704
-0.074923709 0.037628062 -0.21295461
-0.07492058 0.037704069 -0.21295682
-0.074916855 0.037778385 -0.21297303
-0.074868329 0.037831467 -0.21394089
-0.074864499 0.037905827 -0.21395913
-0.074860692 0.03798214 -0.21397531
-0.07485687 0.0380565 -0.21399352
-0.074852847 0.038130946 -0.21401572
-0.074848458 0.038207524 -0.21404389
-0.074844919 0.03828175 -0.21405612
-0.074842088 0.03835763 -0.21405232
-0.074839063 0.038433596 -0.21405253
-0.074840643 0.038509469 -0.2139568
-0.0748448 0.038588122 -0.21380509
-0.074842259 0.038663868 -0.2137953
-0.074837849 0.038738489 -0.21382549
-0.074828222 0.038811509 -0.21396565
-0.074821748 0.038885091 -0.21403983
-0.07481882 0.038961012 -0.21403803
-0.074815892 0.039036933 -0.21403623
-0.074813038 0.039110858 -0.21403448
-0.074810207 0.039186738 -0.2140307
-0.074807085 0.039262746 -0.21403289
-0.074803963 0.039338756 -0.21403509
-0.074800916 0.039412767 -0.21403733
-0.074797601 0.039488863 -0.21404353
-0.074794568 0.039564829 -0.21404371
-0.07479164 0.039640754 -0.21404192
-0.074788496 0.039714806 -0.21404615
-0.074785084 0.039790947 -0.21405435
-0.07478264 0.039866652 -0.21404257
-0.074780107 0.039942399 -0.21403277
-0.074776962 0.040016454 -0.21403703
-0.074773736 0.040092509 -0.2140412
-0.0747713 0.040168211 -0.21402943
-0.074768566 0.040244047 -0.21402363
-0.074765421 0.040318102 -0.21402788
-0.07476259 0.040393982 -0.21402408
-0.074759662 0.040469903 -0.21402228
-0.074756444 0.040545955 -0.21402648
-0.07475359 0.04061988 -0.21402472
-0.074750662 0.040695805 -0.21402293
-0.074747249 0.040771943 -0.21403112
-0.074744023 0.040847994 -0.2140353
-0.074740976 0.040922008 -0.21403755
-0.074737951 0.040997975 -0.21403775
-0.074735418 0.041073721 -0.21402797
-0.074733071 0.041149382 -0.21401419
-0.07473024 0.041225262 -0.21401039
-0.074727289 0.041299228 -0.21401063
-0.074724071 0.041375283 -0.21401483
-0.074720852 0.041451335 -0.21401903
-0.074717805 0.041525345 -0.21402127
-0.074714586 0.041601397 -0.21402547
-0.074711561 0.041677363 -0.21402566
-0.074708804 0.041751247 -0.21402192
-0.07470607 0.041827079 -0.21401611
-0.074703433 0.041902874 -0.21400833
-0.074700505 0.041978795 -0.21400654
-0.074697286 0.042054847 -0.21401072
-0.074694045 0.042128947 -0.21401697
-0.074691214 0.042204823 -0.21401317
-0.074688673 0.042280573 -0.21400338
-0.074685358 0.04235667 -0.21400958
-0.07468231 0.04243068 -0.21401182
-0.074679576 0.042506516 -0.21400604
-0.074677043 0.042582266 -0.21399625
-0.074674286 0.042656146 -0.21399249
-0.07467097 0.042732242 -0.21399868
-0.074667551 0.04280838 -0.21400687
-0.074664995 0.042882174 -0.21399912
-0.074662477 0.042959876 -0.21398729
-0.074659333 0.043033931 -0.21399154
-0.074655913 0.043110073 -0.21399972
-0.074652985 0.043185994 -0.21399793
-0.074649937 0.043260004 -0.21400017
-0.074647114 0.043335885 -0.21399638
-0.074644379 0.043411721 -0.21399058
-0.074641153 0.043487772 -0.21399477
-0.074638113 0.043561783 -0.21399702
-0.074635282 0.043637663 -0.21399324
-0.074632548 0.043713499 -0.21398744
-0.074629791 0.043787379 -0.21398368
-0.074626572 0.043863431 -0.21398789
-0.074622862 0.043939702 -0.21400206
-0.074619643 0.044015754 -0.21400625
-0.074617006 0.044091549 -0.21399847
-0.07461445 0.044165339 -0.21399072
-0.074612297 0.044240914 -0.21397296
-0.074610539 0.044316314 -0.21394718
-0.074607983 0.044390108 -0.21393943
-0.075171292 0.020380471 -0.2139682
-0.075167753 0.020454703 -0.21398044
-0.075164296 0.020526933 -0.21399271
-0.075161271 0.020602899 -0.21399291
-0.075158536 0.020678734 -0.21398711
-0.075155288 0.020752832 -0.21399334
-0.075151153 0.020825367 -0.21401961
-0.075147614 0.020899598 -0.21403185
-0.075148419 0.020985635 -0.21394388
-0.075146407 0.021065075 -0.21392003
-0.07514336 0.021139085 -0.21392226
-0.075161368 0.021278311 -0.21343142
-0.075159043 0.021355927 -0.21341559
-0.075156212 0.021431806 -0.21341179
-0.075152658 0.02150408 -0.21342607
-0.075149439 0.021580134 -0.21343026
-0.075146802 0.021655925 -0.21342248
-0.075143553 0.021730021 -0.21342871
-0.075140819 0.021805858 -0.21342292
-0.075140722 0.021890333 -0.21335497
-0.075162351 0.022037763 -0.21278201
-0.075175986 0.022161271 -0.21239543
-0.075174265 0.022240579 -0.21236557
-0.075172842 0.022319758 -0.21232973
-0.075171731 0.022400761 -0.21228585
-0.075270459 0.023100873 -0.20964766
-0.075306199 0.023530642 -0.20854649
-0.075320832 0.023814715 -0.20800623
-0.075319991 0.023893634 -0.20795842
-0.075319424 0.023970464 -0.20790663
-0.075318284 0.024049513 -0.20786481
-0.075317428 0.024126476 -0.20781901
-0.075315587 0.024203874 -0.20779321
-0.075313911 0.024277274 -0.2077675
-0.075311951 0.024352761 -0.20774573
-0.075309686 0.024426425 -0.20773199
-0.075307027 0.024500262 -0.20772624
-0.07530386 0.024572363 -0.20773253
-0.075300284 0.024642682 -0.20774886
-0.075296707 0.024713004 -0.20776518
-0.075293526 0.024783149 -0.20777351
-0.075290553 0.024855163 -0.2077758
-0.075287193 0.02492735 -0.20778607
-0.075283207 0.024995891 -0.20781243
-0.075279824 0.025066122 -0.20782474
-0.075276874 0.025140092 -0.20782501
-0.075272985 0.025208585 -0.20784935
-0.075268924 0.025279125 -0.20787565
-0.075265542 0.025349356 -0.20788798
-0.075262353 0.025419503 -0.20789632
-0.075258605 0.025491865 -0.20791458
-0.075254716 0.025560362 -0.20793894
-0.075250342 0.025629075 -0.20797327
-0.075246178 0.025699656 -0.20800157
-0.075242579 0.025768023 -0.20801993
-0.075239025 0.025840295 -0.20803422
-0.075235642 0.02591053 -0.20804653
-0.075232282 0.025982717 -0.20805681
-0.07522922 0.026054775 -0.2080611
-0.075226538 0.026126657 -0.2080574
-0.075223394 0.026200712 -0.20806164
-0.075219914 0.026270989 -0.20807596
-0.075216435 0.026341267 -0.20809028
-0.075212978 0.026413498 -0.20810255
-0.075209908 0.026485553 -0.20810685
-0.075206533 0.026555786 -0.20811918
-0.075202659 0.026626239 -0.20814148
-0.075198889 0.026696645 -0.2081618
-0.075195119 0.026767053 -0.20818211
-0.075191155 0.026837546 -0.20820642
-0.075187281 0.026907997 -0.20822872
-0.075183704 0.026978316 -0.20824504
-0.075180054 0.027050637 -0.20826131
-0.075176671 0.027120868 -0.20827365
-0.075173706 0.027192881 -0.20827594
-0.075170659 0.027266894 -0.20827818
-0.075167395 0.027339034 -0.20828646
-0.075164326 0.027411094 -0.20829074
-0.075161748 0.027482932 -0.20828505
-0.075159378 0.027556639 -0.20827332
-0.075156428 0.027630609 -0.20827356
-0.07515315 0.027700799 -0.20828389
-0.075149983 0.027772896 -0.20829017
-0.075147323 0.027846735 -0.20828442
-0.075145252 0.027920309 -0.20826669
-0.075143397 0.027995754 -0.20824294
-0.075141326 0.028069329 -0.20822521
-0.075139269 0.028144861 -0.20820543
-0.075137295 0.028218394 -0.2081857
-0.07513503 0.028292056 -0.20817198
-0.075133167 0.028367501 -0.20814821
-0.075131707 0.028442768 -0.20811644
-0.075130239 0.02851804 -0.2080847
-0.075128458 0.028591484 -0.20806098
-0.075125292 0.028663585 -0.20806727
-0.075120836 0.028734297 -0.20810156
-0.075116657 0.028802924 -0.20813191
-0.075112008 0.028873723 -0.20817019
-0.075107634 0.028942436 -0.20820454
-0.075103059 0.029011237 -0.20824286
-0.07509841 0.029082034 -0.20828116
-0.075094543 0.029152486 -0.20830345
-0.075091086 0.029224718 -0.20831573
-0.075087309 0.029295124 -0.20833606
-0.075083345 0.029365618 -0.20836034
-0.075079888 0.029437849 -0.20837262
-0.075076312 0.02950817 -0.20838895
-0.075072467 0.029580574 -0.20840922
-0.075069107 0.029652763 -0.2084195
-0.075065628 0.029723041 -0.20843381
-0.075062171 0.02979527 -0.20844609
-0.075059198 0.029867284 -0.20844838
-0.075056344 0.029941209 -0.20844664
-0.075053886 0.030014958 -0.20843689
-0.075051591 0.030086666 -0.20842519
-0.075048938 0.030160503 -0.20841946
-0.075046763 0.030234125 -0.20840374
-0.075044811 0.03030961 -0.20838195
-0.075042836 0.030383144 -0.20836224
-0.075041056 0.030456588 -0.20833851
-0.075039685 0.030531814 -0.20830476
-0.075038612 0.030606911 -0.20826502
-0.07503736 0.030684046 -0.20822722
-0.075036086 0.030759228 -0.20819148
-0.075035207 0.030834235 -0.20814773
-0.075033233 0.030907769 -0.20812801
-0.075029776 0.03098 -0.2081403
-0.075026006 0.031050406 -0.20816061
-0.075022057 0.031122856 -0.20818287
-0.075018384 0.031193219 -0.20820118
-0.075014323 0.031263757 -0.20822749
-0.075010061 0.031334382 -0.20825779
-0.075005703 0.03140505 -0.20829007
-0.07500203 0.031475414 -0.2083084
-0.074998572 0.031547643 -0.20832068
-0.074995406 0.031619746 -0.20832697
-0.074992262 0.031693801 -0.2083312
-0.07498949 0.031765729 -0.2083295
-0.07498683 0.031839564 -0.20832375
-0.074983761 0.031911619 -0.20832804
-0.074980497 0.031983763 -0.20833632
-0.074977331 0.032055866 -0.20834261
-0.074974164 0.032127965 -0.2083489
-0.074971393 0.032199893 -0.20834719
-0.07496842 0.032271907 -0.20834948
-0.074965276 0.032345958 -0.20835373
-0.074962698 0.032417797 -0.20834802
-0.074960135 0.032491595 -0.20834029
-0.074957475 0.03256543 -0.20833454
-0.074955307 0.032639049 -0.2083188
-0.074953333 0.032712582 -0.20829907
-0.074951261 0.032786161 -0.20828135
-0.074949287 0.03285969 -0.20826164
-0.074947409 0.032933179 -0.20823991
-0.074945629 0.033006627 -0.20821619
-0.074944064 0.033081938 -0.20818643
-0.074942581 0.033155255 -0.20815672
-0.074940719 0.033230696 -0.20813295
-0.074938238 0.033302493 -0.20812526
-0.074935168 0.033374548 -0.20812955
-0.074931711 0.033446781 -0.20814183
-0.07492806 0.033519097 -0.20815811
-0.074924387 0.03358946 -0.2081764
-0.074920438 0.033661909 -0.20819867
-0.074916668 0.033732317 -0.20821899
-0.074912138 0.033805028 -0.20825323
-0.074907973 0.033875611 -0.20828152
-0.074903816 0.03394619 -0.20830983
-0.074900068 0.034018554 -0.2083281
-0.074896686 0.034088783 -0.20834042
-0.074892543 0.034161322 -0.20836669
-0.07488858 0.034231815 -0.20839098
-0.074885234 0.034305956 -0.20839922
-0.074882656 0.034377798 -0.20839353
-0.074878298 0.034448463 -0.20842582
-0.074873768 0.034521177 -0.20846006
-0.074869804 0.034591667 -0.20848438
-0.074865758 0.034664162 -0.20850864
-0.074861601 0.034734741 -0.20853694
-0.074857555 0.034807235 -0.2085612
-0.074854001 0.034879509 -0.20857549
-0.074850135 0.034949958 -0.20859778
-0.074845701 0.035022628 -0.20863003
-0.074842237 0.035094857 -0.2086423
-0.074839078 0.035166956 -0.20864859
-0.074835517 0.035239231 -0.20866287
-0.074831963 0.035311505 -0.20867714
-0.074828409 0.03538378 -0.20869142
-0.074824661 0.035456143 -0.20870969
-0.074820206 0.035526857 -0.20874397
-0.074815281 0.035599738 -0.2087862
-0.074809931 0.035668887 -0.20884052
-0.074804716 0.035741903 -0.20888874
-0.07479997 0.035812743 -0.20892903
-0.074794129 0.035882112 -0.20899333
-0.074787632 0.035953738 -0.20906955
-0.074781694 0.036023147 -0.20913586
-0.074775383 0.036094688 -0.2092081
-0.074769467 0.036166053 -0.20927234
-0.07476414 0.036237154 -0.20932461
-0.074759394 0.036307998 -0.20936489
-0.074754961 0.036380664 -0.20939714
-0.074751303 0.036452983 -0.20941341
-0.074746288 0.036525913 -0.20945764
-0.074739061 0.036593933 -0.20955195
-0.074731879 0.036665861 -0.20964216
-0.074725963 0.036737226 -0.20970641
-0.074719653 0.036808766 -0.20977864
-0.074714229 0.036879912 -0.20983291
-0.074709497 0.036952712 -0.20987114
-0.074704871 0.037025463 -0.2099074
-0.074698664 0.037096959 -0.20997764
-0.074690387 0.037167415 -0.21009186
-0.074683085 0.037237436 -0.21018612
-0.074675903 0.037309363 -0.21027634
-0.074668303 0.037379514 -0.21037658
-0.074661314 0.03745136 -0.21046278
-0.07465335 0.037523638 -0.21056899
-0.074637875 0.037589453 -0.21083719
-0.074628912 0.037660211 -0.21096539
-0.074624695 0.037734747 -0.21099159
-0.074486032 0.037741661 -0.21387681
-0.074481331 0.037816413 -0.21391299
-0.074477695 0.037890684 -0.21392721
-0.074475057 0.037966475 -0.21391943
-0.074472032 0.038042441 -0.21391964
-0.074466914 0.038115412 -0.21396586
-0.074462719 0.0381919 -0.21399003
-0.074459672 0.038265914 -0.21399227
-0.074455671 0.038342312 -0.21401244
-0.074452035 0.038416587 -0.21402666
-0.074449107 0.038492508 -0.21402487
-0.074446179 0.03856843 -0.21402307
-0.074443229 0.038642399 -0.21402331
-0.074440591 0.03871819 -0.21401553
-0.074437559 0.038794156 -0.21401572
-0.074434221 0.038868297 -0.21402396
-0.074430808 0.038944438 -0.21403214
-0.074427679 0.039020449 -0.21403435
-0.074425139 0.039096195 -0.21402456
-0.074422695 0.039171901 -0.21401277
-0.074419647 0.039245911 -0.21401502
-0.074416429 0.039321963 -0.21401921
-0.074413598 0.039397843 -0.21401541
-0.074411131 0.039471593 -0.21400568
-0.074408107 0.039547559 -0.21400589
-0.074404784 0.039623655 -0.21401207
-0.074401662 0.039699666 -0.21401426
-0.074399218 0.039775368 -0.21400249
-0.074396759 0.039849117 -0.21399274
-0.074393928 0.039924998 -0.21398894
-0.074390315 0.040001225 -0.21400112
-0.074386872 0.04007541 -0.21401136
-0.074383944 0.040151332 -0.21400955
-0.074380822 0.040227342 -0.21401176
-0.074377991 0.040303219 -0.21400797
-0.074375428 0.040377013 -0.21400023
-0.074372403 0.04045298 -0.21400043
-0.074369177 0.040529031 -0.21400461
-0.074366525 0.04060287 -0.21399887
-0.074363492 0.040678836 -0.21399906
-0.074360274 0.040754888 -0.21400326
-0.074357636 0.040830679 -0.21399547
-0.074354708 0.040906601 -0.21399367
-0.074351467 0.0409807 -0.21399991
-0.074348338 0.041056711 -0.21400212
-0.074344926 0.041132849 -0.2140103
-0.074341603 0.041208945 -0.2140165
-0.074338749 0.04128287 -0.21401474
-0.074336208 0.04135862 -0.21400496
-0.074333869 0.041434281 -0.21399117
-0.074330933 0.041510202 -0.21398938
-0.074327402 0.041584432 -0.2140016
-0.074324377 0.041660398 -0.2140018
-0.074321933 0.0417361 -0.21399003
-0.074319296 0.041811891 -0.21398222
-0.074316248 0.041885905 -0.21398447
-0.074313223 0.041961871 -0.21398467
-0.074310288 0.042037793 -0.21398288
-0.074307442 0.042111717 -0.21398112
-0.074304603 0.042187594 -0.21397734
-0.074301772 0.042263474 -0.21397354
-0.07429865 0.042339481 -0.21397573
-0.074295796 0.042413406 -0.21397398
-0.074292868 0.042489327 -0.21397218
-0.074289739 0.042565338 -0.21397439
-0.074286893 0.042639263 -0.21397263
-0.074283957 0.042715184 -0.21397084
-0.074280933 0.042791151 -0.21397103
-0.074278198 0.042866986 -0.21396524
-0.074275367 0.042942867 -0.21396145
-0.07427232 0.043016877 -0.21396369
-0.074269094 0.043092929 -0.21396789
-0.074265972 0.04316894 -0.21397008
-0.074262828 0.043242995 -0.21397433
-0.0742599 0.043318916 -0.21397251
-0.074256964 0.043394838 -0.21397072
-0.074253939 0.043470804 -0.21397093
-0.074251086 0.043544728 -0.21396917
-0.074248157 0.04362065 -0.21396738
-0.074245326 0.04369653 -0.21396357
-0.074242495 0.043772407 -0.21395978
-0.074239738 0.043846287 -0.21395603
-0.074237101 0.043922082 -0.21394825
-0.07423427 0.043997958 -0.21394445
-0.074230954 0.044074055 -0.21395063
-0.074228197 0.044147935 -0.21394689
-0.07422556 0.044223726 -0.2139391
-0.074222922 0.044299521 -0.21393131
-0.074220166 0.044373401 -0.21392757
-0.074217916 0.044449016 -0.21391179
-0.074849471 0.020370321 -0.21393077
-0.074845739 0.020444637 -0.213947
-0.074842393 0.02051878 -0.21395524
-0.074838936 0.020591009 -0.2139675
-0.074835494 0.020665197 -0.21397774
-0.074831642 0.0207376 -0.213998
-0.0748275 0.020810135 -0.21402426
-0.074826695 0.020892961 -0.21397234
-0.074827179 0.020977175 -0.21389243
-0.074824654 0.021054879 -0.2138806
-0.07482446 0.021139398 -0.21381465
-0.074828185 0.021233946 -0.21365854
-0.074829102 0.021321895 -0.21356654
-0.074827477 0.021401159 -0.2135347
-0.074825749 0.021480467 -0.21350485
-0.074822798 0.021554437 -0.21350509
-0.074818969 0.021628795 -0.21352331
-0.074815214 0.021701157 -0.21354158
-0.074811652 0.02177343 -0.21355586
-0.074809544 0.021852912 -0.213534
-0.07480862 0.021933829 -0.21348612
-0.074805595 0.022009796 -0.21348631
-0.074843258 0.022203075 -0.2125406
-0.074940495 0.022575933 -0.21020389
-0.074937642 0.02264986 -0.21020214
-0.074935272 0.022723565 -0.21019042
-0.074932121 0.02279762 -0.21019465
-0.074927956 0.022868203 -0.21022294
-0.074923173 0.022935133 -0.21026732
-0.074918911 0.023005759 -0.21029761
-0.074915543 0.023077946 -0.2103079
-0.074993573 0.023789247 -0.20809105
-0.074993238 0.023869902 -0.20803121
-0.074993387 0.023950338 -0.20796137
-0.074992858 0.024031078 -0.2079055
-0.074991994 0.024108041 -0.20785972
-0.074990541 0.024185264 -0.20782593
-0.074989073 0.024260534 -0.20779416
-0.074987091 0.024334066 -0.20777443
-0.074984938 0.024409642 -0.20775667
-0.074982472 0.02448339 -0.20774692
-0.074979402 0.024555447 -0.20775121
-0.074975632 0.024625855 -0.20777152
-0.07497213 0.024694175 -0.2077879
-0.074969076 0.024768187 -0.20779014
-0.074966297 0.024840113 -0.20778844
-0.074963011 0.024910301 -0.20779876
-0.074959338 0.024980666 -0.20781708
-0.07495597 0.025052853 -0.20782736
-0.074952684 0.025123045 -0.20783769
-0.074948721 0.025193537 -0.20786199
-0.074944727 0.025262076 -0.20788835
-0.074941054 0.02533244 -0.20790666
-0.074937575 0.025402717 -0.20792098
-0.0749337 0.025473166 -0.20794329
-0.07492961 0.025541751 -0.20797163
-0.074925862 0.025614113 -0.2079899
-0.074922085 0.025684521 -0.20801023
-0.074918196 0.025753014 -0.20803457
-0.074914634 0.02582529 -0.20804885
-0.074911542 0.025895393 -0.20805518
-0.074908085 0.025967622 -0.20806746
-0.074904799 0.026037812 -0.20807779
-0.074902236 0.026111607 -0.20807004
-0.074899673 0.026185399 -0.20806231
-0.074896291 0.026255632 -0.20807463
-0.074892633 0.026327951 -0.2080909
-0.074889153 0.026398227 -0.20810522
-0.074885882 0.026470369 -0.20811349
-0.074882403 0.026540646 -0.20812783
-0.074878745 0.026612964 -0.2081441
-0.074874878 0.026683416 -0.20816641
-0.074871078 0.026751867 -0.20818876
-0.074867308 0.026822275 -0.20820907
-0.074863553 0.026894636 -0.20822734
-0.07486017 0.026964869 -0.20823967
-0.074856803 0.027037058 -0.20824994
-0.074853346 0.027109286 -0.20826223
-0.074849673 0.027179651 -0.20828053
-0.074846305 0.027251838 -0.20829082
-0.074843429 0.027323809 -0.20829111
-0.074840456 0.02739582 -0.20829341
-0.074837387 0.027467877 -0.20829768
-0.07483422 0.02753998 -0.20830397
-0.074831046 0.027612079 -0.20831026
-0.07482817 0.027684048 -0.20831054
-0.074825704 0.027757799 -0.20830081
-0.074822947 0.027831677 -0.20829707
-0.074820362 0.02790352 -0.20829137
-0.074818 0.027977224 -0.20827964
-0.07481575 0.028052844 -0.20826386
-0.074813962 0.028126288 -0.20824014
-0.074812204 0.028201686 -0.20821437
-0.074810341 0.028277131 -0.20819061
-0.074808873 0.028352402 -0.20815885
-0.074807599 0.028427582 -0.20812309
-0.074806243 0.028504763 -0.20808731
-0.074803859 0.028576512 -0.20807761
-0.074800298 0.02864879 -0.20809188
-0.074796423 0.028719239 -0.20811421
-0.074792244 0.028787866 -0.20814455
-0.074787788 0.028858576 -0.20817885
-0.074783117 0.028927421 -0.20821917
-0.074778855 0.028998045 -0.20824946
-0.074774571 0.029066717 -0.20828182
-0.074770503 0.029137257 -0.20830812
-0.074766845 0.029209573 -0.20832437
-0.074763484 0.029281761 -0.20833467
-0.074760899 0.029353598 -0.20832896
-0.074758239 0.029427435 -0.20832321
-0.074754782 0.029499669 -0.2083355
-0.074750714 0.029570205 -0.2083618
-0.07474643 0.029638875 -0.20839414
-0.074741974 0.029709587 -0.20842844
-0.074738711 0.029781731 -0.20843673
-0.074736051 0.029855568 -0.20843098
-0.074733078 0.029927582 -0.20843327
-0.074730299 0.029999508 -0.20843157
-0.07472764 0.030073345 -0.20842582
-0.074725077 0.030147139 -0.20841809
-0.074722901 0.030220758 -0.20840235
-0.074720629 0.03029442 -0.20838863
-0.074718654 0.030367954 -0.2083689
-0.074717574 0.030443048 -0.20832916
-0.074716508 0.030520096 -0.20828736
-0.074715137 0.030595321 -0.20825361
-0.07471326 0.030668812 -0.2082319
-0.074711591 0.030744169 -0.20820412
-0.074710414 0.030819308 -0.20816638
-0.074708343 0.030892882 -0.20814866
-0.074705467 0.030964851 -0.20814896
-0.074702196 0.031036997 -0.20815723
-0.074698642 0.031109272 -0.2081715
-0.074694768 0.031179722 -0.20819381
-0.074691013 0.031252082 -0.20821208
-0.074687533 0.03132236 -0.2082264
-0.074683778 0.03139472 -0.20824467
-0.074679419 0.031465389 -0.20827696
-0.074675456 0.031535883 -0.20830128
-0.074671775 0.031606246 -0.20831959
-0.074668415 0.031678434 -0.20832986
-0.07466536 0.031752445 -0.20833211
-0.074662194 0.031824544 -0.20833841
-0.074659124 0.031896602 -0.20834267
-0.074656852 0.031970263 -0.20832896
-0.074655071 0.03204371 -0.20830524
-0.074651316 0.03211607 -0.20832351
-0.074647151 0.032186653 -0.20835179
-0.074644469 0.032258533 -0.2083481
-0.074641809 0.032332372 -0.20834236
-0.074638546 0.032404516 -0.20835063
-0.074635379 0.032476619 -0.20835692
-0.074632712 0.032550454 -0.20835118
-0.07463064 0.032624029 -0.20833346
-0.074628562 0.032697607 -0.20831573
-0.074626297 0.032771267 -0.20830199
-0.074623927 0.032844976 -0.20829025
-0.074622042 0.032918464 -0.20826852
-0.074620359 0.032991864 -0.20824282
-0.074618086 0.033065528 -0.20822908
-0.074616402 0.033138931 -0.20820336
-0.074615225 0.03321407 -0.20816562
-0.074613348 0.033287559 -0.20814389
-0.074610271 0.033359617 -0.20814818
-0.074606523 0.033431977 -0.20816645
-0.074602842 0.03350234 -0.20818478
-0.074599385 0.033574574 -0.20819706
-0.074595533 0.033646978 -0.20821731
-0.074591175 0.033717647 -0.2082496
-0.074586913 0.033788271 -0.20827991
-0.074582748 0.033858851 -0.20830822
-0.074578799 0.0339313 -0.20833048
-0.074574828 0.034001794 -0.20835479
-0.074571081 0.034074154 -0.20837304
-0.074567229 0.034146562 -0.20839332
-0.074563451 0.034216966 -0.20841363
-0.074559815 0.034291238 -0.20842785
-0.074556649 0.034363337 -0.20843413
-0.074552871 0.034433745 -0.20845446
-0.074548028 0.034504633 -0.20849672
-0.074543983 0.034577124 -0.20852099
-0.074540228 0.034649484 -0.20853925
-0.074536748 0.034719761 -0.20855358
-0.074533187 0.034792036 -0.20856786
-0.074529335 0.034864441 -0.20858812
-0.074525289 0.034936935 -0.20861238
-0.074521542 0.035009295 -0.20863065
-0.074518077 0.035081524 -0.20864293
-0.074514203 0.035151977 -0.20866524
-0.074510552 0.035224296 -0.20868149
-0.074507281 0.035296436 -0.20868978
-0.07450404 0.035370536 -0.20869604
-0.074500576 0.035442766 -0.2087083
-0.074496508 0.035513304 -0.2087346
-0.074491292 0.03558632 -0.20878282
-0.074486136 0.035655379 -0.20883314
-0.074481115 0.035728309 -0.20887738
-0.074475974 0.035799325 -0.20892565
-0.074470326 0.035868604 -0.20898595
-0.074464314 0.035940014 -0.20905221
-0.074457981 0.036009595 -0.20912649
-0.074451774 0.036081091 -0.20919673
-0.074445851 0.036152456 -0.20926097
-0.07444042 0.036223602 -0.20931524
-0.074434988 0.036294751 -0.20936951
-0.07442946 0.036365941 -0.20942578
-0.074423835 0.036437176 -0.20948403
-0.074418403 0.036508322 -0.20953828
-0.074413069 0.036579426 -0.20959055
-0.074407361 0.036652658 -0.20964877
-0.07440193 0.036723804 -0.20970303
-0.074396603 0.036794908 -0.2097553
-0.074390873 0.036866184 -0.20981556
-0.074384764 0.036937635 -0.20988381
-0.07437896 0.037010912 -0.20994401
-0.074373432 0.037082102 -0.21000028
-0.07436683 0.037153773 -0.21007851
-0.074360326 0.037225395 -0.21015474
-0.074353315 0.037295286 -0.210243
-0.074345835 0.037367348 -0.21033919
-0.07433816 0.037439495 -0.21043941
-0.074329197 0.037510253 -0.21056761
-0.074316688 0.037578672 -0.2107718
-0.074251473 0.037619561 -0.21209762
-0.074248038 0.037693746 -0.21210787
-0.074161485 0.037726488 -0.21388546
-0.074157871 0.037802715 -0.21389765
-0.074153945 0.037877116 -0.21391785
-0.074150115 0.037951477 -0.21393608
-0.074145913 0.038027965 -0.21396025
-0.074141085 0.038100805 -0.21400048
-0.074136496 0.038177468 -0.21403265
-0.07413315 0.038251609 -0.21404088
-0.07412973 0.03832775 -0.21404906
-0.074126504 0.038403802 -0.21405324
-0.074123748 0.038477682 -0.2140495
-0.074120909 0.038553558 -0.2140457
-0.074118078 0.038629439 -0.21404192
-0.074115142 0.03870536 -0.21404012
-0.074111998 0.038779415 -0.21404436
-0.074109063 0.038855337 -0.21404256
-0.074106619 0.038931042 -0.21403077
-0.074104175 0.039006747 -0.214019
-0.074101217 0.039080713 -0.21401924
-0.074097894 0.039156809 -0.21402544
-0.074094869 0.039232776 -0.21402562
-0.074092619 0.039308392 -0.21400985
-0.074090071 0.039384142 -0.21400006
-0.07408683 0.039458241 -0.2140063
-0.074083112 0.039534509 -0.21402049
-0.074080572 0.039610259 -0.21401069
-0.074079782 0.039685223 -0.21396497
-0.074080773 0.039761357 -0.21388124
-0.074078523 0.039836977 -0.21386546
-0.074075103 0.039913114 -0.21387364
-0.074070781 0.039987691 -0.21390185
-0.074064322 0.040063228 -0.21397398
-0.07405971 0.040137935 -0.21400818
-0.074056581 0.040213943 -0.21401039
-0.074053437 0.040287998 -0.21401463
-0.07405021 0.040364053 -0.21401882
-0.074047178 0.040440015 -0.21401903
-0.074044243 0.040515937 -0.21401721
-0.074041583 0.040589776 -0.21401148
-0.074038655 0.040665697 -0.21400967
-0.074035622 0.040741663 -0.21400988
-0.074032493 0.040817674 -0.21401209
-0.074029349 0.040891729 -0.21401632
-0.07402651 0.040967606 -0.21401253
-0.074023575 0.041043527 -0.21401073
-0.07402084 0.041119363 -0.21400493
-0.074018002 0.041195244 -0.21400113
-0.074014761 0.04126934 -0.21400738
-0.074011631 0.04134535 -0.21400958
-0.0740088 0.041421227 -0.21400577
-0.074006133 0.041495066 -0.21400005
-0.074003011 0.041571073 -0.21400222
-0.073999785 0.041647129 -0.21400642
-0.073996827 0.041721094 -0.21400666
-0.073993996 0.041796975 -0.21400288
-0.073991157 0.041872852 -0.21399908
-0.073988125 0.041948818 -0.21399929
-0.0739851 0.042024784 -0.21399948
-0.073982045 0.042098794 -0.21400172
-0.073978923 0.042174805 -0.21400392
-0.073975794 0.042250812 -0.21400613
-0.073972762 0.042326778 -0.2140063
-0.073970005 0.042400658 -0.21400258
-0.073967263 0.042476494 -0.21399677
-0.073964238 0.04255246 -0.21399698
-0.073961183 0.04262647 -0.21399921
-0.073958352 0.042702351 -0.21399543
-0.073955417 0.042778272 -0.21399362
-0.073952757 0.042852107 -0.21398789
-0.073950216 0.042927857 -0.2139781
-0.073947378 0.043003734 -0.2139743
-0.073944345 0.0430797 -0.21397451
-0.073941223 0.043155711 -0.2139767
-0.073938072 0.043229766 -0.21398094
-0.073935039 0.043305729 -0.21398114
-0.073932014 0.043381695 -0.21398133
-0.073928982 0.043457661 -0.21398154
-0.073926613 0.043531369 -0.2139698
-0.073923782 0.043607246 -0.21396601
-0.073920161 0.043683473 -0.21397819
-0.073917113 0.043757483 -0.21398044
-0.073914371 0.043833319 -0.21397464
-0.07391154 0.0439092 -0.21397084
-0.073908605 0.043985121 -0.21396905
-0.073905379 0.044061173 -0.21397324
-0.073902331 0.044135183 -0.21397549
-0.073899396 0.044211105 -0.2139737
-0.073896855 0.044286855 -0.2139639
-0.073894873 0.044360388 -0.21394417
-0.073892042 0.044436265 -0.21394038
-0.074633174 0.020350771 -0.21392061
-0.074629031 0.020423306 -0.21394688
-0.074624456 0.020492107 -0.2139852
-0.074621215 0.020566205 -0.21399145
-0.074618697 0.020643907 -0.21397963
-0.074615858 0.020719785 -0.21397582
-0.074611932 0.02079419 -0.21399604
-0.074607261 0.020863032 -0.21403638
-0.074602202 0.020932052 -0.21408468
-0.074598767 0.021006238 -0.21409494
-0.074612111 0.021131832 -0.2137123
-0.07460957 0.02120758 -0.2137025
-0.074608065 0.021288756 -0.21366662
-0.074608542 0.02137297 -0.2135867
-0.074608855 0.021459227 -0.21350873
-0.074606702 0.021534801 -0.21349095
-0.074602582 0.021609291 -0.21351516
-0.07459861 0.021679785 -0.21353947
-0.074595273 0.021753926 -0.21354771
-0.074592531 0.021829763 -0.21354192
-0.074592218 0.02191237 -0.21348003
-0.074593037 0.022000363 -0.21339002
-0.074623413 0.02225776 -0.21254268
-0.074691653 0.022625875 -0.21081354
-0.07469102 0.02270666 -0.21075967
-0.074689694 0.022785794 -0.21072184
-0.074691072 0.022871571 -0.21062189
-0.07470043 0.022981273 -0.21033555
-0.074698187 0.023056891 -0.21031977
-0.074748203 0.023442959 -0.20895585
-0.074768774 0.023584964 -0.20840901
-0.074766211 0.023658758 -0.20840126
-0.07476858 0.023746055 -0.20827931
-0.074773476 0.023840081 -0.20809925
-0.074773043 0.023920778 -0.20804138
-0.074773192 0.024001215 -0.20797154
-0.074772328 0.024078177 -0.20792575
-0.074770972 0.024155358 -0.20788994
-0.074769333 0.024232669 -0.20786016
-0.074767448 0.024306159 -0.20783843
-0.074765593 0.024381602 -0.20781466
-0.074763536 0.024457131 -0.20779489
-0.074760973 0.024530927 -0.20778714
-0.074757978 0.024600985 -0.20779148
-0.074754499 0.024671262 -0.20780581
-0.074751139 0.024743447 -0.20781609
-0.074747875 0.024815591 -0.20782438
-0.074744709 0.024887694 -0.20783067
-0.07474152 0.024957838 -0.20783898
-0.074738041 0.025028115 -0.20785332
-0.07473468 0.025100302 -0.20786358
-0.074731901 0.02517223 -0.20786189
-0.07472793 0.025242722 -0.20788619
-0.074723341 0.02530957 -0.20792657
-0.074719064 0.025378238 -0.20795891
-0.074715093 0.025448734 -0.20798323
-0.074711323 0.02551914 -0.20800355
-0.074707843 0.025589418 -0.20801786
-0.074704364 0.025659693 -0.20803219
-0.074700803 0.025731966 -0.20804645
-0.07469742 0.025802199 -0.20805877
-0.07469406 0.025874387 -0.20806906
-0.074690603 0.025946619 -0.20808133
-0.074687608 0.026016679 -0.20808569
-0.074684657 0.026090644 -0.20808592
-0.074681781 0.026162615 -0.20808622
-0.074678399 0.026232848 -0.20809853
-0.074674338 0.026303384 -0.20812485
-0.074670658 0.02637375 -0.20814316
-0.0746672 0.026445979 -0.20815544
-0.074663818 0.026516212 -0.20816776
-0.074660167 0.026588529 -0.20818403
-0.074656487 0.026658894 -0.20820235
-0.07465291 0.026729213 -0.20821866
-0.074649237 0.026799578 -0.20823699
-0.074645482 0.026871938 -0.20825526
-0.074642301 0.026942085 -0.20826358
-0.074639127 0.027014185 -0.20826986
-0.074635863 0.027086331 -0.20827815
-0.074632406 0.02715856 -0.20829043
-0.074629143 0.027230704 -0.20829871
-0.074625954 0.02730085 -0.20830703
-0.0746224 0.027373124 -0.2083213
-0.074618936 0.027445355 -0.2083336
-0.074615851 0.027515456 -0.20833993
-0.074612893 0.027589424 -0.20834017
-0.074610315 0.027661264 -0.20833448
-0.074607357 0.02773523 -0.20833471
-0.074604683 0.027807115 -0.20833102
-0.074602626 0.027882645 -0.20831126
-0.074600458 0.027956266 -0.20829552
-0.074598283 0.028029883 -0.20827979
-0.074596323 0.028105371 -0.20825802
-0.074594446 0.02817886 -0.20823631
-0.074592873 0.028254174 -0.20820653
-0.074590825 0.028329702 -0.20818678
-0.074588843 0.028403237 -0.20816705
-0.074587278 0.02847855 -0.2081373
-0.074585102 0.028552167 -0.20812157
-0.074582346 0.028626049 -0.20811781
-0.074578889 0.02869828 -0.20813009
-0.074575022 0.028768731 -0.2081524
-0.07457076 0.028839353 -0.20818269
-0.074566483 0.028908027 -0.20821504
-0.074561909 0.028976826 -0.20825338
-0.074557744 0.029047407 -0.20828167
-0.074553274 0.029116165 -0.20831802
-0.074549012 0.029186789 -0.20834832
-0.074545458 0.029259063 -0.20836258
-0.074541971 0.029329339 -0.20837691
-0.074538417 0.029401615 -0.20839119
-0.074535057 0.029473802 -0.20840147
-0.074532591 0.029547552 -0.20839173
-0.074530222 0.029621258 -0.20837998
-0.074526355 0.029691709 -0.20840231
-0.074522093 0.029762333 -0.2084326
-0.074518636 0.029834565 -0.20844488
-0.074515469 0.029906664 -0.20845117
-0.07451269 0.029978592 -0.20844945
-0.074510224 0.030052342 -0.20843972
-0.074508153 0.030125918 -0.20842201
-0.074505977 0.030199537 -0.20840627
-0.074503727 0.030275155 -0.20839049
-0.07450185 0.030348644 -0.20836876
-0.074499875 0.030422175 -0.20834905
-0.074497819 0.030497707 -0.20832926
-0.074496135 0.030571107 -0.20830354
-0.074494757 0.030646335 -0.2082698
-0.074493676 0.03072143 -0.20823006
-0.074492209 0.030796699 -0.20819831
-0.074490547 0.030872056 -0.20817053
-0.074488468 0.030945633 -0.20815282
-0.074485689 0.031017557 -0.2081511
-0.074482329 0.031089745 -0.20816138
-0.074478678 0.031162065 -0.20817767
-0.074474998 0.031232428 -0.20819598
-0.074471444 0.031304702 -0.20821026
-0.074467883 0.031376977 -0.20822453
-0.074463628 0.031447601 -0.20825483
-0.074459657 0.031518094 -0.20827913
-0.07445579 0.031588543 -0.20830145
-0.074451938 0.031660948 -0.20832172
-0.074448578 0.031733137 -0.208332
-0.074445292 0.031803325 -0.20834231
-0.074441738 0.031875603 -0.20835659
-0.074438766 0.031947613 -0.20835888
-0.074436203 0.032021407 -0.20835115
-0.074433155 0.032095417 -0.2083534
-0.074429579 0.03216574 -0.2083697
-0.074426405 0.032237839 -0.20837599
-0.074423455 0.032311808 -0.20837623
-0.074420676 0.032383732 -0.20837453
-0.074418023 0.032457568 -0.20836879
-0.074415244 0.032529496 -0.20836708
-0.074412487 0.032603376 -0.20836335
-0.074410409 0.032676954 -0.20834562
-0.074408337 0.032750528 -0.20832789
-0.074406065 0.032824192 -0.20831415
-0.074403793 0.032897856 -0.20830041
-0.074401602 0.032969519 -0.20828673
-0.074399449 0.033045094 -0.20826897
-0.074397765 0.033118498 -0.20824325
-0.074396372 0.033191767 -0.20821154
-0.074394397 0.0332653 -0.20819181
-0.074391931 0.033339053 -0.20818207
-0.074388959 0.033411063 -0.20818436
-0.074385405 0.033483338 -0.20819864
-0.074381649 0.033555701 -0.20821691
-0.074377581 0.033626236 -0.20824322
-0.074373424 0.033696819 -0.2082715
-0.074369282 0.033769354 -0.20829777
-0.074365608 0.033839718 -0.20831609
-0.074361756 0.033912122 -0.20833635
-0.07435789 0.033982575 -0.20835868
-0.074353844 0.034055065 -0.20838292
-0.074349679 0.034125648 -0.20841123
-0.074345633 0.034198139 -0.20843551
-0.074341692 0.034270585 -0.20845775
-0.074338429 0.034342729 -0.20846602
-0.074335143 0.03441292 -0.20847636
-0.074331 0.034485456 -0.20850262
-0.074326761 0.034558035 -0.20853087
-0.074323006 0.034630395 -0.20854914
-0.074319236 0.034700803 -0.20856945
-0.074315287 0.034773249 -0.20859173
-0.074311443 0.034845658 -0.20861198
-0.074307866 0.034915976 -0.2086283
-0.074303918 0.034988426 -0.20865057
-0.074300066 0.03506083 -0.20867082
-0.074296415 0.035133146 -0.2086871
-0.074292563 0.03520555 -0.20870736
-0.0742893 0.035277694 -0.20871565
-0.07428664 0.035351533 -0.20870991
-0.074283473 0.035423633 -0.20871618
-0.074279115 0.035494301 -0.20874849
-0.074274488 0.035567056 -0.20878473
-0.074269645 0.035637941 -0.20882702
-0.074264407 0.035709001 -0.2088773
-0.074259467 0.035779931 -0.20892157
-0.074254036 0.035851076 -0.20897582
-0.074248217 0.035922397 -0.20903808
-0.074242383 0.035991766 -0.20910238
-0.074235976 0.036063347 -0.20917661
-0.074229844 0.036132842 -0.2092469
-0.074224219 0.036204077 -0.20930517
-0.074218914 0.036277134 -0.20935538
-0.074213482 0.03634828 -0.20940965
-0.07420747 0.03641969 -0.2094759
-0.074201941 0.03649088 -0.20953216
-0.074196905 0.036561854 -0.20957844
-0.074191689 0.036634866 -0.20962667
-0.074185953 0.03670419 -0.20968896
-0.074180245 0.036777422 -0.20974718
-0.074175112 0.036848437 -0.20979545
-0.074169293 0.036919758 -0.2098577
-0.074162595 0.03699147 -0.20993793
-0.074156582 0.03706288 -0.21000418
-0.074150495 0.037136286 -0.21007037
-0.07414417 0.037205867 -0.21014467
-0.074136987 0.037277799 -0.21023488
-0.074129507 0.037349857 -0.21033108
-0.074121915 0.037420008 -0.21043134
-0.074113369 0.037492547 -0.2105495
-0.074104682 0.037561223 -0.21067376
-0.074094363 0.037632592 -0.21082993
-0.07398098 0.037649848 -0.21318138
-0.073978029 0.037723813 -0.21318161
-0.073974803 0.037799865 -0.21318582
-0.073935568 0.03785862 -0.21395572
-0.073932618 0.03793259 -0.21395597
-0.073929101 0.038008772 -0.21396616
-0.07392469 0.038083393 -0.21399635
-0.073920369 0.03815797 -0.21402457
-0.073916756 0.038234197 -0.21403675
-0.07391312 0.038308471 -0.21405098
-0.073909506 0.038384695 -0.21406317
-0.073906265 0.038458794 -0.2140694
-0.073903531 0.03853463 -0.21406361
-0.073900692 0.038610507 -0.21405981
-0.073897369 0.038686603 -0.21406601
-0.073894419 0.038760573 -0.21406625
-0.073892877 0.038837839 -0.21403445
-0.073891595 0.038913023 -0.21399871
-0.073888376 0.038989075 -0.21400291
-0.073884249 0.039063565 -0.21402711
-0.073880732 0.039139748 -0.2140373
-0.073877685 0.039213758 -0.21403953
-0.073874757 0.039289683 -0.21403775
-0.073871724 0.039365645 -0.21403794
-0.073868677 0.03943966 -0.21404019
-0.073865548 0.039515667 -0.21404238
-0.073864587 0.039592672 -0.21399859
-0.073867038 0.039668158 -0.21388492
-0.073864296 0.039743993 -0.21387912
-0.073858425 0.039819267 -0.21393928
-0.073851846 0.03989289 -0.21401547
-0.073847257 0.039969549 -0.21404761
-0.073844306 0.040043518 -0.21404788
-0.073841274 0.040119484 -0.21404806
-0.073838443 0.040195361 -0.21404427
-0.073835805 0.040271156 -0.21403649
-0.073832944 0.04034508 -0.21403474
-0.073829435 0.040421262 -0.21404493
-0.073826209 0.040497314 -0.21404912
-0.073823452 0.040571194 -0.21404538
-0.073820733 0.040648986 -0.21403754
-0.073817879 0.04072291 -0.21403578
-0.073814653 0.040798962 -0.21403998
-0.073811531 0.040874969 -0.21404217
-0.073808871 0.040948808 -0.21403643
-0.073806331 0.041024555 -0.21402663
-0.073803686 0.041100346 -0.21401885
-0.073800854 0.041176226 -0.21401507
-0.073797725 0.041252237 -0.21401724
-0.073794581 0.041326292 -0.2140215
-0.073791549 0.041402254 -0.2140217
-0.073788911 0.041478045 -0.2140139
-0.073785983 0.04155397 -0.21401212
-0.073782854 0.041629978 -0.21401431
-0.073779613 0.041704077 -0.21402055
-0.07377658 0.041780043 -0.21402074
-0.073773451 0.04185605 -0.21402293
-0.073770523 0.041931976 -0.21402115
-0.073768057 0.042005725 -0.2140114
-0.073765025 0.042081691 -0.21401161
-0.073761508 0.042157874 -0.21402179
-0.073758654 0.042231798 -0.21402004
-0.073755823 0.042307675 -0.21401626
-0.073752984 0.042383555 -0.21401244
-0.073749937 0.042457566 -0.21401469
-0.073746711 0.042533617 -0.21401888
-0.073743783 0.042609539 -0.21401709
-0.073740952 0.042685419 -0.21401331
-0.073738404 0.042761166 -0.2140035
-0.073735356 0.04283518 -0.21400575
-0.073732227 0.042911187 -0.21400796
-0.073729396 0.042987067 -0.21400416
-0.073726662 0.043062903 -0.21399838
-0.073723808 0.043136828 -0.21399662
-0.073720679 0.043212835 -0.21399881
-0.073717259 0.043288976 -0.21400701
-0.073714234 0.043364942 -0.2140072
-0.073711783 0.043440644 -0.21399543
-0.07370913 0.043514483 -0.21398968
-0.073706292 0.043590359 -0.21398589
-0.07370346 0.04366624 -0.21398208
-0.073700607 0.043740164 -0.21398033
-0.073697478 0.043816172 -0.21398252
-0.073694251 0.043892227 -0.21398672
-0.073691227 0.04396819 -0.21398693
-0.073688582 0.044043984 -0.21397913
-0.073685534 0.044117995 -0.21398138
-0.073682114 0.044194132 -0.21398957
-0.073679477 0.044269927 -0.21398178
-0.073677599 0.044343416 -0.21396005
-0.073675543 0.044418946 -0.21394029
-0.074393764 0.020336198 -0.21384858
-0.074390016 0.020408561 -0.21386684
-0.074385248 0.020477448 -0.21390918
-0.074380599 0.020548247 -0.21394747
-0.074376971 0.02062252 -0.21396169
-0.074373633 0.020696662 -0.21396992
-0.074369587 0.020769155 -0.21399418
-0.074365236 0.020839823 -0.21402648
-0.074361488 0.020912183 -0.21404475
-0.074359477 0.020991623 -0.21402088
-0.074370906 0.021110225 -0.21368438
-0.074369282 0.02118949 -0.21365254
-0.074368268 0.02127045 -0.21360666
-0.074367665 0.021353189 -0.21355075
-0.074369699 0.021444567 -0.2134327
-0.074368782 0.021525482 -0.21338482
-0.074363917 0.021594413 -0.21342915
-0.074359775 0.021666948 -0.21345541
-0.074356437 0.021741092 -0.21346363
-0.074352883 0.021813365 -0.21347791
-0.07435187 0.021894325 -0.21343203
-0.074354894 0.021987222 -0.21329196
-0.074384004 0.022156838 -0.21254462
-0.074381776 0.022234414 -0.2125268
-0.074454844 0.022618065 -0.21068539
-0.07445199 0.022691987 -0.21068364
-0.074448027 0.022762483 -0.21070793
-0.074443676 0.02283315 -0.21074024
-0.074440122 0.022905426 -0.21075451
-0.074505955 0.023337469 -0.20902385
-0.074505821 0.023418033 -0.20896
-0.074526697 0.023559907 -0.20840713
-0.074524961 0.023637259 -0.20837933
-0.074530661 0.023732893 -0.20818126
-0.074532852 0.023820277 -0.20806327
-0.07453271 0.023900842 -0.20799944
-0.074532673 0.023981366 -0.20793357
-0.074532218 0.024060108 -0.20787776
-0.074531071 0.024137203 -0.20783798
-0.074529819 0.024214339 -0.20780018
-0.074527964 0.024289783 -0.20777643
-0.074526012 0.024365271 -0.20775466
-0.074523836 0.02443889 -0.20773892
-0.074521281 0.024512684 -0.20773117
-0.074518308 0.024584696 -0.20773347
-0.074514933 0.02465493 -0.20774579
-0.07451126 0.024725292 -0.20776412
-0.074508071 0.024795439 -0.20777243
-0.074504927 0.024869494 -0.20777667
-0.074501939 0.024939556 -0.20778102
-0.074498482 0.025011783 -0.2077933
-0.074494593 0.02508028 -0.20781764
-0.074490726 0.025150729 -0.20783997
-0.074486546 0.025219359 -0.2078703
-0.074482873 0.025289724 -0.20788862
-0.074479401 0.025359999 -0.20790294
-0.074475631 0.025430407 -0.20792325
-0.074471764 0.025500856 -0.20794556
-0.074468307 0.025573088 -0.20795783
-0.074464828 0.025643364 -0.20797217
-0.074461155 0.025713727 -0.20799047
-0.074457675 0.025784004 -0.2080048
-0.074454412 0.025856148 -0.20801309
-0.074450955 0.02592838 -0.20802537
-0.074447483 0.025998656 -0.20803967
-0.0744441 0.026068889 -0.20805201
-0.074440837 0.026141033 -0.20806029
-0.074437968 0.026213003 -0.20806059
-0.074434824 0.026287058 -0.20806482
-0.074431345 0.026357334 -0.20807913
-0.074427672 0.026427697 -0.20809746
-0.074423708 0.026498193 -0.20812178
-0.074420132 0.026568513 -0.20813808
-0.074416578 0.026640788 -0.20815235
-0.074412689 0.026709283 -0.2081767
-0.074409038 0.026781604 -0.20819299
-0.074405976 0.02685366 -0.20819727
-0.074403197 0.026925586 -0.20819557
-0.074400149 0.026999597 -0.20819782
-0.074396968 0.027069744 -0.20820615
-0.074393295 0.027140107 -0.20822446
-0.074389644 0.027212424 -0.20824073
-0.074386261 0.027282657 -0.20825306
-0.074382611 0.027354976 -0.20826933
-0.074379444 0.027427077 -0.20827562
-0.074376673 0.027499001 -0.20827392
-0.074373819 0.027572926 -0.20827216
-0.074371047 0.027644854 -0.20827046
-0.074368291 0.027718734 -0.20826671
-0.07436581 0.02779053 -0.20825902
-0.074363351 0.027864281 -0.20824927
-0.074361205 0.027939852 -0.20823149
-0.074359134 0.028013431 -0.20821378
-0.074357063 0.028087007 -0.20819604
-0.0743552 0.02816245 -0.20817226
-0.074353427 0.028235896 -0.20814857
-0.07435137 0.028311428 -0.20812878
-0.074349612 0.028386826 -0.20810303
-0.074347734 0.028460314 -0.20808131
-0.074345276 0.028534066 -0.20807156
-0.074342407 0.028606035 -0.20807186
-0.074339047 0.028678223 -0.20808214
-0.07433518 0.028748674 -0.20810445
-0.074331217 0.028819166 -0.20812875
-0.074326858 0.028889835 -0.20816106
-0.074322388 0.028958594 -0.20819739
-0.074317522 0.029027525 -0.2082417
-0.074313171 0.029098194 -0.20827401
-0.074309401 0.0291686 -0.20829432
-0.074305847 0.029240875 -0.20830859
-0.074302465 0.029311107 -0.20832092
-0.074299321 0.029385164 -0.20832515
-0.074296154 0.029457264 -0.20833144
-0.074292578 0.029527582 -0.20834777
-0.074289322 0.029599728 -0.20835605
-0.074286252 0.029671784 -0.20836033
-0.074282892 0.029743973 -0.20837061
-0.074279822 0.02981603 -0.2083749
-0.074277073 0.029889911 -0.20837116
-0.074274294 0.029961836 -0.20836945
-0.074271448 0.03003576 -0.20836771
-0.074268885 0.030109555 -0.20835996
-0.074266717 0.030183174 -0.20834422
-0.074264452 0.030256838 -0.20833051
-0.074262768 0.030330239 -0.20830479
-0.074261107 0.030405596 -0.20827702
-0.074259132 0.030479129 -0.20825729
-0.074257158 0.030552661 -0.20823757
-0.074255601 0.030627973 -0.20820782
-0.074253842 0.030703373 -0.20818205
-0.074253254 0.030778252 -0.20813233
-0.074251905 0.030855432 -0.20809653
-0.074250221 0.030928833 -0.20807081
-0.07424745 0.031000759 -0.20806912
-0.074243791 0.031073079 -0.20808539
-0.074240319 0.031143354 -0.20809969
-0.074236959 0.031215541 -0.20810997
-0.074233212 0.031287905 -0.20812824
-0.07422924 0.031358398 -0.20815256
-0.074225374 0.031428847 -0.20817485
-0.074221626 0.031501211 -0.20819312
-0.074217469 0.031571791 -0.20822144
-0.074213311 0.03164237 -0.20824973
-0.074209265 0.031714864 -0.20827399
-0.074205786 0.031785142 -0.20828831
-0.074202329 0.031857371 -0.20830059
-0.074198872 0.031929605 -0.20831287
-0.074195512 0.032001793 -0.20832315
-0.074192643 0.032073762 -0.20832345
-0.074189872 0.032145686 -0.20832175
-0.074186921 0.032219656 -0.20832199
-0.074184246 0.032291539 -0.20831829
-0.074181296 0.032365508 -0.20831853
-0.07417842 0.032437477 -0.20831883
-0.074175768 0.032511313 -0.20831308
-0.074173085 0.032583196 -0.20830938
-0.074170433 0.032657035 -0.20830363
-0.074168071 0.03273074 -0.2082919
-0.074166 0.032804318 -0.20827419
-0.074163929 0.032877892 -0.20825645
-0.074161857 0.032951467 -0.20823872
-0.074159786 0.033025045 -0.20822099
-0.074158005 0.033098489 -0.20819727
-0.074156828 0.033173628 -0.20815954
-0.074155562 0.033248812 -0.20812377
-0.074152976 0.03332065 -0.20811808
-0.074149817 0.03339275 -0.20812437
-0.074146166 0.033465069 -0.20814064
-0.0741423 0.033535518 -0.20816295
-0.074138544 0.033607882 -0.20818122
-0.074134991 0.033680156 -0.20819549
-0.07413093 0.033750694 -0.20822179
-0.07412599 0.033821624 -0.20826608
-0.074121639 0.033892293 -0.20829837
-0.074117668 0.033962786 -0.20832267
-0.074113727 0.034035236 -0.20834494
-0.074109882 0.03410764 -0.2083652
-0.074106403 0.034177918 -0.20837952
-0.074102968 0.034252103 -0.20838976
-0.074099392 0.034322422 -0.20840608
-0.074095249 0.034394957 -0.20843232
-0.074091308 0.034467407 -0.20845461
-0.074087635 0.03453777 -0.20847291
-0.074083984 0.034610089 -0.20848918
-0.074079938 0.034682579 -0.20851344
-0.074075684 0.034753203 -0.20854373
-0.074071646 0.034825698 -0.20856801
-0.074068084 0.034897972 -0.20858228
-0.074064732 0.034970161 -0.20859255
-0.074061468 0.035042305 -0.20860083
-0.074057616 0.035114709 -0.2086211
-0.074053578 0.0351872 -0.20864537
-0.074050121 0.035259433 -0.20865764
-0.074046955 0.035331532 -0.20866394
-0.074043691 0.035403676 -0.20867221
-0.07404004 0.035475995 -0.20868847
-0.074035496 0.03554675 -0.20872477
-0.074030258 0.03561781 -0.20877504
-0.074025027 0.03568887 -0.20882532
-0.074019603 0.035760019 -0.20887956
-0.074014366 0.035831079 -0.20892984
-0.074008748 0.035902314 -0.2089881
-0.074002542 0.03597381 -0.20905834
