# .PCD v0.7 - Point Cloud Data file format
VERSION 0.7
FIELDS x y z
SIZE 4 4 4
TYPE F F F
COUNT 1 1 1
WIDTH 1269
HEIGHT 1
VIEWPOINT 0 0 0 1 0 0 0
POINTS 1269
DATA ascii
-0.035140477 -0.025840396 -0.25602412
-0.035134751 -0.02576717 -0.25608236
-0.035135332 -0.025690854 -0.2560066
-0.035139915 -0.025616314 -0.255849
-0.035137918 -0.025542781 -0.25582927
-0.035136823 -0.025467683 -0.25578952
-0.035141815 -0.025391361 -0.25562188
-0.035139624 -0.025317742 -0.25560617
-0.035135873 -0.025243428 -0.25562239
-0.035137214 -0.025169412 -0.25553274
-0.035139747 -0.025093962 -0.25541705
-0.035138629 -0.025020819 -0.25537935
-0.035137042 -0.024945503 -0.25534961
-0.035134461 -0.024871711 -0.25534186
-0.035129521 -0.024798831 -0.25538412
-0.03512577 -0.024724517 -0.25540033
-0.035124063 -0.024651114 -0.25537461
-0.035120413 -0.024576843 -0.25538886
-0.035113811 -0.024503227 -0.25546506
-0.035107698 -0.02442983 -0.25553125
-0.03510455 -0.024353821 -0.25553346
-0.035101481 -0.02427981 -0.25553572
-0.035092421 -0.024207067 -0.25566387
-0.035082407 -0.024131935 -0.25580996
-0.035076097 -0.02405845 -0.25588018
-0.035070688 -0.023983398 -0.25593036
-0.035065357 -0.023910347 -0.25598058
-0.035049174 -0.023834441 -0.25625455
-0.035051294 -0.023760771 -0.2561489
-0.035050374 -0.023687715 -0.25610721
-0.035048202 -0.02361214 -0.25608945
-0.035045426 -0.02353826 -0.25608569
-0.03504353 -0.023464769 -0.256064
-0.035043702 -0.023390234 -0.25599828
-0.035044067 -0.023315785 -0.25592858
-0.035041191 -0.023241863 -0.25592685
-0.035036564 -0.023167159 -0.25596106
-0.035031639 -0.023092326 -0.25600123
-0.035028182 -0.02301814 -0.25601149
-0.035026673 -0.022944825 -0.25598177
-0.035028894 -0.0228712 -0.25587413
-0.035028655 -0.022798445 -0.25581849
-0.03500535 -0.022719376 -0.25623822
-0.034981754 -0.022640176 -0.25666395
-0.034981806 -0.022567552 -0.25660229
-0.034978054 -0.022493239 -0.25661853
-0.034977347 -0.022418313 -0.25657082
-0.03497703 -0.022343561 -0.25651509
-0.034934171 -0.022259736 -0.25733835
-0.03497177 -0.022195932 -0.25650162
-0.034973014 -0.022121873 -0.25641397
-0.03496946 -0.022047646 -0.25642619
-0.03495878 -0.021970257 -0.25658423
-0.034279592 -0.02168043 -0.27049664
-0.034258142 -0.021592367 -0.27087021
-0.034279469 -0.021519372 -0.27036494
-0.034948867 -0.021673299 -0.25654325
-0.034948841 -0.021598678 -0.25648153
-0.034220703 -0.021255698 -0.27136981
-0.034273833 -0.021196827 -0.27021348
-0.0342687 -0.021114046 -0.27025148
-0.034260929 -0.021030094 -0.27034342
-0.034929324 -0.02122481 -0.25657663
-0.034927037 -0.021151146 -0.25656289
-0.034923285 -0.021076832 -0.2565791
-0.034912333 -0.020997358 -0.25674111
-0.034913559 -0.020925254 -0.25665545
-0.034191068 -0.020518027 -0.27137238
-0.034909878 -0.020776361 -0.25660801
-0.034908663 -0.020703174 -0.25657231
-0.034907255 -0.020629901 -0.2565406
-0.034902915 -0.020555329 -0.25656882
-0.034902599 -0.020480577 -0.25651312
-0.034905873 -0.020409381 -0.25638554
-0.03489783 -0.020333162 -0.25648963
-0.034893803 -0.020256763 -0.25650981
-0.034157068 -0.019776452 -0.2714628
-0.034154173 -0.019694665 -0.27145487
-0.034147106 -0.019609062 -0.27153078
-0.034139335 -0.019525111 -0.27162272
-0.034137812 -0.019443933 -0.27158684
-0.034142043 -0.019365311 -0.27143312
-0.03413837 -0.019283177 -0.27144116
-0.034134407 -0.019200915 -0.2714552
-0.034092274 -0.019093852 -0.27224395
-0.034124754 -0.018955126 -0.27145141
-0.034015287 -0.018800488 -0.2736038
-0.034742408 -0.017896226 -0.25769699
-0.034744024 -0.017824296 -0.25760338
-0.034739412 -0.017747637 -0.25763553
-0.034723427 -0.017662 -0.25789726
-0.034720965 -0.017586295 -0.25788552
-0.034719065 -0.017512806 -0.25786376
-0.034718066 -0.01743775 -0.25782204
-0.035088833 -0.047345713 -0.27498657
-0.035085496 -0.047259804 -0.27498454
-0.035082232 -0.047175892 -0.27498257
-0.035079069 -0.047092021 -0.27497858
-0.035076413 -0.047006413 -0.27496257
-0.035073347 -0.046922583 -0.27495658
-0.035069987 -0.046838626 -0.27495661
-0.035066627 -0.046754673 -0.27495664
-0.035063345 -0.046672717 -0.2749567
-0.035059694 -0.046588626 -0.27496272
-0.035056219 -0.046506584 -0.27496678
-0.035052761 -0.046422578 -0.27496877
-0.035049696 -0.046338756 -0.27496281
-0.035046943 -0.046253104 -0.27494881
-0.035043679 -0.046169192 -0.27494681
-0.035040416 -0.046085276 -0.27494484
-0.035037469 -0.045999538 -0.27493483
-0.035034109 -0.045915581 -0.27493483
-0.03503073 -0.04583358 -0.27493691
-0.035027176 -0.045749538 -0.27494091
-0.035023212 -0.045667276 -0.27495494
-0.035019562 -0.045583189 -0.27496096
-0.035016689 -0.045499448 -0.27495098
-0.03501413 -0.045413882 -0.27493298
-0.035011277 -0.045328189 -0.27492097
-0.03500792 -0.045244232 -0.274921
-0.035004247 -0.045162104 -0.27492905
-0.035000674 -0.04508001 -0.27493513
-0.034997217 -0.044996012 -0.27493712
-0.034994267 -0.044910274 -0.27492711
-0.034991905 -0.044824794 -0.27490512
-0.034988545 -0.044740837 -0.27490515
-0.034984678 -0.044658624 -0.27491719
-0.034981418 -0.044574708 -0.27491519
-0.034978155 -0.044490796 -0.27491322
-0.034974795 -0.044406839 -0.27491322
-0.034971729 -0.044323012 -0.27490726
-0.034968272 -0.044239011 -0.27490926
-0.034964602 -0.044156879 -0.27491733
-0.034961145 -0.044072881 -0.27491933
-0.034957767 -0.043990877 -0.27492139
-0.034954328 -0.043904923 -0.27492136
-0.034950756 -0.043822832 -0.27492744
-0.034947395 -0.043738879 -0.27492744
-0.034944523 -0.043655135 -0.27491748
-0.03494148 -0.043569356 -0.27490947
-0.034938119 -0.043485396 -0.27490947
-0.034934837 -0.043403439 -0.27490956
-0.034931771 -0.043319613 -0.27490357
-0.03492843 -0.0432337 -0.27490154
-0.034925267 -0.043149833 -0.27489758
-0.034921907 -0.043065876 -0.27489758
-0.03491855 -0.042981919 -0.27489761
-0.034915581 -0.042898133 -0.27488962
-0.034912221 -0.04281418 -0.27488965
-0.034908548 -0.042732045 -0.27489769
-0.034904994 -0.042648003 -0.27490172
-0.034901634 -0.042564046 -0.27490172
-0.034888979 -0.042228565 -0.27488583
-0.034886129 -0.042142872 -0.27487379
-0.03488265 -0.04206083 -0.27487788
-0.03487939 -0.041976914 -0.27487588
-0.034875933 -0.041892916 -0.27487791
-0.034872673 -0.041809 -0.27487594
-0.034870014 -0.041723393 -0.27485991
-0.034866754 -0.041639477 -0.27485794
-0.03486269 -0.041557178 -0.27487397
-0.034859117 -0.041475087 -0.27488002
-0.03485607 -0.041389301 -0.274872
-0.034853004 -0.041305475 -0.27486604
-0.034849841 -0.041221607 -0.27486205
-0.034846287 -0.041137561 -0.27486607
-0.034842614 -0.041055433 -0.27487412
-0.034839567 -0.040969651 -0.2748661
-0.034836698 -0.04088591 -0.27485615
-0.034833144 -0.040801868 -0.27486014
-0.034829665 -0.040719822 -0.2748642
-0.034826521 -0.040633999 -0.27485818
-0.034823846 -0.040550344 -0.27484423
-0.034820702 -0.04046452 -0.27483821
-0.034817029 -0.040382385 -0.27484626
-0.034813475 -0.040298343 -0.27485028
-0.034809999 -0.040216297 -0.27485433
-0.034806445 -0.040132254 -0.27485836
-0.034803282 -0.040048383 -0.27485436
-0.034800019 -0.039964475 -0.2748524
-0.034796562 -0.039880473 -0.27485442
-0.034793183 -0.039798472 -0.27485648
-0.034789942 -0.039712604 -0.27485242
-0.03478707 -0.039628863 -0.27484247
-0.034783714 -0.03954491 -0.2748425
-0.035254702 -0.028432753 -0.25576556
-0.035231527 -0.027234573 -0.25524974
-0.035231896 -0.027160123 -0.25518003
-0.035230115 -0.027084723 -0.25515428
-0.035205282 -0.027020684 -0.25561833
-0.03520241 -0.026946761 -0.25561661
-0.035198659 -0.026872445 -0.25563282
-0.035190478 -0.026800092 -0.25574303
-0.035185438 -0.02672717 -0.25578725
-0.035179205 -0.026655683 -0.2558575
-0.035173699 -0.026580589 -0.25590968
-0.035171509 -0.026506968 -0.25589398
-0.035170607 -0.026431955 -0.25585023
-0.035169218 -0.026356729 -0.25581649
-0.035166148 -0.026282718 -0.25581872
-0.03516189 -0.026210142 -0.25584698
-0.035158627 -0.026136046 -0.25585324
-0.03515587 -0.026060211 -0.25584745
-0.035151511 -0.025987592 -0.2558777
-0.035146862 -0.025914844 -0.25591397
-0.035138898 -0.025840621 -0.2560181
-0.035132784 -0.025767222 -0.25608432
-0.035133559 -0.025690993 -0.2560046
-0.035138533 -0.025616625 -0.25583899
-0.035136048 -0.025542876 -0.25582927
-0.035134561 -0.025467604 -0.25579751
-0.035139944 -0.025391456 -0.25562188
-0.035138145 -0.025318008 -0.25559816
-0.0351342 -0.025243608 -0.25561839
-0.035135638 -0.025169637 -0.25552672
-0.035138074 -0.025094144 -0.25541303
-0.035136957 -0.025021 -0.25537533
-0.035135373 -0.024945684 -0.25534558
-0.035132695 -0.024871847 -0.25533986
-0.035127848 -0.024799012 -0.25538009
-0.035123903 -0.024724612 -0.25540033
-0.035122007 -0.024651121 -0.2553786
-0.035118353 -0.02457685 -0.25539285
-0.035111848 -0.024503279 -0.25546703
-0.035105832 -0.024429923 -0.25553125
-0.035102297 -0.024353743 -0.25554144
-0.035099324 -0.024279775 -0.25554168
-0.035090752 -0.024207247 -0.25565988
-0.035080835 -0.024132159 -0.25580397
-0.035074137 -0.0240585 -0.25588214
-0.035068627 -0.023983408 -0.25593433
-0.035063684 -0.023910528 -0.25597656
-0.035047796 -0.023834752 -0.25624454
-0.035049528 -0.023760909 -0.25614688
-0.03504812 -0.023687636 -0.2561152
-0.03504575 -0.023611974 -0.25610143
-0.035043076 -0.023538137 -0.25609568
-0.03504147 -0.023464777 -0.25606796
-0.035041932 -0.023390371 -0.25599629
-0.035042495 -0.023316011 -0.25592259
-0.035039525 -0.023242043 -0.25592285
-0.035034601 -0.02316721 -0.25596303
-0.03502968 -0.023092376 -0.25600323
-0.035026319 -0.023018235 -0.25601146
-0.035025008 -0.022945005 -0.25597778
-0.035027325 -0.022871424 -0.25586814
-0.035027184 -0.022798713 -0.25581047
-0.035004463 -0.022719903 -0.25621822
-0.034980278 -0.022640444 -0.25665596
-0.034979552 -0.022567473 -0.25661027
-0.034971021 -0.022491038 -0.25672436
-0.034975484 -0.02241841 -0.25657079
-0.034975167 -0.022343656 -0.25651509
-0.03496876 -0.022270128 -0.25658727
-0.034969907 -0.022196027 -0.25650162
-0.034971446 -0.022122098 -0.25640795
-0.034967791 -0.022047827 -0.25642216
-0.034957014 -0.021970395 -0.2565822
-0.034946412 -0.021895003 -0.25674027
-0.034256134 -0.021592434 -0.27087221
-0.034277365 -0.021519395 -0.27036893
-0.034947395 -0.021673569 -0.25653523
-0.034947373 -0.021598946 -0.25647354
-0.034218792 -0.02125581 -0.27136979
-0.034271926 -0.021196937 -0.27021345
-0.034266792 -0.021114156 -0.27025145
-0.034258924 -0.021030162 -0.27034539
-0.034926195 -0.021224342 -0.25660259
-0.034924883 -0.021151111 -0.25656885
-0.034909718 -0.021071728 -0.25681877
-0.034910765 -0.020997584 -0.25673509
-0.034910623 -0.020924872 -0.25667742
-0.034188963 -0.020518051 -0.27137637
-0.034907531 -0.02077624 -0.25661796
-0.034906901 -0.020703314 -0.25657028
-0.034905687 -0.020630125 -0.25653461
-0.034904864 -0.020557113 -0.25649092
-0.034900058 -0.020480368 -0.25652707
-0.034905091 -0.020409953 -0.25636357
-0.034896165 -0.020333344 -0.25648564
-0.034891069 -0.020256469 -0.25652778
-0.03415506 -0.019776519 -0.27146477
-0.034152169 -0.019694733 -0.27145684
-0.034178704 -0.01962994 -0.27084988
-0.034126814 -0.019518545 -0.27183834
-0.034124803 -0.019437149 -0.27181244
-0.034140039 -0.019365378 -0.27143508
-0.034136467 -0.019283287 -0.27144116
-0.034132306 -0.01920094 -0.27145919
-0.034129318 -0.01911911 -0.27145326
-0.034126133 -0.019037195 -0.27145132
-0.034122072 -0.01895489 -0.27146739
-0.034033727 -0.018813565 -0.27319047
-0.034041647 -0.018738544 -0.2729629
-0.034036122 -0.018655589 -0.27300888
-0.034045897 -0.01858139 -0.27274337
-0.034041952 -0.018497173 -0.27275538
-0.033997905 -0.018385334 -0.27357998
-0.033994723 -0.018303419 -0.27357805
-0.034013063 -0.018234987 -0.27313882
-0.033978101 -0.017885678 -0.2735762
-0.034740165 -0.017896149 -0.25770497
-0.034740724 -0.017821785 -0.2576313
-0.034736484 -0.017747257 -0.2576575
-0.034725182 -0.017663699 -0.25782338
-0.034719206 -0.017586436 -0.25788349
-0.034715768 -0.017510297 -0.25789168
-0.034716506 -0.017437976 -0.25781605
-0.035088018 -0.04734347 -0.27498662
-0.035084754 -0.047259558 -0.27498466
-0.035081495 -0.047175646 -0.27498266
-0.035078429 -0.047091819 -0.2749767
-0.035075773 -0.047006212 -0.2749607
-0.03507261 -0.046922341 -0.2749567
-0.035069346 -0.046838425 -0.27495474
-0.035065986 -0.046754472 -0.27495474
-0.03506263 -0.046670511 -0.27495477
-0.035059154 -0.046588466 -0.27495882
-0.0350555 -0.046504382 -0.27496484
-0.035052121 -0.046422377 -0.2749669
-0.03504888 -0.046336509 -0.27496287
-0.035046302 -0.046252899 -0.27494693
-0.035042964 -0.04616699 -0.2749449
-0.035039779 -0.046085075 -0.27494293
-0.035036832 -0.045999337 -0.27493292
-0.035033472 -0.04591538 -0.27493295
-0.035030112 -0.045831423 -0.27493298
-0.035026539 -0.045749336 -0.27493903
-0.035022475 -0.04566703 -0.27495506
-0.035018925 -0.045582987 -0.27495909
-0.035016052 -0.045499243 -0.27494913
-0.035013493 -0.04541368 -0.2749311
-0.035010643 -0.045327984 -0.27491909
-0.03500738 -0.045244075 -0.27491713
-0.035003513 -0.045161854 -0.27492917
-0.035000037 -0.045079809 -0.27493322
-0.034996483 -0.044995762 -0.27493724
-0.034993634 -0.044910073 -0.27492523
-0.034991268 -0.044824593 -0.27490324
-0.034987815 -0.044740595 -0.27490523
-0.034983948 -0.044658378 -0.27491727
-0.034980781 -0.044574507 -0.27491331
-0.034977619 -0.044490635 -0.27490932
-0.034974162 -0.044406634 -0.27491134
-0.034971096 -0.044322807 -0.27490538
-0.034967542 -0.044238765 -0.27490938
-0.034963969 -0.044156678 -0.27491543
-0.034960512 -0.044072676 -0.27491745
-0.034957152 -0.04398872 -0.27491748
-0.034953695 -0.043904718 -0.27491948
-0.034950122 -0.043822631 -0.27492553
-0.034946762 -0.043738674 -0.27492556
-0.034943894 -0.043654934 -0.27491561
-0.034940749 -0.04356911 -0.27490956
-0.034937389 -0.043485153 -0.27490959
-0.034934204 -0.043403238 -0.27490765
-0.034931064 -0.043317415 -0.27490163
-0.034927703 -0.043233458 -0.27490166
-0.034924537 -0.043149587 -0.27489769
-0.034921277 -0.043065675 -0.2748957
-0.034917917 -0.042981714 -0.27489573
-0.034914948 -0.042897932 -0.27488774
-0.034911688 -0.042814016 -0.27488577
-0.034907918 -0.042731844 -0.27489582
-0.034904268 -0.042647757 -0.27490181
-0.034901008 -0.042563844 -0.27489984
-0.034888253 -0.042228322 -0.27488592
-0.034885403 -0.04214263 -0.27487391
-0.034882024 -0.042060625 -0.27487597
-0.034878686 -0.041974716 -0.27487394
-0.034875207 -0.04189267 -0.27487803
-0.034872044 -0.041808799 -0.27487403
-0.034869388 -0.041723192 -0.27485803
-0.034866225 -0.041639321 -0.27485406
-0.034862064 -0.041556969 -0.27487209
-0.034858491 -0.041474883 -0.27487814
-0.034855444 -0.0413891 -0.27487013
-0.034852281 -0.041305229 -0.27486616
-0.034849118 -0.041221365 -0.27486217
-0.034845661 -0.04113736 -0.2748642
-0.034841988 -0.041055232 -0.27487224
-0.034838945 -0.040969446 -0.27486423
-0.034836072 -0.040885709 -0.27485424
-0.034832519 -0.040801667 -0.27485827
-0.034828965 -0.040717624 -0.27486229
-0.034825899 -0.040633798 -0.2748563
-0.034823142 -0.040548146 -0.27484229
-0.034820177 -0.040464364 -0.27483433
-0.034816504 -0.040382229 -0.27484238
-0.03481295 -0.040298186 -0.27484637
-0.034809377 -0.040216096 -0.27485245
-0.034805823 -0.040132053 -0.27485645
-0.034802657 -0.040048182 -0.27485248
-0.034799397 -0.03996427 -0.27485052
-0.03479594 -0.039880268 -0.27485251
-0.034792464 -0.039798226 -0.27485657
-0.034789223 -0.039712355 -0.27485254
-0.034786448 -0.039628662 -0.27484059
-0.034783088 -0.039544702 -0.27484059
-0.03523127 -0.027309123 -0.25530356
-0.035230953 -0.02723437 -0.25524783
-0.035231024 -0.027159791 -0.25518414
-0.035229638 -0.027084563 -0.25515041
-0.035204709 -0.02702048 -0.25561646
-0.035201736 -0.026946515 -0.25561672
-0.03519699 -0.026873723 -0.25565496
-0.035189707 -0.026799804 -0.25574514
-0.035184469 -0.026726795 -0.25579336
-0.035178144 -0.026655264 -0.2558656
-0.035172928 -0.0265803 -0.2559118
-0.035170931 -0.026506767 -0.25589207
-0.03517003 -0.026431754 -0.25584835
-0.035168543 -0.026356483 -0.25581661
-0.035165478 -0.026282473 -0.25581884
-0.035161216 -0.026209898 -0.2558471
-0.035157856 -0.026135758 -0.25585535
-0.035155199 -0.026059965 -0.25584757
-0.035150938 -0.02598739 -0.25587583
-0.035146385 -0.025914684 -0.25591007
-0.035138324 -0.02584042 -0.25601622
-0.035132207 -0.025767021 -0.25608245
-0.035132889 -0.025690747 -0.25600469
-0.035138056 -0.025616467 -0.25583512
-0.035135671 -0.02554276 -0.25582337
-0.035134088 -0.025467444 -0.25579363
-0.035139371 -0.025391253 -0.25562
-0.035137571 -0.025317807 -0.25559628
-0.035133529 -0.025243364 -0.25561848
-0.035134967 -0.025169391 -0.25552684
-0.035137501 -0.025093941 -0.25541115
-0.035136309 -0.0250188 -0.25537342
-0.035134897 -0.024945525 -0.25534171
-0.035132222 -0.024871688 -0.25533599
-0.035127375 -0.024798853 -0.25537622
-0.035123333 -0.024724409 -0.25539845
-0.035121337 -0.024650875 -0.25537872
-0.035117682 -0.024576606 -0.25539297
-0.035111181 -0.024503034 -0.25546715
-0.035105068 -0.024429634 -0.25553337
-0.035101529 -0.024353454 -0.25554353
-0.035098638 -0.024281485 -0.25554386
-0.035089891 -0.024206916 -0.25566399
-0.035079971 -0.024131827 -0.25580809
-0.035073467 -0.024058254 -0.25588226
-0.035068057 -0.023983205 -0.25593245
-0.035063017 -0.023910284 -0.25597668
-0.035047129 -0.023834506 -0.25624466
-0.035048764 -0.023760621 -0.25614899
-0.035047352 -0.023687348 -0.25611728
-0.035045184 -0.023611773 -0.25609952
-0.035042603 -0.023537979 -0.2560918
-0.035040997 -0.023464618 -0.25606409
-0.035041463 -0.023390213 -0.25599238
-0.035042025 -0.023315851 -0.25591871
-0.035039052 -0.023241885 -0.25591895
-0.035034034 -0.023167009 -0.25596115
-0.035029113 -0.023092175 -0.25600135
-0.03502585 -0.023018077 -0.25600758
-0.035024539 -0.022944847 -0.25597388
-0.034968637 -0.022861123 -0.2570689
-0.035026617 -0.02279851 -0.25580859
-0.035003897 -0.022719702 -0.25621635
-0.034979321 -0.022640068 -0.25666207
-0.034978889 -0.022567229 -0.25661039
-0.034970354 -0.022490792 -0.25672448
-0.034974918 -0.022418207 -0.25656891
-0.034974504 -0.022343412 -0.2565152
-0.034968294 -0.02226997 -0.25658339
-0.034969635 -0.022195954 -0.25649375
-0.034971271 -0.022122068 -0.25639808
-0.034967519 -0.022047754 -0.25641429
-0.034956548 -0.021970235 -0.25657833
-0.034945946 -0.021894844 -0.2567364
-0.034255464 -0.021592187 -0.27087229
-0.034276985 -0.021519279 -0.27036306
-0.034947027 -0.021673452 -0.25652936
-0.034947101 -0.021598876 -0.25646564
-0.034226801 -0.021259418 -0.27119216
-0.034271255 -0.021196691 -0.27021357
-0.034266219 -0.021113953 -0.27024961
-0.034258448 -0.021030001 -0.27034152
-0.034925241 -0.021223966 -0.25660866
-0.034910563 -0.0211448 -0.25684857
-0.034908861 -0.021071397 -0.25682288
-0.034909911 -0.02099725 -0.2567392
-0.034909964 -0.020924628 -0.25667754
-0.034188293 -0.020517804 -0.27137649
-0.034906872 -0.020775994 -0.25661808
-0.034906343 -0.020703111 -0.2565684
-0.034904737 -0.020629751 -0.25654072
-0.034900304 -0.020555133 -0.25657091
-0.034900181 -0.020480469 -0.25651121
-0.034904625 -0.020409795 -0.2563597
-0.034901168 -0.020335611 -0.25636992
-0.034890313 -0.02025618 -0.2565299
-0.03415449 -0.019776314 -0.27146289
-0.034151424 -0.019692488 -0.2714569
-0.034178134 -0.019629737 -0.27084801
-0.034126148 -0.019518297 -0.27183846
-0.034124132 -0.019436903 -0.27181256
-0.034139469 -0.019365173 -0.2714332
-0.034135796 -0.019283041 -0.27144125
-0.034131639 -0.019200694 -0.27145931
-0.03412855 -0.019118821 -0.27145538
-0.034125563 -0.019036992 -0.27144945
-0.034121696 -0.018954773 -0.27146149
-0.03404098 -0.018738296 -0.27296299
-0.034035359 -0.018655298 -0.273011
-0.034045231 -0.018581143 -0.27274349
-0.034041576 -0.018497057 -0.27274948
-0.034030315 -0.018409591 -0.27291131
-0.034017023 -0.01831926 -0.27311298
-0.034012884 -0.018234957 -0.27312896
-0.03398513 -0.018053776 -0.27355629
-0.033977337 -0.017885387 -0.27357829
-0.033972807 -0.017800909 -0.27360231
-0.034739509 -0.017895903 -0.25770509
-0.034740072 -0.017821541 -0.25763139
-0.034736514 -0.017747313 -0.25764364
-0.034735791 -0.017674344 -0.25759795
-0.03471953 -0.017586622 -0.25786364
-0.034716658 -0.017512698 -0.25786188
-0.03471595 -0.017437775 -0.25781417
-0.035088915 -0.047343299 -0.27498657
-0.035085656 -0.047259383 -0.27498457
-0.035082392 -0.047175471 -0.2749826
-0.03507923 -0.0470916 -0.27497864
-0.035076573 -0.047005996 -0.2749626
-0.035073508 -0.046922166 -0.27495664
-0.035070147 -0.046838209 -0.27495664
-0.035066787 -0.046754252 -0.27495667
-0.035063505 -0.046672296 -0.27495673
-0.035059951 -0.04658825 -0.27496076
-0.035056379 -0.046506163 -0.27496681
-0.035053022 -0.046422206 -0.27496684
-0.035049777 -0.046336338 -0.27496278
-0.035047103 -0.046252683 -0.27494884
-0.035043843 -0.046168771 -0.27494687
-0.03504058 -0.046084858 -0.27494487
-0.03503773 -0.045999162 -0.27493286
-0.035034273 -0.045915164 -0.27493489
-0.035030991 -0.045833204 -0.27493495
-0.03502734 -0.04574912 -0.27494097
-0.035023376 -0.045666855 -0.274955
-0.035019722 -0.045582771 -0.27496099
-0.035016853 -0.045499027 -0.27495104
-0.035014294 -0.045413464 -0.27493304
-0.035011441 -0.045327768 -0.274921
-0.035008181 -0.045243856 -0.27491903
-0.035004411 -0.045161679 -0.27492911
-0.035000935 -0.045079634 -0.27493316
-0.034997381 -0.044995591 -0.27493715
-0.034994531 -0.044909898 -0.27492514
-0.034992069 -0.044824377 -0.27490515
-0.034988709 -0.04474042 -0.27490517
-0.034984842 -0.044658203 -0.27491722
-0.034981679 -0.044574331 -0.27491325
-0.03497842 -0.044490419 -0.27491125
-0.034975059 -0.044406459 -0.27491128
-0.034971993 -0.044322632 -0.27490529
-0.034968439 -0.04423859 -0.27490932
-0.034964766 -0.044156462 -0.27491736
-0.034961309 -0.04407246 -0.27491939
-0.034957953 -0.043988504 -0.27491939
-0.034954593 -0.043904543 -0.27491939
-0.03495102 -0.04382246 -0.27492547
-0.034947563 -0.043738458 -0.2749275
-0.034944691 -0.043654718 -0.27491751
-0.034941643 -0.043568939 -0.2749095
-0.034938287 -0.043484978 -0.2749095
-0.034935102 -0.043403067 -0.27490759
-0.034931939 -0.043319196 -0.2749036
-0.034928598 -0.043233283 -0.27490157
-0.034925435 -0.043149412 -0.27489761
-0.034922175 -0.0430655 -0.27489561
-0.034918815 -0.042981543 -0.27489564
-0.034915846 -0.042897761 -0.27488768
-0.034912486 -0.0428138 -0.27488768
-0.034908719 -0.042731628 -0.27489775
-0.034905165 -0.042647585 -0.27490175
-0.034901805 -0.042563625 -0.27490175
-0.03488915 -0.042228147 -0.27488586
-0.034886297 -0.042142455 -0.27487385
-0.034882821 -0.042060405 -0.27487791
-0.034879562 -0.041976497 -0.27487594
-0.034876104 -0.041892491 -0.27487794
-0.034872942 -0.041808624 -0.27487397
-0.034870185 -0.041722972 -0.27485996
-0.034867022 -0.041639104 -0.27485597
-0.034862865 -0.041556753 -0.274874
-0.034859288 -0.041474666 -0.27488005
-0.034856342 -0.041388929 -0.27487004
-0.034853175 -0.041305058 -0.27486607
-0.034850013 -0.041221187 -0.27486211
-0.034846555 -0.041137189 -0.27486411
-0.034842886 -0.041055053 -0.27487215
-0.034839742 -0.04096923 -0.27486613
-0.034836967 -0.040885534 -0.27485418
-0.034833316 -0.040801447 -0.27486017
-0.03482984 -0.040719405 -0.27486426
-0.034826696 -0.040633578 -0.27485824
-0.034824021 -0.040549926 -0.27484426
-0.034820974 -0.040464144 -0.27483624
-0.034817301 -0.040382013 -0.27484429
-0.034813747 -0.04029797 -0.27484828
-0.034810174 -0.04021588 -0.27485436
-0.03480662 -0.040131837 -0.27485839
-0.034803554 -0.040048011 -0.2748524
-0.034800291 -0.039964095 -0.27485043
-0.034796834 -0.039880097 -0.27485245
-0.034793358 -0.039798051 -0.27485651
-0.034790117 -0.039712183 -0.27485245
-0.034787245 -0.039628446 -0.2748425
-0.034783885 -0.039544486 -0.2748425
-0.035256639 -0.028431183 -0.25572759
-0.035231691 -0.027234178 -0.25524974
-0.035231959 -0.027159687 -0.25518206
-0.035230279 -0.027084328 -0.25515431
-0.035205543 -0.027020331 -0.25561637
-0.035202671 -0.026946409 -0.25561464
-0.035198022 -0.026873659 -0.25565088
-0.035190642 -0.026799697 -0.25574303
-0.03518521 -0.026726604 -0.25579524
-0.035178687 -0.026654985 -0.2558715
-0.035173573 -0.026580065 -0.2559157
-0.03517177 -0.026506618 -0.25589198
-0.035170771 -0.026431562 -0.25585026
-0.035169382 -0.026356334 -0.25581652
-0.035166413 -0.026282366 -0.25581676
-0.035162248 -0.026209835 -0.25584301
-0.035158888 -0.026135694 -0.25585127
-0.035156231 -0.026059903 -0.25584346
-0.035151776 -0.025987241 -0.25587574
-0.035146933 -0.025914405 -0.25591597
-0.035139158 -0.025840269 -0.25601614
-0.035133146 -0.025766915 -0.25608033
-0.035133727 -0.025690598 -0.2560046
-0.035138894 -0.025616318 -0.255835
-0.035136409 -0.025542568 -0.25582528
-0.035134729 -0.02546721 -0.25579751
-0.035140015 -0.025391018 -0.25562388
-0.035138212 -0.025317572 -0.25560015
-0.035134267 -0.025243171 -0.25562039
-0.035135806 -0.025169242 -0.25552672
-0.035138339 -0.025093792 -0.25541106
-0.035137028 -0.025020562 -0.25537735
-0.035135441 -0.024945248 -0.25534761
-0.035132762 -0.024871411 -0.25534186
-0.035128016 -0.024798617 -0.25538009
-0.035124071 -0.024724217 -0.25540033
-0.035122272 -0.024650771 -0.25537664
-0.035118617 -0.0245765 -0.25539085
-0.035112016 -0.024502885 -0.25546706
-0.035105903 -0.024429487 -0.25553325
-0.035102561 -0.024353391 -0.25553945
-0.035099689 -0.024279468 -0.25553772
-0.03509102 -0.024206897 -0.25565788
-0.035081003 -0.024131766 -0.25580397
-0.035074499 -0.024058193 -0.25587815
-0.035068896 -0.023983056 -0.25593233
-0.035063758 -0.02391009 -0.25597858
-0.03504777 -0.023834269 -0.25624853
-0.035049602 -0.023760471 -0.25614887
-0.035048287 -0.023687242 -0.2561152
-0.035046022 -0.023611624 -0.2560994
-0.035043344 -0.023537787 -0.25609368
-0.035041641 -0.023464382 -0.25606796
-0.035042103 -0.023389976 -0.25599629
-0.035042569 -0.023315571 -0.25592458
-0.035039794 -0.023241691 -0.25592086
-0.035034873 -0.023166858 -0.25596103
-0.035029948 -0.023092024 -0.25600123
-0.035026588 -0.023017885 -0.25600949
-0.035025179 -0.022944611 -0.25597778
-0.035027303 -0.022870943 -0.25587213
-0.035027355 -0.022798318 -0.2558105
-0.035004538 -0.022719465 -0.25622025
-0.034980353 -0.022640005 -0.25665796
-0.034980115 -0.022567252 -0.25660229
-0.034969438 -0.022489863 -0.25676033
-0.034975756 -0.022418056 -0.25656882
-0.034975246 -0.022343218 -0.25651708
-0.034969132 -0.022269819 -0.2565833
-0.03497057 -0.022195848 -0.25649163
-0.034971915 -0.022121832 -0.25640196
-0.034968063 -0.022047475 -0.2564202
-0.034957092 -0.021969955 -0.25658423
-0.034946494 -0.021894563 -0.2567423
-0.034256339 -0.021592017 -0.27087221
-0.034277763 -0.021519067 -0.27036494
-0.034213636 -0.021415979 -0.27161536
-0.034221694 -0.021337092 -0.27138174
-0.034218997 -0.021255393 -0.27136981
-0.034272131 -0.021196522 -0.27021348
-0.03426709 -0.021113783 -0.27024949
-0.03425942 -0.021029875 -0.27033943
-0.03492647 -0.021223988 -0.25660059
-0.034925159 -0.021150758 -0.25656688
-0.034909796 -0.021071289 -0.25682077
-0.034910552 -0.020997014 -0.25674307
-0.034910705 -0.020924432 -0.25667945
-0.034189269 -0.020517677 -0.27137437
-0.03490771 -0.020775843 -0.25661796
-0.034907177 -0.020702962 -0.25656831
-0.034905769 -0.020629687 -0.2565366
-0.034904849 -0.020556631 -0.25649491
-0.034901019 -0.020480318 -0.25651109
-0.034904975 -0.020409428 -0.25636956
-0.03489615 -0.020332862 -0.25648963
-0.034890566 -0.020255771 -0.25654176
-0.034155365 -0.019776145 -0.2714628
-0.034152377 -0.019694317 -0.27145684
-0.034132257 -0.019600952 -0.27179834
-0.034127221 -0.019518215 -0.27183434
-0.034125205 -0.019436818 -0.27180845
-0.034140248 -0.01936496 -0.27143508
-0.03406547 -0.01923947 -0.27288881
-0.034132514 -0.019200522 -0.27145919
-0.03412943 -0.019118652 -0.27145526
-0.034126438 -0.019036822 -0.27144933
-0.034122571 -0.018954603 -0.27146137
-0.034033939 -0.018813146 -0.27319047
-0.034042154 -0.018738255 -0.27295691
-0.034036629 -0.018655298 -0.27300292
-0.03404611 -0.018580971 -0.27274337
-0.034042262 -0.018496796 -0.27275339
-0.033998314 -0.018385001 -0.27357599
-0.033995423 -0.018303216 -0.27356806
-0.033978317 -0.017885257 -0.2735762
-0.034740154 -0.017895665 -0.25770897
-0.034740422 -0.017821172 -0.25764126
-0.034737259 -0.017747119 -0.25764552
-0.034736335 -0.017674062 -0.25760382
-0.034720466 -0.017586514 -0.25786152
-0.034717593 -0.01751259 -0.25785977
-0.035088792 -0.047342986 -0.27498734
-0.035085529 -0.047259074 -0.27498534
-0.035082247 -0.047177114 -0.2749854
-0.035079103 -0.04709129 -0.27497938
-0.03507635 -0.047005638 -0.27496538
-0.035073381 -0.046921857 -0.27495742
-0.035070024 -0.0468379 -0.27495742
-0.035066664 -0.046753943 -0.27495745
-0.035063386 -0.046671987 -0.27495751
-0.035059828 -0.046587937 -0.27496153
-0.035056256 -0.046505854 -0.27496755
-0.035052896 -0.046421893 -0.27496758
-0.035049733 -0.046338025 -0.27496362
-0.03504698 -0.046252374 -0.27494961
-0.03504372 -0.046168461 -0.27494761
-0.035040457 -0.046084549 -0.27494565
-0.035037607 -0.045998853 -0.27493364
-0.03503415 -0.045914851 -0.27493563
-0.035030771 -0.04583285 -0.27493769
-0.035027217 -0.045748807 -0.27494171
-0.035023253 -0.045666546 -0.27495575
-0.035019603 -0.045582458 -0.27496177
-0.03501673 -0.045498718 -0.27495179
-0.035014171 -0.045413151 -0.27493379
-0.035011321 -0.045327459 -0.27492177
-0.035007961 -0.045243502 -0.2749218
-0.035004292 -0.04516137 -0.27492985
-0.035000719 -0.045079283 -0.2749359
-0.034997262 -0.044995282 -0.27493793
-0.034994312 -0.044909544 -0.27492791
-0.03499195 -0.044824064 -0.27490592
-0.03498859 -0.044740111 -0.27490592
-0.034984723 -0.044657893 -0.27491796
-0.034981463 -0.044573978 -0.27491599
-0.034978203 -0.044490065 -0.27491403
-0.034974843 -0.044406109 -0.27491403
-0.034971777 -0.044322282 -0.27490807
-0.03496832 -0.044238281 -0.27491006
-0.034964651 -0.044156149 -0.27491814
-0.034961194 -0.044072151 -0.27492014
-0.034957834 -0.043988191 -0.27492017
-0.034954473 -0.043904234 -0.27492017
-0.034950901 -0.043822147 -0.27492625
-0.034947447 -0.043738149 -0.27492824
-0.034944575 -0.043654405 -0.27491826
-0.034941528 -0.043568626 -0.27491027
-0.034938172 -0.043484669 -0.27491027
-0.03493489 -0.043402709 -0.27491033
-0.034931824 -0.043318883 -0.27490437
-0.034928482 -0.043232974 -0.27490234
-0.034925319 -0.043149102 -0.27489835
-0.034921959 -0.043065146 -0.27489838
-0.034918699 -0.04298123 -0.27489638
-0.034915633 -0.042897403 -0.27489042
-0.034912374 -0.042813491 -0.27488846
-0.034908604 -0.042731319 -0.2748985
-0.03490505 -0.042647272 -0.27490249
-0.03490169 -0.042563319 -0.27490252
-0.034889035 -0.042227838 -0.27488661
-0.034886088 -0.042142101 -0.27487659
-0.034882709 -0.042060096 -0.27487865
-0.034879349 -0.041976139 -0.27487868
-0.034875892 -0.041892141 -0.27488071
-0.034872729 -0.04180827 -0.27487671
-0.034870073 -0.041722663 -0.27486071
-0.034866814 -0.041638751 -0.27485871
-0.034862749 -0.041556444 -0.27487478
-0.034859177 -0.041474357 -0.27488083
-0.034856133 -0.041388575 -0.27487281
-0.034853064 -0.041304749 -0.27486682
-0.034849901 -0.041220881 -0.27486286
-0.034846347 -0.041136835 -0.27486688
-0.034842677 -0.041054703 -0.27487493
-0.03483963 -0.040968917 -0.27486688
-0.034836859 -0.040885225 -0.27485493
-0.034833305 -0.040801182 -0.27485895
-0.034829751 -0.04071714 -0.27486295
-0.034826584 -0.040633269 -0.27485898
-0.034823909 -0.040549614 -0.274845
-0.034820862 -0.040463835 -0.27483702
-0.034817193 -0.0403817 -0.27484506
-0.034813542 -0.040297613 -0.27485105
-0.034810066 -0.04021557 -0.27485511
-0.034806509 -0.040131528 -0.27485913
-0.034803346 -0.040047653 -0.27485514
-0.034800086 -0.039963745 -0.27485317
-0.034796629 -0.039879743 -0.2748552
-0.034793153 -0.039797701 -0.27485925
-0.034790009 -0.03971187 -0.27485323
-0.034787137 -0.039628133 -0.27484328
-0.034783781 -0.039544176 -0.27484328
-0.035256431 -0.028430868 -0.2557303
-0.035231002 -0.027310224 -0.25532621
-0.035231873 -0.027234038 -0.25524449
-0.035232045 -0.027159503 -0.25517878
-0.035230462 -0.027084189 -0.25514904
-0.035205536 -0.027020104 -0.25561509
-0.035202954 -0.02694631 -0.25560737
-0.035199299 -0.026872039 -0.25562158
-0.035190824 -0.026799556 -0.25573778
-0.03518559 -0.026726548 -0.255786
-0.035179168 -0.026654974 -0.25586024
-0.035173856 -0.026579965 -0.25590843
-0.035172053 -0.026506519 -0.25588471
-0.035170957 -0.026431421 -0.25584498
-0.035169274 -0.026356062 -0.25581723
-0.035166208 -0.026282052 -0.25581947
-0.035162162 -0.026207607 -0.2558417
-0.035158977 -0.02613551 -0.25584799
-0.035156123 -0.026059631 -0.25584421
-0.035151571 -0.025986925 -0.25587845
-0.035146631 -0.025914047 -0.25592068
-0.03513886 -0.02583991 -0.25602084
-0.035132945 -0.025766598 -0.25608307
-0.035133526 -0.025690282 -0.25600731
-0.035138302 -0.02561583 -0.25584573
-0.035136014 -0.025542166 -0.25583199
-0.035134625 -0.025466938 -0.25579825
-0.035140008 -0.025390789 -0.2556226
-0.035138108 -0.0253173 -0.2556009
-0.03513426 -0.025242943 -0.25561911
-0.035135701 -0.02516897 -0.25552747
-0.035138138 -0.025093477 -0.25541377
-0.035136923 -0.02502029 -0.25537807
-0.035135336 -0.024944976 -0.25534832
-0.035132658 -0.024871139 -0.2553426
-0.035127912 -0.024798347 -0.25538084
-0.03512416 -0.024724033 -0.25539708
-0.035122383 -0.024648631 -0.2553713
-0.035118729 -0.024574362 -0.25538555
-0.035112109 -0.0245027 -0.25546378
-0.035105899 -0.024429258 -0.25553197
-0.035102654 -0.024353206 -0.25553617
-0.035099685 -0.024279239 -0.25553644
-0.035090819 -0.024206582 -0.25566059
-0.035080709 -0.024131406 -0.25580868
-0.035074107 -0.024057791 -0.25588489
-0.035068892 -0.023982827 -0.25593108
-0.035063557 -0.023909774 -0.2559813
-0.035047572 -0.023833953 -0.25625128
-0.035049304 -0.023760112 -0.25615361
-0.035048384 -0.023687055 -0.25611192
-0.035046116 -0.023611438 -0.25609615
-0.035043828 -0.023537774 -0.25608242
-0.035041735 -0.023464195 -0.25606471
-0.035042007 -0.023389705 -0.255997
-0.035042372 -0.023315256 -0.25592732
-0.035039693 -0.023241419 -0.25592157
-0.035034966 -0.023166671 -0.25595778
-0.035030141 -0.023091882 -0.25599599
-0.035026394 -0.023017569 -0.2560122
-0.035024885 -0.022944251 -0.25598249
-0.03420664 -0.022720257 -0.27284777
-0.035027158 -0.022798004 -0.25581318
-0.035004243 -0.022719106 -0.25622496
-0.03498026 -0.022639731 -0.25665867
-0.034980118 -0.022567021 -0.25660104
-0.034970805 -0.022490237 -0.25673109
-0.034976438 -0.022418128 -0.25655353
-0.034975246 -0.022342987 -0.2565158
-0.034932777 -0.022259332 -0.25733107
-0.034970377 -0.022195529 -0.25649434
-0.034971524 -0.022121429 -0.25640866
-0.03496787 -0.022047158 -0.25642291
-0.034957487 -0.021969898 -0.25657493
-0.034277812 -0.021679822 -0.27049735
-0.034256361 -0.021591758 -0.27087092
-0.034277786 -0.021518808 -0.27036369
-0.034947965 -0.021673115 -0.25652599
-0.034211554 -0.021334279 -0.27159017
-0.034219023 -0.021255132 -0.2713685
-0.034272254 -0.021196308 -0.27021021
-0.034267217 -0.021113569 -0.27024621
-0.034259349 -0.021029573 -0.27034014
-0.03492745 -0.021224191 -0.25657934
-0.034925845 -0.021150831 -0.25655162
-0.034910485 -0.021071361 -0.25680551
-0.034910459 -0.02099674 -0.25674379
-0.03491139 -0.020924505 -0.25666416
-0.034189101 -0.020517331 -0.27137709
-0.03490781 -0.020775657 -0.25661471
-0.034907088 -0.020702686 -0.25656903
-0.034905676 -0.020629413 -0.25653732
-0.034900773 -0.020552624 -0.25657547
-0.034899853 -0.020479567 -0.2565338
-0.034904592 -0.020409023 -0.25637627
-0.034896448 -0.020332761 -0.25648236
-0.034891546 -0.020255972 -0.25652051
-0.034155495 -0.019775927 -0.27145952
-0.034152508 -0.019694099 -0.27145356
-0.034133069 -0.019601038 -0.27178109
-0.034137767 -0.019524587 -0.27161941
-0.034129433 -0.019438419 -0.2717213
-0.034140181 -0.019364655 -0.2714358
-0.034136511 -0.019282524 -0.27144387
-0.034132451 -0.019200219 -0.27145991
-0.034129556 -0.019118432 -0.27145198
-0.034122117 -0.018954126 -0.27147007
-0.034014307 -0.01880022 -0.27358851
-0.034046631 -0.018580925 -0.27273211
-0.03474085 -0.017895734 -0.25769371
-0.03474139 -0.017823327 -0.25762206
-0.034736879 -0.017746713 -0.25765222
-0.034736544 -0.017673915 -0.25759855
-0.034719214 -0.017585717 -0.2578862
-0.034715969 -0.017509665 -0.2578904
-0.035087295 -0.047342665 -0.27498832
-0.035084035 -0.04725875 -0.27498636
-0.035080776 -0.047174841 -0.27498436
-0.035077609 -0.047090966 -0.2749804
-0.035075054 -0.047005408 -0.27496237
-0.035071891 -0.046921536 -0.2749584
-0.035068531 -0.046837576 -0.27495843
-0.035065271 -0.046753667 -0.27495643
-0.035061911 -0.046669707 -0.27495646
-0.035058338 -0.046587616 -0.27496251
-0.035054784 -0.046503574 -0.27496654
-0.035051409 -0.046421573 -0.27496859
-0.035048246 -0.046337701 -0.2749646
-0.03504559 -0.046252094 -0.2749486
-0.035042252 -0.046166182 -0.27494657
-0.03503897 -0.046084225 -0.27494663
-0.035036121 -0.045998529 -0.27493465
-0.03503276 -0.045914575 -0.27493465
-0.035029385 -0.045832571 -0.27493671
-0.035025731 -0.045748487 -0.27494273
-0.035021771 -0.045666222 -0.27495676
-0.03501812 -0.045582138 -0.27496278
-0.035015248 -0.045498393 -0.2749528
-0.035012692 -0.045412831 -0.2749348
-0.035009839 -0.045327138 -0.27492279
-0.035006579 -0.045243226 -0.27492079
-0.035002813 -0.04516105 -0.27493083
-0.034999333 -0.045079 -0.27493492
-0.034995783 -0.044994961 -0.27493894
-0.034992933 -0.044909265 -0.2749269
-0.034990471 -0.044823743 -0.2749069
-0.034987114 -0.044739787 -0.27490693
-0.034983248 -0.044657569 -0.27491897
-0.034980085 -0.044573698 -0.27491498
-0.034976825 -0.044489786 -0.27491301
-0.034973465 -0.044405825 -0.27491301
-0.034970399 -0.044322003 -0.27490705
-0.034966845 -0.044237956 -0.27491108
-0.034963273 -0.044155873 -0.27491713
-0.034959815 -0.044071868 -0.27491915
-0.034956459 -0.043987915 -0.27491915
-0.034953006 -0.043903913 -0.27492118
-0.034949429 -0.043821827 -0.27492723
-0.034946073 -0.043737866 -0.27492726
-0.034943104 -0.043654084 -0.27491927
-0.034940057 -0.043568306 -0.27491125
-0.0349367 -0.043484345 -0.27491125
-0.034933519 -0.043402433 -0.27490932
-0.034930356 -0.043318562 -0.27490535
-0.034927014 -0.04323265 -0.27490333
-0.034923851 -0.043148778 -0.27489936
-0.034920592 -0.04306487 -0.2748974
-0.034917235 -0.042980909 -0.2748974
-0.034914266 -0.042897128 -0.27488941
-0.034911007 -0.042813212 -0.27488744
-0.03490714 -0.042730995 -0.27489948
-0.034903586 -0.042646952 -0.27490351
-0.034900229 -0.042562995 -0.27490351
-0.034887575 -0.042227514 -0.27488762
-0.034884725 -0.042141821 -0.27487558
-0.034881249 -0.042059772 -0.27487966
-0.034877989 -0.041975863 -0.27487767
-0.034874532 -0.041891862 -0.27487969
-0.03487137 -0.041807994 -0.2748757
-0.034868713 -0.041722383 -0.2748597
-0.034865454 -0.041638471 -0.27485773
-0.034861296 -0.04155612 -0.27487576
-0.034857821 -0.041474074 -0.27487981
-0.034854773 -0.041388296 -0.2748718
-0.034851611 -0.041304424 -0.27486783
-0.034848448 -0.041220553 -0.27486384
-0.034844894 -0.041136511 -0.27486786
-0.034841225 -0.041054379 -0.27487591
-0.034838274 -0.040968642 -0.2748659
-0.034835406 -0.040884901 -0.27485591
-0.034831852 -0.040800858 -0.27485994
-0.034828298 -0.040716812 -0.27486396
-0.034825135 -0.040632945 -0.27485996
-0.034822479 -0.040547337 -0.27484396
-0.034819417 -0.040463511 -0.274838
-0.034815744 -0.040381379 -0.27484605
-0.03481219 -0.040297337 -0.27485004
-0.034808617 -0.040215246 -0.27485609
-0.034805063 -0.040131204 -0.27486011
-0.0348019 -0.040047333 -0.27485615
-0.034798738 -0.039963461 -0.27485216
-0.034795281 -0.039879464 -0.27485418
-0.03479173 -0.039795421 -0.27485818
-0.034788564 -0.03971155 -0.27485421
-0.034785792 -0.039627854 -0.27484226
-0.034782339 -0.039543852 -0.27484426
-0.035254169 -0.028432148 -0.25575128
-0.035229545 -0.027309896 -0.25532919
-0.035230324 -0.027233668 -0.25524944
-0.035230398 -0.027159089 -0.25518572
-0.035228815 -0.027083773 -0.25515598
-0.035204083 -0.027019776 -0.25561807
-0.035201501 -0.026945982 -0.25561032
-0.035197947 -0.026871756 -0.25562257
-0.035189569 -0.026799314 -0.25573674
-0.035184141 -0.026726218 -0.25578895
-0.035177033 -0.02665434 -0.2558772
-0.035172503 -0.02657968 -0.25590938
-0.035170801 -0.026506275 -0.25588369
-0.035169706 -0.026431179 -0.25584394
-0.035168022 -0.02635582 -0.25581619
-0.035164956 -0.026281809 -0.25581843
-0.035160813 -0.026207322 -0.25584266
-0.035157531 -0.02613518 -0.25585094
-0.035154779 -0.026059344 -0.25584516
-0.035150226 -0.02598664 -0.2558794
-0.035145283 -0.02591376 -0.25592166
-0.035137415 -0.025839582 -0.25602382
-0.035131693 -0.025766356 -0.25608203
-0.035132177 -0.025689997 -0.25600827
-0.035137054 -0.025615588 -0.25584468
-0.035135157 -0.025542097 -0.25582296
-0.035133671 -0.025466826 -0.25579122
-0.035138663 -0.025390504 -0.25562358
-0.035136767 -0.025317013 -0.25560185
-0.035132919 -0.025242656 -0.25562006
-0.035134457 -0.025168728 -0.25552642
-0.035136797 -0.025093192 -0.25541472
-0.035135582 -0.025020005 -0.25537905
-0.035133999 -0.024944691 -0.25534928
-0.035131417 -0.024870897 -0.25534156
-0.035126671 -0.024798105 -0.2553798
-0.03512292 -0.024723791 -0.25539604
-0.035121042 -0.024648346 -0.25537226
-0.035117295 -0.024574034 -0.2553885
-0.035110772 -0.024502415 -0.25546473
-0.03510458 -0.024427017 -0.25553089
-0.035101417 -0.024352964 -0.25553513
-0.035098545 -0.024279039 -0.2555334
-0.035089388 -0.024206253 -0.25566357
-0.035079081 -0.024130991 -0.25581563
-0.035072479 -0.024057373 -0.25589183
-0.035067461 -0.023982497 -0.25593403
-0.035062131 -0.023909444 -0.25598425
-0.035046142 -0.023833623 -0.25625423
-0.035047777 -0.023759738 -0.25615856
-0.035046954 -0.023686724 -0.25611487
-0.035044786 -0.023611151 -0.25609711
-0.035042498 -0.023537487 -0.25608337
-0.035040308 -0.023463866 -0.25606766
-0.035040677 -0.023389418 -0.25599796
-0.035041042 -0.02331497 -0.25592828
-0.035038464 -0.023241175 -0.25592053
-0.035033833 -0.023166472 -0.25595474
-0.035028912 -0.023091638 -0.25599492
-0.035025261 -0.023017367 -0.25600916
-0.035023753 -0.022944052 -0.25597945
-0.035025779 -0.022870339 -0.25587583
-0.035025541 -0.022797586 -0.25582016
-0.035003215 -0.022718947 -0.25621992
-0.034978837 -0.022639399 -0.25666165
-0.034978501 -0.022566603 -0.25660795
-0.034968115 -0.022489343 -0.25676
-0.034974433 -0.022417538 -0.25656849
-0.034973923 -0.022342699 -0.25651675
-0.034931455 -0.022259044 -0.25733203
-0.034969155 -0.022195285 -0.2564933
-0.034970302 -0.022121184 -0.25640765
-0.034966744 -0.022046957 -0.25641987
-0.034956165 -0.021969609 -0.25657588
-0.034947146 -0.021892956 -0.25669998
-0.034255143 -0.021591481 -0.27086988
-0.034270711 -0.021515932 -0.27048245
-0.03421215 -0.02141531 -0.27161902
-0.034220207 -0.021336423 -0.27138537
-0.034217607 -0.021254767 -0.27137148
-0.034229059 -0.021179352 -0.27106997
-0.034265801 -0.021113208 -0.27024916
-0.034257837 -0.021029169 -0.27034509
-0.034926135 -0.021223903 -0.25658029
-0.034924433 -0.0211505 -0.25655457
-0.034908779 -0.021070898 -0.25681445
-0.034909148 -0.020996451 -0.25674474
-0.034909006 -0.020923739 -0.2566871
-0.034187596 -0.020516923 -0.27138203
-0.034184314 -0.020434964 -0.27138209
-0.03490568 -0.020702355 -0.25657198
-0.034904074 -0.020628994 -0.25654426
-0.034899738 -0.020554421 -0.25657248
-0.034898836 -0.020479409 -0.25652874
-0.034145024 -0.020011077 -0.27184767
-0.034150504 -0.019934973 -0.27167001
-0.034162641 -0.019859862 -0.27135456
-0.034086067 -0.019737495 -0.27284828
-0.03408359 -0.019653929 -0.27283031
-0.034080211 -0.019571926 -0.27283239
-0.034053259 -0.019475527 -0.27331367
-0.034061201 -0.019398553 -0.27308404
-0.034138586 -0.019364204 -0.27144277
-0.034739852 -0.017895572 -0.25768864
-0.034740686 -0.017823296 -0.25761104
-0.034736272 -0.017746724 -0.2576392
-0.034735352 -0.017673668 -0.25759751
-0.034717925 -0.017585425 -0.25788715
-0.034714974 -0.017509501 -0.25788537
-0.035088629 -0.047345456 -0.27498531
-0.035085291 -0.047259547 -0.27498329
-0.035082009 -0.047177583 -0.27498335
-0.035078868 -0.04709176 -0.27497733
-0.035076212 -0.047006153 -0.27496132
-0.035073146 -0.046922326 -0.27495533
-0.035069786 -0.046838369 -0.27495536
-0.03506643 -0.046754412 -0.27495539
-0.035063148 -0.046672456 -0.27495545
-0.035059497 -0.046588369 -0.27496147
-0.035056025 -0.046506323 -0.27496549
-0.035052568 -0.046422321 -0.27496752
-0.035049502 -0.046338499 -0.27496153
-0.035046749 -0.046252843 -0.27494755
-0.035043392 -0.046168886 -0.27494755
-0.03504023 -0.046085019 -0.27494359
-0.035037279 -0.045999281 -0.27493358
-0.035033923 -0.045915321 -0.27493358
-0.035030544 -0.045833319 -0.27493563
-0.03502699 -0.045749277 -0.27493966
-0.03502303 -0.045667015 -0.27495369
-0.035019379 -0.045582928 -0.27495971
-0.035016507 -0.045499191 -0.27494973
-0.035013951 -0.045413621 -0.27493173
-0.035011102 -0.045327928 -0.27491972
-0.035007741 -0.045243971 -0.27491975
-0.035004072 -0.045161843 -0.27492779
-0.035000499 -0.045079753 -0.27493384
-0.034997042 -0.044995751 -0.27493587
-0.034994096 -0.044910014 -0.27492586
-0.034991734 -0.044824533 -0.27490386
-0.034988277 -0.044740535 -0.27490586
-0.03498451 -0.044658363 -0.27491593
-0.034981247 -0.044574447 -0.27491394
-0.034977987 -0.044490535 -0.27491197
-0.034974631 -0.044406578 -0.27491197
-0.034971565 -0.044322751 -0.27490601
-0.034968108 -0.04423875 -0.27490801
-0.034964439 -0.044156618 -0.27491605
-0.034960981 -0.044072621 -0.27491808
-0.034957625 -0.04398866 -0.27491811
-0.034954168 -0.043904662 -0.27492011
-0.034950696 -0.043822616 -0.27492416
-0.034947239 -0.043738618 -0.27492619
-0.03494437 -0.043654874 -0.27491623
-0.034941323 -0.043569095 -0.27490819
-0.034937866 -0.043485094 -0.27491021
-0.034934685 -0.043403178 -0.27490827
-0.034931619 -0.043319352 -0.27490231
-0.034928281 -0.043233439 -0.27490029
-0.034925118 -0.043149572 -0.27489632
-0.034921762 -0.043065615 -0.27489632
-0.034918401 -0.042981658 -0.27489632
-0.034915432 -0.042897873 -0.27488837
-0.034912076 -0.042813919 -0.2748884
-0.034908406 -0.042731784 -0.27489644
-0.034904853 -0.042647742 -0.27490044
-0.034901496 -0.042563785 -0.27490047
-0.034888841 -0.042228304 -0.27488458
-0.034885895 -0.04214257 -0.27487454
-0.034882516 -0.042060565 -0.27487659
-0.034879256 -0.041976653 -0.27487463
-0.034875803 -0.041892651 -0.27487665
-0.03487264 -0.041808784 -0.27487266
-0.034869887 -0.041723132 -0.27485865
-0.034866624 -0.041639216 -0.27485669
-0.034862563 -0.041556913 -0.27487272
-0.03485899 -0.041474827 -0.27487877
-0.034856044 -0.041389085 -0.27486876
-0.034852881 -0.041305214 -0.27486479
-0.034849718 -0.041221343 -0.2748608
-0.034846164 -0.041137304 -0.27486479
-0.034842495 -0.041055169 -0.27487287
-0.034839448 -0.040969387 -0.27486485
-0.034836676 -0.040885691 -0.27485287
-0.034833025 -0.040801607 -0.27485889
-0.034829549 -0.040719561 -0.27486295
-0.034826405 -0.040633738 -0.27485693
-0.034823731 -0.040550083 -0.27484298
-0.034820687 -0.040464301 -0.27483493
-0.034817018 -0.040382169 -0.27484301
-0.034813367 -0.040298082 -0.274849
-0.034809891 -0.040216036 -0.27485308
-0.034806337 -0.040131994 -0.27485707
-0.034803174 -0.040048122 -0.27485311
-0.034800012 -0.039964251 -0.27484912
-0.034796458 -0.039880209 -0.27485314
-0.034793079 -0.039798208 -0.2748552
-0.034789842 -0.03971234 -0.27485117
-0.034786969 -0.039628603 -0.27484122
-0.034783613 -0.039544646 -0.27484122
-0.03525662 -0.028431434 -0.25572228
-0.035232097 -0.027309224 -0.25529817
-0.035231486 -0.027234342 -0.25524846
-0.035231855 -0.027159892 -0.25517875
-0.035230368 -0.027084623 -0.25514701
-0.035205442 -0.027020538 -0.25561306
-0.035202667 -0.026946656 -0.25560933
-0.035198722 -0.026872257 -0.25562954
-0.035190642 -0.026799947 -0.25573775
-0.035185404 -0.026726939 -0.25578597
-0.035178687 -0.026655234 -0.2558662
-0.035173379 -0.026580226 -0.25591439
-0.035171773 -0.026506867 -0.25588667
-0.035170775 -0.02643181 -0.25584495
-0.035169289 -0.026356539 -0.25581321
-0.035166219 -0.026282528 -0.25581545
-0.035162177 -0.026208086 -0.25583768
-0.035158895 -0.026135944 -0.25584596
-0.035156041 -0.026060065 -0.25584218
-0.035151396 -0.025987316 -0.25587842
-0.03514665 -0.025914524 -0.25591666
-0.035138782 -0.025840346 -0.25601882
-0.035132963 -0.025767077 -0.25607905
-0.035133447 -0.025690716 -0.25600529
-0.035138223 -0.025616262 -0.2558437
-0.035136033 -0.025542643 -0.25582796
-0.035134546 -0.02546737 -0.25579622
-0.035139833 -0.02539118 -0.25562257
-0.03513784 -0.025317647 -0.25560287
-0.035134088 -0.025243333 -0.25561911
-0.035135627 -0.025169404 -0.25552544
-0.035138063 -0.025093909 -0.25541174
-0.035136849 -0.025020724 -0.25537607
-0.035135265 -0.024945408 -0.2553463
-0.035132587 -0.024871571 -0.25534058
-0.035127647 -0.024798693 -0.25538281
-0.035123896 -0.024724379 -0.25539905
