# .PCD v0.7 - Point Cloud Data file format
VERSION 0.7
FIELDS x y z
SIZE 4 4 4
TYPE F F F
COUNT 1 1 1
WIDTH 1299
HEIGHT 1
VIEWPOINT 0 0 0 1 0 0 0
POINTS 1299
DATA ascii
-0.13590264 0.0076589864 -0.26900283
-0.13589954 0.007738905 -0.26900095
-0.13589644 0.0078188237 -0.26899904
-0.13589351 0.0078967009 -0.2689952
-0.13589078 0.0079744887 -0.26898736
-0.13588749 0.008054493 -0.26898947
-0.13588399 0.0081345849 -0.26899558
-0.13588116 0.0082124174 -0.26898974
-0.13587853 0.0082901642 -0.26897991
-0.13587523 0.0083701666 -0.26898202
-0.13587241 0.0084479991 -0.26897618
-0.13586977 0.0085257459 -0.26896638
-0.1358663 0.0086077936 -0.26897043
-0.13586271 0.0086879246 -0.26897854
-0.1358595 0.0087678861 -0.26897863
-0.13585658 0.0088457633 -0.26897478
-0.13585345 0.0089237262 -0.26897496
-0.13584998 0.0090057719 -0.26897901
-0.1358465 0.009085862 -0.26898509
-0.13584453 0.0091613512 -0.26896334
-0.13584304 0.0092366207 -0.26893157
-0.13583982 0.0093146283 -0.26893374
-0.13583529 0.0093991067 -0.26895773
-0.13583131 0.0094794128 -0.26897383
-0.13582794 0.0095614158 -0.26897585
-0.13582568 0.0096370354 -0.26896012
-0.13582323 0.0097146947 -0.26894629
-0.1358204 0.0097925272 -0.26894045
-0.13581701 0.0098725725 -0.26894456
-0.13581352 0.0099526644 -0.26895064
-0.13581003 0.010032758 -0.26895675
-0.13580702 0.01011263 -0.26895285
-0.135804 0.010190548 -0.26895103
-0.13580079 0.010270512 -0.26895112
-0.13579769 0.01035043 -0.26894924
-0.13579467 0.010428349 -0.26894742
-0.13579138 0.010508351 -0.26894951
-0.13578761 0.010590529 -0.26895955
-0.13578488 0.010668317 -0.26895171
-0.13578244 0.010745976 -0.26893789
-0.13577922 0.010823984 -0.26894006
-0.13577612 0.0109039 -0.26893818
-0.13577367 0.01098156 -0.26892436
-0.13577056 0.011059523 -0.2689245
-0.13576709 0.011141568 -0.26892856
-0.13576396 0.011219533 -0.26892871
-0.13576086 0.01129945 -0.26892683
-0.13575757 0.011379454 -0.26892895
-0.13575436 0.011459414 -0.26892906
-0.13575163 0.011537205 -0.26892123
-0.13574891 0.011614993 -0.26891339
-0.1357456 0.011694998 -0.26891547
-0.13574201 0.011775132 -0.26892358
-0.13573909 0.011853008 -0.26891977
-0.13573599 0.011932926 -0.26891786
-0.1357324 0.012013061 -0.26892596
-0.135729 0.012093108 -0.26893008
-0.13572629 0.012172854 -0.26892018
-0.13572393 0.012248514 -0.26890641
-0.13572139 0.012326216 -0.26889458
-0.1357182 0.012406178 -0.2688947
-0.13571461 0.012486313 -0.26890281
-0.13571075 0.012568532 -0.26891485
-0.13570781 0.012646409 -0.268911
-0.13570566 0.012723936 -0.26889119
-0.13570321 0.012799641 -0.26887941
-0.13569991 0.012879645 -0.26888153
-0.13569662 0.01295965 -0.26888365
-0.13569379 0.013037482 -0.2688778
-0.13569041 0.013119485 -0.26887986
-0.13568662 0.013199706 -0.26889196
-0.13568324 0.013279755 -0.26889604
-0.1356806 0.013357501 -0.26888624
-0.13567843 0.013433075 -0.26886845
-0.13567533 0.013512991 -0.26886657
-0.13567081 0.01359747 -0.26889056
-0.13740303 -0.030526277 -0.26954806
-0.13739911 -0.030449921 -0.26956624
-0.13739568 -0.030371828 -0.26957238
-0.13739239 -0.030291822 -0.26957449
-0.13738987 -0.030212164 -0.26956061
-0.13738754 -0.030132595 -0.26954275
-0.13738436 -0.030052634 -0.26954287
-0.13738084 -0.029974498 -0.26955101
-0.13737743 -0.029896403 -0.26955718
-0.1373737 -0.029820135 -0.26957133
-0.13737039 -0.029740132 -0.26957345
-0.13736747 -0.029662255 -0.26956961
-0.13736457 -0.029582424 -0.26956373
-0.13736205 -0.029502766 -0.26954985
-0.13735953 -0.029423108 -0.26953599
-0.13735624 -0.029343106 -0.2695381
-0.13735282 -0.029265013 -0.26954424
-0.13734969 -0.02918705 -0.26954439
-0.13734651 -0.029107086 -0.26954451
-0.13734357 -0.029029211 -0.26954067
-0.13734066 -0.02894938 -0.2695348
-0.13733745 -0.028871376 -0.26953694
-0.13733405 -0.028791327 -0.26954105
-0.13733083 -0.028713319 -0.2695432
-0.13732761 -0.028635314 -0.26954538
-0.13732439 -0.028557308 -0.26954752
-0.13732119 -0.028477347 -0.26954761
-0.13731797 -0.028399341 -0.26954979
-0.13731487 -0.028319422 -0.26954788
-0.13731223 -0.028241675 -0.26953804
-0.13730933 -0.028161846 -0.26953217
-0.13730612 -0.028081886 -0.26953229
-0.13730313 -0.028002011 -0.26952839
-0.1373003 -0.027924176 -0.26952258
-0.13729729 -0.027844304 -0.26951867
-0.13729359 -0.027766081 -0.26953083
-0.13729027 -0.02768803 -0.26953498
-0.13728724 -0.02761011 -0.26953313
-0.13728383 -0.027532019 -0.2695393
-0.13728054 -0.027452014 -0.26954138
-0.13727772 -0.027372226 -0.26953351
-0.13727489 -0.027294394 -0.26952767
-0.13727179 -0.027214477 -0.2695258
-0.13726887 -0.0271366 -0.26952195
-0.13726586 -0.027056728 -0.26951808
-0.13726264 -0.02697872 -0.26952022
-0.13725951 -0.026900757 -0.26952037
-0.13725632 -0.026820794 -0.26952049
-0.13725349 -0.026742963 -0.26951465
-0.13725039 -0.026663044 -0.26951277
-0.13724747 -0.026583213 -0.26950687
-0.13724446 -0.026505295 -0.26950502
-0.13724145 -0.026425421 -0.26950115
-0.13723852 -0.026347544 -0.26949733
-0.13723521 -0.026269494 -0.26950148
-0.13723189 -0.026191443 -0.26950562
-0.13722889 -0.026111569 -0.26950175
-0.13722587 -0.026033651 -0.2694999
-0.13722266 -0.02595369 -0.26950002
-0.13721944 -0.025875684 -0.26950216
-0.13721612 -0.025797633 -0.26950631
-0.1372129 -0.025719628 -0.26950848
-0.1372101 -0.025639839 -0.26950058
-0.1372072 -0.02556001 -0.26949471
-0.13720377 -0.025481917 -0.26950085
-0.13720055 -0.025403909 -0.269503
-0.13719794 -0.025324211 -0.26949114
-0.13719493 -0.025244335 -0.26948726
-0.13719152 -0.025166241 -0.2694934
-0.1371884 -0.025088279 -0.26949355
-0.13718519 -0.025010273 -0.26949573
-0.13718188 -0.024930269 -0.26949781
-0.13717857 -0.024852218 -0.26950198
-0.13717555 -0.024774298 -0.26950014
-0.13717234 -0.024694338 -0.26950026
-0.13716921 -0.024616376 -0.2695004
-0.13716641 -0.024536587 -0.26949251
-0.1371634 -0.024456713 -0.26948863
-0.13716048 -0.024378836 -0.26948482
-0.13715746 -0.024300918 -0.26948297
-0.13715406 -0.024220869 -0.26948705
-0.13715054 -0.024142733 -0.26949519
-0.13714723 -0.024064684 -0.26949936
-0.1371444 -0.02398685 -0.26949352
-0.13714179 -0.023907151 -0.26948166
-0.13713917 -0.023827448 -0.26946977
-0.13713644 -0.023749659 -0.26946193
-0.13713315 -0.023669656 -0.26946405
-0.13712972 -0.023591563 -0.26947021
-0.13712631 -0.023513468 -0.26947635
-0.13712339 -0.023435593 -0.26947251
-0.13712029 -0.023355674 -0.26947063
-0.13711727 -0.023277756 -0.26946878
-0.13711436 -0.023197925 -0.26946288
-0.13711123 -0.023119962 -0.26946306
-0.13710801 -0.023041956 -0.26946521
-0.13710511 -0.022962125 -0.26945934
-0.13710208 -0.022884205 -0.26945749
-0.13709867 -0.022806112 -0.26946363
-0.13709535 -0.022728063 -0.26946777
-0.13709225 -0.022648145 -0.26946589
-0.13708942 -0.022570312 -0.26946008
-0.13708642 -0.022490438 -0.26945618
-0.13708349 -0.022412561 -0.26945233
-0.13708058 -0.022332732 -0.26944646
-0.13707766 -0.022254854 -0.26944262
-0.13707444 -0.022176849 -0.26944476
-0.13707113 -0.022096844 -0.26944688
-0.13706782 -0.022018794 -0.26945102
-0.1370645 -0.021940745 -0.26945519
-0.1370614 -0.021860827 -0.26945329
-0.13705857 -0.021782994 -0.26944748
-0.13705537 -0.021703033 -0.26944757
-0.13705206 -0.021624982 -0.26945174
-0.13704884 -0.021546977 -0.26945388
-0.13704601 -0.021469146 -0.26944804
-0.13704281 -0.021389183 -0.26944816
-0.13703997 -0.02131135 -0.26944232
-0.13703717 -0.021231562 -0.26943445
-0.13703385 -0.021153513 -0.26943859
-0.13703063 -0.021075506 -0.26944074
-0.13702781 -0.020995719 -0.26943287
-0.1370247 -0.020917755 -0.26943302
-0.13702148 -0.020839751 -0.26943517
-0.13701838 -0.020759832 -0.26943329
-0.13701536 -0.020681914 -0.26943147
-0.13701223 -0.020603951 -0.26943162
-0.13700932 -0.02052412 -0.26942572
-0.13700621 -0.020446155 -0.26942587
-0.13700259 -0.020367976 -0.26943603
-0.13699968 -0.020288147 -0.26943016
-0.13699685 -0.020210313 -0.26942432
-0.13699354 -0.020132262 -0.26942846
-0.13699041 -0.020054299 -0.26942861
-0.1369873 -0.019976337 -0.26942879
-0.13698448 -0.019896548 -0.26942089
-0.13698196 -0.019816892 -0.26940703
-0.13697904 -0.019739017 -0.26940319
-0.13697544 -0.019660836 -0.26941332
-0.13697201 -0.019582743 -0.26941949
-0.13696902 -0.019502869 -0.26941562
-0.1369655 -0.019424733 -0.26942375
-0.13696198 -0.019346595 -0.26943189
-0.13695906 -0.019268719 -0.26942804
-0.13695635 -0.019188976 -0.26941818
-0.13695323 -0.019111011 -0.26941833
-0.13695021 -0.019033093 -0.26941648
-0.13694739 -0.018953305 -0.26940861
-0.13694467 -0.018875517 -0.26940078
-0.13694185 -0.018795729 -0.26939291
-0.13693883 -0.018717809 -0.26939106
-0.13693561 -0.018639803 -0.26939321
-0.13693212 -0.018559711 -0.26939932
-0.13692871 -0.018481618 -0.26940548
-0.13692538 -0.018403569 -0.26940963
-0.13692246 -0.018325692 -0.26940578
-0.13691965 -0.018245906 -0.26939791
-0.13691653 -0.018167943 -0.26939806
-0.13691321 -0.018089892 -0.26940221
-0.1369103 -0.018010061 -0.26939633
-0.13690747 -0.017932229 -0.26939049
-0.13690415 -0.017854178 -0.26939464
-0.13690096 -0.017774219 -0.26939476
-0.13689794 -0.017696299 -0.26939291
-0.136895 -0.017618421 -0.26938909
-0.1368921 -0.017538592 -0.26938319
-0.13688898 -0.017460629 -0.26938337
-0.13688588 -0.017380711 -0.26938146
-0.13688324 -0.017302964 -0.26937163
-0.13688022 -0.017225046 -0.26936978
-0.13687681 -0.017146952 -0.26937595
-0.13687368 -0.01706899 -0.2693761
-0.13687028 -0.016988941 -0.26938021
-0.13686687 -0.016910847 -0.26938635
-0.13686414 -0.016833059 -0.26937851
-0.13686132 -0.016753271 -0.26937065
-0.13685811 -0.016675266 -0.26937279
-0.13685499 -0.016597303 -0.26937294
-0.13685186 -0.016519338 -0.26937312
-0.13684857 -0.016439335 -0.26937521
-0.13684554 -0.016361415 -0.26937339
-0.13684252 -0.016283495 -0.26937154
-0.13683932 -0.016203534 -0.26937163
-0.13683639 -0.016125659 -0.26936781
-0.13683386 -0.016047955 -0.26935598
-0.13683115 -0.015968211 -0.26934612
-0.13682793 -0.015890205 -0.26934826
-0.13682431 -0.015812024 -0.2693584
-0.13682128 -0.015734106 -0.26935655
-0.13681848 -0.015654318 -0.26934868
-0.13681565 -0.015576486 -0.26934284
-0.13681224 -0.015498392 -0.26934901
-0.13680845 -0.015418171 -0.26936108
-0.13680513 -0.015340121 -0.26936525
-0.13680241 -0.015262332 -0.26935741
-0.1367995 -0.015182501 -0.26935154
-0.13679647 -0.015104582 -0.26934969
-0.13679354 -0.015026705 -0.26934585
-0.13679042 -0.014948742 -0.269346
-0.13678733 -0.014868825 -0.26934412
-0.136784 -0.014790775 -0.26934826
-0.13678029 -0.014712552 -0.26936042
-0.13677689 -0.014632504 -0.26936451
-0.13677408 -0.014554671 -0.26935869
-0.13677095 -0.014476708 -0.26935884
-0.13676792 -0.014398788 -0.269357
-0.13676502 -0.014318958 -0.26935112
-0.1367621 -0.014241082 -0.26934728
-0.13675897 -0.014163119 -0.26934743
-0.13675614 -0.014085285 -0.26934159
-0.13675343 -0.014005542 -0.26933172
-0.1367504 -0.013927622 -0.26932991
-0.13674681 -0.013847487 -0.26933798
-0.13674369 -0.013769524 -0.26933813
-0.13674097 -0.013691735 -0.26933032
-0.13673803 -0.013613859 -0.26932645
-0.13673471 -0.013535809 -0.26933062
-0.13673152 -0.013455848 -0.26933074
-0.13672858 -0.013377972 -0.2693269
-0.13672528 -0.013299922 -0.26933104
-0.13672207 -0.013219961 -0.26933116
-0.13671915 -0.013142085 -0.26932731
-0.13671613 -0.013064166 -0.26932549
-0.13671292 -0.012984204 -0.26932558
-0.13670999 -0.012906328 -0.26932174
-0.13670737 -0.012828582 -0.2693119
-0.13670473 -0.012750836 -0.2693021
-0.13670182 -0.012671005 -0.26929623
-0.13669831 -0.012592869 -0.26930436
-0.13669489 -0.012514776 -0.2693105
-0.13669188 -0.012434902 -0.26930663
-0.13668905 -0.012357069 -0.26930079
-0.13668564 -0.012278976 -0.26930693
-0.13668245 -0.012199014 -0.26930705
-0.13667943 -0.012121094 -0.2693052
-0.13667601 -0.012043002 -0.26931137
-0.13667278 -0.011964995 -0.26931351
-0.13666968 -0.011885078 -0.26931161
-0.13666627 -0.011806984 -0.26931778
-0.13666335 -0.011729108 -0.26931393
-0.13666053 -0.011649321 -0.26930606
-0.1366577 -0.011571488 -0.26930022
-0.13665487 -0.011493656 -0.26929438
-0.13665177 -0.011413738 -0.2692925
-0.13664827 -0.011335601 -0.26930064
-0.13664533 -0.011257725 -0.2692968
-0.13664261 -0.011179935 -0.26928896
-0.1366393 -0.011099931 -0.26929107
-0.13663599 -0.011021881 -0.26929522
-0.13663305 -0.010944005 -0.2692914
-0.13663015 -0.010864174 -0.2692855
-0.13662712 -0.010786255 -0.26928368
-0.1366239 -0.010708248 -0.26928583
-0.1366208 -0.010628331 -0.26928395
-0.13661769 -0.010550368 -0.2692841
-0.13661456 -0.010472405 -0.26928425
-0.13661173 -0.010394572 -0.26927841
-0.13660863 -0.010314655 -0.26927653
-0.13660532 -0.010236605 -0.26928067
-0.13660209 -0.010158598 -0.26928282
-0.1365989 -0.010078638 -0.26928294
-0.13659549 -0.010000545 -0.26928908
-0.13659228 -0.009920584 -0.2692892
-0.13658956 -0.0098427944 -0.26928139
-0.13658653 -0.0097648744 -0.26927954
-0.1365836 -0.0096869981 -0.2692757
-0.1365805 -0.0096070804 -0.26927382
-0.13657717 -0.0095290309 -0.26927796
-0.13657406 -0.009451068 -0.26927811
-0.13657103 -0.009373148 -0.26927626
-0.13656794 -0.0092932303 -0.26927438
-0.1365653 -0.0092154844 -0.26926455
-0.13656278 -0.0091358274 -0.26925069
-0.13655967 -0.0090578645 -0.26925084
-0.13655566 -0.0089795105 -0.26926899
-0.13655198 -0.008899333 -0.26927906
-0.13654923 -0.0088215433 -0.26927125
-0.13654681 -0.008743884 -0.26925743
-0.13654397 -0.0086660516 -0.26925159
-0.13654028 -0.008585874 -0.26926166
-0.13653697 -0.0085078236 -0.26926583
-0.13653384 -0.0084298607 -0.26926598
-0.13653044 -0.0083498135 -0.26927009
-0.13652723 -0.0082718069 -0.26927224
-0.1365245 -0.0081940172 -0.2692644
-0.13652179 -0.0081142737 -0.26925454
-0.13651876 -0.0080363536 -0.26925269
-0.13651517 -0.0079562198 -0.26926079
-0.13651234 -0.0078783864 -0.26925495
-0.13650951 -0.0078005535 -0.26924914
-0.13650592 -0.0077204192 -0.26925722
-0.13650261 -0.0076423693 -0.26926136
-0.13650016 -0.0075647105 -0.26924753
-0.13649726 -0.0074848793 -0.26924169
-0.13649385 -0.0074067861 -0.26924783
-0.13649072 -0.0073288232 -0.26924798
-0.13648753 -0.0072488622 -0.26924807
-0.1364847 -0.0071710292 -0.26924223
-0.13648187 -0.0070931967 -0.26923642
-0.13647865 -0.0070151901 -0.26923856
-0.13647564 -0.0069353161 -0.26923469
-0.13647291 -0.0068575265 -0.26922685
-0.13646971 -0.0067775659 -0.26922697
-0.13646621 -0.0066994294 -0.2692351
-0.13646258 -0.006621249 -0.26924527
-0.13645959 -0.0065413751 -0.26924136
-0.13645685 -0.0064635854 -0.26923352
-0.13645366 -0.0063836249 -0.26923364
-0.13645063 -0.0063057048 -0.2692318
-0.1364477 -0.0062278286 -0.26922798
-0.13644421 -0.0061477376 -0.26923406
-0.1364405 -0.0060695144 -0.26924622
-0.1364373 -0.0059895539 -0.26924631
-0.13643457 -0.0059117642 -0.26923847
-0.13643223 -0.0058341478 -0.26922268
-0.1364291 -0.0057561849 -0.26922283
-0.1364257 -0.0056761373 -0.26922691
-0.13642269 -0.0055982182 -0.26922509
-0.1364193 -0.0055181701 -0.26922917
-0.13641617 -0.0054402072 -0.26922935
-0.13641353 -0.0053624613 -0.26921952
-0.13641024 -0.0052824561 -0.26922163
-0.13640712 -0.0052044932 -0.26922178
-0.13640429 -0.0051266607 -0.26921594
-0.136401 -0.0050466564 -0.26921806
-0.13639787 -0.0049686935 -0.26921821
-0.13639514 -0.0048909038 -0.26921037
-0.13639203 -0.004810987 -0.26920849
-0.13638891 -0.0047330232 -0.26920867
-0.13638562 -0.0046530189 -0.26921076
-0.136382 -0.004574839 -0.26922089
-0.13637871 -0.0044948347 -0.269223
-0.13637587 -0.0044170022 -0.26921716
-0.13637295 -0.0043391259 -0.26921332
-0.13637014 -0.0042593386 -0.26920545
-0.13636751 -0.0041815918 -0.26919562
-0.136364 -0.0041034557 -0.26920378
-0.13636041 -0.0040233219 -0.26921189
-0.13635758 -0.0039454885 -0.26920605
-0.13635467 -0.0038656574 -0.26920015
-0.13635175 -0.003787782 -0.26919633
-0.13634843 -0.0037097316 -0.26920044
-0.13634475 -0.0036295541 -0.26921058
-0.13634144 -0.0035495497 -0.26921266
-0.1363389 -0.0034718467 -0.26920083
-0.13633627 -0.0033941008 -0.26919103
-0.13633287 -0.0033140536 -0.26919511
-0.13632908 -0.0032338323 -0.26920721
-0.13632578 -0.0031557819 -0.26921135
-0.13632314 -0.003078036 -0.26920152
-0.1363207 -0.0030003767 -0.26918772
-0.13631816 -0.0029226746 -0.26917589
-0.13631487 -0.0028426703 -0.269178
-0.13631146 -0.002764577 -0.26918414
-0.13630776 -0.0026843986 -0.26919425
-0.13630457 -0.002604438 -0.26919433
-0.13630193 -0.0025266912 -0.26918453
-0.136299 -0.0024488149 -0.26918069
-0.13629562 -0.0023687687 -0.26918477
-0.13629268 -0.0022908915 -0.26918095
-0.13628976 -0.0022130143 -0.26917711
-0.13628598 -0.0021327939 -0.26918921
-0.13628228 -0.0020526163 -0.26919928
-0.13627917 -0.0019746535 -0.26919946
-0.13627662 -0.0018969504 -0.26918763
-0.13627371 -0.0018171202 -0.26918173
-0.13627049 -0.0017391136 -0.2691839
-0.13626711 -0.0016590655 -0.26918802
-0.13626409 -0.0015811455 -0.26918617
-0.13626117 -0.0015013153 -0.26918027
-0.13625816 -0.0014233962 -0.26917845
-0.13625465 -0.0013433043 -0.26918453
-0.13625163 -0.0012653861 -0.26918271
-0.13624883 -0.0011855979 -0.26917481
-0.136246 -0.0011077644 -0.269169
-0.1362426 -0.0010277163 -0.26917309
-0.13623947 -0.00094975438 -0.26917323
-0.13623647 -0.0008698795 -0.26916936
-0.13623375 -0.00079208985 -0.26916152
-0.13623072 -0.00071416982 -0.2691597
-0.13622722 -0.0006340798 -0.26916578
-0.13622381 -0.00055598654 -0.26917195
-0.1362206 -0.00047602598 -0.26917204
-0.13621777 -0.00039819255 -0.26916623
-0.13621458 -0.00031823292 -0.26916632
-0.13621126 -0.0002401825 -0.26917046
-0.13620806 -0.00016022101 -0.26917058
-0.13620523 -8.238852e-05 -0.26916474
-0.13620232 -2.5574118e-06 -0.26915887
-0.1361993 7.5361691e-05 -0.26915702
-0.136196 0.00015536696 -0.26915914
-0.13619298 0.00023328513 -0.26915729
-0.13619025 0.00031107571 -0.26914948
-0.13618705 0.00039103627 -0.26914957
-0.13618383 0.00046904199 -0.26915175
-0.13618073 0.00054896064 -0.26914984
-0.1361779 0.0006267922 -0.269144
-0.13617489 0.00070666708 -0.26914012
-0.13617167 0.00078467373 -0.26914227
-0.13616829 0.00086472183 -0.26914638
-0.13616526 0.00094264094 -0.26914454
-0.13616271 0.001020343 -0.26913273
-0.13615981 0.0011001751 -0.26912683
-0.1361565 0.0011782246 -0.269131
-0.1361531 0.0012582717 -0.26913509
-0.13615 0.0013381895 -0.26913321
-0.13614726 0.0014159782 -0.26912537
-0.13614404 0.0014939848 -0.26912752
-0.13614085 0.0015739454 -0.26912764
-0.13613772 0.0016519092 -0.26912779
-0.13613443 0.0017319145 -0.2691299
-0.13613133 0.0018118313 -0.26912802
-0.13612831 0.0018897513 -0.26912618
-0.136125 0.0019697547 -0.26912829
-0.13612218 0.0020475881 -0.26912245
-0.13611944 0.0021253778 -0.26911461
-0.13611634 0.0022052946 -0.26911271
-0.13611305 0.0022852989 -0.26911482
-0.13610992 0.0023632608 -0.26911497
-0.13610709 0.0024410952 -0.26910916
-0.13610438 0.0025208388 -0.2690993
-0.13610126 0.0025988016 -0.26909941
-0.13609767 0.0026789363 -0.26910752
-0.13609457 0.0027588531 -0.26910564
-0.13609155 0.0028367732 -0.2691038
-0.13608834 0.0029167347 -0.26910391
-0.13608456 0.0029969569 -0.26911598
-0.13608038 0.0030773506 -0.26913607
-0.13607669 0.0031575281 -0.2691462
-0.13607407 0.0032352731 -0.26913637
-0.13607192 0.0033128038 -0.26911655
-0.13606967 0.0033903755 -0.26909873
-0.13606714 0.0034680795 -0.2690869
-0.13606411 0.0035459995 -0.26908505
-0.13606034 0.0036281738 -0.26909509
-0.13605656 0.0037083961 -0.26910719
-0.13605325 0.0037864447 -0.26911134
-0.13605054 0.0038661882 -0.26910147
-0.1360476 0.0039440654 -0.26909763
-0.13604496 0.0040218122 -0.26908779
-0.13604273 0.004099384 -0.26907
-0.13604009 0.0041771308 -0.26906016
-0.1360365 0.0042572655 -0.26906824
-0.1360333 0.0043372251 -0.26906836
-0.13603076 0.0044149272 -0.26905653
-0.13602813 0.004492674 -0.26904672
-0.13602531 0.0045705084 -0.26904088
-0.13602257 0.004648298 -0.26903304
-0.13601927 0.0047283005 -0.26903516
-0.13601579 0.0048083924 -0.26904124
-0.13601334 0.0048860516 -0.26902744
-0.13601041 0.004963927 -0.2690236
-0.13600655 0.0050461441 -0.26903564
-0.13600393 0.0051238909 -0.2690258
-0.13600194 0.0051993802 -0.26900405
-0.13599922 0.0052771717 -0.26899621
-0.13599543 0.0053573921 -0.26900831
-0.13599166 0.0054395664 -0.26901835
-0.13598844 0.005517574 -0.2690205
-0.13598554 0.0055974033 -0.26901463
-0.13598205 0.0056774952 -0.26902074
-0.13597836 0.0057576727 -0.26903081
-0.13597552 0.0058355052 -0.269025
-0.13597262 0.0059153363 -0.26901913
-0.1359694 0.0059933439 -0.26902127
-0.13596649 0.006073175 -0.26901537
-0.13596338 0.006151136 -0.26901552
-0.13596007 0.0062311403 -0.26901764
-0.13595715 0.0063090175 -0.26901382
-0.13595463 0.0063886754 -0.26899993
-0.13595131 0.0064667258 -0.26900411
-0.13594736 0.0065489858 -0.26901811
-0.13594386 0.0066290777 -0.26902422
-0.13594094 0.0067069549 -0.26902038
-0.13593812 0.0067867432 -0.26901251
-0.13593501 0.0068647042 -0.26901269
-0.1359318 0.0069446657 -0.26901278
-0.13592888 0.007022541 -0.26900893
-0.13592578 0.0071024597 -0.26900706
-0.13592276 0.0071803816 -0.26900524
-0.13591926 0.0072604697 -0.26901132
-0.13591586 0.0073405169 -0.26901543
-0.13591295 0.0074203499 -0.26900953
-0.13590993 0.0074982699 -0.26900771
-0.13590664 0.0075782724 -0.26900983
-0.13590381 0.0076561049 -0.26900399
-0.13590071 0.0077360235 -0.26900208
-0.13589768 0.0078139435 -0.26900023
-0.13589478 0.0078937728 -0.26899436
-0.13589194 0.0079716053 -0.26898852
-0.13588865 0.0080516096 -0.26899064
-0.13588516 0.0081317015 -0.26899675
-0.13588233 0.0082095359 -0.2689909
-0.1358797 0.0082872808 -0.26898107
-0.1358764 0.0083672833 -0.26898319
-0.13587357 0.0084451176 -0.26897734
-0.13587093 0.0085228644 -0.26896751
-0.13586746 0.0086049102 -0.26897156
-0.13586387 0.0086850431 -0.26897967
-0.13586077 0.0087649617 -0.26897779
-0.13585784 0.0088428389 -0.26897395
-0.13585472 0.0089208018 -0.26897413
-0.13585114 0.0090028886 -0.26898015
-0.13584766 0.0090829805 -0.26898625
-0.13584569 0.0091584679 -0.2689645
-0.1358442 0.0092337392 -0.26893273
-0.13584098 0.0093117468 -0.26893491
-0.13583645 0.0093962215 -0.26895887
-0.13583258 0.0094764885 -0.26897296
-0.13582928 0.0095564928 -0.26897508
-0.13582693 0.0096341092 -0.26895925
-0.1358244 0.0097118113 -0.26894742
-0.13582157 0.0097896438 -0.26894158
-0.13581818 0.009869691 -0.26894569
-0.13581468 0.0099497829 -0.2689518
-0.13581119 0.010029873 -0.26895791
-0.13580818 0.010109747 -0.26895401
-0.13580526 0.010187624 -0.26895019
-0.13580206 0.010267586 -0.26895028
-0.13579896 0.010347504 -0.26894841
-0.13579594 0.01042542 -0.26894656
-0.13579254 0.01050547 -0.26895067
-0.13578877 0.010587648 -0.26896071
-0.13578615 0.010665391 -0.26895088
-0.1357836 0.010743093 -0.26893905
-0.13578038 0.0108211 -0.26894122
-0.13577728 0.010901019 -0.26893932
-0.13577485 0.010978678 -0.26892552
-0.13577172 0.011056641 -0.26892567
-0.13576825 0.011138685 -0.26892972
-0.13576522 0.011216605 -0.26892787
-0.13576202 0.011296567 -0.26892799
-0.13575873 0.011376573 -0.26893008
-0.1357556 0.011454532 -0.26893026
-0.1357528 0.01153432 -0.26892239
-0.13575007 0.01161211 -0.26891455
-0.13574676 0.011692116 -0.26891664
-0.13574328 0.011772204 -0.26892275
-0.13574035 0.011850081 -0.2689189
-0.13573715 0.011930043 -0.26891902
-0.13573356 0.012010179 -0.26892713
-0.13573016 0.012090225 -0.26893121
-0.13572736 0.012170013 -0.26892334
-0.1357251 0.012245631 -0.26890755
-0.13572255 0.012323333 -0.26889575
-0.13571936 0.012403294 -0.26889586
-0.13571577 0.012483431 -0.26890397
-0.13571191 0.012565648 -0.26891601
-0.13570897 0.012643525 -0.26891217
-0.13570683 0.012721054 -0.26889235
-0.13570437 0.01279676 -0.26888055
-0.13570108 0.012876764 -0.26888266
-0.13569778 0.012956766 -0.26888478
-0.13569477 0.013036642 -0.2688809
-0.13569157 0.013116604 -0.26888102
-0.13568789 0.013196778 -0.2688911
-0.13568439 0.013276871 -0.26889721
-0.13568176 0.013354618 -0.26888737
-0.13567959 0.013430191 -0.26886961
-0.13567649 0.01351011 -0.26886773
-0.13567196 0.013594586 -0.26889169
-0.13740231 -0.030527506 -0.26955181
-0.13739859 -0.030451238 -0.269566
-0.13739516 -0.030373145 -0.26957214
-0.13739178 -0.030293096 -0.26957625
-0.13738935 -0.030213481 -0.26956037
-0.13738693 -0.030133869 -0.26954448
-0.13738373 -0.030053906 -0.2695446
-0.13738021 -0.02997577 -0.26955277
-0.1373768 -0.029897677 -0.26955891
-0.13737307 -0.029821407 -0.26957309
-0.13736987 -0.029741447 -0.26957321
-0.13736695 -0.02966357 -0.26956937
-0.13736404 -0.029583741 -0.2695635
-0.13736153 -0.029504083 -0.26954961
-0.13735892 -0.029424381 -0.26953775
-0.13735561 -0.02934438 -0.26953983
-0.1373523 -0.029266329 -0.26954401
-0.13734908 -0.029188322 -0.26954615
-0.13734595 -0.029110359 -0.26954633
-0.13734296 -0.029030483 -0.26954243
-0.13734004 -0.028950654 -0.26953655
-0.13733682 -0.028872648 -0.2695387
-0.13733351 -0.028794598 -0.26954284
-0.13733031 -0.028714636 -0.26954296
-0.13732709 -0.028636631 -0.26954511
-0.13732377 -0.028558582 -0.26954925
-0.13732058 -0.028478619 -0.26954937
-0.13731745 -0.028400656 -0.26954952
-0.13731435 -0.028320739 -0.26954764
-0.13731171 -0.028242992 -0.26953781
-0.13730872 -0.02816312 -0.26953393
-0.1373056 -0.028083201 -0.26953202
-0.13730268 -0.028005326 -0.26952821
-0.13729978 -0.027925493 -0.26952231
-0.13729665 -0.027847532 -0.26952249
-0.13729306 -0.027767397 -0.26953056
-0.13728975 -0.027689347 -0.26953471
-0.13728662 -0.027611382 -0.26953489
-0.13728321 -0.027533291 -0.26954103
-0.13727999 -0.027455285 -0.2695432
-0.1372771 -0.0273735 -0.26953524
-0.13727427 -0.027295666 -0.26952943
-0.13727117 -0.027215749 -0.26952755
-0.13726825 -0.027137872 -0.26952371
-0.13726534 -0.027058043 -0.26951781
-0.13726202 -0.026979992 -0.26952195
-0.1372588 -0.026901986 -0.26952413
-0.1372557 -0.026822068 -0.26952225
-0.13725287 -0.026744235 -0.26951641
-0.13724986 -0.026664361 -0.26951253
-0.13724686 -0.026584487 -0.26950863
-0.13724393 -0.02650661 -0.26950479
-0.13724083 -0.026426693 -0.26950291
-0.13723791 -0.026348816 -0.26949906
-0.13723458 -0.026270766 -0.26950324
-0.13723136 -0.026192762 -0.26950538
-0.13722835 -0.026112886 -0.26950151
-0.13722533 -0.026034966 -0.26949966
-0.13722214 -0.025955006 -0.26949978
-0.13721892 -0.025876999 -0.26950192
-0.1372156 -0.02579895 -0.26950607
-0.13721228 -0.0257209 -0.26951021
-0.13720948 -0.025641114 -0.26950234
-0.13720657 -0.025561282 -0.26949644
-0.13720325 -0.025483232 -0.26950061
-0.13720003 -0.025405226 -0.26950276
-0.13719732 -0.025325481 -0.26949289
-0.13719432 -0.025245607 -0.26948899
-0.137191 -0.025167558 -0.26949316
-0.13718778 -0.025089551 -0.26949531
-0.13718456 -0.025011547 -0.26949745
-0.13718124 -0.024933495 -0.2695016
-0.13717803 -0.024853535 -0.26950172
-0.13717492 -0.024775572 -0.26950186
-0.13717182 -0.024695653 -0.26949999
-0.13716869 -0.024617691 -0.26950014
-0.13716578 -0.024537859 -0.26949427
-0.13716288 -0.02445803 -0.26948839
-0.13715996 -0.024380153 -0.26948455
-0.13715683 -0.02430219 -0.2694847
-0.13715343 -0.024222143 -0.26948881
-0.13715009 -0.024146046 -0.26949501
-0.13714671 -0.024066001 -0.26949912
-0.13714378 -0.023988124 -0.26949528
-0.13714117 -0.023908423 -0.26948339
-0.13713855 -0.023828723 -0.26947153
-0.13713591 -0.023750976 -0.26946169
-0.13713261 -0.023670971 -0.26946381
-0.1371292 -0.023592878 -0.26946995
-0.13712579 -0.023514785 -0.26947612
-0.13712277 -0.023436867 -0.26947427
-0.13711976 -0.023356991 -0.26947036
-0.13711664 -0.02327903 -0.26947054
-0.13711382 -0.023199242 -0.26946265
-0.13711061 -0.023121234 -0.26946479
-0.13710739 -0.023043228 -0.26946697
-0.13710459 -0.022963442 -0.26945907
-0.13710146 -0.022885479 -0.26945925
-0.13709804 -0.022807386 -0.26946539
-0.13709483 -0.022729378 -0.26946753
-0.13709173 -0.022649461 -0.26946566
-0.13708879 -0.022571584 -0.26946181
-0.1370858 -0.022491712 -0.26945794
-0.13708286 -0.022413835 -0.26945409
-0.13707995 -0.022334006 -0.26944822
-0.13707703 -0.022256128 -0.26944438
-0.1370739 -0.022178166 -0.26944453
-0.13707061 -0.022098161 -0.26944664
-0.13706729 -0.022020111 -0.26945078
-0.13706388 -0.021942018 -0.26945692
-0.13706076 -0.021864055 -0.2694571
-0.13705805 -0.021784311 -0.26944721
-0.13705485 -0.02170435 -0.26944733
-0.13705151 -0.021628255 -0.26945353
-0.1370483 -0.021548294 -0.26945364
-0.13704538 -0.021470418 -0.2694498
-0.13704218 -0.021390457 -0.26944989
-0.13703935 -0.021312622 -0.26944408
-0.13703664 -0.021232879 -0.26943418
-0.13703322 -0.021154786 -0.26944035
-0.13703009 -0.021076823 -0.2694405
-0.13702729 -0.020997036 -0.26943263
-0.13702416 -0.020919073 -0.26943278
-0.13702095 -0.020841066 -0.26943493
-0.13701785 -0.020761149 -0.26943305
-0.13701473 -0.020683186 -0.2694332
-0.1370116 -0.020605221 -0.26943338
-0.1370088 -0.020525437 -0.26942548
-0.13700567 -0.020447472 -0.26942563
-0.13700207 -0.020369291 -0.26943576
-0.13699916 -0.020289462 -0.26942989
-0.13699633 -0.02021163 -0.26942408
-0.13699301 -0.020133579 -0.26942822
-0.13698979 -0.020055573 -0.26943037
-0.13698667 -0.019977611 -0.26943052
-0.13698396 -0.019897865 -0.26942065
-0.13698144 -0.019818209 -0.2694068
-0.13697842 -0.019740289 -0.26940495
-0.1369749 -0.019662153 -0.26941308
-0.13697149 -0.01958406 -0.26941925
-0.13696839 -0.019504141 -0.26941735
-0.13696498 -0.019426048 -0.26942348
-0.13696136 -0.019347869 -0.26943362
-0.13695844 -0.019269992 -0.2694298
-0.13695572 -0.019190248 -0.26941991
-0.13695259 -0.019112285 -0.26942009
-0.13694967 -0.01903441 -0.26941624
-0.13694677 -0.018954579 -0.26941037
-0.13694404 -0.018876789 -0.26940253
-0.13694122 -0.018797003 -0.26939464
-0.1369383 -0.018719126 -0.26939082
-0.13693509 -0.018641118 -0.26939297
-0.13693158 -0.018561028 -0.26939908
-0.13692817 -0.018482935 -0.26940522
-0.13692485 -0.018404886 -0.26940936
-0.13692193 -0.018327009 -0.26940554
-0.13691911 -0.018247221 -0.26939765
-0.13691589 -0.018169215 -0.26939982
-0.13691258 -0.018091165 -0.26940396
-0.13690968 -0.018011335 -0.26939809
-0.13690685 -0.017933501 -0.26939225
-0.13690363 -0.017855495 -0.2693944
-0.13690042 -0.017775536 -0.26939452
-0.13689731 -0.017697573 -0.26939467
-0.13689448 -0.017619738 -0.26938882
-0.13689147 -0.017539864 -0.26938495
-0.13688844 -0.017461944 -0.2693831
-0.13688542 -0.017384024 -0.26938125
-0.13688271 -0.017304281 -0.26937139
-0.13687968 -0.017226361 -0.26936954
-0.13687627 -0.017148267 -0.26937568
-0.13687314 -0.017070305 -0.26937586
-0.13686965 -0.016990215 -0.26938194
-0.13686624 -0.016912121 -0.26938811
-0.13686351 -0.016834332 -0.26938027
-0.1368608 -0.016754588 -0.26937038
-0.13685758 -0.016676581 -0.26937255
-0.13685435 -0.016598575 -0.2693747
-0.13685124 -0.016520612 -0.26937485
-0.13684802 -0.016442606 -0.26937702
-0.13684481 -0.016362645 -0.26937711
-0.13684189 -0.016284768 -0.2693733
-0.13683869 -0.016204808 -0.26937339
-0.13683577 -0.016126931 -0.26936954
-0.13683333 -0.016049271 -0.26935571
-0.13683051 -0.015969485 -0.26934785
-0.13682729 -0.015891477 -0.26934999
-0.13682368 -0.015813299 -0.26936015
-0.13682066 -0.015735378 -0.26935831
-0.13681795 -0.015655633 -0.26934844
-0.13681503 -0.015577759 -0.2693446
-0.1368117 -0.015499709 -0.26934874
-0.13680792 -0.015419487 -0.26936084
-0.13680451 -0.015341395 -0.26936698
-0.13680178 -0.015263605 -0.26935917
-0.13679886 -0.015183774 -0.26935327
-0.13679585 -0.015105855 -0.26935142
-0.13679291 -0.015027978 -0.26934761
-0.1367898 -0.014950015 -0.26934776
-0.13678668 -0.014870098 -0.26934588
-0.13678347 -0.014792091 -0.26934803
-0.13677967 -0.014713825 -0.26936215
-0.13677637 -0.01463382 -0.26936427
-0.13677344 -0.014555944 -0.26936042
-0.13677041 -0.014478024 -0.26935858
-0.1367673 -0.014400061 -0.26935875
-0.13676448 -0.014320274 -0.26935086
-0.13676156 -0.014242398 -0.26934701
-0.13675834 -0.014164392 -0.26934919
-0.13675551 -0.014086558 -0.26934335
-0.1367528 -0.014006814 -0.26933348
-0.13674977 -0.013928895 -0.26933163
-0.13674608 -0.013848717 -0.26934174
-0.13674296 -0.013770754 -0.26934189
-0.13674043 -0.013693051 -0.26933005
-0.1367375 -0.013615175 -0.26932621
-0.13673408 -0.013537082 -0.26933235
-0.13673098 -0.013457164 -0.26933047
-0.13672796 -0.013379244 -0.26932865
-0.13672464 -0.013301196 -0.2693328
-0.13672145 -0.013221234 -0.26933289
-0.13671862 -0.013143402 -0.26932707
-0.13671549 -0.013065438 -0.26932722
-0.1367123 -0.012985477 -0.26932734
-0.13670947 -0.012907645 -0.2693215
-0.13670672 -0.012829855 -0.26931366
-0.1367041 -0.012752109 -0.26930386
-0.1367012 -0.012672278 -0.26929796
-0.13669777 -0.012594185 -0.2693041
-0.13669427 -0.012516049 -0.26931226
-0.13669126 -0.012436174 -0.26930839
-0.13668843 -0.012358341 -0.26930255
-0.13668501 -0.012280248 -0.26930869
-0.13668172 -0.012200244 -0.26931077
-0.13667879 -0.012122368 -0.26930696
-0.13667548 -0.012044318 -0.2693111
-0.13667226 -0.011966311 -0.26931328
-0.13666905 -0.011886351 -0.26931337
-0.13666573 -0.011808301 -0.26931751
-0.13666271 -0.011730381 -0.26931566
-0.13665991 -0.011650594 -0.26930779
-0.13665707 -0.011572761 -0.26930195
-0.13665424 -0.011494928 -0.26929614
-0.13665114 -0.01141501 -0.26929426
-0.13664763 -0.011336874 -0.2693024
-0.13664471 -0.011258998 -0.26929855
-0.13664196 -0.011181208 -0.26929072
-0.13663867 -0.011101204 -0.26929283
-0.13663535 -0.011023154 -0.26929697
-0.13663243 -0.010945278 -0.26929313
-0.13662963 -0.010865491 -0.26928526
-0.1366265 -0.010787528 -0.26928541
-0.13662328 -0.010709521 -0.26928759
-0.13662018 -0.010629604 -0.26928568
-0.13661715 -0.010551685 -0.26928383
-0.13661402 -0.010473722 -0.26928401
-0.1366111 -0.010395845 -0.26928017
-0.13660809 -0.010315971 -0.26927626
-0.13660468 -0.010237878 -0.26928243
-0.13660146 -0.010159872 -0.26928458
-0.13659826 -0.010079911 -0.2692847
-0.13659485 -0.010001818 -0.26929083
-0.13659175 -0.0099219 -0.26928896
-0.13658902 -0.0098441103 -0.26928112
-0.13658589 -0.0097661475 -0.26928127
-0.13658297 -0.0096882712 -0.26927745
-0.13657987 -0.0096083535 -0.26927555
-0.13657655 -0.009530304 -0.26927969
-0.13657342 -0.0094523411 -0.26927987
-0.1365705 -0.0093744649 -0.26927602
-0.13656729 -0.0092945034 -0.26927614
-0.13656466 -0.0092167575 -0.26926631
-0.13656215 -0.0091371005 -0.26925242
-0.13655902 -0.0090591367 -0.2692526
-0.13655503 -0.0089807836 -0.26927072
-0.13655134 -0.0089006061 -0.26928082
-0.1365487 -0.0088228602 -0.26927099
-0.13654616 -0.0087451572 -0.26925915
-0.13654324 -0.0086672809 -0.26925534
-0.13653955 -0.0085871033 -0.26926541
-0.13653633 -0.0085090967 -0.26926756
-0.13653331 -0.0084311776 -0.26926574
-0.13652982 -0.0083510857 -0.26927185
-0.1365266 -0.00827308 -0.269274
-0.13652386 -0.0081952903 -0.26926616
-0.13652115 -0.0081155468 -0.26925629
-0.13651812 -0.0080376267 -0.26925445
-0.13651454 -0.007957492 -0.26926255
-0.13651171 -0.0078796595 -0.26925671
-0.13650897 -0.0078018699 -0.26924887
-0.13650538 -0.0077217352 -0.26925698
-0.13650207 -0.0076436857 -0.26926112
-0.13649963 -0.0075660264 -0.26924729
-0.13649672 -0.0074861953 -0.26924142
-0.13649331 -0.0074081025 -0.26924756
-0.13649009 -0.0073300959 -0.26924974
-0.13648699 -0.0072501786 -0.26924783
-0.13648416 -0.0071723456 -0.26924199
-0.13648123 -0.0070944694 -0.26923817
-0.13647793 -0.0070144655 -0.26924026
-0.1364751 -0.0069366321 -0.26923442
-0.13647237 -0.0068588424 -0.26922661
-0.13646917 -0.0067788819 -0.26922673
-0.13646556 -0.006700702 -0.26923686
-0.13646196 -0.0066225221 -0.269247
-0.13645905 -0.0065426915 -0.26924109
-0.13645631 -0.0064649023 -0.26923329
-0.13645312 -0.0063849408 -0.26923341
-0.1364501 -0.0063070212 -0.26923156
-0.13644707 -0.0062291017 -0.26922971
-0.13644348 -0.006148967 -0.26923782
-0.13643996 -0.0060708309 -0.26924595
-0.13643667 -0.0059908265 -0.26924807
-0.13643393 -0.0059130373 -0.26924023
-0.13643159 -0.0058354209 -0.26922441
-0.13642848 -0.0057574576 -0.26922458
-0.13642508 -0.0056774104 -0.26922867
-0.13642214 -0.0055995341 -0.26922482
-0.13641876 -0.0055194865 -0.26922894
-0.13641573 -0.0054415669 -0.26922709
-0.1364129 -0.0053637344 -0.26922125
-0.13640961 -0.0052837301 -0.26922339
-0.13640648 -0.0052057672 -0.26922351
-0.13640365 -0.0051279338 -0.2692177
-0.13640036 -0.0050479295 -0.26921979
-0.13639723 -0.0049699666 -0.26921996
-0.1363945 -0.0048921769 -0.26921213
-0.1363914 -0.0048122592 -0.26921025
-0.13638827 -0.0047342964 -0.2692104
-0.13638498 -0.004654292 -0.26921251
-0.13638137 -0.0045761121 -0.26922265
-0.13637817 -0.0044961516 -0.26922274
-0.13637525 -0.0044182753 -0.26921892
-0.13637224 -0.0043384014 -0.26921505
-0.1363696 -0.0042606546 -0.26920521
-0.13636687 -0.0041828658 -0.26919737
-0.13636336 -0.0041047288 -0.26920551
-0.13635987 -0.0040246379 -0.26921162
-0.13635704 -0.0039468044 -0.26920578
-0.13635413 -0.0038669743 -0.26919991
-0.13635111 -0.0037890542 -0.26919806
-0.13634782 -0.0037090499 -0.26920018
-0.13634419 -0.00363087 -0.26921031
-0.1363409 -0.0035508666 -0.26921242
-0.13633837 -0.0034731636 -0.26920059
-0.13633573 -0.0033954168 -0.26919076
-0.13633224 -0.0033153268 -0.26919687
-0.13632855 -0.0032351483 -0.26920694
-0.13632524 -0.0031570978 -0.26921111
-0.1363226 -0.0030793529 -0.26920128
-0.13632016 -0.0030016927 -0.26918745
-0.13631752 -0.0029239468 -0.26917762
-0.13631423 -0.0028439425 -0.26917973
-0.13631082 -0.0027658502 -0.2691859
-0.13630722 -0.0026857145 -0.26919398
-0.13630402 -0.0026057549 -0.2691941
-0.13630129 -0.0025279643 -0.26918626
-0.13629837 -0.002450088 -0.26918244
-0.13629498 -0.0023700409 -0.26918653
-0.13629214 -0.0022922074 -0.26918069
-0.13628902 -0.0022142446 -0.26918083
-0.13628542 -0.0021341108 -0.26918894
-0.13628174 -0.0020539332 -0.26919904
-0.13627861 -0.0019759703 -0.26919919
-0.13627599 -0.0018982235 -0.26918936
-0.13627309 -0.0018183924 -0.26918349
-0.13626996 -0.0017404296 -0.26918364
-0.13626656 -0.0016603824 -0.26918775
-0.13626353 -0.0015824623 -0.2691859
-0.13626054 -0.0015025884 -0.26918203
-0.13625741 -0.0014246255 -0.26918218
-0.13625412 -0.0013446212 -0.26918429
-0.13625091 -0.0012646597 -0.26918441
-0.13624819 -0.001186871 -0.26917657
-0.13624536 -0.0011090375 -0.26917073
-0.13624206 -0.0010290332 -0.26917285
-0.13623893 -0.00095107034 -0.269173
-0.13623592 -0.00087119639 -0.26916912
-0.13623311 -0.00079336297 -0.26916328
-0.13623017 -0.00071548671 -0.26915944
-0.13622658 -0.00063535292 -0.26916754
-0.13622317 -0.00055725873 -0.26917368
-0.13622007 -0.00047734194 -0.2691718
-0.13621715 -0.00039946567 -0.26916796
-0.13621403 -0.00031954888 -0.26916608
-0.13621072 -0.00024149939 -0.26917022
-0.13620752 -0.0001615379 -0.26917034
-0.13620469 -8.370541e-05 -0.2691645
-0.13620169 -3.8295984e-06 -0.26916063
-0.13619867 7.4088573e-05 -0.26915878
-0.13619536 0.00015409291 -0.26916087
-0.13619234 0.00023201294 -0.26915905
-0.13618961 0.00030980259 -0.26915121
-0.13618651 0.00038972031 -0.26914933
-0.13618319 0.0004677698 -0.26915348
-0.13618019 0.00054764375 -0.2691496
-0.13617726 0.00062551908 -0.26914576
-0.13617426 0.00070539396 -0.26914185
-0.13617103 0.00078340061 -0.26914403
-0.13616765 0.00086344872 -0.26914811
-0.13616462 0.00094136782 -0.26914629
-0.13616198 0.0010191128 -0.26913646
-0.13615917 0.001098902 -0.26912859
-0.13615595 0.0011769086 -0.26913074
-0.13615246 0.0012569986 -0.26913685
-0.13614936 0.0013369163 -0.26913494
-0.13614662 0.0014147051 -0.26912713
-0.13614343 0.0014946666 -0.26912722
-0.13614021 0.0015726723 -0.2691294
-0.13613719 0.0016505923 -0.26912755
-0.13613388 0.0017305985 -0.26912963
-0.13613069 0.0018105581 -0.26912975
-0.13612767 0.0018884782 -0.26912791
-0.13612446 0.0019684387 -0.26912802
-0.13612163 0.0020462722 -0.26912218
-0.1361188 0.0021241046 -0.26911637
-0.1361157 0.0022040214 -0.26911446
-0.1361125 0.0022839829 -0.26911458
-0.13610938 0.0023619458 -0.26911473
-0.13610655 0.0024397783 -0.26910889
-0.13610384 0.0025195219 -0.26909903
-0.13610062 0.0025975294 -0.26910117
-0.13609703 0.0026776642 -0.26910928
-0.13609393 0.002757581 -0.2691074
-0.13609099 0.0028354581 -0.26910356
-0.1360877 0.0029154606 -0.26910567
-0.13608392 0.0029956829 -0.26911774
-0.13607976 0.0030780323 -0.26913577
-0.13607615 0.0031562112 -0.26914594
-0.13607351 0.003233958 -0.2691361
-0.13607128 0.0033115298 -0.26911828
-0.13606903 0.0033891033 -0.26910049
-0.1360665 0.0034668054 -0.26908866
-0.13606347 0.0035447255 -0.26908681
-0.13605981 0.0036268588 -0.26909485
-0.13605602 0.0037070792 -0.26910695
-0.1360527 0.0037851296 -0.2691111
-0.1360499 0.003864916 -0.26910323
-0.13604696 0.0039427914 -0.26909938
-0.13604432 0.0040205382 -0.26908955
-0.13604218 0.0040980689 -0.26906973
-0.13603945 0.0041758586 -0.26906189
-0.13603596 0.0042559486 -0.269068
-0.13603266 0.0043359511 -0.26907012
-0.13603023 0.0044136122 -0.26905629
-0.13602759 0.004491359 -0.26904646
-0.13602476 0.0045691915 -0.26904064
-0.13602193 0.004647024 -0.2690348
-0.13601863 0.0047270283 -0.26903689
-0.13601524 0.0048070755 -0.269041
-0.13601279 0.0048847347 -0.26902717
-0.13600987 0.0049626119 -0.26902336
-0.13600601 0.0050448291 -0.2690354
-0.13600327 0.0051226187 -0.26902756
-0.13600141 0.0051980652 -0.26900381
-0.13599858 0.0052758977 -0.26899797
-0.13599479 0.0053561181 -0.26901007
-0.13599102 0.0054382943 -0.26902011
-0.13598773 0.0055182986 -0.26902223
-0.13598479 0.0055961739 -0.26901838
-0.13598141 0.005676223 -0.26902246
-0.13597782 0.0057563577 -0.26903057
-0.13597488 0.0058342312 -0.26902673
-0.13597198 0.0059140641 -0.26902086
-0.13596869 0.0059940685 -0.26902294
-0.13596596 0.0060718581 -0.26901513
-0.13596283 0.006149821 -0.26901528
-0.13595954 0.0062298235 -0.2690174
-0.1359566 0.0063077006 -0.26901355
-0.13595399 0.0063874032 -0.26900169
-0.13595077 0.006465409 -0.26900384
-0.13594672 0.0065477137 -0.26901987
-0.13594322 0.0066278055 -0.26902598
-0.13594019 0.0067057256 -0.26902413
-0.13593748 0.006785471 -0.26901427
-0.13593437 0.006863432 -0.26901442
-0.13593125 0.0069433488 -0.26901254
-0.13592824 0.0070212688 -0.26901069
-0.13592523 0.0071011446 -0.26900682
-0.1359221 0.0071791075 -0.26900697
-0.13591872 0.0072591528 -0.26901105
-0.13591532 0.0073392019 -0.26901516
-0.13591242 0.007419033 -0.26900929
-0.13590929 0.0074969977 -0.26900944
-0.13590609 0.0075769555 -0.26900956
-0.13590316 0.0076548308 -0.26900572
-0.13590007 0.0077347495 -0.26900384
-0.13589706 0.0078146253 -0.26899993
-0.13589413 0.0078925006 -0.26899612
-0.1358913 0.0079703312 -0.26899028
-0.1358881 0.0080502946 -0.2689904
-0.13588461 0.0081303865 -0.26899648
-0.13588178 0.008208219 -0.26899064
-0.13587905 0.0082860067 -0.26898283
-0.13587585 0.0083659682 -0.26898295
-0.13587302 0.0084438007 -0.26897711
-0.13587038 0.0085215475 -0.26896727
-0.13586691 0.0086035933 -0.26897132
-0.13586332 0.0086837262 -0.26897943
-0.13586013 0.0087636895 -0.26897955
-0.13585719 0.0088415649 -0.2689757
-0.1358539 0.0089215711 -0.26897779
-0.1358504 0.0090016592 -0.2689839
-0.13584702 0.0090817083 -0.26898801
-0.13584504 0.0091571957 -0.26896623
-0.13584356 0.009232467 -0.26893449
-0.13584024 0.0093105175 -0.26893863
-0.13583581 0.0093949493 -0.26896062
-0.13583203 0.0094751716 -0.26897272
-0.13582873 0.0095551759 -0.26897484
-0.13582629 0.009632837 -0.26896101
-0.13582385 0.0097104944 -0.26894718
-0.13582093 0.0097883716 -0.26894334
-0.13581763 0.0098683741 -0.26894546
-0.13581404 0.0099485107 -0.26895356
-0.13581064 0.010028558 -0.26895764
-0.13580744 0.010108517 -0.26895776
-0.13580461 0.01018635 -0.26895192
-0.13580142 0.010266313 -0.26895204
-0.13579831 0.010346232 -0.26895016
-0.13579538 0.010424104 -0.26894632
-0.13579199 0.010504153 -0.2689504
-0.13578823 0.010586331 -0.26896048
-0.1357854 0.010664161 -0.26895463
-0.13578296 0.010741821 -0.26894081
-0.13577966 0.010821825 -0.26894289
-0.13577664 0.010899745 -0.26894107
-0.13577411 0.010977449 -0.26892924
-0.13577099 0.011057368 -0.26892737
-0.13576761 0.011137413 -0.26893145
-0.13576458 0.011215333 -0.26892963
-0.13576147 0.011295252 -0.26892772
-0.13575809 0.011375301 -0.26893184
-0.13575497 0.011455216 -0.26892996
-0.13575216 0.011533048 -0.26892412
-0.13574952 0.011610795 -0.26891428
-0.13574612 0.011690844 -0.2689184
-0.13574263 0.011770932 -0.2689245
-0.1357397 0.011848807 -0.26892066
-0.1357365 0.011928771 -0.26892078
-0.13573283 0.012010902 -0.26892883
-0.13572943 0.012090949 -0.26893294
-0.13572681 0.012168696 -0.2689231
-0.13572454 0.012244314 -0.26890731
-0.13572191 0.012322061 -0.26889747
-0.1357187 0.012402022 -0.26889759
-0.13571522 0.012482114 -0.2689037
-0.13571136 0.012564331 -0.26891574
-0.13570842 0.012642208 -0.2689119
-0.13570628 0.012719737 -0.26889211
-0.13570382 0.012795443 -0.26888031
-0.13570052 0.012875449 -0.26888242
-0.13569723 0.01295545 -0.26888454
-0.13569422 0.013035325 -0.26888064
-0.13569093 0.01311533 -0.26888275
-0.13568723 0.013195505 -0.26889285
-0.13568375 0.013275597 -0.26889896
-0.13568111 0.013353344 -0.26888913
-0.13567887 0.013430918 -0.26887131
-0.13567567 0.013510879 -0.26887143
-0.13567132 0.013593312 -0.26889342
-0.13740127 -0.030527841 -0.26955092
-0.13739753 -0.030451572 -0.26956511
-0.13739403 -0.030373435 -0.26957327
-0.13739072 -0.030293429 -0.26957536
-0.1373883 -0.030213814 -0.2695595
-0.13738589 -0.030134203 -0.26954365
-0.13738269 -0.030054241 -0.26954374
-0.13737917 -0.029976103 -0.2695519
-0.13737567 -0.029897967 -0.26956004
-0.13737203 -0.029821742 -0.26957223
-0.13736883 -0.029741783 -0.26957232
-0.13736591 -0.029663906 -0.2695685
-0.1373629 -0.029584032 -0.2695646
-0.13736048 -0.029504417 -0.26954874
-0.13735786 -0.029424716 -0.26953685
-0.13735457 -0.029344713 -0.26953897
-0.13735116 -0.02926662 -0.26954514
-0.13734803 -0.029188657 -0.26954529
-0.13734491 -0.029110692 -0.26954544
-0.1373419 -0.029030818 -0.26954156
-0.137339 -0.028950987 -0.26953566
-0.13733578 -0.028872984 -0.26953781
-0.13733245 -0.028794933 -0.26954198
-0.13732927 -0.02871497 -0.2695421
-0.13732605 -0.028636964 -0.26954424
-0.13732272 -0.028558915 -0.26954839
-0.13731952 -0.028478954 -0.26954851
-0.1373163 -0.028400946 -0.26955065
-0.13731331 -0.028321072 -0.26954678
-0.13731067 -0.028243328 -0.26953694
-0.13730766 -0.028163454 -0.26953307
-0.13730456 -0.028083537 -0.26953119
-0.13730164 -0.02800566 -0.26952732
-0.13729873 -0.027925828 -0.26952147
-0.1372956 -0.027847867 -0.26952162
-0.13729201 -0.027767731 -0.2695297
-0.13728869 -0.02768968 -0.26953387
-0.13728568 -0.027611762 -0.26953202
-0.13728216 -0.027533626 -0.26954016
-0.13727894 -0.027455619 -0.26954234
-0.13727604 -0.027375789 -0.26953644
-0.13727322 -0.027296001 -0.26952857
-0.13727012 -0.027216084 -0.26952666
-0.13726719 -0.027138207 -0.26952285
-0.13726419 -0.027058333 -0.26951894
-0.13726097 -0.026980327 -0.26952112
-0.13725775 -0.02690232 -0.26952326
-0.13725466 -0.026822401 -0.26952136
-0.13725172 -0.026744526 -0.26951754
-0.13724881 -0.026664697 -0.26951164
-0.1372458 -0.026584823 -0.26950777
-0.13724288 -0.026506945 -0.26950392
-0.13723978 -0.026427027 -0.26950204
-0.13723685 -0.026349152 -0.2694982
-0.13723354 -0.026271101 -0.26950234
-0.13723032 -0.026193095 -0.26950452
-0.13722721 -0.026113179 -0.26950264
-0.1372242 -0.026035259 -0.26950079
-0.13722099 -0.025955297 -0.26950088
-0.13721786 -0.025877334 -0.26950106
-0.13721456 -0.025799286 -0.2695052
-0.13721123 -0.025721235 -0.26950935
-0.13720842 -0.025641449 -0.26950148
-0.13720551 -0.025561616 -0.26949561
-0.1372022 -0.025483567 -0.26949975
-0.13719898 -0.025405562 -0.26950189
-0.13719627 -0.025325816 -0.26949203
-0.13719317 -0.025245899 -0.26949012
-0.13718985 -0.025167849 -0.2694943
-0.13718672 -0.025089886 -0.26949444
-0.13718341 -0.025011837 -0.26949859
-0.13718019 -0.02493383 -0.26950073
-0.13717699 -0.02485387 -0.26950085
-0.13717386 -0.024775907 -0.26950103
-0.13717076 -0.024695989 -0.26949912
-0.13716765 -0.024618026 -0.2694993
-0.13716474 -0.024538195 -0.2694934
-0.13716184 -0.024458364 -0.26948753
-0.1371589 -0.024380488 -0.26948369
-0.13715588 -0.024302568 -0.26948184
-0.13715239 -0.024222478 -0.26948795
-0.13714905 -0.024146382 -0.26949415
-0.13714555 -0.024066292 -0.26950026
-0.13714273 -0.023988459 -0.26949441
-0.13714011 -0.023908757 -0.26948255
-0.1371375 -0.023829056 -0.26947066
-0.13713486 -0.023751311 -0.26946083
-0.13713157 -0.023671307 -0.26946294
-0.13712806 -0.023593169 -0.26947108
-0.13712473 -0.02351512 -0.26947522
-0.13712171 -0.023437202 -0.2694734
-0.13711861 -0.023357283 -0.26947153
-0.13711558 -0.023279363 -0.26946968
-0.13711268 -0.023199532 -0.26946378
-0.13710956 -0.023121569 -0.26946396
-0.13710633 -0.023043564 -0.2694661
-0.13710353 -0.022963775 -0.26945823
-0.1371004 -0.022885814 -0.26945838
-0.13709699 -0.022807719 -0.26946452
-0.13709377 -0.022729713 -0.26946667
-0.13709067 -0.022649797 -0.26946479
