# .PCD v0.7 - Point Cloud Data file format
VERSION 0.7
FIELDS x y z
SIZE 4 4 4
TYPE F F F
COUNT 1 1 1
WIDTH 1307
HEIGHT 1
VIEWPOINT 0 0 0 1 0 0 0
POINTS 1307
DATA ascii
0.093765318 -0.08549948 -0.23722425
0.093768403 -0.085419565 -0.23722237
0.093771487 -0.085339651 -0.23722047
0.093774766 -0.085259646 -0.23722257
0.093778126 -0.085177638 -0.23722462
0.093781203 -0.085097723 -0.23722273
0.093784288 -0.0850178 -0.23722084
0.093787469 -0.084937841 -0.23722094
0.093790554 -0.084857926 -0.23721907
0.093793541 -0.084778048 -0.23721516
0.093796529 -0.08469817 -0.23721129
0.09379971 -0.084618211 -0.23721138
0.093802869 -0.084536299 -0.23720944
0.093805782 -0.084458418 -0.23720559
0.09380886 -0.084378503 -0.23720372
0.09381222 -0.084296495 -0.23720577
0.093815207 -0.084216624 -0.23720187
0.093818292 -0.08413671 -0.23719999
0.09382157 -0.084056698 -0.23720208
0.093824647 -0.083976783 -0.2372002
0.093827635 -0.083896905 -0.23719631
0.09383072 -0.08381699 -0.23719442
0.093833879 -0.083735071 -0.23719248
0.093837157 -0.083655067 -0.2371946
0.093840443 -0.083575062 -0.23719668
0.093843624 -0.083495103 -0.2371968
0.093846701 -0.08341518 -0.2371949
0.093849495 -0.083335392 -0.23718703
0.093852386 -0.083255559 -0.23718113
0.093855739 -0.083173558 -0.23718318
0.093858555 -0.083095729 -0.23717734
0.093861245 -0.083015978 -0.23716746
0.093864605 -0.082933977 -0.23716952
0.093867779 -0.082854018 -0.23716962
0.093870573 -0.082774229 -0.23716174
0.09387356 -0.082694352 -0.23715787
0.093876369 -0.082616523 -0.23715201
0.093879633 -0.082534567 -0.23715207
0.093882911 -0.082454562 -0.23715419
0.093885995 -0.08237464 -0.23715228
0.093889073 -0.082294725 -0.2371504
0.093892157 -0.082214803 -0.23714849
0.093895227 -0.082132928 -0.23714457
0.093898207 -0.082053058 -0.23714069
0.093901388 -0.081973091 -0.23714079
0.09390457 -0.081893131 -0.23714089
0.093907751 -0.081813172 -0.237141
0.093910918 -0.081731252 -0.23713905
0.093913995 -0.081651337 -0.23713717
0.093917079 -0.081571415 -0.23713528
0.09391997 -0.08149159 -0.23712939
0.093922682 -0.081413798 -0.23712155
0.093925945 -0.081331834 -0.23712161
0.093929417 -0.081251748 -0.23712771
0.093932867 -0.081169702 -0.23713177
0.09393625 -0.081089646 -0.23713586
0.09393923 -0.081009775 -0.23713198
0.093942024 -0.080929987 -0.23712409
0.093945011 -0.080850109 -0.2371202
0.093948171 -0.080768198 -0.23711826
0.093951255 -0.080688283 -0.23711637
0.093954161 -0.080610402 -0.23711252
0.093957521 -0.080528401 -0.23711458
0.093961164 -0.080446266 -0.23712263
0.093963958 -0.080366477 -0.23711474
0.093966767 -0.080288649 -0.23710892
0.093969658 -0.080208816 -0.23710302
0.093972549 -0.080128983 -0.23709714
0.093975805 -0.080047026 -0.2370972
0.093978889 -0.079967104 -0.2370953
0.093981877 -0.079887226 -0.23709142
0.093984962 -0.079807311 -0.23708953
0.093987949 -0.079727441 -0.23708564
0.093991227 -0.079647437 -0.23708773
0.09399505 -0.07956326 -0.23709774
0.093998134 -0.079483338 -0.23709585
0.094000943 -0.079405509 -0.23709001
0.094004393 -0.079323456 -0.23709406
0.094007581 -0.079243496 -0.23709416
0.094010442 -0.079161711 -0.23708624
0.094013527 -0.079081796 -0.23708433
0.094016805 -0.079001784 -0.23708645
0.09401989 -0.078921869 -0.23708455
0.094022587 -0.078842126 -0.23707467
0.094025478 -0.078762293 -0.23706879
0.094028853 -0.078682244 -0.23707289
0.094032399 -0.078600153 -0.23707893
0.094035387 -0.078520283 -0.23707506
0.094038181 -0.078440495 -0.23706716
0.094041169 -0.078360617 -0.23706327
0.094044425 -0.078278661 -0.23706335
0.094047606 -0.078198701 -0.23706344
0.094050787 -0.078118734 -0.23706356
0.094054237 -0.078036688 -0.23706761
0.094057694 -0.077954642 -0.23707166
0.094060875 -0.077874683 -0.23707175
0.094063863 -0.077794805 -0.23706788
0.094067045 -0.077714846 -0.23706797
0.094069928 -0.077635013 -0.2370621
0.094072916 -0.077555135 -0.23705819
0.094076172 -0.077473179 -0.23705825
0.094079353 -0.077393219 -0.23705837
0.094082534 -0.077313259 -0.23705846
0.094085798 -0.077231295 -0.23705852
0.094088487 -0.077151552 -0.23704864
0.094091102 -0.077073805 -0.23703882
0.094094388 -0.076993801 -0.23704092
0.09409821 -0.076909624 -0.23705092
0.094101682 -0.076829538 -0.237057
0.094104744 -0.076747663 -0.23705307
0.094107732 -0.076667786 -0.23704919
0.094110914 -0.076587826 -0.23704928
0.094114169 -0.07650587 -0.23704934
0.094117351 -0.076425903 -0.23704946
0.094120532 -0.076345943 -0.23704956
0.09412352 -0.076266065 -0.23704568
0.094126113 -0.076186366 -0.23703378
0.094129004 -0.076106533 -0.23702791
0.094132461 -0.076024488 -0.23703197
0.09413591 -0.075942442 -0.23703602
0.094138898 -0.075862572 -0.23703212
0.094141804 -0.075784691 -0.23702829
0.094144769 -0.075702861 -0.23702234
0.094147585 -0.075625032 -0.23701651
0.094150744 -0.075543113 -0.23701458
0.094154201 -0.075461067 -0.23701864
0.09415777 -0.075380929 -0.23702672
0.094160929 -0.07529901 -0.23702478
0.094163641 -0.075221226 -0.23701695
0.094166905 -0.075139269 -0.23701701
0.094170354 -0.075057223 -0.23702106
0.094173245 -0.074977383 -0.23701517
0.094176039 -0.074897602 -0.23700729
0.094179317 -0.074817598 -0.23700939
0.094182864 -0.074735507 -0.23701546
0.094185852 -0.07465563 -0.23701155
0.094188549 -0.074575886 -0.23700167
0.094191335 -0.074496098 -0.23699379
0.09419471 -0.074416049 -0.23699789
0.094198264 -0.074333958 -0.23700394
0.094201155 -0.074254125 -0.23699805
0.094204038 -0.0741743 -0.23699217
0.094207689 -0.074092165 -0.23700023
0.094211437 -0.074009985 -0.23701027
0.094214223 -0.073930196 -0.23700237
0.094217308 -0.073850282 -0.2370005
0.093143389 -0.10148009 -0.2375001
0.093145691 -0.10140052 -0.23748222
0.093148388 -0.10132078 -0.23747236
0.093150884 -0.10124112 -0.23745848
0.093153387 -0.10116147 -0.23744461
0.093156077 -0.10108172 -0.23743472
0.093158893 -0.10100389 -0.23742887
0.093161561 -0.10092219 -0.23741695
0.093164474 -0.10084431 -0.23741311
0.093167365 -0.10076448 -0.23740724
0.093169957 -0.10068478 -0.23739535
0.093172945 -0.10060491 -0.23739147
0.093176126 -0.10052495 -0.23739156
0.093179405 -0.10044494 -0.23739368
0.093182586 -0.10036498 -0.23739377
0.093185671 -0.10028506 -0.23739189
0.093188755 -0.10020514 -0.23738998
0.093192227 -0.10012504 -0.23739609
0.093194939 -0.10004726 -0.23738825
0.093197636 -0.099967517 -0.23737837
0.093201108 -0.099887423 -0.23738447
0.09320458 -0.099807329 -0.23739056
0.093207471 -0.099727497 -0.23738468
0.093210749 -0.099647492 -0.23738678
0.093213536 -0.099567704 -0.2373789
0.093217015 -0.09948761 -0.237385
0.093220487 -0.099407524 -0.23739108
0.093223765 -0.09932752 -0.2373932
0.093226753 -0.099247642 -0.23738931
0.093227804 -0.099170595 -0.23734751
0.093229331 -0.099091373 -0.23731367
0.093232609 -0.099011362 -0.23731577
0.093235306 -0.098931618 -0.23730591
0.093237996 -0.098851874 -0.23729602
0.093242057 -0.09877152 -0.23731411
0.093246698 -0.098690912 -0.23734416
0.093250565 -0.09861064 -0.23735824
0.093254715 -0.098530248 -0.23737833
0.093258873 -0.098449849 -0.2373984
0.0932611 -0.098372281 -0.23738058
0.093261652 -0.098293491 -0.23732677
0.093265027 -0.098213442 -0.23733085
0.093268402 -0.098133393 -0.23733497
0.093270898 -0.098053738 -0.23732108
0.093274765 -0.097973466 -0.23733518
0.093280286 -0.097892463 -0.2373832
0.093283951 -0.09781228 -0.23739329
0.09328489 -0.097733326 -0.23734745
0.09328644 -0.097656056 -0.23731567
0.093289912 -0.097575963 -0.23732176
0.093292803 -0.09749613 -0.23731588
0.093295299 -0.097416475 -0.23730201
0.093298189 -0.097336642 -0.2372961
0.093301468 -0.097256638 -0.23729822
0.093304649 -0.097176678 -0.23729832
0.093307734 -0.097096756 -0.23729643
0.093310542 -0.097018927 -0.23729059
0.093313798 -0.096936963 -0.23729065
0.093317956 -0.096856572 -0.23731074
0.09332221 -0.096776128 -0.23733281
0.093325973 -0.096695907 -0.23734489
0.09332896 -0.09661603 -0.237341
0.093330897 -0.096538588 -0.2373172
0.093332909 -0.09645915 -0.23729333
0.09333609 -0.096379191 -0.23729344
0.093339369 -0.096299186 -0.23729554
0.093342938 -0.096219048 -0.23730364
0.093345925 -0.09613917 -0.23729974
0.093349107 -0.096059211 -0.23729986
0.093352012 -0.095981337 -0.23729602
0.093355179 -0.095899418 -0.23729406
0.093359038 -0.095819153 -0.23730814
0.093362413 -0.095739104 -0.23731226
0.093364932 -0.095661402 -0.23730043
0.093367532 -0.095581703 -0.23728855
0.093370616 -0.095501781 -0.23728666
0.093373895 -0.095421776 -0.23728876
0.09337756 -0.0953416 -0.23729885
0.093380548 -0.095261723 -0.23729497
0.093383044 -0.095182069 -0.23728108
0.093385741 -0.095102325 -0.2372712
0.093388729 -0.095022447 -0.23726732
0.093392104 -0.094942398 -0.23727141
0.093395673 -0.094862267 -0.2372795
0.09339878 -0.094784297 -0.23727965
0.093401939 -0.094702385 -0.23727772
0.093405142 -0.094624378 -0.23727988
0.093407735 -0.094544679 -0.237268
0.093410626 -0.094464846 -0.23726211
0.093414292 -0.094384663 -0.2372722
0.093417667 -0.094304614 -0.2372763
0.093420751 -0.094224699 -0.23727441
0.093423642 -0.094144866 -0.23726852
0.09342663 -0.094064996 -0.23726463
0.093429908 -0.093984984 -0.23726673
0.093432799 -0.093905158 -0.23726085
0.093435392 -0.093825459 -0.23724897
0.093438573 -0.093745492 -0.23724908
0.093442045 -0.093665399 -0.23725517
0.093445517 -0.093585312 -0.23726127
0.093448892 -0.093505263 -0.23726538
0.093452081 -0.093425296 -0.23726547
0.093455255 -0.093345337 -0.23726559
0.09345834 -0.093265422 -0.23726368
0.093461722 -0.093185373 -0.23726779
0.093464896 -0.093105406 -0.2372679
0.093467616 -0.093027622 -0.23726007
0.093470499 -0.092947789 -0.23725417
0.09347368 -0.092867829 -0.23725428
0.09347716 -0.092787735 -0.23726037
0.093480416 -0.092705771 -0.23726043
0.093483418 -0.092627853 -0.23725858
0.093486682 -0.092545897 -0.23725864
0.093489684 -0.092467979 -0.23725681
0.093492381 -0.092388228 -0.23724693
0.093495369 -0.092308357 -0.23724304
0.093498744 -0.092228308 -0.23724714
0.093501925 -0.092148349 -0.23724723
0.093505107 -0.092068382 -0.23724735
0.093508676 -0.091988251 -0.23725544
0.093512326 -0.091906115 -0.23726349
0.093515605 -0.091826111 -0.23726559
0.093519077 -0.091746017 -0.2372717
0.093522355 -0.091666013 -0.23727378
0.093525536 -0.091586053 -0.2372739
0.093528718 -0.091506086 -0.23727401
0.093531899 -0.091426127 -0.23727411
0.093535177 -0.091346122 -0.23727621
0.093538165 -0.091266245 -0.23727232
0.093541145 -0.091186374 -0.23726843
0.093544431 -0.09110637 -0.23727053
0.093547508 -0.091026448 -0.23726864
0.093550593 -0.090946533 -0.23726675
0.093553774 -0.090866566 -0.23726685
0.093557149 -0.090786517 -0.23727095
0.093560725 -0.090706386 -0.23727906
0.093564369 -0.09062425 -0.2372871
0.09356755 -0.090544291 -0.23728719
0.093570635 -0.090464368 -0.23728532
0.093573816 -0.090384409 -0.23728542
0.093576804 -0.090304539 -0.23728153
0.093580082 -0.090224527 -0.23728362
0.093583651 -0.090144396 -0.23729172
0.093587026 -0.090064347 -0.23729582
0.093590207 -0.089984387 -0.23729593
0.093593098 -0.089904554 -0.23729004
0.093595698 -0.089824855 -0.23727816
0.093598776 -0.089744933 -0.23727627
0.093601957 -0.089664973 -0.23727638
0.093605138 -0.089585014 -0.23727649
0.093608618 -0.08950492 -0.23728257
0.093611896 -0.089424916 -0.23728469
0.093614683 -0.089345127 -0.23727679
0.09361738 -0.089265384 -0.23726693
0.09362027 -0.089185551 -0.23726103
0.093623549 -0.089105546 -0.23726314
0.093627118 -0.089025408 -0.23727122
0.093630672 -0.088943318 -0.23727728
0.093633652 -0.088863447 -0.2372734
0.093636833 -0.08878348 -0.2372735
0.093639918 -0.088703565 -0.23727161
0.093643002 -0.088623643 -0.23726973
0.09364599 -0.088543773 -0.23726583
0.093649074 -0.08846385 -0.23726393
0.093652055 -0.08838398 -0.23726004
0.093654655 -0.088304281 -0.23724815
0.093658127 -0.088224187 -0.23725426
0.093661971 -0.088141963 -0.2372663
0.093664974 -0.088064045 -0.23726445
0.093668163 -0.087984085 -0.23726457
0.093671612 -0.087902039 -0.23726863
0.093674891 -0.087822035 -0.23727071
0.093677878 -0.087742157 -0.23726682
0.093680963 -0.087662235 -0.23726493
0.093684047 -0.08758232 -0.23726304
0.093686834 -0.087502532 -0.23725516
0.093689725 -0.087422699 -0.23724928
0.093693003 -0.087342694 -0.23725137
0.093696184 -0.087262735 -0.23725149
0.093699075 -0.087182902 -0.2372456
0.093702056 -0.087103032 -0.23724172
0.093705334 -0.08702302 -0.2372438
0.093708321 -0.08694315 -0.23723993
0.093711115 -0.086863361 -0.23723203
0.093714297 -0.086783402 -0.23723215
0.093717866 -0.086703263 -0.23724025
0.093721144 -0.086623259 -0.23724234
0.093723744 -0.08654356 -0.23723048
0.093726926 -0.0864636 -0.23723057
0.093730666 -0.08638142 -0.23724061
0.093734041 -0.086301371 -0.23724473
0.093737222 -0.086221412 -0.23724481
0.093739919 -0.086141661 -0.23723495
0.09374281 -0.086061835 -0.23722905
0.093745992 -0.085981876 -0.23722917
0.093749441 -0.08589983 -0.23723322
0.093752526 -0.085819907 -0.23723131
0.093755513 -0.08574003 -0.23722744
0.093758501 -0.08566016 -0.23722354
0.093761578 -0.085580245 -0.23722166
0.09376476 -0.085500278 -0.23722175
0.093767941 -0.085420318 -0.23722187
0.093771122 -0.085340351 -0.23722197
0.093774304 -0.085260391 -0.23722208
0.093777664 -0.08517839 -0.23722413
0.093780749 -0.085098475 -0.23722224
0.093783826 -0.085018553 -0.23722035
0.093787014 -0.084938593 -0.23722047
0.093790092 -0.084858671 -0.23721856
0.093792982 -0.084778845 -0.23721267
0.093796067 -0.084698923 -0.23721078
0.093799248 -0.084618963 -0.23721088
0.093802407 -0.084537044 -0.23720895
0.093805321 -0.084459171 -0.2372051
0.093808398 -0.084379256 -0.23720321
0.093811661 -0.084297292 -0.23720327
0.093814746 -0.084217377 -0.23720138
0.09381783 -0.084137455 -0.23719949
0.093821011 -0.084057495 -0.2371996
0.093824089 -0.08397758 -0.23719771
0.093827173 -0.083897658 -0.23719582
0.093830258 -0.083817743 -0.23719393
0.093833245 -0.083737865 -0.23719004
0.093836598 -0.083655864 -0.23719209
0.093839876 -0.08357586 -0.23719418
0.093843155 -0.083495855 -0.2371963
0.093846239 -0.083415933 -0.2371944
0.093848936 -0.083336189 -0.23718452
0.093851924 -0.083256312 -0.23718064
0.093855277 -0.083174311 -0.23718269
0.093857989 -0.083096519 -0.23717484
0.093860783 -0.083016738 -0.23716697
0.093864135 -0.08293473 -0.23716903
0.093867317 -0.08285477 -0.23716912
0.093870111 -0.082774982 -0.23716125
0.093873098 -0.082695112 -0.23715736
0.093875907 -0.082617275 -0.23715152
0.093879066 -0.082535356 -0.23714958
0.093882345 -0.082455352 -0.23715168
0.093885526 -0.082375392 -0.23715179
0.093888514 -0.082295522 -0.2371479
0.093891598 -0.0822156 -0.23714601
0.093894757 -0.082133681 -0.23714407
0.093897745 -0.08205381 -0.23714018
0.09390083 -0.081973888 -0.23713829
0.093904108 -0.081893884 -0.23714039
0.093907192 -0.081813969 -0.23713849
0.093910448 -0.081732005 -0.23713855
0.093913361 -0.081654131 -0.23713471
0.09391652 -0.081572212 -0.23713277
0.093919411 -0.081492379 -0.23712689
0.09392222 -0.081414551 -0.23712105
0.093925476 -0.081332594 -0.23712111
0.093928948 -0.0812525 -0.23712721
0.093932405 -0.081170455 -0.23713127
0.093935683 -0.08109045 -0.23713335
0.093938671 -0.081010573 -0.23712948
0.093941554 -0.08093074 -0.23712358
0.093944542 -0.080850869 -0.2371197
0.093947627 -0.080770947 -0.2371178
0.093950786 -0.080689028 -0.23711586
0.093953699 -0.080611154 -0.23711202
0.093957052 -0.080529153 -0.23711407
0.093960524 -0.08044906 -0.23712018
0.093963489 -0.08036723 -0.23711425
0.093966208 -0.080289438 -0.23710641
0.093969196 -0.080209568 -0.23710251
0.093972079 -0.080129735 -0.23709664
0.093975343 -0.080047771 -0.2370967
0.09397842 -0.079967856 -0.23709479
0.093981408 -0.079887986 -0.23709092
0.093984395 -0.079808109 -0.23708701
0.093987383 -0.079728231 -0.23708314
0.093990661 -0.079648226 -0.23708524
0.09399458 -0.079564005 -0.23709723
0.093997665 -0.07948409 -0.23709534
0.094000377 -0.079406306 -0.2370875
0.094003931 -0.079324208 -0.23709354
0.094007112 -0.079244249 -0.23709366
0.094009981 -0.079162464 -0.23708573
0.094013065 -0.079082549 -0.23708382
0.094016343 -0.079002544 -0.23708594
0.094019227 -0.078922711 -0.23708004
0.094022118 -0.078842878 -0.23707417
0.094025008 -0.078763045 -0.23706828
0.094028287 -0.078683041 -0.23707038
0.094031841 -0.078600951 -0.23707643
0.094034918 -0.078521036 -0.23707454
0.094037615 -0.078441292 -0.23706466
0.094040602 -0.078361414 -0.23706077
0.094043955 -0.078279413 -0.23706284
0.09404704 -0.078199491 -0.23706093
0.094050318 -0.078119487 -0.23706305
0.094053768 -0.078037441 -0.2370671
0.094057128 -0.07795544 -0.23706914
0.094060309 -0.07787548 -0.23706925
0.094063394 -0.077795558 -0.23706734
0.094066575 -0.077715598 -0.23706746
0.094069459 -0.077635765 -0.23706159
0.094072349 -0.07755594 -0.23705569
0.09407571 -0.077473931 -0.23705775
0.094078884 -0.077393971 -0.23705785
0.094082065 -0.077314004 -0.23705795
0.094085231 -0.077232093 -0.23705602
0.094087847 -0.077154346 -0.23704618
0.094090536 -0.077074602 -0.2370363
0.094093814 -0.076994598 -0.2370384
0.094097741 -0.076910377 -0.23705041
0.094101116 -0.076830328 -0.2370545
0.094104275 -0.076748416 -0.23705256
0.094107263 -0.076668538 -0.23704867
0.094110347 -0.076588623 -0.23704678
0.094113529 -0.076508656 -0.2370469
0.094116785 -0.0764267 -0.23704694
0.094119966 -0.07634674 -0.23704705
0.094122954 -0.076266862 -0.23704317
0.094125547 -0.076187164 -0.23703128
0.094128534 -0.076107286 -0.23702739
0.094131984 -0.07602524 -0.23703146
0.094135366 -0.075945191 -0.23703554
0.094138347 -0.075865313 -0.23703167
0.094141237 -0.075785488 -0.23702577
0.0941443 -0.075703613 -0.23702183
0.094147012 -0.075625822 -0.237014
0.094150178 -0.07554391 -0.23701206
0.09415365 -0.075463817 -0.23701817
0.094157204 -0.075381726 -0.23702422
0.094160266 -0.075299852 -0.23702027
0.094163075 -0.075222023 -0.23701444
0.094166331 -0.075140059 -0.2370145
0.094169885 -0.075057968 -0.23702054
0.094172694 -0.07498014 -0.23701471
0.094175391 -0.074900389 -0.23700482
0.094178841 -0.074818343 -0.23700887
0.094182298 -0.074736297 -0.23701292
0.094185382 -0.074656382 -0.23701105
0.094188072 -0.074576639 -0.23700115
0.094190687 -0.074498892 -0.23699132
0.094194144 -0.074416846 -0.23699537
0.094197795 -0.074334711 -0.23700342
0.094200678 -0.074254878 -0.23699754
0.094203569 -0.074175052 -0.23699164
0.09420722 -0.074092917 -0.23699971
0.094210766 -0.074010827 -0.23700574
0.094213657 -0.073930994 -0.23699985
0.094216742 -0.073851079 -0.23699796
0.093144171 -0.10148082 -0.2374941
0.093146667 -0.10140117 -0.23748022
0.093149461 -0.10132138 -0.23747234
0.093151957 -0.10124172 -0.23745847
0.093154557 -0.10116202 -0.23744658
0.093157247 -0.10108227 -0.23743671
0.093160063 -0.10100444 -0.23743087
0.093162633 -0.10092279 -0.23741695
0.093165547 -0.1008449 -0.23741311
0.093168437 -0.10076508 -0.23740722
0.09317103 -0.10068537 -0.23739535
0.093174018 -0.1006055 -0.23739146
0.093177296 -0.1005255 -0.23739356
0.093180574 -0.10044549 -0.23739566
0.093183756 -0.10036553 -0.23739576
0.09318684 -0.10028561 -0.23739387
0.093189925 -0.10020569 -0.23739198
0.093193397 -0.1001256 -0.23739809
0.093196109 -0.10004781 -0.23739025
0.093198612 -0.09996815 -0.23737636
0.093202181 -0.099888019 -0.23738447
0.093205653 -0.099807926 -0.23739056
0.093208544 -0.099728093 -0.23738468
0.093212016 -0.099647999 -0.23739077
0.09321481 -0.099568218 -0.23738289
0.093218088 -0.099488206 -0.23738499
0.093221657 -0.099408075 -0.23739308
0.093224935 -0.099328071 -0.2373952
0.093227923 -0.099248193 -0.23739129
0.093228884 -0.099171184 -0.23734751
0.093230501 -0.099091925 -0.23731567
0.093233779 -0.099011913 -0.23731777
0.093236379 -0.098932214 -0.23730589
0.093239069 -0.098852471 -0.23729602
0.093243226 -0.098772079 -0.23731609
0.093247876 -0.098691463 -0.23734614
0.093251735 -0.098611191 -0.23736024
0.093255892 -0.098530799 -0.23738033
0.093259953 -0.098450445 -0.23739839
0.093262084 -0.098372914 -0.23737857
0.093262725 -0.098294087 -0.23732676
0.093266204 -0.098213993 -0.23733285
0.093269482 -0.098133989 -0.23733497
0.093272075 -0.09805429 -0.23732308
0.093275942 -0.097974025 -0.23733716
0.093281463 -0.097893015 -0.2373852
0.093285128 -0.097812839 -0.23739529
0.093286067 -0.097733878 -0.23734947
0.093287513 -0.097656652 -0.23731565
0.093290992 -0.097576559 -0.23732176
0.093293779 -0.09749677 -0.23731387
0.093296379 -0.097417071 -0.23730201
0.093299262 -0.097337238 -0.2372961
0.093302548 -0.097257234 -0.23729822
0.093305826 -0.09717723 -0.23730032
0.093308806 -0.097097352 -0.23729643
0.093311623 -0.097019523 -0.23729059
0.093314879 -0.09693756 -0.23729065
0.093319036 -0.096857168 -0.23731072
0.093323387 -0.096776679 -0.23733479
0.093327053 -0.096696503 -0.23734489
0.093330137 -0.096616581 -0.23734298
0.093332075 -0.09653914 -0.23731917
0.093334086 -0.096459702 -0.23729533
0.093337171 -0.096379787 -0.23729344
0.093340546 -0.096299738 -0.23729753
0.093344018 -0.096219644 -0.23730363
0.093347006 -0.096139766 -0.23729974
0.093350187 -0.096059807 -0.23729986
0.09335319 -0.095981888 -0.23729801
0.093356259 -0.095900014 -0.23729406
0.093360119 -0.095819749 -0.23730814
0.093363494 -0.0957397 -0.23731226
0.093366012 -0.095661998 -0.23730043
0.093368612 -0.095582299 -0.23728855
0.093371794 -0.095502332 -0.23728865
0.093375072 -0.095422328 -0.23729075
0.093378641 -0.095342197 -0.23729885
0.093381628 -0.095262319 -0.23729496
0.093384132 -0.095182665 -0.23728108
0.093386821 -0.095102921 -0.23727119
0.093389809 -0.095023043 -0.23726732
0.093393184 -0.094942994 -0.23727141
0.093396753 -0.094862856 -0.2372795
0.09339986 -0.094784893 -0.23727965
0.093403019 -0.094702981 -0.23727772
0.09340632 -0.094624929 -0.23728186
0.093408823 -0.094545275 -0.237268
0.093411706 -0.094465442 -0.23726211
0.09341538 -0.094385259 -0.2372722
0.093418755 -0.09430521 -0.2372763
0.093421936 -0.09422525 -0.23727641
0.093424723 -0.094145462 -0.23726852
0.093427807 -0.094065547 -0.23726663
0.093430988 -0.09398558 -0.23726673
0.093433879 -0.093905754 -0.23726085
0.093436576 -0.093826011 -0.23725097
0.093439758 -0.093746044 -0.23725107
0.093443133 -0.093665995 -0.23725519
0.093446605 -0.093585908 -0.23726127
0.09344998 -0.093505859 -0.23726538
0.093453258 -0.093425855 -0.23726746
0.09345644 -0.093345888 -0.23726758
0.093459524 -0.093265973 -0.23726569
0.093462802 -0.093185969 -0.23726779
0.093466081 -0.093105957 -0.23726988
0.093468793 -0.093028173 -0.23726206
0.093471587 -0.092948385 -0.23725417
0.093474768 -0.092868425 -0.23725428
0.093478337 -0.092788287 -0.23726237
0.0934816 -0.09270633 -0.23726243
0.093484506 -0.092628449 -0.23725858
0.093487769 -0.092546493 -0.23725864
0.093490772 -0.092468575 -0.23725681
0.093493566 -0.092388779 -0.23724893
0.093496554 -0.092308909 -0.23724502
0.093499832 -0.092228904 -0.23724714
0.093503013 -0.092148945 -0.23724723
0.093506195 -0.092068978 -0.23724735
0.09350986 -0.091988802 -0.23725744
0.093513414 -0.091906711 -0.23726349
0.093516789 -0.091826662 -0.23726758
0.093520164 -0.091746613 -0.2372717
0.09352354 -0.091666564 -0.23727578
0.093526624 -0.091586649 -0.2372739
0.093529806 -0.091506682 -0.23727401
0.093532987 -0.091426723 -0.23727411
0.093536265 -0.091346718 -0.23727621
0.093539253 -0.091266841 -0.23727232
0.093542241 -0.09118697 -0.23726843
0.093545519 -0.091106966 -0.23727053
0.093548603 -0.091027044 -0.23726864
0.09355168 -0.090947129 -0.23726675
0.093554862 -0.090867162 -0.23726687
0.093558244 -0.090787113 -0.23727097
0.093561813 -0.090706982 -0.23727906
0.093565464 -0.090624847 -0.2372871
0.093568645 -0.090544887 -0.23728719
0.093571827 -0.09046492 -0.23728731
0.093574911 -0.090385005 -0.23728542
0.093577988 -0.09030509 -0.23728353
0.093581274 -0.090225086 -0.23728563
0.093584746 -0.090144992 -0.23729172
0.093588121 -0.090064943 -0.23729584
0.093591303 -0.089984983 -0.23729593
0.093594193 -0.08990515 -0.23729005
0.093596883 -0.089825407 -0.23728016
0.093599871 -0.089745529 -0.23727629
0.093603052 -0.089665569 -0.23727638
0.093606234 -0.08958561 -0.23727649
0.093609802 -0.089505471 -0.23728457
0.093613081 -0.089425467 -0.23728669
0.093615949 -0.089343682 -0.23727876
0.093618572 -0.089265935 -0.23726892
0.093621455 -0.089186102 -0.23726304
0.093624637 -0.089106143 -0.23726314
0.09362831 -0.089025959 -0.23727323
0.093631759 -0.088943914 -0.2372773
0.093634747 -0.088864043 -0.2372734
0.093637928 -0.088784084 -0.23727351
0.093641013 -0.088704161 -0.23727161
0.093644097 -0.088624239 -0.23726973
0.093647078 -0.088544369 -0.23726583
0.093650267 -0.088464409 -0.23726594
0.093653247 -0.088384531 -0.23726204
0.093655847 -0.088304833 -0.23725016
0.093659319 -0.088224739 -0.23725627
0.093663067 -0.088142559 -0.2372663
0.093666069 -0.088064641 -0.23726445
0.093669347 -0.087984636 -0.23726657
0.093672805 -0.087902591 -0.23727062
0.093675986 -0.087822631 -0.23727073
0.09367907 -0.087742709 -0.23726884
0.093682058 -0.087662831 -0.23726495
0.09368524 -0.087582871 -0.23726505
0.093687929 -0.087503128 -0.23725517
0.09369082 -0.087423295 -0.23724928
0.093694098 -0.08734329 -0.23725139
0.09369728 -0.087263331 -0.23725149
0.093700171 -0.087183498 -0.23724562
0.093703255 -0.087103583 -0.23724371
0.093706533 -0.087023579 -0.23724583
0.093709417 -0.086943746 -0.23723993
0.093712308 -0.086863913 -0.23723406
0.093715392 -0.086783998 -0.23723215
0.093719058 -0.086703822 -0.23724225
0.093722336 -0.08662381 -0.23724434
0.093724839 -0.086544156 -0.23723048
0.093728118 -0.086464152 -0.23723258
0.093731768 -0.086382017 -0.23724061
0.09373524 -0.086301923 -0.23724672
0.093738325 -0.086222008 -0.23724483
0.093741111 -0.08614222 -0.23723695
0.093743905 -0.086062431 -0.23722906
0.093747087 -0.085982472 -0.23722917
0.093750536 -0.085900426 -0.23723322
0.093753621 -0.085820504 -0.23723134
0.093756609 -0.085740626 -0.23722744
0.093759596 -0.085660756 -0.23722355
0.093762681 -0.085580833 -0.23722166
0.093765862 -0.085500874 -0.23722176
0.093769044 -0.085420914 -0.23722187
0.093772128 -0.085340992 -0.23721999
0.093775406 -0.085260987 -0.23722208
0.093778759 -0.085178986 -0.23722413
0.093781844 -0.085099071 -0.23722225
0.093784928 -0.085019149 -0.23722035
0.09378811 -0.084939189 -0.23722047
0.093791194 -0.084859274 -0.23721857
0.093794085 -0.084779441 -0.23721269
0.09379717 -0.084699519 -0.23721078
0.093800351 -0.084619559 -0.2372109
0.09380351 -0.08453764 -0.23720896
0.093806416 -0.084459767 -0.23720512
0.0938095 -0.084379852 -0.23720323
0.093812861 -0.084297851 -0.23720528
0.093815841 -0.084217973 -0.23720139
0.093818925 -0.084138051 -0.2371995
0.093822204 -0.084058046 -0.2372016
0.093825288 -0.083978131 -0.23719971
0.093828276 -0.083898254 -0.23719582
0.09383136 -0.083818339 -0.23719394
0.093834348 -0.083738461 -0.23719004
0.093837701 -0.08365646 -0.23719209
0.093840979 -0.083576456 -0.23719421
0.093844257 -0.083496451 -0.2371963
0.093847342 -0.083416529 -0.23719442
0.093850039 -0.083336785 -0.23718452
0.093853027 -0.083256915 -0.23718065
0.093856379 -0.083174907 -0.23718271
0.093859091 -0.083097115 -0.23717487
0.093861885 -0.083017334 -0.23716697
0.093865238 -0.082935333 -0.23716903
0.09386842 -0.082855366 -0.23716915
0.093871213 -0.082775578 -0.23716125
0.093874201 -0.082695708 -0.23715737
0.09387701 -0.082617871 -0.23715153
0.093880177 -0.082535952 -0.2371496
0.093883455 -0.082455948 -0.2371517
0.093886629 -0.082375988 -0.2371518
0.093889616 -0.082296118 -0.23714791
0.093892798 -0.082216151 -0.23714802
0.093895867 -0.082134277 -0.23714408
0.093898848 -0.082054406 -0.23714018
0.093901932 -0.081974484 -0.2371383
0.09390521 -0.08189448 -0.2371404
0.093908392 -0.08181452 -0.23714051
0.093911558 -0.081732601 -0.23713857
0.093914464 -0.081654727 -0.23713472
0.09391772 -0.081572771 -0.23713478
0.093920611 -0.081492938 -0.23712891
0.093923323 -0.081415147 -0.23712106
0.093926586 -0.08133319 -0.23712112
0.093930058 -0.081253096 -0.23712721
0.093933508 -0.081171051 -0.23713127
0.093936786 -0.081091046 -0.23713338
0.093939774 -0.081011169 -0.23712948
0.093942665 -0.080931336 -0.23712359
0.093945652 -0.080851465 -0.2371197
0.093948811 -0.080769546 -0.23711777
0.093951896 -0.080689624 -0.23711587
0.093954802 -0.08061175 -0.23711205
0.093958162 -0.080529749 -0.23711409
0.093961805 -0.080447614 -0.23712215
0.093964599 -0.080367826 -0.23711425
0.093967408 -0.08028999 -0.23710841
0.093970299 -0.080210164 -0.23710254
0.09397319 -0.080130331 -0.23709665
0.093976445 -0.080048375 -0.2370967
0.09397953 -0.079968452 -0.23709482
0.093982518 -0.079888582 -0.23709093
0.093985505 -0.079808705 -0.23708704
0.093988493 -0.079728827 -0.23708314
0.093991868 -0.079648785 -0.23708725
0.09399569 -0.079564609 -0.23709725
0.093998775 -0.079484686 -0.23709536
0.094001584 -0.079406857 -0.23708951
0.094005041 -0.079324812 -0.23709357
0.094008125 -0.079244889 -0.23709168
0.094011091 -0.07916306 -0.23708573
0.094014168 -0.079083145 -0.23708385
0.094017453 -0.07900314 -0.23708595
0.094020531 -0.078923218 -0.23708406
0.094023228 -0.078843474 -0.23707417
0.094026119 -0.078763641 -0.2370683
0.094029494 -0.078683592 -0.23707241
0.094032943 -0.078601547 -0.23707645
0.094036028 -0.078521632 -0.23707455
0.094038725 -0.078441888 -0.23706467
0.094041713 -0.07836201 -0.23706079
0.094045065 -0.078280009 -0.23706284
0.09404815 -0.078200087 -0.23706096
0.094051428 -0.078120083 -0.23706305
0.094054885 -0.078038037 -0.2370671
0.094058238 -0.077956036 -0.23706916
0.094061419 -0.077876076 -0.23706926
0.094064504 -0.077796154 -0.23706737
0.094067685 -0.077716194 -0.23706749
0.094070576 -0.077636361 -0.23706159
0.09407346 -0.077556536 -0.23705572
0.09407682 -0.077474535 -0.23705778
0.094080001 -0.077394567 -0.23705786
0.094083183 -0.077314608 -0.23705798
0.094086342 -0.077232689 -0.23705605
0.094088957 -0.077154942 -0.23704621
0.094091751 -0.077075154 -0.23703831
0.094095029 -0.076995149 -0.23704043
0.094098851 -0.076910973 -0.23705041
0.094102226 -0.076830924 -0.23705453
0.094105385 -0.076749012 -0.23705259
0.094108373 -0.076669134 -0.23704869
0.094111554 -0.076589175 -0.2370488
0.094114639 -0.076509252 -0.2370469
0.094117895 -0.076427296 -0.23704696
0.094121076 -0.076347336 -0.23704708
0.094124161 -0.076267414 -0.23704517
0.094126664 -0.07618776 -0.23703131
0.094129547 -0.076107927 -0.23702541
0.094133101 -0.076025836 -0.23703147
0.094136551 -0.07594379 -0.23703551
0.094139539 -0.075863913 -0.23703164
0.094142355 -0.075786084 -0.2370258
0.094145417 -0.07570421 -0.23702186
0.094148226 -0.075626373 -0.23701602
0.094151393 -0.075544462 -0.23701409
0.094154842 -0.075462416 -0.23701814
0.094158314 -0.075382322 -0.23702422
0.094161481 -0.07530041 -0.23702228
0.094164193 -0.075222619 -0.23701444
0.094167545 -0.07514061 -0.2370165
0.094171003 -0.075058565 -0.23702055
0.094173811 -0.074980736 -0.23701471
0.094176508 -0.074900992 -0.23700485
0.094179958 -0.074818946 -0.2370089
0.094183415 -0.074736893 -0.23701295
0.0941865 -0.074656978 -0.23701105
0.094189189 -0.074577235 -0.23700118
0.094191983 -0.074497446 -0.23699328
0.094195358 -0.074417397 -0.2369974
0.094198912 -0.074335307 -0.23700345
0.094201796 -0.074255474 -0.23699754
0.094204687 -0.074175641 -0.23699167
0.094208337 -0.074093513 -0.23699972
0.094211981 -0.074011378 -0.23700777
0.094214775 -0.07393159 -0.23699987
0.094217859 -0.073851675 -0.23699799
0.093144633 -0.10148153 -0.23748846
0.093147419 -0.10140175 -0.23748058
0.093150213 -0.10132196 -0.2374727
0.093152709 -0.1012423 -0.23745883
0.09315531 -0.1011626 -0.23744693
0.093157999 -0.10108285 -0.23743707
0.093160816 -0.10100502 -0.23743123
0.093163386 -0.10092337 -0.23741731
0.093166202 -0.10084553 -0.23741147
0.09316919 -0.10076566 -0.23740758
0.09317188 -0.10068592 -0.2373977
0.093174867 -0.10060604 -0.23739381
0.093178146 -0.10052603 -0.23739591
0.093181327 -0.10044608 -0.23739602
0.093184508 -0.10036611 -0.23739612
0.093187593 -0.10028619 -0.23739423
0.093190774 -0.10020623 -0.23739433
0.093194246 -0.10012614 -0.23740044
0.093196869 -0.10004839 -0.23739061
0.093199462 -0.099968694 -0.23737873
0.093202934 -0.0998886 -0.23738483
0.093206406 -0.099808507 -0.23739092
0.09320949 -0.099728592 -0.23738903
0.093212873 -0.099648543 -0.23739311
0.093215562 -0.099568799 -0.23738325
0.093218938 -0.09948875 -0.23738734
0.093222409 -0.099408656 -0.23739344
0.093225792 -0.099328607 -0.23739755
0.093228772 -0.09924873 -0.23739365
0.093229733 -0.099171728 -0.23734987
0.093231261 -0.099092506 -0.23731603
0.093234539 -0.099012502 -0.23731813
0.093237132 -0.098932795 -0.23730625
0.093239829 -0.098853052 -0.23729637
0.093243986 -0.09877266 -0.23731644
0.093248628 -0.098692045 -0.2373465
0.093252592 -0.098611735 -0.23736259
0.093256749 -0.098531336 -0.23738267
0.093260705 -0.098451026 -0.23739874
0.093262836 -0.098373495 -0.23737893
0.093263485 -0.098294668 -0.23732711
0.093266957 -0.098214574 -0.23733321
0.093270332 -0.098134525 -0.23733731
0.093272932 -0.098054826 -0.23732543
0.093276791 -0.097974561 -0.23733951
0.093282312 -0.097893551 -0.23738755
0.093285888 -0.09781342 -0.23739564
0.093286827 -0.097734459 -0.23734982
0.093288369 -0.097657189 -0.23731801
0.093291745 -0.09757714 -0.23732212
0.093294635 -0.097497307 -0.23731622
0.093297228 -0.097417608 -0.23730436
0.093300022 -0.09733782 -0.23729646
0.093303397 -0.097257771 -0.23730057
0.093306579 -0.097177811 -0.23730068
0.093309663 -0.097097896 -0.23729879
0.093312576 -0.097020015 -0.23729494
0.093315832 -0.096938059 -0.237295
0.093319893 -0.096857704 -0.23731308
0.093324147 -0.09677726 -0.23733515
0.093327813 -0.096697085 -0.23734525
0.093330897 -0.096617162 -0.23734336
0.093332827 -0.096539721 -0.23731953
0.093334943 -0.096460238 -0.23729768
0.09333802 -0.096380323 -0.23729578
0.093341403 -0.096300274 -0.23729989
0.093344875 -0.09622018 -0.237306
0.093347766 -0.096140355 -0.2373001
0.093351044 -0.096060343 -0.23730221
0.093354128 -0.095980428 -0.23730031
0.093357213 -0.095900506 -0.23729843
0.093360879 -0.09582033 -0.2373085
0.09336435 -0.095740236 -0.23731461
0.093366869 -0.095662534 -0.23730278
0.093369566 -0.095582791 -0.2372929
0.093372554 -0.095502913 -0.23728901
0.093375929 -0.095422864 -0.23729309
0.093379401 -0.095342778 -0.2372992
0.093382388 -0.0952629 -0.23729531
0.093384981 -0.095183201 -0.23728344
0.093387678 -0.095103458 -0.23727356
0.093390666 -0.09502358 -0.23726967
0.093394041 -0.094943531 -0.23727378
0.09339761 -0.0948634 -0.23728186
0.093400717 -0.094785437 -0.23728201
0.093403876 -0.094703518 -0.23728007
0.093407251 -0.094623469 -0.23728418
0.093409672 -0.094545811 -0.23727036
0.093412563 -0.094465978 -0.23726447
0.093416139 -0.09438584 -0.23727256
0.093419611 -0.094305754 -0.23727866
0.093422696 -0.094225831 -0.23727676
0.093425579 -0.094145998 -0.23727088
0.093428664 -0.094066083 -0.23726898
0.093431845 -0.093986124 -0.23726909
0.093434639 -0.093906336 -0.23726121
0.093437336 -0.093826592 -0.23725134
0.093440615 -0.093746588 -0.23725343
0.09344399 -0.093666539 -0.23725754
0.093447462 -0.093586445 -0.23726363
0.09345074 -0.093506441 -0.23726574
0.093454018 -0.093426436 -0.23726782
0.0934572 -0.093346469 -0.23726794
0.093460284 -0.093266554 -0.23726606
0.093463659 -0.093186505 -0.23727015
0.093466841 -0.093106546 -0.23727025
0.09346956 -0.093028754 -0.23726241
0.093472429 -0.092946969 -0.2372545
0.093475625 -0.092868961 -0.23725665
0.093479097 -0.092788868 -0.23726273
0.09348236 -0.092706911 -0.23726279
0.093485363 -0.092628986 -0.23726095
0.093488529 -0.092547074 -0.23725902
0.093491629 -0.092469111 -0.23725916
0.093494326 -0.092389368 -0.23724928
0.093497314 -0.09230949 -0.23724538
0.093500689 -0.092229441 -0.23724949
0.09350387 -0.092149481 -0.2372496
0.093507051 -0.092069522 -0.2372497
0.09351062 -0.091989383 -0.23725781
0.093514174 -0.091907293 -0.23726384
0.093517549 -0.091827244 -0.23726796
0.093521021 -0.09174715 -0.23727405
0.0935243 -0.091667145 -0.23727615
0.093527481 -0.091587186 -0.23727626
0.093530662 -0.091507226 -0.23727636
0.093533844 -0.091427259 -0.23727646
0.093537122 -0.091347255 -0.23727857
0.09354011 -0.091267377 -0.23727468
0.093543001 -0.091187552 -0.23726881
0.093546376 -0.091107503 -0.23727289
0.09354946 -0.091027588 -0.23727101
0.093552448 -0.09094771 -0.23726711
0.093555726 -0.090867706 -0.23726922
0.093559101 -0.090787657 -0.23727331
0.093562752 -0.090705521 -0.23728135
0.093566224 -0.090625428 -0.23728746
0.093569502 -0.090545423 -0.23728956
0.093572684 -0.090465464 -0.23728967
0.093575671 -0.090385586 -0.23728578
0.093578756 -0.090305671 -0.23728389
0.093582034 -0.090225667 -0.237286
0.093585603 -0.090145528 -0.23729408
0.093588978 -0.090065479 -0.23729819
0.093592159 -0.08998552 -0.23729829
0.09359505 -0.089905687 -0.23729241
0.093597747 -0.089825943 -0.23728251
0.093600631 -0.08974611 -0.23727664
0.093603812 -0.089666151 -0.23727673
0.09360709 -0.089586146 -0.23727885
0.09361057 -0.089506052 -0.23728494
0.093614019 -0.089424007 -0.237289
0.093616717 -0.089344263 -0.23727912
0.093619429 -0.089266472 -0.23727128
0.093622319 -0.089186639 -0.23726539
0.093625501 -0.089106679 -0.2372655
0.093629248 -0.089024499 -0.23727554
0.093632624 -0.08894445 -0.23727965
0.093635708 -0.088864535 -0.23727775
0.093638793 -0.08878462 -0.23727587
0.093641967 -0.088704653 -0.23727596
0.093644954 -0.088624783 -0.23727208
0.093647845 -0.08854495 -0.23726618
0.093651123 -0.088464946 -0.2372683
0.093654111 -0.088385068 -0.23726441
0.093656704 -0.088305369 -0.23725253
0.093660183 -0.088225275 -0.23725861
0.09366402 -0.088143058 -0.23727067
0.093667008 -0.08806318 -0.23726678
0.093670286 -0.087983176 -0.23726888
0.093673669 -0.087903127 -0.23727298
0.09367685 -0.087823167 -0.23727308
0.09367983 -0.08774329 -0.23726919
0.093682818 -0.08766342 -0.23726532
0.093686 -0.087583452 -0.23726541
0.093688793 -0.087503672 -0.23725754
0.093691587 -0.087423876 -0.23724964
0.093694963 -0.087343834 -0.23725376
0.093698047 -0.087263912 -0.23725185
0.09370093 -0.087184079 -0.23724598
0.093704015 -0.087104164 -0.23724407
0.093707293 -0.08702416 -0.23724619
0.093710281 -0.086944282 -0.2372423
0.093713075 -0.086864494 -0.23723441
0.093716159 -0.086784579 -0.23723252
0.093719825 -0.086704403 -0.23724261
0.093723103 -0.086624399 -0.23724471
0.093725607 -0.086544737 -0.23723084
0.093728885 -0.086464733 -0.23723294
0.093732528 -0.086382598 -0.23724099
0.093735904 -0.086302549 -0.23724508
0.093739085 -0.086222589 -0.23724519
0.093741879 -0.086142801 -0.2372373
0.093744673 -0.086063012 -0.23722944
0.093747951 -0.085983008 -0.23723152
0.093751304 -0.085901007 -0.23723358
0.093754388 -0.085821085 -0.2372317
0.093757473 -0.08574117 -0.23722981
0.093760364 -0.085661337 -0.23722392
0.093763448 -0.085581422 -0.23722202
0.093766727 -0.085501418 -0.23722413
0.093769811 -0.085421495 -0.23722224
0.093772896 -0.085341573 -0.23722035
0.093776174 -0.085261568 -0.23722243
0.093779527 -0.085179567 -0.23722449
0.093782611 -0.085099652 -0.23722261
0.093785599 -0.085019775 -0.23721871
0.093788877 -0.08493977 -0.23722082
0.093791962 -0.084859855 -0.23721895
0.093794949 -0.084779978 -0.23721504
0.093797937 -0.084700108 -0.23721115
0.093801111 -0.08462014 -0.23721126
0.093804277 -0.084538221 -0.23720932
0.093807183 -0.084460348 -0.23720548
0.093810268 -0.084380433 -0.23720358
0.093813628 -0.084298432 -0.23720565
0.093816608 -0.084218554 -0.23720175
0.093819693 -0.084138632 -0.23719986
0.093822971 -0.084058627 -0.23720196
0.093826056 -0.083978713 -0.23720008
0.09382914 -0.083898798 -0.23719817
0.093832128 -0.08381892 -0.2371943
0.093835287 -0.083737001 -0.23719236
0.093838565 -0.083656996 -0.23719446
0.093841851 -0.083576992 -0.23719656
0.093845025 -0.083497033 -0.23719667
0.093848109 -0.08341711 -0.23719478
0.093850903 -0.083337322 -0.23718689
0.093853794 -0.083257496 -0.23718101
0.093857147 -0.083175495 -0.23718306
0.093859963 -0.083097659 -0.23717722
0.093862653 -0.083017915 -0.23716734
0.093866006 -0.082935914 -0.23716938
0.093869194 -0.082855947 -0.2371695
0.093871981 -0.082776159 -0.23716162
0.093874969 -0.082696289 -0.23715773
0.093877882 -0.082618408 -0.23715389
0.093881041 -0.082536489 -0.23715195
0.093884319 -0.082456484 -0.23715405
0.093887404 -0.08237657 -0.23715216
0.093890488 -0.082296655 -0.23715027
0.093893573 -0.082216732 -0.23714837
0.093896732 -0.082134813 -0.23714644
0.093899623 -0.082054988 -0.23714055
0.093902797 -0.081975028 -0.23714066
0.093905985 -0.081895061 -0.23714076
0.093909159 -0.081815101 -0.23714086
0.093912326 -0.081733182 -0.23713893
0.09391541 -0.081653267 -0.23713703
0.093918487 -0.081573352 -0.23713514
0.093921378 -0.081493519 -0.23712927
0.093924098 -0.081415728 -0.23712143
0.093927354 -0.081333771 -0.23712149
0.093930826 -0.081253678 -0.23712757
0.093934283 -0.081171632 -0.23713164
0.093937658 -0.081091583 -0.23713574
0.093940645 -0.081011705 -0.23713185
0.093943432 -0.080931917 -0.23712397
0.09394642 -0.080852047 -0.23712006
0.093949579 -0.080770127 -0.23711812
0.09395276 -0.080690168 -0.23711824
0.093955673 -0.080612287 -0.2371144
0.093959026 -0.080530286 -0.23711646
0.09396258 -0.080448195 -0.23712251
0.093965471 -0.08036837 -0.23711662
0.093968183 -0.080290578 -0.23710878
0.093971074 -0.080210745 -0.2371029
0.093973957 -0.080130912 -0.23709702
0.09397722 -0.080048956 -0.23709707
0.093980305 -0.079969034 -0.23709518
0.093983293 -0.079889163 -0.2370913
0.09398637 -0.079809241 -0.2370894
0.093989357 -0.079729363 -0.23708551
0.093992814 -0.079647318 -0.23708956
0.093996555 -0.079565145 -0.23709962
0.093999542 -0.079485267 -0.23709571
0.094002359 -0.079407439 -0.23708987
0.094005808 -0.079325393 -0.23709393
0.09400899 -0.079245433 -0.23709404
0.094011955 -0.079163596 -0.23708811
0.09401504 -0.079083681 -0.23708621
0.094018221 -0.079003721 -0.23708633
0.094021305 -0.078923799 -0.23708442
0.094024003 -0.078844056 -0.23707454
0.094026983 -0.078764185 -0.23707065
0.094030268 -0.078684174 -0.23707277
0.094033815 -0.07860209 -0.23707882
0.094036803 -0.078522213 -0.23707493
0.094039597 -0.078442425 -0.23706704
0.094042577 -0.078362554 -0.23706314
0.09404584 -0.07828059 -0.23706321
0.094049022 -0.078200631 -0.23706332
0.094052203 -0.078120664 -0.23706342
0.094055749 -0.078038573 -0.23706946
0.09405911 -0.077956572 -0.23707151
0.094062291 -0.077876613 -0.23707163
0.094065279 -0.077796742 -0.23706774
0.09406846 -0.077716775 -0.23706785
0.09407144 -0.077636898 -0.23706396
0.094074331 -0.077557072 -0.23705807
0.094077595 -0.077475116 -0.23705813
0.094080776 -0.077395149 -0.23705824
0.09408395 -0.077315189 -0.23705834
0.094087213 -0.077233225 -0.2370584
0.094089903 -0.077153482 -0.23704851
0.094092622 -0.07707569 -0.23704068
0.094095804 -0.07699573 -0.23704079
0.094099626 -0.076911554 -0.23705079
0.094103001 -0.076831512 -0.23705488
0.09410616 -0.076749593 -0.23705295
0.094109148 -0.076669715 -0.23704906
0.094112329 -0.076589756 -0.23704916
0.094115585 -0.076507792 -0.23704922
0.094118766 -0.076427832 -0.23704933
0.094121948 -0.076347873 -0.23704943
0.094124936 -0.076267995 -0.23704554
0.094127536 -0.076188296 -0.23703367
0.094130419 -0.076108471 -0.23702778
0.094133876 -0.076026417 -0.23703185
0.094137326 -0.075944372 -0.23703589
0.094140314 -0.075864501 -0.237032
0.094143227 -0.07578662 -0.23702815
0.094146192 -0.075704791 -0.23702222
0.094149001 -0.075626954 -0.23701638
0.094152167 -0.075545043 -0.23701444
0.094155617 -0.075462997 -0.2370185
0.094159186 -0.075382859 -0.2370266
0.094162352 -0.075300947 -0.23702466
0.094165064 -0.075223155 -0.23701683
0.09416832 -0.075141191 -0.23701687
0.094171777 -0.075059146 -0.23702092
0.094174661 -0.07497932 -0.23701504
0.094177455 -0.074899532 -0.23700716
0.09418083 -0.074819483 -0.23701125
0.094184287 -0.074737437 -0.23701531
0.094187275 -0.074657559 -0.23701142
0.094189964 -0.074577816 -0.23700154
0.094192758 -0.074498028 -0.23699367
0.094196133 -0.074417979 -0.23699775
0.094199687 -0.074335888 -0.2370038
0.094202571 -0.074256055 -0.23699793
0.094205461 -0.07417623 -0.23699203
0.094209209 -0.07409405 -0.23700207
0.09421286 -0.074011914 -0.23701012
0.09421555 -0.073932171 -0.23700024
0.094218731 -0.073852211 -0.23700035
0.093145132 -0.10148215 -0.23749483
0.093147628 -0.1014025 -0.23748094
0.093150325 -0.10132276 -0.23747107
0.093152918 -0.10124306 -0.2374592
0.093155518 -0.10116336 -0.23744732
0.093158208 -0.10108361 -0.23743743
0.093161024 -0.10100578 -0.23743159
0.093163595 -0.10092412 -0.23741767
0.093166508 -0.10084625 -0.23741382
0.093169399 -0.10076641 -0.23740794
0.093171991 -0.10068671 -0.23739606
0.093174979 -0.10060684 -0.23739219
0.093178257 -0.10052683 -0.23739427
0.093181536 -0.10044683 -0.23739639
0.093184717 -0.10036687 -0.23739648
0.093187802 -0.10028695 -0.2373946
0.093190886 -0.10020703 -0.23739269
0.093194358 -0.10012694 -0.2373988
0.09319707 -0.10004915 -0.23739097
0.09319967 -0.099969447 -0.23737909
0.093203142 -0.099889353 -0.23738518
0.093206614 -0.099809267 -0.23739128
0.093209602 -0.099729389 -0.23738739
0.093212977 -0.09964934 -0.2373915
0.093215771 -0.099569552 -0.2373836
0.093219049 -0.099489547 -0.23738572
0.093222618 -0.099409409 -0.23739381
0.093225896 -0.099329405 -0.23739591
0.093228884 -0.099249534 -0.23739202
0.093229942 -0.09917248 -0.23735023
0.093231469 -0.099093258 -0.23731638
0.093234748 -0.099013254 -0.23731849
0.093237437 -0.09893351 -0.23730862
0.093240038 -0.098853812 -0.23729673
0.093244188 -0.098773412 -0.23731682
0.093248837 -0.098692797 -0.23734687
0.093252696 -0.098612532 -0.23736095
0.093256854 -0.098532133 -0.23738104
0.093260914 -0.098451786 -0.23739912
0.093263142 -0.09837421 -0.23738129
0.093263686 -0.09829542 -0.23732749
0.093267165 -0.098215334 -0.23733357
0.09327054 -0.098135285 -0.23733768
0.093273036 -0.098055623 -0.23732379
0.093276806 -0.097975403 -0.23733589
0.093282424 -0.097894356 -0.23738593
0.09328609 -0.097814173 -0.237396
0.093287028 -0.097735211 -0.23735018
0.093288474 -0.097657986 -0.23731638
0.093291953 -0.0975779 -0.23732248
0.093294837 -0.097498067 -0.23731659
0.09329734 -0.097418413 -0.23730272
0.093300223 -0.09733858 -0.23729682
0.093303509 -0.097258575 -0.23729894
0.093306787 -0.097178571 -0.23730104
0.093309775 -0.097098693 -0.23729715
0.093312584 -0.097020857 -0.23729131
0.093315937 -0.096938856 -0.23729336
0.093319997 -0.096858501 -0.23731145
0.093324348 -0.09677802 -0.23733552
0.093328014 -0.096697837 -0.23734561
0.093331099 -0.096617922 -0.23734371
0.093333036 -0.096540481 -0.2373199
0.093335047 -0.096461043 -0.23729604
0.093338229 -0.096381083 -0.23729615
0.093341604 -0.096301034 -0.23730025
0.093344979 -0.096220985 -0.23730436
0.093347967 -0.096141107 -0.23730046
0.093351245 -0.096061103 -0.23730256
0.093354158 -0.095983222 -0.23729873
0.093357317 -0.09590131 -0.23729679
0.09336108 -0.095821083 -0.23730887
0.093364552 -0.095740996 -0.23731497
0.093366981 -0.095663339 -0.23730114
0.093369573 -0.095583633 -0.23728926
0.093372755 -0.095503673 -0.23728937
0.093376033 -0.095423669 -0.23729147
0.093379602 -0.09534353 -0.23729956
0.09338259 -0.09526366 -0.23729569
0.093385093 -0.095183998 -0.2372818
0.093387783 -0.095104255 -0.23727192
0.09339077 -0.095024385 -0.23726803
0.093394242 -0.094944291 -0.23727414
0.093397714 -0.094864197 -0.23728022
0.093400821 -0.094786234 -0.23728038
0.09340398 -0.094704315 -0.23727843
0.093407281 -0.094626263 -0.23728259
0.093409881 -0.094546564 -0.23727071
0.093412764 -0.094466738 -0.23726481
0.093416341 -0.0943866 -0.23727292
0.093419813 -0.094306506 -0.23727901
0.093422897 -0.094226591 -0.23727712
0.093425684 -0.094146803 -0.23726924
0.093428768 -0.094066881 -0.23726735
0.09343195 -0.093986921 -0.23726746
0.09343484 -0.093907088 -0.23726156
0.093437538 -0.093827344 -0.2372517
0.093440719 -0.093747385 -0.23725179
0.093444094 -0.093667336 -0.23725589
0.093447566 -0.093587242 -0.23726198
0.093450941 -0.093507193 -0.23726609
0.093454219 -0.093427189 -0.23726818
0.093457401 -0.093347229 -0.2372683
0.093460485 -0.093267307 -0.23726642
0.093463764 -0.093187302 -0.23726851
0.093467042 -0.093107298 -0.23727061
0.093469754 -0.093029514 -0.23726277
0.09347263 -0.092947721 -0.23725484
0.093475729 -0.092869759 -0.23725499
0.093479298 -0.092789628 -0.23726308
0.093482561 -0.092707664 -0.23726314
0.093485467 -0.09262979 -0.2372593
0.09348873 -0.092547826 -0.23725936
0.09349183 -0.092469864 -0.23725951
0.093494527 -0.09239012 -0.23724964
0.09349741 -0.092310287 -0.23724376
0.093500793 -0.092230245 -0.23724785
0.093503974 -0.092150278 -0.23724794
0.093507156 -0.092070319 -0.23724806
0.093510821 -0.091990143 -0.23725815
0.093514375 -0.091908053 -0.2372642
0.093517751 -0.091828004 -0.2372683
0.093521126 -0.091747954 -0.23727241
