# .PCD v0.7 - Point Cloud Data file format
VERSION 0.7
FIELDS x y z
SIZE 4 4 4
TYPE F F F
COUNT 1 1 1
WIDTH 1262
HEIGHT 1
VIEWPOINT 0 0 0 1 0 0 0
POINTS 1262
DATA ascii
-0.059295814 -0.011956571 -0.26337308
-0.059291244 -0.011876003 -0.26340115
-0.059286751 -0.011797434 -0.26342928
-0.059282377 -0.011716953 -0.26345336
-0.05927847 -0.011638643 -0.26346949
-0.059274953 -0.011560507 -0.26347762
-0.059271242 -0.011482285 -0.26348978
-0.059267625 -0.011404105 -0.26349992
-0.059264403 -0.0113261 -0.26350209
-0.059261765 -0.011248353 -0.26349226
-0.0592594 -0.011172691 -0.26347849
-0.059256662 -0.011094902 -0.26347065
-0.05925256 -0.011016506 -0.2634908
-0.05924838 -0.010936111 -0.26351088
-0.059244864 -0.010857976 -0.26351902
-0.059241153 -0.010779753 -0.26353115
-0.059237462 -0.010699576 -0.26354125
-0.059234217 -0.010623524 -0.26354545
-0.059230916 -0.01054352 -0.26354757
-0.059228063 -0.010467642 -0.26354378
-0.059225228 -0.010389809 -0.26353794
-0.059222393 -0.010311976 -0.2635321
-0.059219658 -0.010234186 -0.26352429
-0.059217196 -0.010158482 -0.26351249
-0.059214849 -0.010080865 -0.2634967
-0.059212677 -0.010005292 -0.26347893
-0.05921004 -0.0099275447 -0.2634691
-0.059205838 -0.009849105 -0.26349121
-0.059200216 -0.0097661056 -0.26353922
-0.05919477 -0.0096851494 -0.26358527
-0.059189126 -0.0096041057 -0.26363531
-0.059184261 -0.0095234076 -0.26366937
-0.0591795 -0.0094427541 -0.26370144
-0.059174657 -0.0093601029 -0.26373345
-0.059169598 -0.0092793182 -0.2637715
-0.059165299 -0.0092008356 -0.26379561
-0.059161119 -0.0091204429 -0.2638157
-0.059156843 -0.0090400036 -0.26383781
-0.059152566 -0.0089595672 -0.26385987
-0.059147608 -0.0088788271 -0.26389593
-0.059142452 -0.0087979995 -0.26393598
-0.05913759 -0.0087173022 -0.26397005
-0.059132922 -0.0086366916 -0.26400012
-0.059127297 -0.0085536931 -0.2640481
-0.059121773 -0.0084707383 -0.26409411
-0.059116129 -0.0083896937 -0.26414415
-0.059110992 -0.0083069131 -0.26418218
-0.059106521 -0.0082263881 -0.26420826
-0.059101854 -0.0081457775 -0.2642383
-0.05909748 -0.0080652973 -0.26426238
-0.05909127 -0.0079820389 -0.26432237
-0.059082389 -0.0078917025 -0.26443213
-0.059074543 -0.0078057535 -0.26452404
-0.059067085 -0.0077199768 -0.26460791
-0.059059922 -0.0076343324 -0.26468584
-0.059053149 -0.0075488584 -0.26475573
-0.059046373 -0.0074633854 -0.26482564
-0.059039973 -0.0073800404 -0.26488963
-0.059033684 -0.0072947843 -0.26494956
-0.059026912 -0.0072093103 -0.26501948
-0.059020136 -0.0071238372 -0.26508939
-0.059013754 -0.0070385383 -0.26515132
-0.059008226 -0.0069555826 -0.26519734
-0.059002623 -0.0068706302 -0.26524329
-0.058998249 -0.006790149 -0.26526737
-0.058995124 -0.0067121862 -0.26526752
-0.058992017 -0.0066322694 -0.26526564
-0.058986589 -0.0065493574 -0.26530963
-0.058980204 -0.0064640576 -0.26537156
-0.058975734 -0.0063835336 -0.26539764
-0.058972724 -0.0063036587 -0.26539376
-0.058969695 -0.0062257396 -0.26539192
-0.058966588 -0.0061458219 -0.26539004
-0.058963656 -0.0060679466 -0.26538619
-0.058960062 -0.0059878118 -0.2653943
-0.05895637 -0.0059076352 -0.2654044
-0.058953539 -0.0058298018 -0.26539856
-0.0589508 -0.0057520131 -0.26539072
-0.058947891 -0.005672181 -0.26538485
-0.058944955 -0.0055943057 -0.26538104
-0.058942027 -0.0055164294 -0.26537716
-0.05893892 -0.0054365117 -0.26537529
-0.058936182 -0.0053587221 -0.26536745
-0.058933839 -0.0052811066 -0.26535165
-0.058930907 -0.0052032303 -0.26534781
-0.058927018 -0.0051229652 -0.26536191
-0.058923054 -0.0050407043 -0.26537594
-0.058919635 -0.004962611 -0.26538211
-0.058916532 -0.0048826933 -0.2653802
-0.05891389 -0.0048049483 -0.26537037
-0.058910765 -0.0047269855 -0.26537055
-0.058907464 -0.0046469811 -0.26537266
-0.058904629 -0.0045691486 -0.26536682
-0.058901619 -0.0044892747 -0.26536292
-0.058898687 -0.0044113975 -0.2653591
-0.058895856 -0.004333565 -0.26535326
-0.058892552 -0.0042535607 -0.26535538
-0.058889251 -0.0041735563 -0.26535749
-0.058886223 -0.0040956363 -0.26535565
-0.058883116 -0.0040157195 -0.26535377
-0.058880087 -0.0039377995 -0.26535192
-0.058877077 -0.0038579255 -0.26534805
-0.058874145 -0.0037800502 -0.2653442
-0.058871314 -0.0037022177 -0.26533836
-0.058868013 -0.0036222134 -0.26534048
-0.058864221 -0.0035419911 -0.26535258
-0.05886063 -0.0034618583 -0.26536068
-0.058857795 -0.0033840258 -0.26535484
-0.058855545 -0.0033064522 -0.26533705
-0.05885271 -0.0032286197 -0.26533121
-0.058849506 -0.0031486601 -0.2653313
-0.058846302 -0.0030686986 -0.26533142
-0.05884308 -0.002990691 -0.26533359
-0.058839973 -0.0029107742 -0.26533169
-0.058836848 -0.0028328113 -0.26533186
-0.058833644 -0.0027528517 -0.26533198
-0.058830712 -0.0026749764 -0.26532814
-0.058827702 -0.0025951006 -0.26532423
-0.058824968 -0.0025173109 -0.26531643
-0.058821663 -0.0024373084 -0.26531851
-0.058818363 -0.0023573041 -0.26532063
-0.058815334 -0.0022793841 -0.26531881
-0.058812208 -0.0022014193 -0.26531896
-0.058808535 -0.0021192897 -0.26532701
-0.058805212 -0.0020412393 -0.26533115
-0.058802009 -0.0019612778 -0.26533127
-0.058799002 -0.0018814038 -0.26532739
-0.058796071 -0.0018035285 -0.26532355
-0.058793236 -0.001725696 -0.26531774
-0.058790129 -0.0016457774 -0.26531583
-0.0587871 -0.0015678592 -0.26531398
-0.05878409 -0.0014879834 -0.26531011
-0.058780964 -0.0014100205 -0.26531029
-0.058777664 -0.001330018 -0.26531237
-0.058774732 -0.0012521427 -0.26530856
-0.058771625 -0.0011722241 -0.26530665
-0.058768794 -0.0010943897 -0.26530084
-0.058765687 -0.0010144748 -0.26529896
-0.058762483 -0.00093451329 -0.26529905
-0.058759257 -0.00085650757 -0.26530123
-0.058756247 -0.00077663362 -0.26529732
-0.058753513 -0.00069884211 -0.26528949
-0.058750875 -0.00062109716 -0.26527968
-0.05874804 -0.00054326281 -0.26527384
-0.058744252 -0.00046304427 -0.26528594
-0.058740288 -0.00038078055 -0.26529998
-0.058737256 -0.00030286051 -0.26529816
-0.058734812 -0.00022520311 -0.26528433
-0.058732174 -0.00014745817 -0.26527449
-0.058729067 -6.7539513e-05 -0.26527262
-0.058726139 1.0337681e-05 -0.26526877
-0.058723129 9.021163e-05 -0.2652649
-0.058720101 0.00016813166 -0.26526305
-0.058716699 0.00024817884 -0.26526716
-0.058713399 0.00032818317 -0.26526928
-0.058710292 0.00040809996 -0.26526737
-0.058707166 0.00048606284 -0.26526755
-0.058704138 0.00056398101 -0.2652657
-0.058701128 0.00064385496 -0.26526183
-0.05869763 0.00072394684 -0.26526794
-0.058694426 0.00080390833 -0.26526803
-0.058691788 0.00088165328 -0.26525819
-0.058688488 0.00096165761 -0.26526031
-0.058685459 0.0010395776 -0.26525849
-0.058682352 0.0011194963 -0.26525658
-0.058679149 0.0011994541 -0.2652567
-0.058675747 0.0012795031 -0.26526082
-0.058672719 0.0013574231 -0.26525897
-0.058670178 0.0014351271 -0.26524717
-0.058667149 0.0015130453 -0.26524532
-0.058663674 0.0015950892 -0.26524937
-0.058660936 0.0016728789 -0.26524153
-0.058657907 0.001750797 -0.26523972
-0.058654606 0.0018308032 -0.2652418
-0.058651771 0.0019086376 -0.26523596
-0.058648862 0.0019884668 -0.26523009
-0.058646027 0.0020662993 -0.26522428
-0.058643095 0.0021441747 -0.26522043
-0.058639325 0.0022263527 -0.26523048
-0.058636025 0.0023063533 -0.26523259
-0.058633287 0.0023841448 -0.26522475
-0.058629986 0.0024641491 -0.26522687
-0.058626294 0.0025443267 -0.26523697
-0.058623463 0.0026221592 -0.26523113
-0.058620919 0.0026998632 -0.2652193
-0.058617912 0.0027797371 -0.26521543
-0.05861488 0.0028576553 -0.26521358
-0.058612242 0.0029354021 -0.26520377
-0.058609039 0.0030153636 -0.26520386
-0.05860601 0.0030932836 -0.26520205
-0.058603372 0.0031710286 -0.26519221
-0.058600169 0.0032509882 -0.26519233
-0.058596965 0.0033309497 -0.26519245
-0.058594424 0.0034086537 -0.26518059
-0.058591686 0.0034864414 -0.26517278
-0.058587898 0.0035666618 -0.26518488
-0.058583736 0.0036490113 -0.26520291
-0.058580436 0.0037290156 -0.26520503
-0.058577329 0.0038089324 -0.26520312
-0.058574595 0.003886722 -0.26519531
-0.058573183 0.0039599966 -0.2651636
-0.058573294 0.0040286686 -0.26510406
-0.058570556 0.0041064564 -0.26509622
-0.058567353 0.004186416 -0.26509631
-0.058564812 0.00426412 -0.26508451
-0.058561511 0.0043441262 -0.26508659
-0.058559339 0.0044196993 -0.26506883
-0.058557168 0.0044952743 -0.26505107
-0.058553867 0.0045752786 -0.26505318
-0.058549434 0.0046597123 -0.26507518
-0.058544613 0.0047443174 -0.26510513
-0.05854065 0.0048265811 -0.26511919
-0.058537815 0.0049044117 -0.26511335
-0.058534883 0.0049822889 -0.26510951
-0.058531385 0.0050623808 -0.26511562
-0.058527518 0.0051445961 -0.26512766
-0.058523651 0.005226817 -0.2651397
-0.058520526 0.0053047799 -0.26513988
-0.058518473 0.0053822678 -0.26511806
-0.058518857 0.0054488536 -0.26505455
-0.058522008 0.0055083204 -0.26493925
-0.058521826 0.0055771209 -0.26488566
-0.058519363 0.0056528263 -0.26487389
-0.05851569 0.0057349578 -0.26488194
-0.058511805 0.005815221 -0.26489604
-0.058504526 0.0059087723 -0.26496977
-0.058501985 0.0059864763 -0.26495793
-0.058502756 0.0060528908 -0.26488644
-0.058506925 0.0061060153 -0.26475531
-0.058512807 0.0061544534 -0.26459232
-0.058515005 0.0062163062 -0.26449493
-0.05851455 0.0062871929 -0.2644453
-0.060453225 -0.043919314 -0.265912
-0.060450021 -0.04383935 -0.26591209
-0.060447089 -0.043761477 -0.26590824
-0.060444061 -0.043683555 -0.26590642
-0.06044066 -0.04360351 -0.26591051
-0.06043724 -0.043525416 -0.26591668
-0.060434017 -0.043447409 -0.26591882
-0.06043091 -0.043367494 -0.26591694
-0.060427878 -0.043289572 -0.2659151
-0.060425065 -0.043209784 -0.26590723
-0.060422465 -0.043128133 -0.26589331
-0.060420062 -0.04304656 -0.2658754
-0.060417347 -0.042966817 -0.26586553
-0.060413614 -0.042890549 -0.26587972
-0.060409706 -0.042812243 -0.26589584
-0.06040648 -0.042734236 -0.26589799
-0.060402963 -0.042656098 -0.26590616
-0.060399327 -0.042579871 -0.26591834
-0.060396105 -0.042501867 -0.26592049
-0.060393214 -0.042420082 -0.26591259
-0.060390379 -0.042342246 -0.26590675
-0.060387369 -0.042262375 -0.26590288
-0.060384262 -0.042182457 -0.26590097
-0.060381036 -0.042104453 -0.26590312
-0.060377833 -0.042024493 -0.26590323
-0.060374901 -0.041946612 -0.26589942
-0.060371794 -0.041866697 -0.26589751
-0.060368881 -0.041786868 -0.26589164
-0.060365949 -0.041708991 -0.2658878
-0.060362432 -0.041630853 -0.26589596
-0.060358819 -0.041552674 -0.2659061
-0.060355417 -0.041472629 -0.26591021
-0.060352486 -0.041394752 -0.26590636
-0.060349576 -0.041314922 -0.26590049
-0.060346372 -0.041234959 -0.26590061
-0.06034375 -0.04115526 -0.26588872
-0.060340744 -0.041075386 -0.26588485
-0.060337421 -0.040997334 -0.26588899
-0.060334001 -0.040919244 -0.26589516
-0.060330991 -0.040839367 -0.26589128
-0.060328178 -0.040759578 -0.26588339
-0.060325265 -0.040679753 -0.26587752
-0.060322333 -0.040601872 -0.26587367
-0.06031901 -0.040523823 -0.26587784
-0.06031559 -0.04044573 -0.26588398
-0.060312483 -0.040365815 -0.26588207
-0.060309261 -0.040287808 -0.26588425
-0.060305938 -0.040209759 -0.26588839
-0.060302228 -0.040131535 -0.26590055
-0.060299002 -0.040053532 -0.2659027
-0.060296401 -0.039971873 -0.26588878
-0.06029398 -0.03989226 -0.26587293
-0.060290873 -0.039812341 -0.26587105
-0.060287431 -0.039736204 -0.26587924
-0.060283836 -0.039656069 -0.26588732
-0.060281001 -0.039578237 -0.26588151
-0.060278092 -0.039498407 -0.26587564
-0.060274884 -0.039418444 -0.26587573
-0.060271464 -0.039340355 -0.2658819
-0.060268555 -0.039260522 -0.265876
-0.06026572 -0.039182689 -0.26587015
-0.060262419 -0.039102688 -0.26587227
-0.060259096 -0.039024636 -0.26587641
-0.060256068 -0.038946718 -0.26587459
-0.060253154 -0.038866885 -0.26586872
-0.060250241 -0.038787059 -0.26586282
-0.060246941 -0.038707051 -0.26586494
-0.060243715 -0.038629048 -0.26586711
-0.060240783 -0.038551167 -0.26586327
-0.060237773 -0.038471296 -0.26585937
-0.060234357 -0.038393199 -0.26586553
-0.060230859 -0.038313113 -0.26587164
-0.060228024 -0.038235281 -0.2658658
-0.060225111 -0.038155448 -0.2658599
-0.060222104 -0.038075574 -0.26585603
-0.060219169 -0.037997697 -0.26585221
-0.060215771 -0.037917651 -0.26585633
-0.060212839 -0.037839774 -0.26585248
-0.060209539 -0.03775977 -0.2658546
-0.060206216 -0.037681721 -0.26585874
-0.060203303 -0.037601892 -0.26585287
-0.060200274 -0.03752397 -0.26585102
-0.06019707 -0.03744401 -0.26585114
-0.060194042 -0.037366092 -0.26584929
-0.060190834 -0.037286129 -0.26584941
-0.060187493 -0.037210032 -0.26585561
-0.060184192 -0.037130035 -0.2658577
-0.060181573 -0.037050329 -0.26584584
-0.060178757 -0.036970541 -0.26583797
-0.060175631 -0.036892578 -0.26583812
-0.060172722 -0.036812752 -0.26583225
-0.060169399 -0.0367347 -0.26583639
-0.060166173 -0.036656693 -0.26583856
-0.060163163 -0.036576822 -0.26583466
-0.06015984 -0.03649877 -0.26583883
-0.060156323 -0.036420636 -0.26584697
-0.060153119 -0.036340676 -0.26584709
-0.060150091 -0.036262758 -0.26584524
-0.060147375 -0.036183011 -0.26583534
-0.060144246 -0.036105044 -0.26583552
-0.060140926 -0.036026999 -0.2658397
-0.060137719 -0.035947036 -0.26583979
-0.0601351 -0.035867337 -0.26582792
-0.060132168 -0.03578946 -0.26582408
-0.060128573 -0.035709325 -0.26583219
-0.060125154 -0.035631232 -0.26583833
-0.060122438 -0.035551488 -0.26582846
-0.060119409 -0.03547357 -0.26582661
-0.060116496 -0.035393737 -0.26582074
-0.06011337 -0.035315774 -0.26582092
-0.060109757 -0.035237595 -0.26583105
-0.06010624 -0.035159461 -0.26583919
-0.06010313 -0.035079543 -0.26583731
-0.060100492 -0.035001796 -0.26582748
-0.060097288 -0.03492184 -0.2658276
-0.060094573 -0.034842093 -0.2658177
-0.060091756 -0.034762304 -0.26580983
-0.060088824 -0.034684431 -0.26580602
-0.060085621 -0.034604467 -0.26580611
-0.060082491 -0.034526505 -0.26580629
-0.060078878 -0.034448326 -0.26581642
-0.060075264 -0.034370147 -0.26582658
-0.060072236 -0.034292229 -0.26582474
-0.060069129 -0.034212306 -0.26582283
-0.060066 -0.034134347 -0.26582301
-0.060063187 -0.034054562 -0.26581514
-0.060060762 -0.033974946 -0.26579925
-0.060057946 -0.033895157 -0.26579139
-0.060054917 -0.033817239 -0.26578954
-0.060051695 -0.033739232 -0.26579171
-0.060048468 -0.033661224 -0.26579386
-0.060045168 -0.03358122 -0.26579595
-0.060041748 -0.03350313 -0.26580212
-0.060038328 -0.033425037 -0.26580828
-0.060035516 -0.033345249 -0.26580039
-0.060032994 -0.033265591 -0.26578653
-0.060029961 -0.033187672 -0.26578468
-0.060026444 -0.033109538 -0.26579285
-0.060023513 -0.033031661 -0.26578897
-0.060020506 -0.032951787 -0.2657851
-0.060016792 -0.032873563 -0.26579726
-0.060013372 -0.03279547 -0.2658034
-0.060010754 -0.032715768 -0.26579154
-0.060007919 -0.032637939 -0.26578569
-0.060004909 -0.032558061 -0.26578182
-0.060001902 -0.032478191 -0.26577795
-0.059998676 -0.032400183 -0.26578009
-0.05999545 -0.032322176 -0.26578224
-0.059992127 -0.032244127 -0.26578641
-0.059988827 -0.032164123 -0.2657885
-0.059985895 -0.032086246 -0.26578468
-0.059982788 -0.032006331 -0.26578277
-0.059979565 -0.031928323 -0.26578495
-0.059976242 -0.031850275 -0.26578909
-0.059973113 -0.031772308 -0.26578927
-0.059970107 -0.031692438 -0.2657854
-0.059967 -0.031612519 -0.26578349
-0.059963871 -0.031534556 -0.26578364
-0.059960745 -0.031456593 -0.26578379
-0.059957638 -0.031376675 -0.26578191
-0.059955098 -0.031298973 -0.26577008
-0.059952185 -0.031219143 -0.26576421
-0.05994935 -0.031141311 -0.2657584
-0.05994593 -0.031063218 -0.26576453
-0.059942119 -0.030984951 -0.26577866
-0.059939012 -0.030905034 -0.26577678
-0.059935886 -0.030827072 -0.26577693
-0.059932955 -0.030749194 -0.26577312
-0.059930239 -0.030669451 -0.26576322
-0.059927113 -0.030591488 -0.2657634
-0.059923809 -0.030511484 -0.26576549
-0.059920877 -0.030433606 -0.26576167
-0.059917849 -0.030355688 -0.26575983
-0.059914839 -0.030275814 -0.26575595
-0.059911713 -0.030197851 -0.2657561
-0.059908584 -0.030119888 -0.26575625
-0.059905477 -0.030039972 -0.26575437
-0.059902448 -0.029962052 -0.26575255
-0.059899125 -0.029884003 -0.2657567
-0.059895631 -0.029803911 -0.26576281
-0.059892796 -0.029726079 -0.26575696
-0.059889883 -0.029646248 -0.26575109
-0.05988666 -0.029568242 -0.26575324
-0.059883729 -0.029490367 -0.26574939
-0.059881106 -0.029410664 -0.26573753
-0.059877981 -0.029332703 -0.26573768
-0.05987427 -0.029254479 -0.26574984
-0.05987126 -0.029174605 -0.26574594
-0.059868522 -0.029096816 -0.26573813
-0.059865318 -0.029016854 -0.26573825
-0.059862193 -0.028938893 -0.2657384
-0.05985887 -0.028860843 -0.26574254
-0.059855644 -0.028782837 -0.26574469
-0.059852615 -0.028704917 -0.26574287
-0.059849314 -0.028624915 -0.26574498
-0.059846383 -0.028547037 -0.26574114
-0.059843566 -0.028467249 -0.26573327
-0.059840344 -0.028389243 -0.26573542
-0.059837215 -0.028311282 -0.26573557
-0.059834402 -0.028231492 -0.2657277
-0.059831176 -0.028153488 -0.26572984
-0.059827678 -0.028073397 -0.26573595
-0.059824649 -0.027995476 -0.26573414
-0.059821621 -0.027917556 -0.26573229
-0.059818298 -0.027839508 -0.26573643
-0.059815388 -0.027759679 -0.26573056
-0.059812456 -0.027681801 -0.26572672
-0.059809327 -0.027603839 -0.26572686
-0.059806809 -0.027524181 -0.26571301
-0.059804089 -0.027444437 -0.26570314
-0.059800867 -0.02736643 -0.26570529
-0.059797641 -0.027288426 -0.26570743
-0.059794515 -0.027210461 -0.26570761
-0.059791096 -0.02713237 -0.26571375
-0.059787892 -0.02705241 -0.26571387
-0.059785154 -0.026974618 -0.26570603
-0.059782125 -0.026896698 -0.26570421
-0.059778608 -0.026818562 -0.26571235
-0.059775189 -0.026740471 -0.26571849
-0.059772179 -0.026660595 -0.26571462
-0.059769344 -0.026582763 -0.26570877
-0.05976614 -0.026502803 -0.26570889
-0.059763208 -0.026424926 -0.26570505
-0.059760179 -0.026347008 -0.26570323
-0.059756875 -0.026267003 -0.26570535
-0.059753943 -0.026189126 -0.2657015
-0.059751227 -0.026109383 -0.26569164
-0.059748102 -0.02603142 -0.26569179
-0.059744682 -0.025953326 -0.26569793
-0.059741553 -0.025875363 -0.26569808
-0.059738427 -0.025797402 -0.26569825
-0.059734929 -0.025717311 -0.26570436
-0.059732094 -0.025639478 -0.26569852
-0.059729066 -0.02556156 -0.26569667
-0.059725665 -0.025481511 -0.26570079
-0.059722539 -0.025403548 -0.26570094
-0.059719414 -0.025325585 -0.26570112
-0.059716579 -0.025247753 -0.26569527
-0.059713375 -0.025167793 -0.26569539
-0.059710734 -0.025090046 -0.26568556
-0.059708115 -0.025010346 -0.2656737
-0.059704699 -0.024932254 -0.26567984
-0.059701376 -0.024854204 -0.26568401
-0.059698638 -0.024776414 -0.26567614
-0.059695724 -0.024696583 -0.26567027
-0.059692502 -0.024618577 -0.26567245
-0.059689082 -0.024540484 -0.26567858
-0.059685856 -0.024462478 -0.26568073
-0.059682731 -0.024384515 -0.26568091
-0.059679329 -0.024304468 -0.26568502
-0.059676398 -0.024226591 -0.26568118
-0.059673682 -0.024146847 -0.26567131
-0.059670944 -0.024069058 -0.26566344
-0.059667915 -0.02399114 -0.26566163
-0.059664421 -0.023911048 -0.26566774
-0.059661292 -0.023833085 -0.26566789
-0.059658557 -0.023755295 -0.26566005
-0.059655428 -0.023677332 -0.26566023
-0.059652206 -0.023599327 -0.26566237
-0.059649196 -0.023519453 -0.2656585
-0.059645873 -0.023441404 -0.26566264
-0.05964255 -0.023363354 -0.26566681
-0.059640124 -0.023283739 -0.26565093
-0.059637584 -0.023206037 -0.2656391
-0.059633777 -0.02312777 -0.26565325
-0.05963055 -0.023049764 -0.2656554
-0.059627835 -0.022970021 -0.26564553
-0.059624705 -0.022892058 -0.26564568
-0.059621774 -0.022814181 -0.26564187
-0.05961857 -0.022734221 -0.26564196
-0.059615247 -0.022656173 -0.26564613
-0.059612531 -0.022576427 -0.26563627
-0.059609894 -0.022498682 -0.26562643
-0.059606764 -0.022420719 -0.26562658
-0.059603736 -0.022342799 -0.26562473
-0.059601117 -0.022263099 -0.26561287
-0.05959877 -0.022185482 -0.26559705
-0.059596542 -0.022105955 -0.2655772
-0.059594098 -0.022028295 -0.26556337
-0.05959136 -0.021950506 -0.26555556
-0.05958835 -0.021870632 -0.26555166
-0.059585031 -0.021792581 -0.2655558
-0.059581611 -0.02171449 -0.26556197
-0.059578385 -0.021636482 -0.26556411
-0.059574675 -0.021558261 -0.26557624
-0.059571177 -0.021478169 -0.26558235
-0.059569024 -0.02140064 -0.26556253
-0.059567168 -0.021323241 -0.26553676
-0.059564743 -0.021243626 -0.26552087
-0.05956142 -0.021165578 -0.26552504
-0.059557416 -0.021087224 -0.26554316
-0.059553314 -0.021008829 -0.26556331
-0.0595496 -0.020930605 -0.26557544
-0.059546787 -0.020850819 -0.26556757
-0.059547074 -0.020774372 -0.2654978
-0.059548847 -0.020696621 -0.26539606
-0.059549447 -0.020618349 -0.2653183
-0.059550241 -0.020540165 -0.26523653
-0.059550039 -0.020463502 -0.26517677
-0.059550155 -0.020385014 -0.26510897
-0.05955093 -0.020308785 -0.26502925
-0.059550554 -0.020230079 -0.26497144
-0.059550647 -0.020153547 -0.26490569
-0.059551619 -0.020077404 -0.26482198
-0.059552316 -0.019999176 -0.2647422
-0.059552506 -0.019922687 -0.26467445
-0.05955182 -0.019845806 -0.26462469
-0.059552006 -0.019769317 -0.26455694
-0.059554365 -0.019691825 -0.26444322
-0.059552897 -0.0196146 -0.26440942
-0.059550747 -0.019537069 -0.26438963
-0.059561856 -0.019388856 -0.26403445
-0.059562925 -0.019312756 -0.26394874
-0.059562452 -0.019234009 -0.26389292
-0.059562333 -0.019159343 -0.26383322
-0.059561938 -0.019082593 -0.26377743
-0.059560273 -0.01900528 -0.26374763
-0.059559099 -0.018928183 -0.26370788
-0.05955841 -0.018851304 -0.26365811
-0.059557408 -0.018776249 -0.26361635
-0.059556235 -0.018699152 -0.26357657
-0.059554864 -0.01862197 -0.26354077
-0.059553005 -0.01854457 -0.263515
-0.059550852 -0.018467041 -0.26349515
-0.059549071 -0.018391639 -0.2634694
-0.0595477 -0.018314457 -0.26343364
-0.059545647 -0.018236971 -0.26341182
-0.059543088 -0.018161222 -0.26340204
-0.059540056 -0.018083302 -0.2634002
-0.059537124 -0.018005427 -0.26339635
-0.059534289 -0.017927594 -0.26339054
-0.059531242 -0.017851628 -0.26339072
-0.059528213 -0.017773708 -0.2633889
-0.059525084 -0.017695745 -0.26338905
-0.059521765 -0.017617697 -0.26339322
-0.059517756 -0.017539345 -0.26341134
-0.059513442 -0.017462816 -0.26343751
-0.059509143 -0.017384334 -0.26346165
-0.05950553 -0.017306155 -0.26347178
-0.05950211 -0.017228061 -0.26347792
-0.059499275 -0.017150229 -0.26347208
-0.059496813 -0.017074523 -0.26346031
-0.059493393 -0.01699643 -0.26346648
-0.059489094 -0.016917948 -0.26349059
-0.059485089 -0.016839596 -0.26350874
-0.059481572 -0.016761459 -0.26351687
-0.059477858 -0.016683236 -0.263529
-0.059474222 -0.016607013 -0.26354119
-0.059470903 -0.016528962 -0.26354536
-0.059467874 -0.016451042 -0.26354352
-0.059465233 -0.016373295 -0.26353371
-0.059462693 -0.016295593 -0.26352185
-0.05946023 -0.016219888 -0.26351008
-0.059457492 -0.0161421 -0.26350227
-0.059454951 -0.016064396 -0.26349044
-0.059452899 -0.01598691 -0.26346862
-0.05945053 -0.015911248 -0.26345485
-0.059447989 -0.015833545 -0.26344302
-0.059445154 -0.015755713 -0.26343721
-0.059441421 -0.015679445 -0.2634514
-0.059437711 -0.015601222 -0.26346353
-0.059434485 -0.015523216 -0.26346567
-0.059431847 -0.01544547 -0.26345584
-0.059429109 -0.01536768 -0.26344803
-0.059425768 -0.015291586 -0.26345423
-0.059422173 -0.015211452 -0.26346231
-0.059419125 -0.015135487 -0.26346254
-0.059416484 -0.015057741 -0.26345271
-0.059414137 -0.014980124 -0.26343688
-0.059411772 -0.014904463 -0.26342312
-0.059409522 -0.01482689 -0.26340529
-0.059408132 -0.014751662 -0.26337156
-0.059406549 -0.014676346 -0.26334178
-0.059404202 -0.01459873 -0.26332599
-0.059400976 -0.014520724 -0.26332814
-0.059396677 -0.014442242 -0.26335227
-0.059392381 -0.014363758 -0.26337638
-0.05938857 -0.014285493 -0.26339054
-0.059384372 -0.014207054 -0.26341265
-0.059380271 -0.014128657 -0.26343277
-0.059376381 -0.014048394 -0.26344687
-0.059372667 -0.01397017 -0.26345903
-0.059369229 -0.013894033 -0.26346719
-0.059365831 -0.013813986 -0.26347131
-0.059363075 -0.01373815 -0.26346552
-0.05936024 -0.013660317 -0.26345968
-0.059357211 -0.013582397 -0.26345783
-0.059355039 -0.013506823 -0.2634401
-0.059352595 -0.013429164 -0.26342627
-0.059349079 -0.013351027 -0.26343441
-0.059345756 -0.013272977 -0.26343858
-0.05934263 -0.013195015 -0.26343873
-0.059339579 -0.01311905 -0.26343894
-0.059336353 -0.013041044 -0.26344109
-0.059333421 -0.012963168 -0.26343727
-0.059330489 -0.012885292 -0.26343343
-0.059327364 -0.012807329 -0.26343358
-0.059324317 -0.012731364 -0.26343378
-0.059321579 -0.012653574 -0.26342595
-0.059319038 -0.012575872 -0.26341414
-0.059316691 -0.012498256 -0.26339832
-0.059314713 -0.012422767 -0.26337656
-0.059312932 -0.012347366 -0.26335078
-0.059311077 -0.012269966 -0.26332498
-0.059309196 -0.012194522 -0.26330122
-0.059306461 -0.012116731 -0.26329339
-0.059302066 -0.012038206 -0.26331952
-0.059297279 -0.011959506 -0.26335365
-0.059292808 -0.011878982 -0.26337969
-0.05928804 -0.011798328 -0.26341176
-0.059283745 -0.011719846 -0.2634359
-0.05927974 -0.011641493 -0.26345402
-0.059275556 -0.011561099 -0.26347411
-0.05927204 -0.011482963 -0.26348227
-0.05926862 -0.01140487 -0.26348841
-0.0592652 -0.011326778 -0.26349455
-0.059262075 -0.011248815 -0.26349473
-0.059259512 -0.011173067 -0.26348495
-0.059257068 -0.011095407 -0.26347113
-0.059253551 -0.011017271 -0.26347926
-0.059249274 -0.010936834 -0.26350135
-0.059245758 -0.010858698 -0.26350951
-0.059242144 -0.010780518 -0.26351964
-0.059238624 -0.010702382 -0.26352778
-0.059235107 -0.010624247 -0.26353592
-0.059231788 -0.010546196 -0.26354009
-0.059228756 -0.010468277 -0.26353824
-0.059225924 -0.010390444 -0.2635324
-0.059223186 -0.010312654 -0.26352459
-0.05922043 -0.01023682 -0.26351881
-0.059217986 -0.01015916 -0.26350498
-0.059215814 -0.010083586 -0.26348722
-0.05921337 -0.010005926 -0.26347339
-0.059210636 -0.0099281371 -0.26346555
-0.059206825 -0.0098498706 -0.26347971
-0.059201103 -0.0097668283 -0.26352969
-0.05919585 -0.0096859587 -0.26357174
-0.059190694 -0.0096051311 -0.26361179
-0.059185732 -0.0095243901 -0.26364785
-0.059180871 -0.0094436929 -0.26368192
-0.059176005 -0.0093629956 -0.26371598
-0.05917085 -0.009282168 -0.26375604
-0.059166085 -0.0092015155 -0.2637881
-0.059161905 -0.0091211218 -0.26380819
-0.059157528 -0.0090406397 -0.26383227
-0.059153251 -0.0089602033 -0.26385435
-0.059149247 -0.0088818502 -0.26387247
-0.059144188 -0.0088010663 -0.26391053
-0.059138857 -0.0087181982 -0.26395255
-0.059133604 -0.0086373268 -0.2639946
-0.059128467 -0.0085545462 -0.2640326
-0.059123117 -0.008473631 -0.26407665
-0.059117202 -0.008390503 -0.26413065
-0.059112336 -0.0083098058 -0.26416472
-0.059107963 -0.0082293265 -0.26418877
-0.059103217 -0.0081467163 -0.26421881
-0.059098549 -0.0080661066 -0.26424888
-0.059093587 -0.0079853656 -0.26428494
-0.059084978 -0.0078971144 -0.26439077
-0.059076078 -0.0078087356 -0.26450256
-0.059068915 -0.0077230884 -0.26458046
-0.059061944 -0.0076375287 -0.2646544
-0.059054874 -0.0075519262 -0.2647303
-0.059048004 -0.0074664094 -0.26480222
-0.059041426 -0.0073810229 -0.26486814
-0.059035119 -0.0072977208 -0.2649301
-0.059028637 -0.0072123781 -0.26499403
-0.059021372 -0.007126689 -0.26507396
-0.059015673 -0.0070416918 -0.26512188
-0.059010241 -0.0069587799 -0.2651659
-0.059004247 -0.0068736542 -0.26521984
-0.058999386 -0.006792957 -0.2652539
-0.058995791 -0.0067128222 -0.26526201
-0.058992956 -0.0066349907 -0.26525617
-0.058988873 -0.006554639 -0.26527423
-0.058982022 -0.0064671682 -0.26534411
-0.058977082 -0.0063844733 -0.26537812
-0.058973663 -0.006306381 -0.26538429
-0.058970556 -0.0062264623 -0.26538241
-0.058967914 -0.0061487183 -0.26537257
-0.058964614 -0.006068713 -0.26537466
-0.058961194 -0.0059906198 -0.26538083
-0.058958262 -0.0059127444 -0.26537699
-0.058955252 -0.0058328696 -0.26537311
-0.058951754 -0.0057527795 -0.26537919
-0.058948159 -0.0056726448 -0.2653873
-0.058945227 -0.0055947695 -0.26538348
-0.058942489 -0.0055169798 -0.26537564
-0.058939677 -0.0054371916 -0.26536778
-0.058936551 -0.0053592306 -0.26536793
-0.05893315 -0.0052791815 -0.26537204
-0.058930218 -0.0052013062 -0.26536819
-0.058927678 -0.0051236022 -0.26535639
-0.058924764 -0.005043772 -0.26535049
-0.058921248 -0.0049656359 -0.26535866
-0.058917381 -0.0048834169 -0.2653707
-0.058914255 -0.004805455 -0.26537085
-0.058911614 -0.0047277082 -0.26536101
-0.058908779 -0.0046498757 -0.2653552
-0.058905184 -0.0045697428 -0.26536328
-0.058902077 -0.0044898242 -0.2653614
-0.058899246 -0.0044119917 -0.26535559
-0.058896311 -0.0043341145 -0.26535174
-0.058893107 -0.0042541549 -0.26535186
-0.058890078 -0.0041762348 -0.26535001
-0.058886874 -0.0040962752 -0.26535013
-0.058883574 -0.0040162709 -0.26535222
-0.058880739 -0.0039384384 -0.26534641
-0.058877707 -0.0038605183 -0.26534456
-0.058874503 -0.0037805568 -0.26534468
-0.058871493 -0.0037006829 -0.26534081
-0.058868662 -0.0036228504 -0.26533496
-0.058865629 -0.0035449304 -0.26533312
-0.058862135 -0.0034648404 -0.26533923
-0.058858637 -0.0033847503 -0.26534534
-0.058855802 -0.0033069178 -0.26533949
-0.058853067 -0.0032291282 -0.26533166
-0.05884986 -0.0031491667 -0.26533177
-0.058847025 -0.0030713342 -0.26532593
-0.058843918 -0.0029914156 -0.26532406
-0.058840521 -0.0029113702 -0.26532817
-0.058837589 -0.0028334931 -0.26532432
-0.058834285 -0.0027534887 -0.26532644
-0.058831159 -0.0026755258 -0.26532659
-0.058828052 -0.0025956091 -0.26532471
-0.058825023 -0.002517689 -0.26532286
-0.058822013 -0.0024378151 -0.26531899
-0.058819082 -0.0023599379 -0.26531515
-0.058815975 -0.0022800229 -0.26531327
-0.05881314 -0.0022021886 -0.26530743
-0.058810309 -0.0021243561 -0.26530161
-0.058807004 -0.0020443536 -0.26530373
-0.058803603 -0.0019643046 -0.26530781
-0.058800008 -0.0018841699 -0.26531592
-0.058796786 -0.0018061623 -0.26531807
-0.058793582 -0.0017262045 -0.26531819
-0.058790378 -0.001646243 -0.2653183
-0.058787271 -0.0015663244 -0.26531643
-0.058784142 -0.0014883634 -0.26531658
-0.05878121 -0.0014104862 -0.26531273
-0.058778398 -0.0013306998 -0.26530486
-0.058775172 -0.0012526941 -0.26530701
-0.058771871 -0.0011726897 -0.26530913
-0.058769133 -0.0010949001 -0.26530129
-0.058766298 -0.0010170657 -0.26529548
-0.058762901 -0.00093702041 -0.26529956
-0.05875989 -0.00085714459 -0.26529568
-0.058757056 -0.0007793121 -0.26528984
-0.058753755 -0.00069930777 -0.26529196
-0.05875016 -0.00061917491 -0.26530007
-0.058747053 -0.00053925626 -0.26529819
-0.058744781 -0.00046363845 -0.26528239
-0.058741968 -0.00038385205 -0.26527452
-0.058738843 -0.00030588731 -0.2652747
-0.058735441 -0.000225842 -0.26527879
-0.058731943 -0.00014575198 -0.2652849
-0.058728643 -6.5745786e-05 -0.26528701
-0.058725905 1.2043864e-05 -0.26527917
-0.058723267 8.9790672e-05 -0.26526934
-0.058720432 0.00016762316 -0.26526353
-0.058717422 0.00024749525 -0.26525962
-0.058714688 0.0003252849 -0.26525182
-0.058711383 0.00040528923 -0.2652539
-0.058707789 0.00048542395 -0.26526201
-0.058704466 0.00056347251 -0.26526618
-0.058701459 0.00064334646 -0.26526231
-0.058698252 0.00072330795 -0.2652624
-0.058695517 0.0008010976 -0.26525456
-0.05869288 0.00087884441 -0.26524472
-0.058689848 0.00095676258 -0.2652429
-0.058686547 0.0010367669 -0.26524502
-0.058683343 0.0011167284 -0.26524514
-0.058680039 0.0011967309 -0.26524723
-0.058676835 0.0012766924 -0.26524734
-0.05867371 0.0013546553 -0.26524749
-0.058670796 0.0014344864 -0.26524162
-0.058667962 0.0015123188 -0.26523578
-0.05866456 0.0015923679 -0.26523989
-0.05866126 0.0016723685 -0.26524201
-0.058658425 0.0017502028 -0.26523617
-0.058655493 0.0018280782 -0.26523232
-0.058652483 0.001907954 -0.26522845
-0.058649279 0.0019879118 -0.26522857
-0.058646444 0.0020657461 -0.26522273
-0.058643512 0.0021436233 -0.26521888
-0.058640309 0.0022235848 -0.265219
-0.058637377 0.0023014601 -0.26521516
-0.05863427 0.0023813788 -0.26521328
-0.058630873 0.002461426 -0.26521739
-0.058627471 0.0025414713 -0.26522151
-0.058624171 0.0026214775 -0.26522362
-0.058621138 0.0026993975 -0.26522177
-0.058618501 0.0027771406 -0.26521194
-0.058615666 0.0028549731 -0.2652061
-0.058612756 0.002934806 -0.26520023
-0.058609921 0.0030126385 -0.26519439
-0.058606423 0.0030927286 -0.2652005
-0.058602653 0.0031749047 -0.26521057
-0.058600016 0.0032526515 -0.26520073
-0.05859755 0.0033283532 -0.26518896
-0.058594443 0.0034082718 -0.26518708
-0.058591709 0.0034860633 -0.26517922
-0.058588699 0.0035659373 -0.26517534
-0.058585297 0.0036459826 -0.26517946
-0.058582269 0.0037239026 -0.26517761
-0.058578305 0.0038061626 -0.26519167
-0.058575001 0.0038861688 -0.26519376
-0.05857398 0.0039592702 -0.26515406
-0.058574364 0.004025856 -0.26509058
-0.058572389 0.0041013435 -0.2650688
-0.058569085 0.0041813497 -0.26507092
-0.058565687 0.0042613968 -0.26507503
-0.058562189 0.0043414868 -0.26508111
-0.058559082 0.0044214055 -0.26507923
-0.058557108 0.0044968929 -0.26505747
-0.058554467 0.0045746397 -0.26504764
-0.058548979 0.0046615042 -0.26508957
-0.058543786 0.0047482383 -0.26512548
-0.058540564 0.004826244 -0.26512763
-0.058538117 0.0049039014 -0.2651138
-0.058534816 0.0049839057 -0.26511592
-0.058531027 0.005064128 -0.26512802
-0.05852716 0.005146347 -0.26514006
-0.058523856 0.0052263495 -0.26514217
-0.058521122 0.0053041391 -0.26513433
-0.058518186 0.0053820163 -0.26513049
-0.058516309 0.0054574609 -0.26510674
-0.05851794 0.0055215284 -0.2650193
-0.058520976 0.005579086 -0.26490805
-0.058519859 0.0056522284 -0.26487035
-0.058516927 0.0057301056 -0.26486653
-0.058512866 0.0058124084 -0.26488256
-0.058507107 0.005901359 -0.26492843
-0.058501814 0.0059881378 -0.26496634
-0.058500677 0.0060593262 -0.2649307
-0.058502678 0.0061212648 -0.26483732
-0.058513302 0.0061538555 -0.26458877
-0.0585154 0.006215753 -0.26449341
-0.058514751 0.0062867254 -0.26444775
-0.060454208 -0.043918565 -0.2659134
-0.060451686 -0.043838911 -0.26589954
-0.060448777 -0.043759078 -0.26589364
-0.060445357 -0.043680985 -0.26589981
-0.06044184 -0.043602847 -0.26590794
-0.060438614 -0.043524843 -0.26591012
-0.060435295 -0.043446794 -0.26591426
-0.060432091 -0.043366835 -0.26591438
-0.06042916 -0.043288957 -0.26591054
-0.06042615 -0.043209083 -0.26590666
-0.060423337 -0.043129295 -0.26589879
-0.06042105 -0.043045815 -0.26587683
-0.060418431 -0.042966116 -0.26586497
-0.060414892 -0.04288993 -0.26587516
-0.060411181 -0.04281171 -0.26588729
-0.060408056 -0.042733751 -0.26588744
-0.060404539 -0.042655613 -0.26589561
-0.060400728 -0.042577349 -0.26590973
-0.060397796 -0.042499468 -0.26590592
-0.060395196 -0.042417813 -0.265892
-0.060392186 -0.042337939 -0.26588809
-0.060388867 -0.042259891 -0.26589227
-0.060385544 -0.042181842 -0.26589641
-0.060382418 -0.042103879 -0.26589656
-0.060379215 -0.04202392 -0.26589668
-0.060376205 -0.041944042 -0.2658928
-0.060373098 -0.041864127 -0.2658909
-0.060369972 -0.041786164 -0.26589108
-0.060366843 -0.041708201 -0.26589122
-0.060363542 -0.041628197 -0.26589334
-0.060360417 -0.041550234 -0.26589349
-0.060357112 -0.04147023 -0.26589561
-0.060354084 -0.041392311 -0.26589376
-0.060351055 -0.041314393 -0.26589194
-0.060347654 -0.041234344 -0.26589605
-0.060344841 -0.041154556 -0.26588815
-0.060341734 -0.041074641 -0.26588628
-0.060338411 -0.040996589 -0.26589042
-0.06033548 -0.040918712 -0.2658866
-0.060332276 -0.040838748 -0.26588672
-0.060329266 -0.040758878 -0.26588282
-0.060326651 -0.040679179 -0.26587096
-0.060323738 -0.040599346 -0.26586509
-0.060320709 -0.040521428 -0.26586324
-0.060317405 -0.040441424 -0.26586533
-0.060313985 -0.04036333 -0.2658715
-0.060310371 -0.040285148 -0.26588163
-0.060307052 -0.040207103 -0.2658858
-0.060303614 -0.040130965 -0.265894
-0.060300309 -0.040050961 -0.26589608
-0.060297593 -0.039971218 -0.26588622
-0.060294878 -0.039891474 -0.26587635
-0.060291771 -0.039811552 -0.26587445
-0.060288232 -0.039735369 -0.26588464
-0.060284931 -0.039655369 -0.26588675
-0.060282409 -0.039575711 -0.2658729
-0.060279597 -0.039495923 -0.26586503
-0.060276274 -0.039417874 -0.26586917
-0.060272757 -0.039339736 -0.26587731
-0.060270041 -0.039259993 -0.26586744
-0.060267322 -0.039180249 -0.26585758
-0.060264118 -0.039100289 -0.26585767
-0.060260799 -0.039022237 -0.26586184
-0.060257379 -0.038944148 -0.26586798
-0.060254272 -0.038864229 -0.2658661
-0.060251631 -0.038786486 -0.26585627
-0.060248427 -0.038706522 -0.26585639
-0.060245302 -0.038628556 -0.26585653
-0.060242195 -0.038548641 -0.26585466
-0.060238969 -0.038470633 -0.2658568
-0.060235452 -0.038392499 -0.26586497
-0.060232054 -0.038312454 -0.26586908
-0.060229436 -0.038232751 -0.26585719
-0.060226407 -0.038154833 -0.26585537
-0.060223199 -0.03807487 -0.26585546
-0.060219783 -0.037996776 -0.26586163
-0.060216364 -0.037918687 -0.26586777
-0.06021345 -0.037838854 -0.2658619
-0.060210615 -0.037761021 -0.26585606
-0.060207725 -0.037679236 -0.26584813
-0.060204696 -0.037601318 -0.26584631
-0.060201395 -0.037521314 -0.2658484
-0.060198169 -0.03744331 -0.26585054
-0.060195141 -0.037365388 -0.26584873
-0.060192131 -0.037285514 -0.26584482
-0.060188908 -0.037207507 -0.265847
-0.060185488 -0.037129417 -0.26585314
-0.060182575 -0.037049584 -0.26584727
-0.060179956 -0.036969882 -0.2658354
-0.060177047 -0.036890052 -0.2658295
-0.060173918 -0.036812089 -0.26582968
-0.060170401 -0.036733955 -0.26583782
-0.060167082 -0.036655903 -0.26584196
-0.060164362 -0.036576159 -0.2658321
-0.060161158 -0.0364962 -0.26583222
-0.06015772 -0.036420062 -0.26584041
-0.060154319 -0.036340013 -0.26584452
-0.060151584 -0.036262225 -0.26583669
-0.060148869 -0.036182478 -0.26582682
-0.060145468 -0.036102433 -0.26583093
-0.060142048 -0.036024339 -0.26583707
-0.060139216 -0.035946507 -0.26583123
-0.060136303 -0.035866678 -0.26582536
-0.060133293 -0.0357868 -0.26582146
-0.060129777 -0.035708666 -0.26582962
-0.060126454 -0.035630614 -0.26583377
-0.060123738 -0.03555087 -0.2658239
-0.060120709 -0.035472952 -0.26582205
-0.060117699 -0.035393078 -0.26581818
-0.060114693 -0.035313204 -0.2658143
-0.060111251 -0.035237066 -0.2658225
-0.060107656 -0.035156932 -0.26583058
-0.06010453 -0.035078969 -0.26583076
-0.060101599 -0.035001092 -0.26582691
-0.060098685 -0.034921262 -0.26582104
-0.06009607 -0.03484156 -0.26580918
-0.060093351 -0.034761816 -0.26579928
-0.060090147 -0.034681857 -0.2657994
-0.060086727 -0.034603767 -0.26580554
-0.060083698 -0.034525845 -0.26580369
-0.060080476 -0.034447838 -0.26580587
-0.060076881 -0.034367703 -0.26581395
-0.060073752 -0.03428974 -0.26581413
-0.060070626 -0.034211777 -0.26581427
-0.060067423 -0.034131818 -0.26581439
-0.060064588 -0.034053985 -0.26580858
-0.060062263 -0.033974417 -0.2657907
-0.060059447 -0.033894628 -0.26578283
-0.060056224 -0.033816621 -0.26578498
-0.06005292 -0.033736616 -0.26578709
-0.060049891 -0.033658698 -0.26578525
-0.060046881 -0.033578824 -0.26578137
-0.060043443 -0.033502683 -0.26578957
-0.060039636 -0.033424418 -0.26580369
-0.060036723 -0.033344589 -0.26579782
-0.060034297 -0.033264972 -0.26578194
-0.060031172 -0.033187013 -0.26578212
-0.060027752 -0.03310892 -0.26578826
-0.060024627 -0.033030957 -0.26578844
-0.060021326 -0.032950953 -0.26579052
-0.060017809 -0.032872818 -0.26579869
-0.06001468 -0.032794852 -0.26579884
-0.060011964 -0.032715108 -0.26578897
-0.060009032 -0.032637231 -0.26578513
-0.060006022 -0.032557357 -0.26578122
-0.060003016 -0.032477483 -0.26577735
-0.059999987 -0.032399565 -0.26577553
-0.059996881 -0.03231965 -0.26577365
-0.059993654 -0.032241642 -0.2657758
-0.059990235 -0.032163549 -0.26578194
-0.059987012 -0.032085542 -0.26578408
-0.059983905 -0.032005623 -0.26578221
-0.059980679 -0.031927619 -0.26578438
-0.059977651 -0.031849697 -0.26578254
-0.059974447 -0.031769738 -0.26578265
-0.059971318 -0.031691775 -0.2657828
-0.059968311 -0.031611905 -0.26577893
-0.059965186 -0.031533942 -0.26577908
-0.059961766 -0.031455845 -0.26578522
-0.059958853 -0.031376015 -0.26577935
-0.059956312 -0.031298313 -0.26576751
-0.059953399 -0.03121848 -0.26576164
-0.059950467 -0.031140607 -0.2657578
-0.059947148 -0.031062556 -0.26576197
-0.059943356 -0.030982334 -0.26577407
-0.059940424 -0.030904459 -0.26577023
-0.059937105 -0.03082641 -0.26577437
-0.059934191 -0.030746579 -0.2657685
-0.059931554 -0.030668832 -0.26575866
-0.059928231 -0.030590784 -0.26576281
-0.059925027 -0.030510822 -0.26576293
-0.059922192 -0.03043299 -0.26575708
-0.059919182 -0.030353116 -0.26575321
-0.059916347 -0.030275283 -0.2657474
-0.05991324 -0.030195367 -0.26574549
-0.059910212 -0.030117447 -0.26574367
-0.059907086 -0.030039484 -0.26574382
-0.059903961 -0.029961521 -0.26574397
-0.059900541 -0.029883428 -0.26575014
-0.059897043 -0.029803338 -0.26575625
-0.059894308 -0.029725548 -0.26574841
-0.059891395 -0.029645717 -0.26574254
-0.059888173 -0.029567711 -0.26574469
-0.059885241 -0.029489834 -0.26574084
-0.059882522 -0.02941009 -0.26573098
-0.059879202 -0.029332042 -0.26573512
-0.059875488 -0.029253818 -0.26574728
-0.059872363 -0.029175855 -0.26574743
-0.05986945 -0.029096026 -0.26574153
-0.059866324 -0.029018063 -0.26574171
-0.059863314 -0.028938189 -0.26573783
-0.059859995 -0.028860139 -0.26574197
-0.059856966 -0.028782219 -0.26574016
-0.059854053 -0.028702389 -0.26573426
-0.059850633 -0.028624296 -0.26574039
-0.059847407 -0.028546289 -0.26574257
-0.059844498 -0.028466458 -0.2657367
-0.059841469 -0.028388539 -0.26573485
-0.059838556 -0.028308708 -0.26572895
-0.059835821 -0.028230919 -0.26572114
-0.059832402 -0.028152827 -0.26572728
-0.059828904 -0.028072735 -0.26573339
-0.059825875 -0.027994815 -0.26573154
-0.059822846 -0.027916897 -0.26572973
-0.059819721 -0.027838934 -0.26572987
-0.059816711 -0.02775906 -0.265726
-0.059813682 -0.027681138 -0.26572415
-0.059810456 -0.027603135 -0.2657263
-0.059807934 -0.027523477 -0.26571244
-0.059805218 -0.027443733 -0.26570255
-0.059801996 -0.027365725 -0.26570472
-0.05979877 -0.02728772 -0.26570687
-0.059795644 -0.027209757 -0.26570705
-0.059792418 -0.027131751 -0.26570919
-0.059789214 -0.027051792 -0.26570931
-0.059786379 -0.026973957 -0.26570347
-0.059783272 -0.02689404 -0.26570159
-0.059779834 -0.026817901 -0.26570979
-0.059776414 -0.02673981 -0.26571593
-0.059773505 -0.026659979 -0.26571006
-0.059770767 -0.026582189 -0.26570222
-0.059767466 -0.026502185 -0.26570433
-0.059764437 -0.026424266 -0.26570249
-0.059761405 -0.026346345 -0.26570067
-0.059758104 -0.026266342 -0.26570278
-0.059755173 -0.026188465 -0.26569891
-0.059752457 -0.026108721 -0.26568905
-0.059749428 -0.026030801 -0.26568723
-0.059746008 -0.02595271 -0.26569337
-0.059742786 -0.025874704 -0.26569551
-0.05973956 -0.025796697 -0.26569769
-0.059736259 -0.025716692 -0.2656998
-0.059733327 -0.025638817 -0.26569593
-0.059730299 -0.025560897 -0.26569411
-0.059726898 -0.02548085 -0.26569822
-0.059723869 -0.02540293 -0.26569638
-0.05972084 -0.025325011 -0.26569456
-0.059717637 -0.025245052 -0.26569465
-0.059714705 -0.025167175 -0.2656908
-0.059711967 -0.025089385 -0.265683
-0.059709251 -0.02500964 -0.2656731
-0.059705928 -0.024931591 -0.26567727
-0.059702706 -0.024853585 -0.26567942
-0.059700064 -0.024775838 -0.26566958
-0.059697252 -0.024696052 -0.26566172
-0.059693929 -0.024618002 -0.26566589
-0.059690412 -0.024539866 -0.26567402
-0.059687208 -0.024459906 -0.26567414
-0.059683986 -0.024381898 -0.26567629
-0.059680663 -0.02430385 -0.26568043
-0.059677731 -0.024225973 -0.26567662
-0.059675016 -0.024146229 -0.26566672
-0.059672277 -0.024068439 -0.26565892
-0.059669249 -0.023990519 -0.26565707
-0.059665751 -0.023910429 -0.26566318
-0.059662625 -0.023832466 -0.26566333
-0.059659891 -0.023754677 -0.26565549
-0.059656858 -0.023676757 -0.26565367
-0.059653539 -0.023598708 -0.26565781
-0.059650332 -0.023518749 -0.26565793
-0.059647013 -0.023440698 -0.26566207
-0.05964369 -0.023362648 -0.26566625
-0.059641462 -0.023283122 -0.26564637
-0.059638921 -0.023205418 -0.26563454
-0.05963511 -0.023127152 -0.26564869
-0.05963169 -0.02304906 -0.26565483
-0.059628878 -0.022969272 -0.26564696
-0.059626043 -0.022891439 -0.26564112
-0.059623111 -0.022813562 -0.26563728
-0.05961981 -0.02273356 -0.26563939
-0.059616584 -0.022655552 -0.26564157
-0.059613772 -0.022575766 -0.26563367
-0.059611131 -0.022498019 -0.26562387
-0.059608102 -0.022420099 -0.26562202
-0.059605073 -0.022342181 -0.26562017
-0.059602551 -0.022262523 -0.26560628
-0.059600204 -0.022184907 -0.26559049
-0.059597783 -0.022105291 -0.26557463
-0.059595339 -0.022027634 -0.26556081
-0.059592504 -0.0219498 -0.26555496
-0.059589397 -0.021869883 -0.26555309
-0.059585977 -0.02179179 -0.26555923
-0.059582561 -0.021713696 -0.2655654
-0.059579432 -0.021635734 -0.26556554
-0.059575934 -0.021555644 -0.26557165
-0.059572518 -0.02147755 -0.26557779
-0.059570268 -0.021399979 -0.26555997
-0.059568312 -0.021322535 -0.26553619
-0.059565887 -0.02124292 -0.2655203
-0.059562664 -0.021164915 -0.26552248
-0.059558757 -0.021086605 -0.2655386
-0.059554555 -0.021008166 -0.26556072
-0.059550747 -0.020929901 -0.26557487
-0.059548225 -0.020850243 -0.26556101
-0.059548728 -0.020771928 -0.26548523
-0.059550576 -0.020696174 -0.26538354
-0.059551273 -0.020617947 -0.26530376
-0.059551872 -0.020539677 -0.26522598
-0.059551578 -0.020462969 -0.26516822
-0.059551787 -0.020384526 -0.26509842
-0.059552658 -0.020308338 -0.2650167
-0.059552185 -0.020229591 -0.26496089
-0.059552379 -0.020153102 -0.26489314
-0.059553251 -0.020076916 -0.26481143
-0.059553947 -0.019998688 -0.26473165
-0.05955404 -0.019922154 -0.2646659
-0.059553158 -0.019845188 -0.26462013
-0.059553739 -0.019768871 -0.2645444
-0.059555899 -0.019691294 -0.26443467
-0.059554137 -0.019613937 -0.26440686
-0.059552278 -0.019536538 -0.26438105
-0.059563488 -0.019388366 -0.26402387
-0.059564456 -0.019312223 -0.26394016
-0.059564084 -0.019233519 -0.26388237
-0.059563864 -0.01915881 -0.26382464
-0.059563369 -0.019082017 -0.26377088
-0.059561707 -0.019004706 -0.26374108
-0.059560727 -0.018927695 -0.2636973
-0.059560038 -0.018850816 -0.26364753
-0.059558939 -0.018775718 -0.2636078
-0.059557471 -0.018698491 -0.263574
-0.059556101 -0.018621309 -0.26353821
-0.059554242 -0.018543908 -0.2635124
-0.059552286 -0.018466465 -0.26348859
-0.059550602 -0.018391108 -0.26346087
-0.059548941 -0.018313795 -0.26343104
-0.059546985 -0.018236352 -0.26340723
-0.059544325 -0.018160561 -0.26339945
-0.059541393 -0.018082684 -0.26339564
-0.059538364 -0.018004764 -0.26339379
-0.05953563 -0.017926974 -0.26338595
-0.059532776 -0.017851098 -0.26338217
-0.059529647 -0.017773135 -0.26338232
-0.059526324 -0.017695084 -0.26338649
-0.059523005 -0.017617036 -0.26339063
-0.059519 -0.017538682 -0.26340878
-0.059514683 -0.017462155 -0.26343495
-0.059510581 -0.017383758 -0.26345506
-0.059506673 -0.017305449 -0.26347119
-0.059503254 -0.017227355 -0.26347736
-0.059500419 -0.017149523 -0.26347151
-0.059498053 -0.017073862 -0.26345775
-0.059494633 -0.016995769 -0.26346391
-0.059490241 -0.016917244 -0.26349002
-0.059486236 -0.01683889 -0.26350814
-0.059482913 -0.016760841 -0.26351231
-0.059479102 -0.016682575 -0.26352644
-0.05947537 -0.016606307 -0.26354063
-0.059471875 -0.016526215 -0.26354674
-0.059469022 -0.016450338 -0.26354295
-0.059466284 -0.016372548 -0.26353511
-0.059463549 -0.016294759 -0.26352727
-0.059461378 -0.016219184 -0.26350951
-0.059459031 -0.016141567 -0.26349369
-0.05945649 -0.016063865 -0.26348189
-0.059454318 -0.01598829 -0.26346409
-0.059451777 -0.015910588 -0.26345229
-0.059449237 -0.015832884 -0.26344046
-0.059446577 -0.015757091 -0.26343268
-0.059442766 -0.015678827 -0.26344681
-0.059439056 -0.015600603 -0.26345897
-0.059435733 -0.015522555 -0.26346311
-0.059433095 -0.015444808 -0.26345327
-0.059430454 -0.015367062 -0.26344347
-0.059426919 -0.015290881 -0.26345366
-0.059423324 -0.015210746 -0.26346174
-0.059420373 -0.015134824 -0.26345995
-0.059417635 -0.015057035 -0.26345211
-0.059415288 -0.014979419 -0.26343632
-0.05941312 -0.014903844 -0.26341856
-0.059410967 -0.014826315 -0.26339871
-0.059409283 -0.014750956 -0.26337099
-0.059407797 -0.014675684 -0.26333922
-0.059405547 -0.014598112 -0.2633214
-0.059402324 -0.014520106 -0.26332355
-0.059397832 -0.014441537 -0.26335168
-0.059393436 -0.01436301 -0.26337779
-0.059389625 -0.014284745 -0.26339194
-0.05938562 -0.014206392 -0.26341009
-0.059381422 -0.014127952 -0.2634322
-0.059377633 -0.014047732 -0.2634443
-0.059374094 -0.013971549 -0.2634545
-0.059370678 -0.013893457 -0.26346064
-0.059367452 -0.01381545 -0.26346278
-0.05936452 -0.013737575 -0.26345897
-0.059361588 -0.013659699 -0.26345512
-0.05935856 -0.013581779 -0.2634533
-0.059356291 -0.01350616 -0.26343751
-0.05935375 -0.013428458 -0.26342571
-0.059350234 -0.013350322 -0.26343384
-0.059346814 -0.013272229 -0.26343998
