# .PCD v0.7 - Point Cloud Data file format
VERSION 0.7
FIELDS x y z
SIZE 4 4 4
TYPE F F F
COUNT 1 1 1
WIDTH 1305
HEIGHT 1
VIEWPOINT 0 0 0 1 0 0 0
POINTS 1305
DATA ascii
-0.12498518 -0.031531136 -0.26894441
-0.12498176 -0.031453043 -0.26895055
-0.12497865 -0.031373128 -0.26894867
-0.12497573 -0.031295251 -0.26894483
-0.12497251 -0.031215288 -0.26894495
-0.12496988 -0.031137543 -0.26893511
-0.12496687 -0.031057671 -0.26893124
-0.12496364 -0.030979663 -0.26893342
-0.12496042 -0.030901657 -0.26893556
-0.1249575 -0.030821826 -0.26892966
-0.12495459 -0.030741995 -0.26892379
-0.12495127 -0.030663945 -0.26892793
-0.12494794 -0.030585896 -0.2689321
-0.12494481 -0.030507933 -0.26893228
-0.1249418 -0.030428059 -0.26892838
-0.12493868 -0.030350097 -0.26892856
-0.12493547 -0.030270137 -0.26892865
-0.12493215 -0.030192086 -0.26893282
-0.12492892 -0.030114081 -0.26893497
-0.12492591 -0.030034207 -0.26893109
-0.12492279 -0.029956244 -0.26893124
-0.12491997 -0.029876456 -0.26892337
-0.12491725 -0.029796712 -0.26891351
-0.12491422 -0.029718794 -0.26891166
-0.12491102 -0.029638831 -0.26891178
-0.12490758 -0.029562693 -0.26891997
-0.12490416 -0.029484602 -0.26892611
-0.12490144 -0.029404858 -0.26891625
-0.12489901 -0.029325243 -0.26890039
-0.12489591 -0.029245324 -0.26889849
-0.12489219 -0.029167103 -0.26891065
-0.12488846 -0.029090837 -0.26892483
-0.12488525 -0.029010873 -0.26892495
-0.12488203 -0.028932869 -0.2689271
-0.12487882 -0.028852908 -0.26892722
-0.1248763 -0.02877325 -0.26891333
-0.12487337 -0.028695375 -0.26890951
-0.12486965 -0.028617151 -0.26892164
-0.12486672 -0.028539274 -0.2689178
-0.124864 -0.02845953 -0.26890793
-0.12536457 -0.041159771 -0.26904166
-0.12536155 -0.041081853 -0.26903981
-0.12535863 -0.041002024 -0.26903394
-0.12535611 -0.040922366 -0.26902008
-0.1253528 -0.040842362 -0.26902217
-0.12534928 -0.040764228 -0.26903033
-0.12534577 -0.040686093 -0.26903847
-0.12534255 -0.040608086 -0.26904061
-0.12533954 -0.040528208 -0.26903674
-0.12533611 -0.040450118 -0.26904291
-0.12533279 -0.040372066 -0.26904705
-0.12533008 -0.040292323 -0.26903719
-0.12532717 -0.040212493 -0.26903129
-0.12532435 -0.040132705 -0.26902342
-0.12532112 -0.040054701 -0.26902556
-0.1253178 -0.039976649 -0.26902974
-0.12531479 -0.039896775 -0.26902586
-0.12531178 -0.039816901 -0.26902196
-0.12530856 -0.039738894 -0.26902413
-0.12530525 -0.039658889 -0.26902622
-0.12530243 -0.039579105 -0.26901835
-0.12529932 -0.039499186 -0.26901647
-0.12529621 -0.039421223 -0.26901662
-0.12529278 -0.039343134 -0.26902279
-0.12528968 -0.039263211 -0.26902092
-0.12528686 -0.039183427 -0.26901302
-0.12528363 -0.039105423 -0.26901516
-0.12528022 -0.039027326 -0.26902133
-0.1252767 -0.038949192 -0.26902947
-0.12527409 -0.038867537 -0.26901555
-0.12527157 -0.038787879 -0.26900169
-0.12526846 -0.03870796 -0.26899981
-0.12526575 -0.038628221 -0.26898992
-0.12526293 -0.038548432 -0.26898205
-0.12525941 -0.038470294 -0.26899022
-0.12525587 -0.038394112 -0.26900041
-0.12525238 -0.038314022 -0.26900649
-0.12524906 -0.03823597 -0.26901066
-0.12524593 -0.038158007 -0.26901081
-0.12524301 -0.038078181 -0.26900494
-0.1252401 -0.037998348 -0.26899907
-0.12523729 -0.03791856 -0.26899117
-0.12523428 -0.03783869 -0.2689873
-0.12523054 -0.037762418 -0.26900148
-0.12522683 -0.037684195 -0.26901364
-0.1252238 -0.037606277 -0.2690118
-0.1252204 -0.037526231 -0.26901591
-0.12521747 -0.037448354 -0.26901206
-0.12521496 -0.03736674 -0.26899615
-0.12521183 -0.037288778 -0.26899633
-0.12520841 -0.037210688 -0.26900247
-0.12520489 -0.03713255 -0.2690106
-0.12520148 -0.037054457 -0.26901677
-0.12519825 -0.036976449 -0.26901892
-0.12519524 -0.036896579 -0.26901504
-0.12519222 -0.036816701 -0.26901117
-0.12518901 -0.036738697 -0.26901332
-0.12518568 -0.036660649 -0.26901746
-0.12518328 -0.03657908 -0.26899958
-0.12518066 -0.036499377 -0.26898769
-0.12517723 -0.036421284 -0.26899385
-0.12517373 -0.036341194 -0.26899993
-0.12517062 -0.036263231 -0.26900011
-0.12516759 -0.036183357 -0.26899624
-0.12516508 -0.036103699 -0.26898235
-0.12516245 -0.036023997 -0.26897049
-0.12515894 -0.035945863 -0.26897863
-0.12515552 -0.035867773 -0.26898479
-0.12515251 -0.035787895 -0.26898092
-0.1251494 -0.03570798 -0.26897901
-0.12514618 -0.035629973 -0.26898116
-0.12514286 -0.035551924 -0.26898533
-0.12513943 -0.035473831 -0.26899147
-0.12513623 -0.035393871 -0.26899159
-0.12513351 -0.035314128 -0.26898172
-0.1251307 -0.03523434 -0.26897383
-0.12512758 -0.035154421 -0.26897195
-0.12512465 -0.035076544 -0.26896811
-0.12512152 -0.034998581 -0.26896828
-0.12511791 -0.034920402 -0.26897842
-0.1251144 -0.034842268 -0.26898658
-0.12511139 -0.034762394 -0.26898271
-0.12510866 -0.034682646 -0.26897281
-0.12510575 -0.034602821 -0.26896694
-0.12510273 -0.034524899 -0.2689651
-0.12509911 -0.03444672 -0.26897526
-0.12509568 -0.034368627 -0.2689814
-0.12509246 -0.034290619 -0.26898354
-0.12508926 -0.03421066 -0.26898366
-0.12508632 -0.034132782 -0.26897985
-0.12508331 -0.034052908 -0.26897597
-0.12508 -0.033972904 -0.26897806
-0.12507679 -0.033894897 -0.26898021
-0.12507315 -0.033818673 -0.26899242
-0.12506995 -0.033738714 -0.26899251
-0.12506743 -0.033659056 -0.26897866
-0.12506442 -0.033579182 -0.26897478
-0.12506129 -0.033501223 -0.26897493
-0.12505835 -0.033423342 -0.26897109
-0.12505534 -0.033343468 -0.26896721
-0.12505223 -0.033263553 -0.26896533
-0.1250491 -0.03318559 -0.26896548
-0.125046 -0.033105671 -0.26896361
-0.12504277 -0.033027664 -0.26896575
-0.12503967 -0.032947749 -0.26896387
-0.12503663 -0.032869827 -0.26896203
-0.12503362 -0.032789953 -0.26895815
-0.1250302 -0.032711864 -0.26896429
-0.12502727 -0.032633986 -0.26896048
-0.12502457 -0.032552287 -0.26894855
-0.12502174 -0.032474458 -0.26894271
-0.12501863 -0.032394536 -0.26894084
-0.12501541 -0.032316528 -0.26894301
-0.12501198 -0.032238439 -0.26894915
-0.12500857 -0.032160345 -0.26895529
-0.12500495 -0.032082167 -0.26896545
-0.12500164 -0.032002158 -0.26896757
-0.12499893 -0.031922419 -0.26895767
-0.12499619 -0.031844631 -0.26894987
-0.12499288 -0.031764623 -0.26895195
-0.12498956 -0.031686574 -0.26895612
-0.12498644 -0.031608611 -0.26895627
-0.12498323 -0.031528652 -0.26895639
-0.12497991 -0.031450603 -0.26896054
-0.12497698 -0.031372726 -0.26895672
-0.12497416 -0.031292938 -0.26894882
-0.12497125 -0.031213107 -0.26894295
-0.12496822 -0.031135188 -0.2689411
-0.12496489 -0.031057138 -0.26894528
-0.12496159 -0.030977136 -0.26894736
-0.12495846 -0.030899173 -0.26894754
-0.12495534 -0.03082121 -0.26894769
-0.12495272 -0.030741509 -0.26893583
-0.12494959 -0.030663546 -0.26893598
-0.12494599 -0.030583411 -0.26894408
-0.12494287 -0.030505449 -0.26894426
-0.12493996 -0.030425619 -0.26893836
-0.12493673 -0.030347612 -0.26894051
-0.12493341 -0.030269563 -0.26894468
-0.12493028 -0.0301916 -0.26894483
-0.12492736 -0.030111769 -0.26893896
-0.12492435 -0.030031895 -0.26893508
-0.12492143 -0.02995402 -0.26893124
-0.12491839 -0.0298761 -0.26892942
-0.12491529 -0.029796183 -0.26892751
-0.12491187 -0.02971809 -0.26893365
-0.12490854 -0.029640041 -0.26893783
-0.12490533 -0.02956008 -0.26893795
-0.12490211 -0.029482074 -0.26894009
-0.1248991 -0.0294022 -0.26893622
-0.12489677 -0.029322628 -0.26891837
-0.12489393 -0.029244795 -0.26891252
-0.12489032 -0.029166616 -0.26892266
-0.1248868 -0.02908848 -0.26893082
-0.1248837 -0.029008562 -0.26892895
-0.12488028 -0.02893047 -0.26893508
-0.12487705 -0.028852465 -0.26893723
-0.12487443 -0.028772764 -0.26892537
-0.12487151 -0.028692933 -0.2689195
-0.1248679 -0.028614752 -0.26892963
-0.12486468 -0.028536748 -0.26893181
-0.12486176 -0.028456917 -0.26892591
-0.12485883 -0.028379042 -0.26892209
-0.1253653 -0.041159205 -0.26903731
-0.12536208 -0.041081201 -0.26903945
-0.12535927 -0.041001417 -0.26903158
-0.12535657 -0.040919714 -0.26901966
-0.12535334 -0.04084171 -0.26902181
-0.12534982 -0.040763572 -0.26902997
-0.1253463 -0.040685438 -0.26903811
-0.12534308 -0.04060743 -0.26904029
-0.12534016 -0.040527597 -0.26903439
-0.12533665 -0.040449463 -0.26904255
-0.12533352 -0.0403715 -0.2690427
-0.12533061 -0.040291671 -0.26903683
-0.1253278 -0.040211886 -0.26902896
-0.12532488 -0.040132053 -0.26902306
-0.12532166 -0.040054046 -0.26902524
-0.12531833 -0.039975993 -0.26902938
-0.12531532 -0.039896123 -0.2690255
-0.12531231 -0.039816249 -0.26902163
-0.12530908 -0.039738242 -0.26902378
-0.12530577 -0.039658241 -0.26902589
-0.12530297 -0.039578453 -0.26901799
-0.12529986 -0.03949853 -0.26901612
-0.12529673 -0.039420571 -0.26901627
-0.12529331 -0.039342478 -0.26902243
-0.1252902 -0.039262559 -0.26902056
-0.12528738 -0.039182775 -0.26901269
-0.12528417 -0.039104767 -0.26901484
-0.12528074 -0.039026674 -0.26902097
-0.12527731 -0.038948581 -0.26902711
-0.12527481 -0.038866971 -0.26901123
-0.1252722 -0.038787268 -0.26899934
-0.125269 -0.038707308 -0.26899946
-0.12526618 -0.03862752 -0.26899159
-0.12526344 -0.038549732 -0.26898375
-0.12525985 -0.038469598 -0.26899186
-0.1252564 -0.03839346 -0.26900005
-0.1252529 -0.038313366 -0.26900616
-0.12524968 -0.038235363 -0.26900831
-0.12524645 -0.038157355 -0.26901048
-0.12524363 -0.03807757 -0.26900259
-0.12524062 -0.037997693 -0.26899871
-0.12523781 -0.037917905 -0.26899081
-0.1252348 -0.037838034 -0.26898694
-0.12523107 -0.037761763 -0.26900113
-0.12522735 -0.037683539 -0.26901329
-0.12522422 -0.03760558 -0.26901346
-0.12522082 -0.037525535 -0.26901755
-0.12521809 -0.037447743 -0.26900971
-0.12521549 -0.037366088 -0.26899582
-0.12521236 -0.037288126 -0.26899597
-0.12520884 -0.037209988 -0.26900411
-0.12520543 -0.037131898 -0.26901028
-0.125202 -0.037053805 -0.26901641
-0.12519878 -0.036975801 -0.26901859
-0.12519576 -0.036895923 -0.26901469
-0.12519275 -0.036816046 -0.26901081
-0.12518942 -0.036738001 -0.26901495
-0.1251862 -0.036659993 -0.2690171
-0.12518381 -0.036578424 -0.26899922
-0.1251812 -0.03649677 -0.2689853
-0.12517776 -0.036420632 -0.2689935
-0.12517424 -0.036342494 -0.26900163
-0.12517112 -0.036262579 -0.26899976
-0.1251681 -0.036184661 -0.26899791
-0.1251656 -0.036103047 -0.26898199
-0.12516297 -0.036023349 -0.26897013
-0.12515946 -0.035945211 -0.2689783
-0.12515613 -0.035867162 -0.26898244
-0.12515303 -0.035787243 -0.26898056
-0.12514992 -0.035707325 -0.26897866
-0.1251467 -0.035629317 -0.26898083
-0.12514338 -0.035551272 -0.26898497
-0.12513995 -0.035473179 -0.26899111
-0.12513685 -0.03539326 -0.26898924
-0.12513404 -0.035313472 -0.26898137
-0.12513112 -0.035233643 -0.2689755
-0.12512809 -0.035155721 -0.26897365
-0.12512508 -0.035075847 -0.26896977
-0.12512204 -0.034997929 -0.26896793
-0.12511843 -0.034919754 -0.26897806
-0.12511492 -0.034841612 -0.26898623
-0.125112 -0.034761783 -0.26898035
-0.12510929 -0.034682039 -0.26897049
-0.12510636 -0.03460221 -0.26896459
-0.12510324 -0.034524247 -0.26896477
-0.12509972 -0.034446113 -0.2689729
-0.1250962 -0.034367975 -0.26898104
-0.12509298 -0.034289967 -0.26898322
-0.12508987 -0.034210049 -0.26898134
-0.12508686 -0.034130175 -0.26897743
-0.12508392 -0.034052301 -0.26897359
-0.12508063 -0.033972293 -0.26897573
-0.12507731 -0.033894248 -0.26897988
-0.12507357 -0.033817977 -0.26899406
-0.12507047 -0.033738062 -0.26899219
-0.12506793 -0.0336584 -0.2689783
-0.12506492 -0.03357853 -0.26897442
-0.1250619 -0.033500612 -0.26897258
-0.12505886 -0.03342269 -0.26897076
-0.12505585 -0.033342816 -0.26896685
-0.12505275 -0.033262901 -0.26896498
-0.12504962 -0.033184938 -0.26896513
-0.12504651 -0.033105019 -0.26896325
-0.12504338 -0.033027057 -0.2689634
-0.12504017 -0.032947093 -0.26896352
-0.12503715 -0.032869175 -0.2689617
-0.12503403 -0.03278926 -0.26895982
-0.12503062 -0.032711167 -0.26896596
-0.12502779 -0.032633334 -0.26896012
-0.12502518 -0.032551676 -0.2689462
-0.12502225 -0.032473803 -0.26894239
-0.12501904 -0.032393839 -0.26894248
-0.12501591 -0.03231588 -0.26894265
-0.1250125 -0.032237787 -0.26894879
-0.12500907 -0.032159694 -0.26895493
-0.12500545 -0.032081515 -0.2689651
-0.12500216 -0.03200151 -0.26896721
-0.12499944 -0.031921767 -0.26895732
-0.1249967 -0.031843975 -0.26894951
-0.1249934 -0.031763971 -0.26895159
-0.12499017 -0.031685963 -0.26895377
-0.12498704 -0.031608 -0.26895392
-0.12498374 -0.031528 -0.26895604
-0.12498042 -0.031449951 -0.26896018
-0.12497748 -0.031372074 -0.26895636
-0.12497467 -0.031292286 -0.2689485
-0.12497186 -0.031212498 -0.2689406
-0.12496873 -0.031134535 -0.26894075
-0.12496541 -0.031056486 -0.26894492
-0.12496211 -0.030976482 -0.26894704
-0.12495888 -0.030898478 -0.26894918
-0.12495585 -0.030820556 -0.26894736
-0.12495323 -0.030740857 -0.26893547
-0.1249501 -0.030662894 -0.26893562
-0.1249465 -0.03058276 -0.26894373
-0.12494347 -0.030504841 -0.26894191
-0.12494046 -0.030424966 -0.268938
-0.12493724 -0.03034696 -0.26894018
-0.12493391 -0.030268911 -0.26894432
-0.12493088 -0.030190991 -0.26894248
-0.12492787 -0.030111115 -0.2689386
-0.12492476 -0.0300312 -0.26893672
-0.12492193 -0.029953368 -0.26893088
-0.124919 -0.029875491 -0.26892704
-0.12491589 -0.029795572 -0.26892519
-0.12491247 -0.029717479 -0.26893133
-0.12490905 -0.029639388 -0.26893747
-0.12490594 -0.029559471 -0.26893559
-0.12490261 -0.029481422 -0.26893973
-0.1248997 -0.029401591 -0.26893386
-0.12489728 -0.029321976 -0.26891801
-0.12489444 -0.029244144 -0.26891217
-0.12489083 -0.029165965 -0.2689223
-0.12488731 -0.029087828 -0.26893046
-0.1248842 -0.029007912 -0.26892859
-0.12488069 -0.028929774 -0.26893672
-0.12487746 -0.02885177 -0.2689389
-0.12487493 -0.02877211 -0.26892501
-0.12487202 -0.028692279 -0.26891914
-0.12486841 -0.0286141 -0.26892927
-0.12486518 -0.028536094 -0.26893145
-0.12486227 -0.028456263 -0.26892555
-0.12485924 -0.028378345 -0.26892373
-0.12536642 -0.041158237 -0.26903519
-0.1253636 -0.041078456 -0.26902732
-0.12536091 -0.040996753 -0.2690154
-0.12535818 -0.040917009 -0.26900554
-0.12535477 -0.04083892 -0.26901168
-0.12535083 -0.040762566 -0.26902986
-0.12534751 -0.040684514 -0.26903403
-0.1253446 -0.040604681 -0.26902813
-0.12534168 -0.040524852 -0.26902226
-0.12533836 -0.040446803 -0.2690264
-0.12533523 -0.04036884 -0.26902658
-0.12533222 -0.040288966 -0.2690227
-0.12532921 -0.040209092 -0.26901883
-0.12532631 -0.040129259 -0.26901293
-0.12532318 -0.0400513 -0.26901311
-0.12531987 -0.039971292 -0.26901519
-0.12531686 -0.039891418 -0.26901132
-0.12531383 -0.0398135 -0.26900947
-0.12531021 -0.039735321 -0.26901963
-0.12530731 -0.039655492 -0.26901376
-0.12530468 -0.039575793 -0.26900187
-0.12530148 -0.039495826 -0.26900199
-0.12529813 -0.039419733 -0.26900819
-0.12529483 -0.039339729 -0.26901031
-0.12529171 -0.039261766 -0.26901045
-0.12528898 -0.039182022 -0.26900059
-0.12528597 -0.039102148 -0.26899669
-0.12528236 -0.039023969 -0.26900685
-0.12527893 -0.038945876 -0.26901299
-0.12527643 -0.038864262 -0.26899707
-0.12527351 -0.038784437 -0.2689912
-0.1252701 -0.03870634 -0.26899737
-0.12526737 -0.038626596 -0.26898748
-0.12526456 -0.038546808 -0.26897961
-0.12526134 -0.038468804 -0.26898175
-0.12525803 -0.038388796 -0.26898387
-0.12525481 -0.038310796 -0.26898605
-0.12525149 -0.038232744 -0.26899019
-0.12524806 -0.038154654 -0.26899633
-0.12524505 -0.038074777 -0.26899245
-0.12524195 -0.037994862 -0.26899058
-0.12523891 -0.03791694 -0.26898873
-0.12523581 -0.037837021 -0.26898685
-0.12523238 -0.037758932 -0.26899299
-0.12522897 -0.037680838 -0.26899916
-0.12522584 -0.037602875 -0.26899931
-0.12522244 -0.03752283 -0.26900342
-0.1252196 -0.037444994 -0.26899758
-0.12521708 -0.037365336 -0.26898372
-0.12521419 -0.037283555 -0.26897579
-0.12521076 -0.037205458 -0.26898193
-0.12520665 -0.037129018 -0.26900411
-0.1252031 -0.03705284 -0.2690143
-0.12519999 -0.036972918 -0.26901242
-0.12519728 -0.036893174 -0.26900256
-0.12519476 -0.03681352 -0.2689887
-0.12519114 -0.036735341 -0.26899883
-0.12518781 -0.036657289 -0.26900297
-0.12518522 -0.03657563 -0.26898909
-0.12518249 -0.03649589 -0.26897919
-0.12517908 -0.036417797 -0.26898536
-0.12517555 -0.036339663 -0.2689935
-0.12517244 -0.0362617 -0.26899365
-0.12516922 -0.03618174 -0.26899377
-0.12516661 -0.036102038 -0.2689819
-0.12516418 -0.036022425 -0.26896602
-0.12516098 -0.035942461 -0.26896614
-0.12515785 -0.035864498 -0.26896632
-0.12515484 -0.035784625 -0.26896241
-0.12515152 -0.03570658 -0.26896659
-0.12514821 -0.035626572 -0.2689687
-0.12514478 -0.035548478 -0.26897484
-0.12514137 -0.035470385 -0.26898098
-0.12513824 -0.035392426 -0.26898116
-0.12513532 -0.035312593 -0.26897526
-0.12513261 -0.035232849 -0.26896539
-0.12512949 -0.035152931 -0.26896352
-0.12512636 -0.035074968 -0.26896366
-0.12512326 -0.034995049 -0.26896179
-0.12511984 -0.03491696 -0.26896793
-0.12511642 -0.034838866 -0.2689741
-0.12511361 -0.034759078 -0.2689662
-0.12511088 -0.034679335 -0.26895633
-0.12510777 -0.034601375 -0.26895648
-0.12510465 -0.034521453 -0.26895463
-0.12510142 -0.034443446 -0.26895678
-0.1250979 -0.034365311 -0.26896492
-0.12509438 -0.034287177 -0.26897305
-0.12509167 -0.034207433 -0.26896319
-0.12508936 -0.034125909 -0.26894328
-0.12508634 -0.034047987 -0.26894146
-0.12508261 -0.033969764 -0.26895359
-0.12507889 -0.033893496 -0.26896778
-0.12507488 -0.033815145 -0.26898593
-0.12507185 -0.033737227 -0.26898408
-0.12506923 -0.033657521 -0.26897222
-0.12506622 -0.033577651 -0.26896834
-0.12506318 -0.033499733 -0.2689665
-0.12506036 -0.033419944 -0.2689586
-0.12505716 -0.033339985 -0.26895872
-0.12505394 -0.033261977 -0.26896089
-0.12505062 -0.033183929 -0.26896504
-0.1250475 -0.03310401 -0.26896316
-0.12504467 -0.033026177 -0.26895732
-0.12504156 -0.032946259 -0.26895544
-0.12503865 -0.03286643 -0.26894954
-0.12503552 -0.032788467 -0.26894972
-0.1250321 -0.032710373 -0.26895586
-0.12502928 -0.032630585 -0.26894799
-0.12502667 -0.032550886 -0.26893613
-0.12502354 -0.032472923 -0.26893628
-0.12502033 -0.03239296 -0.2689364
-0.12501721 -0.032315001 -0.26893654
-0.1250141 -0.032235082 -0.26893467
-0.12501077 -0.03215703 -0.26893881
-0.12500696 -0.032078765 -0.26895297
-0.12500355 -0.032000672 -0.26895911
-0.12500054 -0.031920798 -0.26895523
-0.12499789 -0.031843051 -0.2689454
-0.12499469 -0.031763092 -0.26894552
-0.12499146 -0.031685084 -0.26894766
-0.12498845 -0.031605214 -0.26894379
-0.12498523 -0.031527206 -0.26894593
-0.12498181 -0.031449117 -0.26895207
-0.12497879 -0.031369239 -0.2689482
-0.12497596 -0.031291407 -0.26894239
-0.12497285 -0.031211488 -0.26894051
-0.12496991 -0.031133614 -0.26893666
-0.12496681 -0.031053696 -0.26893479
-0.12496368 -0.030975733 -0.26893494
-0.12496055 -0.03089777 -0.26893508
-0.12495754 -0.030817896 -0.26893121
-0.12495463 -0.030738065 -0.26892534
-0.12495121 -0.030659974 -0.26893148
-0.12494788 -0.030581923 -0.26893565
-0.12494485 -0.030504005 -0.2689338
-0.12494184 -0.030424129 -0.26892993
-0.12493871 -0.030346166 -0.26893008
-0.1249356 -0.030266251 -0.2689282
-0.12493218 -0.030188156 -0.26893434
-0.12492906 -0.030110195 -0.26893449
-0.12492605 -0.030030319 -0.26893061
-0.12492292 -0.029952358 -0.26893079
-0.1249201 -0.02987257 -0.26892292
-0.12491719 -0.029792739 -0.26891702
-0.12491406 -0.029714778 -0.26891717
-0.12491103 -0.029636856 -0.26891536
-0.12490761 -0.029558765 -0.26892149
-0.12490409 -0.029480629 -0.26892966
-0.12490137 -0.029400885 -0.26891977
-0.12489895 -0.02932127 -0.26890391
-0.12489594 -0.029241396 -0.26890004
-0.12489203 -0.029163087 -0.26891616
-0.12488839 -0.029086862 -0.26892835
-0.12488538 -0.029006988 -0.26892447
-0.12488215 -0.028928982 -0.26892662
-0.12487895 -0.028849021 -0.26892674
-0.12487642 -0.028769365 -0.26891288
-0.1248733 -0.0286914 -0.26891303
-0.12486959 -0.028613178 -0.26892519
-0.12486685 -0.028535388 -0.26891735
-0.12486403 -0.028455602 -0.26890945
-0.12536663 -0.041155152 -0.26903641
-0.12536342 -0.041075192 -0.26903653
-0.12536061 -0.040995408 -0.26902863
-0.12535799 -0.040915705 -0.26901677
-0.12535466 -0.040837657 -0.26902092
-0.12535115 -0.040759522 -0.26902908
-0.12534763 -0.040681385 -0.26903722
-0.12534441 -0.040603377 -0.26903939
-0.1253414 -0.040523507 -0.26903549
-0.12533797 -0.04044541 -0.26904166
-0.12533484 -0.040367447 -0.26904181
-0.12533183 -0.040287577 -0.26903793
-0.12532902 -0.040207788 -0.26903003
-0.1253262 -0.040128 -0.26902217
-0.12532291 -0.040047996 -0.26902428
-0.12531959 -0.039969947 -0.26902843
-0.12531647 -0.039890029 -0.26902655
-0.12531364 -0.039812196 -0.26902074
-0.12531041 -0.039734192 -0.26902288
-0.12530711 -0.039654188 -0.269025
-0.12530419 -0.039574355 -0.2690191
-0.12530109 -0.03949444 -0.26901722
-0.12529816 -0.039416563 -0.2690134
-0.12529483 -0.039338514 -0.26901755
-0.12529153 -0.03925851 -0.26901966
-0.12528881 -0.039178766 -0.26900977
-0.12528539 -0.039100673 -0.26901594
-0.12528197 -0.03902258 -0.26902208
-0.12527865 -0.038944531 -0.26902622
-0.12527604 -0.038862877 -0.26901233
-0.12527323 -0.038783088 -0.26900446
-0.12527022 -0.038703211 -0.26900056
-0.1252677 -0.038623556 -0.2689867
-0.12526469 -0.038543679 -0.26898283
-0.12526107 -0.038465504 -0.26899296
-0.12525754 -0.038389321 -0.26900315
-0.12525412 -0.038309272 -0.26900727
-0.12525091 -0.038231269 -0.26900941
-0.12524778 -0.038153306 -0.26900959
-0.12524496 -0.038073517 -0.26900169
-0.12524195 -0.037993643 -0.26899782
-0.12523924 -0.0379139 -0.26898795
-0.12523612 -0.037833981 -0.26898605
-0.12523229 -0.037757669 -0.26900223
-0.12522858 -0.037679449 -0.26901439
-0.12522545 -0.037601486 -0.26901454
-0.12522206 -0.037521437 -0.26901865
-0.12521933 -0.037441693 -0.26900879
-0.12521701 -0.037362121 -0.26899093
-0.1252137 -0.037282117 -0.26899302
-0.12521027 -0.037205979 -0.26900122
-0.12520677 -0.037125893 -0.26900733
-0.12520343 -0.037049796 -0.26901352
-0.12520012 -0.036969788 -0.26901561
-0.12519708 -0.03689187 -0.26901379
-0.12519407 -0.036811996 -0.26900992
-0.12519078 -0.036731996 -0.26901203
-0.12518755 -0.036653988 -0.26901418
-0.12518522 -0.036574416 -0.2689963
-0.12518252 -0.03649272 -0.26898441
-0.12517908 -0.036416583 -0.2689926
-0.12517549 -0.036336444 -0.26900068
-0.12517245 -0.036258526 -0.26899886
-0.12516955 -0.036178693 -0.26899296
-0.12516724 -0.036097169 -0.26897305
-0.1251644 -0.036019336 -0.26896724
-0.12516078 -0.035941157 -0.26897737
-0.12515737 -0.035863064 -0.26898354
-0.12515436 -0.03578319 -0.26897967
-0.12515135 -0.035703316 -0.26897576
-0.12514803 -0.035625268 -0.26897991
-0.12514471 -0.035547219 -0.26898408
-0.12514128 -0.035469126 -0.26899022
-0.12513807 -0.035389163 -0.26899034
-0.12513526 -0.035309378 -0.26898247
-0.12513234 -0.035229549 -0.2689766
-0.12512931 -0.035151627 -0.26897475
-0.1251263 -0.035071753 -0.26897085
-0.12512328 -0.034993835 -0.26896903
-0.12511967 -0.0349137 -0.26897714
-0.12511614 -0.034837518 -0.26898733
-0.12511322 -0.034757689 -0.26898146
-0.12511042 -0.0346779 -0.26897356
-0.1251075 -0.034598067 -0.26896769
-0.12510447 -0.034520149 -0.26896584
-0.12510104 -0.03444206 -0.26897201
-0.12509763 -0.034363963 -0.26897815
-0.12509432 -0.034283962 -0.26898026
-0.1250912 -0.034205999 -0.26898044
-0.12508808 -0.034126081 -0.26897854
-0.12508516 -0.034048207 -0.26897469
-0.12508185 -0.033968203 -0.26897681
-0.12507853 -0.03389015 -0.26898098
-0.12507498 -0.033813968 -0.26899117
-0.12507188 -0.033734053 -0.26898926
-0.12506926 -0.033654351 -0.2689774
-0.12506625 -0.033574477 -0.26897353
-0.12506323 -0.033496559 -0.26897168
-0.12506022 -0.033416685 -0.26896781
-0.1250574 -0.033336896 -0.26895994
-0.12505427 -0.033258934 -0.26896009
-0.12505096 -0.033178933 -0.2689622
-0.12504774 -0.033100925 -0.26896435
-0.12504461 -0.033022963 -0.2689645
-0.1250415 -0.032943044 -0.26896262
-0.12503856 -0.032865167 -0.26895881
-0.12503536 -0.032785207 -0.2689589
-0.12503195 -0.032707117 -0.26896507
-0.12502901 -0.032629237 -0.26896122
-0.12502651 -0.032547623 -0.26894531
-0.12502368 -0.032469794 -0.2689395
-0.12502046 -0.032389835 -0.26893958
-0.12501714 -0.032311782 -0.26894373
-0.12501381 -0.032233734 -0.2689479
-0.1250103 -0.032155599 -0.26895604
-0.12500678 -0.032077461 -0.2689642
-0.12500358 -0.031997502 -0.26896432
-0.12500086 -0.031917758 -0.26895443
-0.12499812 -0.031839967 -0.26894659
-0.12499482 -0.031759962 -0.2689487
-0.1249914 -0.031681869 -0.26895487
-0.12498827 -0.03160391 -0.26895502
-0.12498496 -0.031523906 -0.26895714
-0.12498175 -0.031445898 -0.26895928
-0.12497883 -0.031366069 -0.26895341
-0.12497609 -0.031288277 -0.26894557
-0.12497308 -0.031208403 -0.2689417
-0.12496995 -0.031130441 -0.26894185
-0.12496663 -0.031052392 -0.26894602
-0.12496343 -0.03097243 -0.26894611
-0.1249603 -0.030894469 -0.26894629
-0.12495717 -0.030816505 -0.26894644
-0.12495465 -0.030736849 -0.26893258
-0.12495144 -0.030656887 -0.2689327
-0.12494782 -0.030578706 -0.26894283
-0.12494469 -0.030500745 -0.26894301
-0.12494178 -0.030420914 -0.26893711
-0.12493865 -0.030342951 -0.26893726
-0.12493543 -0.030264946 -0.26893944
-0.12493213 -0.030184941 -0.26894155
-0.1249291 -0.030107021 -0.2689397
-0.12492618 -0.030027192 -0.26893383
-0.12492325 -0.029949315 -0.26892999
-0.12492024 -0.029869441 -0.26892608
-0.12491711 -0.029791478 -0.26892626
-0.12491369 -0.029713385 -0.2689324
-0.12491018 -0.029635251 -0.26894057
-0.12490717 -0.029555377 -0.26893669
-0.12490394 -0.029477369 -0.26893884
-0.12490103 -0.02939754 -0.26893297
-0.1248985 -0.029317882 -0.26891911
-0.12489557 -0.029240005 -0.26891527
-0.12489205 -0.02916187 -0.2689234
-0.12488873 -0.02908382 -0.26892757
-0.12488572 -0.029003946 -0.26892367
-0.1248821 -0.028925767 -0.26893383
-0.12487878 -0.028847717 -0.26893798
-0.12487625 -0.028768059 -0.26892412
-0.12487324 -0.028688185 -0.26892024
-0.12486973 -0.028610051 -0.26892838
-0.1248665 -0.028532043 -0.26893052
-0.12486359 -0.028452214 -0.26892465
-0.12486046 -0.028374249 -0.26892483
-0.1253683 -0.041155763 -0.2690351
-0.12536509 -0.041075803 -0.26903522
-0.12536237 -0.04099606 -0.26902533
-0.12535985 -0.040916402 -0.26901147
-0.12535645 -0.040836357 -0.26901558
-0.12535281 -0.04076013 -0.26902777
-0.12534939 -0.04068204 -0.26903391
-0.12534618 -0.040602077 -0.26903403
-0.12534325 -0.0405242 -0.26903021
-0.12533984 -0.04044611 -0.26903635
-0.1253366 -0.040368102 -0.2690385
-0.12533352 -0.040286228 -0.26903456
-0.12533081 -0.040206484 -0.2690247
-0.12532796 -0.040128656 -0.26901889
-0.12532467 -0.040048651 -0.26902097
-0.12532143 -0.039970644 -0.26902312
-0.12531853 -0.039890811 -0.26901725
-0.12531541 -0.039810896 -0.26901537
-0.12531209 -0.039732844 -0.26901954
-0.12530877 -0.039654799 -0.26902369
-0.12530605 -0.039575055 -0.26901382
-0.12530294 -0.039495133 -0.26901191
-0.12529981 -0.039417174 -0.26901209
-0.12529649 -0.039339125 -0.26901624
-0.1252932 -0.039259117 -0.26901835
-0.12529047 -0.039179377 -0.26900846
-0.12528726 -0.039099414 -0.26900858
-0.12528382 -0.039023276 -0.2690168
-0.1252805 -0.038945228 -0.26902094
-0.125278 -0.038863614 -0.26900503
-0.12527518 -0.038783826 -0.26899713
-0.12527208 -0.038703907 -0.26899526
-0.12526935 -0.038624167 -0.26898539
-0.12526645 -0.038544334 -0.26897952
-0.12526293 -0.0384662 -0.26898766
-0.12525961 -0.038388148 -0.26899183
-0.12525618 -0.038310058 -0.26899797
-0.12525277 -0.038231961 -0.26900411
-0.12524953 -0.038153958 -0.26900628
-0.12524664 -0.038072173 -0.26899835
-0.12524371 -0.037994295 -0.26899451
-0.1252408 -0.037914462 -0.26898864
-0.12523788 -0.037834637 -0.26898277
-0.12523416 -0.037758365 -0.26899695
-0.12523054 -0.037680186 -0.26900709
-0.12522723 -0.037600186 -0.2690092
-0.12522401 -0.037522178 -0.26901135
-0.12522119 -0.03744239 -0.26900348
-0.12521876 -0.037362777 -0.26898763
-0.12521556 -0.037282817 -0.26898772
-0.12521215 -0.03720472 -0.26899388
-0.12520842 -0.0371265 -0.26900601
-0.1252051 -0.037048452 -0.26901019
-0.12520178 -0.036970399 -0.26901433
-0.12519877 -0.036890525 -0.26901042
-0.12519594 -0.036812693 -0.26900461
-0.12519243 -0.036732607 -0.26901072
-0.12518921 -0.036654599 -0.26901287
-0.12518691 -0.036573075 -0.26899296
-0.12518428 -0.036493372 -0.2689811
-0.12518077 -0.036415234 -0.26898924
-0.12517715 -0.036337055 -0.2689994
-0.12517402 -0.036259092 -0.26899955
-0.12517101 -0.036179218 -0.26899567
-0.12516868 -0.03609965 -0.26897782
-0.12516598 -0.036017947 -0.2689659
-0.12516247 -0.035939813 -0.26897404
-0.12515925 -0.035861805 -0.26897621
-0.12515631 -0.035783932 -0.26897237
-0.12515311 -0.035703972 -0.26897246
-0.12514979 -0.03562592 -0.26897663
-0.12514628 -0.03554583 -0.26898274
-0.12514296 -0.035467781 -0.26898688
-0.12514003 -0.035389904 -0.26898307
-0.12513721 -0.035310119 -0.26897517
-0.1251342 -0.035230242 -0.26897129
-0.1251311 -0.035150327 -0.26896942
-0.12512816 -0.03507245 -0.26896557
-0.12512505 -0.034992535 -0.26896369
-0.12512134 -0.034914311 -0.26897582
-0.12511791 -0.034836218 -0.26898199
-0.12511501 -0.034756385 -0.26897609
-0.12511237 -0.034678638 -0.26896629
-0.12510926 -0.034598723 -0.26896441
-0.12510616 -0.034518804 -0.2689625
-0.12510292 -0.034440801 -0.26896468
-0.12509951 -0.034362707 -0.26897082
-0.12509608 -0.034284614 -0.26897699
-0.12509306 -0.034206696 -0.26897514
-0.12509033 -0.034126952 -0.26896527
-0.12508732 -0.034047075 -0.26896137
-0.1250841 -0.033969071 -0.26896352
-0.12508039 -0.033890851 -0.26897568
-0.12507656 -0.033814538 -0.26899186
-0.12507355 -0.033734664 -0.26898798
-0.12507093 -0.033654958 -0.26897609
-0.12506792 -0.033575088 -0.26897222
-0.12506479 -0.033497125 -0.2689724
-0.12506178 -0.033417247 -0.26896852
-0.12505877 -0.033337377 -0.26896462
-0.12505564 -0.033259414 -0.26896477
-0.12505241 -0.033181407 -0.26896694
-0.1250494 -0.033101536 -0.26896307
-0.12504657 -0.0330237 -0.26895723
-0.12504336 -0.03294374 -0.26895735
-0.12504035 -0.032863867 -0.26895344
-0.12503712 -0.032785863 -0.26895562
-0.12503371 -0.032707766 -0.26896176
-0.12503089 -0.032627977 -0.26895389
-0.12502846 -0.032548364 -0.26893803
-0.12502526 -0.032468405 -0.26893812
-0.12502213 -0.032390442 -0.2689383
-0.12501891 -0.032312438 -0.26894045
-0.12501568 -0.03223443 -0.26894259
-0.12501219 -0.032154337 -0.2689487
-0.12500845 -0.032078072 -0.26896292
-0.12500525 -0.031998113 -0.26896301
-0.12500243 -0.031918325 -0.26895514
-0.12499969 -0.031840533 -0.2689473
-0.12499658 -0.031760618 -0.26894543
-0.12499326 -0.031682566 -0.26894957
-0.12499005 -0.031602606 -0.26894969
-0.12498692 -0.031524643 -0.26894987
-0.1249835 -0.031446554 -0.26895601
-0.12498049 -0.031366676 -0.26895213
-0.12497776 -0.031288885 -0.26894429
-0.12497485 -0.031209055 -0.26893842
-0.12497172 -0.031131094 -0.26893857
-0.12496849 -0.031053089 -0.26894072
-0.12496529 -0.030973127 -0.26894084
-0.12496206 -0.030895121 -0.26894301
-0.12495886 -0.030815162 -0.2689431
-0.12495624 -0.030735459 -0.26893124
-0.12495311 -0.030657496 -0.26893139
-0.12494959 -0.03057936 -0.26893955
-0.12494656 -0.030501442 -0.26893771
-0.12494355 -0.030421566 -0.26893383
-0.12494032 -0.030343562 -0.26893598
-0.12493719 -0.030265599 -0.26893616
-0.12493389 -0.030185595 -0.26893824
-0.12493096 -0.030107718 -0.26893443
-0.12492785 -0.030027801 -0.26893252
-0.12492491 -0.029949926 -0.26892871
-0.1249221 -0.029870138 -0.26892084
-0.12491897 -0.029792175 -0.26892099
-0.12491556 -0.029714081 -0.26892713
-0.12491215 -0.029634036 -0.26893124
-0.12490892 -0.029556029 -0.26893339
-0.12490571 -0.029478023 -0.26893556
-0.12490289 -0.029398236 -0.26892769
-0.12490046 -0.02931862 -0.26891181
-0.12489755 -0.02923879 -0.26890594
-0.12489384 -0.029160567 -0.26891807
-0.12489039 -0.029084429 -0.26892626
-0.12488729 -0.029004512 -0.26892439
-0.12488377 -0.028926376 -0.26893252
-0.12488054 -0.028848371 -0.2689347
-0.12487821 -0.028768798 -0.26891685
-0.12487511 -0.028688882 -0.26891494
-0.12487159 -0.028610745 -0.2689231
-0.12486846 -0.028532783 -0.26892325
-0.12486555 -0.028452951 -0.26891738
-0.12536651 -0.041158285 -0.26903731
-0.1253635 -0.041078411 -0.26903343
-0.12536088 -0.040998708 -0.26902157
-0.12535818 -0.040917009 -0.26900965
-0.12535486 -0.040838961 -0.26901382
-0.12535092 -0.040762607 -0.269032
-0.1253475 -0.040684514 -0.26903814
-0.12534459 -0.040604685 -0.26903224
-0.12534176 -0.040526852 -0.26902643
-0.12533836 -0.040446803 -0.26903054
-0.12533504 -0.040368754 -0.26903468
-0.12533203 -0.04028888 -0.26903081
-0.12532921 -0.040209092 -0.26902294
-0.12532629 -0.040129259 -0.26901704
-0.12532307 -0.040051259 -0.26901922
-0.12531994 -0.039973292 -0.26901937
-0.12531695 -0.039891466 -0.26901343
-0.12531392 -0.039813545 -0.26901162
-0.1253103 -0.039735362 -0.26902175
-0.12530717 -0.039657399 -0.26902193
-0.12530458 -0.039575748 -0.26900798
-0.12530145 -0.039497785 -0.26900816
-0.12529813 -0.039419733 -0.2690123
-0.12529489 -0.039341729 -0.26901448
-0.12529169 -0.039261766 -0.26901457
-0.12528898 -0.039182022 -0.2690047
-0.12528577 -0.039102063 -0.26900482
-0.12528215 -0.039023884 -0.26901495
-0.12527893 -0.038945876 -0.2690171
-0.12527633 -0.038864225 -0.26900321
-0.12527359 -0.038786434 -0.26899537
-0.12527019 -0.038706385 -0.26899949
-0.12526757 -0.038626686 -0.2689876
-0.12526475 -0.038546897 -0.26897973
-0.12526143 -0.038468845 -0.2689839
-0.12525801 -0.038390756 -0.26899004
-0.12525471 -0.038310751 -0.26899216
-0.12525119 -0.038232617 -0.26900029
-0.12524787 -0.038154565 -0.26900446
-0.12524505 -0.03807478 -0.26899657
-0.12524211 -0.037996903 -0.26899275
-0.1252391 -0.037917025 -0.26898885
-0.125236 -0.03783711 -0.26898697
-0.12523246 -0.037760928 -0.26899716
-0.12522897 -0.037680842 -0.26900327
-0.12522584 -0.037602875 -0.26900342
-0.12522241 -0.037524782 -0.26900959
-0.12521951 -0.037444953 -0.26900369
-0.12521708 -0.03736534 -0.26898783
-0.12521407 -0.037285466 -0.26898396
-0.12521064 -0.037207372 -0.2689901
-0.12520674 -0.037129063 -0.26900625
-0.12520331 -0.03705097 -0.26901239
-0.12520009 -0.036972962 -0.26901457
-0.12519728 -0.036893174 -0.26900667
-0.12519456 -0.03681343 -0.2689968
-0.12519105 -0.036735296 -0.26900494
-0.12518762 -0.036657207 -0.26901111
-0.1251853 -0.036577635 -0.26899326
-0.1251826 -0.036495935 -0.26898134
-0.12517917 -0.036417842 -0.26898748
-0.12517557 -0.036339663 -0.26899761
-0.12517233 -0.036261655 -0.26899979
-0.12516932 -0.036181781 -0.26899588
-0.12516689 -0.036102168 -0.26898003
-0.1251643 -0.03602051 -0.26896611
-0.12516087 -0.03594242 -0.26897228
-0.12515785 -0.035864498 -0.26897043
-0.12515473 -0.03578458 -0.26896855
-0.12515152 -0.03570658 -0.2689707
-0.12514819 -0.035628527 -0.26897487
-0.12514469 -0.035548434 -0.26898098
-0.12514137 -0.035470385 -0.26898512
-0.12513834 -0.035392467 -0.26898327
-0.12513553 -0.035312682 -0.26897541
-0.12513271 -0.035232894 -0.26896754
-0.12512951 -0.035152934 -0.26896763
-0.12512647 -0.035075013 -0.26896581
-0.12512337 -0.034995094 -0.26896393
-0.12511985 -0.03491696 -0.26897207
-0.12511633 -0.034838825 -0.26898021
-0.12511361 -0.034759078 -0.26897034
-0.12511079 -0.03467929 -0.26896247
-0.12510777 -0.034601375 -0.26896062
-0.12510456 -0.034521412 -0.26896074
-0.12510133 -0.034443405 -0.26896289
-0.12509792 -0.034365311 -0.26896906
-0.12509449 -0.034287222 -0.2689752
-0.12509158 -0.034207389 -0.26896933
-0.12508915 -0.034127772 -0.26895344
-0.12508614 -0.034047902 -0.26894957
-0.12508273 -0.033969808 -0.26895571
-0.1250788 -0.033893451 -0.26897392
-0.12507486 -0.033817098 -0.2689921
-0.12507185 -0.033737227 -0.26898819
-0.12506923 -0.033657521 -0.26897633
-0.12506622 -0.033577651 -0.26897246
-0.1250632 -0.033499733 -0.26897061
-0.12506019 -0.033419855 -0.26896673
-0.12505707 -0.03333994 -0.26896486
-0.12505385 -0.033261932 -0.268967
-0.12505072 -0.03318397 -0.26896715
-0.12504762 -0.033104055 -0.26896527
-0.12504488 -0.033026263 -0.26895747
-0.12504177 -0.032946344 -0.26895559
-0.12503876 -0.032866471 -0.26895168
-0.12503554 -0.032788467 -0.26895386
-0.12503202 -0.032710329 -0.268962
-0.1250293 -0.032630585 -0.26895213
-0.12502678 -0.032550927 -0.26893824
-0.12502357 -0.032470968 -0.26893836
-0.12502044 -0.032393005 -0.26893854
-0.12501732 -0.032315042 -0.26893869
-0.12501411 -0.032235082 -0.26893878
-0.12501068 -0.032156989 -0.26894495
-0.12500688 -0.032078721 -0.26895911
-0.12500346 -0.032000627 -0.26896524
-0.12500055 -0.031920798 -0.26895937
-0.12499791 -0.031843051 -0.26894954
-0.1249948 -0.031763136 -0.26894766
-0.12499157 -0.031685129 -0.26894981
-0.12498847 -0.031605214 -0.26894793
-0.12498524 -0.031527206 -0.26895007
-0.12498182 -0.031449113 -0.26895624
-0.12497881 -0.031369239 -0.26895234
-0.12497607 -0.031291448 -0.26894453
-0.12497306 -0.031211574 -0.26894063
-0.12496993 -0.031133613 -0.26894081
-0.12496681 -0.03105565 -0.26894096
-0.12496369 -0.030975733 -0.26893908
-0.12496067 -0.030897815 -0.26893723
-0.12495746 -0.030817851 -0.26893735
-0.12495465 -0.030738065 -0.26892948
-0.12495142 -0.030660059 -0.26893163
-0.12494791 -0.030581923 -0.26893976
-0.12494478 -0.03050396 -0.26893994
-0.12494177 -0.030424086 -0.26893604
-0.12493873 -0.030346166 -0.26893422
-0.1249356 -0.030268203 -0.26893437
-0.12493221 -0.030188156 -0.26893848
-0.12492917 -0.030110236 -0.26893663
-0.12492616 -0.030030362 -0.26893276
-0.12492313 -0.029952444 -0.26893091
-0.12492041 -0.029872701 -0.26892105
-0.12491731 -0.029792782 -0.26891917
-0.12491398 -0.029714733 -0.26892334
-0.12491085 -0.02963677 -0.26892349
-0.12490753 -0.02955872 -0.26892763
-0.12490411 -0.029480629 -0.2689338
-0.1249015 -0.029400928 -0.26892191
-0.12489897 -0.029321268 -0.26890805
-0.12489596 -0.029241394 -0.26890418
-0.12489223 -0.029165126 -0.26891837
-0.12488871 -0.029086992 -0.2689265
-0.1248856 -0.029007073 -0.26892462
-0.12488228 -0.028929025 -0.26892877
-0.12487888 -0.028848978 -0.26893288
-0.12487653 -0.028771359 -0.26891708
-0.12487333 -0.0286914 -0.26891717
-0.12486971 -0.028613221 -0.26892734
-0.12486687 -0.028535388 -0.26892149
-0.12486406 -0.0284556 -0.26891363
-0.12536484 -0.041160889 -0.26903954
-0.12536161 -0.041082889 -0.26904169
-0.12535879 -0.041003097 -0.26903382
-0.12535609 -0.040921398 -0.2690219
-0.12535277 -0.040843353 -0.26902604
-0.12534925 -0.040765215 -0.26903421
-0.12534574 -0.04068708 -0.26904234
-0.12534261 -0.040609114 -0.26904252
-0.12533958 -0.040531196 -0.26904067
-0.12533617 -0.040451147 -0.26904479
-0.12533295 -0.040373143 -0.26904693
-0.12533005 -0.040293314 -0.26904106
-0.12532723 -0.040213525 -0.26903319
-0.12532431 -0.040133692 -0.26902729
-0.12532118 -0.040055729 -0.26902747
-0.12531786 -0.039977681 -0.26903161
-0.12531485 -0.039897807 -0.26902774
-0.12531184 -0.039817933 -0.26902387
-0.12530862 -0.039739929 -0.26902601
-0.12530531 -0.039659921 -0.26902813
-0.1253024 -0.039580092 -0.26902223
-0.12529939 -0.039500218 -0.26901835
-0.12529626 -0.039422255 -0.26901853
-0.12529284 -0.039344162 -0.26902467
-0.12528974 -0.039264247 -0.26902279
-0.12528692 -0.039184459 -0.26901492
-0.1252836 -0.03910641 -0.26901907
-0.12528017 -0.039028317 -0.26902521
-0.12527685 -0.038950264 -0.26902938
-0.12527426 -0.038868614 -0.26901546
-0.12527153 -0.038788866 -0.2690056
-0.1252684 -0.038710903 -0.26900575
-0.1252657 -0.038629208 -0.26899382
-0.12526287 -0.038551375 -0.26898801
-0.12525935 -0.038473237 -0.26899615
-0.12525573 -0.038395055 -0.26900628
-0.12525234 -0.038315009 -0.26901039
-0.12524912 -0.038237005 -0.26901257
-0.12524599 -0.038159043 -0.26901272
-0.12524307 -0.03807921 -0.26900685
-0.12524016 -0.03799938 -0.26900095
-0.12523724 -0.037919547 -0.26899508
-0.12523423 -0.037839677 -0.2689912
-0.1252304 -0.037763365 -0.26900738
-0.12522689 -0.037685227 -0.26901552
-0.12522376 -0.037607267 -0.2690157
-0.12522034 -0.037529171 -0.26902184
-0.12521762 -0.037449427 -0.26901197
-0.12521502 -0.037367769 -0.26899806
-0.12521179 -0.037289768 -0.2690002
-0.12520838 -0.037211675 -0.26900637
-0.12520495 -0.037133582 -0.26901251
-0.12520154 -0.037055489 -0.26901865
-0.1251983 -0.036977481 -0.26902083
-0.12519529 -0.036897607 -0.26901692
-0.1251922 -0.036817688 -0.26901504
-0.12518896 -0.036739685 -0.26901722
-0.12518574 -0.036661681 -0.26901937
-0.12518343 -0.036580153 -0.26899946
-0.12518074 -0.036498457 -0.26898754
-0.12517719 -0.036422275 -0.26899773
-0.12517378 -0.036344182 -0.2690039
-0.12517057 -0.036264218 -0.26900399
-0.12516764 -0.036186345 -0.26900017
-0.12516533 -0.036104821 -0.26898026
-0.12516271 -0.036025114 -0.2689684
-0.12515889 -0.035946853 -0.26898253
-0.12515557 -0.035868801 -0.26898667
-0.12515256 -0.035788927 -0.2689828
-0.12514946 -0.035709012 -0.26898092
-0.12514623 -0.035631005 -0.26898307
-0.1251429 -0.035552956 -0.26898724
-0.12513949 -0.035474859 -0.26899338
-0.12513636 -0.0353969 -0.26899353
-0.12513356 -0.035315156 -0.2689836
-0.12513065 -0.035235327 -0.26897773
-0.12512752 -0.035157364 -0.26897791
-0.12512451 -0.03507749 -0.26897401
-0.12512138 -0.034999527 -0.26897418
-0.12511787 -0.034921393 -0.26898232
-0.12511435 -0.034843259 -0.26899049
-0.12511143 -0.034763426 -0.26898462
-0.12510872 -0.034683678 -0.26897472
-0.12510578 -0.034605805 -0.26897088
-0.12510258 -0.034525841 -0.268971
-0.12509917 -0.034447752 -0.26897717
-0.12509574 -0.034369655 -0.2689833
-0.12509252 -0.034291655 -0.26898545
-0.12508941 -0.034211732 -0.26898357
-0.1250864 -0.034131858 -0.2689797
-0.12508337 -0.034053944 -0.26897785
-0.12508006 -0.033973936 -0.26897997
-0.12507682 -0.033897884 -0.26898417
-0.12507311 -0.033819661 -0.2689963
-0.12507001 -0.033739746 -0.26899442
-0.12506738 -0.033660043 -0.26898256
-0.12506446 -0.033580214 -0.26897669
-0.12506133 -0.033502251 -0.26897684
-0.1250584 -0.033424377 -0.26897299
-0.12505549 -0.033344544 -0.26896712
-0.12505229 -0.033264585 -0.26896724
-0.12504916 -0.033186622 -0.26896739
-0.12504596 -0.033106659 -0.26896751
-0.12504283 -0.033028696 -0.26896766
-0.12503962 -0.032948736 -0.26896778
-0.12503669 -0.032870859 -0.26896393
-0.12503357 -0.032790944 -0.26896206
-0.12503016 -0.032712851 -0.26896822
-0.12502733 -0.032635018 -0.26896238
-0.12502472 -0.03255336 -0.26894847
-0.12502179 -0.032475486 -0.26894462
-0.12501858 -0.032395527 -0.26894474
-0.12501536 -0.032317519 -0.26894689
-0.12501204 -0.032239467 -0.26895106
-0.12500861 -0.032161377 -0.2689572
-0.1250049 -0.032083154 -0.26896936
-0.1250017 -0.032003194 -0.26896948
-0.12499898 -0.031923451 -0.26895958
-0.12499624 -0.031845659 -0.26895177
-0.12499294 -0.031765655 -0.26895386
-0.12498961 -0.031687606 -0.26895803
-0.12498648 -0.031609643 -0.26895818
-0.12498327 -0.031531639 -0.26896036
-0.12497996 -0.031451635 -0.26896244
-0.12497703 -0.031373758 -0.2689586
-0.12497421 -0.03129397 -0.26895073
-0.1249713 -0.031214138 -0.26894486
-0.12496817 -0.031136177 -0.26894504
-0.12496485 -0.031058127 -0.26894918
-0.12496164 -0.030978166 -0.26894927
-0.12495842 -0.030900162 -0.26895145
-0.12495529 -0.030822199 -0.26895159
-0.12495276 -0.030742541 -0.26893774
-0.12494964 -0.030664578 -0.26893789
-0.12494604 -0.030584443 -0.26894599
-0.12494291 -0.03050648 -0.26894617
-0.1249399 -0.030426607 -0.26894227
-0.12493677 -0.030348644 -0.26894245
-0.12493356 -0.030270638 -0.26894459
-0.12493033 -0.030192632 -0.26894674
-0.12492732 -0.030112758 -0.26894286
-0.1249243 -0.030032884 -0.26893899
-0.12492137 -0.029955007 -0.26893514
-0.12491844 -0.02987713 -0.26893133
-0.12491533 -0.029797215 -0.26892942
-0.12491191 -0.029719122 -0.26893559
-0.12490849 -0.029641028 -0.26894173
-0.12490539 -0.02956111 -0.26893985
-0.12490216 -0.029483106 -0.268942
-0.12489925 -0.029403275 -0.26893613
-0.12489671 -0.029325571 -0.2689243
-0.12489379 -0.029245742 -0.26891842
-0.12489028 -0.029167604 -0.26892656
-0.12488686 -0.029089512 -0.26893273
-0.12488374 -0.029009594 -0.26893085
-0.12488022 -0.028931459 -0.26893899
-0.1248769 -0.028853409 -0.26894313
-0.12487448 -0.028773796 -0.26892728
-0.12487154 -0.028695919 -0.26892346
-0.12486785 -0.028615741 -0.26893353
-0.12486473 -0.02853778 -0.26893371
-0.12486172 -0.028457906 -0.26892984
-0.12485868 -0.028379984 -0.26892799
-0.1253642 -0.041159619 -0.26903591
-0.1253611 -0.0410797 -0.26903403
-0.12535848 -0.041000001 -0.26902214
-0.12535585 -0.040920302 -0.26901028
-0.12535246 -0.040840253 -0.26901439
-0.12534863 -0.040763944 -0.26903057
-0.1253452 -0.040685851 -0.26903671
-0.12534219 -0.040605977 -0.26903284
-0.12533936 -0.040528141 -0.26902699
-0.12533596 -0.040448096 -0.26903111
-0.12533264 -0.040370047 -0.26903528
-0.12532963 -0.040290169 -0.26903138
-0.1253269 -0.040210426 -0.26902151
-0.12532398 -0.040132552 -0.26901767
-0.12532067 -0.040052548 -0.26901978
-0.12531754 -0.039974585 -0.26901996
-0.12531462 -0.039894752 -0.26901406
-0.12531152 -0.039814837 -0.26901218
-0.12530801 -0.039736699 -0.26902032
-0.12530488 -0.03965874 -0.2690205
-0.12530218 -0.039577037 -0.26900858
-0.12529916 -0.039499119 -0.26900673
-0.12529583 -0.03942107 -0.2690109
-0.12529251 -0.039343022 -0.26901504
-0.12528929 -0.039263058 -0.26901513
-0.12528668 -0.039183363 -0.26900327
-0.12528338 -0.039103355 -0.26900539
-0.12527986 -0.039025217 -0.26901352
-0.12527654 -0.038947169 -0.2690177
-0.12527411 -0.038867556 -0.26900184
-0.12527129 -0.038787767 -0.26899394
-0.12526789 -0.038707718 -0.26899806
-0.12526518 -0.038627978 -0.26898819
-0.12526245 -0.038548231 -0.2689783
-0.12525913 -0.038470183 -0.26898247
-0.12525572 -0.038392089 -0.26898861
-0.12525231 -0.03831204 -0.26899272
-0.12524888 -0.038235903 -0.26900092
-0.12524557 -0.038155902 -0.26900303
-0.12524265 -0.038076073 -0.26899713
-0.12523982 -0.037998237 -0.26899132
-0.12523681 -0.037918363 -0.26898742
-0.12523371 -0.037838448 -0.26898557
-0.12523016 -0.037762262 -0.26899573
-0.12522657 -0.037682131 -0.26900384
-0.12522344 -0.037604168 -0.26900402
-0.12522002 -0.037526079 -0.26901016
-0.1252172 -0.03744629 -0.26900229
-0.12521479 -0.037366673 -0.2689864
-0.12521167 -0.037286758 -0.26898453
-0.12520826 -0.037208661 -0.2689907
-0.12520444 -0.037130397 -0.26900482
-0.12520102 -0.037052304 -0.26901096
-0.1251978 -0.0369743 -0.26901314
-0.12519488 -0.036894467 -0.26900727
-0.12519217 -0.036814727 -0.26899737
-0.12518854 -0.036736548 -0.2690075
-0.12518522 -0.036658496 -0.26901168
-0.1251829 -0.036578923 -0.26899382
-0.1251803 -0.036497273 -0.26897991
-0.12517679 -0.036419131 -0.26898804
-0.12517317 -0.036340952 -0.26899821
-0.12516995 -0.036262948 -0.26900035
-0.12516691 -0.036185026 -0.2689985
-0.1251646 -0.036103502 -0.2689786
-0.12516201 -0.036021847 -0.26896468
-0.12515858 -0.035943754 -0.26897085
-0.12515545 -0.035865791 -0.268971
-0.12515244 -0.035785921 -0.26896712
-0.12514922 -0.035707913 -0.26896927
-0.1251459 -0.035629861 -0.26897344
-0.1251424 -0.035549771 -0.26897955
-0.12513898 -0.035471678 -0.26898569
-0.12513594 -0.03539376 -0.26898384
-0.12513323 -0.035314016 -0.26897398
-0.12513031 -0.035234183 -0.26896811
-0.12512711 -0.035154223 -0.26896822
-0.12512417 -0.035076346 -0.26896438
-0.12512107 -0.034996431 -0.2689625
-0.12511745 -0.034918252 -0.26897264
-0.12511393 -0.034840114 -0.2689808
-0.12511112 -0.034760326 -0.2689729
-0.1251085 -0.034680627 -0.26896104
-0.12510537 -0.034602664 -0.26896119
-0.12510216 -0.034522705 -0.26896131
-0.12509894 -0.034444697 -0.26896346
-0.12509552 -0.034366604 -0.26896963
-0.1250921 -0.034288511 -0.26897576
-0.12508926 -0.034210678 -0.26896995
-0.12508667 -0.034129024 -0.26895604
-0.12508376 -0.034049191 -0.26895013
-0.12508033 -0.033971101 -0.2689563
-0.1250765 -0.033894792 -0.26897249
-0.12507248 -0.033818394 -0.26899266
-0.12506947 -0.033738516 -0.26898879
-0.12506694 -0.033658858 -0.2689749
-0.12506393 -0.033578984 -0.26897103
-0.12506081 -0.033501022 -0.2689712
-0.12505789 -0.033421189 -0.2689653
-0.12505476 -0.033343229 -0.26896545
-0.12505156 -0.03326327 -0.26896557
-0.12504843 -0.033185307 -0.26896572
-0.12504533 -0.033105388 -0.26896384
-0.12504248 -0.033027556 -0.26895803
-0.12503938 -0.032947637 -0.26895612
-0.12503646 -0.032867808 -0.26895025
-0.12503324 -0.032789804 -0.26895243
-0.12502973 -0.032711666 -0.26896057
-0.12502691 -0.032631878 -0.26895267
-0.12502448 -0.032552265 -0.26893681
-0.12502135 -0.032474302 -0.26893699
-0.12501815 -0.032394342 -0.26893711
-0.12501493 -0.032316335 -0.26893926
-0.12501171 -0.032236375 -0.26893938
-0.1250083 -0.032158278 -0.26894552
-0.12500456 -0.032082014 -0.2689597
-0.12500116 -0.032001965 -0.26896381
-0.12499826 -0.031922136 -0.26895791
-0.12499561 -0.031844389 -0.26894811
-0.1249925 -0.03176447 -0.26894623
-0.12498928 -0.031686466 -0.26894838
-0.12498617 -0.031606548 -0.2689465
-0.12498295 -0.031528544 -0.26894864
-0.12497943 -0.031450406 -0.26895678
-0.12497652 -0.031370573 -0.26895091
-0.12497377 -0.031292785 -0.26894307
-0.12497076 -0.031212911 -0.2689392
