# .PCD v0.7 - Point Cloud Data file format
VERSION 0.7
FIELDS x y z
SIZE 4 4 4
TYPE F F F
COUNT 1 1 1
WIDTH 1289
HEIGHT 1
VIEWPOINT 0 0 0 1 0 0 0
POINTS 1289
DATA ascii
-0.04027281 -0.0033845063 -0.26133177
-0.040273786 -0.0032926537 -0.26123565
-0.040272821 -0.0032077879 -0.26118571
-0.04027278 -0.0031194072 -0.26111364
-0.040273223 -0.0030312445 -0.26103163
-0.040272575 -0.002944557 -0.26097363
-0.040271826 -0.0028578267 -0.2609176
-0.04027421 -0.0027626734 -0.26078948
-0.04027405 -0.0026762076 -0.26072147
-0.040275726 -0.0025827028 -0.26060936
-0.040282745 -0.0021244027 -0.26008496
-0.040280454 -0.0020448305 -0.26006708
-0.040277358 -0.0019668676 -0.26006722
-0.04027538 -0.0018854756 -0.26004133
-0.040274397 -0.0018025655 -0.25999337
-0.040272608 -0.0017212592 -0.25996348
-0.040270727 -0.0016399119 -0.25993559
-0.04026955 -0.0015569143 -0.25989163
-0.040267572 -0.0014755204 -0.25986576
-0.04026518 -0.0013959073 -0.25984985
-0.040262982 -0.0013163816 -0.25983
-0.040260494 -0.0012367256 -0.25981611
-0.040257789 -0.0011589359 -0.25980827
-0.040255301 -0.0010792799 -0.25979438
-0.040252715 -0.00099957921 -0.25978249
-0.040249914 -0.00092174672 -0.25977665
-0.040246919 -0.00084382668 -0.2597748
-0.040244017 -0.00076594763 -0.25977096
-0.040240921 -0.00068798475 -0.25977111
-0.040237732 -0.00060997717 -0.25977325
-0.040235221 -0.0005322732 -0.25976142
-0.040232226 -0.00045435317 -0.25975958
-0.040228426 -0.00037803873 -0.25977576
-0.040224511 -0.00030363351 -0.25979596
-0.040221609 -0.00022575818 -0.25979212
-0.040219024 -0.00014605746 -0.25978023
-0.040216319 -6.8267807e-05 -0.25977239
-0.040213421 9.6093863e-06 -0.25976855
-0.040210523 8.748658e-05 -0.2597647
-0.04020733 0.0001654923 -0.25976685
-0.040204138 0.00024350174 -0.25976899
-0.04020112 0.00031946786 -0.25976917
-0.040197928 0.00039747544 -0.25977132
-0.040194832 0.00047543831 -0.25977147
-0.040191542 0.00055349059 -0.25977564
-0.040188327 0.00062954426 -0.25977981
-0.040185723 0.00070729107 -0.25976998
-0.040183645 0.00078872591 -0.25974607
-0.040181234 0.00086638518 -0.25973222
-0.040178161 0.00094630383 -0.25973034
-0.040174946 0.0010223575 -0.25973451
-0.040171735 0.0010984093 -0.25973871
-0.040168442 0.0011764616 -0.25974286
-0.04016535 0.0012544263 -0.25974301
-0.040162157 0.0013324339 -0.25974512
-0.040158845 0.0014085304 -0.25975132
-0.040155049 0.0014848467 -0.2597675
-0.04015113 0.0015592501 -0.25978771
-0.040147431 0.0016355235 -0.25980189
-0.040144041 0.0017136186 -0.25980803
-0.040141046 0.0017915387 -0.25980619
-0.040138148 0.001869414 -0.25980234
-0.040135149 0.001947334 -0.25980049
-0.040132251 0.0020252112 -0.25979662
-0.040129859 0.0021048244 -0.25978076
-0.040127859 0.0021842625 -0.25975689
-0.040126171 0.0022655241 -0.25972497
-0.040124364 0.0023448765 -0.25969714
-0.040123988 0.0024294797 -0.25963518
-0.040123906 0.0025139526 -0.25956723
-0.040121105 0.002591785 -0.25956139
-0.040117696 0.0026679244 -0.25956959
-0.040113486 0.00274246 -0.25959578
-0.040108692 0.0028172582 -0.25963396
-0.040104091 0.0028919671 -0.25966817
-0.040099375 0.0029647667 -0.25970638
-0.040095866 0.0030409526 -0.25971657
-0.040093377 0.0031206086 -0.25970268
-0.040090773 0.0031983536 -0.25969285
-0.040087581 0.0032763593 -0.25969499
-0.040084172 0.0033525024 -0.25970319
-0.040081173 0.0034304224 -0.25970134
-0.040079273 0.0035098158 -0.25967547
-0.04007649 0.0035896059 -0.25966758
-0.040072594 0.0036659632 -0.25968575
-0.040069383 0.0037420159 -0.25968993
-0.040067673 0.0038213255 -0.25966009
-0.040065888 0.0039026299 -0.2596302
-0.040063694 0.0039821556 -0.25961033
-0.040060893 0.0040599881 -0.25960445
-0.040057894 0.0041379081 -0.25960261
-0.040054388 0.0042140931 -0.2596128
-0.040049791 0.0042888038 -0.25964698
-0.040045384 0.0043634269 -0.2596772
-0.040041782 0.0044396538 -0.25968936
-0.040037885 0.004516013 -0.25970754
-0.040033989 0.004592373 -0.25972572
-0.04003058 0.0046685133 -0.25973392
-0.040027 0.0047466969 -0.25974405
-0.040023688 0.0048227925 -0.25975022
-0.040020689 0.0049007125 -0.25974837
-0.040017597 0.0049786782 -0.25974852
-0.040014502 0.005056642 -0.25974867
-0.040011503 0.005134562 -0.25974679
-0.040008899 0.0052123088 -0.25973698
-0.040007699 0.0052933516 -0.25969508
-0.040007278 0.0053740451 -0.25963724
-0.040005594 0.0054553077 -0.25960532
-0.040002305 0.0055333581 -0.25960946
-0.039998505 0.0056096744 -0.25962561
-0.03999529 0.0056857271 -0.25962982
-0.039992198 0.0057636909 -0.25962996
-0.039988909 0.0058417423 -0.25963411
-0.039985694 0.0059177959 -0.25963831
-0.039982602 0.0059957597 -0.25963846
-0.039979603 0.0060736807 -0.25963661
-0.03997688 0.0061495155 -0.2596308
-0.039973784 0.0062274793 -0.25963095
-0.039970495 0.0063055307 -0.25963509
-0.039967693 0.006383365 -0.25962925
-0.039964791 0.0064612413 -0.25962541
-0.039961796 0.0065391622 -0.25962356
-0.039958797 0.0066170823 -0.25962171
-0.039956074 0.0066929171 -0.2596159
-0.039953485 0.0067726178 -0.25960404
-0.039951369 0.0068501448 -0.25958422
-0.039948471 0.006928022 -0.25958034
-0.039945472 0.0070059421 -0.2595785
-0.039943278 0.0070854677 -0.25955862
-0.039941177 0.0071649496 -0.25953677
-0.03993896 0.0072425222 -0.25951895
-0.039935574 0.0073206155 -0.25952509
-0.039931364 0.0073951511 -0.25955129
-0.039926864 0.007469818 -0.25958347
-0.039923087 0.0075480882 -0.2595976
-0.039919775 0.0076241847 -0.2596038
-0.039916366 0.0077003259 -0.25961196
-0.039912492 0.007778639 -0.25962812
-0.039908886 0.0078548677 -0.25964028
-0.0399055 0.0079329619 -0.25964642
-0.039902091 0.0080091022 -0.25965461
-0.039898682 0.0080852443 -0.25966281
-0.039895393 0.0081632957 -0.25966692
-0.039892204 0.0082413023 -0.25966907
-0.0398895 0.0083190929 -0.25966123
-0.039887086 0.0083967503 -0.2596474
-0.039885085 0.0084761893 -0.25962353
-0.039882891 0.008555715 -0.25960368
-0.039879676 0.0086317677 -0.25960785
-0.039875682 0.0087081715 -0.25962803
-0.039871592 0.0087846164 -0.25965017
-0.03986828 0.0088607138 -0.25965637
-0.039864894 0.0089388099 -0.25966251
-0.039861582 0.0090149073 -0.25966871
-0.039858196 0.0090930015 -0.25967485
-0.039854299 0.0091693606 -0.259693
-0.039850794 0.0092455447 -0.25970319
-0.039847799 0.0093234647 -0.25970134
-0.039844703 0.0094014294 -0.25970149
-0.03984151 0.009479438 -0.25970364
-0.039838102 0.0095555782 -0.2597118
-0.039835181 0.0096315015 -0.25971001
-0.039832693 0.0097111566 -0.25969613
-0.039830673 0.0097886417 -0.25967431
-0.039828576 0.0098681226 -0.25965244
-0.039826553 0.0099456068 -0.25963062
-0.039825335 0.010024695 -0.25959077
-0.039823744 0.010105914 -0.25955689
-0.039821334 0.010183573 -0.25954306
-0.039818142 0.01026158 -0.25954521
-0.039814439 0.010337852 -0.25955936
-0.039810427 0.0104123 -0.25958157
-0.039806258 0.010490744 -0.25960368
-0.039802264 0.010567147 -0.25962386
-0.039798561 0.010643419 -0.25963804
-0.039794862 0.01071969 -0.25965223
-0.039791062 0.010796005 -0.25966838
-0.039787091 0.010874363 -0.25968653
-0.039783075 0.010948811 -0.2597087
-0.039778519 0.01102743 -0.25973883
-0.039775304 0.011103483 -0.25974301
-0.039772794 0.011181185 -0.25973117
-0.039770503 0.011260755 -0.25971329
-0.039768286 0.011338327 -0.25969547
-0.03976607 0.011415897 -0.25967765
-0.039763365 0.011493687 -0.25966981
-0.039760076 0.011571739 -0.25967395
-0.039756667 0.011647879 -0.25968212
-0.039753184 0.011726017 -0.25969028
-0.039749578 0.011802247 -0.25970244
-0.039745998 0.011880429 -0.25971258
-0.03974298 0.011956394 -0.25971279
-0.039739884 0.012034358 -0.25971293
-0.039736886 0.012112278 -0.25971109
-0.039733693 0.012190287 -0.25971323
-0.039730579 0.012266297 -0.25971541
-0.039727584 0.012344217 -0.25971356
-0.039724488 0.012422182 -0.25971371
-0.039721176 0.012498278 -0.25971991
-0.039717987 0.012576286 -0.25972205
-0.039715283 0.012654075 -0.25971419
-0.039712869 0.012731734 -0.25970039
-0.039710362 0.012809437 -0.25968853
-0.039707538 0.012885315 -0.25968474
-0.039704755 0.012965102 -0.25967684
-0.039703026 0.013042456 -0.25964904
-0.039701495 0.013119721 -0.25961721
-0.03969869 0.013197554 -0.25961137
-0.0396946 0.013274001 -0.25963354
-0.039690334 0.013352488 -0.25965765
-0.039686926 0.013428628 -0.25966585
-0.039684124 0.013506463 -0.25966001
-0.039681032 0.013584426 -0.25966015
-0.039677721 0.013660524 -0.25966632
-0.039674137 0.013738706 -0.25967649
-0.039670341 0.013815021 -0.25969264
-0.039667029 0.013891119 -0.25969884
-0.039663643 0.013969214 -0.25970498
-0.039660156 0.014047353 -0.25971311
-0.039656866 0.014125404 -0.25971723
-0.039654337 0.014201151 -0.25970745
-0.039652336 0.01428059 -0.25968361
-0.039650217 0.014358118 -0.25966376
-0.039648391 0.014435514 -0.25963795
-0.039647173 0.014514603 -0.25959811
-0.039646223 0.014591607 -0.25955433
-0.039644398 0.014669004 -0.25952852
-0.039641302 0.014746968 -0.25952864
-0.039637309 0.014823371 -0.25954881
-0.039632849 0.014901945 -0.25957692
-0.039628759 0.014978392 -0.25959909
-0.039625447 0.015054489 -0.25960529
-0.039622158 0.01513254 -0.2596094
-0.039617967 0.01520903 -0.25963357
-0.039613996 0.015287387 -0.25965169
-0.039610785 0.015363441 -0.25965589
-0.039608177 0.015441187 -0.25964606
-0.039605081 0.015519151 -0.25964621
-0.039601576 0.015595336 -0.25965637
-0.039598189 0.015673431 -0.25966251
-0.039595388 0.015751263 -0.25965667
-0.039592955 0.015826967 -0.25964487
-0.039590858 0.015906449 -0.25962302
-0.039589029 0.015983846 -0.25959721
-0.039587885 0.016060937 -0.25955743
-0.039588131 0.016139371 -0.25948763
-0.039587185 0.016216375 -0.25944382
-0.039584674 0.016294077 -0.25943199
-0.039581578 0.016372042 -0.25943214
-0.039578073 0.016448226 -0.25944233
-0.039574295 0.016526496 -0.25945646
-0.039570011 0.01660303 -0.25948259
-0.03956582 0.01667952 -0.25950676
-0.039562434 0.016757615 -0.2595129
-0.039559048 0.016835708 -0.25951904
-0.03955505 0.016912112 -0.25953919
-0.039551448 0.016988341 -0.25955138
-0.039548256 0.017066348 -0.25955352
-0.039545454 0.017144181 -0.25954768
-0.039543629 0.017221577 -0.25952187
-0.039542094 0.017298844 -0.25949007
-0.039539564 0.017374592 -0.25948027
-0.039536472 0.017452555 -0.25948042
-0.039533474 0.017530475 -0.25947857
-0.039530575 0.017608352 -0.25947472
-0.039526969 0.017684581 -0.25948691
-0.03952378 0.017762588 -0.25948903
-0.039521076 0.017840378 -0.25948119
-0.039516397 0.017917085 -0.25951535
-0.039510939 0.017994143 -0.25956547
-0.039507065 0.018072456 -0.2595816
-0.039503656 0.018148597 -0.25958979
-0.03950027 0.018226692 -0.25959593
-0.039497372 0.01830457 -0.25959209
-0.03949457 0.018382402 -0.25958624
-0.039491355 0.018458456 -0.25959042
-0.03948826 0.018536421 -0.25959057
-0.039485753 0.018614123 -0.25957873
-0.039482832 0.018690044 -0.25957692
-0.039479446 0.018768139 -0.25958306
-0.039476447 0.018846061 -0.25958121
-0.039474405 0.018921589 -0.25956145
-0.039472483 0.018999031 -0.25953764
-0.039471731 0.019075947 -0.25948983
-0.039470877 0.019152908 -0.25944406
-0.03946837 0.01923061 -0.25943223
-0.039466053 0.019308224 -0.2594164
-0.039463136 0.019384146 -0.25941458
-0.03945848 0.019462809 -0.25944668
-0.039453216 0.019539779 -0.25949281
-0.039447293 0.019619009 -0.2595509
-0.039442517 0.019695761 -0.25958705
-0.039438155 0.019774292 -0.25961316
-0.039434262 0.019850651 -0.25963131
-0.039430872 0.019928746 -0.25963745
-0.039427191 0.020006973 -0.25964957
-0.039423805 0.020085068 -0.25965571
-0.039421372 0.020160772 -0.25964391
-0.039418861 0.020238474 -0.25963208
-0.039416451 0.020316133 -0.25961828
-0.039414529 0.020393573 -0.25959444
-0.039411999 0.020469321 -0.25958467
-0.039409 0.020547241 -0.25958282
-0.039406493 0.020624943 -0.25957096
-0.039404176 0.02070256 -0.25955513
-0.039401647 0.020778306 -0.25954536
-0.039398555 0.020856271 -0.25954551
-0.039395459 0.020934235 -0.25954565
-0.039391659 0.02101055 -0.25956181
-0.039385442 0.021089911 -0.25962588
-0.039379813 0.021169011 -0.25967795
-0.039375838 0.021247366 -0.25969607
-0.039372254 0.021325549 -0.2597062
-0.039369531 0.021401385 -0.25970042
-0.039366923 0.02147913 -0.25969058
-0.039363928 0.02155705 -0.25968874
-0.039361104 0.02163293 -0.25968492
-0.039358594 0.021710632 -0.25967309
-0.039356086 0.021788334 -0.25966126
-0.039353576 0.021866037 -0.25964943
-0.039351534 0.021941565 -0.25962964
-0.039349027 0.022019267 -0.25961781
-0.039346516 0.022096969 -0.25960597
-0.039345257 0.022172151 -0.25957021
-0.039344404 0.02224911 -0.25952443
-0.039341897 0.022326812 -0.2595126
-0.039338976 0.022402735 -0.25951079
-0.03933559 0.022480831 -0.25951692
-0.039332397 0.022558838 -0.25951907
-0.03932735 0.022637676 -0.25955915
-0.039323084 0.022716163 -0.25958329
-0.039319873 0.022792216 -0.25958747
-0.039316874 0.022870138 -0.25958562
-0.039313681 0.022948146 -0.25958776
-0.039310295 0.023026239 -0.2595939
-0.039307199 0.023104204 -0.25959405
-0.039303988 0.023180258 -0.25959826
-0.039300796 0.023258265 -0.2596004
-0.03929887 0.023335706 -0.25957656
-0.039297026 0.023411147 -0.25955281
-0.039295003 0.023488631 -0.25953096
-0.039293252 0.023564029 -0.25950521
-0.039290842 0.023641689 -0.25949138
-0.03928804 0.023719523 -0.25948554
-0.039283872 0.023797967 -0.25950766
-0.039279412 0.023876542 -0.25953576
-0.039276198 0.023952596 -0.25953996
-0.039272618 0.024030779 -0.25955009
-0.039268836 0.024109047 -0.25956422
-0.03926545 0.024187142 -0.25957033
-0.039262552 0.024265019 -0.25956649
-0.039259925 0.02434081 -0.25955871
-0.039257221 0.0244186 -0.25955087
-0.03925471 0.024496302 -0.25953904
-0.039252765 0.024571788 -0.25951725
-0.039250161 0.024649534 -0.25950742
-0.039247826 0.024725195 -0.25949365
-0.039245512 0.02480281 -0.25947779
-0.039243001 0.024880512 -0.25946596
-0.039240666 0.024956172 -0.25945216
-0.039238449 0.025033744 -0.25943434
-0.039236799 0.025109099 -0.2594066
-0.039234679 0.025186626 -0.25938678
-0.039232053 0.025262417 -0.25937897
-0.039228469 0.0253406 -0.2593891
-0.039224107 0.025419133 -0.25941521
-0.039219841 0.025497619 -0.25943932
-0.039216552 0.025575671 -0.25944346
-0.039213553 0.025653591 -0.25944161
-0.039210558 0.025731511 -0.25943977
-0.039207365 0.025809519 -0.25944191
-0.039204642 0.025885355 -0.25943613
-0.039201643 0.025963277 -0.25943428
-0.039198548 0.02604124 -0.2594344
-0.039195456 0.026119204 -0.25943458
-0.039192047 0.026195344 -0.25944275
-0.039187022 0.026276136 -0.2594808
-0.039183341 0.026354361 -0.25949293
-0.0391813 0.026429892 -0.25947315
-0.039179862 0.026507113 -0.25943935
-0.039178114 0.026582513 -0.25941357
-0.039176069 0.026658041 -0.25939381
-0.039172683 0.026736137 -0.25939995
-0.039169587 0.026814101 -0.2594001
-0.039166298 0.026892154 -0.25940424
-0.039162815 0.026970292 -0.25941235
-0.039159406 0.027046431 -0.25942057
-0.039156038 0.027126482 -0.25942466
-0.03915273 0.027202578 -0.25943083
-0.039148778 0.02728289 -0.25944692
-0.039145391 0.027360985 -0.25945306
-0.039142471 0.027436908 -0.25945124
-0.039139375 0.027514871 -0.25945139
-0.039136477 0.027592748 -0.25944754
-0.039134063 0.027670406 -0.25943372
-0.039131925 0.027745981 -0.25941592
-0.039129395 0.027821727 -0.25940615
-0.039126299 0.027899692 -0.2594063
-0.039123595 0.027977481 -0.25939846
-0.039122432 0.028052619 -0.2593607
-0.039120778 0.028127972 -0.25933295
-0.03911788 0.028205851 -0.25932908
-0.039116032 0.028281294 -0.25930533
-0.039114088 0.028356779 -0.25928354
-0.039111286 0.028434612 -0.2592777
-0.039108194 0.028512575 -0.25927785
-0.039105274 0.0285885 -0.25927606
-0.039101224 0.028668853 -0.25929412
-0.039096761 0.028747428 -0.25932223
-0.039092518 0.02882787 -0.25934431
-0.039088447 0.028906271 -0.25936443
-0.039085157 0.028984323 -0.25936857
-0.039082162 0.029062243 -0.25936669
-0.039078284 0.029140556 -0.25938284
-0.039074704 0.029218739 -0.25939298
-0.039071608 0.029296704 -0.25939313
-0.039068609 0.029374624 -0.25939128
-0.039066568 0.029450152 -0.25937149
-0.03906367 0.029528029 -0.25936764
-0.03906038 0.029606082 -0.25937179
-0.039058533 0.029681522 -0.25934801
-0.039056588 0.02975701 -0.25932625
-0.039053395 0.029835017 -0.2593284
-0.039049715 0.029913243 -0.25934052
-0.039045375 0.029993728 -0.25936458
-0.039040152 0.030074608 -0.25940663
-0.039036278 0.030152921 -0.25942275
-0.039033279 0.030230843 -0.2594209
-0.039029893 0.030308938 -0.25942704
-0.039026313 0.030387118 -0.25943717
-0.039022632 0.030465346 -0.2594493
-0.039019339 0.030543396 -0.25945345
-0.039016735 0.030621141 -0.25944361
-0.039014399 0.030696804 -0.25942981
-0.039011694 0.030774593 -0.25942197
-0.039009381 0.030852206 -0.25940615
-0.039007436 0.030927693 -0.25938439
-0.039004341 0.031005658 -0.25938451
-0.039001249 0.031083621 -0.25938469
-0.038999204 0.031159151 -0.2593649
-0.038997263 0.031234637 -0.25934312
-0.038994361 0.031312514 -0.25933927
-0.03899068 0.031390741 -0.2593514
-0.038986243 0.031471267 -0.25937748
-0.038981702 0.031551845 -0.25940552
-0.038977828 0.031630158 -0.25942165
-0.038974538 0.031708207 -0.25942582
-0.038971346 0.031786215 -0.25942793
-0.03896796 0.031864308 -0.25943407
-0.038964689 0.031944316 -0.25943619
-0.038961869 0.032020196 -0.25943238
-0.038959358 0.032097898 -0.25942054
-0.038957316 0.032173425 -0.25940078
-0.038955078 0.032249041 -0.25938499
-0.038951986 0.032327008 -0.25938514
-0.038948596 0.032405101 -0.25939128
-0.038946752 0.032480545 -0.2593675
-0.038945489 0.032555725 -0.25933176
-0.038945086 0.032628559 -0.25928009
-0.038943823 0.032703739 -0.25924432
-0.038940534 0.032781791 -0.25924847
-0.038935877 0.032860454 -0.25928056
-0.038931731 0.03294085 -0.25930062
-0.038927484 0.033021294 -0.2593227
-0.038923435 0.033101648 -0.25934076
-0.038920049 0.033179745 -0.2593469
-0.038916856 0.033257753 -0.25934905
-0.038914055 0.033335585 -0.25934321
-0.038912285 0.033409029 -0.25931948
-0.038909875 0.033486687 -0.25930566
-0.038906485 0.033564784 -0.2593118
-0.038903002 0.033642922 -0.25931993
-0.038900297 0.033720709 -0.25931209
-0.038898256 0.03379624 -0.2592923
-0.038895451 0.033874072 -0.25928646
-0.038892359 0.033952039 -0.25928661
-0.038889829 0.034027785 -0.25927684
-0.038887318 0.034105487 -0.25926501
-0.038884517 0.034183323 -0.25925913
-0.038882181 0.034258984 -0.25924537
-0.03888014 0.034334511 -0.25922561
-0.038877044 0.034412473 -0.25922573
-0.038872801 0.034492917 -0.25924781
-0.03886807 0.034573577 -0.25927985
-0.038864505 0.034653716 -0.25928795
-0.038861878 0.034729507 -0.25928015
-0.038858883 0.034807429 -0.2592783
-0.038855691 0.034885436 -0.25928044
-0.038852885 0.034963269 -0.2592746
-0.038850281 0.035041016 -0.25926477
-0.038847849 0.035116717 -0.25925297
-0.038845319 0.035192467 -0.25924319
-0.038842417 0.035270341 -0.25923935
-0.038839813 0.035348088 -0.25922951
-0.038837478 0.035423748 -0.25921571
-0.038834482 0.03550167 -0.25921386
-0.038831092 0.035579763 -0.25922
-0.038828388 0.035657555 -0.25921217
-0.038825858 0.035733301 -0.25920236
-0.038822297 0.03581344 -0.25921047
-0.038818151 0.035893835 -0.25923055
-0.03881371 0.035974368 -0.2592566
-0.038809758 0.036054678 -0.25927269
-0.038806275 0.036132816 -0.2592808
-0.03880281 0.03621291 -0.25928691
-0.038799323 0.036291048 -0.25929505
-0.038795568 0.036371272 -0.25930712
-0.038792178 0.036449365 -0.25931329
-0.038788792 0.036527462 -0.25931942
-0.038785033 0.036607686 -0.25933149
-0.038781647 0.03668578 -0.25933763
-0.038778942 0.036763571 -0.2593298
-0.038776707 0.036839187 -0.259314
-0.038774177 0.036914937 -0.25930423
-0.038770907 0.036994942 -0.25930631
-0.038768571 0.037070602 -0.25929254
-0.038766921 0.037145957 -0.25926477
-0.038764976 0.037221443 -0.25924301
-0.038763013 0.037294976 -0.25922325
-0.038760405 0.037372719 -0.25921342
-0.038757972 0.037448425 -0.25920165
-0.038754802 0.037528388 -0.25920174
-0.038750459 0.037608873 -0.25922579
-0.038745921 0.037689447 -0.25925386
-0.038741305 0.037772015 -0.25928187
-0.038738113 0.037850022 -0.25928402
-0.038735118 0.037927948 -0.25928217
-0.038731653 0.038008042 -0.25928825
-0.038727678 0.038086396 -0.25930637
-0.038723163 0.038168922 -0.25933239
-0.038718745 0.038251407 -0.25935641
-0.038714595 0.038331807 -0.25937647
-0.038711112 0.038409945 -0.25938463
-0.038707744 0.038489994 -0.25938872
-0.038704649 0.03856796 -0.25938886
-0.038701653 0.038645878 -0.25938702
-0.038698655 0.038723797 -0.25938517
-0.038695659 0.038801719 -0.25938332
-0.038692933 0.038877554 -0.25937751
-0.038690329 0.038955301 -0.2593677
-0.038687035 0.03903335 -0.25937182
-0.038682811 0.039115749 -0.25939184
-0.038678959 0.039196018 -0.25940591
-0.038675573 0.039274111 -0.25941208
-0.038671911 0.039354291 -0.25942215
-0.038668331 0.039432473 -0.25943229
-0.038664769 0.039512612 -0.25944036
-0.038661107 0.039592788 -0.25945047
-0.038657624 0.039670929 -0.2594586
-0.038653962 0.039751109 -0.25946867
-0.038650401 0.039831243 -0.25947678
-0.038646743 0.039911427 -0.25948685
-0.03864279 0.039991736 -0.25950295
-0.038639694 0.040069699 -0.2595031
-0.038637266 0.040145405 -0.25949129
-0.038634755 0.040223107 -0.25947946
-0.038631953 0.040300943 -0.25947362
-0.038629226 0.040376775 -0.25946784
-0.038625959 0.040456783 -0.25946993
-0.038621616 0.040537268 -0.25949398
-0.038616534 0.040622011 -0.25952995
-0.038611822 0.040704627 -0.25955996
-0.038607579 0.040785067 -0.25958201
-0.038603723 0.040865332 -0.25959611
-0.03859989 0.04094756 -0.25960815
-0.038596306 0.041025743 -0.25961828
-0.038592745 0.041105878 -0.25962636
-0.038589183 0.041186012 -0.25963444
-0.038585037 0.041266412 -0.25965452
-0.038581669 0.041346464 -0.2596586
-0.038578283 0.041424558 -0.25966474
-0.038574547 0.041506737 -0.25967479
-0.03857106 0.041584872 -0.25968292
-0.038567595 0.041664965 -0.25968903
-0.038564794 0.041742802 -0.25968319
-0.038562167 0.041818593 -0.25967538
-0.038558703 0.041898683 -0.25968146
-0.038554944 0.041978911 -0.25969356
-0.038551092 0.042059176 -0.25970763
-0.038546965 0.042141527 -0.25972566
-0.038542721 0.042221971 -0.25974774
-0.038538985 0.042304151 -0.25975776
-0.038534172 0.042386808 -0.25978976
-0.038528234 0.042473897 -0.25984165
-0.038522862 0.042558774 -0.25988361
-0.038515966 0.042648256 -0.25995341
-0.038511351 0.042730827 -0.25998142
-0.038506642 0.042813443 -0.26001143
-0.038500331 0.042902663 -0.26006925
-0.038495056 0.042987492 -0.26010922
-0.038489584 0.04307241 -0.26015314
-0.03848489 0.043156978 -0.26018113
-0.038479224 0.043241985 -0.26022905
-0.038470909 0.04333603 -0.26032475
-0.038464893 0.04342512 -0.26037657
-0.03846018 0.043507732 -0.26040658
-0.038455389 0.043592349 -0.26043653
-0.03845134 0.043672699 -0.26045462
-0.038446922 0.043755185 -0.26047865
-0.038441274 0.043842144 -0.26052451
-0.038433447 0.043935973 -0.26061022
-0.038426086 0.044027627 -0.26068798
-0.038421296 0.044112235 -0.26071793
-0.038287133 0.044820234 -0.26292908
-0.038285017 0.044897761 -0.26290929
-0.038281746 0.044977769 -0.26291138
-0.038278304 0.045059815 -0.26291543
-0.038275503 0.045137648 -0.26290959
-0.038273089 0.045215309 -0.26289576
-0.038270015 0.045295224 -0.26289386
-0.038266845 0.045375187 -0.26289394
-0.038263597 0.045457147 -0.262894
-0.038260523 0.045537066 -0.2628921
-0.038257819 0.045614854 -0.26288426
-0.038254842 0.045694731 -0.26288038
-0.038251106 0.045776907 -0.2628904
-0.038247272 0.045859132 -0.26290244
-0.038244098 0.045939095 -0.26290256
-0.038241982 0.046016619 -0.26288271
-0.038239568 0.046094276 -0.26286888
-0.038236398 0.046174243 -0.262869
-0.038232956 0.046256289 -0.26287302
-0.038229782 0.046336249 -0.26287314
-0.038226806 0.046416126 -0.26286924
-0.038223907 0.046494 -0.26286539
-0.040292121 -0.0040305071 -0.26146433
-0.040292706 -0.0039384793 -0.26137623
-0.04029499 -0.0038432833 -0.26125008
-0.040296063 -0.0037514772 -0.261152
-0.04029512 -0.0036646575 -0.26109999
-0.040293653 -0.0035815295 -0.26106203
-0.040292181 -0.0034984015 -0.26102409
-0.04029284 -0.0034083724 -0.26093602
-0.04029372 -0.0033164769 -0.26084194
-0.040295906 -0.0032212362 -0.26071778
-0.04029635 -0.0031330772 -0.26063576
-0.040294997 -0.0030480362 -0.26059377
-0.040299609 -0.0029460303 -0.26041353
-0.040299058 -0.0028593857 -0.26035351
-0.040299717 -0.0027693566 -0.26026547
-0.040298443 -0.0026863143 -0.26022354
-0.04029879 -0.0025981069 -0.26014352
-0.040298022 -0.0025133342 -0.26008955
-0.040296651 -0.0024302471 -0.26004961
-0.0402961 -0.0023436043 -0.25998962
-0.040294196 -0.0022642072 -0.25996372
-0.040292919 -0.0021811668 -0.25992179
-0.04029135 -0.0020979941 -0.25988585
-0.040288962 -0.0020183809 -0.25986999
-0.040286861 -0.0019388981 -0.25984812
-0.040284276 -0.0018592011 -0.25983623
-0.040281475 -0.0017813668 -0.25983039
-0.040278889 -0.001701666 -0.25981849
-0.040276285 -0.0016239192 -0.25980866
-0.040273309 -0.0015440471 -0.25980479
-0.040270507 -0.0014662147 -0.25979894
-0.040267508 -0.0013882928 -0.25979707
-0.040264707 -0.0013104603 -0.25979123
-0.040261906 -0.0012326278 -0.25978538
-0.040258911 -0.0011547059 -0.25978354
-0.040255599 -0.0010786094 -0.25978974
-0.040252309 -0.0010005571 -0.25979388
-0.040249705 -0.00092281029 -0.25978404
-0.040247314 -0.00084319711 -0.25976816
-0.040244728 -0.00076349638 -0.25975627
-0.040241927 -0.00068566576 -0.25975043
-0.040239245 -0.00060592033 -0.25974053
-0.040236637 -0.00052817538 -0.2597307
-0.040233131 -0.00045199133 -0.25974089
-0.040229235 -0.0003756322 -0.25975907
-0.040225536 -0.00029935874 -0.25977322
-0.040221933 -0.00022313185 -0.25978541
-0.040218819 -0.00014712103 -0.25978762
-0.040215433 -6.9027767e-05 -0.25979373
-0.040212218 7.0277601e-06 -0.25979793
-0.040209632 8.6728483e-05 -0.25978604
-0.040207341 0.0001662951 -0.25976816
-0.04020483 0.0002439972 -0.25975633
-0.040203143 0.00032525882 -0.25972444
-0.040201165 0.00040665269 -0.25969851
-0.040198069 0.00048461556 -0.25969869
-0.040194467 0.00056084432 -0.25971085
-0.040191762 0.00063863397 -0.25970301
-0.040188767 0.000716554 -0.25970116
-0.040184751 0.00079100206 -0.25972337
-0.040180035 0.00086380169 -0.2597616
-0.040175751 0.00094033591 -0.25978777
-0.040172342 0.001016479 -0.25979596
-0.040169246 0.0010944419 -0.25979608
-0.040165842 0.0011705812 -0.25980428
-0.040162433 0.0012467224 -0.25981247
-0.04015924 0.00132473 -0.25981462
-0.040156536 0.0014025196 -0.25980675
-0.040153854 0.0014822651 -0.25979689
-0.040150855 0.0015601851 -0.25979504
-0.040147956 0.0016380604 -0.2597912
-0.040146366 0.0017192792 -0.25975728
-0.040145386 0.0018021893 -0.25970936
-0.040143676 0.0018814988 -0.2596795
-0.040143106 0.0019661859 -0.25962156
-0.040141907 0.0020472314 -0.25957966
-0.040139515 0.0021268446 -0.25956377
-0.04013652 0.0022047646 -0.25956193
-0.040132821 0.0022810344 -0.25957611
-0.040128708 0.0023555271 -0.25960031
-0.040124714 0.0024319291 -0.25962049
-0.040120896 0.0025062915 -0.2596387
-0.040117413 0.0025844295 -0.25964683
-0.040114295 0.0026604403 -0.25964901
-0.0401113 0.0027383603 -0.25964716
-0.040108692 0.0028161053 -0.25963736
-0.0401056 0.00289407 -0.25963748
-0.040102113 0.0029722098 -0.25964561
-0.040099293 0.0030480865 -0.25964183
-0.040096607 0.003127832 -0.25963193
-0.040094003 0.0032055788 -0.2596221
-0.040091906 0.0032850578 -0.25960022
-0.040089611 0.0033646282 -0.25958234
-0.040087003 0.0034423731 -0.25957251
-0.040084712 0.0035219435 -0.25955462
-0.040082615 0.0036014244 -0.25953278
-0.040079735 0.0036812574 -0.25952688
-0.040075213 0.0037539704 -0.25956112
-0.040069912 0.0038270298 -0.25961134
-0.04006492 0.0039019166 -0.25965351
-0.040061004 0.003976319 -0.25967374
-0.040057421 0.0040545017 -0.25968388
-0.040054504 0.0041304249 -0.25968206
-0.040051408 0.0042083878 -0.25968221
-0.040048022 0.0042864829 -0.25968835
-0.040044516 0.0043626679 -0.25969854
-0.040041227 0.0044407193 -0.25970268
-0.04003872 0.0045184214 -0.25969085
-0.040036209 0.0045961244 -0.25967902
-0.040033624 0.0046758251 -0.25966713
-0.040031426 0.0047553489 -0.25964725
-0.040029135 0.0048349183 -0.25962937
-0.040027212 0.0049123596 -0.25960559
-0.040026326 0.0049952259 -0.25955564
-0.040024836 0.0050764009 -0.25951976
-0.040021524 0.0051524974 -0.25952592
-0.040017337 0.0052289879 -0.25955009
-0.040013734 0.0053052157 -0.25956225
-0.040010814 0.0053811371 -0.25956047
-0.040007524 0.0054591894 -0.25956461
-0.040003825 0.0055354601 -0.25957879
-0.040000632 0.0056134677 -0.25958091
-0.039997637 0.0056913896 -0.25957906
-0.039994717 0.0057673128 -0.25957727
-0.039991427 0.0058453642 -0.25958142
-0.039988115 0.0059214598 -0.25958759
-0.039985433 0.0060012043 -0.25957772
-0.039982632 0.0060790367 -0.25957188
-0.039978929 0.0061553093 -0.25958604
-0.039974917 0.0062297573 -0.25960827
-0.039971333 0.0063079409 -0.2596184
-0.039968338 0.006385861 -0.25961655
-0.03996712 0.0064649498 -0.25957671
-0.039966211 0.0065458622 -0.25952882
-0.039964113 0.006625344 -0.25950694
-0.0399618 0.0067029586 -0.25949112
-0.039958999 0.006780792 -0.25948527
-0.039954517 0.0068574129 -0.25951543
-0.039949704 0.0069302563 -0.25955567
-0.039945614 0.007006702 -0.25957781
-0.039942011 0.0070829298 -0.25959
-0.039939012 0.0071608508 -0.25958815
-0.039936017 0.0072387708 -0.2595863
-0.039933115 0.007316648 -0.25958246
-0.039930023 0.0073946128 -0.25958261
-0.039926711 0.0074707083 -0.25958878
-0.039923131 0.0075488919 -0.25959894
-0.039919429 0.0076251635 -0.2596131
-0.039916314 0.0077011734 -0.2596153
-0.039913535 0.0077809608 -0.2596074
-0.039911024 0.0078586638 -0.25959557
-0.039908614 0.0079363212 -0.25958174
-0.039906107 0.0080140242 -0.25956991
-0.039903402 0.008091813 -0.25956208
-0.039900426 0.0081716878 -0.25955817
-0.039897017 0.008247829 -0.25956637
-0.039893318 0.0083241006 -0.25958052
-0.039889324 0.0084005026 -0.2596007
-0.039885234 0.0084769493 -0.25962287
-0.039881144 0.008553396 -0.25964502
-0.039877735 0.0086295363 -0.25965321
-0.039874543 0.0087075438 -0.25965536
-0.039871231 0.0087836413 -0.25966153
-0.039867945 0.0088616926 -0.25966567
-0.039864536 0.0089378338 -0.25967386
-0.039860737 0.0090141483 -0.25969005
-0.03985735 0.0090922443 -0.25969619
-0.039854355 0.0091701644 -0.25969434
-0.039851651 0.0092479549 -0.25968647
-0.039849337 0.0093255695 -0.25967064
-0.039847143 0.0094050951 -0.25965077
-0.039845336 0.0094844447 -0.25962293
-0.039843999 0.0095616244 -0.25958711
-0.03984239 0.0096408864 -0.25955528
-0.039840095 0.0097204577 -0.2595374
-0.03983739 0.0097982464 -0.25952956
-0.039834298 0.0098762102 -0.25952971
-0.03983089 0.0099523515 -0.25953788
-0.039827384 0.010028536 -0.25954807
-0.039823782 0.010104763 -0.25956026
-0.039820198 0.010182945 -0.25957036
-0.039816596 0.010259174 -0.25958255
-0.0398128 0.01033549 -0.25959873
-0.039809197 0.010411717 -0.25961089
-0.039805613 0.0104899 -0.25962102
-0.03980162 0.010566304 -0.2596412
-0.039797824 0.010642618 -0.25965738
-0.039794434 0.010720713 -0.25966352
-0.039791029 0.010796853 -0.25967169
-0.03978774 0.010874906 -0.25967583
-0.039785229 0.010952607 -0.259664
-0.039783012 0.011030179 -0.25964618
-0.039780505 0.011107881 -0.25963435
-0.039777897 0.011185627 -0.25962448
-0.039774608 0.011263679 -0.25962865
-0.039771006 0.011339906 -0.25964081
-0.039767422 0.011418089 -0.25965095
-0.03976392 0.011494273 -0.25966114
-0.03976053 0.011572368 -0.25966728
-0.039757144 0.011650464 -0.25967342
-0.039754029 0.011726473 -0.25967562
-0.039751228 0.011804306 -0.25966978
-0.039747745 0.011882445 -0.25967789
-0.039745018 0.01195828 -0.25967211
-0.03974241 0.012036026 -0.25966227
-0.039739221 0.012114033 -0.25966442
-0.039736029 0.012192042 -0.25966656
-0.039733227 0.012269875 -0.25966072
-0.039730698 0.012345622 -0.25965092
-0.039728306 0.012425235 -0.25963503
-0.039725799 0.012502939 -0.25962323
-0.039723288 0.01258064 -0.25961137
-0.03972156 0.012657993 -0.25958356
-0.039719444 0.01273552 -0.25956374
-0.039716054 0.012813615 -0.25956988
-0.039712258 0.012889931 -0.25958604
-0.039708264 0.012966334 -0.25960621
-0.039704196 0.013044735 -0.25962633
-0.039700396 0.01312105 -0.25964251
-0.039696794 0.013197277 -0.25965467
-0.039693601 0.013275285 -0.25965685
-0.039690703 0.013353162 -0.25965297
-0.039687902 0.013430996 -0.25964713
-0.039684691 0.013507049 -0.25965133
-0.039681301 0.013585144 -0.25965747
-0.039677896 0.013661285 -0.25966564
-0.0396748 0.013739249 -0.25966579
-0.039672095 0.013817038 -0.25965795
-0.039669294 0.013894871 -0.25965211
-0.039666787 0.013972574 -0.25964028
-0.039665546 0.014049709 -0.25960249
-0.039664522 0.01412871 -0.25955865
-0.039663084 0.014205932 -0.25952482
-0.03966048 0.014283678 -0.25951499
-0.039656993 0.014361817 -0.25952312
-0.039652709 0.01443835 -0.25954929
-0.039648518 0.01451484 -0.25957346
-0.039644841 0.014593067 -0.25958559
-0.039641336 0.014669251 -0.25959575
-0.039637752 0.014747433 -0.25960591
-0.039634053 0.014823705 -0.25962007
-0.03963057 0.014901844 -0.25962821
-0.039627258 0.014977941 -0.25963441
-0.039624065 0.015055949 -0.25963652
-0.039620973 0.015133913 -0.2596367
-0.039618343 0.015209705 -0.25962889
-0.039615445 0.015287581 -0.25962505
-0.039612547 0.015365458 -0.2596212
-0.039609842 0.015443248 -0.25961336
-0.039607432 0.015520906 -0.25959951
-0.039605606 0.015598303 -0.2595737
-0.039605241 0.015675046 -0.25951794
-0.039604217 0.015754046 -0.2594741
-0.039602295 0.015831487 -0.25945029
-0.039599493 0.01590932 -0.25944445
-0.039596573 0.015985241 -0.25944263
-0.039593384 0.016063251 -0.25944477
-0.039589584 0.016139565 -0.25946096
-0.039585784 0.016215881 -0.25947714
-0.039582007 0.01629415 -0.25949126
-0.039578307 0.016370421 -0.25950545
-0.039574627 0.016448649 -0.25951755
-0.039571144 0.016526787 -0.25952569
-0.039567735 0.016602928 -0.25953388
-0.039564446 0.01668098 -0.25953802
-0.039561626 0.016756857 -0.25953421
-0.039558724 0.016834734 -0.25953037
-0.039555922 0.016912568 -0.25952452
-0.039553709 0.01699014 -0.2595067
-0.039551493 0.01706771 -0.25948888
-0.039549664 0.017145107 -0.25946307
-0.039548229 0.01722233 -0.25942928
-0.039545234 0.01730025 -0.2594274
-0.039541923 0.017376347 -0.2594336
-0.039538343 0.017454529 -0.25944373
-0.039533764 0.017531194 -0.25947589
-0.039527722 0.017608512 -0.25953799
-0.039523631 0.017684959 -0.25956017
-0.039520632 0.017762881 -0.25955829
-0.039517637 0.017840801 -0.25955644
-0.039514836 0.017918633 -0.2595506
-0.039512619 0.017996205 -0.25953278
-0.03951009 0.018071953 -0.25952297
-0.039506409 0.018150179 -0.25953513
-0.039502222 0.018226668 -0.25955927
-0.039498933 0.018304721 -0.25956342
-0.039496228 0.01838251 -0.25955558
-0.039493602 0.018458301 -0.25954777
-0.039490994 0.018536046 -0.25953794
-0.039488681 0.018613663 -0.25952211
-0.039486464 0.018691232 -0.25950429
-0.039484832 0.018768542 -0.25947449
-0.03948408 0.018845459 -0.25942671
-0.039482139 0.018920945 -0.25940493
-0.039478652 0.018999083 -0.25941306
-0.039474465 0.019075574 -0.2594372
-0.039470199 0.019154061 -0.25946134
-0.039465252 0.019232854 -0.25949943
-0.039460283 0.019309694 -0.25953957
-0.039455529 0.0193884 -0.25957367
-0.039451439 0.019464847 -0.25959584
-0.039447565 0.01954316 -0.25961196
-0.039443962 0.019619389 -0.25962412
-0.039440867 0.019697351 -0.25962427
-0.039437968 0.019775229 -0.25962043
-0.039435655 0.019852845 -0.2596046
-0.039433438 0.019930415 -0.25958678
-0.039431006 0.02000612 -0.25957501
-0.039428499 0.020083822 -0.25956315
-0.039426181 0.020161437 -0.25954732
-0.039424241 0.020236922 -0.25952554
-0.039422609 0.020314232 -0.25949574
-0.039420784 0.020391628 -0.25946993
-0.039417569 0.020467682 -0.2594741
-0.039412621 0.020546475 -0.25951222
-0.039406992 0.020625575 -0.25956428
-0.039401457 0.020704631 -0.25961435
-0.039396487 0.020781469 -0.25965449
-0.039392907 0.020859651 -0.25966462
-0.039389908 0.020937573 -0.25966278
-0.039386503 0.021013713 -0.25967097
-0.039383408 0.021091677 -0.25967112
-0.039380312 0.02116964 -0.25967127
-0.039377414 0.021247517 -0.2596674
-0.039375003 0.021325177 -0.25965357
-0.03937218 0.021401055 -0.25964978
-0.039369281 0.021478932 -0.25964594
-0.039366871 0.02155659 -0.25963211
-0.039364927 0.021632077 -0.25961033
-0.03936271 0.021709647 -0.2595925
-0.039360788 0.021787088 -0.25956869
-0.039359838 0.021864092 -0.25952488
-0.039358385 0.02193936 -0.25949314
-0.03935558 0.022017192 -0.25948727
-0.039351903 0.022095419 -0.25949943
-0.039348688 0.022171471 -0.2595036
-0.039345499 0.022249481 -0.25950575
-0.039341036 0.022328055 -0.25953385
-0.039336361 0.022404764 -0.25956801
-0.039332312 0.022485118 -0.2595861
-0.039328903 0.02256126 -0.25959426
-0.039325323 0.022639442 -0.25960439
-0.039322324 0.022717362 -0.25960255
-0.039320089 0.02279298 -0.25958678
-0.039317288 0.022870813 -0.25958091
-0.039315071 0.022948384 -0.25956309
-0.039313439 0.023025693 -0.25953329
-0.039311495 0.023101179 -0.25951153
-0.039309062 0.023176882 -0.25949973
-0.03930714 0.023254324 -0.25947592
-0.039305121 0.023331808 -0.2594541
-0.039301928 0.023409816 -0.25945622
-0.039298326 0.023486044 -0.25946841
-0.039294742 0.023564225 -0.25947854
-0.03929038 0.023642756 -0.25950465
-0.039286114 0.023721244 -0.25952876
-0.03928224 0.023799557 -0.25954488
-0.039279148 0.023877524 -0.25954503
-0.039277203 0.023953009 -0.25952327
-0.039275181 0.024030492 -0.25950146
-0.039272457 0.024106327 -0.25949565
-0.039269067 0.024184423 -0.25950179
-0.039265782 0.024262473 -0.25950593
-0.039262589 0.024340482 -0.25950807
-0.039260078 0.024418185 -0.25949624
-0.039258428 0.02449354 -0.25946847
-0.039256603 0.024570936 -0.25944266
-0.039254755 0.024646379 -0.25941887
-0.03925281 0.024721865 -0.25939712
-0.039250497 0.024799479 -0.25938129
-0.039248262 0.024875097 -0.2593655
-0.03924546 0.024952929 -0.25935966
-0.039241683 0.025031198 -0.25937378
-0.039237611 0.0251096 -0.2593939
-0.039233834 0.025187869 -0.25940803
-0.039230645 0.025265876 -0.25941017
-0.03922784 0.025343711 -0.25940433
-0.039224532 0.025419807 -0.25941053
-0.039221048 0.025497947 -0.25941867
-0.039217561 0.025576085 -0.25942677
-0.039214663 0.025653962 -0.25942296
-0.039211668 0.025731882 -0.25942111
-0.039208259 0.025808021 -0.25942928
-0.039204773 0.025886161 -0.25943741
-0.039201681 0.025964126 -0.25943756
-0.039198488 0.026042134 -0.25943971
-0.039195783 0.026119923 -0.25943187
-0.039193351 0.026195627 -0.25942007
-0.03919065 0.026273418 -0.25941223
-0.039188314 0.026349077 -0.25939846
-0.039186001 0.026426692 -0.25938261
-0.039182905 0.026504656 -0.25938278
-0.0391794 0.02658084 -0.25939295
-0.03917582 0.026659023 -0.25940308
-0.03917253 0.026737075 -0.25940722
-0.039169531 0.026814995 -0.25940537
-0.039166242 0.026893046 -0.25940952
-0.039162662 0.026971228 -0.25941965
-0.039159469 0.027049236 -0.2594218
-0.039156083 0.027127333 -0.25942793
-0.039152674 0.027203472 -0.25943613
-0.039149873 0.027281305 -0.25943029
-0.039147656 0.027358877 -0.25941247
-0.039145418 0.027434494 -0.25939667
-0.039142814 0.027512239 -0.25938684
-0.03914009 0.027588075 -0.25938103
-0.039137971 0.027665602 -0.25936121
-0.03913632 0.027740957 -0.25933343
-0.039134178 0.02781653 -0.25931567
-0.039132256 0.027893972 -0.25929183
-0.039130799 0.027969239 -0.25926009
-0.039128855 0.028044725 -0.2592383
-0.039125275 0.028122908 -0.25924844
-0.039121397 0.028201221 -0.25926459
-0.039117057 0.028281707 -0.25928864
-0.039112598 0.028360281 -0.25931674
-0.039109111 0.028438419 -0.25932488
-0.039105333 0.028516691 -0.259339
-0.039101753 0.028594874 -0.25934914
-0.03909817 0.028673055 -0.25935927
-0.039094977 0.028751062 -0.25936142
-0.039092079 0.028828939 -0.25935757
-0.039088693 0.028907035 -0.25936371
-0.039085012 0.02898526 -0.25937584
-0.039082114 0.029063137 -0.259372
-0.039079584 0.029138885 -0.25936222
-0.039076589 0.029216805 -0.25936037
-0.039073005 0.029294988 -0.25937051
-0.039070494 0.02937269 -0.25935864
-0.039068554 0.029448176 -0.25933689
-0.039065849 0.029525965 -0.25932902
-0.039062362 0.029604105 -0.25933719
-0.039058197 0.029682547 -0.2593593
-0.039053172 0.029763341 -0.25939733
-0.039049026 0.029843738 -0.25941741
-0.039046202 0.029919619 -0.2594136
-0.039043497 0.029997407 -0.25940579
-0.039040111 0.030075502 -0.2594119
-0.039036628 0.030153641 -0.25942004
-0.039033629 0.030231562 -0.25941819
-0.0390311 0.030307308 -0.25940841
-0.039028008 0.030385274 -0.25940853
-0.039024521 0.030463412 -0.2594167
-0.039021231 0.030541465 -0.25942081
-0.039018724 0.030619167 -0.25940901
-0.039016586 0.030694738 -0.25939122
-0.039014075 0.030772442 -0.25937939
-0.039011739 0.030848101 -0.25936559
-0.039008841 0.030925978 -0.25936174
-0.039005943 0.031003855 -0.2593579
-0.039002653 0.031081907 -0.25936204
-0.038998507 0.031162307 -0.25938213
-0.038994826 0.03124053 -0.25939423
-0.038991343 0.031318672 -0.25940239
-0.038988151 0.03139668 -0.25940454
-0.038985252 0.031474553 -0.25940067
-0.038982254 0.031552475 -0.25939882
-0.038979162 0.031630442 -0.25939897
-0.038976241 0.031706363 -0.25939718
-0.038973343 0.03178424 -0.25939333
-0.038970441 0.031862117 -0.25938949
-0.038967542 0.031939991 -0.25938565
-0.03896521 0.032015651 -0.25937185
-0.038963266 0.032091141 -0.25935006
-0.038961712 0.032166451 -0.25932032
-0.038959667 0.032241978 -0.25930053
-0.038957726 0.032317467 -0.25927877
-0.038955413 0.03239508 -0.25926292
-0.038953371 0.03247061 -0.25924316
-0.03895057 0.032548442 -0.25923732
-0.038946498 0.032626845 -0.25925744
-0.038942058 0.032707375 -0.25928348
-0.038937718 0.032787859 -0.25930756
-0.038933452 0.032866348 -0.25933167
-0.038929693 0.032946572 -0.25934374
-0.038926601 0.033024535 -0.25934392
-0.038923994 0.033102281 -0.25933406
-0.03892117 0.033178158 -0.25933027
-0.038917981 0.033256169 -0.25933242
-0.038914982 0.033334091 -0.25933057
-0.038912181 0.03341192 -0.25932473
-0.038910042 0.033487495 -0.25930694
-0.038908001 0.033563025 -0.25928718
-0.038906641 0.03363825 -0.25925341
-0.038905654 0.033711344 -0.25921372
-0.038903046 0.033789091 -0.25920385
-0.038899854 0.033867098 -0.259206
-0.038896762 0.033945061 -0.25920618
-0.038893275 0.034023199 -0.25921428
-0.038889695 0.034101382 -0.25922441
-0.038885351 0.034181871 -0.2592485
-0.038881693 0.03426205 -0.25925857
-0.038879164 0.034337796 -0.25924879
-0.038876556 0.034415543 -0.25923896
-0.038873464 0.034493506 -0.25923911
-0.038869977 0.034571648 -0.25924724
-0.038866885 0.034649611 -0.25924739
-0.038864549 0.034725271 -0.25923359
-0.038862314 0.034800887 -0.25921783
-0.0388599 0.034878545 -0.25920397
-0.038857371 0.034954295 -0.2591942
-0.038854767 0.035032041 -0.25918436
-0.038851768 0.03510996 -0.25918251
-0.03884694 0.035190664 -0.25921655
-0.038843185 0.035270888 -0.25922865
-0.038839698 0.035349026 -0.25923678
-0.038836993 0.035426818 -0.25922894
-0.038835146 0.035502259 -0.25920516
-0.03883186 0.035580311 -0.25920931
-0.038827516 0.035660796 -0.25923339
-0.038823172 0.035741284 -0.25925744
-0.038819224 0.035821594 -0.25927353
-0.038815368 0.035901859 -0.2592876
-0.038811415 0.035982173 -0.25930369
-0.038807835 0.036060356 -0.25931382
-0.038805012 0.036136232 -0.25931001
-0.038801745 0.036216237 -0.25931209
-0.038798258 0.036294378 -0.25932026
-0.038795263 0.036372297 -0.25931838
-0.038792461 0.036450133 -0.25931254
-0.038789466 0.036528051 -0.25931069
-0.038786665 0.036605887 -0.25930485
-0.038783938 0.036681719 -0.25929907
-0.038781039 0.036759596 -0.25929523
-0.038778704 0.036835257 -0.25928143
-0.03877762 0.036908396 -0.25924373
-0.038776822 0.036981404 -0.25920004
-0.038774978 0.037056848 -0.25917625
-0.038770556 0.037139334 -0.25920027
-0.038766023 0.037219904 -0.25922835
-0.038762733 0.037297957 -0.25923249
-0.038759835 0.03737583 -0.25922865
-0.038755979 0.037456099 -0.25924271
-0.038751442 0.037536673 -0.25927076
-0.038747296 0.037617072 -0.25929084
-0.038743638 0.037697252 -0.25930095
-0.038739391 0.037777696 -0.259323
-0.038734779 0.037860267 -0.25935102
-0.038730532 0.037940707 -0.25937307
-0.038726971 0.038020842 -0.25938118
-0.038723685 0.038098894 -0.25938532
-0.038720392 0.038176946 -0.25938946
-0.038717493 0.038254824 -0.25938562
-0.038715452 0.038330354 -0.25936583
-0.038712844 0.038408101 -0.25935599
-0.038709167 0.038486324 -0.25936812
-0.038705897 0.038566332 -0.25937021
-0.038702607 0.038644381 -0.25937438
-0.038698755 0.03872465 -0.25938845
-0.0386949 0.038804919 -0.25940251
-0.038690947 0.038885228 -0.25941861
-0.038687095 0.038965501 -0.25943267
-0.03868334 0.039045721 -0.25944477
-0.038680144 0.039123729 -0.25944692
-0.038677245 0.039201606 -0.25944304
-0.038674619 0.039277397 -0.25943527
-0.038671721 0.039355274 -0.25943142
-0.038668063 0.039435454 -0.25944149
-0.038663741 0.039517894 -0.25946352
-0.038660157 0.039596077 -0.25947365
-0.038657065 0.03967404 -0.2594738
-0.03865321 0.039754309 -0.25948787
-0.038649648 0.039834447 -0.25949597
-0.038646553 0.03991241 -0.25949612
-0.038643092 0.039992504 -0.25950223
-0.038640559 0.04006825 -0.25949243
-0.038637757 0.040146083 -0.25948659
-0.038634002 0.04022631 -0.25949866
-0.038629681 0.040308747 -0.25952068
-0.038625631 0.040389102 -0.25953877
-0.038622148 0.040467244 -0.25954691
-0.03861849 0.040547423 -0.25955698
-0.038614538 0.040627733 -0.25957304
-0.038610607 0.040709998 -0.25958711
-0.038606752 0.040790267 -0.25960118
-0.038602896 0.040870536 -0.25961524
-0.038599513 0.040948629 -0.25962138
-0.038596243 0.041028634 -0.25962347
-0.038592681 0.041108772 -0.25963157
-0.038589194 0.04118691 -0.25963971
-0.038585734 0.041267004 -0.25964579
-0.038582075 0.041347183 -0.25965589
-0.03857898 0.041425146 -0.25965604
-0.038576275 0.041502938 -0.2596482
-0.038573183 0.041580901 -0.25964835
-0.038569521 0.041661084 -0.25965843
-0.038565863 0.041741263 -0.25966853
-0.038562205 0.041821443 -0.2596786
-0.038558058 0.041901842 -0.25969869
-0.038553737 0.041984282 -0.25972068
-0.038549121 0.042066853 -0.2597487
-0.03854328 0.042153902 -0.25979859
-0.038537811 0.042238817 -0.25984254
-0.03853273 0.042323563 -0.25987849
-0.038527727 0.042406306 -0.25991449
-0.03852208 0.042493269 -0.25996038
-0.038516805 0.042578101 -0.26000032
-0.038510278 0.042665452 -0.26006418
-0.038503114 0.042757019 -0.26013795
-0.038498033 0.042841762 -0.26017392
-0.038491704 0.042929027 -0.26023379
-0.038484637 0.04302055 -0.26030552
-0.038479261 0.043105423 -0.26034749
-0.038473889 0.0431903 -0.26038945
-0.038469959 0.043272566 -0.26040345
-0.038466007 0.04335288 -0.26041955
-0.038460925 0.043437622 -0.26045549
-0.038455181 0.043524623 -0.26050338
-0.038448971 0.043613799 -0.2605592
-0.038442273 0.043703195 -0.26062503
-0.038435943 0.04379046 -0.26068491
-0.0384303 0.043877423 -0.2607308
-0.038297452 0.044578947 -0.26292014
-0.038295139 0.04465656 -0.26290429
-0.038292065 0.044736482 -0.26290241
-0.038288992 0.044816401 -0.2629005
-0.038285725 0.044896405 -0.26290262
-0.038282555 0.044976369 -0.26290271
-0.038279578 0.045056242 -0.2628988
-0.038276408 0.045136206 -0.26289892
-0.038273063 0.045218207 -0.26290095
-0.038270358 0.045295998 -0.26289311
-0.03826775 0.045373745 -0.26288328
-0.038263842 0.045457963 -0.26289529
-0.038259909 0.045540228 -0.26290929
-0.038257401 0.045617931 -0.26289746
-0.038254619 0.045697719 -0.26288956
-0.038251646 0.045777589 -0.26288569
-0.038248841 0.045855425 -0.26287985
-0.038245868 0.045935303 -0.26287594
-0.038242519 0.046017304 -0.262878
-0.038239155 0.046097353 -0.26288211
-0.038235985 0.046177316 -0.26288217
-0.038233008 0.04625719 -0.2628783
-0.038230792 0.046334762 -0.26286048
-0.038228381 0.04641242 -0.26284665
-0.038225405 0.046492293 -0.26284274
-0.040316675 -0.0039503742 -0.26090926
-0.040316023 -0.0038636867 -0.26085123
-0.040315256 -0.0037789084 -0.26079726
-0.040314198 -0.0036939997 -0.26074928
-0.040314153 -0.0036056191 -0.26067728
-0.040315323 -0.0035138559 -0.26057717
-0.040315378 -0.0034255199 -0.26050314
-0.040319093 -0.0029735938 -0.2600528
-0.040316898 -0.0028940681 -0.26003295
-0.040315934 -0.0028092042 -0.25998297
-0.040314052 -0.002727855 -0.25995505
-0.040312074 -0.0026464649 -0.25992915
-0.040310096 -0.0025650691 -0.25990325
-0.040307608 -0.0024854131 -0.25988936
-0.040305197 -0.0024077557 -0.25987554
-0.040302824 -0.0023261867 -0.25985759
-0.040300317 -0.0022484865 -0.25984579
-0.040297635 -0.0021687411 -0.2598359
-0.040295146 -0.0020890851 -0.25982201
-0.040292244 -0.0020112097 -0.25981817
-0.040289756 -0.0019315518 -0.25980428
-0.040287562 -0.0018520262 -0.2597844
-0.04028476 -0.0017741937 -0.25977856
-0.040281471 -0.0016961433 -0.2597827
-0.040278062 -0.0016200021 -0.2597909
-0.04027446 -0.0015437733 -0.25980306
-0.040271051 -0.0014676321 -0.25981125
