# .PCD v0.7 - Point Cloud Data file format
VERSION 0.7
FIELDS x y z
SIZE 4 4 4
TYPE F F F
COUNT 1 1 1
WIDTH 1260
HEIGHT 1
VIEWPOINT 0 0 0 1 0 0 0
POINTS 1260
DATA ascii
-0.046109602 -0.034385055 -0.26029187
-0.046106458 -0.034309044 -0.26029408
-0.046103336 -0.034231082 -0.26029423
-0.046100389 -0.03415516 -0.26029244
-0.046097636 -0.034079328 -0.26028666
-0.04609469 -0.034003403 -0.26028487
-0.046091449 -0.033927351 -0.26028904
-0.046088621 -0.033849519 -0.26028323
-0.046085965 -0.033773728 -0.26027542
-0.046083137 -0.033695895 -0.26026961
-0.046080187 -0.033619974 -0.26026779
-0.046077337 -0.033544093 -0.26026401
-0.046074197 -0.033468086 -0.26026621
-0.046071153 -0.03339212 -0.26026642
-0.046068322 -0.033314288 -0.26026058
-0.046065766 -0.033238541 -0.26025081
-0.04606311 -0.03316275 -0.26024303
-0.046059988 -0.033084787 -0.26024318
-0.046056844 -0.033008777 -0.26024538
-0.046053898 -0.032932855 -0.26024359
-0.046050757 -0.032856848 -0.2602458
-0.046047907 -0.032780968 -0.26024202
-0.046045564 -0.032703355 -0.26022619
-0.046043321 -0.03262578 -0.26020837
-0.046040274 -0.032549813 -0.26020858
-0.046037037 -0.032473765 -0.26021278
-0.046033796 -0.03239771 -0.26021695
-0.046030849 -0.032321788 -0.26021516
-0.046028018 -0.03224396 -0.26020932
-0.046025462 -0.03216821 -0.26019958
-0.046022728 -0.032090418 -0.26019174
-0.046019781 -0.032014497 -0.26018995
-0.046016641 -0.03193849 -0.26019216
-0.046013694 -0.031862568 -0.26019034
-0.046010647 -0.031786602 -0.26019055
-0.046007115 -0.031710424 -0.26020074
-0.046003975 -0.031634413 -0.26020294
-0.046001632 -0.031556796 -0.26018712
-0.045998976 -0.031481005 -0.26017934
-0.045995932 -0.031405039 -0.26017955
-0.045993004 -0.031327166 -0.2601757
-0.045990057 -0.031251244 -0.26017392
-0.045987207 -0.031175364 -0.26017013
-0.045984164 -0.031099398 -0.26017034
-0.045981526 -0.031021653 -0.26016051
-0.045979362 -0.030946078 -0.26014274
-0.045976631 -0.030868288 -0.26013491
-0.045973293 -0.030792193 -0.2601411
-0.045970034 -0.030718096 -0.26014733
-0.045966908 -0.030640133 -0.26014751
-0.045963846 -0.030566122 -0.26014975
-0.045960918 -0.030488245 -0.2601459
-0.045958165 -0.030412411 -0.26014012
-0.045955122 -0.030336445 -0.26014033
-0.045952369 -0.030260611 -0.26013452
-0.045949541 -0.030182779 -0.26012871
-0.045946084 -0.030108595 -0.26013893
-0.045942258 -0.030032283 -0.26015511
-0.045938902 -0.029958142 -0.26016337
-0.045935974 -0.029880267 -0.26015952
-0.045933221 -0.029804431 -0.26015374
-0.045930471 -0.029728595 -0.26014793
-0.045927543 -0.02965072 -0.26014411
-0.045924477 -0.029576708 -0.26014635
-0.045920946 -0.029500527 -0.26015657
-0.045917608 -0.029424433 -0.26016274
-0.045914561 -0.029348467 -0.26016295
-0.045911029 -0.029272284 -0.26017314
-0.045907889 -0.029196277 -0.26017535
-0.045904845 -0.029120311 -0.26017556
-0.045901701 -0.029044304 -0.26017776
-0.045899145 -0.028968554 -0.26016796
-0.045896217 -0.028890681 -0.26016414
-0.045892373 -0.028816322 -0.26018235
-0.045888253 -0.028739881 -0.26020452
-0.045884602 -0.028665608 -0.26021877
-0.045881167 -0.02858947 -0.26022696
-0.045877926 -0.028513419 -0.26023114
-0.045873906 -0.028437018 -0.26025134
-0.045869477 -0.028362401 -0.26028153
-0.045865241 -0.028287871 -0.26030776
-0.045861512 -0.028211603 -0.26032194
-0.045857668 -0.028137244 -0.26034015
-0.045853648 -0.028060846 -0.26036033
-0.045849316 -0.027986273 -0.26038855
-0.04584498 -0.027911697 -0.26041678
-0.045840744 -0.027837167 -0.26044297
-0.045836043 -0.027760465 -0.26047713
-0.045831416 -0.02768576 -0.26051134
-0.045826398 -0.027610883 -0.26055354
-0.045821287 -0.02753596 -0.26059771
-0.045816056 -0.027462952 -0.26064596
-0.045811135 -0.027388118 -0.26068616
-0.04580602 -0.027313195 -0.26073033
-0.045800224 -0.02723797 -0.2607885
-0.045793727 -0.027164396 -0.26086271
-0.045787908 -0.027091127 -0.26092291
-0.045781624 -0.027015684 -0.26099107
-0.045774441 -0.026941806 -0.26107922
-0.045767061 -0.026867842 -0.2611714
-0.045760468 -0.026794225 -0.26124761
-0.045724589 -0.026660472 -0.26188385
-0.045574822 -0.026670473 -0.26501322
-0.045656804 -0.026541982 -0.26319784
-0.045650907 -0.026466714 -0.26325801
-0.045606192 -0.026411496 -0.26414388
-0.045601293 -0.026334707 -0.26418203
-0.045587339 -0.026261747 -0.26441211
-0.04556895 -0.026190743 -0.26473615
-0.045559213 -0.026117692 -0.26487827
-0.04555285 -0.026040252 -0.2649464
-0.045547463 -0.025963247 -0.26499453
-0.045543563 -0.025884937 -0.26501065
-0.04554034 -0.02580693 -0.2650128
-0.045537435 -0.025727101 -0.26500693
-0.045534603 -0.025649266 -0.26500109
-0.045531482 -0.025571303 -0.26500127
-0.045527969 -0.025493167 -0.2650094
-0.045524478 -0.025413075 -0.26501551
-0.045521453 -0.025335155 -0.26501366
-0.045518622 -0.025257323 -0.26500782
-0.045515716 -0.025177494 -0.26500195
-0.045512788 -0.025099616 -0.26499811
-0.045509376 -0.025021523 -0.26500428
-0.045506172 -0.024941562 -0.26500437
-0.045503147 -0.024863642 -0.26500252
-0.045500223 -0.024785768 -0.26499867
-0.045497488 -0.024707977 -0.26499087
-0.045494776 -0.024628233 -0.26498097
-0.045491654 -0.02455027 -0.26498115
-0.045488726 -0.024472393 -0.26497731
-0.045485623 -0.024392476 -0.26497543
-0.045482501 -0.024314513 -0.26497558
-0.045479186 -0.024236463 -0.26497972
-0.045475967 -0.024158457 -0.26498187
-0.045472648 -0.024080407 -0.26498604
-0.045468863 -0.024000186 -0.26499814
-0.045465544 -0.023922136 -0.26500228
-0.04546262 -0.023844261 -0.26499844
-0.04545971 -0.02376443 -0.26499256
-0.045457173 -0.023686728 -0.26498073
-0.045454346 -0.023608893 -0.26497489
-0.04545122 -0.02353093 -0.26497507
-0.045448314 -0.023451101 -0.26496917
-0.045445386 -0.023373224 -0.26496536
-0.045442361 -0.023295304 -0.26496351
-0.045439262 -0.023215387 -0.2649616
-0.045436334 -0.02313751 -0.26495779
-0.045433212 -0.023059547 -0.26495793
-0.045429815 -0.0229795 -0.26496205
-0.045426596 -0.022901494 -0.26496419
-0.045423668 -0.022823617 -0.26496035
-0.045420352 -0.022745568 -0.26496452
-0.045417055 -0.022665564 -0.26496661
-0.04541393 -0.022587601 -0.26496679
-0.045410905 -0.022509681 -0.26496494
-0.045408078 -0.022431847 -0.2649591
-0.045405168 -0.022352017 -0.2649532
-0.045402341 -0.022274183 -0.26494738
-0.045398828 -0.022196047 -0.26495552
-0.045394532 -0.022117564 -0.26497966
-0.045391042 -0.022037473 -0.26498574
-0.045388795 -0.021959901 -0.26496792
-0.045386378 -0.021880286 -0.26495206
-0.045383353 -0.021802368 -0.26495022
-0.045379937 -0.021724274 -0.26495638
-0.045376912 -0.021646354 -0.26495454
-0.045374375 -0.021568652 -0.26494271
-0.045371663 -0.021488907 -0.26493284
-0.045368541 -0.021410944 -0.26493299
-0.045365516 -0.021333024 -0.26493114
-0.045362413 -0.021253107 -0.26492926
-0.045358609 -0.021174841 -0.26494342
-0.04535529 -0.021096792 -0.26494756
-0.045352854 -0.021019131 -0.26493374
-0.045350216 -0.020941386 -0.2649239
-0.045346823 -0.020861339 -0.26492801
-0.045343503 -0.020783288 -0.26493216
-0.045340091 -0.020705195 -0.26493829
-0.045336891 -0.020625234 -0.26493841
-0.045334548 -0.020547617 -0.26492259
-0.045331717 -0.020469785 -0.26491678
-0.045328595 -0.020391822 -0.26491693
-0.045325395 -0.02031186 -0.26491702
-0.045322079 -0.020233812 -0.26492119
-0.045318957 -0.020155849 -0.26492134
-0.045315951 -0.020075975 -0.26491746
-0.045312829 -0.019998012 -0.26491761
-0.045309901 -0.019920135 -0.26491377
-0.045307171 -0.019842345 -0.26490593
-0.045304243 -0.01976447 -0.26490211
-0.045300651 -0.019684335 -0.26491022
-0.045297138 -0.019606199 -0.26491836
-0.045293942 -0.019526238 -0.26491845
-0.045290917 -0.019448318 -0.26491663
-0.04528828 -0.019370573 -0.26490679
-0.045285646 -0.019292826 -0.26489696
-0.045282427 -0.01921482 -0.26489913
-0.04527913 -0.019134816 -0.26490122
-0.045276396 -0.019057026 -0.26489341
-0.045273274 -0.018979063 -0.26489356
-0.045270074 -0.018899102 -0.26489365
-0.045266755 -0.018821051 -0.26489782
-0.045263343 -0.01874296 -0.26490396
-0.045260511 -0.018665126 -0.26489812
-0.045257799 -0.018585382 -0.26488826
-0.045254972 -0.01850755 -0.26488242
-0.045251947 -0.01842963 -0.2648806
-0.045248453 -0.018349539 -0.26488668
-0.045245234 -0.018271532 -0.26488882
-0.045242112 -0.018193569 -0.264889
-0.045239009 -0.018113652 -0.26488709
-0.045236763 -0.018036079 -0.26486927
-0.045233738 -0.017958159 -0.26486745
-0.045230031 -0.017879937 -0.26487958
-0.045226909 -0.017801974 -0.26487973
-0.045223806 -0.017722055 -0.26487786
-0.045220293 -0.017643919 -0.26488602
-0.045217484 -0.017564133 -0.26487812
-0.045214754 -0.017486341 -0.26487029
-0.045211241 -0.017408205 -0.26487845
-0.045208607 -0.01733046 -0.26486862
-0.04520607 -0.017252756 -0.26485679
-0.045202866 -0.017172795 -0.2648569
-0.045199744 -0.017094832 -0.26485705
-0.04519682 -0.017016957 -0.26485324
-0.045193911 -0.016937125 -0.26484734
-0.045190595 -0.016859077 -0.26485148
-0.045187179 -0.016780984 -0.26485765
-0.045184448 -0.016703194 -0.26484981
-0.045181442 -0.016623318 -0.26484591
-0.045177929 -0.016545184 -0.26485407
-0.04517471 -0.016467176 -0.26485622
-0.045171902 -0.016387388 -0.26484835
-0.045168776 -0.016309425 -0.2648485
-0.045165557 -0.01623142 -0.26485065
-0.045162652 -0.016151588 -0.26484478
-0.045159627 -0.01607367 -0.26484293
-0.045156699 -0.015995793 -0.26483911
-0.045153674 -0.015917873 -0.26483727
-0.045150377 -0.015837869 -0.26483935
-0.045147058 -0.015759818 -0.26484352
-0.045144033 -0.0156819 -0.26484168
-0.045141127 -0.015602069 -0.26483577
-0.045138102 -0.015524149 -0.26483396
-0.04513498 -0.015446186 -0.26483411
-0.045131583 -0.015366139 -0.26483822
-0.045128364 -0.015288132 -0.26484036
-0.045125242 -0.015210169 -0.26484054
-0.045122236 -0.015130295 -0.26483664
-0.045119505 -0.015052506 -0.2648288
-0.04511648 -0.014974587 -0.26482695
-0.045113456 -0.014896667 -0.26482514
-0.045110546 -0.014816836 -0.26481926
-0.045107916 -0.01473909 -0.26480943
-0.04510479 -0.014661127 -0.26480958
-0.045101102 -0.014580948 -0.26481968
-0.045097981 -0.014502986 -0.26481983
-0.045094859 -0.014425023 -0.26481998
-0.045091562 -0.014345018 -0.2648221
-0.04508834 -0.014267012 -0.26482427
-0.045085512 -0.014189179 -0.26481843
-0.045082606 -0.014109348 -0.26481253
-0.045079678 -0.014031473 -0.26480871
-0.045077041 -0.013953727 -0.26479888
-0.045073919 -0.013875763 -0.26479903
-0.045070231 -0.013795585 -0.26480913
-0.045067206 -0.013717666 -0.26480728
-0.04506477 -0.013640007 -0.26479346
-0.045061469 -0.013560003 -0.26479557
-0.045057859 -0.013481822 -0.26480573
-0.045054659 -0.013401861 -0.26480582
-0.045051735 -0.013323985 -0.26480198
-0.045048609 -0.013246022 -0.26480216
-0.045045685 -0.013168146 -0.26479831
-0.045043051 -0.0130904 -0.26478848
-0.045039948 -0.013010482 -0.2647866
-0.045036338 -0.012932302 -0.26479673
-0.045033038 -0.012852298 -0.26479882
-0.045030307 -0.012774508 -0.26479101
-0.045027185 -0.012696546 -0.26479116
-0.045023303 -0.012616281 -0.26480526
-0.045020178 -0.012538319 -0.26480541
-0.045017369 -0.012458531 -0.26479754
-0.045014542 -0.012380698 -0.2647917
-0.045012005 -0.012302995 -0.26477987
-0.045009077 -0.012225119 -0.26477605
-0.045005292 -0.012144897 -0.26478815
-0.045001797 -0.012064807 -0.26479423
-0.044999164 -0.01198706 -0.2647844
-0.04499682 -0.011909444 -0.2647686
-0.04499409 -0.011831655 -0.26476076
-0.044990968 -0.011753692 -0.26476091
-0.044987474 -0.011673601 -0.26476702
-0.044984255 -0.011595595 -0.26476917
-0.044981152 -0.011515677 -0.26476729
-0.044978224 -0.011437801 -0.26476344
-0.044974908 -0.011359751 -0.26476759
-0.044971708 -0.01127979 -0.26476771
-0.044968586 -0.011201827 -0.26476786
-0.044965561 -0.011123908 -0.26476604
-0.044962652 -0.011044078 -0.26476014
-0.044959627 -0.010966158 -0.26475829
-0.04495604 -0.010886023 -0.2647664
-0.044952624 -0.01080793 -0.26477253
-0.044949032 -0.010727796 -0.26478064
-0.044946007 -0.010649876 -0.26477879
-0.044943374 -0.01057213 -0.26476896
-0.044940758 -0.010492429 -0.2647571
-0.044937443 -0.010414379 -0.26476127
-0.044933755 -0.010334202 -0.26477134
-0.044930339 -0.010256108 -0.26477748
-0.044927608 -0.010178318 -0.26476967
-0.044924799 -0.010098532 -0.26476181
-0.044922262 -0.010020829 -0.26474997
-0.044919334 -0.0099429516 -0.26474613
-0.044915549 -0.0098627312 -0.26475823
-0.044912133 -0.009784638 -0.26476437
-0.044908933 -0.0097046774 -0.26476449
-0.044906005 -0.0096268011 -0.26476064
-0.044903275 -0.0095490115 -0.26475281
-0.044900075 -0.0094690509 -0.26475292
-0.044896562 -0.0093909139 -0.26476109
-0.044893362 -0.0093109533 -0.26476118
-0.044890825 -0.0092332512 -0.26474935
-0.044887993 -0.0091554178 -0.26474351
-0.04488489 -0.0090755001 -0.26474163
-0.044881865 -0.008997581 -0.26473978
-0.044878472 -0.0089175329 -0.26474389
-0.044875156 -0.0088394824 -0.26474804
-0.044872422 -0.0087616928 -0.26474023
-0.044869516 -0.0086818626 -0.26473433
-0.044866197 -0.0086038131 -0.2647385
-0.044862609 -0.0085236784 -0.26474661
-0.044859212 -0.0084436312 -0.26475069
-0.044856284 -0.0083657559 -0.26474684
-0.044853281 -0.0082858801 -0.26474297
-0.044850256 -0.0082079601 -0.26474112
-0.044847231 -0.0081300419 -0.26473927
-0.044844031 -0.0080500804 -0.26473939
-0.044841103 -0.0079722041 -0.26473558
-0.044837903 -0.0078922436 -0.26473567
-0.044835076 -0.0078144092 -0.26472986
-0.044832438 -0.0077366643 -0.26472002
-0.044829514 -0.0076587871 -0.26471618
-0.044826116 -0.0075787408 -0.26472026
-0.044822332 -0.0074985195 -0.26473236
-0.044818819 -0.0074203825 -0.26474053
-0.044815522 -0.0073403791 -0.26474261
-0.044812694 -0.0072625456 -0.2647368
-0.044809863 -0.0071847131 -0.26473096
-0.044806469 -0.0071046641 -0.26473504
-0.044803366 -0.0070247473 -0.26473317
-0.044800732 -0.0069470014 -0.26472336
-0.044797998 -0.0068692109 -0.26471552
-0.044794876 -0.0067912498 -0.26471567
-0.044791386 -0.006711157 -0.26472178
-0.044787988 -0.0066311108 -0.26472586
-0.044785161 -0.0065532774 -0.26472005
-0.044782329 -0.006475444 -0.26471421
-0.044779323 -0.0063955709 -0.26471031
-0.044776399 -0.0063176937 -0.26470649
-0.044773102 -0.0062376903 -0.26470858
-0.044769976 -0.0061597265 -0.26470876
-0.044766679 -0.0060797222 -0.26471084
-0.044762895 -0.0059995009 -0.26472294
-0.044759501 -0.0059194546 -0.26472706
-0.044756964 -0.0058417507 -0.26471522
-0.044754229 -0.005763961 -0.26470739
-0.044751011 -0.0056859553 -0.26470956
-0.044747714 -0.005605951 -0.26471168
-0.044744611 -0.0055260332 -0.26470977
-0.044741683 -0.005448157 -0.26470593
-0.044738583 -0.0053682383 -0.26470405
-0.044735558 -0.0052903201 -0.2647022
-0.044732433 -0.0052123563 -0.26470238
-0.044729039 -0.0051323092 -0.26470646
-0.044726305 -0.0050545195 -0.26469862
-0.044723399 -0.0049746884 -0.26469275
-0.044719987 -0.0048965961 -0.26469889
-0.044716686 -0.0048165917 -0.26470101
-0.044713762 -0.0047387164 -0.26469719
-0.044710658 -0.0046587978 -0.26469529
-0.044707827 -0.0045809653 -0.26468945
-0.044705097 -0.0045031756 -0.26468164
-0.044701602 -0.0044230837 -0.26468772
-0.044698402 -0.0043431241 -0.26468784
-0.044695769 -0.0042653773 -0.264678
-0.04469284 -0.0041875001 -0.26467419
-0.04468964 -0.0041075405 -0.26467428
-0.044687964 -0.0040321834 -0.26464653
-0.044687435 -0.0039593 -0.26459685
-0.044684801 -0.0038815532 -0.26458701
-0.044683903 -0.0038065426 -0.26454329
-0.044690162 -0.0037504211 -0.26436612
-0.044716842 -0.0037387181 -0.26380038
-0.044725522 -0.0036856364 -0.26357532
-0.044727761 -0.0036198758 -0.26347387
-0.044785317 -0.0036081541 -0.2622647
-0.0448002 -0.0035715718 -0.26192415
-0.044798598 -0.0034982115 -0.26189643
-0.044866972 -0.003377419 -0.26037097
-0.04487608 -0.0033304151 -0.26014206
-0.044874087 -0.0032568816 -0.26012236
-0.044874124 -0.0031862147 -0.26006272
-0.044879213 -0.0031295717 -0.25990954
-0.04488048 -0.003063377 -0.25982803
-0.04488118 -0.0029949676 -0.25975651
-0.04488235 -0.0029287282 -0.25967699
-0.044882171 -0.0028599277 -0.25962341
-0.044881232 -0.002788825 -0.25958377
-0.044880584 -0.0027178545 -0.25953814
-0.044879843 -0.0026468411 -0.25949448
-0.044879101 -0.0025758259 -0.25945085
-0.044878844 -0.0025050268 -0.25939724
-0.044878569 -0.0024361815 -0.25934565
-0.044877727 -0.0023651253 -0.25930402
-0.044876225 -0.0022918079 -0.2592743
-0.044874527 -0.0022184048 -0.25924858
-0.044872925 -0.0021450445 -0.2592209
-0.044871304 -0.00207364 -0.25919524
-0.044869505 -0.0020001922 -0.25917152
-0.044867806 -0.0019267909 -0.2591458
-0.044865914 -0.0018533003 -0.2591241
-0.044863921 -0.0017797668 -0.25910437
-0.044861171 -0.0017039329 -0.25909859
-0.044858515 -0.00162814 -0.25909078
-0.044856057 -0.0015524346 -0.25907901
-0.044853576 -0.0014786851 -0.25906926
-0.044850726 -0.0014028065 -0.25906551
-0.04484741 -0.0013247579 -0.25906965
-0.044844463 -0.0012488347 -0.25906783
-0.044841513 -0.0011729132 -0.25906605
-0.044838764 -0.0010970775 -0.25906026
-0.044836305 -0.001021374 -0.25904849
-0.04483363 -0.00094753504 -0.25904274
-0.044830509 -0.00086957403 -0.25904292
-0.044827364 -0.0007935632 -0.25904512
-0.044824321 -0.00071759894 -0.2590453
-0.044821665 -0.00064180791 -0.25903752
-0.044818815 -0.00056592934 -0.25903374
-0.044815596 -0.00048792548 -0.25903589
-0.044812452 -0.00041191652 -0.25903809
-0.044809505 -0.00033599325 -0.2590363
-0.044806462 -0.00026002899 -0.25903651
-0.044803515 -0.00018410757 -0.25903469
-0.044800587 -0.00010623038 -0.25903088
-0.04479764 -3.0308962e-05 -0.25902909
-0.044794887 4.552491e-05 -0.25902331
-0.044792134 0.00012136064 -0.25901753
-0.044788796 0.00019745715 -0.2590237
-0.044785578 0.00027546287 -0.25902587
-0.044782728 0.00035134144 -0.25902206
-0.044779878 0.00042722002 -0.25901827
-0.044776931 0.00050314143 -0.25901648
-0.044773888 0.00057910383 -0.25901669
-0.044771038 0.00065498427 -0.25901291
-0.044767916 0.00073294528 -0.25901306
-0.044764675 0.00080899894 -0.25901726
-0.044761162 0.00088713691 -0.25902539
-0.044757921 0.00096318685 -0.2590296
-0.044754703 0.0010411944 -0.25903177
-0.044751756 0.0011171158 -0.25902995
-0.044748805 0.0011930373 -0.25902817
-0.04474549 0.0012710877 -0.25903231
-0.044741586 0.0013493951 -0.25904846
-0.044737607 0.0014297049 -0.25906456
-0.044734463 0.0015057139 -0.25906676
-0.04473142 0.0015816782 -0.25906694
-0.0447281 0.0016597286 -0.25907111
-0.04472449 0.0017379075 -0.25908124
-0.044720978 0.0018160455 -0.25908941
-0.04471774 0.0018920973 -0.25909358
-0.044714794 0.0019680168 -0.25909179
-0.044711668 0.0020459797 -0.25909194
-0.044708528 0.0021219868 -0.25909415
-0.044705208 0.0022000372 -0.25909829
-0.044701502 0.0022782609 -0.25911045
-0.044697989 0.0023563989 -0.25911862
-0.044694573 0.0024344921 -0.25912476
-0.044691235 0.0025105868 -0.25913092
-0.044687919 0.0025886353 -0.25913507
-0.044684406 0.0026667714 -0.25914323
-0.044680603 0.0027450398 -0.25915736
-0.044677187 0.002823133 -0.25916353
-0.044674139 0.0028990973 -0.25916374
-0.044670824 0.0029771477 -0.25916788
-0.044667214 0.0030553266 -0.25917801
-0.044663876 0.0031314231 -0.25918421
-0.04466046 0.0032095145 -0.25919038
-0.044657145 0.003287565 -0.25919452
-0.044654392 0.0033633988 -0.25918874
-0.044651639 0.0034392327 -0.25918293
-0.044647932 0.0035174564 -0.25919509
-0.044643853 0.003597809 -0.25921318
-0.044640243 0.0036759898 -0.25922331
-0.044637199 0.0037519522 -0.25922352
-0.044634447 0.0038277879 -0.25921774
-0.044631403 0.0039037522 -0.25921792
-0.044628084 0.0039818026 -0.25922209
-0.044624474 0.0040599816 -0.25923222
-0.044620864 0.0041381624 -0.25924239
-0.044618014 0.0042140409 -0.25923857
-0.044615261 0.0042898767 -0.25923279
-0.044612218 0.0043658428 -0.259233
-0.044608995 0.0044438485 -0.25923514
-0.044605777 0.0045218542 -0.25923732
-0.044602733 0.0045978185 -0.25923753
-0.044599786 0.0046737399 -0.25923574
-0.044596661 0.0047517046 -0.25923589
-0.04459399 0.0048255399 -0.25923014
-0.044591628 0.0049012024 -0.25921637
-0.044588678 0.0049771238 -0.25921458
-0.044585068 0.0050553046 -0.25922471
-0.044581849 0.0051333122 -0.25922686
-0.044579368 0.0052070599 -0.25921714
-0.044576909 0.0052827653 -0.25920534
-0.044573963 0.0053586885 -0.25920355
-0.046480667 -0.043254931 -0.26000807
-0.046477117 -0.043180704 -0.26002029
-0.046473857 -0.043106604 -0.26002654
-0.046471026 -0.043028772 -0.2600207
-0.046467766 -0.042954676 -0.26002693
-0.046463922 -0.042880319 -0.26004517
-0.046460368 -0.042806089 -0.26005739
-0.046457011 -0.042731952 -0.26006564
-0.046454061 -0.042656027 -0.26006386
-0.046450727 -0.042579934 -0.26007006
-0.046447564 -0.042505883 -0.26007429
-0.046444539 -0.042427961 -0.26007247
-0.046441376 -0.042353906 -0.2600767
-0.046437822 -0.042279679 -0.26008892
-0.046433978 -0.042205323 -0.26010716
-0.046430521 -0.042131137 -0.26011741
-0.04642738 -0.04205513 -0.26011962
-0.046424434 -0.041979209 -0.26011783
-0.046421386 -0.041903242 -0.26011801
-0.046417832 -0.041829016 -0.26013026
-0.046414379 -0.041754834 -0.26014048
-0.046411235 -0.041678824 -0.26014268
-0.046408094 -0.041602813 -0.26014489
-0.046404853 -0.041526765 -0.26014909
-0.046401713 -0.041450754 -0.2601513
-0.046398353 -0.041376613 -0.26015955
-0.046394706 -0.041302346 -0.26017377
-0.046391442 -0.04122825 -0.26018
-0.046388205 -0.041152194 -0.2601842
-0.046384867 -0.041076101 -0.2601904
-0.046381313 -0.041001871 -0.26020265
-0.046377879 -0.040925734 -0.26021084
-0.046375029 -0.040849857 -0.26020706
-0.046372179 -0.040773977 -0.26020324
-0.046369135 -0.040698014 -0.26020345
-0.046365991 -0.040622003 -0.26020566
-0.046362635 -0.040547863 -0.26021391
-0.046359587 -0.040471897 -0.26021409
-0.046356544 -0.04039593 -0.26021433
-0.046353012 -0.040319752 -0.26022449
-0.046349753 -0.040245652 -0.26023075
-0.046346728 -0.040167734 -0.2602289
-0.046343662 -0.040093727 -0.26023114
-0.046340518 -0.040017717 -0.26023334
-0.04633728 -0.039941665 -0.26023754
-0.046333943 -0.039865568 -0.26024374
-0.046330798 -0.039789561 -0.26024595
-0.046327636 -0.039715506 -0.26025021
-0.046324398 -0.039639458 -0.26025438
-0.046321254 -0.039563447 -0.26025659
-0.046318211 -0.039487481 -0.26025683
-0.046315573 -0.039409734 -0.26024699
-0.04631253 -0.039333768 -0.26024717
-0.046309389 -0.039257761 -0.26024938
-0.046306439 -0.03918184 -0.26024759
-0.046303004 -0.039105698 -0.26025578
-0.046299569 -0.039029561 -0.26026398
-0.046296816 -0.038953729 -0.2602582
-0.04629387 -0.038877808 -0.26025641
-0.046290729 -0.038801797 -0.26025862
-0.046287976 -0.038725965 -0.26025283
-0.046284758 -0.038647957 -0.26025498
-0.046281591 -0.038573906 -0.26025921
-0.046278547 -0.03849794 -0.26025942
-0.046275426 -0.038419977 -0.26025957
-0.046272382 -0.038344011 -0.26025978
-0.046269432 -0.038268089 -0.26025799
-0.046266098 -0.038191993 -0.26026419
-0.046262737 -0.038117852 -0.26027241
-0.046259694 -0.03804189 -0.26027262
-0.046256863 -0.037964053 -0.26026681
-0.046254013 -0.037888177 -0.260263
-0.046251066 -0.037812255 -0.26026121
-0.046248022 -0.037736289 -0.26026142
-0.046244781 -0.037660237 -0.26026562
-0.046241347 -0.0375841 -0.26027381
-0.0462384 -0.037508179 -0.26027203
-0.046235763 -0.037430435 -0.26026219
-0.046232816 -0.037354514 -0.2602604
-0.046229675 -0.037278503 -0.26026261
-0.046226531 -0.037202492 -0.26026481
-0.046223488 -0.037126526 -0.26026499
-0.046220053 -0.037050389 -0.26027322
-0.046216812 -0.036974341 -0.26027739
-0.046213865 -0.036898419 -0.2602756
-0.046210624 -0.036822364 -0.2602798
-0.046207678 -0.036746442 -0.26027802
-0.046204731 -0.036670521 -0.2602762
-0.046201393 -0.036594428 -0.26028243
-0.046198368 -0.036516506 -0.26028058
-0.046195518 -0.036440626 -0.26027679
-0.046192572 -0.036364704 -0.26027501
-0.046189234 -0.036288612 -0.26028121
-0.046185877 -0.036214471 -0.26028943
-0.046182655 -0.036136463 -0.26029158
-0.046180002 -0.036060676 -0.2602838
-0.046177268 -0.035982884 -0.26027596
-0.046174321 -0.035906963 -0.26027417
-0.04617108 -0.035830908 -0.26027837
-0.046167742 -0.035754815 -0.26028457
-0.046164699 -0.035678849 -0.26028478
-0.046161849 -0.035602972 -0.260281
-0.046158999 -0.035527095 -0.26027721
-0.046155956 -0.035451129 -0.26027739
-0.046152636 -0.035373077 -0.26028156
-0.046149474 -0.035299025 -0.26028579
-0.046146136 -0.035222929 -0.26029199
-0.046143092 -0.035146967 -0.2602922
-0.046140164 -0.035069089 -0.26028836
-0.046137314 -0.034993213 -0.26028457
-0.046134271 -0.034917243 -0.26028478
-0.04613103 -0.034841195 -0.26028898
-0.046127595 -0.034765057 -0.26029718
-0.046124551 -0.034689091 -0.26029736
-0.04612172 -0.034611255 -0.26029155
-0.046119064 -0.034535468 -0.26028377
-0.046115942 -0.034457501 -0.26028392
-0.046112683 -0.034383405 -0.26029015
-0.046109639 -0.034307439 -0.26029038
-0.046106517 -0.034229476 -0.2602905
-0.04610347 -0.034153514 -0.26029074
-0.046100818 -0.034077719 -0.26028293
-0.046097867 -0.034001797 -0.26028115
-0.046094533 -0.033925705 -0.26028734
-0.046091702 -0.033847868 -0.2602815
-0.046089146 -0.033772122 -0.26027173
-0.046086218 -0.033694245 -0.26026791
-0.046083368 -0.033618368 -0.2602641
-0.046080418 -0.033542447 -0.26026231
-0.046077374 -0.033466481 -0.26026252
-0.046074331 -0.033390515 -0.26026273
-0.046071403 -0.033312641 -0.26025888
-0.046068847 -0.033236891 -0.26024911
-0.04606621 -0.033159144 -0.26023927
-0.046063069 -0.033083137 -0.26024148
-0.046060026 -0.033007171 -0.26024169
-0.046056978 -0.032931209 -0.2602419
-0.046053935 -0.032855242 -0.2602421
-0.046050988 -0.032779321 -0.26024032
-0.046048645 -0.032701705 -0.26022449
-0.046046402 -0.032624133 -0.26020667
-0.046043456 -0.032548212 -0.26020488
-0.046040114 -0.032472115 -0.26021108
-0.046036974 -0.032396108 -0.26021326
-0.04603393 -0.032320142 -0.26021349
-0.046031196 -0.03224235 -0.26020566
-0.04602854 -0.032166559 -0.26019788
-0.046025809 -0.032088771 -0.26019004
-0.046022959 -0.032012895 -0.26018625
-0.046019819 -0.031936884 -0.26018846
-0.046016771 -0.031860918 -0.26018864
-0.046013825 -0.031784996 -0.26018685
-0.046010293 -0.031708814 -0.26019704
-0.046007149 -0.031632807 -0.26019925
-0.046004713 -0.031555146 -0.26018542
-0.046002056 -0.031479355 -0.26017764
-0.045999032 -0.031401437 -0.26017582
-0.045996085 -0.031325515 -0.26017401
-0.045993134 -0.031249594 -0.26017222
-0.045990288 -0.031173714 -0.26016843
-0.045987241 -0.031097749 -0.26016864
-0.045984607 -0.031020004 -0.26015881
-0.045982439 -0.030944429 -0.26014102
-0.045979708 -0.03086664 -0.26013321
-0.045976371 -0.030790545 -0.26013941
-0.045973111 -0.030716447 -0.26014563
-0.045969989 -0.030638484 -0.26014578
-0.045966923 -0.030564474 -0.26014805
-0.045964092 -0.03048664 -0.26014221
-0.045961242 -0.030410763 -0.26013842
-0.045958199 -0.030334797 -0.26013863
-0.045955446 -0.030258963 -0.26013285
-0.045952715 -0.030181173 -0.26012501
-0.045949258 -0.030106988 -0.26013526
-0.045945335 -0.030030634 -0.26015344
-0.045941979 -0.029956494 -0.26016167
-0.045939051 -0.029878616 -0.26015782
-0.045936398 -0.029802825 -0.26015005
-0.045933545 -0.029726947 -0.26014626
-0.045930814 -0.029649157 -0.26013842
-0.045927573 -0.029573105 -0.26014262
-0.04592412 -0.029498922 -0.26015288
-0.045920782 -0.029422827 -0.26015908
-0.045917638 -0.029346818 -0.26016125
-0.045914203 -0.029270679 -0.26016945
-0.045911063 -0.029194672 -0.26017165
-0.045907918 -0.029118663 -0.26017386
-0.045904778 -0.029042654 -0.26017606
-0.045902319 -0.028966948 -0.26016429
-0.045899294 -0.02888903 -0.26016244
-0.045895543 -0.028814716 -0.26017869
-0.04589133 -0.02873823 -0.26020283
-0.045887679 -0.028663959 -0.26021707
-0.045884244 -0.028587822 -0.26022527
-0.0458811 -0.028511815 -0.26022747
-0.04587708 -0.028435415 -0.26024765
-0.045872554 -0.028360754 -0.26027986
-0.045868315 -0.028286222 -0.26030606
-0.04586459 -0.028209955 -0.26032025
-0.04586086 -0.028133687 -0.26033443
-0.045856722 -0.028059199 -0.26035866
-0.045852486 -0.027984668 -0.26038486
-0.045848154 -0.027910093 -0.26041308
-0.04584384 -0.027833566 -0.26043925
-0.045839116 -0.027758816 -0.26047546
-0.045834493 -0.027684111 -0.26050967
-0.045829572 -0.027609278 -0.26054984
-0.04582436 -0.027534313 -0.26059604
-0.045819227 -0.027461348 -0.26064226
-0.045814309 -0.027386513 -0.26068246
-0.045809194 -0.027311593 -0.26072666
-0.045803398 -0.027236367 -0.2607848
-0.0457968 -0.027162749 -0.26086101
-0.045791082 -0.027089523 -0.26091921
-0.045784798 -0.027014082 -0.26098737
-0.045777518 -0.026940161 -0.26107755
-0.045770235 -0.02686624 -0.26116771
-0.045763541 -0.02679258 -0.26124591
-0.045577809 -0.026668798 -0.26501355
-0.045659885 -0.026540345 -0.26319617
-0.045654088 -0.02646512 -0.26325434
-0.04560947 -0.026409946 -0.26413822
-0.045604374 -0.026333071 -0.26418036
-0.04559052 -0.026260154 -0.26440844
-0.045571938 -0.026189066 -0.26473644
-0.045562297 -0.026116058 -0.2648766
-0.045555934 -0.026038621 -0.26494473
-0.045550548 -0.025961615 -0.26499283
-0.04554674 -0.025883347 -0.26500699
-0.045543443 -0.025803342 -0.26500911
-0.045540616 -0.02572551 -0.26500326
-0.045537688 -0.025647633 -0.26499942
-0.045534566 -0.025569672 -0.26499957
-0.045531053 -0.025491536 -0.26500773
-0.045527559 -0.025411444 -0.26501381
-0.045524634 -0.025333568 -0.26501
-0.045521803 -0.025255736 -0.26500416
-0.045518897 -0.025175903 -0.26499829
-0.045515873 -0.025097985 -0.26499644
-0.045512553 -0.025019934 -0.26500058
-0.045509256 -0.02493993 -0.2650027
-0.045506231 -0.02486201 -0.26500085
-0.045503303 -0.024784135 -0.26499701
-0.045500573 -0.024706345 -0.2649892
-0.045497857 -0.024626601 -0.2649793
-0.045494735 -0.024548639 -0.26497948
-0.045491811 -0.024470761 -0.26497564
-0.045488805 -0.024390887 -0.26497173
-0.045485586 -0.02431288 -0.26497391
-0.045482267 -0.024234831 -0.26497805
-0.045479048 -0.024156826 -0.2649802
-0.045475729 -0.024078775 -0.26498437
-0.045471944 -0.023998555 -0.26499647
-0.045468625 -0.023920504 -0.26500061
-0.0454657 -0.023842629 -0.26499677
-0.045462888 -0.023762841 -0.2649889
-0.045460351 -0.023685139 -0.26497707
-0.045457523 -0.023607306 -0.26497123
-0.045454402 -0.023529341 -0.26497138
-0.045451395 -0.023449467 -0.2649675
-0.045448564 -0.023371635 -0.26496166
-0.045445442 -0.023293672 -0.26496184
-0.04544244 -0.023213798 -0.26495796
-0.045439415 -0.023135878 -0.26495612
-0.045436312 -0.023055961 -0.26495421
-0.045432992 -0.022977911 -0.26495838
-0.045429774 -0.022899905 -0.26496053
-0.045426749 -0.022821985 -0.26495868
-0.045423429 -0.022743935 -0.26496285
-0.045420229 -0.022663973 -0.26496294
-0.045417011 -0.022585969 -0.26496512
-0.045413986 -0.022508048 -0.26496327
-0.045411155 -0.022430215 -0.26495743
-0.045408346 -0.022350429 -0.26494956
-0.045405418 -0.022272551 -0.26494572
-0.045401905 -0.022194415 -0.26495385
-0.045397613 -0.022115933 -0.26497799
-0.045394219 -0.022035884 -0.2649821
-0.045391973 -0.021958312 -0.26496428
-0.045389459 -0.021878654 -0.26495039
-0.045386434 -0.021800734 -0.26494855
-0.045383114 -0.021722686 -0.26495272
-0.045380089 -0.021644766 -0.26495087
-0.045377456 -0.021567021 -0.26494104
-0.045374744 -0.021487275 -0.26493117
-0.045371622 -0.021409312 -0.26493132
-0.045368694 -0.021331437 -0.26492751
-0.045365591 -0.021251518 -0.2649256
-0.045361686 -0.021173209 -0.26494175
-0.045358468 -0.021095201 -0.2649439
-0.045355931 -0.021017499 -0.2649321
-0.045353293 -0.020939752 -0.26492226
-0.045349997 -0.02085975 -0.26492435
-0.045346681 -0.0207817 -0.26492852
-0.045343265 -0.020703606 -0.26493466
-0.045340065 -0.020623645 -0.26493475
-0.045337722 -0.02054603 -0.26491892
-0.045334894 -0.020468196 -0.26491311
-0.045331672 -0.02039019 -0.26491526
-0.045328472 -0.020310229 -0.26491538
-0.045325253 -0.020232223 -0.26491752
-0.045322131 -0.02015426 -0.26491767
-0.045319028 -0.020074343 -0.26491579
-0.045315906 -0.019996379 -0.26491594
-0.045312978 -0.019918503 -0.26491213
-0.045310345 -0.019840756 -0.26490229
-0.045307416 -0.019762881 -0.26489845
-0.045303825 -0.019682746 -0.26490656
-0.045300312 -0.01960461 -0.26491469
-0.045297015 -0.019524606 -0.26491681
-0.045294087 -0.019446729 -0.26491296
-0.04529155 -0.019369027 -0.26490116
-0.04528882 -0.019291237 -0.26489332
-0.045285601 -0.019213231 -0.26489547
-0.045282401 -0.01913327 -0.26489556
-0.045279473 -0.019055394 -0.26489174
-0.045276351 -0.01897743 -0.26489189
-0.045273148 -0.01889747 -0.26489201
-0.045269929 -0.018819463 -0.26489419
-0.045266517 -0.018741371 -0.26490033
-0.045263588 -0.018663494 -0.26489648
-0.045260876 -0.01858375 -0.26488659
-0.045258045 -0.018505918 -0.26488078
-0.04525502 -0.018427998 -0.26487893
-0.045251526 -0.018347906 -0.26488501
-0.045248307 -0.0182699 -0.26488718
-0.045245185 -0.018191937 -0.26488733
-0.045242276 -0.018112106 -0.26488146
-0.045239937 -0.01803449 -0.26486564
-0.045236815 -0.017956527 -0.26486582
-0.045233104 -0.017878305 -0.26487795
-0.045230079 -0.017800385 -0.2648761
-0.045226879 -0.017720424 -0.26487619
-0.04522337 -0.017642288 -0.26488435
-0.045220558 -0.017562499 -0.26487648
-0.045217827 -0.01748471 -0.26486865
-0.045214411 -0.017406616 -0.26487482
-0.04521168 -0.017328829 -0.26486695
-0.045209143 -0.017251125 -0.26485515
-0.045205943 -0.017171163 -0.26485527
-0.045202818 -0.0170932 -0.26485541
-0.045199893 -0.017015325 -0.26485157
-0.045196984 -0.016935494 -0.2648457
-0.045193668 -0.016857445 -0.26484984
-0.045190252 -0.016779352 -0.26485598
-0.045187619 -0.016701605 -0.26484615
-0.045184612 -0.016621731 -0.26484227
-0.045181002 -0.01654355 -0.26485243
-0.045177881 -0.016465588 -0.26485258
-0.045174971 -0.016385756 -0.26484668
-0.045171849 -0.016307794 -0.26484686
-0.045168631 -0.016229788 -0.26484901
-0.045165721 -0.016149957 -0.26484314
-0.045162797 -0.01607208 -0.26483929
-0.045159772 -0.015994161 -0.26483744
-0.045156747 -0.015916241 -0.26483563
-0.045153446 -0.015836237 -0.26483771
-0.045150228 -0.015758231 -0.26483989
-0.045147106 -0.015680268 -0.26484004
-0.0451442 -0.015600437 -0.26483417
-0.045141272 -0.015522561 -0.26483032
-0.04513805 -0.015444554 -0.26483247
-0.045134753 -0.01536455 -0.26483458
-0.045131437 -0.015286501 -0.26483873
-0.045128312 -0.015208538 -0.26483887
-0.045125309 -0.015128663 -0.264835
-0.045122575 -0.015050874 -0.26482716
-0.045119651 -0.014972998 -0.26482332
-0.045116525 -0.014895035 -0.2648235
-0.045113619 -0.014815204 -0.2648176
-0.045110986 -0.014737457 -0.26480779
-0.045107864 -0.014659494 -0.26480794
-0.045104273 -0.01457936 -0.26481605
-0.04510105 -0.014501354 -0.26481819
-0.045098025 -0.014423435 -0.26481634
-0.045094632 -0.014343387 -0.26482046
-0.04509151 -0.014265424 -0.26482061
-0.045088679 -0.014187591 -0.26481479
-0.045085851 -0.014109758 -0.26480895
-0.045082845 -0.014029884 -0.26480508
-0.045080114 -0.013952094 -0.26479724
-0.045076989 -0.013874131 -0.26479739
-0.045073301 -0.013793953 -0.26480749
-0.045070276 -0.013716035 -0.26480564
-0.045067839 -0.013638374 -0.26479182
-0.045064639 -0.013558414 -0.26479194
-0.045060929 -0.01348019 -0.26480407
-0.045057729 -0.01340023 -0.26480418
-0.045054801 -0.013322353 -0.26480037
-0.045051679 -0.01324439 -0.26480052
-0.045048852 -0.013166558 -0.26479468
-0.045046218 -0.013088811 -0.26478484
-0.045043115 -0.013008893 -0.26478297
-0.045039505 -0.012930715 -0.2647931
-0.045036107 -0.012850666 -0.26479721
-0.045033377 -0.012772877 -0.26478937
-0.045030352 -0.012694957 -0.26478755
-0.045026466 -0.012614693 -0.26480162
-0.045023248 -0.012536687 -0.26480377
-0.045020536 -0.012456942 -0.2647939
-0.045017704 -0.01237911 -0.26478809
-0.045015071 -0.012301363 -0.26477826
-0.045012243 -0.012223531 -0.26477242
-0.045008358 -0.012143265 -0.26478651
-0.045004964 -0.012063218 -0.26479059
-0.04500233 -0.011985471 -0.26478079
-0.04499989 -0.011907812 -0.26476696
-0.044997156 -0.011830023 -0.26475912
-0.044994034 -0.01175206 -0.2647593
-0.04499064 -0.011672013 -0.26476339
-0.044987321 -0.011593963 -0.26476753
-0.044984296 -0.011516044 -0.26476568
-0.044981293 -0.011436169 -0.26476181
-0.044978071 -0.011358162 -0.26476398
-0.044974774 -0.011278158 -0.26476607
-0.044971749 -0.011200239 -0.26476425
-0.044968627 -0.011122276 -0.2647644
-0.044965819 -0.011042489 -0.2647565
-0.044962794 -0.010964569 -0.26475468
-0.044959202 -0.010884434 -0.26476276
-0.044955689 -0.010806298 -0.26477093
-0.044952199 -0.010726207 -0.26477703
-0.044949073 -0.010648244 -0.26477718
-0.044946536 -0.010570541 -0.26476535
-0.044943824 -0.010490797 -0.26475549
-0.044940606 -0.01041279 -0.26475763
-0.044936918 -0.010332613 -0.26476774
-0.044933502 -0.01025452 -0.26477388
-0.044930674 -0.010176687 -0.26476806
-0.044927862 -0.0100969 -0.26476017
-0.044925325 -0.010019196 -0.26474833
-0.044922397 -0.0099413199 -0.26474452
-0.044918712 -0.0098611433 -0.26475459
-0.044915296 -0.00978305 -0.26476076
-0.044912096 -0.0097030895 -0.26476085
-0.044909168 -0.0096252132 -0.26475704
-0.044906437 -0.0095474226 -0.2647492
-0.044903137 -0.0094674192 -0.26475132
-0.044899724 -0.009389326 -0.26475745
-0.044896524 -0.0093093645 -0.26475757
-0.044893987 -0.0092316624 -0.26474574
-0.044891156 -0.009153829 -0.2647399
-0.044887956 -0.0090738684 -0.26473999
-0.044885028 -0.0089959921 -0.26473618
-0.044881634 -0.008915944 -0.26474029
-0.044878315 -0.0088378945 -0.26474443
-0.044875488 -0.0087600611 -0.26473859
-0.044872578 -0.0086802309 -0.26473272
-0.044869263 -0.0086021814 -0.26473686
-0.044865768 -0.0085220905 -0.26474297
-0.044862375 -0.0084420424 -0.26474708
-0.044859447 -0.0083641671 -0.26474324
-0.044856422 -0.008286247 -0.26474142
-0.044853318 -0.0082063284 -0.26473951
-0.044850294 -0.0081284102 -0.26473767
-0.04484719 -0.0080484916 -0.26473579
-0.044844165 -0.0079705724 -0.26473397
-0.044841066 -0.0078906547 -0.26473206
-0.044838138 -0.0078127775 -0.26472822
-0.044835601 -0.0077350754 -0.26471639
-0.044832673 -0.0076571992 -0.26471257
-0.044829179 -0.0075771092 -0.26471865
-0.044825591 -0.0074969744 -0.26472676
-0.044821981 -0.0074187946 -0.26473689
-0.044818681 -0.0073387902 -0.26473901
-0.044815853 -0.0072609577 -0.26473317
-0.044812925 -0.0071830815 -0.26472935
-0.044809528 -0.0071030334 -0.26473343
-0.044806428 -0.0070231166 -0.26473156
-0.044803794 -0.0069453698 -0.26472172
-0.04480106 -0.0068675792 -0.26471388
-0.044798035 -0.006789661 -0.26471207
-0.044794448 -0.0067095254 -0.26472014
-0.044791147 -0.0066295229 -0.26472229
-0.04478832 -0.0065516885 -0.26471645
-0.044785392 -0.0064738123 -0.2647126
-0.04478256 -0.0063959798 -0.26470676
-0.044779457 -0.0063160621 -0.26470488
-0.044776335 -0.0062380992 -0.26470503
-0.044773038 -0.0061580949 -0.26470715
-0.044769742 -0.0060780905 -0.26470923
-0.044765957 -0.0059978701 -0.26472133
-0.044762559 -0.0059178229 -0.26472545
-0.044760022 -0.0058401199 -0.26471362
-0.044757389 -0.0057623731 -0.26470378
-0.04475417 -0.0056843674 -0.26470596
-0.044750772 -0.0056043193 -0.26471007
-0.044747673 -0.0055244016 -0.26470816
-0.044744745 -0.0054465262 -0.26470435
-0.04474172 -0.0053686062 -0.2647025
-0.044738617 -0.0052886885 -0.26470059
-0.044735495 -0.0052107247 -0.26470077
-0.044732198 -0.0051307213 -0.26470286
-0.044729464 -0.0050529316 -0.26469505
-0.044726461 -0.0049730567 -0.26469114
-0.044723045 -0.0048949644 -0.26469731
-0.044719748 -0.0048149601 -0.2646994
-0.04471682 -0.0047370847 -0.26469558
-0.044713814 -0.0046572089 -0.26469168
-0.044710986 -0.0045793764 -0.26468587
-0.044708252 -0.0045015868 -0.26467803
-0.044704761 -0.0044214949 -0.26468414
-0.044701464 -0.0043414924 -0.26468623
-0.044698827 -0.0042637456 -0.26467639
-0.044695999 -0.0041859113 -0.26467058
-0.044692799 -0.0041059516 -0.26467067
-0.044691119 -0.0040305946 -0.26464292
-0.044690493 -0.0039576683 -0.26459524
-0.044687957 -0.0038799644 -0.26458341
-0.044686958 -0.0038049109 -0.26454169
-0.044693317 -0.0037488323 -0.26436251
-0.044719998 -0.0037371274 -0.26379675
-0.04472848 -0.0036839582 -0.2635757
-0.044730622 -0.0036181528 -0.26347625
-0.044803251 -0.0035699308 -0.26192254
-0.044801846 -0.0034966562 -0.26189083
-0.04487012 -0.0033758152 -0.26036736
-0.044879321 -0.0033288542 -0.26013649
-0.044877332 -0.0032553207 -0.26011676
-0.044877268 -0.003184611 -0.26005912
-0.044882163 -0.0031278804 -0.25990993
-0.044883624 -0.0030617733 -0.25982445
-0.044884227 -0.0029933192 -0.2597549
-0.044885393 -0.0029270798 -0.25967538
-0.044885214 -0.0028582793 -0.25962183
-0.044884376 -0.0027872212 -0.25958017
-0.044883631 -0.0027162042 -0.25953653
-0.044882987 -0.0026452355 -0.25949091
-0.044882145 -0.0025741756 -0.25944924
-0.044881888 -0.0025033765 -0.25939563
-0.044881612 -0.0024345331 -0.25934404
-0.044880871 -0.0023635179 -0.25930041
-0.044879269 -0.0022901576 -0.25927272
-0.044877745 -0.0022187959 -0.25924504
-0.044876143 -0.0021454357 -0.25921732
-0.044874348 -0.0020719897 -0.25919363
-0.044872649 -0.0019985866 -0.25916791
-0.044870853 -0.0019251406 -0.25914422
-0.044868957 -0.00185165 -0.25912249
-0.044866964 -0.0017781164 -0.25910276
-0.044864215 -0.0017022826 -0.25909698
-0.044861559 -0.0016264897 -0.2590892
-0.0448591 -0.0015507843 -0.25907743
-0.044856619 -0.0014770348 -0.25906768
-0.044853769 -0.0014011562 -0.2590639
-0.044850551 -0.0013231505 -0.25906605
-0.044847503 -0.0012471825 -0.25906625
-0.044844557 -0.0011712611 -0.25906447
-0.044841904 -0.00109547 -0.25905669
-0.044839345 -0.0010197237 -0.25904691
-0.044836767 -0.00094592758 -0.25903916
-0.044833548 -0.00086792372 -0.25904131
-0.044830408 -0.0007919129 -0.25904351
-0.044827361 -0.00071594864 -0.25904372
-0.044824708 -0.00064015761 -0.25903594
-0.044821955 -0.00056432188 -0.25903016
-0.04481864 -0.00048627332 -0.25903431
-0.044815496 -0.00041026622 -0.25903651
-0.044812549 -0.00033434294 -0.25903472
-0.044809602 -0.00025842153 -0.25903291
-0.044806652 -0.00018250011 -0.25903112
-0.044803627 -0.00010458007 -0.2590293
-0.04480068 -2.8658658e-05 -0.25902748
-0.044797927 4.7177076e-05 -0.2590217
-0.044795178 0.00012301095 -0.25901592
-0.04479184 0.00019910745 -0.25902212
-0.044788618 0.00027711503 -0.25902426
-0.044785768 0.00035299174 -0.25902048
-0.044783019 0.00042882748 -0.2590147
-0.044779971 0.00050479174 -0.2590149
-0.044776928 0.00058075413 -0.25901508
-0.044774078 0.00065663457 -0.25901133
-0.044770956 0.00073459558 -0.25901148
-0.044767812 0.00081060641 -0.25901368
-0.044764299 0.00088874251 -0.25902182
-0.044760961 0.00096483715 -0.25902802
-0.044757839 0.0010428019 -0.2590282
-0.044754893 0.0011187233 -0.25902638
-0.044751946 0.0011946447 -0.25902459
-0.044748627 0.0012726933 -0.25902873
-0.044744626 0.0013510454 -0.25904688
-0.044740647 0.0014313553 -0.25906295
-0.044737503 0.0015073624 -0.25906515
-0.044734556 0.0015832838 -0.25906336
-0.04473114 0.0016613789 -0.25906953
-0.04472753 0.0017395578 -0.25907966
-0.044724118 0.0018176511 -0.2590858
-0.044720877 0.0018937029 -0.25909001
-0.04471793 0.0019696224 -0.25908822
-0.044714805 0.0020475872 -0.2590884
-0.044711664 0.0021235943 -0.25909057
-0.044708248 0.0022016875 -0.25909671
-0.044704542 0.0022799112 -0.25910887
-0.044701029 0.0023580492 -0.25911701
-0.044697709 0.0024360977 -0.25912118
-0.044694372 0.0025121942 -0.25912738
-0.044691056 0.0025902409 -0.25913152
-0.044687543 0.0026683789 -0.25913966
-0.044683836 0.0027466025 -0.25915179
-0.044680323 0.0028247386 -0.25915992
-0.044677276 0.0029007029 -0.25916016
-0.04467386 0.002978798 -0.2591663
-0.044670254 0.0030569769 -0.25917643
-0.044666916 0.0031330716 -0.25918263
-0.0446635 0.003211163 -0.2591888
-0.044660278 0.0032891706 -0.25919095
-0.044657432 0.0033650491 -0.25918716
-0.044654679 0.003440883 -0.25918138
-0.044650968 0.0035191067 -0.25919351
-0.044647068 0.0035974178 -0.25920963
-0.044643454 0.0036755968 -0.2592198
-0.044640236 0.0037536025 -0.25922194
-0.044637483 0.0038294364 -0.25921616
-0.044634536 0.0039053578 -0.25921437
-0.044631124 0.0039834529 -0.25922051
-0.04462751 0.0040616319 -0.25923064
-0.044624001 0.0041397698 -0.25923878
-0.04462105 0.0042156912 -0.25923699
-0.044618301 0.004291527 -0.25923121
-0.044615351 0.0043674484 -0.25922942
-0.044612132 0.004445456 -0.25923157
-0.044608813 0.0045235027 -0.25923574
-0.044605769 0.0045994688 -0.25923595
-0.044602919 0.0046753455 -0.25923216
-0.044599876 0.0047513116 -0.25923234
-0.044597123 0.0048271455 -0.25922656
-0.044594761 0.004902808 -0.25921279
-0.044591814 0.0049787294 -0.259211
-0.044588204 0.0050569102 -0.25922114
-0.044584885 0.0051349606 -0.25922531
-0.044582404 0.0052087102 -0.25921556
-0.044579946 0.0052844137 -0.25920379
-0.044576999 0.005360337 -0.259202
-0.046480883 -0.043255582 -0.26000571
-0.046477329 -0.043181352 -0.26001796
-0.046474088 -0.043105304 -0.26002216
-0.046471238 -0.04302942 -0.26001835
-0.046467979 -0.042955324 -0.26002461
-0.04646413 -0.042880971 -0.26004282
-0.046460479 -0.0428067 -0.26005706
-0.04645722 -0.042732604 -0.26006329
-0.046454176 -0.042656638 -0.2600635
-0.046450935 -0.042580582 -0.2600677
-0.046447773 -0.042506531 -0.26007196
-0.046444744 -0.042428613 -0.26007012
-0.046441581 -0.042354554 -0.26007435
-0.046438031 -0.042280331 -0.2600866
-0.04643428 -0.042206019 -0.26010281
-0.046430629 -0.042131744 -0.26011705
-0.046427488 -0.042055737 -0.26011926
-0.046424638 -0.041979857 -0.26011544
-0.046421591 -0.041903894 -0.26011568
-0.046418037 -0.041829668 -0.2601279
-0.046414584 -0.041755483 -0.26013815
-0.046411458 -0.04167752 -0.2601383
-0.046408296 -0.041603465 -0.26014256
-0.046405055 -0.041527413 -0.26014674
-0.046401914 -0.041451409 -0.26014894
-0.046398554 -0.041377265 -0.2601572
-0.046394806 -0.041302953 -0.26017341
-0.046391468 -0.041226856 -0.26017961
-0.046388403 -0.041152846 -0.26018187
-0.046385162 -0.041076794 -0.26018608
-0.046381608 -0.041002568 -0.2601983
-0.046378076 -0.040926389 -0.26020849
-0.046375323 -0.04085055 -0.26020271
-0.046372473 -0.040774673 -0.26019892
-0.046369329 -0.040698662 -0.2602011
-0.046366088 -0.040622614 -0.26020533
-0.046362732 -0.040548474 -0.26021355
-0.046359684 -0.040472507 -0.26021376
-0.046356641 -0.040396541 -0.26021397
-0.046353206 -0.040320404 -0.26022217
-0.046349943 -0.040246308 -0.2602284
-0.046346821 -0.040168341 -0.26022857
-0.046343852 -0.040094376 -0.26022881
-0.046340808 -0.040018409 -0.26022902
-0.046337567 -0.039942361 -0.26023322
-0.046334133 -0.03986622 -0.26024142
-0.046330988 -0.039790213 -0.26024359
-0.046327747 -0.039714158 -0.26024783
-0.046324585 -0.039640106 -0.26025206
-0.04632144 -0.039564095 -0.26025426
-0.046318494 -0.039488178 -0.26025248
-0.046315759 -0.03941039 -0.26024464
-0.046312716 -0.039334424 -0.26024485
-0.046309475 -0.039258372 -0.26024902
-0.046306547 -0.039180495 -0.2602452
-0.04630319 -0.039106354 -0.26025343
-0.046299752 -0.039030217 -0.26026163
-0.046296902 -0.038954336 -0.26025784
-0.046293955 -0.038878415 -0.26025605
-0.046290912 -0.038802452 -0.26025626
-0.046287984 -0.038724571 -0.26025242
-0.046284936 -0.038648609 -0.26025262
-0.046281774 -0.038574554 -0.26025689
-0.04627873 -0.038498588 -0.26025707
-0.046275605 -0.038420629 -0.26025721
-0.046272561 -0.038344663 -0.26025742
-0.046269611 -0.038268741 -0.26025563
-0.046266373 -0.038192689 -0.26025984
-0.046262916 -0.038118504 -0.26027006
-0.046259794 -0.038040541 -0.26027024
-0.046256941 -0.037964664 -0.26026645
-0.046254091 -0.037888788 -0.26026267
-0.046251241 -0.037812907 -0.26025885
-0.046248198 -0.037736941 -0.26025906
-0.046244878 -0.037658893 -0.26026323
-0.046241518 -0.037584752 -0.26027146
-0.046238571 -0.03750883 -0.26026967
-0.046235938 -0.037431084 -0.26025984
-0.046232991 -0.037355162 -0.26025805
-0.046229847 -0.037279151 -0.26026025
-0.046226703 -0.037203148 -0.26026246
-0.046223558 -0.037127137 -0.26026466
-0.046220221 -0.037051044 -0.26027083
-0.04621698 -0.036974989 -0.26027507
-0.046214033 -0.036899067 -0.26027325
-0.046210892 -0.03682306 -0.26027545
-0.046207845 -0.036747094 -0.26027566
-0.046204798 -0.036671132 -0.26027587
-0.046201561 -0.036595076 -0.26028007
-0.046198532 -0.036517158 -0.26027822
-0.046195682 -0.036441281 -0.26027444
-0.046192735 -0.03636536 -0.26027265
-0.046189398 -0.036289264 -0.26027882
-0.046186037 -0.036215127 -0.26028708
-0.046182819 -0.036137119 -0.26028925
-0.046180163 -0.036061324 -0.26028144
-0.046177432 -0.035983536 -0.26027364
-0.046174482 -0.035907615 -0.26027185
-0.046171241 -0.035831563 -0.26027602
-0.046167903 -0.035755467 -0.26028222
-0.046164762 -0.03567946 -0.26028442
-0.046162009 -0.035603624 -0.26027864
-0.046159059 -0.035527702 -0.26027685
-0.046155937 -0.035449743 -0.260277
-0.046152793 -0.035373732 -0.26027921
-0.046149533 -0.035299636 -0.26028544
-0.046146214 -0.035221584 -0.26028961
-0.04614317 -0.035145618 -0.26028979
-0.046140321 -0.035069741 -0.26028603
