# .PCD v0.7 - Point Cloud Data file format
VERSION 0.7
FIELDS x y z
SIZE 4 4 4
TYPE F F F
COUNT 1 1 1
WIDTH 1329
HEIGHT 1
VIEWPOINT 0 0 0 1 0 0 0
POINTS 1329
DATA ascii
-0.14067861 0.0079602972 -0.26877972
-0.1406754 0.008038302 -0.26878187
-0.14067237 0.008116222 -0.26878002
-0.14066915 0.0081942277 -0.2687822
-0.14066577 0.0082742767 -0.26878631
-0.14066304 0.0083520655 -0.26877847
-0.14066003 0.0084319394 -0.26877457
-0.14065681 0.008509947 -0.26877671
-0.14065379 0.008587867 -0.2687749
-0.14065079 0.00866774 -0.26877099
-0.14064766 0.0087457038 -0.26877117
-0.14064428 0.008825751 -0.26877528
-0.14064084 0.0089018894 -0.26878345
-0.14063755 0.0089818947 -0.26878557
-0.14063482 0.0090596844 -0.26877773
-0.14063163 0.0091396449 -0.26877785
-0.1406285 0.0092176087 -0.26877803
-0.14062551 0.0092974817 -0.26877412
-0.14062268 0.0093753152 -0.26876828
-0.14061967 0.0094551891 -0.26876441
-0.14061636 0.0095332386 -0.26876855
-0.14061314 0.0096112452 -0.26877069
-0.14061004 0.0096911639 -0.26876882
-0.14060721 0.0097689955 -0.26876298
-0.14060451 0.0098487409 -0.26875311
-0.14060168 0.0099265743 -0.26874727
-0.14059839 0.010006578 -0.26874939
-0.14059536 0.010084498 -0.26874754
-0.14059265 0.010164242 -0.26873767
-0.14058974 0.010244071 -0.26873177
-0.14058621 0.010320255 -0.26874197
-0.14058262 0.010400389 -0.26875007
-0.1405797 0.010478265 -0.26874623
-0.14057678 0.010556142 -0.26874241
-0.14057338 0.01063619 -0.2687465
-0.14057046 0.010714066 -0.26874268
-0.14056756 0.010793897 -0.26873678
-0.14056444 0.010871859 -0.26873696
-0.14056093 0.010949996 -0.26874509
-0.14055809 0.01102783 -0.26873925
-0.14055559 0.011107487 -0.2687254
-0.14055268 0.011187319 -0.26871949
-0.14054906 0.011265498 -0.26872966
-0.14054595 0.011343461 -0.26872981
-0.14054334 0.011423162 -0.26871794
-0.14054032 0.011501082 -0.2687161
-0.1405369 0.011579175 -0.26872224
-0.14053358 0.011657224 -0.26872641
-0.14053038 0.011735231 -0.26872855
-0.14052756 0.011815018 -0.26872069
-0.14052473 0.011892851 -0.26871485
-0.14052124 0.011972942 -0.26872092
-0.14051794 0.012050993 -0.2687251
-0.14051521 0.012128782 -0.26871723
-0.14051239 0.01220857 -0.26870936
-0.14050956 0.012286402 -0.26870352
-0.14050665 0.012366232 -0.26869765
-0.14050345 0.012444239 -0.26869982
-0.14050032 0.012522203 -0.26869997
-0.14049713 0.012602163 -0.26870006
-0.140494 0.012680126 -0.26870024
-0.14049098 0.012758046 -0.26869839
-0.14048807 0.012837877 -0.26869252
-0.14048515 0.012915753 -0.26868868
-0.14048216 0.012995628 -0.2686848
-0.14047913 0.013073548 -0.26868296
-0.14047591 0.013151553 -0.2686851
-0.1404728 0.013229517 -0.26868525
-0.14046989 0.013309347 -0.26867938
-0.14046715 0.013387138 -0.26867154
-0.14046395 0.013465144 -0.26867372
-0.14046055 0.013545191 -0.2686778
-0.14045772 0.013623024 -0.26867199
-0.14045469 0.013700943 -0.26867014
-0.1404516 0.013780862 -0.26866823
-0.14044887 0.013858652 -0.26866043
-0.14044596 0.013938483 -0.26865453
-0.14044294 0.014016403 -0.26865268
-0.14043972 0.014094409 -0.26865485
-0.14043643 0.014174413 -0.26865697
-0.14043361 0.014252246 -0.26865113
-0.14043078 0.01433008 -0.26864529
-0.14042765 0.014408042 -0.26864544
-0.14042446 0.014488003 -0.26864555
-0.14042133 0.014565966 -0.2686457
-0.14041832 0.014643885 -0.26864386
-0.14041522 0.014723804 -0.26864198
-0.14041209 0.014801767 -0.26864216
-0.14040937 0.014879556 -0.26863432
-0.14040646 0.014959387 -0.26862842
-0.14040354 0.015037263 -0.2686246
-0.14040032 0.01511527 -0.26862675
-0.140397 0.015193319 -0.26863089
-0.14039388 0.015271283 -0.26863107
-0.14039049 0.015351331 -0.26863515
-0.14038756 0.015429207 -0.26863134
-0.14038496 0.015508908 -0.26861945
-0.14038223 0.015586697 -0.26861161
-0.14037929 0.015664574 -0.2686078
-0.14037611 0.015744533 -0.26860788
-0.14037277 0.01582063 -0.26861408
-0.14036956 0.01590059 -0.2686142
-0.14036664 0.015978467 -0.26861036
-0.14036353 0.01605643 -0.26861051
-0.14036062 0.016136261 -0.26860464
-0.1403579 0.01621405 -0.2685968
-0.14035508 0.016293839 -0.26858893
-0.14035235 0.016371628 -0.26858109
-0.14034894 0.01644972 -0.26858723
-0.14034572 0.016527727 -0.26858941
-0.14034292 0.016607516 -0.26858151
-0.1403397 0.016685521 -0.26858366
-0.14033648 0.016763527 -0.26858583
-0.14033356 0.016841404 -0.26858199
-0.14033066 0.016921235 -0.26857612
-0.14032763 0.016999155 -0.26857427
-0.14032443 0.017079115 -0.26857439
-0.14032121 0.017157122 -0.26857653
-0.1403181 0.017235085 -0.26857668
-0.14031526 0.017312918 -0.26857084
-0.14031254 0.017390708 -0.26856303
-0.14030933 0.017470669 -0.26856315
-0.14030592 0.017548762 -0.26856929
-0.14030311 0.017626595 -0.26856345
-0.14030059 0.017706253 -0.26854956
-0.14029737 0.017784258 -0.26855174
-0.14029396 0.017862352 -0.26855788
-0.14029104 0.017940229 -0.26855403
-0.1402885 0.018017931 -0.26854223
-0.14028549 0.018097805 -0.26853833
-0.14028247 0.018175725 -0.26853651
-0.14027984 0.018253472 -0.26852667
-0.14027664 0.018333431 -0.26852679
-0.14027341 0.018409483 -0.26853096
-0.1402702 0.018489445 -0.26853108
-0.14026737 0.018567279 -0.26852524
-0.14026457 0.018647065 -0.26851737
-0.14026155 0.018724985 -0.26851553
-0.14025813 0.018803079 -0.26852167
-0.14025521 0.018880956 -0.26851785
-0.14025249 0.018958744 -0.26851001
-0.14024967 0.019038532 -0.26850212
-0.14024675 0.019116409 -0.2684983
-0.14024344 0.019194458 -0.26850244
-0.14024022 0.019272465 -0.26850462
-0.140237 0.019350471 -0.26850677
-0.1402339 0.01943039 -0.26850486
-0.14023098 0.019508265 -0.26850104
-0.14022805 0.019586142 -0.2684972
-0.14022475 0.019666146 -0.26849931
-0.14022134 0.019744238 -0.26850545
-0.14021862 0.019822028 -0.26849762
-0.14021617 0.019899689 -0.26848382
-0.14021316 0.019977607 -0.26848197
-0.14020966 0.020057699 -0.26848805
-0.14020655 0.020135662 -0.26848823
-0.14020343 0.020213624 -0.26848838
-0.1402003 0.020291587 -0.26848853
-0.14019719 0.020369552 -0.26848868
-0.14019418 0.020449426 -0.2684848
-0.14019145 0.020527214 -0.26847696
-0.14018865 0.020607002 -0.2684691
-0.14018543 0.02068501 -0.26847124
-0.14018202 0.020763103 -0.26847738
-0.14017919 0.020840935 -0.26847157
-0.14017676 0.020918595 -0.26845774
-0.14017366 0.020998511 -0.26845586
-0.14017053 0.021076474 -0.26845601
-0.14016761 0.021154352 -0.26845217
-0.14016478 0.021232184 -0.26844633
-0.14016166 0.021310147 -0.26844651
-0.14015837 0.021390151 -0.26844859
-0.14015554 0.021467986 -0.26844278
-0.14015271 0.021545818 -0.26843694
-0.14014988 0.021623651 -0.2684311
-0.14014676 0.021701613 -0.26843125
-0.14014317 0.021781748 -0.26843935
-0.14014006 0.021859711 -0.2684395
-0.14013742 0.021937458 -0.26842967
-0.14013469 0.022015247 -0.26842186
-0.14013167 0.022093168 -0.26842001
-0.14012867 0.022173041 -0.26841611
-0.14012554 0.022251004 -0.26841629
-0.14012223 0.022329055 -0.26842043
-0.14011933 0.022408884 -0.26841456
-0.14011641 0.022486761 -0.26841071
-0.14011309 0.022564812 -0.26841486
-0.14010997 0.022642775 -0.26841503
-0.14010714 0.022720607 -0.26840919
-0.14010395 0.022800568 -0.26840931
-0.14010102 0.022878444 -0.26840547
-0.1400982 0.022956278 -0.26839963
-0.14009507 0.023034241 -0.26839978
-0.14009196 0.023112204 -0.26839995
-0.14008866 0.023192208 -0.26840204
-0.14008534 0.023270257 -0.26840621
-0.14008223 0.023348222 -0.26840636
-0.1400791 0.023426184 -0.26840651
-0.14007568 0.023504278 -0.26841265
-0.14007269 0.023584152 -0.26840878
-0.14007044 0.023661723 -0.26839095
-0.14006801 0.023739383 -0.26837713
-0.14006469 0.023817433 -0.2683813
-0.14006148 0.023895439 -0.26838344
-0.14005809 0.023975488 -0.26838756
-0.14005476 0.024053536 -0.2683917
-0.14005145 0.024131587 -0.26839584
-0.14004825 0.024211548 -0.26839596
-0.14004582 0.024289208 -0.26838213
-0.14004329 0.02436691 -0.2683703
-0.14004035 0.024444787 -0.26836646
-0.14003725 0.024524704 -0.26836458
-0.14003444 0.024602538 -0.26835874
-0.14003131 0.024680501 -0.26835892
-0.1400277 0.024758682 -0.26836905
-0.14002478 0.024836557 -0.2683652
-0.14002217 0.024916258 -0.26835334
-0.14001973 0.024993917 -0.26833951
-0.14001662 0.02507188 -0.26833969
-0.1400134 0.025149886 -0.26834184
-0.14001048 0.025227763 -0.26833799
-0.14000757 0.025307594 -0.26833212
-0.14000474 0.025385426 -0.26832628
-0.14000171 0.025463346 -0.26832443
-0.1399985 0.025541352 -0.26832658
-0.13999519 0.025619403 -0.26833075
-0.13999218 0.025699276 -0.26832688
-0.13998935 0.025777109 -0.26832104
-0.13998662 0.0258549 -0.2683132
-0.13998389 0.025932688 -0.26830536
-0.13998097 0.026010565 -0.26830152
-0.13997796 0.026090439 -0.26829764
-0.13997485 0.026168402 -0.26829779
-0.13997163 0.02624641 -0.26829994
-0.13996851 0.026324373 -0.26830012
-0.13996512 0.02640442 -0.26830423
-0.139962 0.026482383 -0.26830435
-0.13995907 0.026560258 -0.26830053
-0.13995595 0.026638221 -0.26830068
-0.13995275 0.026718184 -0.2683008
-0.13994983 0.02679606 -0.26829696
-0.139947 0.026873892 -0.26829112
-0.13994417 0.026951727 -0.2682853
-0.13994105 0.027029689 -0.26828545
-0.13993746 0.027109824 -0.26829356
-0.13993415 0.027187873 -0.2682977
-0.13993162 0.027265575 -0.26828587
-0.13992898 0.027343322 -0.26827604
-0.13992587 0.027421284 -0.26827621
-0.13992286 0.027501158 -0.26827234
-0.13992013 0.02757895 -0.26826447
-0.13991691 0.027656956 -0.26826665
-0.13991372 0.027736917 -0.26826677
-0.13991079 0.027814792 -0.26826292
-0.13990767 0.027892757 -0.26826307
-0.13990484 0.02797059 -0.26825726
-0.13990194 0.028050419 -0.26825136
-0.13989928 0.02812621 -0.26824358
-0.13989618 0.028206129 -0.2682417
-0.13989316 0.028284049 -0.26823986
-0.13989015 0.028361969 -0.26823801
-0.13988705 0.028441887 -0.26823613
-0.13988478 0.028517503 -0.26822034
-0.13988253 0.028595077 -0.26820254
-0.13987993 0.028674778 -0.26819065
-0.13987671 0.028752785 -0.26819283
-0.1398734 0.028830834 -0.26819694
-0.13987027 0.028908797 -0.26819712
-0.13986725 0.028986717 -0.26819527
-0.13986444 0.029066503 -0.2681874
-0.13986161 0.029144337 -0.26818156
-0.13985831 0.029222388 -0.26818573
-0.13985509 0.029300394 -0.26818788
-0.1398516 0.029380485 -0.26819396
-0.13984799 0.029458664 -0.26820412
-0.1398446 0.029538712 -0.26820821
-0.13984187 0.029616501 -0.2682004
-0.13983914 0.029694291 -0.26819256
-0.13983592 0.029772297 -0.26819471
-0.13983272 0.02985226 -0.26819482
-0.1398298 0.029930135 -0.26819098
-0.13982688 0.030008011 -0.26818717
-0.13982394 0.030085888 -0.26818329
-0.13982065 0.030165892 -0.26818541
-0.13981773 0.030243769 -0.26818156
-0.139815 0.030321557 -0.26817375
-0.13981198 0.030399477 -0.26817191
-0.13980877 0.030479439 -0.26817203
-0.13980575 0.030557359 -0.26817018
-0.13980302 0.030635148 -0.26816234
-0.1398 0.030713066 -0.26816052
-0.1397967 0.030793073 -0.26816261
-0.13979378 0.030870948 -0.26815876
-0.13979056 0.030948956 -0.26816094
-0.13978784 0.031026743 -0.2681531
-0.1397853 0.031104447 -0.26814127
-0.1397824 0.031184278 -0.2681354
-0.13977948 0.031262152 -0.26813155
-0.13977607 0.031340249 -0.26813769
-0.13977247 0.03142038 -0.2681458
-0.13976926 0.031498387 -0.26814795
-0.13976586 0.031578436 -0.26815206
-0.13976264 0.031656444 -0.2681542
-0.13975972 0.031734318 -0.26815039
-0.13975728 0.031811979 -0.26813656
-0.13975474 0.031889681 -0.26812473
-0.13975152 0.031967688 -0.2681269
-0.13974795 0.032047823 -0.26813498
-0.13974454 0.032125916 -0.26814112
-0.13974094 0.032206051 -0.26814923
-0.13973762 0.0322841 -0.26815337
-0.13973482 0.032363888 -0.2681455
-0.13973218 0.032441635 -0.26813567
-0.13972917 0.032519553 -0.26813382
-0.13972653 0.0325973 -0.26812398
-0.13972409 0.032674961 -0.26811019
-0.13972117 0.032752834 -0.26810634
-0.13971815 0.032830756 -0.26810449
-0.13971512 0.032908674 -0.26810265
-0.13971163 0.032988764 -0.26810876
-0.13970825 0.033068813 -0.26811287
-0.1397057 0.033146515 -0.26810104
-0.13970336 0.033224132 -0.26808524
-0.13970044 0.033302009 -0.2680814
-0.13969703 0.033380102 -0.26808754
-0.13969344 0.033460237 -0.26809564
-0.13969082 0.033537984 -0.26808581
-0.13968867 0.033615515 -0.26806599
-0.13968575 0.033693388 -0.26806214
-0.1396832 0.03377109 -0.26805031
-0.13968067 0.033848792 -0.26803851
-0.13967794 0.033926584 -0.26803067
-0.13967472 0.034004591 -0.26803282
-0.13967134 0.034084637 -0.26803693
-0.13966784 0.03416473 -0.26804304
-0.13966472 0.034242693 -0.26804319
-0.13966133 0.034322739 -0.2680473
-0.13965783 0.034400877 -0.26805544
-0.13965461 0.034478884 -0.26805758
-0.13965179 0.034558669 -0.26804972
-0.13964917 0.034636416 -0.26803988
-0.13964614 0.034714337 -0.26803803
-0.13964292 0.034792341 -0.26804021
-0.13963944 0.034872435 -0.26804629
-0.13963622 0.034950443 -0.26804847
-0.13963293 0.035030447 -0.26805055
-0.1396299 0.035108365 -0.2680487
-0.13962737 0.035186067 -0.2680369
-0.13962512 0.035263643 -0.26801908
-0.13962249 0.035341386 -0.26800925
-0.13961861 0.035421651 -0.26802334
-0.13961454 0.035502002 -0.26804143
-0.13961142 0.035579965 -0.26804158
-0.13960868 0.035657756 -0.26803374
-0.13960586 0.035735589 -0.26802793
-0.13960277 0.035815507 -0.26802602
-0.13959993 0.035893336 -0.26802021
-0.13959691 0.035971258 -0.26801836
-0.13959362 0.036051262 -0.26802045
-0.13959029 0.036129311 -0.26802462
-0.1395871 0.03620927 -0.26802471
-0.13958418 0.036287151 -0.26802087
-0.13958155 0.036364898 -0.26801106
-0.13957882 0.036442686 -0.26800323
-0.13957562 0.036522646 -0.26800334
-0.13957164 0.036602955 -0.26801944
-0.13956727 0.036683436 -0.26804349
-0.13956244 0.036766089 -0.26807553
-0.13955665 0.03685113 -0.26812547
-0.1395499 0.036938559 -0.26819333
-0.13954324 0.037023991 -0.26826125
-0.14106728 -0.0019041598 -0.26891488
-0.14106409 -0.0018241964 -0.268915
-0.14106087 -0.0017461907 -0.26891714
-0.14105746 -0.0016680975 -0.26892328
-0.14105414 -0.0015900489 -0.26892745
-0.14105104 -0.0015101302 -0.26892555
-0.14104833 -0.0014303867 -0.26891565
-0.14104533 -0.0013505109 -0.26891178
-0.14104252 -0.0012707245 -0.26890391
-0.14104012 -0.0011891555 -0.268886
-0.14103721 -0.0011093244 -0.26888013
-0.1410339 -0.001031274 -0.26888427
-0.14103058 -0.00095322356 -0.26888841
-0.14102757 -0.00087530725 -0.26888657
-0.14102466 -0.00079547614 -0.2688807
-0.14102185 -0.00071568787 -0.26887283
-0.14101875 -0.00063576922 -0.26887095
-0.14101514 -0.00055759028 -0.26888108
-0.1410118 -0.00048149377 -0.26888728
-0.1410086 -0.00040153414 -0.26888737
-0.14100569 -0.00032170303 -0.2688815
-0.14100251 -0.00024174154 -0.26888162
-0.14099906 -0.00016560219 -0.26888981
-0.14099556 -8.7466091e-05 -0.26889795
-0.14099297 -5.8114529e-06 -0.26888403
-0.14099064 7.3758885e-05 -0.26886618
-0.14098765 0.0001536347 -0.26886228
-0.14098382 0.00022994727 -0.26887846
-0.1409806 0.00030795299 -0.26888061
-0.14097831 0.00038947538 -0.2688607
-0.14097521 0.00046939403 -0.26885882
-0.14097159 0.00054757483 -0.26886895
-0.14096837 0.00062558241 -0.26887113
-0.14096546 0.00070541166 -0.26886523
-0.14096266 0.00078519806 -0.26885736
-0.14095955 0.0008631628 -0.26885751
-0.14095624 0.00094316714 -0.26885962
-0.14095293 0.0010212157 -0.26886377
-0.14094961 0.0010992661 -0.26886791
-0.1409467 0.0011790972 -0.26886204
-0.1409439 0.0012588855 -0.26885417
-0.14094058 0.001336934 -0.26885831
-0.14093716 0.0014150292 -0.26886445
-0.14093426 0.0014948584 -0.26885858
-0.14093135 0.0015746895 -0.26885271
-0.14092734 0.0016510896 -0.26887289
-0.14092362 0.0017273575 -0.26888707
-0.14092112 0.0018089693 -0.26887113
-0.1409182 0.0018868465 -0.26886731
-0.14091478 0.0019649398 -0.26887345
-0.14091158 0.0020448994 -0.26887357
-0.14090906 0.0021245573 -0.26885968
-0.14090626 0.0022043437 -0.26885182
-0.14090304 0.0022823513 -0.26885396
-0.14089984 0.0023623109 -0.26885408
-0.14089683 0.0024402309 -0.26885223
-0.14089371 0.0025201496 -0.26885036
-0.1408903 0.0025982428 -0.26885653
-0.14088668 0.0026744679 -0.26886868
-0.14088339 0.0027544722 -0.2688708
-0.14088045 0.0028323494 -0.26886696
-0.14087716 0.0029123519 -0.26886907
-0.14087375 0.002990447 -0.26887521
-0.14087082 0.0030683223 -0.2688714
-0.14086793 0.0031501073 -0.26886344
-0.1408651 0.0032279398 -0.26885763
-0.14086242 0.0033096392 -0.26884571
-0.14085929 0.0033876039 -0.26884586
-0.14085628 0.0034655239 -0.26884401
-0.14085339 0.0035473071 -0.26883608
-0.14085017 0.0036253128 -0.26883823
-0.14084676 0.0037034061 -0.2688444
-0.14084394 0.0037831962 -0.26883653
-0.14084102 0.0038610715 -0.26883268
-0.14083742 0.0039392523 -0.26884282
-0.14083342 0.0040176027 -0.26886094
-0.1408302 0.0040956102 -0.26886311
-0.14082749 0.0041753538 -0.26885325
-0.14082487 0.0042550564 -0.26884136
-0.14082196 0.0043348856 -0.26883548
-0.14081895 0.0044128038 -0.26883364
-0.14081594 0.0044926796 -0.26882976
-0.14081314 0.0045724679 -0.2688219
-0.14081001 0.0046504308 -0.26882204
-0.14080662 0.0047304779 -0.26882613
-0.14080338 0.0048065316 -0.26883036
-0.14079998 0.0048865769 -0.26883444
-0.14079687 0.0049645398 -0.26883459
-0.14079407 0.0050443299 -0.26882672
-0.14079106 0.005124202 -0.26882285
-0.14078772 0.0052002985 -0.26882905
-0.14078443 0.0052803028 -0.26883113
-0.1407814 0.005358221 -0.26882929
-0.14077841 0.0054380968 -0.26882541
-0.1407755 0.0055179279 -0.26881951
-0.14077248 0.005595848 -0.26881769
-0.14076938 0.0056757648 -0.26881582
-0.14076596 0.0057538562 -0.26882195
-0.14076255 0.0058319494 -0.26882809
-0.14075953 0.0059098694 -0.26882625
-0.14075652 0.0059897453 -0.26882237
-0.14075349 0.0060676653 -0.26882052
-0.1407505 0.0061475392 -0.26881665
-0.14074767 0.0062253717 -0.26881081
-0.14074437 0.0063053761 -0.26881292
-0.14074115 0.0063833827 -0.2688151
-0.14073834 0.0064631691 -0.2688072
-0.14073543 0.0065430012 -0.26880133
-0.14073212 0.0066210516 -0.26880547
-0.1407288 0.0066990992 -0.26880962
-0.14072569 0.006777063 -0.2688098
-0.14072259 0.0068569817 -0.26880789
-0.14071946 0.0069349445 -0.26880807
-0.14071636 0.0070148613 -0.26880616
-0.14071336 0.0070947353 -0.26880229
-0.14071034 0.0071726553 -0.26880044
-0.14070712 0.007250662 -0.26880258
-0.14070402 0.0073305788 -0.26880071
-0.14070129 0.0074083684 -0.26879287
-0.14069828 0.0074882442 -0.26878899
-0.14069498 0.0075662937 -0.26879314
-0.14069167 0.007646298 -0.26879525
-0.14068826 0.0077243913 -0.26880139
-0.14068514 0.0078023523 -0.26880157
-0.14068243 0.0078820977 -0.26879168
-0.1406796 0.0079599312 -0.26878583
-0.1406765 0.0080398479 -0.26878396
-0.14067358 0.0081177242 -0.26878011
-0.14067025 0.0081957737 -0.26878428
-0.14066687 0.0082758227 -0.26878837
-0.14066404 0.0083536552 -0.26878256
-0.14066103 0.0084335292 -0.26877865
-0.14065781 0.0085115358 -0.26878083
-0.1406547 0.0085894996 -0.26878098
-0.14065149 0.0086694602 -0.26878107
-0.14064857 0.0087473365 -0.26877725
-0.14064535 0.0088253431 -0.2687794
-0.14064205 0.0089033926 -0.26878354
-0.14063884 0.0089833532 -0.26878366
-0.14063601 0.0090611866 -0.26877782
-0.14063281 0.0091411471 -0.26877794
-0.1406296 0.0092191538 -0.26878008
-0.14062658 0.0092970738 -0.26877826
-0.14062367 0.009376904 -0.26877236
-0.14062054 0.0094548669 -0.26877254
-0.14061733 0.0095328745 -0.26877469
-0.14061403 0.0096128779 -0.26877677
-0.14061101 0.0096907979 -0.26877493
-0.1406083 0.0097705415 -0.26876506
-0.14060549 0.0098503288 -0.26875719
-0.14060266 0.0099281631 -0.26875135
-0.14059925 0.010006255 -0.26875752
-0.14059615 0.010086173 -0.26875561
-0.14059363 0.01016583 -0.26874173
-0.1405908 0.010243664 -0.26873592
-0.1405873 0.0103218 -0.26874405
-0.14058381 0.010401891 -0.26875016
-0.14058088 0.010479768 -0.26874632
-0.14057805 0.010557599 -0.26874048
-0.14057466 0.010637647 -0.26874459
-0.14057145 0.010715654 -0.26874673
-0.14056854 0.010795485 -0.26874086
-0.14056551 0.010873404 -0.26873904
-0.1405621 0.010951499 -0.26874518
-0.14055918 0.011029374 -0.26874134
-0.14055656 0.011109075 -0.26872945
-0.14055356 0.011188949 -0.26872557
-0.14055012 0.011265088 -0.26873377
-0.1405469 0.011343095 -0.26873595
-0.14054419 0.011422838 -0.26872605
-0.14054108 0.011500801 -0.2687262
-0.14053768 0.01158085 -0.26873031
-0.14053465 0.011658769 -0.26872846
-0.14053135 0.011736818 -0.26873261
-0.14052844 0.01181665 -0.26872674
-0.14052561 0.011894483 -0.2687209
-0.1405223 0.011972533 -0.26872507
-0.14051917 0.012050495 -0.26872522
-0.14051646 0.01213024 -0.26871532
-0.14051366 0.012210026 -0.26870745
-0.14051053 0.01228799 -0.26870763
-0.14050741 0.012365954 -0.26870778
-0.14050432 0.012445871 -0.2687059
-0.14050139 0.012523747 -0.26870206
-0.14049837 0.012601667 -0.26870021
-0.14049508 0.01268167 -0.26870233
-0.14049195 0.012759634 -0.26870248
-0.14048912 0.012837468 -0.26869664
-0.14048621 0.012917297 -0.26869076
-0.14048329 0.012995174 -0.26868692
-0.14048019 0.013075092 -0.26868504
-0.14047697 0.013153098 -0.26868719
-0.14047386 0.013231061 -0.26868734
-0.14047103 0.013308894 -0.26868153
-0.14046812 0.013388725 -0.26867563
-0.1404649 0.013466731 -0.26867777
-0.14046161 0.013546735 -0.26867989
-0.14045867 0.013624612 -0.26867604
-0.14045575 0.013702488 -0.26867223
-0.14045265 0.013782406 -0.26867032
-0.14044982 0.013860239 -0.26866448
-0.14044683 0.013940113 -0.2686606
-0.14044389 0.01401799 -0.26865676
-0.14044087 0.014095909 -0.26865494
-0.14043765 0.014173915 -0.26865709
-0.14043465 0.01425379 -0.26865321
-0.14043173 0.014331667 -0.26864937
-0.1404288 0.014409542 -0.26864552
-0.14042558 0.014487548 -0.26864767
-0.14042228 0.014567554 -0.26864979
-0.14041936 0.014645428 -0.26864594
-0.14041623 0.014723392 -0.26864612
-0.14041305 0.014803354 -0.26864624
-0.14041021 0.014881186 -0.2686404
-0.14040738 0.014959019 -0.26863456
-0.14040439 0.015038894 -0.26863068
-0.14040126 0.015116856 -0.26863083
-0.14039795 0.015194906 -0.26863497
-0.14039473 0.015272913 -0.26863712
-0.14039144 0.015352918 -0.26863924
-0.14038861 0.01543075 -0.2686334
-0.14038597 0.015508495 -0.26862359
-0.14038306 0.015588328 -0.26861769
-0.14038034 0.015666116 -0.26860988
-0.14037721 0.015744079 -0.26861
-0.14037371 0.015822217 -0.26861817
-0.1403705 0.015902176 -0.26861829
-0.14036767 0.015980009 -0.26861244
-0.14036466 0.016057931 -0.2686106
-0.14036165 0.016137805 -0.26860672
-0.14035882 0.016215637 -0.26860088
-0.14035621 0.016295338 -0.26858902
-0.14035349 0.016373128 -0.26858118
-0.14035007 0.016451221 -0.26858732
-0.14034705 0.016529139 -0.2685855
-0.14034414 0.016608972 -0.2685796
-0.14034073 0.016687065 -0.26858574
-0.14033741 0.016765114 -0.26858991
-0.14033458 0.016842946 -0.26858407
-0.14033167 0.016922778 -0.26857817
-0.14032866 0.017000698 -0.26857635
-0.14032544 0.017078703 -0.2685785
-0.14032212 0.017156754 -0.26858264
-0.140319 0.017234717 -0.26858282
-0.1403161 0.017314548 -0.26857692
-0.14031336 0.017392337 -0.26856911
-0.14031026 0.017472256 -0.2685672
-0.14030695 0.017550305 -0.26857138
-0.14030412 0.017628137 -0.26856554
-0.14030167 0.017705796 -0.26855171
-0.14029837 0.017783847 -0.26855585
-0.14029478 0.017863981 -0.26856396
-0.14029194 0.017941814 -0.26855811
-0.14028941 0.018019516 -0.26854628
-0.14028622 0.018099478 -0.2685464
-0.1402832 0.018177398 -0.26854455
-0.14028046 0.018255187 -0.26853675
-0.14027764 0.01833302 -0.26853091
-0.14027432 0.01841107 -0.26853505
-0.14027102 0.018491074 -0.26853716
-0.14026819 0.018568907 -0.26853132
-0.14026539 0.018648695 -0.26852345
-0.14026226 0.018726658 -0.2685236
-0.14025895 0.018804707 -0.26852775
-0.14025603 0.018882584 -0.26852393
-0.14025329 0.018960373 -0.26851609
-0.14025049 0.01904016 -0.2685082
-0.14024766 0.019117994 -0.26850238
-0.14024444 0.019196 -0.26850453
-0.14024122 0.019274006 -0.26850668
-0.140238 0.019352013 -0.26850885
-0.1402349 0.01943193 -0.26850694
-0.14023198 0.019509807 -0.26850313
-0.14022905 0.019587683 -0.26849928
-0.14022575 0.019667687 -0.26850137
-0.14022253 0.019745693 -0.26850355
-0.14021961 0.01982357 -0.2684997
-0.14021698 0.019901317 -0.26848987
-0.14021406 0.019979192 -0.26848602
-0.14021066 0.020059241 -0.26849014
-0.14020754 0.020137204 -0.26849028
-0.14020441 0.020215167 -0.26849043
-0.1402012 0.020293172 -0.26849261
-0.14019808 0.020371135 -0.26849276
-0.14019507 0.020451009 -0.26848888
-0.14019234 0.020528799 -0.26848105
-0.14018981 0.020606503 -0.26846921
-0.14018641 0.02068655 -0.26847333
-0.14018288 0.020762732 -0.26848352
-0.14018008 0.020842519 -0.26847565
-0.14017764 0.02092018 -0.26846182
-0.14017464 0.021000054 -0.26845795
-0.14017142 0.021078059 -0.26846009
-0.1401685 0.021155937 -0.26845625
-0.14016567 0.021233769 -0.26845041
-0.14016265 0.021311689 -0.26844859
-0.14015944 0.021391649 -0.26844868
-0.14015652 0.021469526 -0.26844484
-0.1401536 0.021547403 -0.26844102
-0.14015077 0.021625236 -0.26843518
-0.14014775 0.021703156 -0.26843333
-0.14014415 0.021783289 -0.26844144
-0.14014074 0.021861382 -0.26844758
-0.1401381 0.021939129 -0.26843774
-0.14013548 0.022016875 -0.26842794
-0.14013255 0.022094751 -0.26842409
-0.14012964 0.022174582 -0.26841819
-0.14012663 0.022252502 -0.26841635
-0.14012331 0.022330552 -0.26842052
-0.1401204 0.022410382 -0.26841465
-0.14011738 0.022488302 -0.2684128
-0.14011396 0.022566395 -0.26841894
-0.14011104 0.022644272 -0.26841509
-0.14010821 0.022722105 -0.26840925
-0.14010501 0.022802066 -0.26840937
-0.14010189 0.022880029 -0.26840955
-0.14009906 0.022957861 -0.26840371
-0.14009604 0.023035781 -0.26840186
-0.14009292 0.023113744 -0.26840204
-0.14008963 0.023193749 -0.26840413
-0.14008631 0.023271799 -0.2684083
-0.14008309 0.023349805 -0.26841044
-0.14007998 0.023427768 -0.26841059
-0.14007656 0.023505861 -0.26841673
-0.14007346 0.023585778 -0.26841486
-0.14007141 0.023663264 -0.26839304
-0.14006898 0.023740923 -0.26837921
-0.14006566 0.023818973 -0.26838338
-0.14006235 0.023897024 -0.26838753
-0.14005904 0.023977028 -0.26838961
-0.14005563 0.024055121 -0.26839578
-0.14005224 0.024135169 -0.26839989
-0.14004931 0.024213046 -0.26839605
-0.14004697 0.02429066 -0.26838022
-0.14004424 0.02436845 -0.26837239
-0.14004113 0.024446413 -0.26837254
-0.14003812 0.024526287 -0.26836866
-0.14003529 0.024604121 -0.26836282
-0.14003217 0.024682084 -0.268363
-0.14002876 0.024760177 -0.26836914
-0.14002593 0.02483801 -0.2683633
-0.14002322 0.024917753 -0.26835343
-0.14002068 0.024995457 -0.2683416
-0.14001736 0.025073506 -0.26834574
-0.14001416 0.025151514 -0.26834792
-0.14001133 0.025229346 -0.26834208
-0.14000842 0.025309177 -0.26833618
-0.14000559 0.02538701 -0.26833037
-0.14000247 0.025464972 -0.26833051
-0.13999934 0.025542935 -0.26833066
-0.13999623 0.025620898 -0.26833081
-0.13999303 0.02570086 -0.26833093
-0.1399903 0.025778649 -0.26832312
-0.13998757 0.025856439 -0.26831529
-0.13998483 0.025934229 -0.26830745
-0.13998201 0.026012061 -0.26830161
-0.139979 0.026091935 -0.26829773
-0.13997589 0.0261699 -0.26829788
-0.13997248 0.026247991 -0.26830402
-0.13996935 0.026325956 -0.2683042
-0.13996616 0.026405916 -0.26830429
-0.13996303 0.026483878 -0.26830447
-0.13996001 0.026561799 -0.26830262
-0.13995679 0.026639804 -0.26830477
-0.1399536 0.026719766 -0.26830488
-0.13995066 0.026797641 -0.26830104
-0.13994785 0.026875475 -0.2682952
-0.1399451 0.026953265 -0.26828736
-0.13994199 0.027031228 -0.26828754
-0.1399385 0.027111318 -0.26829362
-0.13993499 0.027189456 -0.26830178
-0.13993219 0.027269244 -0.26829392
-0.13992973 0.027344948 -0.26828212
-0.13992663 0.027424864 -0.26828024
-0.13992369 0.027502742 -0.26827639
-0.13992107 0.027580488 -0.26826656
-0.13991794 0.027658451 -0.26826674
-0.13991475 0.027738411 -0.26826686
-0.13991173 0.027816331 -0.26826501
-0.1399087 0.027894251 -0.26826316
-0.13990587 0.027972084 -0.26825732
-0.13990286 0.028051957 -0.26825345
-0.13990004 0.02812979 -0.2682476
-0.13989711 0.028207667 -0.26824376
-0.13989408 0.028285587 -0.26824191
-0.13989097 0.02836355 -0.26824209
-0.13988806 0.028443381 -0.26823619
-0.1398858 0.028518999 -0.26822042
-0.13988346 0.028596615 -0.26820463
-0.13988085 0.028676316 -0.26819274
-0.13987763 0.028754324 -0.26819488
-0.13987422 0.028832415 -0.26820102
-0.139871 0.028910421 -0.2682032
-0.13986771 0.028990425 -0.26820529
-0.13986507 0.029068172 -0.26819545
-0.13986224 0.029146004 -0.26818964
-0.13985884 0.029226054 -0.26819375
-0.13985553 0.029304102 -0.26819789
-0.13985202 0.02938224 -0.26820603
-0.13984834 0.029462418 -0.26821613
-0.13984531 0.029540338 -0.26821429
-0.13984278 0.02961804 -0.26820248
-0.13983995 0.029695872 -0.26819664
-0.13983673 0.02977388 -0.26819879
-0.13983363 0.029853797 -0.26819691
-0.1398308 0.029931631 -0.26819107
-0.13982788 0.030009506 -0.26818722
-0.13982448 0.030089553 -0.26819134
-0.13982107 0.030167647 -0.26819748
-0.13981834 0.030245436 -0.26818964
-0.1398159 0.030323096 -0.26817584
-0.13981271 0.030403057 -0.26817593
-0.13980938 0.030481108 -0.26818007
-0.13980657 0.03055894 -0.26817426
-0.13980383 0.030636728 -0.26816642
-0.1398008 0.03071465 -0.26816458
-0.13979751 0.030794654 -0.26816669
-0.13979459 0.030872529 -0.26816285
-0.13979146 0.030950492 -0.26816303
-0.13978857 0.031030323 -0.26815712
-0.13978601 0.031106072 -0.26814735
-0.1397832 0.031185858 -0.26813948
-0.13978037 0.031263694 -0.26813364
-0.13977696 0.031341784 -0.26813978
-0.13977326 0.031421963 -0.26814988
-0.13976985 0.031500056 -0.26815602
-0.13976666 0.031580016 -0.26815614
-0.13976364 0.031657938 -0.26815429
-0.1397607 0.031735815 -0.26815045
-0.13975817 0.031813517 -0.26813865
-0.13975555 0.031891264 -0.26812881
-0.13975234 0.031971224 -0.26812893
-0.13974883 0.032049358 -0.26813707
-0.13974541 0.032127455 -0.26814321
-0.13974184 0.032207586 -0.26815131
-0.13973852 0.032285638 -0.26815546
-0.139736 0.032365292 -0.2681416
-0.13973327 0.032443084 -0.26813376
-0.13973005 0.032521091 -0.26813591
-0.13972732 0.032598879 -0.2681281
-0.13972488 0.03267654 -0.26811427
-0.13972205 0.032754373 -0.26810843
-0.13971893 0.032832336 -0.26810858
-0.13971584 0.032912254 -0.2681067
-0.13971251 0.032990303 -0.26811084
-0.13970932 0.033070263 -0.26811096
-0.13970679 0.033147968 -0.26809913
-0.13970385 0.033225842 -0.26809528
-0.13970093 0.033303719 -0.26809144
-0.13969754 0.033383768 -0.26809555
-0.13969423 0.033461817 -0.26809973
-0.13969189 0.033539433 -0.2680839
-0.13968964 0.033617005 -0.26806608
-0.13968672 0.033694882 -0.26806223
-0.13968408 0.033772629 -0.2680524
-0.13968155 0.033850331 -0.26804057
-0.13967863 0.033928208 -0.26803675
-0.13967533 0.034008212 -0.26803887
-0.13967212 0.034086216 -0.26804101
-0.13966861 0.03416631 -0.26804709
-0.13966531 0.034244359 -0.26805127
-0.13966201 0.034324363 -0.26805335
-0.13965879 0.03440237 -0.26805553
-0.13965577 0.034480289 -0.26805368
-0.13965295 0.034560077 -0.26804578
-0.13965014 0.034637909 -0.26803997
-0.13964692 0.034715917 -0.26804212
-0.13964333 0.034796052 -0.26805022
-0.13964 0.0348741 -0.26805437
-0.1396369 0.034954019 -0.26805249
-0.13963369 0.035032026 -0.26805463
-0.13963059 0.035111941 -0.26805276
-0.13962823 0.035187602 -0.26803899
-0.13962598 0.035265177 -0.26802117
-0.13962325 0.035342965 -0.26801333
-0.13961938 0.03542323 -0.26802742
-0.1396153 0.035503581 -0.26804551
-0.13961208 0.035581589 -0.26804766
-0.13960955 0.035659291 -0.26803583
-0.13960691 0.035737038 -0.26802599
-0.13960372 0.035816997 -0.26802611
-0.13960059 0.03589496 -0.26802626
-0.13959759 0.035974834 -0.26802239
-0.13959427 0.036052883 -0.26802653
-0.13959098 0.036132891 -0.26802865
-0.13958795 0.036210809 -0.2680268
-0.13958503 0.036288686 -0.26802295
-0.13958231 0.036366474 -0.26801515
-0.13957937 0.036444351 -0.2680113
-0.13957618 0.036524311 -0.26801142
-0.13957249 0.03660449 -0.26802149
-0.13956814 0.036686927 -0.26804352
-0.13956301 0.03676971 -0.26808155
-0.13955739 0.03685271 -0.26812953
-0.13955085 0.036940053 -0.26819342
-0.13954398 0.037025571 -0.26826531
-0.14106713 -0.00189998 -0.26890871
-0.14106423 -0.001820147 -0.26890284
-0.14106111 -0.0017421842 -0.26890299
-0.14105751 -0.0016640034 -0.26891315
-0.14105399 -0.0015858673 -0.26892129
-0.14105096 -0.0015079491 -0.26891944
-0.14104828 -0.0014262497 -0.26890752
-0.14104536 -0.0013483744 -0.26890367
-0.14104246 -0.0012685414 -0.2688978
-0.14104027 -0.001185108 -0.26887384
-0.14103755 -0.0011053644 -0.26886398
-0.14103386 -0.0010271408 -0.26887611
-0.14103033 -0.00095095672 -0.2688863
-0.14102732 -0.00087108277 -0.26888242
-0.14102452 -0.00079129636 -0.26887453
-0.14102161 -0.00071146339 -0.26886865
-0.1410186 -0.00063159131 -0.26886478
-0.14101517 -0.00055545196 -0.26887298
-0.14101166 -0.00047731586 -0.26888111
-0.14100854 -0.00039935298 -0.26888126
-0.14100534 -0.00031938963 -0.26888138
-0.14100243 -0.00023956038 -0.26887551
-0.14099893 -0.00016142428 -0.26888365
-0.14099559 -8.5327774e-05 -0.26888984
-0.14099319 -3.7606806e-06 -0.26887193
-0.1409909 7.7767298e-05 -0.26885203
-0.14098769 0.00015772507 -0.26885211
-0.14098418 0.00023586303 -0.26886028
-0.14098106 0.00031382591 -0.26886043
-0.14097846 0.00039352663 -0.26884857
-0.14097536 0.00047344342 -0.26884669
-0.14097165 0.0005516652 -0.26885882
-0.14096823 0.00062976032 -0.26886496
-0.14096531 0.00070763566 -0.26886111
-0.14096241 0.00078746863 -0.26885524
-0.14095919 0.00086547434 -0.26885739
-0.14095579 0.00094552338 -0.2688615
-0.14095299 0.0010253079 -0.2688536
-0.14095005 0.0011031851 -0.26884979
-0.14094695 0.0011831038 -0.26884788
-0.14094384 0.0012610666 -0.26884806
-0.14094032 0.0013392046 -0.2688562
-0.14093691 0.0014172979 -0.26886237
-0.1409342 0.0014970414 -0.26885247
-0.14093129 0.0015768707 -0.2688466
-0.14092699 0.0016533993 -0.26887277
-0.14092307 0.0017297547 -0.26889095
-0.14092067 0.0018113256 -0.26887304
-0.14091794 0.0018891152 -0.2688652
-0.14091465 0.0019691177 -0.26886731
-0.14091194 0.0020488612 -0.26885742
-0.14090942 0.0021285191 -0.26884356
-0.14090662 0.0022083074 -0.26883566
-0.1409031 0.0022864435 -0.26884383
-0.14089979 0.0023644939 -0.26884797
-0.14089669 0.0024444107 -0.26884609
-0.14089356 0.0025223736 -0.26884624
-0.14089015 0.0026004668 -0.26885238
-0.14088674 0.002678562 -0.26885855
-0.14088364 0.0027584769 -0.26885664
-0.14088053 0.0028364416 -0.26885682
-0.14087701 0.0029145777 -0.26886496
-0.1408737 0.0029926263 -0.2688691
-0.14087108 0.0030723289 -0.26885724
-0.14086817 0.00315216 -0.26885134
-0.14086507 0.0032320768 -0.26884946
-0.14086208 0.0033119526 -0.26884559
-0.14085925 0.0033897832 -0.26883975
-0.14085624 0.0034696572 -0.26883587
-0.14085335 0.0035494883 -0.26882997
-0.14085013 0.0036274958 -0.26883215
-0.14084682 0.003707502 -0.26883423
-0.1408439 0.0037853774 -0.26883042
-0.14084087 0.0038632955 -0.26882857
-0.14083728 0.0039434303 -0.26883668
-0.14083378 0.0040215664 -0.26884481
-0.14083046 0.0040996168 -0.26884896
-0.14082755 0.0041794479 -0.26884308
-0.14082493 0.0042571947 -0.26883325
-0.14082204 0.0043389779 -0.26882532
-0.14081901 0.0044168979 -0.26882347
-0.14081591 0.0044968165 -0.2688216
-0.14081299 0.0045746937 -0.26881778
-0.14080967 0.0046527442 -0.26882192
-0.14080638 0.0047327466 -0.26882404
-0.14080316 0.0048107523 -0.26882619
-0.14080004 0.0048887152 -0.26882634
-0.14079684 0.0049686786 -0.26882643
-0.14079401 0.0050465111 -0.26882061
-0.14079101 0.005126385 -0.26881671
-0.1407876 0.0052044764 -0.26882288
-0.14078449 0.0052824393 -0.26882303
-0.14078148 0.0053623151 -0.26881915
-0.14077856 0.0054401923 -0.26881531
-0.14077574 0.0055199806 -0.26880741
-0.14077264 0.0055998974 -0.26880553
-0.14076942 0.0056779012 -0.26880771
-0.14076631 0.0057558659 -0.26880786
-0.1407629 0.0058339592 -0.26881403
-0.1407596 0.0059139635 -0.26881611
-0.14075677 0.0059917979 -0.26881027
-0.14075357 0.0060717575 -0.26881039
-0.14075045 0.0061497213 -0.26881054
-0.14074735 0.0062296381 -0.26880866
-0.14074384 0.0063077752 -0.2688168
-0.14074062 0.0063857818 -0.26881894
-0.14073801 0.0064654816 -0.26880708
-0.1407354 0.0065451832 -0.26879519
-0.14073227 0.0066231452 -0.26879537
-0.14072889 0.0067031942 -0.26879948
-0.14072557 0.0067812437 -0.26880363
-0.14072254 0.0068591638 -0.26880178
-0.14071974 0.0069389511 -0.26879391
-0.14071672 0.0070168711 -0.26879206
-0.14071362 0.0070967879 -0.26879019
-0.1407105 0.0071747508 -0.26879033
-0.14070719 0.0072547542 -0.26879245
-0.14070389 0.0073328046 -0.26879659
-0.14070086 0.0074107246 -0.26879475
-0.14069796 0.0074905567 -0.26878887
-0.14069484 0.0075685177 -0.26878902
-0.14069164 0.0076484801 -0.26878914
-0.14068852 0.0077264439 -0.26878929
-0.1406853 0.0078044478 -0.26879144
-0.14068249 0.007884237 -0.26878357
-0.14067958 0.007964069 -0.2687777
-0.14067627 0.0080421176 -0.26878184
-0.14067316 0.0081200805 -0.26878199
-0.14067014 0.0081979996 -0.26878017
-0.14066683 0.0082780048 -0.26878226
-0.14066401 0.0083558373 -0.26877642
-0.14066111 0.0084356684 -0.26877055
-0.14065798 0.0085136313 -0.26877069
-0.14065488 0.00859355 -0.26876882
-0.14065176 0.0086715119 -0.26876897
-0.14064863 0.0087494757 -0.26876915
-0.14064525 0.0088295229 -0.26877323
-0.14064181 0.0089056613 -0.26878142
-0.14063852 0.0089856656 -0.26878354
-0.14063579 0.0090634562 -0.2687757
-0.14063258 0.0091434158 -0.26877582
-0.14062938 0.0092214225 -0.26877797
-0.14062648 0.0093012536 -0.2687721
-0.14062373 0.0093790442 -0.26876426
-0.14062074 0.0094589172 -0.26876038
-0.14061752 0.0095369238 -0.26876253
-0.14061432 0.0096168853 -0.26876265
-0.14061129 0.0096948054 -0.2687608
-0.14060837 0.0097726807 -0.26875696
-0.14060546 0.0098525118 -0.26875108
-0.14060263 0.0099303452 -0.26874524
-0.14059953 0.010010263 -0.26874337
-0.14059642 0.010088226 -0.26874352
-0.14059351 0.010168056 -0.26873764
-0.14059059 0.010245932 -0.2687338
-0.14058718 0.010324026 -0.26873994
-0.14058349 0.010404203 -0.26875004
-0.14058046 0.010482123 -0.26874819
-0.14057754 0.01056 -0.26874438
-0.14057454 0.010639873 -0.26874048
-0.14057161 0.01071775 -0.26873666
-0.14056842 0.010797711 -0.26873675
-0.1405652 0.010875717 -0.2687389
-0.14056198 0.010953724 -0.26874107
-0.14055908 0.011033555 -0.26873517
-0.14055663 0.011111214 -0.26872134
-0.14055373 0.011191046 -0.26871547
-0.14055003 0.01126927 -0.26872763
-0.1405469 0.011347231 -0.26872778
-0.14054438 0.011426889 -0.26871389
-0.14054146 0.011504766 -0.26871008
-0.14053805 0.011582859 -0.26871622
-0.14053464 0.011660951 -0.26872236
-0.14053142 0.011738958 -0.2687245
-0.14052851 0.011818789 -0.26871863
-0.14052568 0.011896622 -0.26871282
-0.1405222 0.011976713 -0.2687189
-0.14051889 0.012054764 -0.26872307
-0.14051606 0.012132596 -0.26871723
-0.14051315 0.012212427 -0.26871133
-0.14051032 0.01229026 -0.26870549
-0.14050752 0.012370046 -0.26869762
-0.14050439 0.01244801 -0.2686978
-0.14050128 0.012525974 -0.26869795
-0.14049818 0.012605891 -0.26869607
-0.14049506 0.012683854 -0.26869619
-0.14049213 0.012761731 -0.26869237
-0.14048913 0.012841604 -0.2686885
-0.1404862 0.01291948 -0.26868466
-0.14048329 0.012999311 -0.26867878
-0.14048018 0.013077274 -0.26867893
-0.14047696 0.013155281 -0.26868108
-0.14047384 0.013233244 -0.26868123
-0.14047094 0.013313074 -0.26867536
-0.1404683 0.01339082 -0.26866552
-0.14046489 0.013468914 -0.26867169
-0.14046149 0.013548961 -0.26867577
-0.14045857 0.013626838 -0.26867196
-0.14045554 0.013704758 -0.26867011
-0.14045255 0.013784633 -0.26866621
-0.14045 0.013862334 -0.26865441
-0.1404473 0.01394208 -0.26864451
-0.14044409 0.014020086 -0.26864666
-0.14044076 0.014098135 -0.26865083
-0.14043747 0.01417814 -0.26865292
-0.14043464 0.014255974 -0.2686471
-0.14043181 0.014333806 -0.26864126
-0.14042862 0.014413767 -0.26864138
-0.1404255 0.01449173 -0.26864153
-0.14042248 0.01456965 -0.26863968
-0.14041935 0.014647612 -0.26863986
-0.14041616 0.014727574 -0.26863995
-0.14041314 0.014805494 -0.2686381
-0.14041041 0.014883283 -0.26863027
-0.14040759 0.01496307 -0.2686224
-0.14040448 0.015041034 -0.26862258
-0.14040115 0.015119083 -0.26862672
-0.14039794 0.015197089 -0.26862887
-0.14039482 0.015275052 -0.26862901
-0.14039142 0.0153551 -0.26863313
-0.1403885 0.015432977 -0.26862931
-0.14038599 0.015512634 -0.26861542
-0.14038326 0.015590424 -0.26860759
-0.14038023 0.015668344 -0.26860577
-0.14037694 0.015748348 -0.26860785
-0.14037371 0.0158244 -0.26861206
-0.1403705 0.01590436 -0.26861218
-0.14036758 0.015982237 -0.26860833
-0.14036445 0.0160602 -0.26860848
-0.14036155 0.016140031 -0.26860261
-0.14035882 0.01621782 -0.26859477
-0.14035591 0.016297651 -0.2685889
-0.14035308 0.016375484 -0.26858306
-0.14034967 0.016453577 -0.2685892
-0.14034645 0.016531583 -0.26859134
-0.14034365 0.016611371 -0.26858348
-0.14034073 0.016689248 -0.26857966
-0.1403376 0.016767211 -0.26857981
-0.14033429 0.01684526 -0.26858395
-0.14033128 0.016925134 -0.26858008
-0.14032856 0.017002923 -0.26857224
-0.14032546 0.017082842 -0.26857036
-0.14032215 0.017160892 -0.26857451
-0.14031902 0.017238855 -0.26857466
-0.14031629 0.017316643 -0.26856685
-0.14031357 0.017394435 -0.26855898
-0.14031027 0.017474439 -0.26856109
-0.14030695 0.017552488 -0.26856527
-0.14030412 0.01763032 -0.26855943
-0.14030151 0.017710023 -0.26854753
-0.1402984 0.017787986 -0.26854771
-0.14029507 0.017866034 -0.26855186
-0.14029224 0.017943867 -0.26854602
-0.14028962 0.018021613 -0.26853621
-0.14028642 0.018101575 -0.2685363
-0.1402835 0.01817945 -0.26853245
-0.14028077 0.01825724 -0.26852465
-0.14027765 0.018337158 -0.26852274
-0.14027433 0.018413253 -0.26852894
-0.14027113 0.018493215 -0.26852906
-0.1402684 0.018571004 -0.26852122
-0.14026558 0.018650791 -0.26851335
-0.14026247 0.018728754 -0.2685135
-0.14025915 0.018806804 -0.26851767
-0.14025623 0.018884681 -0.2685138
-0.1402535 0.018962471 -0.26850599
-0.14025059 0.019042302 -0.26850009
-0.14024748 0.019120265 -0.26850027
-0.14024426 0.019198271 -0.26850241
-0.14024104 0.019276276 -0.26850456
-0.14023791 0.019354239 -0.26850474
-0.14023481 0.019434158 -0.26850283
-0.140232 0.01951199 -0.26849702
-0.14022917 0.019589823 -0.26849118
-0.14022577 0.019669872 -0.26849526
-0.14022236 0.019747963 -0.26850143
-0.14021952 0.019825798 -0.26849559
-0.14021719 0.019903414 -0.26847976
-0.14021407 0.019981377 -0.26847994
-0.14021048 0.020061512 -0.26848802
-0.14020745 0.02013943 -0.2684862
-0.14020434 0.020217393 -0.26848635
-0.14020121 0.020295357 -0.2684865
-0.1401981 0.02037332 -0.26848665
-0.14019509 0.020453194 -0.26848277
-0.14019236 0.020530984 -0.26847494
-0.14018953 0.020608816 -0.2684691
-0.14018615 0.020688863 -0.26847321
-0.14018302 0.020766828 -0.26847339
-0.14018029 0.020844616 -0.26846555
-0.14017767 0.020922363 -0.26845571
-0.14017466 0.021002237 -0.26845184
-0.14017154 0.0210802 -0.26845199
-0.14016852 0.02115812 -0.26845014
-0.14016569 0.021235952 -0.2684443
-0.14016266 0.021313872 -0.26844245
-0.14015937 0.021393877 -0.26844457
-0.14015645 0.021471754 -0.26844075
-0.14015362 0.021549586 -0.26843491
-0.14015079 0.021627419 -0.26842907
-0.14014757 0.021705426 -0.26843122
-0.14014417 0.021785473 -0.26843533
-0.14014125 0.021863349 -0.26843148
-0.14013842 0.021941183 -0.26842564
-0.1401355 0.022019058 -0.26842183
-0.14013258 0.022096936 -0.26841798
-0.14012967 0.022176767 -0.26841211
-0.14012645 0.022254772 -0.26841426
-0.14012313 0.022332823 -0.2684184
-0.14012022 0.022412654 -0.26841253
-0.14011741 0.022490487 -0.26840669
-0.14011399 0.02256858 -0.26841283
-0.14011087 0.022646543 -0.26841301
-0.14010794 0.022724418 -0.26840916
-0.14010493 0.022804294 -0.26840526
-0.14010201 0.022882169 -0.26840144
-0.14009909 0.022960046 -0.2683976
-0.14009587 0.023038052 -0.26839975
-0.14009285 0.023115972 -0.26839793
-0.14008956 0.023195976 -0.26840001
-0.14008623 0.023274025 -0.26840419
-0.14008322 0.023351945 -0.26840234
-0.14008 0.023429953 -0.26840448
-0.14007679 0.023507958 -0.26840663
-0.14007369 0.023587875 -0.26840475
-0.14007133 0.023665491 -0.26838893
-0.1400688 0.023743194 -0.2683771
-0.14006568 0.023821158 -0.26837727
-0.14006247 0.023899164 -0.26837942
-0.14005907 0.023979211 -0.2683835
-0.14005576 0.024057262 -0.26838768
-0.14005254 0.024135269 -0.26838982
-0.14004934 0.024215229 -0.26838994
-0.14004681 0.024292933 -0.26837811
-0.14004418 0.024370678 -0.26836827
-0.14004144 0.024448467 -0.26836044
-0.14003825 0.024528429 -0.26836056
-0.14003532 0.024606304 -0.26835671
-0.1400322 0.024684269 -0.26835689
-0.14002879 0.024762362 -0.26836303
-0.14002576 0.02484028 -0.26836121
-0.14002325 0.024919938 -0.26834732
-0.14002052 0.024997728 -0.26833948
-0.1400176 0.025075603 -0.26833564
-0.14001438 0.025153611 -0.26833782
-0.14001165 0.025231401 -0.26832998
-0.14000875 0.025311232 -0.26832411
-0.14000572 0.02538915 -0.26832226
-0.14000259 0.025467113 -0.26832241
-0.13999948 0.025545077 -0.26832259
-0.13999626 0.025623083 -0.26832473
-0.13999306 0.025703045 -0.26832485
-0.13999043 0.02578079 -0.26831502
-0.1399876 0.025858624 -0.26830918
-0.13998477 0.025936456 -0.26830333
-0.13998175 0.026014376 -0.26830149
-0.13997865 0.026094293 -0.26829961
-0.13997553 0.026172256 -0.26829976
-0.13997251 0.026250176 -0.26829791
-0.13996939 0.026328139 -0.26829809
-0.139966 0.026408188 -0.2683022
-0.13996288 0.026486151 -0.26830232
-0.13995995 0.026564026 -0.26829851
-0.13995683 0.026641989 -0.26829866
-0.13995373 0.026721908 -0.26829678
-0.13995081 0.026799783 -0.26829293
-0.13994798 0.026877616 -0.26828712
-0.13994515 0.026955448 -0.26828128
-0.13994204 0.027033413 -0.26828143
-0.13993834 0.02711359 -0.26829153
-0.13993503 0.027191639 -0.26829568
-0.1399325 0.027269343 -0.26828384
-0.13992986 0.027347088 -0.26827401
-0.13992684 0.02742501 -0.26827219
-0.13992384 0.027504884 -0.26826829
-0.13992101 0.027582716 -0.26826245
-0.13991769 0.027660765 -0.26826662
-0.13991459 0.027740683 -0.26826474
-0.13991167 0.027818561 -0.2682609
-0.13990875 0.027896436 -0.26825705
-0.13990591 0.02797427 -0.26825121
-0.13990308 0.028052103 -0.2682454
-0.13990025 0.028129935 -0.26823956
-0.13989715 0.028209852 -0.26823765
-0.13989413 0.028287772 -0.26823583
-0.13989101 0.028365735 -0.26823598
-0.13988811 0.028445566 -0.26823008
-0.13988565 0.02852127 -0.26821831
-0.13988341 0.028598845 -0.26820052
-0.13988079 0.028678544 -0.26818863
-0.13987748 0.028756594 -0.26819277
-0.13987437 0.028834557 -0.26819295
-0.13987154 0.02891239 -0.26818711
-0.1398686 0.028990267 -0.26818326
-0.1398657 0.029070098 -0.26817739
-0.13986258 0.029148061 -0.26817754
-0.13985936 0.029226067 -0.26817971
-0.13985614 0.029304072 -0.26818186
-0.13985276 0.029384121 -0.26818597
-0.13984905 0.029462345 -0.2681981
-0.13984546 0.02954248 -0.26820618
-0.13984273 0.029620267 -0.26819837
-0.1398402 0.029697971 -0.26818654
-0.13983688 0.029776022 -0.26819068
-0.13983358 0.029856026 -0.2681928
-0.13983075 0.029933859 -0.26818696
-0.13982803 0.030011646 -0.26817912
-0.1398252 0.030089481 -0.26817331
-0.13982189 0.030167531 -0.26817745
-0.13981859 0.030247536 -0.26817957
-0.13981576 0.030325368 -0.26817372
-0.13981293 0.030403201 -0.26816788
-0.13980983 0.030483119 -0.26816601
-0.13980672 0.030561082 -0.26816615
-0.13980378 0.030638957 -0.26816231
-0.13980086 0.030716835 -0.2681585
-0.13979766 0.030796796 -0.26815858
-0.13979454 0.030874759 -0.26815873
-0.13979143 0.030952722 -0.26815891
-0.13978879 0.031030467 -0.26814908
-0.13978615 0.031108214 -0.26813924
-0.13978325 0.031188045 -0.26813337
-0.13978022 0.031265963 -0.26813152
-0.13977681 0.031344056 -0.26813766
-0.13977343 0.031424105 -0.26814178
-0.1397703 0.031502068 -0.26814193
-0.13976681 0.031582158 -0.26814803
-0.1397635 0.03166021 -0.26815218
-0.13976057 0.031738084 -0.26814836
-0.13975814 0.031815745 -0.26813453
-0.13975561 0.031893447 -0.2681227
-0.13975258 0.031971369 -0.26812086
-0.1397488 0.032051589 -0.26813295
-0.13974538 0.032129683 -0.26813912
-0.13974199 0.032209728 -0.26814321
-0.13973868 0.032287776 -0.26814735
-0.13973558 0.032367699 -0.26814547
-0.13973284 0.032445487 -0.26813763
-0.13973022 0.03252323 -0.2681278
-0.13972768 0.032600936 -0.268116
-0.13972513 0.032678638 -0.26810417
-0.13972212 0.03275656 -0.26810232
-0.13971899 0.032834522 -0.26810247
-0.13971597 0.032912441 -0.26810062
-0.13971239 0.032992575 -0.26810873
-0.139709 0.033072621 -0.26811284
-0.13970655 0.033150282 -0.26809901
-0.13970421 0.033227898 -0.26808321
-0.13970156 0.033303689 -0.26807541
-0.13969818 0.033383738 -0.26807952
-0.13969439 0.033463959 -0.26809162
-0.13969156 0.033541791 -0.26808578
-0.13968931 0.033619367 -0.26806796
-0.13968658 0.033697154 -0.26806015
-0.13968405 0.033774856 -0.26804829
-0.13968171 0.033852473 -0.26803249
-0.13967898 0.033930264 -0.26802465
-0.13967586 0.034008227 -0.2680248
-0.13967228 0.034088358 -0.26803291
-0.13966887 0.034166452 -0.26803905
-0.13966566 0.034246415 -0.26803917
-0.13966255 0.034324378 -0.26803932
