# .PCD v0.7 - Point Cloud Data file format
VERSION 0.7
FIELDS x y z
SIZE 4 4 4
TYPE F F F
COUNT 1 1 1
WIDTH 1294
HEIGHT 1
VIEWPOINT 0 0 0 1 0 0 0
POINTS 1294
DATA ascii
-0.08032012 0.0084594339 -0.2569634
-0.080317371 0.0085333148 -0.25695965
-0.080314837 0.008609063 -0.25694984
-0.080312379 0.0086828126 -0.25694013
-0.080309339 0.0087568238 -0.25694236
-0.080306709 0.0088326158 -0.25693455
-0.080304839 0.0089061037 -0.25691283
-0.080302887 0.0089815902 -0.25689107
-0.08030092 0.0090551218 -0.25687134
-0.080298364 0.0091289151 -0.25686359
-0.080294952 0.0092050564 -0.25687176
-0.080291346 0.0092812832 -0.25688395
-0.080288306 0.0093552954 -0.25688618
-0.080285281 0.0094312616 -0.25688639
-0.080282435 0.0095051853 -0.25688463
-0.080279417 0.0095811514 -0.25688481
-0.080275983 0.0096553378 -0.25689507
-0.080272667 0.0097314343 -0.25690126
-0.080269724 0.0098054027 -0.2569015
-0.0802669 0.0098812813 -0.25689769
-0.080264442 0.0099550318 -0.25688794
-0.080261327 0.010031041 -0.25689012
-0.080257133 0.01010753 -0.25691429
-0.080253504 0.010181804 -0.25692853
-0.080250658 0.010255729 -0.25692677
-0.080247536 0.010331738 -0.25692898
-0.080243737 0.010408053 -0.25694513
-0.080239646 0.010484499 -0.25696731
-0.080236599 0.010558511 -0.25696954
-0.080234244 0.010632217 -0.2569578
-0.080231316 0.010708139 -0.25695598
-0.080227986 0.010782282 -0.25696424
-0.080224961 0.010858248 -0.25696442
-0.080222234 0.010934083 -0.25695863
-0.080219291 0.011008051 -0.25695887
-0.080215976 0.011084149 -0.25696504
-0.080212742 0.011158247 -0.2569713
-0.080209427 0.011234344 -0.2569775
-0.080206499 0.011310266 -0.25697568
-0.080204144 0.011383973 -0.25696394
-0.080201685 0.011457723 -0.25695419
-0.080198176 0.011533907 -0.25696439
-0.080194376 0.011610221 -0.25698054
-0.080191433 0.01168419 -0.25698078
-0.080188699 0.011760024 -0.256975
-0.080185585 0.011836034 -0.2569772
-0.080182344 0.011910133 -0.25698343
-0.080179133 0.011986187 -0.25698763
-0.080176182 0.012060154 -0.25698787
-0.080173261 0.012136078 -0.25698605
-0.080170609 0.012209915 -0.2569803
-0.0801671 0.012286099 -0.25699049
-0.080163881 0.012362151 -0.25699466
-0.080161236 0.012435989 -0.25698894
-0.080158308 0.012511911 -0.25698712
-0.080155089 0.012587965 -0.25699133
-0.080151759 0.012662107 -0.25699955
-0.080148734 0.012738073 -0.25699973
-0.080145985 0.012811954 -0.25699601
-0.080142774 0.012888007 -0.25700018
-0.080139458 0.012964104 -0.25700638
-0.080136903 0.013037898 -0.25699863
-0.080134176 0.013113733 -0.25699285
-0.080130644 0.013187962 -0.25700507
-0.080126941 0.013264234 -0.25701922
-0.080123432 0.013340418 -0.25702941
-0.080120683 0.013414299 -0.25702566
-0.080118246 0.013490003 -0.25701386
-0.0801154 0.013563927 -0.25701213
-0.080112085 0.013640025 -0.2570183
-0.080108866 0.013716077 -0.2570225
-0.080105461 0.013792219 -0.25703067
-0.080102608 0.013866142 -0.25702894
-0.080099784 0.013942021 -0.25702512
-0.080096647 0.014016077 -0.25702935
-0.080093235 0.014092217 -0.25703755
-0.080090307 0.01416814 -0.25703576
-0.080087878 0.014243844 -0.25702396
-0.080085322 0.014317637 -0.25701621
-0.080082767 0.014391431 -0.25700849
-0.080080137 0.014467223 -0.25700068
-0.080077097 0.014541234 -0.25700292
-0.080073684 0.014617374 -0.25701112
-0.080070466 0.014693428 -0.25701529
-0.080067813 0.014767265 -0.25700957
-0.08006528 0.014843013 -0.25699976
-0.080062434 0.014916937 -0.256998
-0.080058649 0.014995206 -0.25701213
-0.080055125 0.015069436 -0.25702435
-0.080051906 0.015145489 -0.25702855
-0.080048889 0.015221456 -0.25702873
-0.080046035 0.01529538 -0.25702697
-0.080043115 0.015371302 -0.25702518
-0.080040485 0.015447093 -0.25701737
-0.080037832 0.015520931 -0.25701165
-0.08003442 0.015597071 -0.25701982
-0.080031767 0.015670909 -0.2570141
-0.080029234 0.015746657 -0.25700429
-0.080025919 0.015822753 -0.25701049
-0.080022588 0.015896896 -0.25701872
-0.080018707 0.015975209 -0.25703484
-0.080014713 0.016051611 -0.25705498
-0.080011301 0.016127752 -0.25706318
-0.080008179 0.016203761 -0.25706539
-0.08000543 0.016277641 -0.25706163
-0.080002993 0.016353346 -0.25704986
-0.080000341 0.016427184 -0.25704408
-0.079996735 0.016503412 -0.25705627
-0.079993129 0.016579639 -0.25706846
-0.079989813 0.016655736 -0.25707465
-0.079986602 0.016731789 -0.25707883
-0.079983853 0.016805671 -0.25707507
-0.07998132 0.016881417 -0.2570653
-0.07997857 0.016955299 -0.25706154
-0.079975352 0.017031351 -0.25706571
-0.079972327 0.017107319 -0.25706592
-0.079969212 0.017183326 -0.2570681
-0.079966187 0.017259292 -0.25706831
-0.079963244 0.017333262 -0.25706854
-0.07996013 0.017409272 -0.25707075
-0.079957008 0.01748528 -0.25707293
-0.07995379 0.017561335 -0.25707713
-0.079950377 0.017637476 -0.25708532
-0.079947554 0.017713353 -0.25708151
-0.07994549 0.017786928 -0.25706378
-0.079943128 0.017860636 -0.25705203
-0.07994011 0.0179366 -0.25705224
-0.079936795 0.018012699 -0.25705841
-0.079933673 0.018088708 -0.25706062
-0.079931021 0.018162545 -0.25705487
-0.079928294 0.018238379 -0.25704908
-0.079925448 0.018312303 -0.25704733
-0.079922423 0.018388271 -0.2570475
-0.07991989 0.018464018 -0.25703773
-0.079917908 0.018535595 -0.25702006
-0.079914883 0.018611562 -0.25702024
-0.079911098 0.018689832 -0.25703436
-0.079907596 0.018766016 -0.25704455
-0.079904944 0.018839851 -0.2570388
-0.079902776 0.01891347 -0.25702307
-0.079900049 0.018989306 -0.25701725
-0.079897024 0.019065272 -0.25701746
-0.079893813 0.019141326 -0.25702167
-0.0798904 0.019217465 -0.25702983
-0.079887457 0.019291434 -0.25703007
-0.079884626 0.019367313 -0.25702628
-0.079881415 0.019443367 -0.25703049
-0.079878099 0.019519463 -0.25703666
-0.07987459 0.019595647 -0.25704685
-0.079871275 0.019671744 -0.25705302
-0.079868257 0.01974771 -0.25705323
-0.079865895 0.019821417 -0.25704148
-0.079864025 0.019894905 -0.25701976
-0.079861686 0.019970566 -0.25700599
-0.079858549 0.020044621 -0.25701022
-0.07985457 0.020122977 -0.25702834
-0.079851642 0.0201989 -0.25702652
-0.079849385 0.020272562 -0.25701278
-0.079846561 0.020348441 -0.257009
-0.079843245 0.020424537 -0.25701517
-0.079840221 0.020500503 -0.25701538
-0.079837963 0.020574167 -0.25700164
-0.079836093 0.020647654 -0.25697991
-0.079832971 0.020723663 -0.25698212
-0.079829462 0.020799847 -0.25699228
-0.0798271 0.020873554 -0.25698054
-0.079824567 0.020949304 -0.25697076
-0.079821058 0.021025486 -0.25698096
-0.079817846 0.021101538 -0.25698513
-0.079815678 0.021175157 -0.25696939
-0.079813808 0.021248646 -0.25694767
-0.079810888 0.021324569 -0.25694585
-0.079807572 0.021400666 -0.25695205
-0.079804651 0.021476589 -0.25695026
-0.079801604 0.021550599 -0.25695249
-0.079798408 0.021628607 -0.25695464
-0.079795755 0.021702446 -0.25694889
-0.079792738 0.02177841 -0.2569491
-0.079790011 0.021854246 -0.25694329
-0.079788119 0.021925779 -0.25692362
-0.079785876 0.022001397 -0.25690782
-0.07978303 0.02207532 -0.25690606
-0.079780303 0.022151155 -0.25690028
-0.079777941 0.022224862 -0.25688854
-0.07977502 0.022300785 -0.25688672
-0.079771608 0.022376925 -0.25689492
-0.079768486 0.022452936 -0.25689709
-0.079765663 0.022528814 -0.25689334
-0.07976301 0.022602651 -0.25688756
-0.07976114 0.022676138 -0.25686583
-0.079759166 0.02274967 -0.25684613
-0.079756618 0.022823464 -0.25683838
-0.079754546 0.02289704 -0.25682062
-0.079751335 0.022973092 -0.25682482
-0.079746597 0.023053752 -0.25685686
-0.079742521 0.023132153 -0.25687701
-0.079739578 0.02320612 -0.25687724
-0.079736754 0.023282001 -0.25687343
-0.079733633 0.02335801 -0.25687563
-0.079730615 0.023433976 -0.25687584
-0.07972759 0.023509942 -0.25687602
-0.07972496 0.023585733 -0.25686824
-0.079722211 0.023659613 -0.25686449
-0.079719089 0.023735624 -0.25686666
-0.079715796 0.023813674 -0.25687081
-0.079713248 0.023887469 -0.25686306
-0.079711176 0.023961043 -0.25684536
-0.079709113 0.024034617 -0.25682762
-0.079705991 0.02411063 -0.2568298
-0.079702407 0.024188811 -0.25683993
-0.07969927 0.024262866 -0.25684416
-0.079696245 0.024338832 -0.25684437
-0.079693049 0.02441684 -0.25684652
-0.079690203 0.024490764 -0.25684476
-0.079687476 0.0245666 -0.25683898
-0.079684556 0.024642522 -0.25683716
-0.07968124 0.024718618 -0.25684336
-0.079678878 0.024792327 -0.25683162
-0.079676718 0.024865944 -0.25681588
-0.079673499 0.024941996 -0.25682008
-0.079668857 0.025022615 -0.25685012
-0.079664789 0.025101013 -0.25687024
-0.079661101 0.025179239 -0.25688237
-0.079657689 0.025255378 -0.25689057
-0.079653814 0.025333693 -0.25690669
-0.079649739 0.025412094 -0.2569268
-0.079645857 0.025490407 -0.25694293
-0.079642177 0.025568632 -0.25695506
-0.079638377 0.025644949 -0.25697124
-0.079634987 0.025723042 -0.25697738
-0.079631768 0.025799096 -0.25698155
-0.079627499 0.025877582 -0.25700569
-0.079623252 0.025958024 -0.25702775
-0.07961984 0.026034165 -0.25703594
-0.079616547 0.026112217 -0.25704008
-0.079613522 0.026188182 -0.25704026
-0.079610012 0.026264368 -0.25705045
-0.079606622 0.026342461 -0.25705659
-0.079603508 0.02641847 -0.2570588
-0.079600289 0.026494522 -0.25706297
-0.079596974 0.026570622 -0.25706917
-0.079593584 0.026648717 -0.25707531
-0.079589702 0.026727028 -0.25709143
-0.079585634 0.026805427 -0.25711155
-0.079582609 0.026881397 -0.25711173
-0.079580173 0.0269571 -0.25709996
-0.079576857 0.027033195 -0.25710613
-0.079572029 0.027113901 -0.25714019
-0.079567581 0.027194429 -0.25716627
-0.079563998 0.027272612 -0.2571764
-0.079560392 0.027348837 -0.25718856
-0.079556435 0.027429149 -0.25720465
-0.079552457 0.027507506 -0.25722277
-0.079548486 0.027585864 -0.25724089
-0.079544432 0.027666219 -0.25725895
-0.079540357 0.027744619 -0.2572791
-0.079535618 0.027825277 -0.25731114
-0.079531744 0.027903592 -0.25732726
-0.079527862 0.027981903 -0.25734341
-0.079523616 0.028062347 -0.25736547
-0.079519168 0.028142873 -0.25739151
-0.079514802 0.028221406 -0.25741762
-0.079509132 0.028306412 -0.25746557
-0.079502881 0.028391678 -0.2575255
-0.079498433 0.028472206 -0.25755155
-0.079485513 0.028576162 -0.25773492
-0.079040438 0.030249849 -0.26562798
-0.07903783 0.030327594 -0.26561815
-0.079034477 0.030409597 -0.26562017
-0.079031304 0.03048956 -0.26562029
-0.07902842 0.030569389 -0.26561439
-0.079025067 0.030651394 -0.26561645
-0.079021603 0.030731484 -0.26562256
-0.079018719 0.030811317 -0.26561666
-0.079015546 0.030891281 -0.26561677
-0.079011805 0.030973457 -0.26562679
-0.079008453 0.031055462 -0.26562884
-0.079005279 0.031135423 -0.26562893
-0.079002298 0.031215297 -0.26562506
-0.078999884 0.031292956 -0.26561123
-0.078997098 0.031372741 -0.26560333
-0.078993924 0.031452704 -0.26560342
-0.078990944 0.031532578 -0.26559955
-0.078987494 0.031614628 -0.2656036
-0.078984126 0.031694677 -0.26560768
-0.078981243 0.031774506 -0.26560178
-0.078978553 0.03185425 -0.26559192
-0.078975379 0.031934213 -0.26559201
-0.078971937 0.032016259 -0.26559603
-0.078968756 0.032096222 -0.26559615
-0.078966074 0.032175966 -0.26558626
-0.078963459 0.032253712 -0.26557642
-0.078960285 0.032333672 -0.26557654
-0.078956641 0.032415807 -0.26558459
-0.078953199 0.032497853 -0.26558864
-0.078950681 0.032575555 -0.26557678
-0.078948073 0.032653302 -0.26556695
-0.078944623 0.032735348 -0.265571
-0.078941375 0.032817312 -0.26557106
-0.078938566 0.032895144 -0.26556522
-0.078935489 0.032975063 -0.26556331
-0.078932412 0.033054978 -0.2655614
-0.078929529 0.033134811 -0.26555553
-0.078925982 0.033216901 -0.26556158
-0.078922242 0.033299081 -0.26557159
-0.078919269 0.033378951 -0.26556772
-0.078916848 0.033456609 -0.26555389
-0.080147333 0.00210563 -0.26582783
-0.080145039 0.0021851999 -0.26580995
-0.080142424 0.0022629453 -0.26580012
-0.080139153 0.0023429508 -0.2658022
-0.080134884 0.0024214385 -0.26582631
-0.080131218 0.0025016179 -0.26583642
-0.080128044 0.0025815803 -0.26583651
-0.080124944 0.0026595443 -0.26583666
-0.080121577 0.0027395929 -0.26584074
-0.080118693 0.0028194243 -0.26583487
-0.080116101 0.0028991243 -0.26582298
-0.080113396 0.0029769142 -0.26581514
-0.080110021 0.003056963 -0.26581922
-0.080106065 0.0031372739 -0.26583531
-0.080102578 0.0032154126 -0.26584345
-0.080099598 0.0032952873 -0.26583955
-0.080096424 0.003375249 -0.26583964
-0.080093324 0.0034532133 -0.26583982
-0.080089852 0.0035333065 -0.26584589
-0.080086559 0.0036113567 -0.26585004
-0.080083579 0.0036912318 -0.26584613
-0.080080211 0.0037712813 -0.26585025
-0.080077134 0.0038511991 -0.26584834
-0.080074348 0.0039309869 -0.26584044
-0.080071054 0.0040090377 -0.26584458
-0.080067486 0.0040891739 -0.26585269
-0.080064192 0.0041672252 -0.26585683
-0.080061212 0.0042471001 -0.26585293
-0.080057941 0.0043271063 -0.26585501
-0.080054477 0.0044071982 -0.26586112
-0.080051281 0.0044852057 -0.26586327
-0.080047905 0.0045652553 -0.26586735
-0.080044635 0.004645261 -0.26586947
-0.080041751 0.0047250921 -0.26586357
-0.08003895 0.0048029246 -0.26585773
-0.080035575 0.0048829741 -0.26586181
-0.08003211 0.0049630664 -0.26586792
-0.080029398 0.0050408561 -0.26586008
-0.080026813 0.0051205563 -0.26584819
-0.080418378 0.0052380105 -0.25759095
-0.080421433 0.005313226 -0.25746524
-0.08042153 0.0053877956 -0.25740156
-0.080424674 0.0054629673 -0.25727388
-0.080425069 0.0055374061 -0.25720417
-0.080423512 0.0056127179 -0.25717443
-0.080422714 0.0056857252 -0.25713071
-0.080421932 0.0057606883 -0.25708497
-0.080420569 0.0058359122 -0.25705123
-0.080418997 0.0059092697 -0.25702351
-0.080417439 0.0059845811 -0.25699374
-0.080415584 0.0060600238 -0.25696999
-0.080413125 0.0061337734 -0.25696024
-0.080410592 0.0062095216 -0.25695044
-0.080408432 0.0062831403 -0.2569347
-0.080406092 0.0063588009 -0.25692093
-0.080403537 0.0064325947 -0.25691319
-0.080400519 0.0065085604 -0.25691336
-0.080397181 0.006582703 -0.25692159
-0.080393769 0.0066588437 -0.25692981
-0.080390923 0.0067327684 -0.25692803
-0.080387898 0.006808734 -0.25692824
-0.080384471 0.0068829199 -0.25693846
-0.080380961 0.006959104 -0.25694865
-0.080377623 0.007033247 -0.25695688
-0.080374502 0.0071092565 -0.25695908
-0.080371365 0.007183312 -0.25696331
-0.080368422 0.0072572799 -0.25696355
-0.080365695 0.0073331147 -0.25695777
-0.080363236 0.0074068652 -0.25694802
-0.080360897 0.0074825254 -0.25693423
-0.080357581 0.0075586224 -0.25694042
-0.080353566 0.0076330705 -0.25696263
-0.080350056 0.0077092545 -0.25697279
-0.080347404 0.0077830916 -0.25696707
-0.080344677 0.0078589264 -0.25696129
-0.080341831 0.0079328511 -0.2569595
-0.080338396 0.0080070375 -0.25696975
-0.080335081 0.008083134 -0.25697592
-0.080332428 0.0081569711 -0.25697017
-0.080329701 0.0082328068 -0.25696439
-0.080326758 0.0083067743 -0.25696462
-0.08032383 0.0083826967 -0.25696284
-0.080320813 0.0084586628 -0.25696301
-0.080317959 0.0085325874 -0.25696126
-0.08031553 0.0086082919 -0.25694948
-0.080313072 0.0086820414 -0.25693974
-0.080309927 0.0087560965 -0.25694397
-0.080307297 0.0088318884 -0.25693619
-0.080305427 0.0089053763 -0.25691444
-0.08030358 0.0089808181 -0.25689068
-0.080301605 0.0090543507 -0.25687096
-0.080299057 0.009128144 -0.25686321
-0.080295645 0.0092042843 -0.2568714
-0.080292031 0.0092805121 -0.25688356
-0.080288894 0.0093545672 -0.25688779
-0.080285877 0.0094305333 -0.256888
-0.080283128 0.0095044142 -0.25688425
-0.080280103 0.0095803803 -0.25688446
-0.080276668 0.0096545666 -0.25689468
-0.08027336 0.0097306632 -0.25690088
-0.08027041 0.0098046316 -0.25690112
-0.080267489 0.0098805539 -0.2568993
-0.080265127 0.0099542607 -0.25688756
-0.080262013 0.01003027 -0.25688976
-0.080257818 0.010106759 -0.2569139
-0.08025419 0.010181033 -0.25692815
-0.080251344 0.010254957 -0.25692639
-0.080248222 0.010330967 -0.25692859
-0.080244325 0.010407326 -0.25694674
-0.080240227 0.010483772 -0.25696892
-0.080237187 0.010557783 -0.25697115
-0.080234826 0.010631489 -0.25695941
-0.080231905 0.010707412 -0.25695762
-0.080228664 0.01078151 -0.25696385
-0.080225646 0.010857477 -0.25696403
-0.08022292 0.010933312 -0.25695825
-0.080219969 0.011007279 -0.25695848
-0.080216557 0.01108342 -0.25696668
-0.080213323 0.011157519 -0.25697291
-0.080210105 0.011233573 -0.25697711
-0.080207184 0.011309495 -0.25697529
-0.080204822 0.011383201 -0.25696355
-0.080202363 0.011456951 -0.25695384
-0.080198757 0.011533178 -0.25696599
-0.080194958 0.011609494 -0.25698218
-0.080192015 0.011683462 -0.25698242
-0.080189288 0.011759297 -0.2569766
-0.080186166 0.011835307 -0.25697881
-0.080182925 0.011909406 -0.25698504
-0.080179811 0.011985416 -0.25698724
-0.080176763 0.012059427 -0.25698948
-0.080173939 0.012135305 -0.25698566
-0.08017119 0.012209186 -0.25698194
-0.080167778 0.012285327 -0.2569901
-0.080164559 0.01236138 -0.25699431
-0.080161907 0.012435217 -0.25698856
-0.080158986 0.01251114 -0.25698674
-0.080155671 0.012587236 -0.25699294
-0.080152437 0.012661335 -0.25699916
-0.080149412 0.012737302 -0.25699937
-0.080146663 0.012811182 -0.25699562
-0.080143347 0.012887279 -0.25700182
-0.080140129 0.012963332 -0.25700599
-0.080137581 0.013037127 -0.25699824
-0.080134846 0.013112961 -0.25699246
-0.080131322 0.013187191 -0.25700468
-0.080127612 0.013263462 -0.25701886
-0.080124006 0.01333969 -0.25703102
-0.080121353 0.013413527 -0.25702527
-0.08011882 0.013489274 -0.2570155
-0.080115899 0.013565198 -0.25701371
-0.080112658 0.013639296 -0.25701994
-0.080109447 0.013715349 -0.25702411
-0.080106035 0.01379149 -0.25703231
-0.080103189 0.013865414 -0.25703055
-0.080100358 0.013941294 -0.25702673
-0.080097318 0.014015305 -0.257029
-0.080093808 0.01409149 -0.25703916
-0.08009088 0.014167411 -0.25703737
-0.080088444 0.014243116 -0.2570256
-0.080085993 0.014316865 -0.25701582
-0.080083437 0.014390659 -0.25700811
-0.080080807 0.014466451 -0.2570003
-0.080077663 0.014540506 -0.25700456
-0.080074251 0.014616646 -0.25701272
-0.080071136 0.014692656 -0.25701493
-0.080068387 0.014766537 -0.25701118
-0.080065854 0.014842285 -0.25700137
-0.080062926 0.014918206 -0.25699958
-0.08005932 0.014994435 -0.25701174
-0.080055788 0.015068665 -0.25702399
-0.08005248 0.015144761 -0.25703016
-0.080049455 0.015220728 -0.25703037
-0.080046706 0.015294608 -0.25702661
-0.080043778 0.015370531 -0.25702479
-0.080041148 0.015446322 -0.25701702
-0.080038302 0.015520247 -0.25701526
-0.08003509 0.015596299 -0.25701946
-0.080032438 0.015670137 -0.25701371
-0.080029801 0.015745929 -0.2570059
-0.080026492 0.015822025 -0.2570121
-0.08002308 0.015898164 -0.25702029
-0.080019273 0.015974481 -0.25703645
-0.080015376 0.016050838 -0.25705463
-0.080011964 0.016126979 -0.25706279
-0.080008842 0.01620299 -0.257065
-0.080005996 0.016276915 -0.25706324
-0.08000356 0.016352618 -0.25705147
-0.080000907 0.016426455 -0.25704569
-0.079997398 0.016502641 -0.25705588
-0.079993792 0.016578868 -0.25706807
-0.07999038 0.016655007 -0.25707626
-0.079987168 0.016731061 -0.25708044
-0.079984516 0.016804898 -0.25707471
-0.079981983 0.016880646 -0.25706491
-0.079979129 0.016954571 -0.25706315
-0.079975918 0.017030623 -0.25706735
-0.079972796 0.017106634 -0.25706953
-0.079969779 0.0171826 -0.25706974
-0.079966754 0.017258566 -0.25706992
-0.079963811 0.017332532 -0.25707018
-0.079960689 0.017408542 -0.25707236
-0.079957671 0.017484508 -0.25707257
-0.079954356 0.017560605 -0.25707874
-0.079950944 0.017636746 -0.25708693
-0.07994812 0.017712627 -0.25708312
-0.079946145 0.017786156 -0.25706339
-0.079943791 0.017859863 -0.25705165
-0.079940669 0.017935872 -0.25705385
-0.079937354 0.018011969 -0.25706005
-0.079934239 0.018087979 -0.25706226
-0.079931684 0.018161774 -0.25705448
-0.079928949 0.018237608 -0.2570487
-0.079926006 0.018311575 -0.25704893
-0.079922989 0.018387541 -0.25704914
-0.079920553 0.018463247 -0.25703734
-0.079918385 0.018536866 -0.25702161
-0.079915442 0.018610833 -0.25702184
-0.079911761 0.018689059 -0.25703397
-0.079908252 0.018765243 -0.25704417
-0.079905599 0.01883908 -0.25703841
-0.079903431 0.018912699 -0.25702268
-0.079900607 0.018988578 -0.25701889
-0.079897583 0.019064544 -0.25701907
-0.079894468 0.019140553 -0.25702128
-0.079891056 0.019216694 -0.25702944
-0.079888105 0.019290663 -0.25702971
-0.079885185 0.019366585 -0.25702789
-0.079881966 0.019442638 -0.2570321
-0.079878658 0.019518733 -0.2570383
-0.079875246 0.019594874 -0.25704646
-0.079871833 0.019671015 -0.25705463
-0.079868905 0.019746937 -0.25705284
-0.079866551 0.019820644 -0.2570411
-0.079864502 0.019896174 -0.25702131
-0.079862341 0.019969793 -0.2570056
-0.079859197 0.02004385 -0.25700983
-0.079855219 0.020122204 -0.25702795
-0.079852298 0.020198127 -0.25702614
-0.079850033 0.020271789 -0.25701243
-0.079847112 0.020347713 -0.25701061
-0.079843894 0.020423766 -0.25701481
-0.079840876 0.020499732 -0.25701499
-0.079838611 0.020573394 -0.25700125
-0.079836741 0.020646881 -0.25697953
-0.079833522 0.020722937 -0.25698373
-0.079830013 0.020799119 -0.25699389
-0.079827674 0.02087478 -0.25698012
-0.079825222 0.020948529 -0.25697038
-0.079821609 0.021024756 -0.25698256
-0.079818398 0.021100812 -0.25698674
-0.079816326 0.021174386 -0.25696903
-0.079814456 0.021247875 -0.25694728
-0.079811439 0.021323841 -0.25694749
-0.07980822 0.021399893 -0.25695169
-0.079805195 0.021475859 -0.25695187
-0.079802252 0.021549828 -0.25695211
-0.079799056 0.021627836 -0.25695425
-0.079796307 0.021701716 -0.2569505
-0.079793386 0.021777637 -0.25694871
-0.079790555 0.021853518 -0.25694489
-0.079788662 0.021925051 -0.25692523
-0.079786427 0.022000669 -0.25690943
-0.079783574 0.022074593 -0.2569077
-0.079780847 0.022150427 -0.25690189
-0.079778589 0.022224091 -0.25688815
-0.079775564 0.022300057 -0.25688836
-0.079772152 0.022376196 -0.25689656
-0.079769135 0.022452163 -0.25689673
-0.079766303 0.022528041 -0.25689295
-0.079763651 0.022601878 -0.2568872
-0.079761781 0.022675367 -0.25686547
-0.079759717 0.022748942 -0.25684774
-0.079757258 0.022822693 -0.25683799
-0.079755001 0.022896355 -0.25682425
-0.079751879 0.022972364 -0.25682646
-0.07974714 0.023053024 -0.2568585
-0.079743065 0.023131425 -0.25687861
-0.079740144 0.023207348 -0.25687683
-0.079737216 0.023283269 -0.25687501
-0.079734273 0.023357237 -0.25687528
-0.079731077 0.023435246 -0.25687742
-0.079728134 0.023509214 -0.25687763
-0.079725504 0.023585005 -0.25686985
-0.07972268 0.023660883 -0.25686607
-0.079719633 0.023734896 -0.2568683
-0.079716437 0.023812901 -0.25687045
-0.079713784 0.02388674 -0.2568647
-0.07971172 0.023960315 -0.25684696
-0.079709753 0.024033846 -0.25682724
-0.079706535 0.0241099 -0.25683141
-0.079702951 0.024188083 -0.25684154
-0.079699829 0.024264093 -0.25684375
-0.079696789 0.024338102 -0.25684601
-0.07969369 0.024416067 -0.25684613
-0.079690844 0.024489993 -0.25684437
-0.079688013 0.02456587 -0.25684059
-0.079684995 0.024641836 -0.25684077
-0.079681776 0.02471789 -0.25684497
-0.079679519 0.024791554 -0.25683123
-0.079677351 0.024865173 -0.25681549
-0.079673961 0.024943266 -0.25682163
-0.079669498 0.025021842 -0.25684974
-0.079665326 0.025100285 -0.25687185
-0.079661638 0.025178511 -0.25688398
-0.079658225 0.025254652 -0.25689217
-0.079654448 0.02533292 -0.2569063
-0.079650372 0.025411321 -0.25692642
-0.079646498 0.025489634 -0.25694257
-0.07964281 0.025567861 -0.25695467
-0.079638831 0.025646217 -0.25697279
-0.079635523 0.025722314 -0.25697899
-0.079632401 0.025798321 -0.25698119
-0.079628035 0.025876854 -0.2570073
-0.079623885 0.025957253 -0.25702739
-0.079620376 0.026033437 -0.25703755
-0.079617083 0.026111487 -0.25704169
-0.079614058 0.026187453 -0.2570419
-0.079610646 0.026263593 -0.25705007
-0.079607256 0.026341688 -0.25705621
-0.079604134 0.026417699 -0.25705841
-0.079600826 0.026493795 -0.25706458
-0.079597607 0.026569849 -0.25706878
-0.079594217 0.026647944 -0.25707492
-0.079590239 0.0267263 -0.25709304
-0.079586163 0.0268047 -0.25711316
-0.079583138 0.026880667 -0.25711337
-0.079580806 0.026956327 -0.25709957
-0.079577491 0.027032424 -0.25710577
-0.079572558 0.027113171 -0.25714183
-0.079568118 0.027193699 -0.25716788
-0.079564527 0.027271882 -0.25717801
-0.079560943 0.027350064 -0.25718814
-0.079556867 0.027428465 -0.25720826
-0.079552986 0.027506778 -0.25722438
-0.079549015 0.027585134 -0.2572425
-0.079544961 0.027665488 -0.25726059
-0.079540886 0.027743891 -0.25728071
-0.079536147 0.027824549 -0.25731277
-0.079532266 0.027902862 -0.2573289
-0.079528391 0.027981175 -0.25734502
-0.07952404 0.02806166 -0.25736907
-0.079519697 0.028142145 -0.25739315
-0.079515159 0.028222719 -0.2574212
-0.079509661 0.028305683 -0.25746721
-0.079503402 0.028390948 -0.25752711
-0.079498865 0.028471522 -0.25755519
-0.079487659 0.028570782 -0.25770667
-0.079040922 0.030249117 -0.26562959
-0.079038411 0.030326819 -0.26561776
-0.079034962 0.030408865 -0.26562181
-0.079031885 0.030488783 -0.2656199
-0.079029001 0.030568615 -0.26561403
-0.079025552 0.030650662 -0.26561806
-0.079022087 0.030730754 -0.26562417
-0.079019204 0.030810585 -0.26561826
-0.07901603 0.030890549 -0.26561838
-0.079012208 0.030974723 -0.26562837
-0.079009034 0.031054687 -0.26562846
-0.07900586 0.031134646 -0.26562858
-0.07900288 0.031214522 -0.26562467
-0.079000466 0.031292178 -0.26561084
-0.078997679 0.031371966 -0.26560295
-0.078994408 0.031451974 -0.26560503
-0.078991428 0.031531848 -0.26560116
-0.078988075 0.031613849 -0.26560321
-0.078984708 0.031693898 -0.2656073
-0.078981824 0.031773731 -0.2656014
-0.078979038 0.031853519 -0.26559353
-0.078975864 0.031933479 -0.26559362
-0.078972414 0.032015525 -0.26559767
-0.078969337 0.032095447 -0.26559579
-0.078966551 0.032175235 -0.26558787
-0.078963943 0.032252982 -0.26557803
-0.078960866 0.032332897 -0.26557615
-0.078957222 0.032415032 -0.2655842
-0.078953773 0.032497078 -0.26558822
-0.078951165 0.032574825 -0.26557839
-0.078948475 0.032654569 -0.26556852
-0.078945205 0.032734573 -0.26557061
-0.078941949 0.032816537 -0.26557067
-0.07893914 0.032894365 -0.26556483
-0.078936063 0.032974284 -0.26556292
-0.078932986 0.033054203 -0.26556104
-0.078930102 0.033134036 -0.26555514
-0.078926563 0.033216126 -0.26556119
-0.078922719 0.033298347 -0.26557323
-0.078919843 0.033378176 -0.26556733
-0.078917421 0.033455838 -0.2655535
-0.080149159 0.0021059983 -0.26582855
-0.080146857 0.0021855673 -0.26581067
-0.080144346 0.0022632694 -0.26579884
-0.080140978 0.0023433189 -0.26580292
-0.080136709 0.0024218066 -0.26582703
-0.080133043 0.002501986 -0.26583713
-0.080129966 0.0025819046 -0.26583523
-0.08012677 0.0026599125 -0.26583737
-0.080123499 0.0027399175 -0.26583946
-0.080120519 0.0028197924 -0.26583558
-0.080117926 0.0028994924 -0.26582369
-0.080115214 0.002977282 -0.26581585
-0.080111846 0.0030573306 -0.26581994
-0.08010789 0.0031376421 -0.26583603
-0.0801045 0.0032157372 -0.26584217
-0.080101423 0.0032956549 -0.26584026
-0.080098346 0.0033755735 -0.26583838
-0.08009515 0.0034535814 -0.26584053
-0.080091774 0.0035336304 -0.26584461
-0.080088481 0.0036116811 -0.26584876
-0.080085404 0.0036915997 -0.26584685
-0.080082037 0.003771649 -0.26585096
-0.080078959 0.0038515672 -0.26584905
-0.080076173 0.0039313543 -0.26584119
-0.08007288 0.0040094061 -0.26584533
-0.080069311 0.0040895417 -0.2658534
-0.080066018 0.0041675931 -0.26585755
-0.080063038 0.004247468 -0.26585364
-0.080059767 0.0043274737 -0.26585576
-0.080056302 0.004407566 -0.26586184
-0.080053106 0.0044855736 -0.26586398
-0.080049731 0.0045656227 -0.2658681
-0.08004646 0.0046456284 -0.26587018
-0.080043577 0.0047254595 -0.26586431
-0.080040768 0.0048032925 -0.26585847
-0.0800374 0.0048833415 -0.26586252
-0.080034032 0.0049633905 -0.26586664
-0.080031224 0.005041224 -0.2658608
-0.080028631 0.0051209242 -0.2658489
-0.080024675 0.0052012349 -0.265865
-0.080420613 0.0052401647 -0.25758162
-0.080423251 0.0053136004 -0.25746599
-0.080423355 0.00538817 -0.25740227
-0.080426402 0.0054633855 -0.25727659
-0.080426887 0.0055377809 -0.25720489
-0.080425426 0.0056130486 -0.25717312
-0.080424532 0.0056861006 -0.25713146
-0.080423757 0.0057610627 -0.25708571
-0.080422394 0.005836287 -0.25705194
-0.080420814 0.0059096441 -0.25702423
-0.080419257 0.0059849559 -0.25699449
-0.08041741 0.0060603982 -0.2569707
-0.080414951 0.0061341487 -0.25696096
-0.080412418 0.0062098959 -0.25695115
-0.08041025 0.0062835151 -0.25693545
-0.080407813 0.0063592196 -0.25692365
-0.080405362 0.0064329691 -0.2569139
-0.080402434 0.0065088915 -0.25691211
-0.080398999 0.0065830778 -0.25692233
-0.080395594 0.0066592186 -0.25693053
-0.080392644 0.0067331865 -0.25693077
-0.080389723 0.0068091089 -0.25692895
-0.080386288 0.0068832948 -0.25693917
-0.080382779 0.0069594788 -0.25694937
-0.080379449 0.0070336219 -0.25695759
-0.080376327 0.0071096309 -0.2569598
-0.080373287 0.0071836431 -0.25696203
-0.080370337 0.007257611 -0.25696227
-0.080367513 0.0073334896 -0.25695848
-0.080365054 0.0074072396 -0.25694874
-0.080362715 0.0074829003 -0.25693494
-0.080359407 0.0075589968 -0.25694114
-0.080355383 0.0076334449 -0.25696334
-0.080351874 0.0077096289 -0.25697353
-0.080349222 0.007783466 -0.25696778
-0.080346495 0.0078593008 -0.256962
-0.080343649 0.0079332255 -0.25696021
-0.080340214 0.0080074118 -0.25697047
-0.080336906 0.0080835093 -0.25697666
-0.080334254 0.0081573464 -0.25697088
-0.080331616 0.0082331374 -0.2569631
-0.080328673 0.0083071049 -0.25696334
-0.080325656 0.0083830711 -0.25696355
-0.080322631 0.0084590372 -0.25696373
-0.080319881 0.0085329181 -0.25695997
-0.080317348 0.0086086662 -0.2569502
-0.08031489 0.0086824158 -0.25694045
-0.08031185 0.0087564271 -0.25694269
-0.08030922 0.0088322191 -0.25693491
-0.08030735 0.0089057069 -0.25691319
-0.080305398 0.0089811925 -0.2568914
-0.080303431 0.0090547251 -0.25687167
-0.080300875 0.0091285184 -0.25686392
-0.080297463 0.0092046596 -0.25687212
-0.080293857 0.0092808865 -0.25688428
-0.08029072 0.0093549415 -0.25688854
-0.080287695 0.0094309077 -0.25688872
-0.080284946 0.0095047886 -0.25688499
-0.080281928 0.0095807547 -0.25688517
-0.080278493 0.009654941 -0.25689542
-0.080275178 0.0097310375 -0.25690159
-0.080272235 0.009805006 -0.25690183
-0.080269307 0.0098809283 -0.25690004
-0.080266953 0.0099546351 -0.2568883
-0.080263831 0.010030644 -0.25689048
-0.080259636 0.010107134 -0.25691465
-0.080256015 0.010181407 -0.25692886
-0.080253065 0.010255375 -0.2569291
-0.080250047 0.010331341 -0.25692931
-0.080246143 0.010407699 -0.25694749
-0.080242053 0.010484146 -0.25696963
-0.080239013 0.010558157 -0.2569719
-0.080236651 0.010631864 -0.25696015
-0.080233723 0.010707786 -0.25695834
-0.080230311 0.010783927 -0.25696653
-0.080227464 0.010857851 -0.25696477
-0.080224738 0.010933686 -0.25695896
-0.080221795 0.011007654 -0.2569592
-0.080218479 0.011083751 -0.2569654
-0.080215245 0.01115785 -0.25697163
-0.08021193 0.011233946 -0.25697783
-0.080209002 0.01130987 -0.25697601
-0.080206648 0.011383575 -0.25696427
-0.080204189 0.011457325 -0.25695455
-0.080200583 0.011533553 -0.25696671
-0.08019688 0.011609824 -0.2569809
-0.080193929 0.011683793 -0.25698113
-0.080191106 0.011759671 -0.25697735
-0.080187984 0.011835681 -0.25697953
-0.08018475 0.011909779 -0.25698578
-0.080181628 0.011985789 -0.25698796
-0.080178589 0.012059801 -0.25699019
-0.080175765 0.01213568 -0.25698641
-0.080173016 0.012209561 -0.25698265
-0.080169603 0.012285701 -0.25699085
-0.080166385 0.012361754 -0.25699502
-0.080163732 0.012435592 -0.25698927
-0.080160812 0.012511513 -0.25698745
-0.080157496 0.012587611 -0.25699365
-0.080154255 0.012661709 -0.25699991
-0.080151238 0.012737676 -0.25700009
-0.080148488 0.012811556 -0.25699633
-0.08014527 0.012887609 -0.25700054
-0.080141954 0.012963707 -0.2570067
-0.080139399 0.0130375 -0.25699899
-0.080136672 0.013113335 -0.25699317
-0.08013314 0.013187565 -0.25700539
-0.080129437 0.013263837 -0.25701958
-0.080125928 0.013340021 -0.25702977
-0.080123179 0.013413901 -0.25702602
-0.080120742 0.013489605 -0.25701421
-0.080117717 0.013565572 -0.25701442
-0.080114581 0.013639627 -0.25701866
-0.080111362 0.013715681 -0.25702286
-0.080107957 0.013791821 -0.25703102
-0.080105104 0.013865745 -0.25702927
-0.08010228 0.013941623 -0.25702548
-0.080099143 0.014015679 -0.25702971
-0.080095731 0.01409182 -0.25703791
-0.080092706 0.014167786 -0.25703809
-0.080090269 0.014243489 -0.25702631
-0.080087811 0.01431724 -0.25701657
-0.080085263 0.014391033 -0.25700882
-0.080082625 0.014466824 -0.25700104
-0.080079488 0.01454088 -0.25700527
-0.080076173 0.014616976 -0.25701144
-0.080072954 0.01469303 -0.25701565
-0.080070302 0.014766867 -0.25700989
-0.080067769 0.014842615 -0.25700009
-0.080064848 0.014918537 -0.2569983
-0.080061145 0.014994809 -0.25701249
-0.08005771 0.015068995 -0.25702271
-0.080054395 0.015145091 -0.25702888
-0.080051281 0.015221101 -0.25703108
-0.080048531 0.015294982 -0.25702733
-0.080045603 0.015370904 -0.25702554
-0.080042973 0.015446695 -0.25701773
-0.080040224 0.015520576 -0.25701398
-0.080036908 0.015596674 -0.25702018
-0.080034256 0.015670512 -0.25701442
-0.080031626 0.015746303 -0.25700665
-0.080028407 0.015822355 -0.25701082
-0.080025077 0.015896499 -0.25701904
-0.080021195 0.015974812 -0.2570352
-0.080017202 0.016051214 -0.25705534
-0.080013789 0.016127355 -0.25706354
-0.080010667 0.016203362 -0.25706571
-0.080007918 0.016277244 -0.25706196
-0.080005482 0.016352948 -0.25705019
-0.080002829 0.016426787 -0.25704443
-0.079999223 0.016503014 -0.25705662
-0.079995617 0.016579241 -0.25706881
-0.079992302 0.016655337 -0.25707498
-0.079988986 0.016731435 -0.25708118
-0.079986334 0.016805273 -0.25707543
-0.079983801 0.016881021 -0.25706562
-0.079980955 0.016954944 -0.25706387
-0.07997784 0.017030954 -0.25706607
-0.079974718 0.017106965 -0.25706828
-0.079971597 0.017182972 -0.25707045
-0.079968579 0.017258938 -0.25707066
-0.079965636 0.017332908 -0.2570709
-0.079962514 0.017408917 -0.2570731
-0.079959489 0.017484883 -0.25707328
-0.079956181 0.017560979 -0.25707948
-0.079952769 0.017637121 -0.25708765
-0.079950035 0.017712954 -0.25708187
-0.079947971 0.017786531 -0.25706413
-0.079945609 0.017860238 -0.25705239
-0.079942591 0.017936202 -0.2570526
-0.079939179 0.018012345 -0.25706077
-0.079936057 0.018088354 -0.25706297
-0.079933502 0.018162146 -0.25705522
-0.079930775 0.018237982 -0.25704941
-0.079927929 0.018311907 -0.25704765
-0.079924807 0.018387916 -0.25704986
-0.079922371 0.018463619 -0.25703806
-0.07992021 0.018537238 -0.25702232
-0.079917364 0.018611163 -0.25702059
-0.079913579 0.018689433 -0.25703472
-0.07991007 0.018765617 -0.25704491
-0.079907417 0.018839454 -0.25703913
-0.079905257 0.018913072 -0.25702339
-0.07990253 0.018988907 -0.25701761
-0.079899505 0.019064873 -0.25701782
-0.079896286 0.019140927 -0.25702199
-0.079892874 0.019217066 -0.25703019
-0.079889931 0.019291036 -0.25703043
-0.07988701 0.019366957 -0.25702864
-0.079883888 0.019442968 -0.25703081
-0.079880573 0.019519065 -0.25703701
-0.079877064 0.019595249 -0.25704718
-0.079873756 0.019671345 -0.25705338
-0.079870731 0.019747313 -0.25705355
-0.079868369 0.019821018 -0.25704184
-0.079866499 0.019894505 -0.25702012
-0.079864159 0.019970167 -0.25700632
-0.079861023 0.020044222 -0.25701055
-0.079857044 0.020122578 -0.2570287
-0.079854123 0.020198502 -0.25702688
-0.079851858 0.020272164 -0.25701314
-0.079848938 0.020348085 -0.25701135
-0.079845719 0.020424139 -0.25701553
-0.079842694 0.020500105 -0.25701573
-0.079840437 0.020573767 -0.257002
-0.079838566 0.020647256 -0.25698027
-0.079835445 0.020723265 -0.25698245
-0.079831839 0.020799493 -0.25699463
-0.079829574 0.020873155 -0.2569809
-0.07982704 0.020948904 -0.25697112
-0.079823531 0.021025088 -0.25698128
-0.07982032 0.021101139 -0.25698549
-0.079818152 0.021174759 -0.25696975
-0.079816282 0.021248247 -0.25694802
-0.079813361 0.021324171 -0.25694621
-0.079810046 0.021400267 -0.2569524
-0.079807021 0.021476233 -0.25695258
-0.079804078 0.021550201 -0.25695285
-0.079800881 0.021628208 -0.256955
-0.079798132 0.02170209 -0.25695124
-0.079795212 0.021778012 -0.25694942
-0.07979238 0.02185389 -0.25694564
-0.079790488 0.021925423 -0.25692597
-0.07978835 0.022000998 -0.25690818
-0.079785496 0.022074923 -0.25690642
-0.079782672 0.022150801 -0.25690264
-0.079780415 0.022224464 -0.2568889
-0.079777487 0.022300387 -0.25688708
-0.079774074 0.022376526 -0.25689527
-0.07977096 0.022452537 -0.25689745
-0.079768032 0.022528458 -0.25689566
-0.079765476 0.022602253 -0.25688791
-0.079763509 0.022675782 -0.25686818
-0.079761542 0.022749316 -0.25684845
-0.079759084 0.022823066 -0.25683871
-0.079756819 0.022896729 -0.25682497
-0.079753704 0.022972737 -0.25682718
-0.079748966 0.023053396 -0.25685924
-0.07974489 0.023131797 -0.25687936
-0.07974197 0.02320772 -0.25687754
-0.079739042 0.023283642 -0.25687575
-0.079736099 0.023357611 -0.25687599
-0.079732902 0.023435619 -0.25687814
-0.079729959 0.023509586 -0.25687838
-0.079727329 0.023585377 -0.25687057
-0.079724506 0.023661258 -0.25686678
-0.079721458 0.023735268 -0.25686902
-0.079718262 0.023813276 -0.25687116
-0.07971561 0.023887113 -0.25686544
-0.079713546 0.023960689 -0.25684768
-0.079711579 0.024034219 -0.25682795
-0.07970836 0.024110274 -0.25683215
-0.079704776 0.024188457 -0.25684229
-0.079701655 0.024264466 -0.25684449
-0.079698615 0.024338476 -0.25684673
-0.079695515 0.024416441 -0.25684687
-0.079692669 0.024490366 -0.25684512
-0.079689838 0.024566244 -0.2568413
-0.079687014 0.024642123 -0.25683752
-0.079683699 0.024718219 -0.25684369
-0.079681337 0.024791926 -0.25683197
-0.079679176 0.024865545 -0.25681624
-0.079675786 0.024943639 -0.25682238
-0.079671323 0.025022212 -0.25685048
-0.079667151 0.02510066 -0.25687259
-0.079663463 0.025178885 -0.25688472
-0.079660051 0.025255024 -0.25689292
-0.079656273 0.025333293 -0.25690705
-0.079652198 0.025411695 -0.25692716
-0.079648316 0.025490008 -0.25694329
-0.079644635 0.025568234 -0.25695542
-0.079640739 0.025644591 -0.25697359
-0.079637349 0.025722686 -0.25697973
-0.079634227 0.025798695 -0.25698191
-0.079629861 0.025877226 -0.25700802
-0.079625711 0.025957625 -0.2570281
-0.079622202 0.026033811 -0.2570383
-0.079619005 0.026111817 -0.25704044
-0.07961598 0.026187783 -0.25704062
-0.079612471 0.026263965 -0.25705081
-0.079609081 0.026342062 -0.25705695
-0.079605959 0.026418071 -0.25705916
-0.079602748 0.026494123 -0.25706333
-0.079599433 0.026570223 -0.25706953
-0.079596043 0.026648317 -0.25707567
-0.079592064 0.026726672 -0.25709379
-0.079588085 0.026805028 -0.25711191
-0.079585068 0.026880996 -0.25711209
-0.079582803 0.026954658 -0.25709838
-0.079579316 0.027032796 -0.25710648
-0.079574384 0.027113544 -0.25714254
-0.079569936 0.027194072 -0.25716862
-0.079566449 0.027272211 -0.25717676
-0.079562843 0.027348438 -0.25718892
-0.07955879 0.027428793 -0.25720701
-0.079554908 0.027507106 -0.25722313
-0.07955084 0.027585508 -0.25724325
-0.079546787 0.027665863 -0.25726134
-0.079542808 0.027744219 -0.25727946
-0.07953807 0.027824877 -0.25731149
-0.079534195 0.02790319 -0.25732762
-0.079530314 0.027981505 -0.25734374
-0.079526067 0.028061947 -0.25736582
-0.079521522 0.028142519 -0.2573939
-0.079517081 0.028223047 -0.25741994
-0.079511486 0.028306056 -0.25746793
-0.079505324 0.028391279 -0.25752586
-0.079500787 0.02847185 -0.25755391
-0.079488061 0.028575718 -0.25773329
-0.079042852 0.030249439 -0.26562834
-0.079040237 0.030327186 -0.2656185
-0.079036795 0.030409232 -0.26562256
-0.079033718 0.03048915 -0.26562065
-0.079030834 0.03056898 -0.26561475
-0.079027288 0.030651072 -0.2656208
-0.079023913 0.030731119 -0.26562488
-0.079021133 0.030810907 -0.26561701
-0.079017952 0.030890871 -0.2656171
-0.079014212 0.030973047 -0.26562715
-0.079010867 0.031055052 -0.2656292
-0.079007693 0.031135011 -0.26562929
-0.079004712 0.031214889 -0.26562542
-0.079002291 0.031292547 -0.26561159
-0.078999504 0.031372331 -0.26560369
-0.07899633 0.031452294 -0.26560378
-0.078993253 0.031532213 -0.2656019
-0.078989804 0.031614259 -0.26560593
-0.078986533 0.031694267 -0.26560804
-0.07898365 0.031774096 -0.26560214
-0.078980967 0.03185384 -0.26559228
-0.078977786 0.031933803 -0.26559237
-0.078974247 0.032015894 -0.26559842
-0.078971162 0.032095812 -0.26559651
-0.07896848 0.032175556 -0.26558661
-0.078965768 0.032253347 -0.26557881
-0.078962691 0.032333262 -0.2655769
-0.078959048 0.032415397 -0.26558495
-0.07895568 0.032495447 -0.26558903
-0.078953087 0.032575149 -0.26557714
-0.07895048 0.032652892 -0.2655673
-0.07894703 0.032734938 -0.26557136
-0.078943782 0.032816902 -0.26557142
-0.078940973 0.032894734 -0.26556557
-0.078937896 0.032974653 -0.26556367
-0.078934819 0.033054568 -0.26556176
-0.078931935 0.033134401 -0.26555589
-0.078928389 0.033216491 -0.26556194
-0.078924552 0.033298712 -0.26557398
-0.078921668 0.033378545 -0.26556808
-0.078919254 0.033456203 -0.26555425
-0.080151044 0.0021066843 -0.26582962
-0.080148742 0.0021862537 -0.26581174
-0.080146231 0.0022639558 -0.26579991
-0.08014296 0.002343961 -0.265802
-0.080138691 0.0024224489 -0.26582611
-0.080134928 0.0025026724 -0.26583821
-0.080131851 0.0025825906 -0.2658363
-0.080128655 0.0026605984 -0.26583844
-0.080125384 0.0027406039 -0.26584053
-0.080122404 0.0028204783 -0.26583666
-0.080119811 0.0029001788 -0.26582476
-0.080117106 0.0029779687 -0.26581693
-0.080113731 0.003058017 -0.26582104
-0.080109775 0.0031383284 -0.2658371
-0.080106288 0.0032164671 -0.26584524
-0.080103308 0.0032963413 -0.26584136
-0.080100231 0.0033762599 -0.26583946
-0.080097035 0.0034542673 -0.2658416
-0.080093667 0.0035343166 -0.26584569
-0.080090374 0.0036123674 -0.26584983
-0.080087297 0.0036922856 -0.26584795
-0.080083922 0.0037723354 -0.26585203
-0.080080844 0.0038522531 -0.26585013
-0.080078065 0.0039320407 -0.26584226
-0.080074765 0.0040100925 -0.2658464
-0.080071203 0.0040902281 -0.26585448
-0.08006791 0.0041682795 -0.26585862
-0.08006493 0.0042481543 -0.26585475
-0.080061555 0.0043282034 -0.26585883
-0.080058262 0.0044062543 -0.26586297
-0.080054991 0.00448626 -0.26586509
-0.080051623 0.004566309 -0.26586917
-0.080048352 0.0046463152 -0.26587126
-0.080045469 0.0047261463 -0.26586539
-0.080042563 0.0048040226 -0.26586151
-0.080039293 0.0048840279 -0.26586363
-0.080035917 0.0049640769 -0.26586771
-0.080033116 0.0050419103 -0.26586187
-0.080030523 0.0051216101 -0.26585001
-0.080027349 0.0052015726 -0.2658501
-0.080422193 0.0052409894 -0.25758868
-0.080425024 0.005314338 -0.25746906
-0.080425225 0.0053888639 -0.25740337
-0.080428079 0.0054641664 -0.25728166
-0.080428667 0.0055385185 -0.25720799
-0.080427207 0.0056137862 -0.25717622
-0.08042641 0.0056867944 -0.25713253
-0.080425628 0.005761757 -0.25708678
-0.080424264 0.0058369813 -0.25705302
-0.080422685 0.0059103388 -0.2570253
-0.080421127 0.0059856502 -0.25699556
-0.08041928 0.0060610925 -0.25697178
-0.080416918 0.0061347992 -0.25696003
-0.080414288 0.0062105907 -0.25695226
-0.080412127 0.0062842094 -0.25693652
-0.080409691 0.0063599134 -0.25692475
-0.080407232 0.0064336639 -0.25691497
-0.080404311 0.0065095862 -0.25691319
-0.080400974 0.0065837284 -0.25692141
-0.080397464 0.0066599129 -0.2569316
-0.080394618 0.0067338371 -0.25692984
-0.080391593 0.0068098032 -0.25693005
-0.080388166 0.0068839896 -0.25694028
-0.080384657 0.0069601731 -0.25695044
-0.080381319 0.0070343162 -0.25695866
-0.080378197 0.0071103256 -0.25696087
-0.080375157 0.0071843374 -0.2569631
-0.080372214 0.0072583053 -0.25696337
-0.080369487 0.0073341406 -0.25695756
-0.080366835 0.0074079777 -0.25695181
-0.080364592 0.0074835946 -0.25693604
-0.080361277 0.0075596916 -0.25694221
-0.080357261 0.0076341392 -0.25696445
-0.080353752 0.0077103237 -0.25697461
-0.080351099 0.0077841608 -0.25696886
-0.080348372 0.0078599956 -0.25696307
-0.080345526 0.0079339202 -0.25696132
-0.080342092 0.0080081066 -0.25697154
-0.080338776 0.0080842031 -0.25697774
-0.080336124 0.0081580402 -0.25697199
-0.080333494 0.0082338322 -0.25696421
-0.080330551 0.0083077997 -0.25696445
-0.080327526 0.0083837658 -0.25696462
-0.080324508 0.0084597319 -0.25696483
-0.080321662 0.0085336566 -0.25696307
-0.080319226 0.0086093601 -0.25695127
-0.080316767 0.0086831106 -0.25694153
-0.080313727 0.0087571219 -0.25694376
-0.080311097 0.0088329138 -0.25693598
-0.080309227 0.0089064017 -0.25691426
-0.080307275 0.0089818882 -0.2568925
-0.080305308 0.0090554198 -0.25687277
-0.080302753 0.0091292132 -0.25686502
-0.080299437 0.0092053097 -0.25687119
-0.080295734 0.0092815813 -0.25688538
-0.080292694 0.0093555935 -0.25688761
-0.080289669 0.0094315596 -0.25688779
-0.080286823 0.0095054833 -0.25688607
-0.080283806 0.0095814494 -0.25688624
-0.080280371 0.0096556358 -0.2568965
-0.080277056 0.0097317323 -0.25690266
-0.080274113 0.0098057007 -0.25690293
-0.080271184 0.0098816231 -0.25690112
-0.08026883 0.0099553298 -0.25688937
-0.080265708 0.010031339 -0.25689158
-0.080261618 0.010107785 -0.25691372
-0.080257893 0.010182102 -0.25692996
-0.080255046 0.010256026 -0.25692821
-0.080251925 0.010332036 -0.25693038
-0.080248125 0.010408351 -0.25694656
-0.080244027 0.010484797 -0.25696874
-0.080240987 0.010558808 -0.25697097
-0.080238529 0.010632559 -0.25696123
-0.080235705 0.010708437 -0.25695741
-0.080232367 0.01078258 -0.25696567
-0.080229253 0.010858589 -0.25696784
-0.080226615 0.010934381 -0.25696006
-0.080223672 0.011008348 -0.2569603
-0.080220357 0.011084446 -0.25696647
-0.080217123 0.011158545 -0.25697273
-0.080213904 0.011234598 -0.2569769
-0.080210887 0.011310564 -0.25697711
-0.080208525 0.01138427 -0.25696537
-0.080206066 0.01145802 -0.25695562
-0.080202557 0.011534205 -0.25696582
-0.080198757 0.011610519 -0.25698197
-0.080195814 0.011684488 -0.25698224
-0.080193087 0.011760322 -0.25697643
-0.080189966 0.011836332 -0.25697863
-0.080186732 0.011910431 -0.25698486
-0.080183513 0.011986485 -0.25698906
-0.080180466 0.012060496 -0.2569913
-0.080177642 0.012136375 -0.25698748
-0.080174893 0.012210255 -0.25698376
-0.080171481 0.012286396 -0.25699192
-0.08016827 0.012362449 -0.2569961
-0.080165617 0.012436287 -0.25699037
-0.080162689 0.012512209 -0.25698856
-0.080159374 0.012588305 -0.25699475
-0.08015614 0.012662404 -0.25700098
-0.080153115 0.01273837 -0.25700116
-0.080150366 0.012812251 -0.25699744
-0.080147058 0.012888348 -0.25700361
-0.080143839 0.012964401 -0.25700781
-0.080141284 0.013038195 -0.25700006
-0.080138557 0.01311403 -0.25699428
-0.080135025 0.01318826 -0.2570065
-0.080131322 0.013264531 -0.25702065
-0.080127813 0.013340715 -0.25703084
-0.080125064 0.013414596 -0.25702709
-0.080122627 0.013490301 -0.25701532
-0.080119602 0.013566267 -0.25701553
-0.080116466 0.013640322 -0.25701976
-0.080113247 0.013716375 -0.25702393
-0.080109835 0.013792516 -0.25703213
-0.080106892 0.013866483 -0.25703236
-0.080104165 0.013942318 -0.25702655
-0.080101028 0.014016374 -0.25703079
-0.080097616 0.014092514 -0.25703901
-0.080094591 0.01416848 -0.25703919
-0.080092154 0.014244185 -0.25702739
-0.080089696 0.014317935 -0.25701767
-0.080087148 0.014391728 -0.25700992
-0.080084518 0.01446752 -0.25700212
-0.080081373 0.014541575 -0.25700635
-0.080078058 0.014617671 -0.25701255
-0.080074847 0.014693725 -0.25701672
-0.080072194 0.014767562 -0.257011
-0.080069661 0.01484331 -0.25700119
-0.080066815 0.014917234 -0.25699943
-0.08006303 0.014995504 -0.25701356
-0.080059499 0.015069734 -0.25702578
-0.08005628 0.015145786 -0.25702998
-0.080053166 0.015221797 -0.25703219
-0.080050237 0.015297719 -0.25703037
-0.080047391 0.015371644 -0.25702864
-0.080044761 0.015447435 -0.25702083
-0.080042109 0.015521272 -0.25701508
-0.080038898 0.015597325 -0.25701928
-0.080036245 0.015671164 -0.25701353
-0.080033615 0.015746955 -0.25700572
-0.0800303 0.015823051 -0.25701192
-0.080026962 0.015897194 -0.25702015
-0.08002308 0.015975507 -0.25703627
-0.080019087 0.016051907 -0.25705644
-0.080015674 0.01612805 -0.25706464
-0.08001256 0.016204059 -0.25706682
-0.080009803 0.016277939 -0.25706306
-0.080007374 0.016353644 -0.25705129
-0.080004722 0.016427482 -0.25704554
-0.080001116 0.016503708 -0.2570577
-0.07999751 0.016579937 -0.25706989
-0.079994194 0.016656034 -0.25707608
-0.079990879 0.01673213 -0.25708228
-0.079988226 0.016805967 -0.2570765
-0.079985693 0.016881716 -0.25706673
-0.079982847 0.01695564 -0.25706497
-0.079979725 0.017031649 -0.25706717
-0.079976603 0.017107658 -0.25706935
-0.079973586 0.017183624 -0.25706956
-0.079970568 0.01725959 -0.25706977
-0.079967618 0.01733356 -0.25707
-0.079964504 0.017409569 -0.25707218
-0.079961382 0.017485578 -0.25707439
-0.079958066 0.017561674 -0.25708055
-0.079954654 0.017637815 -0.25708875
-0.079951927 0.017713651 -0.25708294
-0.079949863 0.017787226 -0.25706524
