# .PCD v0.7 - Point Cloud Data file format
VERSION 0.7
FIELDS x y z
SIZE 4 4 4
TYPE F F F
COUNT 1 1 1
WIDTH 749
HEIGHT 1
VIEWPOINT 0 0 0 1 0 0 0
POINTS 749
DATA ascii
-0.12519333 0.047869202 -0.23677257
-0.12518942 0.047945559 -0.23679075
-0.12518427 0.048024438 -0.23683284
-0.12517709 0.048106182 -0.23691483
-0.12516885 0.048188407 -0.23701878
-0.12516059 0.048270632 -0.23712274
-0.12515429 0.048351988 -0.23718676
-0.12514614 0.048434168 -0.23728871
-0.12513287 0.048524521 -0.23749039
-0.12511566 0.048620563 -0.23776984
-0.12508166 0.048741773 -0.23837844
-0.12507217 0.048826516 -0.2385063
-0.12506415 0.048912562 -0.23860219
-0.12505379 0.048999652 -0.23874599
-0.12504402 0.049086485 -0.2388778
-0.1250324 0.049174141 -0.23904759
-0.12501569 0.049271923 -0.239315
-0.1250037 0.04936171 -0.23949072
-0.12499094 0.049453795 -0.23968038
-0.12497916 0.049545448 -0.23985004
-0.12496959 0.049632192 -0.23997787
-0.12496135 0.049716372 -0.24007979
-0.12495334 0.049802419 -0.24017566
-0.12494511 0.049886599 -0.24027756
-0.124937 0.049972687 -0.24037543
-0.12492964 0.050056476 -0.24045938
-0.12492258 0.050140131 -0.24053732
-0.12491544 0.050225787 -0.24061522
-0.12490944 0.050307013 -0.24067324
-0.1249024 0.05039262 -0.24074915
-0.12489099 0.050482146 -0.24091288
-0.12538709 0.047684133 -0.23287964
-0.12535384 0.047867842 -0.23342079
-0.12534308 0.047953151 -0.23357463
-0.12533104 0.048039027 -0.23375443
-0.12531033 0.048138592 -0.23410374
-0.12530026 0.0482236 -0.2342436
-0.12528427 0.048315167 -0.2345012
-0.12527601 0.048397392 -0.23460516
-0.12526882 0.048477188 -0.23468918
-0.12526028 0.048559539 -0.23479913
-0.12525058 0.048644371 -0.23493101
-0.1252407 0.048729293 -0.23506686
-0.12523119 0.048814036 -0.23519474
-0.12522274 0.04889635 -0.23530269
-0.12521355 0.048980962 -0.23542458
-0.12515339 0.049139373 -0.2365478
-0.12514506 0.049223594 -0.23665172
-0.12513575 0.049308255 -0.23677558
-0.12512577 0.049393214 -0.23691346
-0.12511685 0.0494777 -0.23702934
-0.12510882 0.049561791 -0.23712726
-0.12510155 0.049643584 -0.23721124
-0.1250941 0.049727414 -0.23729718
-0.12508558 0.049811721 -0.23740509
-0.12507772 0.049895726 -0.237499
-0.12507057 0.049979426 -0.23757896
-0.1250633 0.050061218 -0.23766294
-0.12505624 0.050144874 -0.23774089
-0.12504993 0.05022623 -0.23780489
-0.12504363 0.050307583 -0.23786891
-0.12503752 0.05038885 -0.23792893
-0.1250325 0.050469637 -0.23796698
-0.12502842 0.050548039 -0.2379871
-0.12502433 0.050626438 -0.23800722
-0.12501948 0.050705187 -0.23804334
-0.12501416 0.050786104 -0.23808737
-0.12500902 0.050866935 -0.23812741
-0.12500446 0.05094555 -0.23815754
-0.12499913 0.051026471 -0.23820157
-0.12499283 0.051107824 -0.23826559
-0.12498569 0.051193483 -0.23834349
-0.12497477 0.051282786 -0.23849723
-0.12496348 0.051374219 -0.23865692
-0.12495114 0.051468089 -0.23883653
-0.12558542 0.04688146 -0.22939345
-0.12557539 0.046962515 -0.2295354
-0.12556702 0.047042828 -0.22964339
-0.12556008 0.047118582 -0.22972551
-0.12555151 0.047198981 -0.22983751
-0.12554257 0.047279555 -0.22995749
-0.12553322 0.047360305 -0.23008546
-0.1255227 0.047441579 -0.23023739
-0.1255123 0.047524758 -0.2303853
-0.12550354 0.047605246 -0.23050129
-0.12549525 0.047683563 -0.23060933
-0.12548168 0.047772091 -0.23081905
-0.12546924 0.047856189 -0.23100887
-0.12546048 0.047936678 -0.23112485
-0.12544933 0.048022162 -0.23128667
-0.12543593 0.048108645 -0.23149446
-0.12542419 0.048194394 -0.23166825
-0.12541187 0.048280403 -0.23185405
-0.12539849 0.048368841 -0.23205976
-0.12538414 0.048457716 -0.23228545
-0.12537122 0.048543986 -0.23248324
-0.12536035 0.04862934 -0.23263906
-0.12534747 0.048717562 -0.23283479
-0.12533477 0.048805699 -0.23302653
-0.1253242 0.048890922 -0.23317638
-0.1253116 0.048979014 -0.2333661
-0.12529719 0.049071841 -0.23358971
-0.12527977 0.04916602 -0.23387522
-0.12525859 0.049267758 -0.23423249
-0.12523511 0.04937445 -0.23463359
-0.12521908 0.049469974 -0.23488909
-0.12520793 0.04955741 -0.23504886
-0.1251992 0.049639855 -0.23516281
-0.12519163 0.049721774 -0.2352528
-0.12518428 0.049805563 -0.23533672
-0.12517747 0.04988518 -0.23541278
-0.12517068 0.049966753 -0.23548678
-0.12516457 0.05004802 -0.2355468
-0.1251592 0.050125029 -0.23559493
-0.12515388 0.05020595 -0.23563896
-0.12514843 0.050284959 -0.23568705
-0.1251431 0.050363921 -0.23573314
-0.12513803 0.050442755 -0.23577324
-0.12513354 0.050519377 -0.2358034
-0.12512927 0.050597861 -0.23582751
-0.1251252 0.05067626 -0.23584762
-0.1251213 0.050752617 -0.2358658
-0.12511767 0.050828844 -0.23587799
-0.12511358 0.050905287 -0.23590015
-0.12510911 0.050983861 -0.23592827
-0.12510493 0.051062305 -0.23595038
-0.12510085 0.051140703 -0.23597051
-0.12509626 0.051217366 -0.23600265
-0.12508997 0.051298723 -0.23606668
-0.12508212 0.051382728 -0.23616061
-0.12507372 0.051468946 -0.23626447
-0.12506473 0.051555429 -0.23638031
-0.12505601 0.051639825 -0.2364922
-0.12503943 0.051739518 -0.23675561
-0.1250114 0.051860023 -0.2372403
-0.12494704 0.0520478 -0.23842677
-0.12492865 0.052154183 -0.238722
-0.12492245 0.052235492 -0.23878402
-0.12566331 0.046717115 -0.2278989
-0.12565754 0.046792343 -0.22795707
-0.12565099 0.046867922 -0.2280312
-0.12564328 0.046945978 -0.22812727
-0.12563701 0.047021426 -0.22819541
-0.12563103 0.047096744 -0.22825757
-0.125624 0.047172539 -0.2283417
-0.12561406 0.047253549 -0.22848165
-0.12560463 0.047334343 -0.22861162
-0.125597 0.047410399 -0.22870773
-0.12558833 0.047490843 -0.22882172
-0.1255786 0.047571767 -0.22895767
-0.12556955 0.047652386 -0.22907966
-0.12555961 0.047733396 -0.22921962
-0.1255495 0.047814492 -0.22936356
-0.12553939 0.047897547 -0.22950545
-0.12552764 0.047981337 -0.22968131
-0.12551685 0.048064694 -0.22983719
-0.12550625 0.048147961 -0.22998908
-0.12549275 0.048234493 -0.23019883
-0.12547939 0.048322931 -0.23040456
-0.12546608 0.048409376 -0.23061031
-0.12545127 0.048500426 -0.23084395
-0.12543583 0.048589781 -0.2310916
-0.12542294 0.048678003 -0.23128733
-0.12541072 0.048763968 -0.23147112
-0.12539734 0.048852406 -0.23167685
-0.12538484 0.048940457 -0.23186459
-0.12536617 0.049037151 -0.23217402
-0.12534602 0.049134504 -0.2325134
-0.12532985 0.049228113 -0.23277295
-0.12531582 0.049318813 -0.23299059
-0.12530304 0.04940895 -0.23318228
-0.12529227 0.049494259 -0.23333612
-0.12528171 0.049579483 -0.23348597
-0.1252728 0.049663968 -0.23360187
-0.12526532 0.049745843 -0.23368984
-0.12525851 0.04982546 -0.23376589
-0.12525257 0.049904689 -0.23382396
-0.12524724 0.04998365 -0.23387003
-0.12524255 0.050060358 -0.23390418
-0.12523796 0.050137021 -0.23393634
-0.1252332 0.050215725 -0.23397045
-0.12522832 0.050292514 -0.23400858
-0.12522317 0.050371394 -0.23405069
-0.12521848 0.050448101 -0.23408484
-0.12521458 0.050524458 -0.23410301
-0.12521127 0.050600555 -0.23410919
-0.12520812 0.05067461 -0.23411345
-0.1252048 0.050750703 -0.23411964
-0.12520118 0.05082693 -0.23413181
-0.12519708 0.050903376 -0.23415399
-0.1251927 0.05097995 -0.23418215
-0.1251882 0.051056571 -0.23421231
-0.12518325 0.051135361 -0.2342504
-0.1251778 0.051214367 -0.23429848
-0.12517171 0.051295638 -0.2343585
-0.12516491 0.051377207 -0.2344325
-0.12515754 0.05145904 -0.23451848
-0.12514873 0.051543482 -0.23463237
-0.12513849 0.051632486 -0.23477215
-0.12512796 0.051721618 -0.23491789
-0.12511425 0.051816095 -0.23512548
-0.12509727 0.051915962 -0.23539686
-0.12504233 0.052085791 -0.23640192
-0.12503815 0.052164234 -0.23642403
-0.12499003 0.052321196 -0.23729752
-0.12497615 0.052417718 -0.23750705
-0.12570623 0.046601158 -0.22711515
-0.12569842 0.046679255 -0.22721322
-0.12569059 0.0467554 -0.22731331
-0.12568443 0.046830803 -0.22737947
-0.12567855 0.046906076 -0.22743964
-0.12567092 0.046982132 -0.22753574
-0.12566109 0.047063101 -0.22767371
-0.1256528 0.047141418 -0.22778174
-0.1256448 0.047219601 -0.2278838
-0.12563439 0.04730083 -0.22803374
-0.12562454 0.047379844 -0.22817373
-0.12561421 0.047461025 -0.22832169
-0.12560284 0.047544643 -0.22848955
-0.12559234 0.047625914 -0.22864148
-0.12558037 0.047709793 -0.22882134
-0.12556928 0.047791325 -0.22898525
-0.12555695 0.047877334 -0.22917104
-0.125539 0.047969773 -0.22946858
-0.12552457 0.048058692 -0.22969627
-0.12550826 0.048148438 -0.2299619
-0.12548976 0.048243094 -0.23026937
-0.12547588 0.048331752 -0.23048508
-0.12546192 0.048420455 -0.23070277
-0.12544768 0.048509285 -0.23092647
-0.12543322 0.048598208 -0.23115414
-0.12541482 0.048692819 -0.23145963
-0.12539613 0.048789516 -0.23176906
-0.12538083 0.048880782 -0.23201267
-0.125369 0.048966572 -0.23218848
-0.12535891 0.049051575 -0.23232833
-0.12535025 0.049132019 -0.23244232
-0.12534115 0.049216591 -0.23256221
-0.12533277 0.049296908 -0.23267022
-0.12532577 0.049376611 -0.23275025
-0.12531915 0.049456142 -0.2328223
-0.12531322 0.049535368 -0.23288037
-0.12530805 0.049612291 -0.23292451
-0.12530316 0.049689084 -0.23296264
-0.12529878 0.049765658 -0.2329908
-0.12529458 0.049842145 -0.23301497
-0.12529047 0.049916636 -0.2330392
-0.12528607 0.049993213 -0.23306735
-0.12528187 0.050069701 -0.2330915
-0.12527826 0.050145924 -0.23310369
-0.12527521 0.050219938 -0.23310594
-0.12527217 0.050293949 -0.23310819
-0.12526922 0.050367918 -0.23310843
-0.12526608 0.050441973 -0.23311266
-0.12526247 0.0505182 -0.23312485
-0.12525827 0.050594687 -0.23314902
-0.12525387 0.050671261 -0.23317719
-0.12524958 0.050747793 -0.23320335
-0.1252448 0.050824542 -0.23323949
-0.12523916 0.050903641 -0.23329157
-0.12523283 0.050983038 -0.23335762
-0.12522537 0.051064916 -0.23344561
-0.12521733 0.051149007 -0.23354353
-0.12520851 0.051233448 -0.23365742
-0.12519778 0.051322669 -0.23380716
-0.12518688 0.051411971 -0.2339609
-0.12517527 0.051501587 -0.23412862
-0.12516136 0.05159615 -0.23434021
-0.12512833 0.051724784 -0.23492262
-0.12509771 0.051850375 -0.23545715
-0.12505111 0.052002735 -0.23630278
-0.12503913 0.052094474 -0.23647645
-0.12502573 0.052190773 -0.23667598
-0.12575972 0.045932401 -0.22653675
-0.12575248 0.046008285 -0.22662488
-0.12574573 0.04608395 -0.22670302
-0.1257384 0.046159875 -0.22679313
-0.12573116 0.046235759 -0.22688124
-0.1257249 0.046311207 -0.22694939
-0.12571861 0.0463847 -0.22701959
-0.12570953 0.046463363 -0.22714362
-0.12569843 0.046544895 -0.22730753
-0.12568983 0.04662139 -0.22742361
-0.12568028 0.046702225 -0.22755557
-0.12566985 0.046781499 -0.22770756
-0.12565973 0.046862595 -0.22785151
-0.12564784 0.046944477 -0.2280314
-0.12563704 0.047025878 -0.22818932
-0.12562206 0.047111105 -0.22843109
-0.12560682 0.047198419 -0.2286768
-0.12559584 0.047281861 -0.22883669
-0.12557343 0.047378261 -0.22922404
-0.12555413 0.047471311 -0.22954953
-0.12552787 0.04757531 -0.23001064
-0.12551515 0.047659539 -0.23020646
-0.1255005 0.047748543 -0.23043816
-0.12548691 0.047835119 -0.23064992
-0.12547186 0.047924299 -0.23088959
-0.12545501 0.048016258 -0.23116514
-0.12544094 0.048105001 -0.23138484
-0.12542871 0.048190966 -0.23156863
-0.12541705 0.048274718 -0.2317425
-0.12540521 0.048360504 -0.23191831
-0.1253953 0.04844347 -0.2320562
-0.12538627 0.048526045 -0.23217614
-0.12537754 0.048608486 -0.23229009
-0.12537014 0.048688363 -0.23237813
-0.12536341 0.048765983 -0.23245421
-0.12535729 0.048845299 -0.23251627
-0.12535182 0.048922352 -0.2325664
-0.12534645 0.048999362 -0.23261452
-0.12534156 0.049076155 -0.23265266
-0.12533745 0.049150646 -0.23267688
-0.12533335 0.049227089 -0.23269907
-0.12532906 0.049303621 -0.23272522
-0.12532456 0.049380239 -0.23275536
-0.12531996 0.049454946 -0.23278958
-0.12531556 0.049531523 -0.23281774
-0.12531203 0.04960575 -0.23282996
-0.12530918 0.049679674 -0.2328282
-0.12530643 0.049753554 -0.23282447
-0.12530378 0.049827393 -0.23281872
-0.12530072 0.049901403 -0.23282096
-0.12529689 0.049975764 -0.2328392
-0.12529279 0.050052211 -0.23286135
-0.1252887 0.050128654 -0.23288351
-0.1252843 0.050205227 -0.23291168
-0.12527932 0.050282065 -0.23295182
-0.12527359 0.050361201 -0.2330059
-0.12526737 0.050440557 -0.23306996
-0.12526095 0.050520003 -0.23313802
-0.12525348 0.050601881 -0.233226
-0.12524466 0.050686322 -0.23333989
-0.12523411 0.050773498 -0.2334877
-0.12522326 0.050860807 -0.23364148
-0.12521031 0.050952982 -0.23383512
-0.12519544 0.051047981 -0.23406667
-0.12514132 0.051211555 -0.23505987
-0.12513733 0.051289909 -0.23507801
-0.12509176 0.051437885 -0.23590574
-0.12507845 0.051532187 -0.23610532
-0.12506917 0.0516188 -0.23622715
-0.12580493 0.045203384 -0.22615241
-0.12579924 0.045276616 -0.22621061
-0.12579326 0.045351934 -0.22627278
-0.12578736 0.045425251 -0.22633499
-0.1257806 0.045498963 -0.22641516
-0.12577258 0.045575194 -0.22651926
-0.12576553 0.045650989 -0.22660339
-0.12575956 0.045726307 -0.22666556
-0.12575299 0.04579993 -0.22674173
-0.12574254 0.045879204 -0.22689372
-0.1257322 0.045958433 -0.2270437
-0.12572321 0.0460351 -0.22716777
-0.12571318 0.046116155 -0.22730972
-0.12570274 0.046195429 -0.2274617
-0.1256922 0.046274744 -0.22761568
-0.12568177 0.046354018 -0.22776766
-0.12567078 0.046435509 -0.22792959
-0.1256524 0.046524212 -0.22823921
-0.12564042 0.046606138 -0.22842109
-0.12562951 0.046687584 -0.22858101
-0.12560751 0.046783805 -0.22896039
-0.12558536 0.046878118 -0.2293438
-0.12556769 0.046968475 -0.2296374
-0.12555254 0.047055744 -0.22988111
-0.12553845 0.047142535 -0.23010284
-0.12552322 0.047231801 -0.23034652
-0.12550962 0.047316421 -0.2305603
-0.12549709 0.047402516 -0.23075008
-0.12548427 0.047488738 -0.23094589
-0.12547 0.047575615 -0.23117161
-0.12545709 0.047661886 -0.23136939
-0.1254437 0.047748372 -0.23157716
-0.12543185 0.047834162 -0.23175296
-0.12542155 0.047917299 -0.23189884
-0.12541182 0.047998223 -0.2320348
-0.12540357 0.048080448 -0.23213877
-0.12539645 0.048158243 -0.23222284
-0.12539002 0.048237685 -0.23229091
-0.12538446 0.048314784 -0.23234302
-0.12537917 0.048389792 -0.23239121
-0.12537344 0.048468933 -0.23244527
-0.12536788 0.048546031 -0.23249739
-0.1253628 0.04862291 -0.23253953
-0.12535828 0.048697576 -0.23257175
-0.1253539 0.048774149 -0.23259991
-0.12534931 0.048850812 -0.23263207
-0.1253449 0.048925433 -0.23266226
-0.12534089 0.049001835 -0.23268244
-0.12533727 0.049076106 -0.23269665
-0.12533392 0.049150251 -0.23270491
-0.12533069 0.049224347 -0.23271114
-0.12532744 0.049298443 -0.23271737
-0.12532392 0.049374629 -0.23272756
-0.12532039 0.049448855 -0.23273979
-0.12531656 0.049523219 -0.23275802
-0.12531246 0.049599662 -0.23278019
-0.12530844 0.049674109 -0.23280239
-0.12530415 0.049750641 -0.23282856
-0.12529898 0.049827561 -0.23287269
-0.12529305 0.04990679 -0.23293076
-0.12528673 0.049986191 -0.23299682
-0.12527981 0.050065849 -0.23307486
-0.12527063 0.050152421 -0.23319471
-0.12525921 0.050239988 -0.23336047
-0.12524682 0.05032995 -0.23354417
-0.1252331 0.050422475 -0.2337538
-0.12521973 0.050512865 -0.23395747
-0.12517039 0.050666444 -0.234859
-0.12516621 0.050742935 -0.23488316
-0.12511234 0.050904423 -0.23587245
-0.12510507 0.050986212 -0.23595643
-0.12582333 0.044644259 -0.22625199
-0.12581821 0.04471723 -0.22629821
-0.12581298 0.04478829 -0.22634849
-0.1258073 0.044863477 -0.22640465
-0.12580024 0.044937316 -0.22649083
-0.12579222 0.045013547 -0.22659492
-0.12578554 0.045087215 -0.2266731
-0.12577899 0.045162793 -0.22674724
-0.12577087 0.045239069 -0.22685334
-0.12576137 0.045315951 -0.22698739
-0.12575172 0.045394875 -0.22712341
-0.12574214 0.045471802 -0.22725946
-0.12573229 0.045550816 -0.22739947
-0.12572195 0.045630045 -0.22754943
-0.1257116 0.045709275 -0.22769943
-0.12570195 0.045788202 -0.22783543
-0.12568967 0.0458683 -0.22802536
-0.12567391 0.045953877 -0.22828311
-0.12566261 0.046035498 -0.22845101
-0.12565035 0.046117552 -0.22863889
-0.12563467 0.046203084 -0.22889462
-0.1256195 0.046288397 -0.2291404
-0.12560426 0.046375711 -0.22938609
-0.12558724 0.046463806 -0.22966775
-0.12557277 0.046550773 -0.22989748
-0.12555994 0.046635039 -0.2300953
-0.12554613 0.046719745 -0.23031309
-0.12553552 0.04680106 -0.23046702
-0.12552415 0.046884678 -0.2306349
-0.1255115 0.046968862 -0.23082873
-0.12549675 0.047055956 -0.23106444
-0.12548073 0.047145572 -0.23132408
-0.12546511 0.047235012 -0.23157574
-0.1254486 0.047324844 -0.23184536
-0.12543473 0.04741155 -0.23206311
-0.12542354 0.047495082 -0.23222698
-0.12541431 0.047577739 -0.23235092
-0.1254068 0.047655709 -0.23244298
-0.1253998 0.047735412 -0.23252302
-0.12539336 0.047812901 -0.23259312
-0.12538743 0.047892127 -0.23265119
-0.12538157 0.047969356 -0.2327093
-0.12537582 0.048046537 -0.23276542
-0.12537044 0.04812355 -0.23281354
-0.12536538 0.048200428 -0.23285569
-0.12536059 0.048277177 -0.23289184
-0.12535572 0.04835397 -0.23292999
-0.12535082 0.048428807 -0.23297018
-0.12534632 0.048505425 -0.23300034
-0.12534232 0.048581827 -0.23302051
-0.12533869 0.048656099 -0.23303473
-0.12533498 0.04873237 -0.23304892
-0.12533125 0.048806686 -0.23306513
-0.12532781 0.048880871 -0.23307537
-0.12532428 0.048955102 -0.2330876
-0.12532027 0.049031503 -0.23310778
-0.12531628 0.049107902 -0.23312795
-0.12531225 0.049182348 -0.23315015
-0.12530786 0.049258925 -0.23317832
-0.12530242 0.049337931 -0.23322639
-0.1252958 0.049417462 -0.23329845
-0.12528841 0.049497344 -0.23338647
-0.12528045 0.049579434 -0.23348445
-0.12527144 0.049663965 -0.23360233
-0.12526214 0.049748622 -0.2337262
-0.12524137 0.04985214 -0.23407345
-0.12521982 0.049956005 -0.23443665
-0.12515713 0.05012536 -0.23560357
-0.12514167 0.050220624 -0.23584709
-0.12513122 0.050307758 -0.23599288
-0.12512694 0.050386243 -0.23601702
-0.12581363 0.044384193 -0.2266905
-0.12580444 0.044460945 -0.22681859
-0.12579776 0.044534612 -0.22689676
-0.12579216 0.044607803 -0.22695297
-0.1257861 0.044683162 -0.22701713
-0.12577844 0.044757266 -0.22711527
-0.12577052 0.044833452 -0.22721739
-0.12576269 0.044909596 -0.22731748
-0.12575428 0.044986002 -0.22742957
-0.12574558 0.045062538 -0.22754766
-0.1257363 0.045139335 -0.22767772
-0.12572664 0.045218259 -0.22781372
-0.12571639 0.045297448 -0.22796172
-0.12570497 0.045377158 -0.22813366
-0.12569405 0.045456648 -0.22829562
-0.12568459 0.045535486 -0.22842765
-0.12567182 0.045615803 -0.22862756
-0.12565471 0.045703944 -0.22891122
-0.12564564 0.045782607 -0.22903523
-0.12563182 0.045867313 -0.22925302
-0.12561421 0.045953717 -0.22954871
-0.12560157 0.046037901 -0.22974253
-0.1255834 0.046126522 -0.23004815
-0.12556387 0.046217702 -0.2303797
-0.12555201 0.04630154 -0.23055755
-0.12553956 0.046383679 -0.23074943
-0.12552604 0.046468258 -0.23096123
-0.12551613 0.04655122 -0.23109913
-0.12550434 0.046633057 -0.23127703
-0.12549163 0.046719238 -0.23147082
-0.12547909 0.046803378 -0.23166265
-0.12546577 0.046887867 -0.23187046
-0.12544473 0.046983656 -0.23222986
-0.12541817 0.047085833 -0.23269901
-0.12540497 0.047172233 -0.23290278
-0.12539503 0.047253244 -0.23304273
-0.12538649 0.047335599 -0.23315269
-0.125379 0.047415521 -0.23324269
-0.12537237 0.047493096 -0.23331679
-0.12536556 0.047572717 -0.23339283
-0.12535845 0.047652461 -0.23347488
-0.12535174 0.047732037 -0.23354891
-0.12534618 0.047809135 -0.23360105
-0.12534025 0.047888361 -0.23365912
-0.12533392 0.047967762 -0.23372516
-0.12532827 0.048044901 -0.2337793
-0.12532339 0.048121694 -0.23381744
-0.1253186 0.048198443 -0.23385359
-0.12531392 0.04827515 -0.23388773
-0.12530944 0.048351768 -0.23391789
-0.12530524 0.048428256 -0.23394206
-0.1253017 0.048502486 -0.2339543
-0.12529808 0.048578709 -0.23396647
-0.12529409 0.048655115 -0.23398665
-0.1252898 0.048731644 -0.23401281
-0.12528597 0.048806004 -0.23403102
-0.12528226 0.048882276 -0.23404521
-0.12527786 0.048958849 -0.23407337
-0.12527154 0.04903825 -0.23413943
-0.12526378 0.049120259 -0.23423341
-0.12525649 0.049202047 -0.23431738
-0.1252497 0.049281664 -0.23439342
-0.12524183 0.049363717 -0.2344894
-0.12523051 0.049451239 -0.23465317
-0.12517495 0.049676318 -0.23562495
-0.12576611 0.044429138 -0.22768106
-0.12576412 0.044500716 -0.22766338
-0.12575881 0.044573776 -0.2277136
-0.12575187 0.044649526 -0.22779574
-0.12574364 0.044725846 -0.22790383
-0.12573417 0.044802729 -0.22803789
-0.12572527 0.044879355 -0.22815996
-0.12571706 0.044955671 -0.22826806
-0.12570798 0.045034334 -0.22839206
-0.12569715 0.045113783 -0.22855204
-0.12568545 0.04519362 -0.22872999
-0.12567316 0.045273721 -0.22891992
-0.12566148 0.045355514 -0.22909582
-0.12565163 0.045434527 -0.22923583
-0.12563491 0.045522492 -0.2295115
-0.12562089 0.045605332 -0.22973531
-0.12561083 0.045684431 -0.22987932
-0.12559421 0.045772351 -0.23015298
-0.12558042 0.045857057 -0.23037076
-0.1255513 0.045958415 -0.2308939
-0.12553951 0.046040252 -0.2310718
-0.12552358 0.046127867 -0.23133148
-0.12550949 0.046212703 -0.23155527
-0.12549664 0.046296973 -0.23175308
-0.12548691 0.046377897 -0.23188904
-0.12547496 0.046461776 -0.2320689
-0.12546375 0.046543352 -0.23223481
-0.12545307 0.046626665 -0.23238871
-0.12544209 0.046710107 -0.23254856
-0.12543072 0.046793725 -0.23271644
-0.12538616 0.046917681 -0.23354274
-0.12537614 0.046998732 -0.23368469
-0.12536566 0.047083914 -0.23383254
-0.12535623 0.047164708 -0.23396251
-0.12534767 0.04724706 -0.23407246
-0.12534039 0.047326896 -0.23415849
-0.12533358 0.047406513 -0.23423454
-0.12532619 0.047486395 -0.23432256
-0.12531869 0.047566317 -0.23441258
-0.12531208 0.047645845 -0.23448464
-0.12530556 0.047725335 -0.23455468
-0.12529942 0.047804646 -0.23461676
-0.12529379 0.047883742 -0.23466882
-0.12528813 0.047960881 -0.23472294
-0.12528269 0.048039891 -0.23477103
-0.1252778 0.048116684 -0.23480919
-0.12527303 0.048193432 -0.23484534
-0.12526807 0.048272222 -0.23488343
-0.12526378 0.048348755 -0.23490959
-0.12526035 0.048424892 -0.23491777
-0.12525673 0.048499167 -0.23493201
-0.12525272 0.048575569 -0.23495217
-0.12524836 0.048654098 -0.23497829
-0.12524366 0.048730802 -0.23501244
-0.12523833 0.048809767 -0.23505853
-0.12523229 0.048889037 -0.2351186
-0.12522598 0.048968438 -0.23518465
-0.12521899 0.049050096 -0.23526265
-0.12521149 0.049130019 -0.23535267
-0.12520085 0.049217239 -0.23550247
-0.12518546 0.049310502 -0.23574603
-0.12517983 0.049389601 -0.23579812
-0.12510012 0.049580295 -0.23730221
-0.12571946 0.044749405 -0.22839977
-0.12570959 0.044826463 -0.22854181
-0.12569818 0.044906173 -0.22871377
-0.12569037 0.04498427 -0.22881183
-0.12568244 0.045060456 -0.22891393
-0.12567103 0.045140166 -0.22908589
-0.12565847 0.045222349 -0.22927976
-0.12564561 0.045304667 -0.22947961
-0.12563354 0.045386635 -0.22966352
-0.12562369 0.045465644 -0.2298035
-0.12560646 0.045551874 -0.23009121
-0.12559226 0.045636754 -0.230317
-0.1255825 0.045715723 -0.230455
-0.12556455 0.045806207 -0.23075458
-0.12555489 0.045885131 -0.23089059
-0.12552325 0.045989573 -0.23146358
-0.12551314 0.046070669 -0.23160753
-0.12549351 0.046161894 -0.23194107
-0.12547806 0.046249293 -0.23219077
-0.12546726 0.046330694 -0.2323487
-0.12545696 0.046413831 -0.23249459
-0.12544498 0.046495758 -0.23267649
-0.12543468 0.046578895 -0.23282239
-0.12542455 0.046659991 -0.23296633
-0.12541337 0.046743523 -0.2331302
-0.12540047 0.04682979 -0.23332798
-0.12535688 0.046953306 -0.23413432
-0.12534669 0.047036402 -0.23427822
-0.12533475 0.047122236 -0.23445602
-0.12532493 0.047205154 -0.23459193
-0.12531659 0.047287423 -0.23469788
-0.12530929 0.04736726 -0.23478392
-0.12530218 0.047447007 -0.23486595
-0.12529422 0.047529101 -0.23496392
-0.12528692 0.047608934 -0.23504995
-0.12528041 0.047688425 -0.23512
-0.12527323 0.047770169 -0.23520198
-0.12526652 0.047849745 -0.23527603
-0.12526068 0.047928926 -0.2353321
-0.12525474 0.048006196 -0.23539221
-0.125249 0.048085336 -0.2354463
-0.12524374 0.048164256 -0.23549038
-0.12523896 0.048241004 -0.23552653
-0.12523459 0.048319533 -0.23555264
-0.12523098 0.04839576 -0.23556483
-0.12522727 0.048472032 -0.23557901
-0.12522297 0.048548564 -0.23560518
-0.12521809 0.048625357 -0.23564331
-0.12521294 0.048704233 -0.23568541
-0.12520789 0.048783068 -0.23572549
-0.12520292 0.048861858 -0.23576361
-0.1251971 0.048941039 -0.23581967
-0.12519057 0.049020529 -0.23588973
-0.12518311 0.049102403 -0.23597771
-0.12517467 0.049186669 -0.23608361
-0.12516403 0.049273893 -0.23623341
-0.12515529 0.049356334 -0.23634735
-0.12562825 0.045390248 -0.22974899
-0.12561344 0.045473434 -0.2299888
-0.12560157 0.045557268 -0.23016664
-0.12559007 0.045637019 -0.2303406
-0.12557189 0.045725636 -0.23064622
-0.12556098 0.045807082 -0.23080614
-0.12553787 0.045901828 -0.23120953
-0.12549855 0.046084322 -0.23187861
-0.12549481 0.046158638 -0.23189482
-0.12545981 0.046268508 -0.23253363
-0.12544958 0.046349648 -0.23267959
-0.12543871 0.04643305 -0.23283747
-0.12542917 0.046513885 -0.23296943
-0.12542021 0.04659446 -0.23308942
-0.12541087 0.046675209 -0.23321739
-0.12540047 0.046758391 -0.23336527
-0.12538968 0.046841748 -0.23352116
-0.1253788 0.046925146 -0.23367903
-0.12536889 0.047008108 -0.23381695
-0.12532145 0.047137275 -0.23469907
-0.1253102 0.047222804 -0.23486289
-0.12529923 0.047308199 -0.23502074
-0.12528981 0.047390945 -0.23514867
-0.12528203 0.047471002 -0.23524468
-0.12527466 0.047552831 -0.23533066
-0.12526765 0.047632538 -0.23541069
-0.12526093 0.04771211 -0.23548475
-0.12525336 0.047794029 -0.23557472
-0.12524493 0.047876343 -0.23568267
-0.12523782 0.04795609 -0.23576471
-0.12523094 0.048037708 -0.23584071
-0.12522413 0.048117325 -0.23591673
-0.1252182 0.048196547 -0.23597482
-0.12521265 0.048275601 -0.2360249
-0.12520672 0.048354827 -0.23608297
-0.12520127 0.048433833 -0.23613106
-0.1251969 0.048512362 -0.23615716
-0.12519319 0.048588634 -0.23617133
-0.12518929 0.048664991 -0.23618953
-0.12518463 0.04874365 -0.23622163
-0.12517916 0.048820704 -0.23627175
-0.12517364 0.048901711 -0.2363198
-0.12516934 0.048978243 -0.23634595
-0.12516448 0.049056992 -0.23638207
-0.12515827 0.049136344 -0.23644611
-0.12515022 0.049220439 -0.23654404
-0.12513986 0.049307529 -0.23668784
-0.12513086 0.049392056 -0.23680574
-0.12538195 0.046280958 -0.23412152
-0.12537494 0.04636066 -0.23420157
-0.12536821 0.04643828 -0.23427765
-0.12536043 0.046518333 -0.23437367
-0.12535235 0.046598516 -0.23447567
-0.12534535 0.046678223 -0.23455572
-0.1253131 0.046788827 -0.23513657
-0.12530094 0.046872795 -0.23532042
-0.1252775 0.046973579 -0.23572566
-0.12526895 0.047053978 -0.23583764
-0.12526177 0.047135726 -0.23591962
-0.1252538 0.047215864 -0.23601964
-0.12524515 0.047298264 -0.23613159
-0.12523653 0.047382616 -0.23624149
-0.12522806 0.047462974 -0.23635149
-0.12521923 0.047545459 -0.23646742
-0.12520944 0.047630336 -0.23660129
-0.12519838 0.047715776 -0.23676112
-0.12518822 0.04780278 -0.23690093
-0.1251788 0.04788553 -0.23702885
-0.12516996 0.047968015 -0.2371448
-0.12516221 0.048051976 -0.23723671
-0.12515531 0.048131637 -0.23731476
-0.12514862 0.048213165 -0.23738676
-0.12514222 0.048294563 -0.23745278
-0.12513494 0.048376352 -0.23753676
-0.12512738 0.048458271 -0.23762673
-0.12512176 0.048539322 -0.23767677
-0.12511536 0.048620719 -0.23774278
-0.12510848 0.048702337 -0.23781878
-0.12510283 0.048781432 -0.23787086
-0.1250951 0.048865393 -0.23796278
