# .PCD v0.7 - Point Cloud Data file format
VERSION 0.7
FIELDS x y z
SIZE 4 4 4
TYPE F F F
COUNT 1 1 1
WIDTH 1268
HEIGHT 1
VIEWPOINT 0 0 0 1 0 0 0
POINTS 1268
DATA ascii
-0.061333563 -0.0098366588 -0.24050248
-0.061330978 -0.0097628646 -0.24049474
-0.061328765 -0.0096911974 -0.24048106
-0.06132618 -0.009617405 -0.24047333
-0.061322935 -0.0095413532 -0.24047753
-0.061319567 -0.0094672125 -0.24048579
-0.061316613 -0.0093912911 -0.240484
-0.061314303 -0.0093195811 -0.24047232
-0.061311349 -0.0092436597 -0.24047053
-0.061308082 -0.0091695637 -0.24047676
-0.061305497 -0.0090957712 -0.24046904
-0.061302911 -0.009021977 -0.24046129
-0.061299764 -0.0089459699 -0.2404635
-0.06129669 -0.0088719577 -0.24046576
-0.061293639 -0.0087959934 -0.24046595
-0.06129086 -0.0087221134 -0.24046223
-0.061288081 -0.0086482335 -0.24045849
-0.061286159 -0.0085766967 -0.24043882
-0.061283477 -0.0085028596 -0.24043308
-0.061280698 -0.0084289797 -0.24042934
-0.061278094 -0.0083571412 -0.24042365
-0.061274946 -0.0082811322 -0.24042585
-0.061271969 -0.0082071647 -0.24042611
-0.061269209 -0.0081313308 -0.24042033
-0.061266333 -0.008057408 -0.24041858
-0.061262969 -0.0079832673 -0.24042684
-0.061259255 -0.0079050455 -0.24043897
-0.061256282 -0.0078310799 -0.24043924
-0.061253324 -0.0077551585 -0.24043745
-0.06125072 -0.0076833181 -0.24043176
-0.061247941 -0.0076094363 -0.240428
-0.061244324 -0.0075312573 -0.24043816
-0.061241157 -0.0074572042 -0.24044241
-0.061238959 -0.007383585 -0.24042669
-0.061236747 -0.0073119178 -0.24041301
-0.061233871 -0.0072379932 -0.24041128
-0.061230622 -0.0071619432 -0.24041548
-0.061227649 -0.0070879776 -0.24041572
-0.061224498 -0.0070119705 -0.24041793
-0.061221156 -0.006935874 -0.24042413
-0.061218277 -0.0068619512 -0.2404224
-0.061216064 -0.0067902841 -0.2404087
-0.061213575 -0.0067165345 -0.24039897
-0.061210234 -0.0066404399 -0.24040517
-0.061206497 -0.0065641701 -0.24041936
-0.062611707 -0.053720828 -0.24133056
-0.062608048 -0.053646557 -0.24134478
-0.062604859 -0.053574458 -0.24135108
-0.062601961 -0.053502493 -0.2413514
-0.062598988 -0.053428523 -0.24135165
-0.062595524 -0.053354342 -0.24136189
-0.062592238 -0.053282201 -0.24137017
-0.062589362 -0.053208277 -0.24136844
-0.062586486 -0.053134352 -0.24136668
-0.062583297 -0.053062253 -0.24137297
-0.062579907 -0.052990071 -0.24138327
-0.062576644 -0.052915972 -0.24138951
-0.062574156 -0.052842222 -0.24137978
-0.062571883 -0.052766602 -0.24136402
-0.062568814 -0.052692592 -0.24136627
-0.062565543 -0.052618496 -0.24137253
-0.062562473 -0.052544486 -0.24137478
-0.062559791 -0.052470647 -0.24136904
-0.062557206 -0.052396856 -0.24136129
-0.062554739 -0.052321151 -0.24134952
-0.062551863 -0.052247226 -0.24134779
-0.062548086 -0.052174866 -0.24136606
-0.062544703 -0.052102681 -0.24137634
-0.062542021 -0.052028846 -0.24137062
-0.062538952 -0.051954836 -0.24137287
-0.062535159 -0.051884431 -0.24139319
-0.062531985 -0.051810376 -0.24139744
-0.062529713 -0.05173476 -0.24138168
-0.062526837 -0.051660836 -0.24137992
-0.06252338 -0.05158665 -0.24139017
-0.062520482 -0.051514685 -0.24139047
-0.062517621 -0.051438805 -0.24138668
-0.062514633 -0.051366791 -0.24138898
-0.06251175 -0.05129287 -0.24138725
-0.06250868 -0.05121886 -0.2413895
-0.062505804 -0.051144935 -0.24138775
-0.062503144 -0.051069148 -0.24137998
-0.062500678 -0.050993439 -0.2413682
-0.06249778 -0.05092147 -0.2413685
-0.062494822 -0.050845549 -0.24136671
-0.06249183 -0.050773539 -0.24136901
-0.062488951 -0.050699614 -0.24136727
-0.062486194 -0.050623778 -0.24136148
-0.062483005 -0.050551683 -0.24136777
-0.062479932 -0.050477669 -0.24137002
-0.062476955 -0.050403703 -0.24137029
-0.062473983 -0.050329737 -0.24137054
-0.062471107 -0.050255813 -0.2413688
-0.062468521 -0.050182018 -0.24136107
-0.062465452 -0.050108008 -0.24136332
-0.062462065 -0.050035823 -0.2413736
-0.062458683 -0.049963638 -0.2413839
-0.062456001 -0.049889803 -0.24137816
-0.062453631 -0.049814142 -0.24136439
-0.062450461 -0.049740087 -0.24136865
-0.062447272 -0.049667988 -0.24137492
-0.062444102 -0.049593933 -0.24137919
-0.062440932 -0.049519882 -0.24138343
-0.062438346 -0.049446087 -0.2413757
-0.06243588 -0.049370382 -0.24136391
-0.062433589 -0.049296722 -0.2413502
-0.062430926 -0.049220927 -0.24134243
-0.062427759 -0.049146876 -0.24134666
-0.062424958 -0.049074948 -0.24134497
-0.062422201 -0.048999112 -0.24133919
-0.062419321 -0.048925191 -0.24133745
-0.062416349 -0.048851222 -0.2413377
-0.06241386 -0.048777472 -0.24132797
-0.06241079 -0.048703462 -0.24133022
-0.06240762 -0.048629411 -0.24133447
-0.062404722 -0.048557438 -0.24133477
-0.062401455 -0.048483342 -0.24134102
-0.062398288 -0.048409291 -0.24134527
-0.062395196 -0.048337236 -0.24134958
-0.062391929 -0.048263136 -0.24135581
-0.062388837 -0.048191082 -0.24136011
-0.062385667 -0.048117027 -0.24136436
-0.062382303 -0.04804289 -0.2413726
-0.062378917 -0.047970705 -0.2413829
-0.062375341 -0.047898434 -0.24139717
-0.062371857 -0.047826201 -0.24140945
-0.062368885 -0.047752239 -0.24140972
-0.062366202 -0.0476784 -0.24140398
-0.062363636 -0.047602654 -0.24139419
-0.06236076 -0.047528729 -0.24139246
-0.06235718 -0.047456458 -0.24140674
-0.062353503 -0.047384139 -0.24142304
-0.062350724 -0.047310263 -0.24141929
-0.062347945 -0.047236383 -0.24141555
-0.062344871 -0.047162373 -0.2414178
-0.062341802 -0.047088362 -0.24142005
-0.06233871 -0.047016308 -0.24142435
-0.062336534 -0.046940729 -0.24140659
-0.062334772 -0.046863373 -0.24137878
-0.062331989 -0.04678949 -0.24137504
-0.062328704 -0.046717353 -0.24138333
-0.06232534 -0.046643212 -0.24139157
-0.062322464 -0.046569288 -0.24138984
-0.062319469 -0.046497274 -0.24139214
-0.062316202 -0.046423178 -0.24139838
-0.062313326 -0.046349254 -0.24139664
-0.06231045 -0.046275333 -0.24139491
-0.062307376 -0.046201319 -0.24139714
-0.062304791 -0.046127528 -0.24138942
-0.062302422 -0.046051867 -0.24137565
-0.062299643 -0.045977984 -0.2413719
-0.062296573 -0.045903977 -0.24137415
-0.062293578 -0.045831963 -0.24137646
-0.062290601 -0.045757998 -0.24137671
-0.062287726 -0.045684073 -0.24137497
-0.06228485 -0.045610152 -0.24137324
-0.062281679 -0.045536097 -0.24137747
-0.062278219 -0.045461915 -0.24138772
-0.062275417 -0.045389988 -0.24138603
-0.06227266 -0.045314152 -0.24138024
-0.062269684 -0.045240186 -0.2413805
-0.062266711 -0.045166217 -0.24138075
-0.062264223 -0.045092467 -0.24137102
-0.06226125 -0.045018502 -0.24137127
-0.062258177 -0.044944491 -0.24137354
-0.062255085 -0.044872437 -0.24137783
-0.062251918 -0.044798382 -0.24138208
-0.062249139 -0.044724502 -0.24137834
-0.062246356 -0.044650622 -0.24137461
-0.062243383 -0.044576656 -0.24137485
-0.062240098 -0.044504512 -0.24138314
-0.06223724 -0.044428635 -0.24137935
-0.062234949 -0.044354971 -0.24136564
-0.062231973 -0.044281006 -0.24136589
-0.062228903 -0.044206996 -0.24136814
-0.062226415 -0.044133246 -0.2413584
-0.062223829 -0.044059448 -0.24135068
-0.062220663 -0.043985397 -0.24135493
-0.062217277 -0.043913212 -0.24136522
-0.062213913 -0.043839071 -0.24137345
-0.062211327 -0.043765277 -0.24136573
-0.062208548 -0.043691397 -0.24136199
-0.062205866 -0.043617561 -0.24135625
-0.062203497 -0.043541901 -0.24134248
-0.062200524 -0.043467931 -0.24134272
-0.062197335 -0.043395832 -0.24134904
-0.062194359 -0.043321867 -0.24134928
-0.062191483 -0.043247946 -0.24134754
-0.062188506 -0.043173976 -0.24134779
-0.062185436 -0.043099966 -0.24135005
-0.062183145 -0.043026302 -0.24133633
-0.062180776 -0.042950641 -0.24132255
-0.062177997 -0.042876761 -0.24131882
-0.062174924 -0.042802751 -0.24132106
-0.06217185 -0.042728741 -0.24132332
-0.062168974 -0.042654816 -0.24132158
-0.062166195 -0.042580936 -0.24131784
-0.06216291 -0.042508796 -0.24132612
-0.062159739 -0.042434741 -0.24133039
-0.06215696 -0.042360861 -0.24132663
-0.062153887 -0.042286851 -0.2413289
-0.06215062 -0.042212754 -0.24133514
-0.062147141 -0.042140525 -0.24134743
-0.062144164 -0.042066559 -0.24134767
-0.062141776 -0.041992851 -0.24133596
-0.062138703 -0.041918844 -0.24133819
-0.062135242 -0.041844659 -0.24134845
-0.062131956 -0.041772515 -0.24135673
-0.062129077 -0.041698594 -0.241355
-0.062126104 -0.041624628 -0.24135524
-0.062123012 -0.041552573 -0.24135955
-0.062120155 -0.041476693 -0.24135576
-0.06211726 -0.041404724 -0.24135606
-0.062113795 -0.041330539 -0.2413663
-0.062111113 -0.041256703 -0.24136057
-0.062108725 -0.041182995 -0.24134883
-0.062105753 -0.041109029 -0.2413491
-0.062102679 -0.041035019 -0.24135135
-0.062099706 -0.040961053 -0.2413516
-0.062097024 -0.040887214 -0.24134587
-0.062094245 -0.040813334 -0.24134213
-0.062091365 -0.040739413 -0.24134038
-0.062088586 -0.04066553 -0.24133664
-0.062086001 -0.040591739 -0.24132892
-0.062083516 -0.040517986 -0.24131918
-0.062080737 -0.040444106 -0.24131545
-0.062077861 -0.040370181 -0.2413137
-0.062074982 -0.04029626 -0.24131197
-0.062071718 -0.040222164 -0.2413182
-0.062068332 -0.040149979 -0.24132849
-0.062065456 -0.040076055 -0.24132675
-0.062063087 -0.040000394 -0.24131298
-0.062060285 -0.039928466 -0.24131128
-0.062057216 -0.039854459 -0.24131355
-0.062054437 -0.03978058 -0.24130979
-0.062051363 -0.039706565 -0.24131206
-0.06204829 -0.039632559 -0.24131431
-0.062045611 -0.03955872 -0.24130857
-0.062042929 -0.039484881 -0.24130283
-0.06204015 -0.039411001 -0.24129909
-0.062037371 -0.039337121 -0.24129537
-0.062034786 -0.039263327 -0.24128762
-0.06203191 -0.039189406 -0.24128589
-0.06202874 -0.039115354 -0.24129012
-0.06202586 -0.03904143 -0.24128839
-0.062023669 -0.038967807 -0.24127266
-0.062021278 -0.038894102 -0.24126095
-0.062018402 -0.038820177 -0.24125919
-0.062015329 -0.038746167 -0.24126145
-0.062012158 -0.038672112 -0.2412657
-0.062009674 -0.038598362 -0.24125597
-0.062007383 -0.038524698 -0.24124224
-0.062004309 -0.038450688 -0.24124449
-0.062000927 -0.038378503 -0.24125478
-0.061997853 -0.038304493 -0.24125704
-0.061995268 -0.038230699 -0.24124931
-0.061992489 -0.038156819 -0.24124557
-0.061989516 -0.038082853 -0.24124584
-0.061986737 -0.038008973 -0.24124208
-0.061984055 -0.037935138 -0.24123634
-0.061981276 -0.037861254 -0.2412326
-0.061978303 -0.037787288 -0.24123286
-0.061975013 -0.037715144 -0.24124116
-0.061971359 -0.037640877 -0.24125539
-0.061968479 -0.037566952 -0.24125364
-0.061965778 -0.037495069 -0.24124995
-0.061963119 -0.037419278 -0.24124217
-0.061960824 -0.037345614 -0.24122846
-0.061957929 -0.037273645 -0.24122876
-0.061954465 -0.037199464 -0.241239
-0.061951589 -0.037125539 -0.24123725
-0.061949003 -0.037051745 -0.2412295
-0.061946031 -0.036977779 -0.24122977
-0.061942842 -0.03690568 -0.24123606
-0.061939575 -0.036831584 -0.24124232
-0.061936699 -0.036757659 -0.24124056
-0.06193392 -0.036683779 -0.24123684
-0.061931431 -0.03661003 -0.24122711
-0.061928652 -0.03653615 -0.24122337
-0.061925288 -0.036462009 -0.24123161
-0.061922099 -0.03638991 -0.24123791
-0.061919339 -0.036314078 -0.24123213
-0.061917048 -0.03624041 -0.24121839
-0.061914366 -0.036166575 -0.24121265
-0.061911389 -0.036092609 -0.2412129
-0.061908398 -0.036020596 -0.24121521
-0.061905421 -0.03594663 -0.24121547
-0.061902449 -0.035872661 -0.24121571
-0.061899669 -0.035798781 -0.24121198
-0.061896987 -0.035724945 -0.24120626
-0.061893798 -0.035652846 -0.24121255
-0.061890334 -0.035578664 -0.24122278
-0.061887752 -0.03550487 -0.24121505
-0.061885361 -0.035431162 -0.24120332
-0.061882194 -0.03535711 -0.24120757
-0.061879102 -0.035285052 -0.24121186
-0.06187683 -0.035209436 -0.2411961
-0.061874926 -0.035135943 -0.24117438
-0.061872635 -0.03506228 -0.24116066
-0.061870053 -0.034988485 -0.24115291
-0.061866861 -0.034916386 -0.24115923
-0.061863497 -0.034842249 -0.24116746
-0.061860524 -0.03476828 -0.24116772
-0.061857432 -0.034696225 -0.24117202
-0.061854262 -0.034622174 -0.24117626
-0.061851483 -0.03454829 -0.24117252
-0.061849192 -0.034474626 -0.2411588
-0.061847191 -0.034401093 -0.24113908
-0.061844412 -0.034327213 -0.24113536
-0.061840169 -0.034252685 -0.24116156
-0.061836395 -0.034180325 -0.24117984
-0.061833326 -0.034106314 -0.24118209
-0.061829962 -0.034032177 -0.24119034
-0.061827257 -0.033960294 -0.24118665
-0.061825279 -0.033884805 -0.24116489
-0.061823066 -0.033813138 -0.24115121
-0.061820112 -0.033737216 -0.24114943
-0.06181692 -0.033665117 -0.24115571
-0.06181385 -0.03359111 -0.24115796
-0.061810873 -0.033517141 -0.24115822
-0.061807998 -0.03344322 -0.24115649
-0.061805509 -0.033369467 -0.24114674
-0.061803393 -0.033297844 -0.24113107
-0.061800711 -0.033224009 -0.24112535
-0.061797153 -0.033149783 -0.24113756
-0.061793301 -0.033075426 -0.2411558
-0.061790034 -0.03300133 -0.24116206
-0.061786942 -0.032929275 -0.24116635
-0.061783675 -0.032855175 -0.2411726
-0.061781675 -0.032781642 -0.24115288
-0.061780065 -0.03270828 -0.24112517
-0.061777093 -0.032634314 -0.24112543
-0.061773513 -0.032562044 -0.24113971
-0.061770052 -0.032487862 -0.24114996
-0.061767563 -0.032414109 -0.24114022
-0.061764982 -0.032340314 -0.24113248
-0.061762203 -0.032266434 -0.24112874
-0.061759401 -0.03219451 -0.24112706
-0.061756622 -0.03212063 -0.24112332
-0.061753746 -0.032046705 -0.24112158
-0.061750185 -0.031972479 -0.24113381
-0.061747018 -0.031898428 -0.24113807
-0.061744705 -0.031826716 -0.24112639
-0.061742608 -0.031753141 -0.24110866
-0.06174022 -0.031679433 -0.24109694
-0.061737146 -0.031605422 -0.24109918
-0.061734468 -0.031531587 -0.24109346
-0.061732173 -0.03145792 -0.24107972
-0.061729278 -0.031385951 -0.24108003
-0.061726302 -0.031311985 -0.24108028
-0.06172372 -0.031238193 -0.24107255
-0.061720647 -0.031164182 -0.2410748
-0.061716795 -0.031089826 -0.24109304
-0.061713312 -0.031017598 -0.24110532
-0.06171073 -0.030943803 -0.24109758
-0.061708242 -0.030870054 -0.24108785
-0.061705172 -0.030796044 -0.24109012
-0.06170249 -0.030722206 -0.24108437
-0.061700374 -0.030650584 -0.24106869
-0.061697494 -0.030576659 -0.24106696
-0.061694425 -0.030502649 -0.2410692
-0.061691936 -0.030428899 -0.24105948
-0.061689548 -0.030355193 -0.24104774
-0.061687041 -0.030283395 -0.24104007
-0.061684359 -0.03020956 -0.24103433
-0.061681286 -0.03013555 -0.24103658
-0.061678018 -0.030061452 -0.24104282
-0.061675239 -0.029987572 -0.2410391
-0.061672442 -0.029915646 -0.2410374
-0.06166888 -0.029841419 -0.24104962
-0.061665125 -0.029767107 -0.24106586
-0.061662056 -0.029693097 -0.24106812
-0.06165918 -0.029619174 -0.24106637
-0.061656576 -0.029547334 -0.24106069
-0.061654478 -0.029473757 -0.24104297
-0.061652284 -0.029400136 -0.24102724
-0.06164892 -0.029325996 -0.24103549
-0.061645553 -0.029251857 -0.24104372
-0.061642952 -0.029180018 -0.24103804
-0.06164027 -0.029106181 -0.2410323
-0.061637294 -0.029032214 -0.24103257
-0.061634321 -0.028958246 -0.24103281
-0.061631441 -0.028884323 -0.24103108
-0.061628547 -0.028812354 -0.24103138
-0.061625473 -0.028738344 -0.24103363
-0.061621916 -0.028664118 -0.24104586
-0.06161904 -0.028590195 -0.24104412
-0.061616942 -0.028516617 -0.2410264
-0.061614141 -0.028444692 -0.2410247
-0.061611265 -0.028370768 -0.24102297
-0.061608583 -0.028296931 -0.24101722
-0.061604924 -0.028222661 -0.24103147
-0.06160127 -0.028148392 -0.24104571
-0.061598275 -0.02807638 -0.24104801
-0.06159569 -0.028002586 -0.24104026
-0.061592814 -0.027928662 -0.24103853
-0.061589841 -0.027854696 -0.24103878
-0.061587352 -0.027780944 -0.24102905
-0.061585236 -0.027709322 -0.24101338
-0.061582945 -0.027635658 -0.24099967
-0.061579973 -0.027561691 -0.24099991
-0.061576802 -0.027487639 -0.24100415
-0.061573535 -0.027413541 -0.2410104
-0.061570831 -0.02734166 -0.24100672
-0.06156864 -0.027268037 -0.240991
-0.061566152 -0.027194288 -0.24098125
-0.061563663 -0.027120538 -0.24097154
-0.06156145 -0.027048871 -0.24095786
-0.061558381 -0.026974861 -0.24096009
-0.061554626 -0.026900548 -0.24097633
-0.061551455 -0.026826495 -0.2409806
-0.061548576 -0.026752573 -0.24097885
-0.061545994 -0.026678778 -0.24097112
-0.061543681 -0.026607068 -0.24095944
-0.061540902 -0.026533188 -0.2409557
-0.061537538 -0.026459049 -0.24096394
-0.061534077 -0.026384864 -0.24097419
-0.061530612 -0.026310682 -0.24098442
-0.061527349 -0.026236586 -0.24099067
-0.061524667 -0.026162747 -0.24098493
-0.061521769 -0.02609078 -0.24098521
-0.061518326 -0.026014641 -0.24099343
-0.061515626 -0.02594276 -0.24098974
-0.061512943 -0.025868922 -0.24098399
-0.061510164 -0.025795043 -0.24098027
-0.061507288 -0.025721118 -0.24097852
-0.061504509 -0.025647238 -0.24097478
-0.061501805 -0.025575357 -0.24097109
-0.06149932 -0.025501605 -0.24096134
-0.061496638 -0.025427768 -0.24095562
-0.061494034 -0.02535593 -0.24094993
-0.061491057 -0.025281962 -0.24095018
-0.061487891 -0.025207909 -0.24095443
-0.061484624 -0.025133813 -0.24096069
-0.061481647 -0.025059845 -0.24096093
-0.061478771 -0.024985923 -0.2409592
-0.061475992 -0.024912043 -0.24095547
-0.061473094 -0.024840074 -0.24095576
-0.061470315 -0.024766192 -0.24095201
-0.061467536 -0.024692312 -0.24094829
-0.061465051 -0.024618562 -0.24093856
-0.061462738 -0.024546854 -0.24092688
-0.061460253 -0.024473103 -0.24091715
-0.061457571 -0.024399266 -0.24091141
-0.0614544 -0.024325212 -0.24091566
-0.061451036 -0.024251074 -0.24092391
-0.061447769 -0.024176976 -0.24093014
-0.061445262 -0.02410518 -0.24092245
-0.061442677 -0.024031386 -0.24091473
-0.061439801 -0.023957463 -0.24091299
-0.061436728 -0.023883453 -0.24091524
-0.061433364 -0.023809314 -0.24092349
-0.06143 -0.023735173 -0.24093172
-0.061427124 -0.023661248 -0.24092999
-0.061424151 -0.023587283 -0.24093023
-0.061421547 -0.023515444 -0.24092454
-0.061418861 -0.023441605 -0.24091882
-0.061415888 -0.02336764 -0.24091907
-0.061412916 -0.023293674 -0.24091932
-0.061409842 -0.023219664 -0.24092159
-0.061406381 -0.02314548 -0.24093181
-0.061403699 -0.023071643 -0.24092609
-0.061401308 -0.022997934 -0.24091434
-0.061398219 -0.02292588 -0.24091865
-0.06139534 -0.022851957 -0.24091691
-0.061392561 -0.022778075 -0.24091317
-0.061389588 -0.02270411 -0.24091342
-0.061386906 -0.022630272 -0.2409077
-0.061383445 -0.022556089 -0.24091792
-0.061379492 -0.022481691 -0.24093816
-0.061376326 -0.022407636 -0.2409424
-0.061373644 -0.022333801 -0.24093667
-0.06137057 -0.02225979 -0.24093893
-0.061367497 -0.02218578 -0.24094117
-0.061365012 -0.022112031 -0.24093145
-0.061362896 -0.022040406 -0.24091578
-0.061360408 -0.021966655 -0.24090603
-0.061357725 -0.02189282 -0.24090031
-0.061355121 -0.021820979 -0.24089462
-0.061352439 -0.021747142 -0.24088888
-0.061349761 -0.021673305 -0.24088314
-0.061346591 -0.021599252 -0.24088739
-0.06134342 -0.0215252 -0.24089165
-0.061340641 -0.02145132 -0.24088791
-0.061338056 -0.021377526 -0.24088016
-0.061335258 -0.021305598 -0.24087846
-0.061332479 -0.021231718 -0.24087474
-0.0613297 -0.021157838 -0.240871
-0.061326627 -0.021083828 -0.24087325
-0.06132336 -0.021009732 -0.24087951
-0.061320581 -0.020935852 -0.24087575
-0.061317705 -0.020861927 -0.24087402
-0.061314438 -0.020787831 -0.24088027
-0.061311562 -0.020713907 -0.24087852
-0.06130917 -0.020640202 -0.24086678
-0.061306566 -0.020568362 -0.2408611
-0.06130293 -0.020492138 -0.24087331
-0.061299663 -0.02041804 -0.24087954
-0.061297156 -0.020346245 -0.24087185
-0.061294202 -0.020270323 -0.24087006
-0.061291791 -0.020198571 -0.24086039
-0.061289597 -0.02012495 -0.24084465
-0.061287481 -0.020053327 -0.24082899
-0.061285172 -0.019981619 -0.24081731
-0.061281338 -0.019905306 -0.24083349
-0.061277017 -0.01982878 -0.24085966
-0.061273284 -0.019752514 -0.24087384
-0.06127058 -0.01968063 -0.24087015
-0.061267901 -0.019606793 -0.24086443
-0.06126551 -0.019533087 -0.24085268
-0.061263297 -0.019461419 -0.240839
-0.061260127 -0.019387368 -0.24084327
-0.061256394 -0.0193111 -0.24085745
-0.061253026 -0.01923696 -0.24086571
-0.061249565 -0.019162776 -0.24087593
-0.061245929 -0.019086553 -0.24088812
-0.061242953 -0.019012585 -0.24088839
-0.06124045 -0.01894079 -0.2408807
-0.061237864 -0.018866995 -0.24087296
-0.061235279 -0.018793201 -0.24086523
-0.061233066 -0.018721536 -0.24085155
-0.061231066 -0.018648002 -0.24083184
-0.061228853 -0.018576335 -0.24081816
-0.061226171 -0.0185025 -0.24081242
-0.061223488 -0.018428661 -0.2408067
-0.061221175 -0.018356953 -0.24079502
-0.061218496 -0.018283116 -0.24078926
-0.061215326 -0.018209063 -0.24079353
-0.06121235 -0.018135095 -0.24079378
-0.061209571 -0.018061215 -0.24079004
-0.061206892 -0.017987378 -0.24078429
-0.061204012 -0.017913453 -0.24078256
-0.061200649 -0.017839313 -0.2407908
-0.061197285 -0.017765176 -0.24079904
-0.061194234 -0.017689209 -0.24079925
-0.061191432 -0.017617285 -0.24079755
-0.061188381 -0.017541319 -0.24079777
-0.061185777 -0.017469481 -0.24079208
-0.061183486 -0.017395817 -0.24077836
-0.061180804 -0.01732198 -0.24077262
-0.061177827 -0.017248012 -0.24077287
-0.061175421 -0.017176259 -0.24076319
-0.061172642 -0.017102379 -0.24075945
-0.061169103 -0.017026199 -0.24076965
-0.061165735 -0.016952058 -0.24077788
-0.061162665 -0.01687805 -0.24078014
-0.06116008 -0.016804256 -0.24077241
-0.061157592 -0.016730506 -0.24076268
-0.061154425 -0.016656451 -0.24076693
-0.061151255 -0.016582398 -0.24077117
-0.061148573 -0.016508561 -0.24076545
-0.061146088 -0.016434811 -0.24075571
-0.06114348 -0.016362973 -0.24075001
-0.061140507 -0.016289003 -0.24075028
-0.061137728 -0.016215123 -0.24074654
-0.06113524 -0.016141374 -0.24073681
-0.061132658 -0.016067579 -0.24072906
-0.061130151 -0.015995784 -0.24072139
-0.06112776 -0.015922077 -0.24070966
-0.06112498 -0.015848197 -0.24070592
-0.06112228 -0.015776316 -0.24070224
-0.061119229 -0.01570035 -0.24070245
-0.061115667 -0.015626123 -0.24071467
-0.061112322 -0.015550029 -0.24072087
-0.061109915 -0.015478276 -0.24071118
-0.061106943 -0.01540431 -0.24071145
-0.061102815 -0.015327869 -0.24073362
-0.061099179 -0.015251644 -0.24074581
-0.061096594 -0.01517785 -0.24073808
-0.061094008 -0.015104057 -0.24073035
-0.061091132 -0.015030133 -0.24072862
-0.061088547 -0.014956338 -0.24072087
-0.061086044 -0.014884543 -0.24071319
-0.061083164 -0.01481062 -0.24071145
-0.061080016 -0.014734613 -0.24071366
-0.061076749 -0.014660517 -0.2407199
-0.061074067 -0.01458668 -0.24071416
-0.061071951 -0.014515055 -0.24069849
-0.061069757 -0.014441436 -0.24068277
-0.06106725 -0.01436964 -0.24067508
-0.061064374 -0.014295716 -0.24067333
-0.06106142 -0.014219794 -0.24067155
-0.061058912 -0.014147999 -0.24066386
-0.06105623 -0.014074162 -0.24065813
-0.061053254 -0.014000194 -0.24065837
-0.061050087 -0.013926141 -0.24066263
-0.061046936 -0.013850134 -0.24066484
-0.061043866 -0.013776122 -0.24066709
-0.061040618 -0.013700072 -0.24067131
-0.061037447 -0.01362602 -0.24067554
-0.061034475 -0.013552053 -0.24067579
-0.061031889 -0.013478259 -0.24066806
-0.061029382 -0.013406463 -0.24066037
-0.061026134 -0.013330411 -0.24066457
-0.061023161 -0.013256444 -0.24066484
-0.061020672 -0.013182694 -0.24065509
-0.061018091 -0.0131089 -0.24064738
-0.06101539 -0.013037018 -0.24064368
-0.061012708 -0.012963179 -0.24063794
-0.061009556 -0.012887172 -0.24064015
-0.061006289 -0.012813076 -0.24064639
-0.061003316 -0.012739109 -0.24064665
-0.061000731 -0.012665316 -0.24063891
-0.060998615 -0.012593692 -0.24062324
-0.06099613 -0.012519943 -0.24061351
-0.060993623 -0.012448147 -0.24060583
-0.060990941 -0.012374308 -0.24060008
-0.060987398 -0.012298128 -0.24061029
-0.060983859 -0.012221945 -0.24062048
-0.060981277 -0.012148155 -0.24061275
-0.060978595 -0.012074318 -0.24060701
-0.060974956 -0.011998093 -0.2406192
-0.060971789 -0.01192404 -0.24062344
-0.060969885 -0.011850549 -0.24060175
-0.060967576 -0.011778839 -0.24059005
-0.060964502 -0.011704829 -0.2405923
-0.060960963 -0.011628648 -0.24060249
-0.060957327 -0.011552423 -0.24061468
-0.060954545 -0.011478543 -0.24061096
-0.060951963 -0.011404749 -0.24060322
-0.060949281 -0.011330912 -0.24059749
-0.060947165 -0.011259289 -0.24058181
-0.060944676 -0.011185538 -0.24057208
-0.060941137 -0.011109358 -0.24058227
-0.060937598 -0.011033177 -0.24059246
-0.060934994 -0.010961339 -0.24058677
-0.06093194 -0.010885375 -0.240587
-0.060928304 -0.01080915 -0.24059919
-0.060925055 -0.010733096 -0.24060339
-0.060922377 -0.010659261 -0.24059764
-0.060919303 -0.01058525 -0.2405999
-0.06091623 -0.01051124 -0.24060214
-0.060913451 -0.01043736 -0.24059841
-0.060910691 -0.010361524 -0.24059263
-0.060907815 -0.010287602 -0.2405909
-0.060904644 -0.010213548 -0.24059513
-0.060901202 -0.010137411 -0.24060333
-0.060898133 -0.0100634 -0.24060559
-0.060895644 -0.0099896491 -0.24059585
-0.060893156 -0.0099158995 -0.24058613
-0.060890555 -0.009844061 -0.24058044
-0.060887698 -0.0097681824 -0.24057665
-0.060885094 -0.0096963421 -0.24057096
-0.060882702 -0.0096226353 -0.24055922
-0.060880393 -0.0095509272 -0.24054755
-0.060877614 -0.0094770472 -0.24054381
-0.060874268 -0.0094009526 -0.24055001
-0.060871392 -0.0093270279 -0.24054825
-0.060869198 -0.0092534088 -0.24053255
-0.060866788 -0.0091816541 -0.24052286
-0.060863346 -0.0091055166 -0.24053106
-0.060859434 -0.0090272073 -0.24054721
-0.060856365 -0.0089531988 -0.24054945
-0.06085331 -0.0088772345 -0.24054965
-0.060849771 -0.0088010523 -0.24055986
-0.060846895 -0.0087271295 -0.24055812
-0.060844507 -0.008653421 -0.24054638
-0.060842857 -0.0085839704 -0.24052277
-0.060839709 -0.0085079614 -0.24052498
-0.060836166 -0.0084317811 -0.24053517
-0.060833193 -0.0083578136 -0.24053542
-0.060830336 -0.008281935 -0.24053164
-0.06082736 -0.0082079694 -0.24053189
-0.060824681 -0.0081341304 -0.24052615
-0.060822465 -0.008062467 -0.24051249
-0.060819317 -0.0079864562 -0.2405147
-0.060814742 -0.007905893 -0.24054275
-0.060811009 -0.0078296252 -0.24055696
-0.06080823 -0.0077557433 -0.2405532
-0.060805645 -0.0076819509 -0.24054548
-0.060803432 -0.0076102838 -0.2405318
-0.060800944 -0.0075365342 -0.24052206
-0.060797699 -0.0074604806 -0.24052626
-0.060794353 -0.0073843859 -0.24053247
-0.060791574 -0.0073105078 -0.24052873
-0.060789164 -0.007238755 -0.24051905
-0.060786113 -0.0071627907 -0.24051926
-0.06078304 -0.0070887804 -0.24052151
-0.060780652 -0.0070150737 -0.24050978
-0.06077797 -0.0069412366 -0.24050404
-0.060774703 -0.0068671405 -0.24051028
-0.060771551 -0.0067911316 -0.24051249
-0.060768675 -0.0067172069 -0.24051076
-0.060765155 -0.0066390708 -0.2405189
-0.060761519 -0.0065628458 -0.24053109
-0.062163871 -0.053743713 -0.24130109
-0.062161192 -0.053669877 -0.24129537
-0.062158626 -0.053594127 -0.24128558
-0.062155943 -0.053520292 -0.24127984
-0.062153164 -0.053446412 -0.2412761
-0.062150385 -0.053372532 -0.24127237
-0.062147528 -0.053296652 -0.24126858
-0.062145159 -0.053220987 -0.24125481
-0.062142164 -0.053148977 -0.2412571
-0.062138684 -0.053076752 -0.24126939
-0.062135417 -0.053002652 -0.24127564
-0.062132128 -0.052930512 -0.24128392
-0.062129058 -0.052856501 -0.24128619
-0.062126182 -0.05278258 -0.24128444
-0.062123109 -0.052708566 -0.2412867
-0.06211992 -0.052636467 -0.24129298
-0.062116124 -0.052566066 -0.24131331
-0.062112447 -0.052493751 -0.2413296
-0.062109359 -0.052421696 -0.2413339
-0.062105991 -0.052347556 -0.24134213
-0.062102921 -0.052273542 -0.24134439
-0.062099945 -0.05219958 -0.24134463
-0.062096953 -0.052127566 -0.24134694
-0.062094193 -0.05205173 -0.24134114
-0.062091704 -0.051977981 -0.24133143
-0.062088829 -0.051904056 -0.24132968
-0.062085755 -0.051830046 -0.24133193
-0.062082373 -0.051757861 -0.24134222
-0.06207969 -0.051684022 -0.24133649
-0.062077634 -0.05160654 -0.24131468
-0.062074952 -0.051532701 -0.24130894
-0.062071685 -0.051458605 -0.24131519
-0.062069003 -0.051384769 -0.24130946
-0.062066343 -0.051308975 -0.24130169
-0.062063366 -0.051235009 -0.24130192
-0.062060472 -0.05116304 -0.24130222
-0.062057398 -0.05108903 -0.24130449
-0.062054228 -0.051014975 -0.24130875
-0.062051039 -0.050942875 -0.24131502
-0.062047966 -0.050868869 -0.24131727
-0.06204509 -0.050794944 -0.24131554
-0.062042311 -0.050721064 -0.2413118
-0.062039532 -0.050647184 -0.24130806
-0.062036656 -0.05057326 -0.2413063
-0.062033582 -0.050499253 -0.24130857
-0.062030707 -0.050425328 -0.24130684
-0.062027946 -0.050349493 -0.24130104
-0.062025052 -0.050277524 -0.24130136
-0.062021978 -0.050203513 -0.24130361
-0.062019005 -0.050129548 -0.24130386
-0.062015835 -0.050055496 -0.24130811
-0.062012859 -0.049981527 -0.24130836
-0.06201008 -0.049907647 -0.24130462
-0.062007498 -0.049833853 -0.24129689
-0.062005028 -0.049758144 -0.24128512
-0.062002152 -0.049684223 -0.24128339
-0.061999276 -0.049610298 -0.24128163
-0.061996281 -0.049538288 -0.24128394
-0.061993111 -0.049464233 -0.24128819
-0.061990138 -0.049390268 -0.24128845
-0.061987359 -0.049316384 -0.2412847
-0.061984286 -0.049242377 -0.24128696
-0.061981507 -0.049168497 -0.24128322
-0.061979234 -0.049092878 -0.24126744
-0.061976455 -0.049018998 -0.24126372
-0.061973386 -0.048944987 -0.24126595
-0.061970409 -0.048871022 -0.24126621
-0.061967123 -0.048798878 -0.24127451
-0.061963737 -0.048726693 -0.24128479
-0.061960161 -0.048654422 -0.24129908
-0.061956894 -0.048580326 -0.24130532
-0.061953604 -0.048508182 -0.24131362
-0.061950535 -0.048434172 -0.24131587
-0.061947461 -0.048360161 -0.24131811
-0.061944488 -0.0482862 -0.24131837
-0.061941493 -0.048214182 -0.24132067
-0.06193842 -0.048140176 -0.24132293
-0.061935056 -0.048066035 -0.24133117
-0.06193177 -0.047993891 -0.24133946
-0.061928388 -0.047921706 -0.24134976
-0.061924923 -0.047847524 -0.24135999
-0.061922047 -0.0477736 -0.24135825
-0.061919171 -0.047699679 -0.24135651
-0.061916176 -0.047627665 -0.24135882
-0.061913006 -0.047553614 -0.24136305
-0.06190984 -0.047479559 -0.24136731
-0.06190706 -0.047405679 -0.24136357
-0.061904475 -0.047331885 -0.24135584
-0.06190189 -0.04725809 -0.24134812
-0.061899032 -0.047182214 -0.24134432
-0.061896157 -0.047108289 -0.24134257
-0.061893765 -0.047034584 -0.24133085
-0.061891202 -0.046958834 -0.24132106
-0.061888207 -0.04688682 -0.24132338
-0.061885234 -0.046812855 -0.24132362
-0.061882358 -0.04673893 -0.24132188
-0.061879382 -0.046664964 -0.24132214
-0.061875902 -0.046592735 -0.24133442
-0.061872829 -0.046518728 -0.24133667
-0.061869953 -0.046444803 -0.24133494
-0.061866879 -0.046370793 -0.2413372
-0.061863516 -0.046296652 -0.24134544
-0.061860621 -0.046224684 -0.24134573
-0.061858248 -0.046149019 -0.24133196
-0.06185586 -0.046075314 -0.24132025
-0.061852984 -0.04600139 -0.24131849
-0.061849717 -0.045927294 -0.24132474
-0.061846234 -0.045855068 -0.24133703
-0.061842967 -0.045780972 -0.24134327
-0.061840188 -0.045707088 -0.24133953
-0.061837606 -0.045633294 -0.24133179
-0.061834436 -0.045559242 -0.24133605
-0.061831169 -0.045485146 -0.24134231
-0.061827783 -0.045412961 -0.24135259
-0.061824713 -0.045338951 -0.24135485
-0.061822422 -0.045265287 -0.24134111
-0.061819855 -0.045189537 -0.24133134
-0.061816882 -0.045115571 -0.24133159
-0.06181379 -0.045043513 -0.2413359
-0.061810426 -0.044969376 -0.24134412
-0.061807547 -0.044895452 -0.2413424
-0.061804574 -0.044821486 -0.24134265
-0.061802085 -0.044747733 -0.24133292
-0.061799306 -0.044673856 -0.24132919
-0.061795942 -0.044599716 -0.24133742
-0.061793748 -0.044526093 -0.2413217
-0.061791282 -0.044450387 -0.24130993
-0.06178819 -0.044378333 -0.24131423
-0.06178502 -0.044304281 -0.24131846
-0.061782338 -0.044230442 -0.24131274
-0.061779559 -0.044156563 -0.24130899
-0.061776586 -0.044082597 -0.24130926
-0.061773807 -0.044008717 -0.24130552
-0.061771221 -0.043934923 -0.24129778
-0.061768364 -0.043859042 -0.241294
-0.061765779 -0.043785252 -0.24128626
-0.061763197 -0.043711457 -0.24127853
-0.061760221 -0.043637492 -0.24127878
-0.061757129 -0.043565433 -0.24128307
-0.061754059 -0.043491423 -0.24128532
-0.061750986 -0.043417417 -0.24128759
-0.0617484 -0.043343619 -0.24127986
-0.061746422 -0.043268133 -0.24125808
-0.061744347 -0.043192599 -0.24123833
-0.061741371 -0.043118633 -0.24123859
-0.061738182 -0.043046534 -0.24124488
-0.061735012 -0.042972483 -0.24124913
-0.061731532 -0.042900253 -0.24126141
-0.061728068 -0.042826068 -0.24127164
-0.061725095 -0.042752102 -0.24127191
-0.061722316 -0.042678222 -0.24126817
-0.06171944 -0.042604297 -0.24126643
-0.061715957 -0.042532071 -0.24127872
-0.061712474 -0.042459842 -0.241291
-0.06170911 -0.042385701 -0.24129924
-0.061705746 -0.04231156 -0.2413075
-0.061702557 -0.042239465 -0.24131379
-0.061699387 -0.04216541 -0.24131803
-0.061696216 -0.042091355 -0.24132228
-0.061693147 -0.042017348 -0.24132453
-0.061690249 -0.041945376 -0.24132484
-0.061687179 -0.041871369 -0.24132709
-0.061684202 -0.0417974 -0.24132735
-0.061681423 -0.04172352 -0.24132361
-0.061678741 -0.041649684 -0.24131787
-0.061676059 -0.041575845 -0.24131215
-0.06167328 -0.041501965 -0.24130839
-0.061670501 -0.041428085 -0.24130467
-0.061667819 -0.041354246 -0.24129891
-0.061664749 -0.04128024 -0.24130118
-0.061661676 -0.041206229 -0.24130343
-0.061658897 -0.04113235 -0.24129969
-0.061656214 -0.041058511 -0.24129395
-0.061653726 -0.040984761 -0.24128422
-0.061651047 -0.040910922 -0.24127848
-0.061647877 -0.040836871 -0.24128273
-0.061644804 -0.04076286 -0.24128498
-0.061642025 -0.04068898 -0.24128124
-0.06163954 -0.040615231 -0.24127153
-0.061636955 -0.040541437 -0.24126378
-0.061633784 -0.040467381 -0.24126804
-0.06163042 -0.040393241 -0.24127626
-0.061627738 -0.040319405 -0.24127054
-0.061625153 -0.040245611 -0.24126281
-0.061622765 -0.040171906 -0.24125108
-0.061620276 -0.040098153 -0.24124135
-0.061617304 -0.040024187 -0.2412416
-0.06161423 -0.039950177 -0.24124387
-0.061611257 -0.039876211 -0.24124411
-0.061608382 -0.039802287 -0.24124238
-0.061605386 -0.039730273 -0.24124467
-0.061602432 -0.039654352 -0.24124289
-0.061599925 -0.039582558 -0.2412352
-0.061597049 -0.039508633 -0.24123345
-0.061593879 -0.039434582 -0.2412377
-0.061591003 -0.039360657 -0.24123597
-0.061588321 -0.039286822 -0.24123022
-0.061585639 -0.039212983 -0.2412245
-0.061582956 -0.039139148 -0.24121876
-0.061580274 -0.039065309 -0.24121302
-0.061577104 -0.038991258 -0.24121726
-0.061574131 -0.038917288 -0.24121752
-0.061571449 -0.038843453 -0.2412118
-0.061568573 -0.038769528 -0.24121004
-0.061565403 -0.038695477 -0.24121431
-0.061562311 -0.038623419 -0.2412186
-0.061559338 -0.038549453 -0.24121885
-0.061556362 -0.038475487 -0.2412191
-0.061553467 -0.038403518 -0.2412194
-0.061550707 -0.038327683 -0.24121362
-0.061548024 -0.038253844 -0.2412079
-0.061545148 -0.038179923 -0.24120614
-0.061542444 -0.03810804 -0.24120244
-0.061539568 -0.038034115 -0.24120072
-0.061537083 -0.037960365 -0.24119098
-0.061534908 -0.03788479 -0.24117322
-0.061532032 -0.037810866 -0.24117148
-0.061528258 -0.037738509 -0.24118975
-0.061525282 -0.03766454 -0.24119002
-0.061522797 -0.037590791 -0.24118027
-0.061520018 -0.037516911 -0.24117653
-0.061517138 -0.037442986 -0.24117479
-0.061514556 -0.037369192 -0.24116707
-0.061511073 -0.037296966 -0.24117935
-0.061506908 -0.037224434 -0.24120562
-0.061503544 -0.037150294 -0.24121386
-0.061500669 -0.037076369 -0.24121211
-0.061497692 -0.037002403 -0.24121237
-0.06149511 -0.036928609 -0.24120463
-0.061492816 -0.036854945 -0.24119091
-0.061490331 -0.036781196 -0.24118118
-0.061487552 -0.036707316 -0.24117745
-0.061484773 -0.036633436 -0.24117371
-0.061482091 -0.036559597 -0.24116796
-0.061478823 -0.036485501 -0.24117422
-0.06147534 -0.036413275 -0.2411865
-0.061472464 -0.03633935 -0.24118477
-0.061469879 -0.036265556 -0.24117702
-0.061466709 -0.036191501 -0.24118128
-0.061463736 -0.036117535 -0.24118152
-0.061461836 -0.036044046 -0.24115983
-0.061459739 -0.035970468 -0.24114209
-0.061456665 -0.035896458 -0.24114434
-0.06145338 -0.035824314 -0.24115264
-0.061450504 -0.035750393 -0.2411509
-0.061448015 -0.03567664 -0.24114117
-0.061445139 -0.035602719 -0.24113944
-0.061441775 -0.035528578 -0.24114767
-0.061438974 -0.03545665 -0.24114597
-0.061436605 -0.035380989 -0.2411322
-0.061433807 -0.035309065 -0.2411305
-0.061430931 -0.03523514 -0.24112877
-0.061428346 -0.035161346 -0.24112102
-0.061425567 -0.035087466 -0.2411173
-0.061422691 -0.035013545 -0.24111557
-0.061420299 -0.034939837 -0.24110383
-0.061417911 -0.034866128 -0.2410921
-0.061415229 -0.034792293 -0.24108636
-0.061412234 -0.034720279 -0.24108866
-0.061408773 -0.034646098 -0.24109891
-0.061405309 -0.034571912 -0.24110915
-0.061402045 -0.034497816 -0.24111539
-0.061398756 -0.034425676 -0.24112369
-0.061395489 -0.03435158 -0.24112993
-0.061392419 -0.03427757 -0.24113218
-0.06138923 -0.03420547 -0.24113849
-0.061386451 -0.03413159 -0.24113473
-0.061383672 -0.03405771 -0.24113101
-0.061380502 -0.033983655 -0.24113524
-0.061377428 -0.033909645 -0.2411375
-0.061375022 -0.033837892 -0.24112782
-0.061372649 -0.033762231 -0.24111405
-0.061370142 -0.033690434 -0.24110636
-0.06136756 -0.033616643 -0.24109863
-0.06136439 -0.033542588 -0.24110289
-0.061360929 -0.033468407 -0.24111313
-0.061357759 -0.033394352 -0.24111736
-0.061354667 -0.033322297 -0.24112168
-0.061351497 -0.033248242 -0.24112591
-0.061348718 -0.033174362 -0.24112219
-0.061346136 -0.033100568 -0.24111444
-0.061342966 -0.033026516 -0.2411187
-0.061339777 -0.032954417 -0.24112499
-0.061336704 -0.032880407 -0.24112724
-0.061333925 -0.032806527 -0.2411235
-0.061331049 -0.032732602 -0.24112177
-0.06132827 -0.032658722 -0.24111801
-0.061325565 -0.032586839 -0.24111433
-0.061322983 -0.032513048 -0.2411066
-0.061320886 -0.03243947 -0.24108887
-0.061318398 -0.032365721 -0.24107915
-0.061315425 -0.032291751 -0.2410794
-0.061312646 -0.032217871 -0.24107566
-0.061310235 -0.032146119 -0.24106598
-0.061307553 -0.032072283 -0.24106026
-0.061304677 -0.031998359 -0.2410585
-0.061301995 -0.031924523 -0.24105278
-0.06129941 -0.031850729 -0.24104503
-0.061296515 -0.03177876 -0.24104534
-0.061293542 -0.031704791 -0.24104559
-0.061291151 -0.031631086 -0.24103385
-0.061288565 -0.031557292 -0.24102613
-0.061285399 -0.031483237 -0.24103038
-0.061282404 -0.031411227 -0.24103267
-0.061279625 -0.031337347 -0.24102895
-0.061276358 -0.031263251 -0.24103519
-0.061273187 -0.031189196 -0.24103944
-0.061270505 -0.031115359 -0.2410337
-0.061267998 -0.031043563 -0.24102601
-0.061265513 -0.030969813 -0.2410163
-0.061262928 -0.030896019 -0.24100855
-0.061260343 -0.030822225 -0.24100082
-0.061257176 -0.030748172 -0.24100508
-0.061254084 -0.030676115 -0.24100937
-0.061251402 -0.03060228 -0.24100363
-0.061248526 -0.030528355 -0.24100189
-0.061245255 -0.030454259 -0.24100813
-0.061242089 -0.030380206 -0.24101239
-0.0612389 -0.030308107 -0.24101868
-0.06123602 -0.030234184 -0.24101694
-0.061233439 -0.03016039 -0.24100921
-0.061230365 -0.030086379 -0.24101146
-0.061227489 -0.030012457 -0.24100971
-0.061224591 -0.029940488 -0.24101001
-0.061221518 -0.029866477 -0.24101228
-0.061218739 -0.029792598 -0.24100854
-0.06121606 -0.02971876 -0.2410028
-0.061213378 -0.029644923 -0.24099705
-0.061211064 -0.029573213 -0.24098538
-0.06120858 -0.029499464 -0.24097565
-0.0612057 -0.029425539 -0.24097392
-0.061202534 -0.029351486 -0.24097815
-0.061199363 -0.029277433 -0.24098241
-0.061196566 -0.029205509 -0.24098071
-0.061193492 -0.029131498 -0.24098296
-0.061190225 -0.0290574 -0.24098921
-0.061187446 -0.02898352 -0.24098548
-0.061185233 -0.028911855 -0.2409718
-0.061182551 -0.028838018 -0.24096607
-0.061179284 -0.02876392 -0.24097231
-0.061175723 -0.028689694 -0.24098454
-0.061172456 -0.028615598 -0.24099079
-0.061169386 -0.028541587 -0.24099305
-0.061166294 -0.028469533 -0.24099734
-0.061163317 -0.028395565 -0.2409976
-0.061160441 -0.028321642 -0.24099585
-0.061158054 -0.028247936 -0.24098413
-0.06115574 -0.028176226 -0.24097244
-0.061152667 -0.028102215 -0.24097471
-0.061149888 -0.028028335 -0.24097097
-0.061147012 -0.027954411 -0.24096921
-0.061144233 -0.027880531 -0.24096549
-0.061141435 -0.027808607 -0.24096379
-0.061138656 -0.027734727 -0.24096005
-0.061136167 -0.027660975 -0.24095032
-0.061133485 -0.027587138 -0.24094458
-0.061130803 -0.027513301 -0.24093884
-0.061128199 -0.027441461 -0.24093315
-0.061125517 -0.027367625 -0.24092741
-0.061123032 -0.027293874 -0.24091768
-0.061120428 -0.027222035 -0.24091199
-0.061117355 -0.027148025 -0.24091426
-0.061114382 -0.027074058 -0.24091452
-0.061111506 -0.027000135 -0.24091277
-0.061108239 -0.026926039 -0.24091901
-0.061105069 -0.026851986 -0.24092326
-0.061102193 -0.026778061 -0.24092153
-0.061099589 -0.026706222 -0.24091583
-0.061096516 -0.026632212 -0.24091808
-0.061093543 -0.026558246 -0.24091834
-0.061091054 -0.026484495 -0.24090861
-0.061088469 -0.026410701 -0.24090087
-0.061085768 -0.026338819 -0.24089719
-0.061082404 -0.026264679 -0.24090543
-0.061079137 -0.026190583 -0.24091168
-0.061076358 -0.026116703 -0.24090794
-0.061073091 -0.026042607 -0.2409142
-0.061069824 -0.025968509 -0.24092042
-0.061067026 -0.025896583 -0.24091873
-0.06106405 -0.025822617 -0.24091899
-0.061061662 -0.025748909 -0.24090727
-0.061058883 -0.025675029 -0.24090353
-0.061055321 -0.025600802 -0.24091578
-0.061052427 -0.025528833 -0.24091607
-0.061049841 -0.025455039 -0.24090832
-0.061047256 -0.025381247 -0.24090061
-0.061044671 -0.025307452 -0.24089287
-0.061041504 -0.025233399 -0.24089712
-0.061038412 -0.025161345 -0.24090141
-0.06103573 -0.025087506 -0.24089569
-0.061032951 -0.025013626 -0.24089193
-0.061030269 -0.02493979 -0.2408862
-0.061027858 -0.024868038 -0.24087653
-0.06102547 -0.024794329 -0.2408648
-0.061023179 -0.024720665 -0.24085107
-0.061020575 -0.024648827 -0.24084538
-0.061017405 -0.024574773 -0.24084963
-0.061014235 -0.02450072 -0.24085388
-0.061011065 -0.024426667 -0.24085812
-0.061007995 -0.024352657 -0.24086037
-0.061004825 -0.024278603 -0.24086463
-0.061001852 -0.024204638 -0.24086489
-0.060999267 -0.024130844 -0.24085715
-0.06099676 -0.024059046 -0.24084947
-0.060993787 -0.02398508 -0.24084972
-0.060991004 -0.0239112 -0.24084598
-0.060988031 -0.023837233 -0.24084623
-0.060984962 -0.023763224 -0.24084848
-0.060982455 -0.023691427 -0.24084079
-0.060979869 -0.023617633 -0.24083307
-0.060976796 -0.023543624 -0.24083534
-0.06097392 -0.0234697 -0.24083358
-0.060971238 -0.023395862 -0.24082786
-0.06096844 -0.023323938 -0.24082616
-0.060965192 -0.023247886 -0.24083036
-0.060962781 -0.023176134 -0.24082068
-0.060960393 -0.023102427 -0.24080893
-0.060957517 -0.023028504 -0.24080721
-0.060954329 -0.022956405 -0.24081349
-0.060950689 -0.02288018 -0.24082568
-0.060947131 -0.022805953 -0.24083793
-0.060943961 -0.0227319 -0.24084218
-0.060940892 -0.02265789 -0.24084443
-0.060937915 -0.022583924 -0.2408447
-0.060935039 -0.02251 -0.24084294
-0.060932435 -0.022438161 -0.24083725
-0.060929656 -0.022364281 -0.24083352
-0.06092678 -0.022290356 -0.24083176
-0.060923707 -0.022216346 -0.24083403
-0.060920633 -0.022142336 -0.24083628
-0.060917951 -0.022068501 -0.24083054
-0.060915641 -0.021996791 -0.24081886
-0.060913153 -0.021923039 -0.24080913
-0.06091018 -0.021849073 -0.24080938
-0.060906913 -0.021774977 -0.24081564
-0.060904134 -0.021701096 -0.24081188
-0.060901724 -0.021629343 -0.2408022
-0.060898751 -0.021555377 -0.24080247
-0.060895875 -0.021481454 -0.24080072
-0.060893096 -0.021407573 -0.24079698
-0.060890488 -0.021335732 -0.24079129
-0.060888197 -0.021262068 -0.24077758
-0.060885616 -0.021188276 -0.24076983
-0.060882445 -0.021114223 -0.2407741
-0.060879081 -0.021040084 -0.24078234
-0.060875814 -0.020965986 -0.24078858
-0.060872741 -0.020891976 -0.24079083
-0.060869671 -0.020817965 -0.24079308
-0.060866889 -0.020744085 -0.24078935
-0.060863819 -0.020670075 -0.24079159
-0.060860649 -0.020596022 -0.24079585
-0.06085787 -0.020522142 -0.24079211
-0.060855284 -0.020448349 -0.24078438
-0.060852487 -0.020376422 -0.24078268
-0.060849335 -0.020300414 -0.24078488
-0.060846537 -0.02022849 -0.24078318
-0.060844049 -0.020154739 -0.24077345
-0.060841367 -0.020080902 -0.24076772
-0.060838666 -0.020009018 -0.24076402
-0.060835518 -0.019933011 -0.24076624
-0.06083186 -0.019858742 -0.24078047
-0.060828321 -0.019782562 -0.24079067
-0.060825326 -0.019710548 -0.24079297
-0.060822058 -0.019636452 -0.24079922
-0.060819104 -0.019560531 -0.24079743
-0.060816403 -0.019488648 -0.24079373
-0.060813256 -0.01941264 -0.24079594
-0.06081026 -0.019340629 -0.24079823
-0.060807385 -0.019266706 -0.24079651
-0.060804505 -0.019192781 -0.24079475
-0.060801629 -0.019118857 -0.24079302
-0.060799241 -0.01904515 -0.24078129
-0.060796928 -0.018973442 -0.24076961
-0.060794245 -0.018899605 -0.24076387
-0.06079137 -0.01882568 -0.24076213
-0.060788959 -0.018753927 -0.24075244
-0.060786474 -0.018680178 -0.24074271
-0.060784258 -0.01860851 -0.24072903
-0.060781773 -0.018534761 -0.2407193
-0.0607787 -0.018460751 -0.24072155
-0.060775533 -0.018386696 -0.24072582
-0.060772948 -0.018312905 -0.24071808
-0.060770072 -0.01823898 -0.24071634
-0.060766902 -0.018164927 -0.24072057
-0.060764123 -0.018091047 -0.24071684
-0.060761243 -0.018017124 -0.24071512
-0.06075827 -0.017943155 -0.24071535
-0.060755588 -0.01786932 -0.24070962
-0.060753178 -0.017797567 -0.24069995
-0.060750399 -0.017723687 -0.24069619
-0.060747057 -0.017647592 -0.24070241
-0.06074455 -0.017575797 -0.24069473
-0.060742628 -0.01750426 -0.24067505
-0.06074024 -0.017430551 -0.24066332
-0.060737751 -0.017356802 -0.2406536
-0.060735244 -0.017285006 -0.2406459
-0.060731802 -0.017208867 -0.24065411
-0.060728244 -0.017134642 -0.24066633
-0.060725074 -0.017060589 -0.24067059
-0.060722489 -0.016986795 -0.24066286
-0.060719807 -0.01691296 -0.24065712
-0.060716737 -0.016838949 -0.24065937
-0.060713194 -0.016762767 -0.24066956
-0.06070983 -0.016688626 -0.2406778
-0.06070666 -0.016614573 -0.24068207
-0.060703494 -0.016540522 -0.24068631
-0.060700342 -0.016464513 -0.24068852
-0.060697075 -0.016390417 -0.24069476
-0.060693905 -0.016316362 -0.24069901
-0.060690932 -0.016242396 -0.24069926
-0.060688153 -0.016168516 -0.24069554
-0.060685664 -0.016094765 -0.24068579
-0.060683548 -0.016023142 -0.24067011
-0.060680967 -0.015949348 -0.2406624
-0.060678188 -0.015875468 -0.24065864
-0.060676344 -0.01580593 -0.24063903
-0.060673855 -0.01573218 -0.2406293
-0.060669828 -0.015655782 -0.24064949
-0.060666386 -0.015579645 -0.24065769
-0.060663879 -0.015507849 -0.24064998
-0.060661294 -0.015434055 -0.24064225
-0.060658418 -0.015360132 -0.24064052
-0.060654487 -0.015283776 -0.2406587
-0.06065046 -0.01520738 -0.24067888
-0.060647488 -0.015133413 -0.24067914
-0.060644709 -0.015059533 -0.24067539
-0.060641654 -0.014983568 -0.2406756
-0.060638778 -0.014909644 -0.24067387
-0.060636193 -0.014835849 -0.24066612
-0.060633589 -0.014764011 -0.24066044
-0.060631104 -0.014690261 -0.24065071
-0.060628615 -0.01461651 -0.24064097
-0.060626011 -0.014544671 -0.24063528
-0.060624111 -0.014471181 -0.24061358
-0.060622558 -0.014401773 -0.24058796
-0.060620345 -0.014330106 -0.24057429
-0.060617294 -0.014254142 -0.24057449
-0.060613833 -0.014179958 -0.24058473
-0.060610585 -0.014103906 -0.24058893
-0.060608175 -0.014032155 -0.24057925
-0.060605593 -0.013958361 -0.24057153
-0.060602151 -0.013882224 -0.24057971
-0.06059888 -0.013808126 -0.24058597
-0.060595907 -0.013734158 -0.24058622
-0.060592659 -0.013658108 -0.24059042
-0.060589958 -0.013586225 -0.24058673
-0.060587101 -0.013510346 -0.24058294
-0.0605844 -0.013438463 -0.24057925
-0.060582109 -0.013364801 -0.24056552
-0.060579427 -0.013290962 -0.24055979
-0.060576454 -0.013216997 -0.24056005
-0.060573675 -0.013143115 -0.2405563
-0.060571168 -0.013071321 -0.24054861
-0.060568582 -0.012997527 -0.24054089
-0.0605659 -0.01292369 -0.24053515
-0.060562924 -0.012849724 -0.24053541
-0.060559854 -0.012775715 -0.24053766
-0.060557075 -0.012701834 -0.24053392
-0.060554199 -0.012627911 -0.24053219
-0.060550854 -0.012551816 -0.24053839
-0.060547877 -0.012477849 -0.24053864
-0.060545098 -0.012403969 -0.2405349
-0.060542125 -0.012330003 -0.24053515
-0.060538877 -0.012253949 -0.24053934
-0.060535707 -0.012179896 -0.2405436
-0.060532365 -0.012103802 -0.2405498
-0.060529117 -0.012027754 -0.240554
-0.060526241 -0.011953829 -0.24055226
-0.060523655 -0.011880035 -0.24054453
-0.060520582 -0.011806024 -0.24054679
-0.060516849 -0.011729756 -0.24056098
-0.060513504 -0.011653662 -0.24056718
-0.060511485 -0.011582082 -0.2405495
-0.060509272 -0.011510415 -0.24053583
-0.06050612 -0.011434408 -0.24053803
-0.060503051 -0.011360398 -0.24054028
-0.060500368 -0.01128656 -0.24053454
-0.060497392 -0.011212595 -0.2405348
-0.060494438 -0.011136673 -0.24053301
-0.060491931 -0.011064876 -0.24052534
-0.060488958 -0.010990908 -0.24052557
-0.060485613 -0.010914814 -0.24053177
-0.060482539 -0.010840807 -0.24053404
