# .PCD v0.7 - Point Cloud Data file format
VERSION 0.7
FIELDS x y z
SIZE 4 4 4
TYPE F F F
COUNT 1 1 1
WIDTH 1463
HEIGHT 1
VIEWPOINT 0 0 0 1 0 0 0
POINTS 1463
DATA ascii
1.2538861 -0.95521498 0.39279616
1.2538824 -0.95485145 0.39285678
1.2538829 -0.95448428 0.39291859
1.2538787 -0.95413059 0.39297748
1.2538792 -0.95376146 0.39303964
1.2538843 -0.9533788 0.39310473
1.2538772 -0.95304668 0.39315957
1.2538731 -0.95269102 0.39321879
1.2538658 -0.95236284 0.39327294
1.2538564 -0.95204037 0.39332581
1.2538515 -0.95170248 0.39338192
1.2538468 -0.95136255 0.3934384
1.2538416 -0.95103055 0.3934935
1.2538391 -0.95068491 0.39355126
1.2538412 -0.95032573 0.39361197
1.2538357 -0.95000356 0.39366537
1.2538224 -0.94972032 0.39371109
1.2538141 -0.94941574 0.3937611
1.2538044 -0.94909728 0.39381325
1.253792 -0.94879633 0.39386207
1.2537868 -0.9484663 0.39391682
1.253782 -0.94812638 0.39397329
1.2537773 -0.94778848 0.39402944
1.253769 -0.94747996 0.39408016
1.2537558 -0.94719672 0.39412585
1.2537508 -0.94686472 0.39418095
1.2537376 -0.94658148 0.39422667
1.2961744 -0.97526622 0.37926
1.2961015 -0.97525525 0.37925133
1.2960284 -0.97524822 0.37924191
1.2959569 -0.97524917 0.37923127
1.2958838 -0.9752422 0.37922186
1.2958108 -0.9752332 0.37921283
1.2957394 -0.97523218 0.37920257
1.2956663 -0.97522521 0.37919316
1.2955935 -0.97521228 0.37918487
1.2955202 -0.97521114 0.37917435
1.2954489 -0.9752062 0.37916481
1.2953743 -0.97518921 0.37915704
1.2953016 -0.97517437 0.37914911
1.2952282 -0.97517323 0.37913859
1.2951567 -0.97517419 0.37912795
1.2950836 -0.97516912 0.37911814
1.2950107 -0.97515821 0.3791095
1.2949394 -0.97515523 0.37909961
1.2948678 -0.97516012 0.37908819
1.2947944 -0.97515899 0.37907767
1.2947215 -0.97514802 0.37906903
1.2946489 -0.97513121 0.37906149
1.2945758 -0.97512221 0.37905246
1.2945026 -0.97511911 0.3790423
1.2944312 -0.9751181 0.37903202
1.2943581 -0.97511113 0.3790226
1.2942852 -0.97510016 0.37901396
1.2942138 -0.97509915 0.37900367
1.2941407 -0.97509408 0.3789939
1.2940676 -0.97508508 0.37898487
1.2939945 -0.97507811 0.37897545
1.2939217 -0.97506517 0.37896717
1.2938489 -0.97505224 0.37895891
1.2937757 -0.97504723 0.37894911
1.2937042 -0.97505015 0.37893808
1.293631 -0.97504508 0.3789283
1.2935581 -0.97503215 0.37892002
1.2934852 -0.97502315 0.37891099
1.2934138 -0.9750222 0.37890074
1.2933404 -0.97502106 0.37889019
1.2932693 -0.97501415 0.37888104
1.2931962 -0.97500908 0.37887126
1.2931247 -0.97501004 0.37886062
1.2930533 -0.97500908 0.37885034
1.2929798 -0.97500992 0.37883943
1.2929085 -0.97500694 0.37882954
1.2928354 -0.97500384 0.37881938
1.2927641 -0.97500086 0.37880948
1.2926911 -0.97499192 0.37880045
1.2926179 -0.97498488 0.37879103
1.2925467 -0.97497994 0.37878153
1.2924736 -0.97497684 0.37877136
1.2924023 -0.97497392 0.37876147
1.2923293 -0.97496295 0.37875283
1.2922544 -0.9749499 0.37874427
1.2921816 -0.97493893 0.3787356
1.2921101 -0.97493994 0.37872496
1.2920388 -0.97493893 0.37871471
1.2919656 -0.97493386 0.37870491
1.2918925 -0.97492683 0.37869552
1.2918195 -0.97491783 0.37868646
1.2917483 -0.97491294 0.37867695
1.291675 -0.97490984 0.37866679
1.2916038 -0.97490489 0.37865728
1.2915307 -0.97489786 0.37864786
1.2914578 -0.97488892 0.37863883
1.2913848 -0.97487795 0.37863016
1.2913119 -0.97486895 0.37862113
1.2912406 -0.97486603 0.37861124
1.2911671 -0.97486484 0.37860072
1.2910956 -0.97486782 0.37858969
1.2910224 -0.97486275 0.37857991
1.2909496 -0.97485179 0.37857124
1.2908785 -0.97484297 0.37856248
1.2908053 -0.9748379 0.37855271
1.2907324 -0.9748289 0.37854367
1.2906607 -0.97483182 0.37853265
1.2905877 -0.97482675 0.37852287
1.2905147 -0.97481585 0.3785142
1.2904433 -0.97481483 0.37850392
1.2903717 -0.97481972 0.37849253
1.2903001 -0.97482264 0.37848151
1.2902269 -0.97481757 0.37847173
1.2901542 -0.97480273 0.37846383
1.2900814 -0.9747898 0.37845555
1.2900082 -0.97478473 0.37844574
1.2899351 -0.97477967 0.37843597
1.2898639 -0.97477281 0.37842682
1.2897925 -0.9747718 0.37841657
1.2897193 -0.9747687 0.37840641
1.2896481 -0.97476572 0.37839651
1.289575 -0.97475672 0.37838748
1.2895021 -0.97474384 0.3783792
1.2894291 -0.97473681 0.37836978
1.2893559 -0.97473174 0.37836
1.2892846 -0.97472882 0.37835011
1.2892113 -0.97472763 0.37833956
1.2891402 -0.97471881 0.3783308
1.2890674 -0.97470784 0.37832215
1.2889941 -0.97470474 0.37831199
1.2889228 -0.97470182 0.3783021
1.2888496 -0.97469676 0.37829232
1.2887766 -0.97468776 0.37828326
1.2887039 -0.97467095 0.37827575
1.2886308 -0.97466391 0.37826633
1.2885596 -0.9746629 0.37825605
1.2884862 -0.9746598 0.37824592
1.288415 -0.97465682 0.37823603
1.2883437 -0.9746539 0.37822613
1.2882705 -0.97464883 0.37821633
1.2881973 -0.97464377 0.37820655
1.2881243 -0.97463477 0.37819752
1.2880532 -0.97462988 0.37818798
1.2879819 -0.9746269 0.37817812
1.2879084 -0.97462577 0.37816757
1.2878373 -0.97462082 0.37815806
1.2877625 -0.97460777 0.37814951
1.2876897 -0.97459292 0.37814158
1.2876184 -0.97458994 0.37813169
1.2875469 -0.97459483 0.3781203
1.2874736 -0.97459173 0.37811014
1.2874024 -0.97458684 0.37810063
1.2873293 -0.97457981 0.37809122
1.2872562 -0.97457081 0.37808219
1.287185 -0.97456789 0.37807229
1.2871119 -0.97456086 0.37806287
1.2870389 -0.97454989 0.37805423
1.2869678 -0.97454691 0.37804434
1.2868965 -0.97454399 0.37803444
1.286823 -0.97454286 0.37802389
1.2867519 -0.97453791 0.37801439
1.2866786 -0.97453481 0.37800422
1.2866056 -0.97452581 0.37799519
1.2865347 -0.97451502 0.37798679
1.2864614 -0.97451192 0.37797663
1.2863901 -0.97451091 0.37796637
1.286317 -0.97450387 0.37795696
1.2862438 -0.97449887 0.37794718
1.2861725 -0.97449589 0.37793729
1.286101 -0.97449684 0.37792665
1.2860279 -0.97449178 0.37791684
1.285955 -0.97448087 0.3779082
1.2858819 -0.97447187 0.37789917
1.2858111 -0.97445905 0.37789115
1.2857376 -0.97445989 0.37788025
1.2856662 -0.97445893 0.37786996
1.2855935 -0.97444403 0.37786207
1.2855206 -0.97443503 0.37785304
1.2854493 -0.97443211 0.37784314
1.2853758 -0.97443295 0.37783223
1.2853047 -0.97442603 0.37782308
1.2852319 -0.97441113 0.37781516
1.285159 -0.97440022 0.37780651
1.2850875 -0.97440314 0.37779549
1.2850158 -0.97440803 0.3777841
1.2849425 -0.9744069 0.37777355
1.2848696 -0.97439593 0.37776491
1.2847985 -0.97438908 0.37775576
1.2847271 -0.97438806 0.37774548
1.2846539 -0.974383 0.3777357
1.2845807 -0.97437793 0.37772593
1.2845095 -0.97437304 0.37771639
1.2844366 -0.97436208 0.37770775
1.2843655 -0.97435516 0.3776986
1.2842921 -0.974356 0.37768769
1.2842209 -0.97434914 0.37767854
1.2841482 -0.97433424 0.37767065
1.2840753 -0.97432333 0.37766197
1.284004 -0.97432232 0.37765172
1.2839304 -0.97432512 0.37764043
1.2838593 -0.97432017 0.37763092
1.2837862 -0.97431117 0.37762189
1.2837149 -0.97430825 0.37761199
1.2836419 -0.97429925 0.37760293
1.2835692 -0.97428441 0.37759504
1.2834977 -0.97428536 0.3775844
1.2834262 -0.97429025 0.37757301
1.2833531 -0.97428125 0.37756395
1.2832805 -0.97426444 0.37755644
1.2832092 -0.9742595 0.37754691
1.2831358 -0.9742623 0.37753564
1.2830646 -0.97425538 0.37752649
1.2829918 -0.97424251 0.37751821
1.2829206 -0.97423756 0.3775087
1.2828469 -0.97424233 0.37749702
1.2827756 -0.97423935 0.37748712
1.2827027 -0.97423035 0.37747809
1.2826298 -0.97421747 0.37746981
1.2825589 -0.97420663 0.37746143
1.2824858 -0.97419965 0.37745202
1.2824146 -0.97419667 0.37744212
1.2823415 -0.97418767 0.37743309
1.2822703 -0.97418475 0.3774232
1.2821987 -0.97418767 0.37741217
1.2821256 -0.97418064 0.37740275
1.2820528 -0.9741677 0.37739447
1.2819798 -0.9741587 0.37738544
1.2819085 -0.97415578 0.37737554
1.2818371 -0.97415477 0.37736529
1.281764 -0.97414774 0.37735587
1.2816911 -0.97413683 0.37734723
1.28162 -0.97412992 0.37733808
1.2815467 -0.97412682 0.37732792
1.2814754 -0.97412384 0.37731802
1.2814025 -0.97411489 0.37730899
1.2813313 -0.97410995 0.37729946
1.2812598 -0.9741109 0.37728882
1.2811866 -0.97410583 0.37727904
1.2811154 -0.97410095 0.37726951
1.2810419 -0.97410375 0.37725824
1.2809707 -0.97410077 0.37724835
1.2808976 -0.97409177 0.37723932
1.2808267 -0.97408098 0.37723091
1.2807555 -0.97407407 0.37722176
1.2806823 -0.97407097 0.3772116
1.2806112 -0.97406411 0.37720248
1.2805381 -0.97405708 0.37719306
1.2804652 -0.97404611 0.37718439
1.2803942 -0.97403729 0.37717563
1.2803209 -0.97403419 0.37716547
1.2802496 -0.97403121 0.37715557
1.2801764 -0.97402614 0.3771458
1.2801052 -0.97402126 0.37713629
1.2800338 -0.97402024 0.37712601
1.2799608 -0.97401321 0.37711659
1.2798898 -0.97400439 0.37710783
1.2798165 -0.97400129 0.37709767
1.279745 -0.97400421 0.37708664
1.2796736 -0.9740032 0.37707639
1.2796006 -0.9739942 0.37706736
1.2795293 -0.97398931 0.37705782
1.2794566 -0.97397637 0.37704954
1.2793835 -0.97396743 0.37704051
1.2793123 -0.97396445 0.37703061
1.2792393 -0.97395349 0.37702197
1.2791682 -0.97394657 0.37701282
1.2790951 -0.97394156 0.37700304
1.279024 -0.97393465 0.37699389
1.2789527 -0.97393167 0.376984
1.2788794 -0.97392863 0.37697384
1.2788082 -0.97392368 0.3769643
1.2787347 -0.97392648 0.37695304
1.278663 -0.97393137 0.37694162
1.2785918 -0.97392839 0.37693173
1.2785187 -0.97392136 0.37692234
1.2784473 -0.9739204 0.37691206
1.2783742 -0.97391534 0.37690228
1.2783035 -0.97389668 0.3768954
1.278231 -0.97387588 0.3768886
1.2781602 -0.97386312 0.37688059
1.2780867 -0.97386593 0.37686929
1.2780147 -0.97387868 0.37685642
1.2779434 -0.9738757 0.37684652
1.2778724 -0.97386682 0.37683773
1.2777996 -0.97385395 0.37682945
1.2777268 -0.97384101 0.37682119
1.2776555 -0.97383809 0.37681127
1.277584 -0.97384101 0.37680027
1.2775105 -0.97384185 0.37678936
1.2774396 -0.973831 0.37678096
1.2773665 -0.973822 0.37677193
1.2772951 -0.97382104 0.37676165
1.2772239 -0.9738161 0.37675214
1.2771508 -0.973813 0.37674198
1.2770795 -0.97381008 0.37673208
1.2770066 -0.97379714 0.3767238
1.2769357 -0.97378635 0.37671542
1.2768625 -0.97377932 0.376706
1.2767915 -0.97377241 0.37669685
1.2767183 -0.97376734 0.37668708
1.2766469 -0.97376633 0.3766768
1.2765756 -0.97376537 0.37666655
1.2765025 -0.97375834 0.37665713
1.2764316 -0.97374558 0.37664911
1.2763584 -0.97374249 0.37663895
1.2762866 -0.97374934 0.37662718
1.2762152 -0.97375029 0.37661654
1.2761421 -0.97374129 0.37660751
1.2760713 -0.97372854 0.37659949
1.2759982 -0.97371954 0.37659043
1.2759273 -0.97371072 0.37658167
1.2758542 -0.97370368 0.37657228
1.2757827 -0.97370464 0.37656161
1.2757115 -0.97369969 0.3765521
1.2756385 -0.97369075 0.37654307
1.2755673 -0.9736858 0.37653354
1.275496 -0.97368282 0.37652364
1.2754228 -0.97367978 0.37651351
1.2753515 -0.9736768 0.37650362
1.2752802 -0.97367382 0.37649369
1.275207 -0.97366875 0.37648392
1.2751359 -0.97366387 0.37647441
1.2750628 -0.97365487 0.37646538
1.2749918 -0.97364795 0.37645623
1.2749208 -0.9736352 0.37644821
1.274848 -0.97362232 0.37643993
1.2747765 -0.97362524 0.3764289
1.2747051 -0.9736262 0.37641826
1.2746321 -0.97361523 0.37640959
1.274561 -0.97360641 0.37640083
1.2744877 -0.97360528 0.37639031
1.2744164 -0.97360229 0.37638041
1.2743454 -0.97359538 0.37637126
1.2742723 -0.97358644 0.37636223
1.2742009 -0.97358543 0.37635195
1.2741295 -0.97358638 0.37634131
1.2740566 -0.97357547 0.37633267
1.2739859 -0.97356069 0.37632501
1.2739143 -0.97356361 0.37631398
1.2738408 -0.97356641 0.37630272
1.2737699 -0.97355562 0.37629431
1.2736969 -0.97354466 0.37628567
1.2736257 -0.97353971 0.37627614
1.2735544 -0.97353679 0.37626624
1.2734814 -0.97352779 0.37625721
1.2734103 -0.97352087 0.37624806
1.273337 -0.97351784 0.3762379
1.2732658 -0.97351289 0.37622839
1.2731947 -0.973508 0.37621886
1.2731217 -0.97349703 0.37621021
1.2730507 -0.97349012 0.37620106
1.2729775 -0.97348505 0.37619129
1.2729062 -0.97348213 0.37618139
1.2728347 -0.97348309 0.37617075
1.2727615 -0.97347999 0.37616059
1.2726905 -0.97346723 0.37615258
1.2726197 -0.97345442 0.37614456
1.2725465 -0.97344935 0.37613475
1.2724754 -0.97344446 0.37612525
1.272404 -0.97344345 0.37611496
1.2723304 -0.97344822 0.37610331
1.2722592 -0.97344327 0.3760938
1.2721862 -0.97343433 0.37608477
1.272115 -0.97342938 0.37607524
1.2720438 -0.97342443 0.37606573
1.2719707 -0.97341549 0.3760567
1.2718998 -0.97340661 0.37604791
1.2718287 -0.97339976 0.37603879
1.2717553 -0.97339666 0.37602863
1.2716843 -0.97338974 0.37601948
1.2716129 -0.97338873 0.3760092
1.2715393 -0.9733935 0.37599754
1.2714682 -0.97338665 0.37598839
1.2713975 -0.97337186 0.37598076
1.2713243 -0.97336483 0.37597135
1.2712531 -0.97335994 0.37596184
1.2711799 -0.97335488 0.37595204
1.2711086 -0.97335386 0.37594178
1.2710372 -0.97335291 0.3759315
1.2709641 -0.97334588 0.37592211
1.2708931 -0.97333699 0.37591332
1.2708199 -0.97333193 0.37590355
1.2707489 -0.97332507 0.3758944
1.2706776 -0.97332209 0.3758845
1.2706044 -0.97331703 0.37587473
1.2705332 -0.97331214 0.37586522
1.2704619 -0.97330719 0.37585568
1.2703891 -0.97329628 0.37584704
1.2703182 -0.97328544 0.37583864
1.2702471 -0.97327662 0.37582988
1.2701739 -0.97327155 0.3758201
1.2701025 -0.97327054 0.37580982
1.2700312 -0.97326756 0.37579992
1.2699579 -0.97326642 0.37578937
1.2698865 -0.97326547 0.37577912
1.2698135 -0.97325647 0.37577009
1.2697424 -0.97325152 0.37576056
1.2696711 -0.9732486 0.37575066
1.269598 -0.97324157 0.37574127
1.269527 -0.97323269 0.37573248
1.269456 -0.97321993 0.37572446
1.2693828 -0.97321486 0.37571469
1.2693118 -0.97320795 0.37570554
1.2692406 -0.97320306 0.37569603
1.2691675 -0.97319603 0.37568662
1.2690964 -0.97318918 0.37567747
1.2690229 -0.97318995 0.37566656
1.2689514 -0.97319293 0.37565553
1.2688804 -0.97318405 0.37564677
1.2688074 -0.97317314 0.37563813
1.2687365 -0.97316229 0.37562972
1.2686654 -0.97315544 0.37562057
1.2685922 -0.97315037 0.3756108
1.2685208 -0.97314936 0.37560052
1.2684476 -0.97314429 0.37559074
1.2683765 -0.97313941 0.37558123
1.2683054 -0.97313052 0.37557244
1.2682323 -0.97312349 0.37556306
1.2681611 -0.97312254 0.37555277
1.2680876 -0.9731214 0.37554225
1.2680166 -0.97311449 0.3755331
1.2679453 -0.9731096 0.37552357
1.2678722 -0.97310448 0.37551379
1.2678009 -0.97310156 0.3755039
1.2677295 -0.97310054 0.37549365
1.2676563 -0.97309548 0.37548384
1.2675853 -0.97308666 0.37547508
1.2675142 -0.97307777 0.37546632
1.267441 -0.97307467 0.37545615
1.2673699 -0.97306979 0.37544665
1.2672987 -0.97306287 0.3754375
1.2672256 -0.97305584 0.37542808
1.2671542 -0.97305685 0.37541744
1.267081 -0.97305179 0.37540767
1.2670099 -0.97304684 0.37539813
1.2669388 -0.97303605 0.37538975
1.266866 -0.97302508 0.37538108
1.2667946 -0.97302407 0.3753708
1.2667211 -0.9730249 0.37535989
1.2666498 -0.97302198 0.37535
1.2665768 -0.97301495 0.37534061
1.2665056 -0.97300804 0.37533146
1.2664347 -0.97299922 0.3753227
1.2663636 -0.97299033 0.37531391
1.2662903 -0.97298723 0.37530378
1.266219 -0.97298431 0.37529385
1.2661459 -0.97297728 0.37528446
1.2660748 -0.97297233 0.37527493
1.2660036 -0.97296548 0.37526581
1.2659303 -0.97296435 0.37525526
1.265859 -0.97296137 0.37524536
1.2657857 -0.97296023 0.37523484
1.2657145 -0.97295535 0.37522531
1.2656417 -0.97294241 0.37521702
1.2655705 -0.9729355 0.3752079
1.2654992 -0.97293258 0.37519801
1.2654264 -0.97291964 0.37518972
1.2653553 -0.97291082 0.37518093
1.2652841 -0.97290784 0.37517104
1.2652109 -0.97290474 0.37516087
1.2651398 -0.97289592 0.37515211
1.2650665 -0.97289473 0.37514159
1.264995 -0.97289771 0.37513056
1.2649215 -0.97289854 0.37511966
1.2648505 -0.97288769 0.37511125
1.2647799 -0.97287101 0.37510398
1.264709 -0.97285825 0.37509596
1.2646358 -0.97285318 0.37508619
1.2645645 -0.97285217 0.37507594
1.2644912 -0.97284907 0.37506577
1.2644199 -0.97284615 0.37505588
1.2643464 -0.97284889 0.37504458
1.2642751 -0.97284597 0.37503469
1.2642021 -0.97283697 0.37502566
1.2641309 -0.97283202 0.37501612
1.2640599 -0.9728232 0.37500736
1.2639869 -0.9728142 0.37499833
1.2639158 -0.97280729 0.37498918
1.2638425 -0.97280419 0.37497902
1.2637709 -0.97280717 0.37496802
1.2636977 -0.97280407 0.37495786
1.2636267 -0.97279519 0.3749491
1.2635536 -0.97278816 0.37493968
1.2634825 -0.97278327 0.37493014
1.2634093 -0.97277623 0.37492076
1.263338 -0.97277522 0.37491047
1.2632645 -0.97277606 0.37489957
1.2631932 -0.97277308 0.37488967
1.2631221 -0.97276622 0.37488052
1.263049 -0.97275919 0.37487113
1.262978 -0.97275233 0.37486199
1.2629045 -0.97275317 0.37485108
1.2628311 -0.972754 0.37484017
1.2627598 -0.97275102 0.37483028
1.2626865 -0.97274792 0.37482011
1.2626154 -0.97274101 0.37481096
1.2625424 -0.97273207 0.37480193
1.2624713 -0.97272515 0.37479278
1.2624002 -0.97271824 0.37478364
1.2623271 -0.97271127 0.37477422
1.2622559 -0.97270632 0.37476471
1.2621824 -0.97270912 0.37475342
1.2621109 -0.97271007 0.37474278
1.2620378 -0.97270304 0.37473339
1.2619667 -0.97269619 0.37472424
1.2618934 -0.97269505 0.37471369
1.26182 -0.97269392 0.37470317
1.2617487 -0.97269291 0.37469289
1.261675 -0.97269768 0.37468123
1.2616016 -0.97269845 0.37467033
1.2615302 -0.97269946 0.37465969
1.2614568 -0.97269636 0.37464952
1.2613856 -0.97269338 0.37463963
1.2613121 -0.97269422 0.37462872
1.2612387 -0.97269505 0.37461782
1.2611653 -0.97269785 0.37460652
1.2610912 -0.97271043 0.37459335
1.2610173 -0.97272307 0.3745802
1.2609414 -0.97273552 0.37456676
1.2602638 -0.97681272 0.37371376
1.2601855 -0.9768368 0.37369782
1.2600955 -0.97694474 0.37366468
1.2600104 -0.97702944 0.37363657
1.2594469 -0.98013026 0.37298077
1.2594655 -0.97942877 0.37311319
1.2594057 -0.97929668 0.37312886
1.2593479 -0.97916669 0.37314442
1.259285 -0.9790659 0.37315381
1.2592155 -0.97902173 0.37315181
1.2591405 -0.97901261 0.37314251
1.259065 -0.97901326 0.37313133
1.2589877 -0.9790138 0.37311989
1.2589102 -0.97901636 0.37310809
1.2588344 -0.97902489 0.37309542
1.2591308 -0.97631902 0.37363908
1.2590582 -0.97630215 0.37363154
1.2589878 -0.97627956 0.3736254
1.2589154 -0.97625488 0.37361938
1.2588426 -0.97624195 0.37361109
1.2587672 -0.97624069 0.37360027
1.2586917 -0.97624534 0.37358835
1.2586161 -0.97624993 0.37357643
1.2585427 -0.97625077 0.37356552
1.2584676 -0.97624558 0.37355548
1.2583923 -0.9762423 0.37354505
1.2583191 -0.9762373 0.37353528
1.258244 -0.97623205 0.37352523
1.2581707 -0.97622895 0.37351507
1.2580951 -0.9762336 0.37350315
1.2580197 -0.97623622 0.37349159
1.2579445 -0.97623104 0.37348154
1.2578692 -0.97622782 0.37347111
1.2577963 -0.97621882 0.37346208
1.2577236 -0.97620201 0.37345457
1.2576507 -0.97618908 0.37344629
1.2575754 -0.97618783 0.37343547
1.2574998 -0.97619241 0.37342355
1.2574245 -0.97619116 0.37341276
1.2573514 -0.9761861 0.37340295
1.2572761 -0.97618288 0.37339255
1.2572007 -0.97618353 0.37338138
1.2571253 -0.97618425 0.3733702
1.2570521 -0.97618115 0.37336004
1.2569765 -0.9761858 0.37334812
1.2568986 -0.97619617 0.3733348
1.2568232 -0.97619683 0.37332362
1.2567475 -0.97620535 0.37331095
1.2566667 -0.97623914 0.37329286
1.2565881 -0.97626722 0.37327617
1.2565072 -0.97630292 0.3732577
1.2564265 -0.97633278 0.37324038
1.2563481 -0.97635496 0.37322479
1.2538047 -0.97977751 0.3722195
1.2537328 -0.979743 0.37221536
1.2536553 -0.97974747 0.37220317
1.2538639 -0.97810048 0.37253821
1.2538661 -0.97764194 0.37262326
1.2538811 -0.97711349 0.37272319
1.2538353 -0.97693515 0.37274945
1.2539982 -0.97556645 0.37302634
1.2539915 -0.97517228 0.37309822
1.2540319 -0.97451955 0.37322479
1.2540532 -0.97398365 0.37332702
1.2540518 -0.97356033 0.37340507
1.254058 -0.97310013 0.37349105
1.2540717 -0.97260302 0.37358496
1.2540692 -0.97220719 0.37365776
1.2540774 -0.97174317 0.37374476
1.2540922 -0.97126782 0.37383479
1.2540947 -0.97084671 0.37391302
1.254089 -0.97047824 0.37398028
1.2540929 -0.97006905 0.37405652
1.2540846 -0.96971214 0.37412128
1.2540759 -0.96936709 0.3741838
1.2540725 -0.9689889 0.37425321
1.2540756 -0.96859735 0.37432605
1.2540795 -0.9681921 0.37440154
1.2540755 -0.96782768 0.37446833
1.2540756 -0.96746153 0.37453604
1.2540712 -0.96710688 0.37460095
1.2540733 -0.96674091 0.37466893
1.2540759 -0.96636117 0.3747395
1.2540686 -0.96602798 0.37480003
1.2540662 -0.96567345 0.37486523
1.2540566 -0.96534801 0.37492397
1.2540468 -0.96502644 0.374982
1.2540417 -0.96468949 0.37504354
1.2540367 -0.96434861 0.37510583
1.2540313 -0.96401751 0.37516624
1.2540284 -0.96367282 0.37522954
1.2540301 -0.96331465 0.375296
1.2540243 -0.96299338 0.37535456
1.2540108 -0.96271294 0.37540442
1.2540022 -0.9624092 0.37545931
1.2539921 -0.96209353 0.37551618
1.2539816 -0.96178967 0.37557083
1.2539741 -0.96146041 0.37563059
1.253969 -0.96112341 0.37569213
1.2539638 -0.96078646 0.37575367
1.2539554 -0.96047878 0.37580931
1.253942 -0.96019441 0.37585995
1.2539365 -0.95986527 0.37591997
1.253925 -0.95958298 0.37597048
1.2963941 -0.98796791 0.36061725
1.2963212 -0.98795688 0.3606087
1.2962481 -0.98794973 0.36059934
1.2961766 -0.98795253 0.36058822
1.2961036 -0.98794347 0.36057928
1.2960305 -0.98793441 0.36057031
1.2959592 -0.98793328 0.36056
1.295886 -0.98792619 0.36055064
1.2958132 -0.98791319 0.36054251
1.2957399 -0.98791194 0.36053196
1.2956687 -0.98790693 0.36052245
1.2955941 -0.98788989 0.36051485
1.2955213 -0.98787689 0.36050671
1.2954479 -0.98787367 0.36049655
1.2953765 -0.98787457 0.36048582
1.2953033 -0.98786938 0.36047608
1.2952304 -0.98785836 0.36046752
1.2951592 -0.98785532 0.36045763
1.2950876 -0.98786008 0.3604461
1.2950143 -0.98785883 0.36043552
1.2949414 -0.98784584 0.36042738
1.2948686 -0.98783088 0.36041963
1.2947958 -0.98781985 0.36041111
1.2947223 -0.9878186 0.36040053
1.294651 -0.98781753 0.36039022
1.294578 -0.98781037 0.36038086
1.294505 -0.98779935 0.3603723
1.2944336 -0.98779821 0.36036199
1.2943604 -0.98779505 0.36035183
1.2942874 -0.98778403 0.36034328
1.2942144 -0.98777688 0.36033392
1.2941415 -0.98776388 0.36032578
1.2940687 -0.98775089 0.36031765
1.2939955 -0.98774576 0.36030787
1.293924 -0.98774856 0.36029676
1.2938508 -0.98774338 0.36028698
1.2937779 -0.98773038 0.36027884
1.293705 -0.98772132 0.3602699
1.2936336 -0.98772025 0.36025959
1.2935603 -0.987719 0.36024901
1.2934892 -0.98771203 0.36023992
1.293416 -0.98770684 0.36023015
1.2933446 -0.98770767 0.36021945
1.2932731 -0.98770857 0.36020872
1.2931998 -0.98770732 0.36019814
1.2931286 -0.98770225 0.36018863
1.2930553 -0.98770106 0.36017805
1.292984 -0.98769796 0.36016816
1.2929109 -0.9876889 0.36015922
1.2928379 -0.98768175 0.36014986
1.2927667 -0.98767674 0.36014035
1.2926934 -0.98767352 0.36013019
1.2926222 -0.98767048 0.36012027
1.2925493 -0.98765945 0.36011174
1.2924745 -0.98764437 0.36010373
1.2924016 -0.98763531 0.36009479
1.29233 -0.98763615 0.36008406
1.2922587 -0.98763502 0.36007375
1.2921855 -0.98762989 0.360064
1.2921125 -0.98762274 0.36005464
1.2920413 -0.98761576 0.36004555
1.2919681 -0.98761064 0.36003578
1.291895 -0.98760545 0.360026
1.2918237 -0.98760045 0.36001652
1.2917507 -0.98759335 0.36000717
1.2916777 -0.98758423 0.3599982
1.2916048 -0.98757321 0.35998967
1.2915318 -0.98756415 0.3599807
1.2914605 -0.98756111 0.35997081
1.2913872 -0.98755985 0.35996023
1.2913157 -0.98756266 0.35994911
1.2912425 -0.98755747 0.35993934
1.2911695 -0.98754644 0.35993081
1.2910985 -0.98753947 0.35992169
1.2910254 -0.98753238 0.35991234
1.2909522 -0.98752522 0.35990298
1.2908808 -0.98752606 0.35989228
1.2908076 -0.98752093 0.3598825
1.2907348 -0.98750991 0.35987395
1.2906634 -0.98750877 0.35986364
1.2905917 -0.98751551 0.35985172
1.2905202 -0.98751634 0.35984099
1.290447 -0.98751122 0.35983121
1.2903743 -0.98749626 0.3598235
1.2903014 -0.98748326 0.35981536
1.2902282 -0.98747814 0.35980558
1.2901551 -0.98747295 0.35979584
1.290084 -0.98746598 0.35978675
1.2900126 -0.98746485 0.35977644
1.2899394 -0.98746169 0.35976624
1.2898681 -0.98745859 0.35975635
1.2897952 -0.98744953 0.35974741
1.2897223 -0.98743653 0.35973927
1.2896491 -0.98742944 0.35972992
1.2895761 -0.98742425 0.35972014
1.2895048 -0.98742121 0.35971025
1.2894313 -0.98741996 0.35969967
1.2893604 -0.98741102 0.35969096
1.2892874 -0.9874 0.35968244
1.2892141 -0.98739678 0.35967225
1.289143 -0.98739374 0.35966235
1.2890698 -0.98738855 0.35965258
1.2889967 -0.98737949 0.35964364
1.2889241 -0.98736256 0.35963631
1.288851 -0.98735547 0.35962695
1.2887796 -0.98735434 0.35961664
1.2887064 -0.98735118 0.35960647
1.2886351 -0.98734808 0.35959658
1.2885638 -0.98734504 0.35958666
1.2884907 -0.98733985 0.35957691
1.2884175 -0.98733473 0.35956714
1.2883445 -0.98732567 0.35955819
1.2882732 -0.9873206 0.35954869
1.288202 -0.98731756 0.35953879
1.2881286 -0.98731631 0.35952821
1.2880555 -0.98731112 0.35951844
1.2879827 -0.98729622 0.35951072
1.2879099 -0.98728323 0.35950258
1.2878386 -0.98728013 0.35949266
1.2877671 -0.9872849 0.35948113
1.2876937 -0.98728168 0.35947096
1.2876226 -0.98727667 0.35946146
1.2875495 -0.98726958 0.3594521
1.2874783 -0.98726261 0.35944301
1.2874051 -0.98725742 0.35943326
1.2873322 -0.98724836 0.35942429
1.2872592 -0.9872393 0.35941535
1.2871879 -0.9872362 0.35940546
1.2871166 -0.98723316 0.35939553
1.2870433 -0.98723191 0.35938495
1.286972 -0.9872269 0.35937548
1.2868989 -0.98722368 0.35936528
1.2868258 -0.98721462 0.35935634
1.2867548 -0.98720372 0.35934806
1.2866817 -0.9872005 0.3593379
1.2866102 -0.98719943 0.35932758
1.2865372 -0.98719227 0.35931823
1.2864641 -0.98718518 0.35930887
1.2863927 -0.98718405 0.35929856
1.2863213 -0.98718488 0.35928783
1.2862482 -0.98717779 0.35927847
1.2861753 -0.98716873 0.35926953
1.2861023 -0.9871577 0.35926098
1.2860314 -0.98714679 0.35925269
1.2859579 -0.98714751 0.35924172
1.2858865 -0.98714638 0.35923141
1.2858137 -0.98713344 0.35922328
1.2857409 -0.98712236 0.35921472
1.2856696 -0.98711932 0.35920483
1.2855961 -0.98712003 0.35919383
1.285525 -0.98711306 0.35918474
1.2854522 -0.9870981 0.35917702
1.2853793 -0.98708707 0.35916847
1.2853078 -0.98708987 0.35915735
1.2852361 -0.98709464 0.35914582
1.2851628 -0.98709339 0.35913524
1.28509 -0.98708236 0.35912669
1.2850188 -0.98707539 0.3591176
1.2849456 -0.98707217 0.35910743
1.2848743 -0.98706913 0.35909751
1.2848011 -0.98706394 0.35908777
1.28473 -0.98705894 0.35907826
1.284657 -0.98704791 0.35906971
1.2845858 -0.98704094 0.35906062
1.2845124 -0.98704165 0.35904962
1.2844414 -0.98703468 0.35904053
1.2843667 -0.98701763 0.35903296
1.2842957 -0.98700869 0.35902426
1.2842243 -0.98700762 0.35901394
1.2841508 -0.98701024 0.35900256
1.2840796 -0.98700523 0.35899305
1.2840066 -0.98699617 0.35898411
1.2839353 -0.98699307 0.35897422
1.2838624 -0.98698205 0.35896567
1.2837895 -0.98696905 0.35895753
1.2837182 -0.98696798 0.35894722
1.2836465 -0.98697466 0.35893527
1.2835735 -0.9869656 0.35892633
1.2835008 -0.98694873 0.35891899
1.2834296 -0.98694372 0.35890949
1.2833562 -0.98694634 0.3588981
1.283285 -0.98693937 0.35888901
1.2832122 -0.98692638 0.35888088
1.283141 -0.98692137 0.35887137
1.2830675 -0.98692602 0.35885957
1.2829962 -0.98692292 0.35884967
1.2829231 -0.98691386 0.35884073
1.2828503 -0.98690087 0.3588326
1.2827793 -0.98688996 0.35882431
1.2827063 -0.98688287 0.35881495
1.282635 -0.98687983 0.35880506
1.282562 -0.98687071 0.35879609
1.2824907 -0.98686767 0.3587862
1.2824192 -0.98687047 0.35877508
1.2823461 -0.98686337 0.35876572
1.2822733 -0.98685038 0.35875759
1.2822002 -0.98684132 0.35874861
1.2821289 -0.98683822 0.35873872
1.2820576 -0.98683715 0.35872841
1.2819846 -0.98683 0.35871905
1.2819116 -0.98681897 0.3587105
1.2818404 -0.986812 0.35870141
1.2817672 -0.98680878 0.35869125
1.281696 -0.98680574 0.35868132
1.281623 -0.98679668 0.35867238
1.2815517 -0.98679161 0.35866287
1.2814802 -0.98679441 0.35865176
1.2814071 -0.98678732 0.3586424
1.2813359 -0.98678231 0.35863289
1.2812624 -0.98678499 0.35862151
1.2811911 -0.9867819 0.35861161
1.2811182 -0.98677284 0.35860264
1.2810471 -0.98676389 0.35859397
1.2809761 -0.98675495 0.35858527
1.2809029 -0.98675174 0.35857511
1.2808317 -0.98674476 0.35856602
1.2807586 -0.98673767 0.35855666
1.2806858 -0.98672664 0.3585481
1.2806147 -0.9867177 0.35853943
1.2805414 -0.98671448 0.35852927
1.2804701 -0.98671144 0.35851935
1.2803971 -0.98670626 0.3585096
1.2803258 -0.98670125 0.35850009
1.2802545 -0.98670012 0.35848978
1.2801814 -0.98669302 0.35848042
1.2801104 -0.98668408 0.35847172
1.280037 -0.98668087 0.35846156
1.2799655 -0.98668367 0.35845044
1.2798942 -0.98668259 0.35844013
1.2798212 -0.98667347 0.35843116
1.27975 -0.98666847 0.35842168
1.2796772 -0.98665547 0.35841355
1.2796042 -0.98664641 0.35840458
1.2795329 -0.98664337 0.35839468
1.27946 -0.98663235 0.35838613
1.2793889 -0.98662537 0.35837704
1.2793157 -0.98662019 0.35836729
1.2792447 -0.98661125 0.35835859
1.2791733 -0.98661017 0.35834828
1.2791001 -0.98660696 0.35833812
1.2790289 -0.98660195 0.35832861
1.2789553 -0.98660457 0.35831723
1.2788837 -0.98660934 0.35830569
1.2788124 -0.9866063 0.35829577
1.2787393 -0.98659921 0.35828641
1.278668 -0.98659807 0.3582761
1.2785949 -0.98659289 0.35826635
1.2785242 -0.98657417 0.35825971
1.2784517 -0.98655337 0.35825318
1.2783809 -0.98654056 0.35824531
1.2783073 -0.98654318 0.35823393
1.2782354 -0.98655576 0.35822076
1.2781641 -0.98655272 0.35821086
1.2780931 -0.98654377 0.35820216
1.2780203 -0.98653078 0.35819402
1.2779474 -0.98651779 0.35818589
1.2778761 -0.98651475 0.35817599
1.2778046 -0.98651755 0.35816485
1.2777312 -0.98651826 0.35815388
1.2776603 -0.98650736 0.35814559
1.2775873 -0.9864983 0.35813665
1.2775159 -0.98649716 0.35812634
1.2774447 -0.98649216 0.35811684
1.2773714 -0.98648894 0.35810667
1.2773001 -0.9864859 0.35809675
1.2772273 -0.9864729 0.35808861
1.2771564 -0.986462 0.35808033
1.2770833 -0.9864549 0.35807097
1.2770122 -0.98644793 0.35806188
1.276939 -0.98644274 0.35805213
1.2768676 -0.98644167 0.35804182
1.2767963 -0.98644054 0.35803151
1.2767233 -0.98643345 0.35802215
1.2766522 -0.98642254 0.35801387
1.2765791 -0.98641741 0.35800409
1.2765074 -0.98642409 0.35799217
1.276436 -0.98642492 0.35798144
1.2763629 -0.98641586 0.3579725
1.2762922 -0.98640108 0.35796502
1.2762191 -0.98639393 0.35795566
1.2761481 -0.98638505 0.35794699
1.276075 -0.98637789 0.35793763
1.2760035 -0.98637879 0.35792691
1.2759323 -0.98637372 0.3579174
1.2758594 -0.98636466 0.35790846
1.2757882 -0.98635966 0.35789895
1.2757169 -0.98635656 0.35788906
1.2756436 -0.9863534 0.35787886
1.2755723 -0.9863503 0.35786897
1.275501 -0.98634726 0.35785908
1.2754279 -0.98634011 0.35784972
1.2753568 -0.9863351 0.35784021
1.2752837 -0.98632801 0.35783085
1.2752125 -0.98632103 0.35782176
1.2751417 -0.98630816 0.35781389
1.2750689 -0.98629516 0.35780576
1.2749974 -0.98629797 0.35779461
1.2749259 -0.98629886 0.35778391
1.2748529 -0.98628974 0.35777494
1.2747819 -0.98627889 0.35776669
1.2747086 -0.98627764 0.35775611
1.2746372 -0.98627651 0.3577458
1.2745662 -0.98626757 0.35773709
1.2744932 -0.98625851 0.35772815
1.2744218 -0.98625737 0.35771784
1.2743504 -0.98625827 0.35770711
1.2742774 -0.98624724 0.35769856
1.2742068 -0.9862324 0.35769111
1.2741352 -0.9862352 0.35767999
1.2740617 -0.98623788 0.35766858
1.2739908 -0.98622698 0.35766029
1.2739178 -0.98621595 0.35765177
1.2738466 -0.98621094 0.35764226
1.2737755 -0.98620594 0.35763276
1.2737024 -0.98619878 0.3576234
1.2736312 -0.98619378 0.35761392
1.273558 -0.98618865 0.35760415
1.2734869 -0.98618358 0.35759464
1.2734157 -0.98617661 0.35758555
1.2733427 -0.98616755 0.35757661
1.2732716 -0.98616058 0.35756752
1.2731984 -0.98615539 0.35755774
1.2731271 -0.98615235 0.35754785
1.2730557 -0.98615319 0.35753712
1.2729825 -0.98615003 0.35752696
1.2729115 -0.98613715 0.35751909
1.2728407 -0.98612428 0.35751119
1.2727675 -0.98611915 0.35750145
1.2726964 -0.98611414 0.35749194
1.272625 -0.98611301 0.35748163
1.2725514 -0.98611766 0.35746983
1.2724802 -0.98611259 0.35746032
1.2724072 -0.98610353 0.35745138
1.272336 -0.98609853 0.35744187
1.2722648 -0.98609155 0.35743278
1.2721919 -0.98608249 0.35742384
1.2721207 -0.98607552 0.35741475
1.2720497 -0.98606849 0.35740566
1.2719764 -0.98606533 0.35739547
1.2719053 -0.98605835 0.35738638
1.2718339 -0.98605722 0.35737607
1.2717603 -0.98606187 0.35736427
1.2716892 -0.9860549 0.35735518
1.2716185 -0.98604006 0.35734773
1.2715454 -0.98603296 0.35733837
1.2714741 -0.98602796 0.35732886
1.271401 -0.98602277 0.35731912
1.2713296 -0.98602164 0.35730878
1.2712582 -0.98602057 0.35729846
1.2711852 -0.98601341 0.35728911
1.2711142 -0.98600447 0.35728043
1.271041 -0.98599935 0.35727066
1.2709699 -0.98599237 0.35726157
1.2708986 -0.98598927 0.35725167
1.2708254 -0.98598415 0.3572419
1.2707542 -0.98597914 0.35723239
1.2706831 -0.98597407 0.35722291
1.2706101 -0.98596305 0.35721436
1.2705392 -0.9859522 0.35720608
1.2704681 -0.98594326 0.3571974
1.2703949 -0.98594004 0.35718721
1.2703235 -0.98593891 0.3571769
1.2702523 -0.9859339 0.35716742
1.270179 -0.98593265 0.35715684
1.2701076 -0.98593158 0.35714653
1.2700347 -0.98592246 0.35713756
1.2699635 -0.98591745 0.35712808
1.2698922 -0.98591244 0.35711858
1.2698191 -0.98590529 0.35710922
1.2697481 -0.98589641 0.35710052
1.2696772 -0.9858855 0.35709226
1.2696041 -0.98588032 0.35708249
1.2695329 -0.98587334 0.3570734
1.2694618 -0.98586833 0.35706389
1.2693887 -0.98586124 0.35705453
1.2693175 -0.98585427 0.35704544
1.2692441 -0.98585492 0.35703444
1.2691725 -0.98585773 0.35702333
1.2691015 -0.98584884 0.35701466
1.2690287 -0.98583782 0.3570061
1.2689577 -0.98582691 0.35699782
1.2688866 -0.98581994 0.35698873
1.2688134 -0.98581475 0.35697895
1.2687421 -0.98581368 0.35696864
1.2686688 -0.98581046 0.35695848
1.2685977 -0.98580348 0.35694939
1.2685267 -0.98579454 0.35694072
1.2684536 -0.98578745 0.35693136
1.2683822 -0.98578632 0.35692105
1.2683089 -0.98578507 0.35691047
1.2682377 -0.98577809 0.35690138
1.2681665 -0.98577309 0.35689187
1.2680933 -0.9857679 0.3568821
1.2680222 -0.98576486 0.3568722
1.2679508 -0.98576373 0.35686189
1.2678776 -0.98575854 0.35685211
1.2678065 -0.98574966 0.35684344
1.2677355 -0.98574072 0.35683474
1.2676623 -0.9857375 0.35682458
1.2675911 -0.9857325 0.35681507
1.26752 -0.98572552 0.35680598
1.2674469 -0.98571837 0.35679662
1.2673755 -0.9857173 0.35678631
1.2673023 -0.98571408 0.35677615
1.2672311 -0.98570907 0.35676664
1.2671602 -0.98569816 0.35675836
1.2670872 -0.98568714 0.35674983
1.2670158 -0.98568606 0.35673952
1.2669424 -0.98568869 0.35672811
1.2668712 -0.98568368 0.35671863
1.266798 -0.98567653 0.35670927
1.266727 -0.98566961 0.35670018
1.2666559 -0.98566067 0.35669148
1.2665849 -0.98565173 0.35668281
1.2665116 -0.98565048 0.35667223
1.2664404 -0.98564547 0.35666272
1.2663673 -0.98563832 0.35665336
1.2662961 -0.98563331 0.35664386
1.266225 -0.98562634 0.35663477
1.2661517 -0.98562509 0.35662419
1.2660804 -0.98562205 0.35661429
1.2660071 -0.98562074 0.35660371
1.2659358 -0.98561573 0.3565942
1.2658629 -0.98560274 0.35658607
1.2657919 -0.98559576 0.35657698
1.2657206 -0.98559272 0.35656708
1.2656478 -0.98557973 0.35655895
1.2655767 -0.98557079 0.35655025
1.2655054 -0.98556775 0.35654035
1.2654322 -0.98556453 0.35653019
1.2653612 -0.98555559 0.35652149
1.2652879 -0.98555434 0.35651091
1.2652164 -0.98555714 0.35649979
1.2651429 -0.98555785 0.35648879
1.265072 -0.98554695 0.35648051
1.2650013 -0.9855302 0.35647345
1.2649304 -0.98551738 0.35646558
1.2648573 -0.9855122 0.35645583
1.2647859 -0.98551112 0.35644552
1.2647127 -0.98550594 0.35643575
1.2646414 -0.98550284 0.35642585
1.2645679 -0.98550749 0.35641405
1.2644966 -0.98550445 0.35640413
1.2644236 -0.98549342 0.3563956
1.2643523 -0.98549032 0.35638568
1.2642813 -0.98548138 0.35637701
1.2642083 -0.98547232 0.35636806
1.2641373 -0.98546535 0.35635895
1.2640638 -0.9854641 0.3563484
1.2639924 -0.98546493 0.35633767
1.2639192 -0.98546177 0.3563275
1.2638482 -0.98545086 0.35631922
1.2637751 -0.98544568 0.35630944
1.2637038 -0.98544067 0.35629994
1.2636307 -0.98543555 0.35629019
1.2635595 -0.98543245 0.35628027
1.263486 -0.98543316 0.3562693
1.2634147 -0.98543012 0.35625938
1.2633436 -0.98542309 0.35625029
1.2632705 -0.985416 0.35624093
1.2631994 -0.98540902 0.35623184
1.263126 -0.98540974 0.35622087
1.2630526 -0.98541045 0.35620987
1.2629813 -0.98540735 0.35619998
1.262908 -0.98540419 0.35618979
1.2628369 -0.98539722 0.3561807
1.262764 -0.98538816 0.35617176
1.2626928 -0.98538113 0.35616267
1.2626218 -0.98537415 0.35615358
1.2625486 -0.98536706 0.35614422
1.2624774 -0.98536205 0.35613471
1.262404 -0.98536468 0.35612333
1.2623326 -0.9853636 0.35611302
1.2622594 -0.98535842 0.35610324
1.2621883 -0.98535144 0.35609415
1.2621149 -0.98535019 0.35608357
1.2620416 -0.98534894 0.35607299
1.2619702 -0.98534977 0.35606229
1.2618966 -0.98535246 0.35605088
1.2618232 -0.98535317 0.35603991
1.2617518 -0.98535401 0.35602918
1.2616786 -0.98535085 0.35601902
1.2616073 -0.98534775 0.3560091
1.2615339 -0.98534846 0.35599813
1.2614603 -0.98535115 0.35598674
1.2613869 -0.98535186 0.35597575
1.261313 -0.98536432 0.35596234
1.2612391 -0.98537672 0.3559489
1.2611631 -0.98538905 0.35593522
1.2604893 -0.98945451 0.35501605
1.260411 -0.98947644 0.35500008
1.2603211 -0.98958397 0.35496515
1.2602363 -0.98966819 0.35493562
1.2596756 -0.99275857 0.35422975
1.2596936 -0.99205929 0.3543734
1.2596338 -0.9919275 0.35439113
1.259576 -0.9917959 0.35440913
1.2595127 -0.99169725 0.35441971
1.2594432 -0.99165308 0.35441834
1.2593682 -0.99164385 0.35440913
1.2592928 -0.99164444 0.35439786
1.2592155 -0.99164486 0.35438636
1.259138 -0.99164724 0.35437444
1.2590622 -0.99165761 0.35436115
1.2593561 -0.9889586 0.35494873
1.2592834 -0.98894167 0.3549414
1.2592131 -0.98891908 0.35493556
1.2591407 -0.98889434 0.35492986
1.2590679 -0.98887938 0.35492215
1.2589927 -0.98887801 0.3549113
1.2589171 -0.98888248 0.35489923
1.2588415 -0.98888695 0.35488719
1.258768 -0.98888963 0.35487577
1.2586927 -0.9888863 0.35486534
1.2586176 -0.98888099 0.35485533
1.2585444 -0.98887581 0.35484555
1.2584693 -0.9888705 0.35483554
1.258396 -0.98886734 0.35482535
1.2583205 -0.98887181 0.35481331
1.258245 -0.98887432 0.35480165
1.2581699 -0.98886901 0.35479161
1.2580945 -0.98886567 0.35478118
1.2580216 -0.98885661 0.35477224
1.2579489 -0.98884165 0.35476449
1.257876 -0.98882675 0.35475677
1.2578008 -0.98882532 0.35474592
1.2577252 -0.98882985 0.35473388
1.2576499 -0.98882842 0.35472304
1.2575767 -0.98882329 0.35471326
1.2575015 -0.98881996 0.35470283
1.2574261 -0.98882049 0.35469159
1.2573508 -0.98881912 0.35468075
1.2572775 -0.98881787 0.35467017
1.2572019 -0.98882234 0.3546581
1.2571241 -0.98883259 0.35464457
1.2570486 -0.98883313 0.3546333
1.256973 -0.98883957 0.35462084
1.2568922 -0.98887312 0.35460216
1.2568136 -0.98890096 0.35458493
1.2567328 -0.98893642 0.35456586
1.2566522 -0.98896611 0.35454798
1.2565718 -0.9889918 0.3545309
1.2540339 -0.992396 0.35346985
1.2539619 -0.99236345 0.3534658
1.2538844 -0.9923678 0.35345346
1.2540935 -0.99072438 0.35381567
1.2540882 -0.99029428 0.35390159
1.2541078 -0.98974228 0.3540158
1.2540619 -0.98956245 0.35404527
1.2542235 -0.98819828 0.35434416
1.2542163 -0.98780918 0.35442153
1.2542561 -0.98715663 0.354559
1.254275 -0.98662221 0.35466951
1.2542752 -0.98620033 0.3547546
1.254281 -0.98573965 0.35484836
1.2542942 -0.98524803 0.35494941
1.2542913 -0.98485142 0.35502893
1.2542992 -0.98438889 0.35512337
1.2543135 -0.98391497 0.35522103
1.2543155 -0.9834972 0.35530555
1.2543094 -0.9831298 0.35537872
1.2543131 -0.98271799 0.35546231
1.2543044 -0.98236412 0.35553235
1.2542953 -0.98202008 0.35560039
1.2542917 -0.98164308 0.35567585
1.2542944 -0.98125279 0.35575497
1.2542979 -0.98084879 0.3558369
1.2542934 -0.98048741 0.35590911
1.2542932 -0.98012239 0.35598266
1.2542886 -0.97976887 0.35605326
1.2542883 -0.97940385 0.35612682
1.2542926 -0.97902346 0.35620415
1.254285 -0.97869325 0.3562696
1.2542802 -0.97833973 0.35634017
1.2542723 -0.9780134 0.35640481
1.2542623 -0.97769284 0.35646793
1.2542568 -0.97735691 0.35653487
1.2542515 -0.97701705 0.35660261
1.2542458 -0.97668892 0.35666791
1.2542427 -0.97634339 0.35673714
1.254244 -0.97598827 0.3568089
1.2542379 -0.97566605 0.35687298
1.2542241 -0.97538638 0.35692731
1.2542152 -0.97508359 0.35698706
1.254205 -0.97476691 0.35704938
1.254194 -0.97446591 0.35710847
1.2541863 -0.97413766 0.3571735
1.2541808 -0.97380173 0.35724041
1.2541754 -0.97346383 0.35730773
1.2541667 -0.97315711 0.35736829
1.254153 -0.97287554 0.35742304
1.2541472 -0.97254741 0.35748833
1.2541354 -0.97226596 0.35754335
1.2964699 -0.99197668 0.35459763
1.2963971 -0.99196368 0.35458952
1.2963239 -0.9919585 0.35457978
1.2962525 -0.99195927 0.35456902
1.2961794 -0.99195212 0.35455969
1.2961063 -0.991943 0.35455078
1.2960351 -0.99194187 0.35454044
1.295962 -0.99193281 0.35453153
1.2958891 -0.99192172 0.354523
1.2958158 -0.9919185 0.35451284
1.2957445 -0.9919154 0.35450292
1.2956699 -0.99189836 0.35449541
1.2955972 -0.9918834 0.35448775
1.2955239 -0.99188012 0.35447755
1.2954524 -0.99188292 0.35446641
1.2953792 -0.99187773 0.35445663
1.2953063 -0.99186665 0.35444814
1.295235 -0.99186355 0.35443822
1.2951634 -0.99186826 0.35442665
1.2950901 -0.99186701 0.35441604
1.2950172 -0.99185395 0.35440797
1.2949445 -0.99183905 0.35440031
1.2948716 -0.99182796 0.35439178
1.2947983 -0.99182475 0.35438162
1.2947268 -0.99182552 0.35437086
1.2946538 -0.99181837 0.35436153
1.2945808 -0.99180734 0.35435304
1.2945095 -0.99180621 0.3543427
1.2944363 -0.99180102 0.35433295
1.2943634 -0.9917919 0.35432401
1.2942902 -0.99178475 0.35431468
1.2942173 -0.99177176 0.35430658
1.2941445 -0.9917587 0.3542985
1.2940714 -0.99175352 0.35428876
1.2939999 -0.99175632 0.35427758
1.2939267 -0.99175107 0.35426784
1.293854 -0.99173617 0.35426015
1.2937809 -0.99172705 0.35425124
1.2937095 -0.99172783 0.35424048
1.2936362 -0.99172658 0.3542299
1.2935652 -0.99171758 0.35422122
1.2934918 -0.99171436 0.35421106
1.2934206 -0.99171323 0.35420072
1.293349 -0.99171406 0.35418999
1.2932757 -0.99171472 0.35417899
1.2932044 -0.99170965 0.35416949
1.2931312 -0.99170643 0.35415933
1.2930599 -0.99170333 0.3541494
1.2929869 -0.99169618 0.35414007
1.2929138 -0.99168903 0.35413074
1.2928407 -0.99168187 0.35412139
1.2927693 -0.99168074 0.35411108
1.2926961 -0.99167752 0.35410088
1.2926252 -0.99166656 0.35409266
1.2925504 -0.99165148 0.3540847
1.2924774 -0.99164236 0.35407579
1.2924061 -0.99164122 0.35406545
1.2923347 -0.99164009 0.35405514
1.2922615 -0.99163687 0.35404497
1.2921883 -0.99162972 0.35403562
1.2921153 -0.9916206 0.35402671
1.2920442 -0.99161553 0.3540172
1.2919708 -0.99161232 0.35400704
1.2918997 -0.99160725 0.35399753
1.2918266 -0.9916001 0.3539882
1.2917536 -0.99159104 0.35397926
1.2916807 -0.99157995 0.35397077
1.2916077 -0.99157083 0.35396186
1.2915365 -0.99156773 0.35395193
1.291463 -0.99156648 0.35394135
1.2913915 -0.99156922 0.35393018
1.2913184 -0.99156404 0.35392043
1.2912456 -0.99155104 0.35391232
1.2911744 -0.99154401 0.35390326
1.2911012 -0.99153882 0.35389352
1.2910283 -0.9915297 0.35388458
1.2909569 -0.99153054 0.35387385
1.2908835 -0.99152732 0.35386366
1.2908107 -0.99151433 0.35385558
1.2907393 -0.9915151 0.35384482
1.2906677 -0.99151981 0.35383326
1.2905942 -0.99152243 0.35382181
1.2905229 -0.99151742 0.35381234
1.2904502 -0.9915024 0.35380465
1.2903774 -0.99148941 0.35379657
1.2903042 -0.99148422 0.35378683
1.290231 -0.99147904 0.35377705
1.2901601 -0.9914701 0.35376841
1.2900887 -0.99146891 0.35375807
1.2900153 -0.99146765 0.35374749
1.2899441 -0.99146456 0.35373756
1.2898711 -0.99145544 0.35372865
1.2897983 -0.99144244 0.35372055
1.2897252 -0.99143332 0.35371163
1.289652 -0.99142814 0.35370189
1.2895807 -0.991427 0.35369155
1.2895074 -0.99142575 0.35368097
1.2894363 -0.99141675 0.3536723
1.2893634 -0.99140573 0.3536638
1.2892902 -0.99140245 0.35365361
1.2892189 -0.99139935 0.35364372
1.2891457 -0.99139416 0.35363397
1.2890728 -0.9913851 0.35362503
1.289 -0.99136817 0.35361779
1.288927 -0.99136102 0.35360843
1.2888556 -0.99135983 0.35359812
1.2887824 -0.99135661 0.35358793
1.2887111 -0.99135351 0.35357803
1.2886398 -0.99135041 0.35356811
1.2885666 -0.99134523 0.35355836
1.2884935 -0.99133807 0.35354903
1.2884204 -0.99133092 0.35353968
1.2883493 -0.99132591 0.3535302
1.2882761 -0.99132073 0.35352042
1.2882047 -0.9913215 0.35350969
1.2881315 -0.99131632 0.35349992
1.2880588 -0.99130136 0.35349226
1.2879859 -0.99128836 0.35348415
1.2879146 -0.99128526 0.35347426
1.287843 -0.99128997 0.3534627
1.2877698 -0.99128479 0.35345292
1.2876966 -0.9912796 0.35344318
1.2876256 -0.99127257 0.35343409
1.2875525 -0.99126542 0.35342476
1.2874812 -0.99126232 0.35341483
1.2874081 -0.99125326 0.35340592
1.2873352 -0.99124414 0.35339698
1.2872639 -0.99124104 0.35338709
1.2871926 -0.99123794 0.35337716
1.2871194 -0.99123466 0.353367
1.2870481 -0.99123156 0.35335708
1.2869748 -0.99122834 0.35334691
1.2869018 -0.99121928 0.353338
1.286831 -0.99120641 0.35333017
1.2867577 -0.99120313 0.35332
1.2866863 -0.991202 0.35330966
1.2866132 -0.99119681 0.35329992
1.2865402 -0.99118966 0.35329056
1.2864687 -0.99118853 0.35328025
1.2863973 -0.99118936 0.35326952
1.2863243 -0.99118221 0.35326016
1.2862512 -0.99117309 0.35325125
1.2861782 -0.99116206 0.35324273
1.2861073 -0.99115109 0.3532345
1.286034 -0.99114984 0.35322389
1.2859626 -0.99115062 0.35321316
1.2858899 -0.99113566 0.35320547
1.2858169 -0.99112463 0.35319698
1.2857455 -0.9911235 0.35318664
1.2856721 -0.99112415 0.35317564
1.285601 -0.99111712 0.35316658
1.2855283 -0.99110216 0.35315889
1.2854553 -0.99109113 0.3531504
1.2853838 -0.99109387 0.35313922
1.2853122 -0.99109858 0.35312766
1.2852389 -0.99109733 0.35311705
1.2851659 -0.99108624 0.35310856
1.2850949 -0.99107927 0.35309947
1.2850215 -0.99107599 0.3530893
1.2849503 -0.99107289 0.35307938
1.2848772 -0.99106771 0.35306963
1.2848059 -0.9910627 0.35306013
1.2847331 -0.99105161 0.35305163
1.2846619 -0.99104464 0.35304257
1.2845886 -0.99104333 0.35303196
1.2845174 -0.9910363 0.3530229
1.2844428 -0.99102122 0.35301495
1.2843717 -0.99101228 0.3530063
1.2843003 -0.99101114 0.35299596
1.2842269 -0.99101377 0.35298455
1.2841556 -0.9910087 0.35297504
1.2840827 -0.99099958 0.35296613
1.2840114 -0.99099648 0.35295624
1.2839384 -0.99098545 0.35294771
1.2838656 -0.9909724 0.35293964
1.2837943 -0.99097127 0.35292929
1.2837225 -0.99097794 0.35291731
1.2836496 -0.99096882 0.35290837
1.2835768 -0.9909519 0.35290113
1.2835058 -0.99094492 0.35289204
1.2834322 -0.99094754 0.35288063
1.2833611 -0.99094248 0.35287112
1.2832882 -0.99092948 0.35286304
1.2832171 -0.99092442 0.35285354
1.2831435 -0.99092901 0.35284171
1.2830722 -0.99092591 0.35283181
1.2829992 -0.99091679 0.35282287
1.2829263 -0.99090379 0.35281479
1.2828554 -0.99089289 0.35280654
1.2827823 -0.99088573 0.35279721
1.282711 -0.99088264 0.35278729
1.2826381 -0.99087352 0.35277838
1.2825669 -0.99086851 0.35276887
1.2824954 -0.99087125 0.35275772
1.2824222 -0.99086607 0.35274795
1.2823492 -0.99085498 0.35273945
1.2822763 -0.99084395 0.35273096
1.282205 -0.99084085 0.35272104
1.2821337 -0.99083972 0.35271069
1.2820606 -0.99083257 0.35270137
1.2819878 -0.99081957 0.35269329
1.2819166 -0.99081451 0.35268378
1.2818433 -0.99081129 0.35267362
1.2817721 -0.99080622 0.35266411
1.2816991 -0.9907971 0.3526552
1.2816279 -0.99079204 0.3526457
1.2815564 -0.99079484 0.35263455
1.2814832 -0.99078965 0.35262477
1.281412 -0.99078459 0.3526153
1.2813386 -0.99078721 0.35260388
1.2812673 -0.99078411 0.35259396
1.2811942 -0.99077499 0.35258505
1.2811233 -0.99076408 0.35257679
1.2810522 -0.99075711 0.35256773
1.280979 -0.99075186 0.35255796
1.2809079 -0.99074489 0.3525489
1.2808348 -0.99073774 0.35253954
1.2807618 -0.99072862 0.35253063
1.2806909 -0.99071771 0.35252237
1.2806176 -0.99071646 0.35251179
1.2805463 -0.99071336 0.35250187
1.2804731 -0.99070817 0.35249212
1.2804019 -0.99070311 0.35248262
1.2803307 -0.99070001 0.35247272
1.2802575 -0.99069482 0.35246295
1.2801864 -0.99068582 0.3524543
1.2801132 -0.9906826 0.35244411
1.2800417 -0.99068534 0.35243297
1.2799703 -0.99068421 0.35242265
1.2798973 -0.99067509 0.35241371
1.2798262 -0.99067008 0.35240424
1.2797533 -0.99065709 0.35239613
1.2796803 -0.99064797 0.35238722
1.2796091 -0.99064291 0.35237771
1.2795361 -0.99063379 0.3523688
1.279465 -0.99062681 0.35235971
1.2793919 -0.99061966 0.35235038
1.2793207 -0.99061263 0.35234129
1.2792494 -0.99061149 0.35233098
1.2791761 -0.99060827 0.35232079
1.2791049 -0.99060321 0.35231131
1.2790315 -0.99060583 0.35229987
1.2789599 -0.99061054 0.35228831
1.2788886 -0.99060744 0.35227841
1.2788155 -0.99060029 0.35226905
1.2787441 -0.99059916 0.35225874
1.2786709 -0.99059397 0.35224897
1.2786003 -0.99057525 0.35224241
1.2785279 -0.99055439 0.35223597
1.2784569 -0.99054158 0.35222816
