# .PCD v0.7 - Point Cloud Data file format
VERSION 0.7
FIELDS x y z
SIZE 4 4 4
TYPE F F F
COUNT 1 1 1
WIDTH 1336
HEIGHT 1
VIEWPOINT 0 0 0 1 0 0 0
POINTS 1336
DATA ascii
-0.13946716 0.014010316 -0.21204233
-0.13946405 0.014088279 -0.21204248
-0.13946085 0.014166286 -0.21204463
-0.13945764 0.014244293 -0.21204679
-0.13945453 0.014322257 -0.21204692
-0.13945171 0.014400089 -0.21204109
-0.13944897 0.014475924 -0.2120353
-0.13944645 0.014553626 -0.21202347
-0.13944392 0.014631329 -0.21201164
-0.13944052 0.014709422 -0.21201779
-0.13943702 0.01478756 -0.21202593
-0.13943399 0.014863526 -0.21202612
-0.13943088 0.014941489 -0.21202627
-0.13942757 0.01501954 -0.21203041
-0.13942456 0.01509746 -0.21202858
-0.13942166 0.015175337 -0.21202475
-0.13941844 0.015253344 -0.21202689
-0.13941553 0.01533122 -0.21202305
-0.13941269 0.015407098 -0.21201926
-0.13940968 0.015485018 -0.21201742
-0.13940677 0.015562895 -0.21201356
-0.13940415 0.015640641 -0.21200374
-0.13940123 0.015718518 -0.21199989
-0.13939783 0.015796611 -0.21200603
-0.13939452 0.015874662 -0.21201017
-0.13939197 0.01595041 -0.21200038
-0.13938926 0.016028199 -0.21199256
-0.13938585 0.016106293 -0.2119987
-0.13938245 0.016184388 -0.21200484
-0.13937964 0.01626222 -0.211999
-0.1393767 0.016338143 -0.21199721
-0.13937339 0.016416192 -0.21200135
-0.13937029 0.016494157 -0.2120015
-0.13936728 0.016572077 -0.21199965
-0.13936406 0.016650084 -0.2120018
-0.13936086 0.01672809 -0.21200395
-0.13935792 0.016804013 -0.21200216
-0.13935511 0.016881846 -0.21199632
-0.13935219 0.016959721 -0.21199247
-0.13934928 0.017037598 -0.21198863
-0.13934617 0.017115561 -0.21198879
-0.13934323 0.017191485 -0.21198699
-0.13934004 0.017271446 -0.21198708
-0.13933682 0.017347498 -0.21199128
-0.13933371 0.017425461 -0.21199143
-0.13933119 0.017503165 -0.21197961
-0.13932857 0.01758091 -0.21196976
-0.13932526 0.01765896 -0.21197391
-0.13932174 0.017735144 -0.2119841
-0.13931836 0.017815191 -0.21198821
-0.13931543 0.017891113 -0.21198641
-0.1393127 0.017968904 -0.21197857
-0.13930999 0.018046692 -0.21197075
-0.13930687 0.018124657 -0.2119709
-0.13930357 0.018202707 -0.21197504
-0.13930054 0.018278673 -0.21197523
-0.13929734 0.018356679 -0.21197738
-0.13929442 0.018434556 -0.21197355
-0.1392917 0.018512346 -0.21196571
-0.13928889 0.018590178 -0.21195987
-0.13928626 0.018667925 -0.21195003
-0.13928333 0.018743847 -0.21194823
-0.13927983 0.018821985 -0.21195637
-0.13927633 0.018900122 -0.21196452
-0.13927321 0.018978085 -0.21196467
-0.13927059 0.01905583 -0.21195483
-0.13926797 0.019133575 -0.211945
-0.13926487 0.01921154 -0.21194515
-0.13926117 0.019289766 -0.21195728
-0.13925786 0.019367814 -0.21196142
-0.13925512 0.01944365 -0.21195564
-0.13925211 0.019521572 -0.2119538
-0.139249 0.019599535 -0.21195394
-0.13924609 0.01967741 -0.21195011
-0.13924308 0.01975533 -0.21194828
-0.13924016 0.019833207 -0.21194442
-0.13923723 0.019909129 -0.21194261
-0.13923402 0.019987136 -0.21194476
-0.1392312 0.020064969 -0.21193892
-0.13922809 0.020142931 -0.2119391
-0.13922518 0.020220809 -0.21193524
-0.13922235 0.020298641 -0.21192941
-0.13921934 0.020376561 -0.21192756
-0.13921605 0.020454612 -0.21193171
-0.13921255 0.02053275 -0.21193984
-0.13920924 0.0206108 -0.21194398
-0.1392062 0.020686766 -0.21194419
-0.1392031 0.020764729 -0.21194434
-0.13920018 0.020842604 -0.2119405
-0.13919736 0.020920439 -0.21193466
-0.13919465 0.020998228 -0.21192682
-0.13919172 0.02107415 -0.21192503
-0.13918842 0.021154154 -0.21192712
-0.13918559 0.021230035 -0.21192333
-0.13918267 0.02130791 -0.21191949
-0.13917957 0.021385875 -0.21191964
-0.13917626 0.021463923 -0.21192379
-0.13917334 0.0215418 -0.21191995
-0.13917063 0.02161959 -0.2119121
-0.13916762 0.02169751 -0.21191026
-0.13916431 0.02177556 -0.21191442
-0.13916138 0.021851484 -0.21191262
-0.13915856 0.021929316 -0.21190678
-0.13915575 0.022007149 -0.21190093
-0.13915274 0.022085069 -0.21189909
-0.13914943 0.022163119 -0.21190323
-0.13914631 0.022241082 -0.21190339
-0.13914321 0.022319045 -0.21190354
-0.13913999 0.022397052 -0.21190569
-0.1391369 0.022475015 -0.21190584
-0.13913368 0.022553023 -0.21190798
-0.13913095 0.022628859 -0.2119022
-0.13912822 0.022706648 -0.21189436
-0.13912541 0.022784481 -0.21188852
-0.1391224 0.022862401 -0.21188667
-0.13911928 0.022940364 -0.21188682
-0.13911638 0.023018241 -0.21188298
-0.13911316 0.023096249 -0.21188514
-0.13910995 0.023174254 -0.21188729
-0.13910684 0.023252219 -0.21188743
-0.13910355 0.023330268 -0.21189159
-0.13910024 0.02340832 -0.21189573
-0.13909723 0.02348624 -0.21189389
-0.13909431 0.023564115 -0.21189004
-0.1390913 0.023642035 -0.21188819
-0.13908799 0.023720086 -0.21189234
-0.13908525 0.023795921 -0.21188655
-0.13908243 0.023873754 -0.21188071
-0.13907933 0.023951717 -0.21188086
-0.13907622 0.024029681 -0.21188101
-0.1390731 0.024107644 -0.21188116
-0.13907 0.024185607 -0.21188131
-0.13906689 0.024263572 -0.21188147
-0.13906397 0.024341447 -0.21187763
-0.13906087 0.024419412 -0.21187778
-0.13905786 0.024497332 -0.21187595
-0.13905475 0.024575297 -0.21187609
-0.13905174 0.024653215 -0.21187425
-0.13904862 0.024731178 -0.2118744
-0.13904551 0.024809143 -0.21187454
-0.1390426 0.024887018 -0.2118707
-0.13903975 0.024962896 -0.21186692
-0.13903666 0.025040859 -0.21186706
-0.13903373 0.025118737 -0.21186322
-0.13903083 0.025196612 -0.21185938
-0.13902761 0.025274621 -0.21186152
-0.13902421 0.025352715 -0.21186768
-0.13902093 0.025432721 -0.21186978
-0.13901819 0.025508555 -0.21186399
-0.13901538 0.025586387 -0.21185814
-0.13901256 0.02566422 -0.21185231
-0.13900934 0.025742227 -0.21185446
-0.13900605 0.025820278 -0.2118586
-0.13900274 0.025898328 -0.21186274
-0.13899955 0.02597829 -0.21186286
-0.138997 0.026054036 -0.21185306
-0.1389941 0.026131913 -0.21184923
-0.13899098 0.026209878 -0.21184936
-0.13898797 0.026287798 -0.21184753
-0.13898496 0.026365718 -0.21184568
-0.13898195 0.026443638 -0.21184383
-0.13897893 0.026521558 -0.211842
-0.13897602 0.026599433 -0.21183816
-0.13897301 0.026677353 -0.21183631
-0.13897 0.026755273 -0.21183446
-0.13896659 0.026833368 -0.2118406
-0.13896349 0.026911331 -0.21184075
-0.13896048 0.026989251 -0.21183892
-0.13895746 0.027067171 -0.21183707
-0.13895445 0.027145091 -0.21183524
-0.13895154 0.027222969 -0.21183139
-0.1389488 0.027298804 -0.21182559
-0.1389458 0.027378678 -0.21182171
-0.13894241 0.027456772 -0.21182784
-0.13893929 0.027534734 -0.21182799
-0.13893658 0.027612526 -0.21182016
-0.13893384 0.027688358 -0.21181436
-0.13893083 0.02776628 -0.21181253
-0.13892771 0.027844243 -0.21181267
-0.1389247 0.027922163 -0.21181083
-0.13892159 0.028000128 -0.21181098
-0.13891847 0.02807809 -0.21181113
-0.13891576 0.028155878 -0.21180329
-0.13891284 0.028233755 -0.21179946
-0.13890953 0.028311808 -0.21180359
-0.13890672 0.02838964 -0.21179776
-0.13890371 0.028467558 -0.21179591
-0.1389008 0.028545436 -0.21179208
-0.13889788 0.028623313 -0.21178824
-0.13889448 0.028701406 -0.21179438
-0.13889091 0.028781541 -0.21180247
-0.13888749 0.028859634 -0.21180861
-0.1388844 0.028937599 -0.21180877
-0.13888167 0.029015388 -0.21180093
-0.13887885 0.029093221 -0.21179509
-0.13887584 0.029171141 -0.21179324
-0.13887253 0.029249193 -0.21179739
-0.13886943 0.029327156 -0.21179754
-0.13886662 0.02940499 -0.21179169
-0.13886389 0.029482778 -0.21178386
-0.13886078 0.029560741 -0.21178402
-0.13885777 0.029638661 -0.21178217
-0.13885456 0.029716669 -0.21178432
-0.13885145 0.029794632 -0.21178448
-0.13884844 0.029872552 -0.21178263
-0.13884534 0.029950516 -0.21178278
-0.13884205 0.030030521 -0.21178488
-0.13883914 0.030108398 -0.21178105
-0.13883629 0.030184275 -0.21177724
-0.13883321 0.030264193 -0.21177536
-0.13883036 0.030340072 -0.21177155
-0.13882735 0.030417992 -0.21176971
-0.13882416 0.030497953 -0.21176982
-0.13882107 0.030575918 -0.21176997
-0.13881834 0.030653706 -0.21176213
-0.1388154 0.030729627 -0.21176034
-0.13881259 0.030807462 -0.2117545
-0.13880958 0.030885382 -0.21175265
-0.138806 0.030965516 -0.21176076
-0.1388026 0.031043611 -0.21176688
-0.13879959 0.03112153 -0.21176505
-0.13879667 0.031199407 -0.21176121
-0.13879366 0.031277329 -0.21175936
-0.13879065 0.031355247 -0.21175751
-0.13878764 0.031433165 -0.21175566
-0.13878472 0.031511046 -0.21175182
-0.13878164 0.031590961 -0.21174993
-0.13877842 0.031668968 -0.21175209
-0.13877513 0.031747021 -0.21175623
-0.1387722 0.031824894 -0.21175238
-0.13876919 0.031902816 -0.21175054
-0.13876608 0.031980775 -0.21175069
-0.13876326 0.032058612 -0.21174486
-0.13876055 0.032136403 -0.21173701
-0.13875724 0.032214452 -0.21174116
-0.13875386 0.032294501 -0.21174526
-0.13875085 0.032372423 -0.21174341
-0.13874793 0.032450296 -0.21173957
-0.13874519 0.032526132 -0.21173379
-0.13874237 0.032603964 -0.21172795
-0.13873899 0.032684013 -0.21173203
-0.13873532 0.032764193 -0.21174213
-0.13873221 0.032842156 -0.21174228
-0.13872966 0.032917902 -0.21173249
-0.13872685 0.032995738 -0.21172667
-0.13872394 0.033073612 -0.21172282
-0.13872102 0.033151489 -0.21171898
-0.13871811 0.033229366 -0.21171513
-0.138715 0.033307329 -0.21171528
-0.13871123 0.033387553 -0.21172738
-0.13870803 0.033465561 -0.21172953
-0.13870521 0.033543393 -0.21172369
-0.13870218 0.033621311 -0.21172184
-0.13869882 0.03370136 -0.21172594
-0.1386957 0.033779323 -0.2117261
-0.13869289 0.033857159 -0.21172026
-0.13868977 0.033935122 -0.21172041
-0.13868657 0.03401313 -0.21172255
-0.13868345 0.034091093 -0.2117227
-0.13868046 0.034170967 -0.21171881
-0.13867773 0.034246802 -0.21171302
-0.13867463 0.034326717 -0.21171114
-0.13867153 0.03440468 -0.21171129
-0.13866869 0.034480557 -0.21170749
-0.1386656 0.034560479 -0.2117056
-0.13866249 0.034638442 -0.21170574
-0.13865978 0.03471623 -0.21169791
-0.13865685 0.034794107 -0.21169406
-0.13865365 0.034872115 -0.21169621
-0.13865045 0.034950122 -0.21169837
-0.13864733 0.035028085 -0.21169852
-0.13864425 0.035108 -0.21169662
-0.13864133 0.035185881 -0.21169278
-0.13863859 0.035261717 -0.211687
-0.1386355 0.035341635 -0.21168509
-0.1386323 0.035419639 -0.21168724
-0.13862908 0.035497647 -0.2116894
-0.1386259 0.03557761 -0.2116895
-0.13862297 0.035653532 -0.21168771
-0.13861987 0.03573345 -0.21168581
-0.13861656 0.035811499 -0.21168995
-0.13861339 0.035891458 -0.21169007
-0.13861054 0.035967339 -0.21168627
-0.13860744 0.036045302 -0.21168643
-0.13860425 0.036125265 -0.21168652
-0.13860114 0.036203228 -0.21168667
-0.13859822 0.036281101 -0.21168283
-0.13859531 0.036358982 -0.211679
-0.1385923 0.0364369 -0.21167715
-0.13858901 0.036516905 -0.21167925
-0.13858591 0.036594868 -0.2116794
-0.13858299 0.036672745 -0.21167555
-0.13858017 0.036750577 -0.21166973
-0.13857706 0.03682854 -0.21166986
-0.13857405 0.036906458 -0.21166801
-0.13857104 0.03698438 -0.21166618
-0.13856812 0.037062258 -0.21166235
-0.13856502 0.03714022 -0.21166249
-0.13856153 0.037220314 -0.21166858
-0.13855806 0.037300404 -0.21167468
-0.13855532 0.03737624 -0.21166889
-0.1385527 0.037453987 -0.21165906
-0.13854969 0.037531905 -0.21165723
-0.13854648 0.037609912 -0.21165937
-0.13854329 0.037689872 -0.21165946
-0.13854048 0.037767708 -0.21165362
-0.13853756 0.037845582 -0.21164979
-0.13853444 0.037923545 -0.21164992
-0.13853134 0.038001511 -0.2116501
-0.13852853 0.038079344 -0.21164426
-0.13852598 0.038155094 -0.21163446
-0.13852279 0.038235053 -0.21163458
-0.13851921 0.038315188 -0.21164267
-0.1385162 0.03839311 -0.21164082
-0.13851309 0.038471073 -0.21164097
-0.13850999 0.038549036 -0.21164113
-0.13850726 0.038626827 -0.21163328
-0.13850415 0.03870479 -0.21163344
-0.13850068 0.03878488 -0.21163952
-0.13849747 0.038862888 -0.21164168
-0.13849446 0.03894081 -0.21163984
-0.13849163 0.039018638 -0.211634
-0.13848872 0.039096519 -0.21163017
-0.138486 0.039174307 -0.21162233
-0.13848299 0.039252229 -0.21162048
-0.13847941 0.039332364 -0.21162857
-0.13847584 0.039412498 -0.21163666
-0.13847283 0.039490417 -0.21163481
-0.13846971 0.03956838 -0.21163498
-0.1384667 0.039646301 -0.21163313
-0.1384638 0.039724179 -0.21162927
-0.13846098 0.039802011 -0.21162345
-0.13845806 0.039879888 -0.2116196
-0.13845494 0.039957851 -0.21161975
-0.13845167 0.040037856 -0.21162185
-0.13844836 0.040115904 -0.21162599
-0.13844545 0.040193781 -0.21162215
-0.13844253 0.040271658 -0.21161832
-0.13843961 0.040349536 -0.21161447
-0.1384367 0.040427409 -0.21161065
-0.13843369 0.040505331 -0.2116088
-0.13843021 0.040585425 -0.21161488
-0.13842663 0.040665559 -0.21162298
-0.13940443 0.0046701571 -0.21215746
-0.1394016 0.0047479905 -0.21215162
-0.13939831 0.00482604 -0.21215576
-0.1393948 0.004904177 -0.21216391
-0.13939179 0.0049820971 -0.21216206
-0.13938887 0.0050599743 -0.21215822
-0.13938604 0.0051358519 -0.21215442
-0.13938305 0.0052157268 -0.21215053
-0.13938001 0.0052916929 -0.21215074
-0.13937692 0.0053716097 -0.21214885
-0.13937399 0.005447533 -0.21214706
-0.13937059 0.0055256272 -0.21215318
-0.13936767 0.0056035034 -0.21214935
-0.13936494 0.0056812922 -0.21214151
-0.13936155 0.0057593863 -0.21214765
-0.13935812 0.0058355266 -0.21215585
-0.1393555 0.0059132725 -0.21214601
-0.1393528 0.0059930161 -0.21213612
-0.13934958 0.0060690679 -0.21214032
-0.13934629 0.0061490741 -0.21214242
-0.13934346 0.0062249526 -0.21213862
-0.13934045 0.0063028727 -0.21213678
-0.13933723 0.0063808793 -0.21213894
-0.13933413 0.0064588431 -0.21213908
-0.13933121 0.0065367185 -0.21213524
-0.13932829 0.0066145952 -0.21213141
-0.13932538 0.0066924719 -0.21212757
-0.13932227 0.0067704353 -0.21212772
-0.13931933 0.0068463567 -0.21212591
-0.13931613 0.0069243638 -0.21212806
-0.13931271 0.007002458 -0.21213421
-0.13930981 0.0070803342 -0.21213037
-0.1393068 0.0071582552 -0.21212852
-0.13930367 0.0072342637 -0.21213071
-0.13930075 0.0073121404 -0.21212688
-0.13929802 0.0073899301 -0.21211904
-0.13929521 0.0074677626 -0.2121132
-0.13929211 0.0075457264 -0.21211335
-0.1392888 0.0076237768 -0.21211749
-0.13928588 0.0077016521 -0.21211365
-0.13928306 0.0077794855 -0.21210781
-0.13927974 0.0078555821 -0.21211401
-0.13927634 0.0079336772 -0.21212015
-0.13927342 0.0080115525 -0.2121163
-0.1392705 0.0080894288 -0.21211246
-0.1392674 0.0081673926 -0.21211261
-0.13926467 0.0082451822 -0.21210477
-0.13926177 0.0083230585 -0.21210094
-0.13925874 0.0084009785 -0.21209909
-0.13925545 0.0084790289 -0.21210323
-0.13925202 0.0085551683 -0.21211143
-0.13924882 0.0086331759 -0.21211359
-0.13924648 0.0087107904 -0.21209775
-0.13924435 0.0087883193 -0.21207793
-0.13924143 0.0088661956 -0.21207409
-0.13923803 0.0089442898 -0.21208024
-0.13923492 0.0090222526 -0.21208039
-0.13923162 0.0091003031 -0.21208453
-0.13922849 0.0091763129 -0.21208672
-0.13922557 0.0092541892 -0.21208289
-0.13922256 0.0093321092 -0.21208104
-0.13921925 0.0094101597 -0.21208519
-0.13921575 0.0094882976 -0.21209332
-0.13921273 0.0095642619 -0.21209353
-0.1392097 0.0096421819 -0.21209168
-0.1392068 0.0097200591 -0.21208784
-0.13920388 0.0097979354 -0.212084
-0.13920076 0.0098758992 -0.21208414
-0.13919786 0.0099537754 -0.2120803
-0.13919485 0.010031695 -0.21207845
-0.13919172 0.010107704 -0.21208066
-0.13918869 0.010185624 -0.21207881
-0.13918607 0.01026337 -0.21206897
-0.13918325 0.010341204 -0.21206315
-0.13918005 0.01041921 -0.21206529
-0.13917692 0.010495219 -0.21206748
-0.13917391 0.010573139 -0.21206564
-0.13917051 0.010651234 -0.21207178
-0.13916729 0.01072924 -0.21207394
-0.13916448 0.010807073 -0.2120681
-0.13916157 0.01088495 -0.21206427
-0.13915864 0.010960871 -0.21206245
-0.13915572 0.011038749 -0.2120586
-0.1391529 0.011116581 -0.21205276
-0.13915017 0.011194371 -0.21204492
-0.13914697 0.011272377 -0.2120471
-0.13914365 0.011348473 -0.21205327
-0.13914044 0.01142648 -0.21205543
-0.13913733 0.011504444 -0.21205558
-0.13913432 0.011582363 -0.21205375
-0.13913111 0.011660371 -0.21205589
-0.13912807 0.011736336 -0.21205609
-0.13912508 0.011816211 -0.2120522
-0.13912195 0.01189222 -0.21205439
-0.13911885 0.011970184 -0.21205455
-0.13911593 0.01204806 -0.21205071
-0.13911282 0.012126023 -0.21205086
-0.13910951 0.012204073 -0.212055
-0.13910668 0.012279953 -0.2120512
-0.13910376 0.012357829 -0.21204737
-0.13910085 0.012435705 -0.21204352
-0.13909793 0.012513582 -0.21203968
-0.13909492 0.012591502 -0.21203783
-0.1390918 0.012669466 -0.21203798
-0.1390889 0.012747342 -0.21203414
-0.13908625 0.012823133 -0.21202636
-0.13908304 0.01290114 -0.2120285
-0.13907965 0.012979235 -0.21203464
-0.13907692 0.013057023 -0.2120268
-0.13907449 0.013134683 -0.21201298
-0.13907138 0.013212645 -0.21201313
-0.13906825 0.013288654 -0.21201533
-0.13906504 0.013366662 -0.21201748
-0.13906154 0.0134448 -0.21202561
-0.13905863 0.013522676 -0.21202177
-0.1390561 0.013600378 -0.21200994
-0.13905308 0.013676343 -0.21201015
-0.13904996 0.013754307 -0.21201029
-0.13904715 0.013832141 -0.21200445
-0.13904384 0.013910191 -0.2120086
-0.13904034 0.013988328 -0.21201675
-0.13903731 0.014064293 -0.21201694
-0.1390342 0.014142257 -0.21201709
-0.13903138 0.014220091 -0.21201125
-0.13902865 0.01429788 -0.21200341
-0.13902584 0.014375713 -0.21199758
-0.13902271 0.014451722 -0.21199977
-0.1390195 0.014529729 -0.21200192
-0.13901649 0.014607648 -0.21200007
-0.13901348 0.014685568 -0.21199824
-0.13901037 0.014763532 -0.21199839
-0.13900724 0.014839541 -0.21200058
-0.13900386 0.014919589 -0.21200469
-0.13900073 0.014995599 -0.21200687
-0.13899772 0.015073519 -0.21200503
-0.1389948 0.015151395 -0.2120012
-0.13899179 0.015229315 -0.21199936
-0.13898848 0.015307365 -0.2120035
-0.13898546 0.015383331 -0.21200371
-0.13898303 0.01546099 -0.21198988
-0.13898069 0.015538605 -0.21197404
-0.13897748 0.015616613 -0.2119762
-0.13897398 0.01569475 -0.21198434
-0.13897048 0.015772887 -0.21199247
-0.13896738 0.015850851 -0.21199262
-0.13896492 0.015926555 -0.21198085
-0.1389621 0.016004387 -0.21197501
-0.1389592 0.016082264 -0.21197116
-0.13895628 0.016160142 -0.21196732
-0.13895278 0.01623828 -0.21197546
-0.13894945 0.016314374 -0.21198165
-0.13894644 0.016392294 -0.21197981
-0.13894352 0.016470172 -0.21197596
-0.13894071 0.016548004 -0.21197012
-0.1389375 0.016626012 -0.21197227
-0.1389343 0.016704017 -0.21197441
-0.13893145 0.016779896 -0.21197063
-0.13892844 0.016857818 -0.21196878
-0.13892552 0.016935693 -0.21196494
-0.13892251 0.017013613 -0.21196309
-0.13891961 0.01709149 -0.21195926
-0.13891676 0.017167367 -0.21195546
-0.13891336 0.017245462 -0.2119616
-0.13891016 0.01732347 -0.21196374
-0.13890734 0.017401302 -0.2119579
-0.13890451 0.017479135 -0.21195208
-0.13890131 0.017557142 -0.21195422
-0.13889819 0.017635105 -0.21195439
-0.13889527 0.017711028 -0.21195257
-0.13889205 0.017789034 -0.21195473
-0.13888924 0.017866869 -0.21194889
-0.13888672 0.017944571 -0.21193704
-0.13888371 0.018022489 -0.21193521
-0.1388803 0.018100584 -0.21194136
-0.1388768 0.01817872 -0.2119495
-0.13887347 0.018254817 -0.21195568
-0.13887027 0.018332824 -0.21195784
-0.13886765 0.018410571 -0.21194801
-0.13886502 0.018488316 -0.21193817
-0.1388621 0.018566191 -0.21193433
-0.13885947 0.018641984 -0.21192653
-0.13885665 0.018719817 -0.21192071
-0.13885345 0.018797824 -0.21192285
-0.13885033 0.018875787 -0.211923
-0.13884722 0.018953752 -0.21192315
-0.13884401 0.019031757 -0.2119253
-0.13884051 0.019109895 -0.21193345
-0.13883731 0.019187901 -0.21193558
-0.13883495 0.019263564 -0.21192181
-0.13883224 0.019341353 -0.21191397
-0.13882883 0.019419447 -0.21192011
-0.13882573 0.019497409 -0.21192028
-0.13882281 0.019575287 -0.21191642
-0.13881969 0.01965325 -0.21191658
-0.13881619 0.019731387 -0.21192473
-0.1388128 0.019809481 -0.21193087
-0.13881016 0.019885274 -0.21192306
-0.13880743 0.019963063 -0.21191522
-0.13880432 0.020041026 -0.21191539
-0.13880122 0.020118989 -0.21191555
-0.13879849 0.020196779 -0.21190771
-0.13879594 0.020272527 -0.21189791
-0.13879284 0.02035049 -0.21189806
-0.13878934 0.020428628 -0.21190621
-0.13878623 0.020506591 -0.21190637
-0.13878322 0.020584513 -0.21190453
-0.13878021 0.020662431 -0.21190268
-0.13877767 0.020740133 -0.21189085
-0.13877523 0.020815838 -0.21187906
-0.13877203 0.020893846 -0.21188121
-0.13876861 0.020971939 -0.21188736
-0.13876513 0.021050077 -0.2118955
-0.13876171 0.02112817 -0.21190163
-0.1387587 0.021206092 -0.21189979
-0.13875578 0.021283967 -0.21189594
-0.13875277 0.021361887 -0.21189411
-0.13874987 0.021439765 -0.21189027
-0.13874665 0.02151777 -0.21189241
-0.13874355 0.021595735 -0.21189258
-0.13874054 0.021673653 -0.21189073
-0.13873769 0.021749534 -0.21188693
-0.13873479 0.021827409 -0.21188308
-0.13873157 0.021905415 -0.21188523
-0.13872826 0.021983467 -0.21188939
-0.13872525 0.022061387 -0.21188754
-0.13872254 0.022139177 -0.2118797
-0.13871969 0.022215053 -0.2118759
-0.13871641 0.02229506 -0.211878
-0.13871367 0.022370894 -0.21187222
-0.13871115 0.022448597 -0.21186039
-0.13870813 0.022526518 -0.21185854
-0.13870454 0.022604698 -0.21186867
-0.13870104 0.022682836 -0.21187681
-0.13869773 0.022760887 -0.21188095
-0.13869482 0.022838762 -0.21187712
-0.1386921 0.022916552 -0.21186928
-0.13868909 0.022994472 -0.21186744
-0.13868578 0.023072522 -0.21187159
-0.13868266 0.023150485 -0.21187174
-0.13867965 0.023228407 -0.2118699
-0.13867675 0.023306282 -0.21186605
-0.1386741 0.023382073 -0.21185826
-0.13867109 0.023459993 -0.21185641
-0.13866797 0.023537956 -0.21185657
-0.13866468 0.023616008 -0.21186072
-0.13866156 0.023693971 -0.21186087
-0.13865875 0.023771804 -0.21185502
-0.13865583 0.023849681 -0.21185118
-0.13865262 0.023927687 -0.21185333
-0.1386497 0.024005566 -0.2118495
-0.1386468 0.024083439 -0.21184564
-0.13864367 0.02415945 -0.21184784
-0.13864048 0.02423941 -0.21184795
-0.13863763 0.024315288 -0.21184415
-0.13863462 0.024393208 -0.2118423
-0.13863161 0.024471128 -0.21184047
-0.13862869 0.024549006 -0.21183664
-0.13862568 0.024626926 -0.21183479
-0.13862267 0.024704846 -0.21183294
-0.13861947 0.024782851 -0.21183509
-0.13861607 0.024860948 -0.21184123
-0.13861296 0.024938911 -0.21184137
-0.13861004 0.025016787 -0.21183753
-0.13860703 0.025094707 -0.21183568
-0.13860402 0.025172627 -0.21183383
-0.13860109 0.025250504 -0.21183001
-0.13859779 0.025328554 -0.21183416
-0.13859507 0.025406344 -0.21182632
-0.13859311 0.025481829 -0.21180454
-0.1385901 0.025559749 -0.21180269
-0.1385864 0.025637973 -0.21181482
-0.13858309 0.025716025 -0.21181899
-0.13857999 0.025793988 -0.21181913
-0.13857698 0.025871908 -0.21181728
-0.13857369 0.025951914 -0.21181938
-0.13857056 0.026027922 -0.21182159
-0.13856764 0.026105799 -0.21181774
-0.13856483 0.026183631 -0.2118119
-0.13856182 0.026261553 -0.21181005
-0.13855861 0.026339559 -0.21181221
-0.1385556 0.026417479 -0.21181037
-0.13855249 0.026495442 -0.21181051
-0.13854928 0.026573449 -0.21181267
-0.13854598 0.0266515 -0.21181682
-0.13854289 0.026731417 -0.21181491
-0.13854004 0.026807297 -0.21181113
-0.13853694 0.02688526 -0.21181127
-0.13853392 0.026963178 -0.21180943
-0.13853082 0.027041143 -0.21180959
-0.13852763 0.027121104 -0.21180969
-0.13852443 0.027199112 -0.21181184
-0.13852128 0.027275121 -0.21181405
-0.13851839 0.027354952 -0.21180815
-0.13851565 0.027430786 -0.21180236
-0.13851255 0.027508751 -0.21180251
-0.13850974 0.027586583 -0.21179667
-0.13850681 0.02766446 -0.21179283
-0.1385037 0.027742423 -0.21179298
-0.13850088 0.027820256 -0.21178713
-0.13849798 0.027898133 -0.21178329
-0.13849467 0.027976183 -0.21178745
-0.13849156 0.028054144 -0.2117876
-0.13848855 0.028132066 -0.21178575
-0.13848573 0.028209899 -0.21177991
-0.13848272 0.028287819 -0.21177807
-0.13847969 0.028365739 -0.21177623
-0.1384766 0.028443703 -0.21177638
-0.13847359 0.028521623 -0.21177453
-0.13847077 0.028599456 -0.21176869
-0.13846765 0.028677419 -0.21176884
-0.13846405 0.0287556 -0.21177898
-0.13846095 0.028833564 -0.21177912
-0.13845822 0.028911352 -0.21177129
-0.13845511 0.028989317 -0.21177144
-0.13845173 0.029069364 -0.21177554
-0.138449 0.0291452 -0.21176976
-0.13844578 0.029223207 -0.21177191
-0.1384427 0.029303126 -0.21177001
-0.13843986 0.029379003 -0.21176621
-0.13843687 0.029458877 -0.21176234
-0.13843356 0.029536927 -0.21176647
-0.13843064 0.029614804 -0.21176264
-0.13842782 0.029692637 -0.2117568
-0.13842472 0.029770602 -0.21175694
-0.13842151 0.029848609 -0.21175909
-0.13841841 0.029926572 -0.21175924
-0.13841519 0.030004578 -0.21176139
-0.13841218 0.030082498 -0.21175954
-0.13840887 0.030160548 -0.21176369
-0.13840559 0.030240554 -0.2117658
-0.13840275 0.030316433 -0.21176201
-0.13840023 0.030394135 -0.21175018
-0.13839741 0.030471968 -0.21174434
-0.13839421 0.030549973 -0.21174648
-0.13839129 0.03062785 -0.21174264
-0.13838837 0.030705728 -0.2117388
-0.13838546 0.030783603 -0.21173495
-0.13838245 0.030861523 -0.2117331
-0.13837942 0.030939443 -0.21173127
-0.13837622 0.031017451 -0.2117334
-0.13837312 0.031095413 -0.21173358
-0.13837002 0.031175332 -0.21173167
-0.13836719 0.031251211 -0.21172787
-0.13836427 0.031329088 -0.21172404
-0.1383608 0.031409182 -0.21173014
-0.13835758 0.031487186 -0.21173228
-0.13835476 0.031565018 -0.21172644
-0.13835175 0.03164294 -0.21172461
-0.13834845 0.031720988 -0.21172875
-0.13834544 0.03179891 -0.2117269
-0.13834262 0.031876743 -0.21172106
-0.1383397 0.03195462 -0.21171722
-0.13833649 0.032032624 -0.21171936
-0.13833302 0.032112718 -0.21172547
-0.1383303 0.032190509 -0.21171764
-0.13832785 0.032266211 -0.21170585
-0.13832493 0.032344088 -0.21170199
-0.13832183 0.032422051 -0.21170215
-0.1383193 0.032499753 -0.21169034
-0.13831618 0.032577716 -0.21169047
-0.1383127 0.032655854 -0.21169862
-0.13830931 0.032735903 -0.21170272
-0.1383061 0.03281391 -0.21170487
-0.138303 0.032891873 -0.21170501
-0.13829981 0.032971837 -0.21170512
-0.13829659 0.03304984 -0.21170726
-0.13829358 0.033127762 -0.21170542
-0.13829067 0.033205636 -0.21170157
-0.13828766 0.033283558 -0.21169974
-0.13828464 0.03336148 -0.21169789
-0.13828154 0.033439443 -0.21169804
-0.13827851 0.033517361 -0.21169621
-0.13827589 0.033595107 -0.21168637
-0.13827299 0.033672985 -0.21168253
-0.13826959 0.033751078 -0.21168867
-0.1382664 0.033831038 -0.21168877
-0.13826337 0.033908959 -0.21168692
-0.13826047 0.033986837 -0.21168309
-0.13825735 0.0340648 -0.21168324
-0.13825434 0.034142721 -0.2116814
-0.13825133 0.03422064 -0.21167955
-0.13824841 0.034298517 -0.2116757
-0.1382454 0.034376435 -0.21167386
-0.1382421 0.034454487 -0.211678
-0.13823891 0.034534447 -0.21167812
-0.13823581 0.03461241 -0.21167827
-0.13823278 0.034690332 -0.21167642
-0.13822988 0.034768209 -0.21167257
-0.13822696 0.034846082 -0.21166873
-0.13822386 0.034924049 -0.21166889
-0.13822064 0.035002053 -0.21167102
-0.13821764 0.03508193 -0.21166715
-0.13821492 0.035157762 -0.21166135
-0.13821153 0.035237812 -0.21166545
-0.13820842 0.035315774 -0.2116656
-0.1382055 0.035393652 -0.21166176
-0.13820268 0.035471484 -0.21165593
-0.13819987 0.03554932 -0.21165009
-0.13819666 0.035627328 -0.21165225
-0.13819309 0.035707463 -0.21166033
-0.13819008 0.035785381 -0.21165848
-0.13818726 0.035863213 -0.21165264
-0.13818443 0.035941049 -0.2116468
-0.13818151 0.036016971 -0.21164501
-0.13817841 0.036096886 -0.2116431
-0.13817529 0.036174849 -0.21164326
-0.13817191 0.036254898 -0.21164736
-0.13816862 0.03633295 -0.2116515
-0.1381655 0.036410913 -0.21165165
-0.13816258 0.03648879 -0.21164782
-0.13815987 0.036566578 -0.21163999
-0.13815649 0.036646627 -0.21164408
-0.13815348 0.036724545 -0.21164224
-0.13815047 0.036802467 -0.21164039
-0.13814706 0.03688056 -0.21164653
-0.13814405 0.036958478 -0.21164469
-0.13814133 0.03703627 -0.21163684
-0.13813785 0.037116364 -0.21164295
-0.13813464 0.037194371 -0.2116451
-0.13813192 0.037272159 -0.21163726
-0.1381291 0.037349992 -0.21163142
-0.13812563 0.037430085 -0.21163753
-0.13812278 0.037505962 -0.21163373
-0.13811977 0.03758388 -0.21163188
-0.13811678 0.037663758 -0.21162799
-0.13811366 0.037741721 -0.21162814
-0.13811027 0.037819814 -0.21163428
-0.13810734 0.037897691 -0.21163045
-0.13810453 0.037975524 -0.21162461
-0.13810152 0.038053446 -0.21162276
-0.13809842 0.038131408 -0.21162292
-0.13809523 0.038211368 -0.21162303
-0.13809212 0.038289331 -0.21162316
-0.1380893 0.038367163 -0.21161732
-0.13808648 0.038444996 -0.21161149
-0.13808337 0.038522962 -0.21161164
-0.1380799 0.038603052 -0.21161774
-0.13807639 0.03868119 -0.21162587
-0.13807358 0.038759023 -0.21162005
-0.13807085 0.038836814 -0.21161219
-0.13806784 0.038914733 -0.21161036
-0.13806446 0.038994782 -0.21161446
-0.13806134 0.039072745 -0.21161461
-0.13805833 0.039150666 -0.21161276
-0.13805562 0.039228454 -0.21160492
-0.13805297 0.039304245 -0.21159714
-0.13804978 0.039384209 -0.21159723
-0.13804612 0.039464388 -0.21160734
-0.13804281 0.039542437 -0.21161148
-0.13803969 0.039620399 -0.21161163
-0.13803668 0.039698321 -0.21160978
-0.13803369 0.039778195 -0.21160591
-0.13803059 0.039856158 -0.21160606
-0.13802794 0.039931949 -0.21159828
-0.13802512 0.040009782 -0.21159242
-0.13802201 0.040087745 -0.21159258
-0.13801929 0.040165536 -0.21158475
-0.13801657 0.040243328 -0.21157691
-0.13801327 0.040321376 -0.21158105
-0.13800922 0.040403683 -0.21159708
-0.13800575 0.040483776 -0.21160318
-0.13800253 0.040561784 -0.21160533
-0.13799982 0.040639572 -0.2115975
-0.13905628 0.0047286991 -0.21212316
-0.13905188 0.0048052734 -0.21215132
-0.13904788 0.0048816744 -0.21217149
-0.13904437 0.0049598124 -0.21217963
-0.13904136 0.0050377324 -0.21217778
-0.13903832 0.0051136967 -0.21217798
-0.13903563 0.0051934412 -0.2121681
-0.1390329 0.0052712299 -0.21216026
-0.1390297 0.0053492375 -0.21216241
-0.13902669 0.0054271575 -0.21216056
-0.13902387 0.00550499 -0.21215472
-0.13902065 0.0055829976 -0.21215688
-0.13901763 0.0056589637 -0.21215707
-0.13901453 0.0057388805 -0.21215519
-0.1390114 0.0058148904 -0.21215737
-0.13900828 0.0058928542 -0.21215753
-0.13900547 0.0059706867 -0.21215169
-0.13900235 0.0060486495 -0.21215184
-0.13899945 0.0061265267 -0.21214801
-0.13899672 0.0062043155 -0.21214017
-0.13899341 0.0062823663 -0.21214432
-0.13899001 0.0063604605 -0.21215045
-0.13898697 0.0064364253 -0.21215066
-0.13898377 0.0065144324 -0.21215281
-0.13898055 0.0065924395 -0.21215495
-0.13897735 0.0066704466 -0.2121571
-0.13897473 0.0067481925 -0.21214727
-0.13897219 0.0068258941 -0.21213543
-0.13896918 0.0069038142 -0.21213359
-0.13896587 0.0069818646 -0.21213774
-0.13896275 0.007057874 -0.21213993
-0.13895983 0.0071357498 -0.21213609
-0.1389572 0.0072134957 -0.21212626
-0.13895451 0.0072932402 -0.21211639
-0.13895118 0.0073693357 -0.21212257
-0.13894768 0.0074474732 -0.21213071
-0.13894486 0.0075253062 -0.21212487
-0.13894214 0.0076030958 -0.21211705
-0.13893902 0.0076810583 -0.2121172
-0.13893589 0.0077570677 -0.21211939
-0.13893288 0.0078349877 -0.21211754
-0.13892996 0.0079128649 -0.21211371
-0.13892695 0.0079907831 -0.21211186
-0.13892403 0.0080686603 -0.21210802
-0.13892072 0.0081467107 -0.21211216
-0.13891731 0.00822285 -0.21212035
-0.13891439 0.0083007272 -0.21211651
-0.13891196 0.0083783856 -0.21210268
-0.13890906 0.0084582167 -0.21209678
-0.13890612 0.008534139 -0.21209499
-0.13890283 0.0086121894 -0.21209913
-0.13889952 0.0086902389 -0.21210329
-0.1388965 0.008768159 -0.21210144
-0.13889349 0.008846079 -0.21209961
-0.13889006 0.0089222193 -0.21210778
-0.13888696 0.0090001822 -0.21210793
-0.13888404 0.0090780593 -0.2121041
-0.13888112 0.0091559356 -0.21210024
-0.1388782 0.0092338119 -0.21209642
-0.13887529 0.0093116881 -0.21209256
-0.13887247 0.0093895206 -0.21208674
-0.13886926 0.0094675282 -0.21208888
-0.13886623 0.0095434934 -0.21208909
-0.13886333 0.0096233245 -0.21208319
-0.13886049 0.0096992021 -0.21207941
-0.13885728 0.0097772097 -0.21208155
-0.13885388 0.009855303 -0.21208769
-0.13885075 0.0099313129 -0.2120899
-0.13884783 0.010009189 -0.21208605
-0.1388451 0.010086978 -0.21207821
-0.13884228 0.010164811 -0.21207237
-0.13883927 0.010242731 -0.21207052
-0.13883616 0.010320695 -0.21207067
-0.13883325 0.01039857 -0.21206683
-0.13883021 0.010474537 -0.21206704
-0.13882671 0.010552674 -0.21207517
-0.1388234 0.010630724 -0.21207932
-0.13882059 0.010708557 -0.21207348
-0.13881797 0.010786302 -0.21206364
-0.13881485 0.010864266 -0.21206379
-0.13881181 0.010940232 -0.212064
-0.13880871 0.011018195 -0.21206415
-0.13880569 0.011096115 -0.2120623
-0.13880278 0.011173991 -0.21205847
-0.13879967 0.011251954 -0.21205862
-0.13879663 0.01132792 -0.21205881
-0.13879371 0.011405797 -0.21205497
-0.13879099 0.011483586 -0.21204713
-0.13878798 0.011561505 -0.2120453
-0.13878448 0.011639643 -0.21205343
-0.13878115 0.01171574 -0.21205962
-0.13877814 0.01179366 -0.21205777
-0.13877551 0.011871405 -0.21204795
-0.1387727 0.011949238 -0.21204211
-0.13876969 0.012027158 -0.21204026
-0.13876627 0.012105253 -0.21204641
-0.13876277 0.01218339 -0.21205455
-0.13875975 0.012259355 -0.21205474
-0.13875721 0.012337058 -0.21204291
-0.1387544 0.01241489 -0.21203709
-0.13875139 0.01249281 -0.21203524
-0.13874847 0.012570687 -0.21203139
-0.13874516 0.012648737 -0.21203554
-0.13874166 0.012726875 -0.21204367
-0.13873842 0.012802927 -0.21204787
-0.13873552 0.012880804 -0.21204403
-0.1387329 0.012958549 -0.2120342
-0.13873006 0.013036382 -0.21202835
-0.13872716 0.013114259 -0.21202451
-0.13872422 0.013190181 -0.21202272
-0.13872081 0.013268275 -0.21202886
-0.13871771 0.013346238 -0.21202901
-0.13871488 0.013424071 -0.21202317
-0.13871197 0.013501948 -0.21201932
-0.13870883 0.013577957 -0.21202153
-0.13870582 0.013655877 -0.21201968
-0.13870281 0.013733797 -0.21201783
-0.1386995 0.013811847 -0.21202198
-0.1386963 0.013889854 -0.21202412
-0.13869317 0.013965863 -0.21202633
-0.13869005 0.014043826 -0.21202648
-0.13868724 0.014121659 -0.21202064
-0.13868421 0.014199579 -0.2120188
-0.13868111 0.014277542 -0.21201895
-0.13867828 0.014355375 -0.2120131
-0.13867554 0.01443121 -0.21200731
-0.13867283 0.014509 -0.21199948
-0.13866982 0.01458692 -0.21199763
-0.1386669 0.014664795 -0.21199378
-0.13866378 0.014742759 -0.21199395
-0.13866055 0.014818812 -0.21199813
-0.13865688 0.014898991 -0.21200824
-0.13865355 0.014975087 -0.21201442
-0.13865025 0.015053137 -0.21201858
-0.13864742 0.01513097 -0.21201274
-0.1386449 0.015208673 -0.21200091
-0.13864189 0.015286593 -0.21199906
-0.13863875 0.015362602 -0.21200125
-0.13863555 0.015440608 -0.21200341
-0.13863273 0.015518442 -0.21199757
-0.13862981 0.015596317 -0.21199372
-0.1386271 0.015674107 -0.21198589
-0.13862464 0.015749812 -0.2119741
-0.13862175 0.015829641 -0.21196821
-0.13861862 0.01590565 -0.2119704
-0.13861512 0.015983788 -0.21197855
-0.1386117 0.016061883 -0.21198469
-0.13860889 0.016139716 -0.21197885
-0.13860646 0.016217373 -0.21196502
-0.13860342 0.016293339 -0.21196523
-0.13859972 0.016371565 -0.21197736
-0.13859643 0.016449615 -0.21198151
-0.13859351 0.016527491 -0.21197766
-0.1385901 0.016605586 -0.2119838
-0.138587 0.016683549 -0.21198396
-0.13858435 0.01675934 -0.21197617
-0.13858163 0.016837129 -0.21196833
-0.13857861 0.016915049 -0.21196648
-0.1385753 0.0169931 -0.21197063
-0.13857201 0.01707115 -0.21197478
-0.13856906 0.017147072 -0.21197298
-0.13856617 0.017226903 -0.21196711
-0.13856342 0.017302739 -0.2119613
-0.13856041 0.017380659 -0.21195947
-0.13855749 0.017458534 -0.21195562
-0.13855438 0.017536499 -0.21195577
-0.13855128 0.017614461 -0.21195592
-0.13854843 0.01769034 -0.21195212
-0.13854551 0.017768215 -0.21194829
-0.1385425 0.017846135 -0.21194644
-0.13853939 0.0179241 -0.21194661
-0.13853648 0.018001975 -0.21194276
-0.13853365 0.01807981 -0.21193692
-0.13853025 0.018157903 -0.21194306
-0.13852713 0.018233912 -0.21194525
-0.13852391 0.018311918 -0.21194741
-0.1385209 0.01838984 -0.21194556
-0.13851778 0.018467803 -0.21194571
-0.13851458 0.018545808 -0.21194786
-0.13851157 0.018623728 -0.21194601
-0.13850872 0.018699607 -0.21194223
-0.13850601 0.018777397 -0.21193439
-0.13850328 0.018855186 -0.21192655
-0.13850017 0.018933149 -0.2119267
-0.13849667 0.019011287 -0.21193483
-0.13849346 0.019089293 -0.21193698
-0.13849074 0.019167084 -0.21192916
-0.13848791 0.019242961 -0.21192536
-0.13848479 0.019320926 -0.21192551
-0.13848197 0.019398758 -0.21191967
-0.13847896 0.019476678 -0.21191782
-0.13847546 0.019554816 -0.21192597
-0.13847215 0.019632865 -0.21193011
-0.13846904 0.019710829 -0.21193027
-0.13846603 0.01978875 -0.21192843
-0.13846299 0.019864716 -0.21192861
-0.13845979 0.019942721 -0.21193078
-0.13845697 0.020020556 -0.21192493
-0.13845424 0.020098343 -0.2119171
-0.13845132 0.020176221 -0.21191326
-0.13844812 0.020254226 -0.2119154
-0.138445 0.020332191 -0.21191555
-0.13844217 0.02040807 -0.21191175
-0.13843898 0.020488031 -0.21191186
-0.13843565 0.020564126 -0.21191806
-0.13843264 0.020642046 -0.21191621
-0.13843001 0.020719793 -0.21190637
-0.1384269 0.020797756 -0.21190652
-0.1384237 0.020875763 -0.21190868
-0.13842078 0.02095364 -0.21190484
-0.13841794 0.021029517 -0.21190104
-0.13841492 0.021107437 -0.21189919
-0.13841201 0.021185312 -0.21189535
-0.1384089 0.021263277 -0.2118955
-0.1384057 0.021341283 -0.21189766
-0.13840297 0.021419074 -0.21188983
-0.13840015 0.021496907 -0.21188399
-0.13839692 0.021572959 -0.21188816
-0.13839392 0.021652833 -0.21188429
-0.13839109 0.021728711 -0.21188048
-0.13838759 0.021806849 -0.21188863
-0.13838428 0.0218849 -0.21189278
-0.13838147 0.021962732 -0.21188694
-0.13837855 0.022040609 -0.2118831
-0.13837554 0.022118529 -0.21188125
-0.13837242 0.022196492 -0.2118814
-0.13836931 0.022274455 -0.21188155
-0.13836667 0.022350248 -0.21187377
-0.13836357 0.022430165 -0.21187188
-0.13836055 0.022506131 -0.21187207
-0.13835752 0.022584051 -0.21187022
-0.13835451 0.022661971 -0.21186838
-0.1383514 0.022739934 -0.21186854
-0.13834819 0.02281794 -0.21187069
-0.13834518 0.022895861 -0.21186884
-0.13834196 0.022973869 -0.211871
-0.13833906 0.023051744 -0.21186715
-0.13833614 0.02312962 -0.21186331
-0.13833341 0.023207409 -0.21185547
-0.13833039 0.023283375 -0.21185568
-0.13832697 0.023361469 -0.21186182
-0.13832386 0.023439433 -0.21186197
-0.13832076 0.023517396 -0.21186212
-0.13831738 0.023597445 -0.21186623
-0.13831453 0.023673322 -0.21186242
-0.13831201 0.023751024 -0.21185058
-0.1383089 0.023828989 -0.21185073
-0.13830568 0.023906995 -0.21185289
-0.13830267 0.023984917 -0.21185105
-0.13829966 0.024062835 -0.2118492
-0.13829646 0.024140842 -0.21185136
-0.13829324 0.02421885 -0.2118535
-0.13829023 0.024296768 -0.21185166
-0.13828722 0.02437469 -0.21184981
-0.13828391 0.02445274 -0.21185395
-0.13828106 0.024528617 -0.21185017
-0.13827835 0.024606407 -0.21184233
-0.13827533 0.024684327 -0.21184048
-0.13827242 0.024762204 -0.21183664
-0.13826939 0.024840124 -0.21183479
-0.13826649 0.024917999 -0.21183094
-0.13826318 0.02499605 -0.21183509
-0.13825977 0.025074143 -0.21184126
-0.13825656 0.025152151 -0.2118434
-0.13825364 0.025230028 -0.21183954
-0.13825074 0.025307905 -0.21183571
-0.13824801 0.025385693 -0.21182787
-0.13824517 0.025461573 -0.21182407
-0.13824189 0.025541576 -0.21182618
-0.13823868 0.025619583 -0.21182832
-0.13823546 0.025697591 -0.21183048
-0.13823226 0.025775598 -0.21183263
-0.13822953 0.025853388 -0.21182477
-0.13822652 0.025931308 -0.21182294
-0.13822313 0.026009401 -0.2118291
-0.1382201 0.026087321 -0.21182725
-0.1382172 0.026165199 -0.2118234
-0.13821408 0.026243161 -0.21182355
-0.13821107 0.026321081 -0.21182171
-0.13820815 0.026398957 -0.21181786
-0.13820502 0.026474966 -0.21182007
-0.13820173 0.026554972 -0.21182217
-0.13819882 0.026632847 -0.21181832
-0.13819599 0.026710682 -0.2118125
-0.13819297 0.026786646 -0.21181267
-0.13818985 0.026864609 -0.21181284
-0.13818675 0.026944527 -0.21181095
-0.13818362 0.027020536 -0.21181314
-0.13818063 0.02710041 -0.21180925
-0.13817769 0.027176332 -0.21180746
-0.13817449 0.027254339 -0.21180961
-0.1381714 0.027334258 -0.21180771
-0.13816836 0.027410222 -0.21180791
-0.13816528 0.027490141 -0.21180601
-0.13816273 0.027565889 -0.21179622
-0.1381599 0.027643722 -0.21179038
-0.1381567 0.027721729 -0.21179254
-0.13815358 0.027799692 -0.21179269
-0.13815077 0.027877524 -0.21178687
-0.13814756 0.027955532 -0.21178901
-0.13814445 0.028033495 -0.21178916
-0.13814144 0.028111415 -0.21178731
-0.13813832 0.028189378 -0.21178746
-0.13813484 0.02826947 -0.21179356
-0.13813153 0.02834752 -0.2117977
-0.13812862 0.028425397 -0.21179387
-0.13812581 0.02850323 -0.21178803
-0.13812345 0.02857889 -0.21177424
-0.13812083 0.028656635 -0.21176441
-0.13811722 0.028734818 -0.21177456
-0.13811383 0.028812911 -0.2117807
-0.13811064 0.028892873 -0.21178079
-0.13810763 0.028970793 -0.21177895
-0.1381046 0.029048713 -0.21177711
-0.13810149 0.029126678 -0.21177725
-0.13809858 0.029204553 -0.21177343
-0.13809586 0.029282343 -0.21176559
-0.13809292 0.029358264 -0.21176378
-0.13808984 0.029438183 -0.21176189
-0.13808662 0.029516188 -0.21176404
-0.13808331 0.029594239 -0.21176818
-0.1380804 0.029672116 -0.21176434
-0.13807768 0.029749906 -0.21175651
-0.13807476 0.029827781 -0.21175267
-0.13807166 0.029905746 -0.21175283
-0.13806835 0.029983794 -0.21175696
-0.13806523 0.030061759 -0.21175712
-0.13806222 0.030139679 -0.21175528
-0.1380592 0.030217599 -0.21175343
-0.1380561 0.030295562 -0.21175358
-0.13805327 0.030373394 -0.21174774
-0.13805056 0.030451184 -0.21173991
-0.13804744 0.030529147 -0.21174005
-0.13804395 0.030609241 -0.21174616
-0.13804075 0.030687246 -0.2117483
-0.13803802 0.030765036 -0.21174046
-0.13803509 0.030840958 -0.21173868
-0.13803208 0.030918878 -0.21173683
-0.1380288 0.030998882 -0.21173891
-0.13802569 0.031076847 -0.21173908
-0.13802257 0.03115481 -0.21173924
-0.13801965 0.031232687 -0.2117354
-0.1380171 0.031308435 -0.21172559
-0.13801439 0.031386223 -0.21171777
-0.13801128 0.031464189 -0.21171792
-0.13800789 0.031544235 -0.21172202
-0.13800448 0.031622328 -0.21172816
-0.13800108 0.031700425 -0.21173429
-0.13799809 0.031780299 -0.21173041
-0.13799526 0.031856176 -0.21172662
-0.13799226 0.031936049 -0.21172273
-0.13798924 0.032013968 -0.21172088
-0.13798614 0.032091931 -0.21172103
-0.13798322 0.032169808 -0.21171719
-0.1379801 0.032247774 -0.21171735
-0.1379768 0.032325823 -0.21172149
-0.13797379 0.032403745 -0.21171965
-0.13797067 0.032481708 -0.21171981
-0.13796768 0.032561582 -0.21171591
-0.13796493 0.032637417 -0.21171011
-0.13796185 0.032717332 -0.21170822
-0.13795854 0.032795385 -0.21171238
-0.13795562 0.032873258 -0.21170853
-0.1379528 0.032951094 -0.21170269
-0.13794969 0.033029057 -0.21170285
-0.13794659 0.03310702 -0.211703
-0.13794328 0.033185072 -0.21170714
-0.13794017 0.033263035 -0.21170729
-0.13793728 0.033342868 -0.21170141
-0.13793454 0.0334187 -0.21169561
-0.13793135 0.03349866 -0.21169573
-0.13792823 0.033576626 -0.21169588
-0.13792539 0.033652503 -0.21169208
-0.1379223 0.033732422 -0.21169019
-0.13791929 0.03381034 -0.21168834
-0.13791627 0.033888258 -0.21168649
-0.13791317 0.033966225 -0.21168664
-0.13790995 0.034044228 -0.2116888
-0.13790686 0.034124151 -0.21168691
-0.13790402 0.034200028 -0.21168312
-0.1379011 0.034277905 -0.21167928
-0.13789819 0.034355782 -0.21167544
-0.13789517 0.0344337 -0.21167359
-0.13789189 0.034513704 -0.21167569
-0.13788858 0.034591757 -0.21167983
-0.1378852 0.034671806 -0.21168393
-0.13788256 0.034747593 -0.21167615
-0.13788003 0.034825295 -0.21166432
-0.13787691 0.034903262 -0.21166447
-0.13787344 0.034983352 -0.21167055
-0.13787013 0.035061404 -0.21167471
-0.13786721 0.035139281 -0.21167088
-0.1378644 0.035217114 -0.21166503
-0.13786148 0.035294987 -0.21166119
-0.13785836 0.03537295 -0.21166134
-0.13785489 0.035453044 -0.21166743
-0.13785167 0.035531051 -0.21166958
-0.13784885 0.035608888 -0.21166375
-0.13784614 0.035686675 -0.2116559
-0.13784322 0.035764553 -0.21165207
-0.13783991 0.035842601 -0.21165621
-0.13783671 0.035920609 -0.21165836
-0.13783418 0.035998311 -0.21164653
-0.13783145 0.036076099 -0.21163869
-0.13782759 0.036156364 -0.21165277
-0.1378241 0.036236458 -0.21165887
-0.13782127 0.036312334 -0.21165508
-0.13781789 0.036392383 -0.21165918
-0.13781486 0.036470305 -0.21165733
-0.13781205 0.036548138 -0.2116515
-0.13780893 0.036626101 -0.21165165
-0.13780631 0.036703847 -0.21164182
-0.13780311 0.036781855 -0.21164396
-0.13779953 0.03686199 -0.21165206
-0.13779651 0.036939912 -0.21165021
-0.1377936 0.037017785 -0.21164638
-0.13779038 0.037095793 -0.21164852
-0.13778728 0.037173755 -0.21164867
-0.13778438 0.037253588 -0.21164279
-0.13778163 0.03732942 -0.21163699
-0.13777816 0.037409514 -0.21164308
-0.13777485 0.037487566 -0.21164724
-0.13777204 0.037565395 -0.2116414
-0.13776942 0.037643142 -0.21163157
-0.1377665 0.037721019 -0.21162772
-0.13776338 0.037798982 -0.21162787
-0.13776027 0.037876949 -0.21162802
-0.13775736 0.037954822 -0.21162418
-0.13775434 0.038032744 -0.21162233
-0.13775106 0.038112745 -0.21162444
-0.13774748 0.038192883 -0.21163252
-0.13774417 0.038270935 -0.21163668
-0.13774163 0.038346682 -0.21162689
-0.137739 0.038424425 -0.21161705
-0.13773589 0.038502391 -0.2116172
-0.1377327 0.038582355 -0.21161732
-0.13772959 0.038660318 -0.21161747
-0.13772658 0.038738236 -0.21161562
-0.13772319 0.038818281 -0.21161973
-0.13772018 0.038896203 -0.21161789
-0.13771735 0.038974036 -0.21161205
-0.13771434 0.039051957 -0.2116102
-0.13771123 0.03912992 -0.21161035
-0.13770813 0.039207883 -0.2116105
-0.1377054 0.039285671 -0.21160266
-0.1377022 0.039363679 -0.2116048
-0.13769871 0.039443772 -0.21161091
-0.13769616 0.039519519 -0.21160111
-0.13769297 0.039599478 -0.21160123
-0.13768958 0.039677575 -0.21160737
-0.13768704 0.039755277 -0.21159554
-0.13768449 0.039831027 -0.21158576
-0.13768157 0.039908901 -0.21158192
-0.1376781 0.039988995 -0.211588
-0.13767423 0.04006926 -0.21160209
-0.13767095 0.040149264 -0.21160419
-0.13766859 0.040224925 -0.21159041
-0.13766578 0.040302757 -0.21158457
-0.1376621 0.040382937 -0.21159466
-0.13765889 0.040460944 -0.21159682
-0.13765579 0.040540859 -0.21159492
-0.13765259 0.040618867 -0.21159707
-0.13879235 0.0047092624 -0.21212317
-0.13878874 0.0047874441 -0.21213332
-0.13878454 0.0048639309 -0.21215749
-0.13878034 0.0049404185 -0.21218164
-0.1387772 0.0050164275 -0.21218383
-0.1387741 0.0050943913 -0.21218398
-0.1387706 0.0051725283 -0.21219215
-0.13876748 0.0052504921 -0.21219228
-0.13876446 0.0053284122 -0.21219045
-0.13876134 0.005406375 -0.2121906
-0.13875841 0.0054822974 -0.21218881
-0.13875541 0.0055621713 -0.21218491
-0.13875239 0.0056381365 -0.21218511
-0.13874917 0.0057161432 -0.21218726
-0.13874644 0.0057939328 -0.21217942
-0.13874353 0.00587181 -0.21217558
-0.13874023 0.0059498604 -0.21217972
-0.13873711 0.0060278233 -0.21217987
-0.13873439 0.006105612 -0.21217203
-0.13873146 0.0061834883 -0.2121682
-0.13872854 0.0062613641 -0.21216436
-0.13872564 0.0063392408 -0.21216051
-0.13872252 0.0064172042 -0.21216068
-0.13871941 0.006495168 -0.21216083
-0.13871591 0.0065733055 -0.21216896
-0.13871257 0.006649401 -0.21217516
-0.13870966 0.0067272773 -0.21217132
-0.13870683 0.0068051103 -0.21216547
-0.13870402 0.0068829432 -0.21215963
-0.13870129 0.0069607329 -0.2121518
-0.13869828 0.0070386529 -0.21214995
-0.13869506 0.0071166591 -0.21215209
-0.13869224 0.007194492 -0.21214625
-0.13868874 0.0072726295 -0.21215439
-0.13868532 0.0073487684 -0.21216258
-0.13868269 0.0074265148 -0.21215276
-0.13867988 0.0075043477 -0.21214692
-0.13867676 0.0075823111 -0.21214706
-0.13867384 0.0076601878 -0.21214324
-0.13867064 0.0077381949 -0.21214539
-0.1386674 0.0078142472 -0.21214958
-0.13866439 0.0078921672 -0.21214773
-0.13866137 0.0079700872 -0.21214589
-0.13865826 0.0080480501 -0.21214603
-0.13865554 0.0081258398 -0.21213819
-0.13865252 0.0082037589 -0.21213636
-0.13864951 0.0082816789 -0.21213451
-0.13864648 0.008359598 -0.21213266
-0.13864347 0.008437518 -0.21213081
-0.13864055 0.0085153952 -0.21212697
-0.13863753 0.0085913604 -0.21212718
-0.1386345 0.0086692795 -0.21212533
-0.13863139 0.0087472443 -0.21212548
-0.13862818 0.0088252509 -0.21212763
-0.13862537 0.0089030843 -0.2121218
-0.13862254 0.0089809168 -0.21211596
-0.13861904 0.0090590538 -0.21212411
-0.1386161 0.0091349762 -0.21212229
-0.13861299 0.0092129391 -0.21212246
-0.13861006 0.0092908153 -0.21211861
-0.13860725 0.0093686488 -0.21211278
-0.13860413 0.0094466116 -0.21211292
-0.13860093 0.0095246183 -0.21211508
-0.13859782 0.0096025821 -0.21211523
-0.1385949 0.0096804583 -0.21211138
-0.13859205 0.0097563369 -0.2121076
-0.13858885 0.0098343436 -0.21210974
-0.13858593 0.0099122198 -0.2121059
