# .PCD v0.7 - Point Cloud Data file format
VERSION 0.7
FIELDS x y z
SIZE 4 4 4
TYPE F F F
COUNT 1 1 1
WIDTH 1305
HEIGHT 1
VIEWPOINT 0 0 0 1 0 0 0
POINTS 1305
DATA ascii
0.093326606 -0.096778207 -0.23732251
0.09333045 -0.096695989 -0.23733455
0.093333259 -0.096618153 -0.23732871
0.093335569 -0.096538588 -0.23731086
0.093337677 -0.096459106 -0.23728898
0.093340762 -0.096379183 -0.2372871
0.093344137 -0.096299134 -0.23729119
0.093347512 -0.096219085 -0.2372953
0.093350597 -0.09613917 -0.23729339
0.093353778 -0.096059203 -0.23729351
0.093356684 -0.09598133 -0.23728967
0.093359843 -0.095899411 -0.23728773
0.093363538 -0.095821187 -0.23729986
0.093367085 -0.095739096 -0.23730591
0.093369506 -0.095661439 -0.23729208
0.093372203 -0.095581695 -0.2372822
0.093375385 -0.095501736 -0.23728231
0.093378663 -0.095421731 -0.23728442
0.093382038 -0.095341682 -0.23728852
0.093384922 -0.095261849 -0.23728263
0.093387328 -0.095182233 -0.23726675
0.093390115 -0.095102444 -0.23725888
0.093393125 -0.095024526 -0.23725703
0.093396679 -0.094942436 -0.23726308
0.093400344 -0.09486226 -0.23727317
0.093403347 -0.094784334 -0.23727132
0.09340661 -0.094702378 -0.2372714
0.093410008 -0.094624281 -0.23727752
0.0934126 -0.094544582 -0.23726565
0.093415394 -0.094464794 -0.23725778
0.093418963 -0.094384655 -0.23726587
0.093422242 -0.094304651 -0.23726797
0.093425326 -0.094224736 -0.23726608
0.093428217 -0.094144903 -0.23726019
0.093431205 -0.094065033 -0.2372563
0.093434379 -0.093985066 -0.23725641
0.093437366 -0.093905196 -0.23725252
0.093440183 -0.093827359 -0.23724669
0.093443438 -0.093745403 -0.23724674
0.093446814 -0.093665354 -0.23725083
0.093450114 -0.093587302 -0.23725498
0.09345337 -0.093505345 -0.23725504
0.093456648 -0.093425333 -0.23725715
0.093460023 -0.093345284 -0.23726124
0.093463108 -0.09326537 -0.23725936
0.093466409 -0.093187317 -0.2372635
0.093469568 -0.093105406 -0.23726156
0.093472384 -0.093027569 -0.23725572
0.093475267 -0.092947736 -0.23724984
0.093478642 -0.092867687 -0.23725393
0.093481921 -0.092787683 -0.23725605
0.093484811 -0.092707857 -0.23725015
0.093488187 -0.092627808 -0.23725426
0.093491547 -0.0925458 -0.23725632
0.093494453 -0.092467926 -0.23725247
0.09349715 -0.092388183 -0.23724258
0.093500137 -0.092308305 -0.23723871
0.093503416 -0.092228301 -0.23724082
0.093506493 -0.092148386 -0.23723891
0.093509674 -0.092068419 -0.23723902
0.093513153 -0.091988333 -0.23724511
0.093516625 -0.091908239 -0.23725122
0.093520001 -0.09182819 -0.23725531
0.093523748 -0.09174601 -0.23726536
0.093527026 -0.091666006 -0.23726746
0.093530111 -0.091586091 -0.23726556
0.093533292 -0.091506124 -0.23726568
0.09353637 -0.091426209 -0.2372638
0.093539752 -0.09134616 -0.23726788
0.093542732 -0.091266282 -0.23726401
0.093545452 -0.091188498 -0.23725615
0.093548901 -0.091106452 -0.23726022
0.093552083 -0.091026485 -0.23726031
0.093554877 -0.090946697 -0.23725244
0.093558155 -0.090866692 -0.23725453
0.093561627 -0.090786599 -0.23726064
0.093565293 -0.090706423 -0.23727073
0.093568772 -0.090626329 -0.23727682
0.093572125 -0.090544328 -0.23727888
0.093575306 -0.090464368 -0.23727898
0.093578115 -0.090386532 -0.23727314
0.093581103 -0.090306655 -0.23726925
0.093584754 -0.090224519 -0.2372773
0.093588226 -0.090144433 -0.23728341
0.093591213 -0.090064555 -0.2372795
0.093594298 -0.08998464 -0.23727763
0.093597278 -0.089904763 -0.23727374
0.093600266 -0.089824893 -0.23726985
0.093603447 -0.089744925 -0.23726995
0.093606532 -0.089665011 -0.23726806
0.093609713 -0.089585051 -0.23726815
0.093613185 -0.089504957 -0.23727426
0.09361656 -0.089424908 -0.23727836
0.093619257 -0.089345165 -0.23726848
0.093622044 -0.089265376 -0.23726059
0.093625031 -0.089185499 -0.23725671
0.09362831 -0.089105494 -0.23725882
0.093631685 -0.089025445 -0.2372629
0.093635045 -0.088943444 -0.23726496
0.093638048 -0.088865526 -0.23726311
0.093641333 -0.088785514 -0.23726523
0.093644686 -0.088703513 -0.23726729
0.093647867 -0.088623554 -0.23726737
0.093650758 -0.088543721 -0.2372615
0.093653932 -0.088463761 -0.23726162
0.093657114 -0.088383801 -0.23726171
0.093660004 -0.088303968 -0.23725583
0.093663186 -0.088224009 -0.23725593
0.093666367 -0.088144049 -0.23725604
0.093669355 -0.088064171 -0.23725215
0.093672827 -0.087984078 -0.23725824
0.093676478 -0.087901942 -0.2372663
0.093679659 -0.087821983 -0.23726639
0.093682542 -0.08774215 -0.23726051
0.093685627 -0.087662235 -0.23725861
0.093688808 -0.087582275 -0.23725873
0.093691699 -0.087502442 -0.23725285
0.093694411 -0.087424651 -0.23724499
0.093697771 -0.08734265 -0.23724705
0.093700856 -0.087262727 -0.23724517
0.093703665 -0.087184899 -0.23723933
0.093706727 -0.087103024 -0.2372354
0.093710005 -0.08702302 -0.23723751
0.093712993 -0.086943142 -0.23723361
0.093715787 -0.086863354 -0.23722573
0.093719065 -0.08678335 -0.23722783
0.093722731 -0.086703174 -0.23723793
0.093725719 -0.086623296 -0.23723403
0.093728408 -0.086543553 -0.23722415
0.09373159 -0.086463593 -0.23722427
0.093735069 -0.086383499 -0.23723036
0.093738519 -0.086301453 -0.23723441
0.0937417 -0.086221494 -0.23723452
0.093744591 -0.086141661 -0.23722863
0.093747474 -0.086061828 -0.23722275
0.093750753 -0.085981824 -0.23722485
0.093754135 -0.085901774 -0.23722894
0.093757115 -0.085821897 -0.23722506
0.093760006 -0.085742071 -0.23721915
0.093762994 -0.085662194 -0.23721528
0.093766078 -0.085582279 -0.2372134
0.093769334 -0.085500315 -0.23721343
0.093772516 -0.085420355 -0.23721355
0.093775697 -0.085340396 -0.23721367
0.093778782 -0.085260473 -0.23721176
0.093781963 -0.085180514 -0.23721188
0.093785048 -0.085100591 -0.23720998
0.093788028 -0.085020721 -0.2372061
0.093791291 -0.084938765 -0.23720616
0.093794473 -0.084858797 -0.23720625
0.093797378 -0.084780924 -0.23720242
0.093800835 -0.084698871 -0.23720646
0.09380392 -0.084618956 -0.23720458
0.093806803 -0.08453913 -0.2371987
0.093809985 -0.084459163 -0.2371988
0.093813263 -0.084379159 -0.2372009
0.093816251 -0.084299281 -0.23719701
0.093819238 -0.084219411 -0.23719312
0.093822397 -0.084137492 -0.23719119
0.093825676 -0.084057488 -0.23719329
0.093828857 -0.083977528 -0.23719339
0.093831941 -0.083897606 -0.2371915
0.093835026 -0.083817691 -0.23718961
0.093838014 -0.08373782 -0.23718572
0.093841195 -0.083657853 -0.23718584
0.093844645 -0.083575808 -0.23718987
0.093847923 -0.083495803 -0.23719198
0.093850814 -0.08341597 -0.2371861
0.093853705 -0.083336145 -0.2371802
0.093856491 -0.083256349 -0.23717234
0.093859673 -0.083176389 -0.23717242
0.093862563 -0.083096564 -0.23716655
0.09386535 -0.083016768 -0.23715866
0.093868732 -0.082936719 -0.23716277
0.093872011 -0.082856715 -0.23716487
0.093874976 -0.082774892 -0.23715892
0.093877591 -0.082697146 -0.2371491
0.093880482 -0.082617313 -0.23714322
0.093883663 -0.082537353 -0.23714331
0.093887113 -0.082455307 -0.23714738
0.093890391 -0.082375295 -0.23714948
0.093893379 -0.082295425 -0.23714559
0.093896367 -0.082215548 -0.2371417
0.09389925 -0.082135722 -0.23713581
0.093902238 -0.082055844 -0.23713192
0.093905695 -0.081973799 -0.23713598
0.093908973 -0.081893787 -0.23713809
0.093912058 -0.081813872 -0.23713619
0.093915135 -0.081733957 -0.23713431
0.093918122 -0.081654079 -0.2371304
0.09392111 -0.081574209 -0.23712653
0.093923904 -0.081494421 -0.23711863
0.093926787 -0.081414588 -0.23711276
0.093930066 -0.081334583 -0.23711485
0.09393362 -0.081252493 -0.2371209
0.093937069 -0.081170447 -0.23712495
0.093940154 -0.081090525 -0.23712307
0.093943141 -0.081010655 -0.23711917
0.093946129 -0.080930777 -0.23711529
0.093949117 -0.080850899 -0.2371114
0.093952298 -0.08077094 -0.23711151
0.093955576 -0.080690935 -0.23711361
0.093958467 -0.080611102 -0.23710772
0.093961723 -0.080529146 -0.23710778
0.093965001 -0.080449142 -0.23710988
0.093967989 -0.080369264 -0.237106
0.093970969 -0.080289394 -0.23710211
0.09397386 -0.080209561 -0.23709622
0.093976751 -0.080129728 -0.23709033
0.093979932 -0.080049768 -0.23709044
0.093983091 -0.079967849 -0.2370885
0.093986005 -0.079889968 -0.23708466
0.093989082 -0.079810053 -0.23708278
0.093992248 -0.079728141 -0.23708084
0.093995333 -0.079648226 -0.23707893
0.093998976 -0.079566091 -0.23708698
0.094002254 -0.079486087 -0.2370891
0.094005242 -0.079406209 -0.23708519
0.094008498 -0.079324245 -0.23708525
0.094011679 -0.079244286 -0.23708537
0.094014473 -0.079164498 -0.23707747
0.094017461 -0.07908462 -0.2370736
0.094020642 -0.07900466 -0.23707369
0.094023801 -0.078922749 -0.23707175
0.094026513 -0.078844957 -0.23706391
0.094029672 -0.078763038 -0.23706198
0.094032951 -0.078683034 -0.23706409
0.094036333 -0.078602985 -0.23706818
0.094039395 -0.078521118 -0.23706424
0.094042107 -0.078443326 -0.23705642
0.094045267 -0.078361407 -0.23705447
0.094048351 -0.078281492 -0.23705259
0.094051339 -0.078201622 -0.2370487
0.09405452 -0.078121655 -0.2370488
0.094058067 -0.078039564 -0.23705485
0.094061524 -0.077957518 -0.23705891
0.094064705 -0.077877551 -0.23705901
0.094067983 -0.077797547 -0.23706111
0.094071239 -0.077715591 -0.23706117
0.094074227 -0.07763572 -0.2370573
0.094076924 -0.077555969 -0.2370474
0.094079904 -0.077476099 -0.23704353
0.094082989 -0.077396184 -0.23704162
0.094086543 -0.077314086 -0.23704767
0.094089724 -0.077234127 -0.23704779
0.094092317 -0.077154428 -0.2370359
0.094094835 -0.077076726 -0.23702407
0.094098113 -0.076996721 -0.23702618
0.094101839 -0.076912589 -0.23703417
0.094105117 -0.076832578 -0.23703629
0.094108202 -0.076752663 -0.23703438
0.094111465 -0.076670706 -0.23703444
0.09411484 -0.076590657 -0.23703854
0.09411829 -0.076508611 -0.23704261
0.09412165 -0.07642661 -0.23704466
0.094124831 -0.076346643 -0.23704475
0.094127715 -0.07626681 -0.23703888
0.09413033 -0.076189071 -0.23702905
0.094133027 -0.07610932 -0.23701917
0.094136283 -0.076027364 -0.23701921
0.094139837 -0.075945273 -0.23702526
0.094143115 -0.075865269 -0.23702738
0.094146103 -0.075785398 -0.23702349
0.094148986 -0.075705558 -0.2370176
0.094151683 -0.075625814 -0.23700772
0.094154865 -0.075545855 -0.23700783
0.094158418 -0.075463764 -0.23701388
0.094162062 -0.075381637 -0.23702192
0.094165325 -0.075299673 -0.23702198
0.094168305 -0.075219795 -0.23701808
0.09417139 -0.07513988 -0.2370162
0.09417475 -0.075057879 -0.23701826
0.09417773 -0.074978001 -0.23701435
0.094180524 -0.074898213 -0.23700649
0.094183899 -0.074818164 -0.23701058
0.094186962 -0.074736297 -0.23700663
0.094190046 -0.074656375 -0.23700476
0.094193034 -0.074576497 -0.23700087
0.094195925 -0.074496672 -0.23699498
0.094199203 -0.074416667 -0.23699708
0.094202459 -0.074334703 -0.23699714
0.094205447 -0.074254826 -0.23699325
0.094208434 -0.074174955 -0.23698936
0.094212078 -0.07409282 -0.23699741
0.094215728 -0.074010685 -0.23700546
0.094218418 -0.073930942 -0.23699558
0.094221309 -0.073851116 -0.23698969
0.09314464 -0.10148131 -0.23748177
0.093147531 -0.10140148 -0.23747589
0.093150124 -0.10132178 -0.23746401
0.093152821 -0.10124204 -0.23745413
0.093155421 -0.10116234 -0.23744226
0.093158111 -0.10108259 -0.23743236
0.093160905 -0.1010028 -0.23742449
0.093163505 -0.10092311 -0.23741262
0.09316612 -0.10084536 -0.23740278
0.09316881 -0.10076562 -0.2373929
0.093171701 -0.10068578 -0.237387
0.093175076 -0.10060573 -0.23739111
0.093178362 -0.10052573 -0.23739323
0.093181543 -0.10044577 -0.23739332
0.09318462 -0.10036585 -0.23739144
0.093187511 -0.10028601 -0.23738554
0.093190596 -0.1002061 -0.23738365
0.093194366 -0.10012588 -0.23739573
0.093197472 -0.10004792 -0.2373959
0.093199678 -0.099968389 -0.23737603
0.093202956 -0.099888384 -0.23737814
0.093206234 -0.09980838 -0.23738024
0.093209513 -0.099728368 -0.23738232
0.093213089 -0.099648237 -0.23739043
0.093215875 -0.099568449 -0.23738255
0.09321896 -0.099488527 -0.23738065
0.093222335 -0.099408478 -0.23738477
0.093225524 -0.099328518 -0.23738486
0.093228601 -0.099248603 -0.23738298
0.093229756 -0.099171504 -0.23734318
0.093231864 -0.099092022 -0.23732132
0.09323515 -0.099012017 -0.2373234
0.093237646 -0.098932363 -0.23730955
0.093240246 -0.098852664 -0.23729767
0.093244202 -0.098772354 -0.23731375
0.093248852 -0.098691739 -0.23734382
0.093252711 -0.098611474 -0.2373579
0.093257062 -0.098530985 -0.23738196
0.093260929 -0.09845072 -0.23739606
0.093263157 -0.098373152 -0.23737824
0.093263999 -0.098294228 -0.23733041
0.093267083 -0.098214313 -0.23732851
0.093270265 -0.098134354 -0.23732862
0.093272761 -0.098054692 -0.23731475
0.093276531 -0.097974472 -0.23732683
0.093282245 -0.09789338 -0.23737887
0.093286112 -0.097813115 -0.23739296
0.093287148 -0.097734109 -0.23734912
0.093288496 -0.097656928 -0.23731333
0.093291581 -0.097577013 -0.23731142
0.093294375 -0.097497225 -0.23730356
0.093297169 -0.097417437 -0.23729566
0.093300149 -0.097337559 -0.23729178
0.093303435 -0.097257555 -0.23729388
0.093306616 -0.097177595 -0.23729399
0.0933097 -0.097097673 -0.2372921
0.093312606 -0.097019799 -0.23728825
0.093316063 -0.096937753 -0.2372923
0.093319923 -0.096857488 -0.23730639
0.093324006 -0.096779086 -0.23732652
0.09332785 -0.096696869 -0.23733856
0.093330659 -0.096619032 -0.23733273
0.093332872 -0.096539505 -0.23731285
0.093335174 -0.09645994 -0.23729497
0.093338162 -0.096380062 -0.2372911
0.093341634 -0.096299969 -0.23729719
0.093345009 -0.09621992 -0.23730129
0.093347996 -0.096140049 -0.2372974
0.093351178 -0.096060082 -0.23729751
0.093353994 -0.095982254 -0.23729166
0.09335725 -0.09590029 -0.23729172
0.093361117 -0.095820025 -0.23730582
0.093364492 -0.095739976 -0.2373099
0.093366913 -0.095662318 -0.2372961
0.093369506 -0.095582619 -0.23728421
0.093372792 -0.095502615 -0.23728631
0.09337607 -0.095422611 -0.23728842
0.093379445 -0.095342562 -0.23729251
0.093382336 -0.095262729 -0.23728663
0.093384735 -0.095183112 -0.23727076
0.093387626 -0.095103279 -0.23726487
0.093390532 -0.095025405 -0.23726103
0.093394086 -0.094943315 -0.23726708
0.093397662 -0.094863184 -0.23727518
0.093400761 -0.094785213 -0.23727533
0.093404025 -0.094703257 -0.23727539
0.093407519 -0.094625123 -0.23728353
0.093410015 -0.094545461 -0.23726967
0.093412809 -0.094465673 -0.23726177
0.093416378 -0.094385535 -0.23726986
0.093419656 -0.09430553 -0.23727196
0.093422644 -0.09422566 -0.23726808
0.093425632 -0.094145782 -0.23726419
0.093428619 -0.094065912 -0.2372603
0.093431897 -0.093985908 -0.2372624
0.093434885 -0.09390603 -0.23725852
0.093437679 -0.093826242 -0.23725063
0.093440861 -0.093746282 -0.23725075
0.093444332 -0.093666188 -0.23725682
0.093447536 -0.093588181 -0.23725897
0.093450792 -0.093506224 -0.23725905
0.093454167 -0.093426175 -0.23726314
0.09345755 -0.093346126 -0.23726724
0.093460634 -0.093266204 -0.23726535
0.093463831 -0.093188196 -0.23726749
0.093466997 -0.093106285 -0.23726556
0.093469709 -0.093028493 -0.23725772
0.093472697 -0.092948616 -0.23725383
0.093476072 -0.092868567 -0.23725793
0.09347935 -0.092788562 -0.23726004
0.093482338 -0.092708692 -0.23725615
0.093485519 -0.092628732 -0.23725626
0.093488976 -0.092546679 -0.23726031
0.093491882 -0.092468806 -0.23725647
0.093494482 -0.092389107 -0.23724459
0.093497567 -0.092309184 -0.2372427
0.093500845 -0.09222918 -0.2372448
0.09350393 -0.092149265 -0.23724291
0.093507111 -0.092069298 -0.23724301
0.093510583 -0.091989212 -0.23724911
0.093514234 -0.091907077 -0.23725715
0.093517534 -0.091829024 -0.23726131
0.093521185 -0.091746889 -0.23726936
0.093524463 -0.091666885 -0.23727146
0.093527645 -0.091586925 -0.23727156
0.093530729 -0.091507003 -0.23726967
0.093533911 -0.091427043 -0.23726977
0.093537189 -0.091347039 -0.23727188
0.093540177 -0.091267169 -0.23726799
0.093542963 -0.09118738 -0.2372601
0.093546346 -0.091107331 -0.23726422
0.093549527 -0.091027364 -0.23726432
0.093552418 -0.090947539 -0.23725843
0.093555599 -0.090867579 -0.23725852
0.093559168 -0.090787441 -0.23726663
0.093562737 -0.090707302 -0.23727471
0.093566217 -0.090627208 -0.23728082
0.093569472 -0.090545252 -0.23728088
0.093572654 -0.090465292 -0.23728098
0.093575567 -0.090387411 -0.23727715
0.093578726 -0.0903055 -0.2372752
0.093582198 -0.090225406 -0.23728129
0.093585581 -0.090145357 -0.23728541
0.093588762 -0.090065397 -0.23728549
0.093591847 -0.089985475 -0.23728362
0.093594827 -0.089905605 -0.23727973
0.093597718 -0.089825772 -0.23727384
0.093600899 -0.089745805 -0.23727393
0.093603984 -0.08966589 -0.23727205
0.093607165 -0.08958593 -0.23727216
0.093610741 -0.089505792 -0.23728025
0.093614116 -0.089425743 -0.23728436
0.093616813 -0.089345999 -0.23727447
0.093619503 -0.089266255 -0.2372646
0.093622588 -0.089186341 -0.2372627
0.093625769 -0.089106373 -0.2372628
0.093629047 -0.089026369 -0.2372649
0.093632504 -0.088944323 -0.23726895
0.093635514 -0.088866405 -0.23726711
0.093638793 -0.088786401 -0.23726922
0.093642242 -0.088704355 -0.23727328
0.093645327 -0.088624433 -0.23727137
0.093648218 -0.088544607 -0.2372655
0.093651399 -0.08846464 -0.2372656
0.09365458 -0.08838468 -0.23726571
0.093657471 -0.088304847 -0.23725982
0.093660653 -0.088224888 -0.23725992
0.093663931 -0.088144884 -0.23726203
0.093666919 -0.088065006 -0.23725814
0.093670294 -0.087984957 -0.23726223
0.093673944 -0.087902829 -0.23727028
0.093677126 -0.087822862 -0.23727039
0.093680017 -0.087743029 -0.23726451
0.093683101 -0.087663114 -0.23726261
0.093686283 -0.087583154 -0.23726273
0.093689173 -0.087503321 -0.23725682
0.09369196 -0.087423533 -0.23724896
0.093695238 -0.087343529 -0.23725104
0.093698323 -0.087263614 -0.23724917
0.093701214 -0.087183781 -0.23724326
0.093704298 -0.087103859 -0.23724139
0.09370748 -0.087023899 -0.23724148
0.093710564 -0.086943984 -0.2372396
0.093713261 -0.08686424 -0.23722972
0.093716443 -0.086784273 -0.23722982
0.093720205 -0.086704053 -0.23724191
0.093723193 -0.086624175 -0.23723802
0.093725793 -0.086544476 -0.23722614
0.093728974 -0.086464517 -0.23722625
0.093732543 -0.086384378 -0.23723434
0.093736 -0.086302333 -0.23723839
0.093739182 -0.086222373 -0.2372385
0.093741968 -0.086142585 -0.23723061
0.093744859 -0.086062752 -0.23722473
0.093748242 -0.085982703 -0.23722884
0.093751691 -0.085900657 -0.23723288
0.093754604 -0.085822783 -0.23722905
0.09375757 -0.085740954 -0.23722312
0.093760476 -0.08566308 -0.23721927
0.093763657 -0.085583113 -0.23721938
0.093766823 -0.085501194 -0.23721744
0.093770005 -0.085421234 -0.23721755
0.093773186 -0.085341275 -0.23721765
0.093776271 -0.08526136 -0.23721576
0.093779452 -0.085181393 -0.23721585
0.093782537 -0.085101478 -0.23721397
0.093785524 -0.0850216 -0.23721008
0.09378878 -0.084939644 -0.23721012
0.093791962 -0.084859684 -0.23721024
0.093794949 -0.084779806 -0.23720634
0.093798228 -0.084699802 -0.23720846
0.093801409 -0.084619842 -0.23720856
0.0938043 -0.084540009 -0.23720267
0.093807384 -0.084460095 -0.2372008
0.093810663 -0.08438009 -0.23720288
0.093813822 -0.084298171 -0.23720095
0.093816735 -0.08422029 -0.2371971
0.093819894 -0.084138379 -0.23719516
0.093823172 -0.084058374 -0.23719728
0.093826257 -0.083978452 -0.23719537
0.093829341 -0.083898537 -0.2371935
0.093832426 -0.083818614 -0.2371916
0.093835413 -0.083738744 -0.23718771
0.093838692 -0.08365874 -0.2371898
0.093842149 -0.083576694 -0.23719387
0.09384533 -0.083496727 -0.23719397
0.093848318 -0.083416849 -0.23719008
0.093851104 -0.083337069 -0.2371822
0.093853898 -0.083257273 -0.23717432
0.093857177 -0.083177276 -0.23717642
0.093860067 -0.083097443 -0.23717053
0.093862861 -0.083017655 -0.23716265
0.093866237 -0.082937606 -0.23716675
0.093869418 -0.082857646 -0.23716685
0.093872383 -0.082775816 -0.23716092
0.093874998 -0.08269807 -0.23715109
0.093877986 -0.082618192 -0.2371472
0.093881071 -0.082538277 -0.2371453
0.093884625 -0.082456186 -0.23715135
0.093887903 -0.082376182 -0.23715347
0.09389089 -0.082296312 -0.23714957
0.093893878 -0.082216434 -0.23714568
0.093896762 -0.082136601 -0.23713979
0.093899652 -0.082056776 -0.23713391
0.093903206 -0.081974678 -0.23713996
0.093906485 -0.081894673 -0.23714206
0.093909472 -0.081814803 -0.23713818
0.093912557 -0.081734881 -0.23713627
0.093915641 -0.081654966 -0.2371344
0.093918703 -0.081573091 -0.23713045
0.09392152 -0.081495255 -0.23712462
0.093924306 -0.081415467 -0.23711672
0.09392757 -0.081333511 -0.23711678
0.093931042 -0.081253417 -0.23712289
0.093934491 -0.081171371 -0.23712695
0.09393768 -0.081091411 -0.23712705
0.09394066 -0.081011534 -0.23712316
0.093943648 -0.080931664 -0.23711927
0.093946636 -0.080851786 -0.23711538
0.093949817 -0.080771826 -0.23711549
0.093952999 -0.080691859 -0.23711559
0.093955986 -0.080611989 -0.2371117
0.093959153 -0.080530077 -0.23710977
0.093962528 -0.080450028 -0.23711386
0.093965515 -0.080370151 -0.23710997
0.093968496 -0.080290273 -0.23710608
0.09397129 -0.080210485 -0.2370982
0.093974181 -0.080130652 -0.23709232
0.093977362 -0.080050692 -0.23709244
0.093980625 -0.079968736 -0.23709248
0.093983606 -0.079888865 -0.23708859
0.09398669 -0.079808943 -0.23708671
0.093989678 -0.079729065 -0.23708281
0.093992859 -0.079649106 -0.23708293
0.09399651 -0.07956697 -0.23709098
0.093999691 -0.079487011 -0.23709106
0.094002679 -0.079407133 -0.23708719
0.094006032 -0.079325132 -0.23708925
0.094009116 -0.07924521 -0.23708734
0.094012007 -0.079165384 -0.23708147
0.094014995 -0.079085506 -0.23707756
0.094018273 -0.079005502 -0.23707967
0.094021335 -0.078923628 -0.23707575
0.094024152 -0.078845799 -0.2370699
0.094027214 -0.078763925 -0.23706597
0.094030395 -0.078683957 -0.23706606
0.094033949 -0.078601874 -0.23707211
0.094036937 -0.078521997 -0.23706822
0.094039723 -0.078442216 -0.23706034
0.094042808 -0.078362294 -0.23705846
0.094045796 -0.078282416 -0.23705457
0.09404888 -0.078202501 -0.23705268
0.094052136 -0.078120545 -0.23705274
0.094055615 -0.078040451 -0.23705883
0.094059065 -0.077958405 -0.23706287
0.094062254 -0.077878438 -0.23706299
0.094065428 -0.077798478 -0.23706309
0.094068788 -0.077716477 -0.23706514
0.094071776 -0.0776366 -0.23706126
0.09407457 -0.077556811 -0.23705338
0.094077453 -0.077476978 -0.23704749
0.094080538 -0.077397063 -0.2370456
0.094084091 -0.077314973 -0.23705165
0.09408737 -0.077234969 -0.23705375
0.09408997 -0.07715527 -0.23704188
0.094092488 -0.077077568 -0.23703003
0.094095841 -0.076995566 -0.23703209
0.094099395 -0.076913476 -0.23703815
0.094102673 -0.076833464 -0.23704025
0.094105929 -0.076751508 -0.23704031
0.094109014 -0.076671585 -0.23703842
0.094112396 -0.076591536 -0.23704252
0.094115943 -0.076509446 -0.23704857
0.094119303 -0.076427445 -0.23705062
0.094122291 -0.076347575 -0.23704675
0.094125271 -0.076267697 -0.23704284
0.094127968 -0.076187953 -0.23703298
0.094130665 -0.07610821 -0.23702309
0.094133846 -0.076028243 -0.23702319
0.0941374 -0.075946152 -0.23702924
0.094140582 -0.075866193 -0.23702934
0.094143659 -0.075786278 -0.23702747
0.094146453 -0.075706489 -0.23701957
0.094149247 -0.075626701 -0.23701169
0.094152503 -0.075544745 -0.23701175
0.094155878 -0.075464696 -0.23701584
0.094159529 -0.07538256 -0.23702389
0.094162889 -0.075300559 -0.23702595
0.09416578 -0.075220726 -0.23702008
0.094168961 -0.075140767 -0.23702016
0.094172314 -0.075058758 -0.23702222
0.094175301 -0.074978888 -0.23701835
0.094178095 -0.0748991 -0.23701045
0.094181374 -0.074819095 -0.23701255
0.094184533 -0.074737176 -0.23701061
0.094187617 -0.074657261 -0.23700872
0.094190605 -0.074577384 -0.23700485
0.094193496 -0.074497551 -0.23699895
0.094196677 -0.074417591 -0.23699905
0.09420003 -0.07433559 -0.23700111
0.094202921 -0.074255757 -0.23699522
0.094206005 -0.074175842 -0.23699333
0.094209656 -0.074093707 -0.23700139
0.094213203 -0.074011616 -0.23700744
0.0942159 -0.073931873 -0.23699754
0.094218791 -0.07385204 -0.23699167
0.093145013 -0.10148103 -0.23748003
0.093148001 -0.10140116 -0.23747614
0.093150593 -0.10132146 -0.23746426
0.09315329 -0.10124171 -0.23745438
0.093155786 -0.10116205 -0.23744051
0.093158484 -0.10108231 -0.23743063
0.09316127 -0.10100252 -0.23742275
0.09316387 -0.10092282 -0.23741087
0.093166582 -0.10084503 -0.23740304
0.093169279 -0.10076529 -0.23739316
0.093172066 -0.1006855 -0.23738527
0.093175545 -0.10060541 -0.23739137
0.093178824 -0.1005254 -0.23739347
0.093181908 -0.10044549 -0.23739158
0.093184993 -0.10036556 -0.23738968
0.093187973 -0.10028569 -0.23738581
0.093190961 -0.10020582 -0.23738191
0.093194731 -0.1001256 -0.23739401
0.093197927 -0.10004759 -0.23739615
0.09320014 -0.099968061 -0.23737629
0.093203321 -0.099888101 -0.23737639
0.093206696 -0.099808052 -0.2373805
0.093209878 -0.099728093 -0.23738059
0.09321335 -0.099647999 -0.2373867
0.09321624 -0.099568166 -0.2373808
0.093219422 -0.099488206 -0.23738091
0.093222603 -0.099408239 -0.23738101
0.093225785 -0.099328279 -0.23738113
0.093228884 -0.099250317 -0.23738128
0.093230218 -0.099171184 -0.23734343
0.093232229 -0.099091746 -0.23731957
0.093235508 -0.099011734 -0.23732167
0.093238004 -0.09893208 -0.23730782
0.093240499 -0.098852426 -0.23729393
0.093244463 -0.098772116 -0.23731002
0.093249105 -0.098691501 -0.23734006
0.093253165 -0.098611146 -0.23735815
0.09325742 -0.098530702 -0.23738024
0.093261383 -0.098450392 -0.2373963
0.093263611 -0.098372824 -0.23737851
0.093264349 -0.098293953 -0.23732868
0.093267433 -0.09821403 -0.23732677
0.093270518 -0.098134115 -0.23732489
0.093273021 -0.098054454 -0.23731101
0.093276687 -0.097974278 -0.23732111
0.093282595 -0.097893097 -0.23737714
0.093286559 -0.097812787 -0.23739322
0.093287498 -0.097733825 -0.23734739
0.093288846 -0.097656645 -0.23731159
0.093292028 -0.097576685 -0.23731169
0.093294725 -0.097496942 -0.23730181
0.093297511 -0.097417153 -0.23729393
0.093300499 -0.097337276 -0.23729005
0.093303777 -0.097257271 -0.23729214
0.093306959 -0.097177312 -0.23729226
0.093310043 -0.097097389 -0.23729035
0.093313053 -0.097019471 -0.23728852
0.093316406 -0.09693747 -0.23729056
0.093320295 -0.096859157 -0.2373067
0.093324445 -0.096778758 -0.23732677
0.093328193 -0.096696585 -0.23733681
0.093331106 -0.096618704 -0.23733297
0.093333311 -0.096539177 -0.23731312
0.093335517 -0.096459657 -0.23729324
0.093338504 -0.096379779 -0.23728937
0.093341976 -0.096299686 -0.23729545
0.093345255 -0.096219681 -0.23729756
0.093348339 -0.096139766 -0.23729566
0.093351521 -0.096059799 -0.23729578
0.093354426 -0.095981926 -0.23729193
0.093357593 -0.095900007 -0.23728999
0.093361378 -0.095821738 -0.23730412
0.093364827 -0.095739692 -0.23730817
0.093367249 -0.095662035 -0.23729435
0.093369946 -0.095582291 -0.23728447
0.093373224 -0.095502287 -0.23728657
0.093376406 -0.095422328 -0.23728669
0.093379781 -0.095342278 -0.23729078
0.093382671 -0.095262446 -0.2372849
0.093385071 -0.095182829 -0.23726901
0.093387865 -0.09510304 -0.23726115
0.093390867 -0.095025122 -0.2372593
0.093394421 -0.094943032 -0.23726535
0.093398087 -0.094862856 -0.23727544
0.093401097 -0.09478493 -0.23727359
0.093404353 -0.094702974 -0.23727366
0.09340775 -0.094624877 -0.23727979
0.093410447 -0.094545133 -0.23726991
0.093413137 -0.09446539 -0.23726004
0.093416713 -0.094385251 -0.23726813
0.093419991 -0.094305247 -0.23727024
0.093423076 -0.094225332 -0.23726834
0.093425959 -0.094145499 -0.23726246
0.093428947 -0.094065629 -0.23725857
0.093432128 -0.093985662 -0.23725867
0.093435116 -0.093905792 -0.23725478
0.093437925 -0.093827955 -0.23724896
0.093441188 -0.093745999 -0.237249
0.09344466 -0.093665905 -0.2372551
0.093447864 -0.093587898 -0.23725724
0.09345112 -0.093505941 -0.2372573
0.093454495 -0.093425892 -0.23726141
0.093457773 -0.093345881 -0.2372635
0.093460955 -0.093265921 -0.23726362
0.093464158 -0.093187913 -0.23726577
0.093467318 -0.093106002 -0.23726383
0.093470126 -0.093028165 -0.23725799
0.093473017 -0.092948332 -0.2372521
0.093476392 -0.092868283 -0.2372562
0.093479678 -0.092788279 -0.23725832
0.093482658 -0.092708409 -0.23725443
0.093485937 -0.092628404 -0.23725653
0.093489394 -0.092546359 -0.23726058
0.093492202 -0.092468522 -0.23725474
0.0934949 -0.092388779 -0.23724484
0.093497887 -0.092308901 -0.23724097
0.093501166 -0.092228897 -0.23724307
0.093504347 -0.092148937 -0.23724318
0.093507528 -0.09206897 -0.23724329
0.093511 -0.091988884 -0.23724937
0.093514375 -0.091908835 -0.23725349
0.093517847 -0.091828741 -0.23725957
0.093521498 -0.091746606 -0.23726763
0.093524873 -0.091666557 -0.23727173
0.093527958 -0.091586642 -0.23726983
0.093531139 -0.091506682 -0.23726994
0.093534127 -0.091426805 -0.23726605
0.093537502 -0.091346756 -0.23727015
0.09354049 -0.091266878 -0.23726627
0.09354338 -0.091187052 -0.23726037
0.093546756 -0.091107003 -0.23726447
0.09354984 -0.091027081 -0.23726258
0.093552724 -0.090947255 -0.23725669
0.093556002 -0.090867251 -0.23725879
0.093559481 -0.090787157 -0.2372649
0.09356305 -0.090707019 -0.23727299
0.093566522 -0.090626925 -0.23727909
0.093569882 -0.090544924 -0.23728114
0.093573064 -0.090464965 -0.23728125
0.093575969 -0.090387084 -0.23727742
0.093578957 -0.090307213 -0.23727351
0.093582503 -0.090225123 -0.23727956
0.093585983 -0.090145029 -0.23728567
0.093589067 -0.090065107 -0.23728377
0.093592152 -0.089985192 -0.23728189
0.093595132 -0.089905322 -0.23727798
0.09359812 -0.089825444 -0.23727411
0.093601204 -0.089745522 -0.23727222
0.093604289 -0.089665607 -0.23727033
0.09360747 -0.089585647 -0.23727041
0.093610942 -0.089505553 -0.23727652
0.093614414 -0.08942546 -0.23728262
0.093617111 -0.089345716 -0.23727274
0.093619809 -0.089265972 -0.23726286
0.093622886 -0.089186057 -0.23726097
0.093626067 -0.08910609 -0.23726109
0.09362945 -0.089026041 -0.23726517
0.093632802 -0.08894404 -0.23726723
0.093635812 -0.088866122 -0.23726538
0.093639091 -0.088786118 -0.23726749
0.09364254 -0.088704064 -0.23727155
0.093645722 -0.088624105 -0.23727165
0.093648516 -0.088544317 -0.23726377
0.093651697 -0.088464357 -0.23726387
0.093654975 -0.088384353 -0.23726597
0.093657762 -0.088304564 -0.23725809
0.093660943 -0.088224605 -0.2372582
0.093664125 -0.088144645 -0.2372583
0.093667209 -0.088064723 -0.23725641
0.093670689 -0.087984629 -0.23726252
0.093674332 -0.087902501 -0.23727056
0.093677416 -0.087822579 -0.23726866
0.093680307 -0.087742746 -0.23726277
0.093683392 -0.087662831 -0.23726088
0.09368667 -0.087582827 -0.23726299
0.093689464 -0.087503038 -0.23725511
0.093692273 -0.087425202 -0.23724927
0.093695529 -0.087343246 -0.23724931
0.093698613 -0.087263331 -0.23724744
0.093701422 -0.087185495 -0.2372416
0.093704492 -0.08710362 -0.23723766
0.09370777 -0.087023616 -0.23723976
0.093710855 -0.086943693 -0.23723787
0.093713641 -0.086863905 -0.23723
0.093716823 -0.086783946 -0.23723009
0.093720496 -0.08670377 -0.2372402
0.09372358 -0.086623847 -0.23723829
0.093726173 -0.086544149 -0.23722641
0.093729354 -0.086464189 -0.23722652
0.093732826 -0.086384095 -0.23723263
0.093736283 -0.086302049 -0.23723668
0.093739465 -0.08622209 -0.23723677
0.093742356 -0.086142257 -0.2372309
0.093745239 -0.086062424 -0.23722501
0.093748614 -0.085982375 -0.23722911
0.093752071 -0.085900329 -0.23723316
0.09375488 -0.085822493 -0.23722732
0.093757845 -0.085740671 -0.23722139
0.093760759 -0.08566279 -0.23721755
0.093763843 -0.085582875 -0.23721565
0.093767196 -0.085500866 -0.23721771
0.093770377 -0.085420907 -0.23721781
0.093773462 -0.085340992 -0.23721592
0.093776546 -0.085261069 -0.23721403
0.093779728 -0.08518111 -0.23721415
0.093782812 -0.085101187 -0.23721224
0.0937858 -0.085021317 -0.23720837
0.093789056 -0.084939361 -0.23720843
0.093792237 -0.084859401 -0.23720852
0.093795322 -0.084779479 -0.23720664
0.0937986 -0.084699474 -0.23720872
0.093801685 -0.084619552 -0.23720685
0.093804576 -0.084539726 -0.23720095
0.093807757 -0.084459759 -0.23720106
0.093811035 -0.084379755 -0.23720317
0.093814015 -0.084299877 -0.23719928
0.093817003 -0.084220007 -0.23719539
0.09382017 -0.084138095 -0.23719345
0.093823448 -0.084058084 -0.23719555
0.093826629 -0.083978124 -0.23719566
0.093829706 -0.083898202 -0.23719376
0.093832791 -0.083818287 -0.23719187
0.093835779 -0.083738416 -0.23718798
0.09383896 -0.083658449 -0.23718809
0.093842417 -0.083576404 -0.23719214
0.093845695 -0.083496399 -0.23719424
0.093848683 -0.083416522 -0.23719037
0.093851469 -0.083336741 -0.23718247
0.093854263 -0.083256945 -0.2371746
0.093857445 -0.083176985 -0.23717469
0.093860433 -0.083097115 -0.23717082
0.093863219 -0.083017327 -0.23716292
0.093866497 -0.082937323 -0.23716503
0.093869776 -0.082857311 -0.23716712
0.093872748 -0.082775488 -0.23716119
0.093875363 -0.082697742 -0.23715137
0.093878254 -0.082617909 -0.23714548
0.093881428 -0.082537949 -0.23714557
0.093884885 -0.082455903 -0.23714964
0.093888164 -0.082375899 -0.23715174
0.093891151 -0.082296021 -0.23714785
0.093894236 -0.082216099 -0.23714596
0.093897022 -0.082136318 -0.23713808
0.09390001 -0.08205644 -0.23713419
0.093903467 -0.081974395 -0.23713824
0.093906745 -0.081894383 -0.23714034
0.09390983 -0.081814468 -0.23713845
0.093912914 -0.081734553 -0.23713657
0.093915999 -0.081654631 -0.23713467
0.093919061 -0.081572756 -0.23713073
0.093921676 -0.081495017 -0.2371209
0.093924567 -0.081415184 -0.23711503
0.093927845 -0.08133518 -0.23711711
0.093931392 -0.081253089 -0.23712316
0.093934849 -0.081171043 -0.23712721
0.093937933 -0.081091121 -0.23712534
0.093941018 -0.081011206 -0.23712343
0.093943901 -0.080931373 -0.23711756
0.093946889 -0.080851495 -0.23711365
0.093950167 -0.080771498 -0.23711577
0.093953349 -0.080691531 -0.23711587
0.09395624 -0.080611706 -0.23710999
0.093959495 -0.080529742 -0.23711005
0.093962871 -0.080449693 -0.23711415
0.093965761 -0.08036986 -0.23710826
0.093968749 -0.08028999 -0.23710437
0.09397164 -0.080210157 -0.23709849
0.093974523 -0.080130324 -0.2370926
0.093977705 -0.080050364 -0.2370927
0.093980968 -0.079968408 -0.23709276
0.093983956 -0.07988853 -0.23708887
0.093987033 -0.079808608 -0.23708698
0.09399002 -0.079728737 -0.23708309
0.093993202 -0.079648778 -0.2370832
0.093996853 -0.079566643 -0.23709124
0.094000034 -0.079486683 -0.23709135
0.094003022 -0.079406805 -0.23708746
0.094006374 -0.079324797 -0.23708951
0.094009459 -0.079244882 -0.23708764
0.09401235 -0.079165056 -0.23708174
0.094015241 -0.079085223 -0.23707587
0.094018415 -0.079005256 -0.23707595
0.094021581 -0.078923345 -0.23707402
0.09402439 -0.078845508 -0.23706818
0.094027452 -0.078763634 -0.23706424
0.09403073 -0.07868363 -0.23706636
0.094034106 -0.078603581 -0.23707044
0.094037175 -0.078521714 -0.23706651
0.094040059 -0.078441881 -0.23706064
0.094043143 -0.078361958 -0.23705873
0.094046228 -0.078282043 -0.23705685
0.094049118 -0.078202218 -0.23705095
0.094052471 -0.078120209 -0.23705301
0.094055951 -0.078040116 -0.23705912
0.094059303 -0.077958114 -0.23706117
0.094062485 -0.077878147 -0.23706126
0.094065763 -0.077798143 -0.23706338
0.094069019 -0.077716187 -0.23706344
0.094072007 -0.077636316 -0.23705955
0.094074704 -0.077556565 -0.23704967
0.094077691 -0.077476695 -0.23704579
0.094080776 -0.07739678 -0.23704389
0.094084322 -0.07731469 -0.23704994
0.094087698 -0.077234641 -0.23705405
0.094090201 -0.077154979 -0.23704016
0.094092719 -0.077077277 -0.23702833
0.094095901 -0.076997317 -0.23702843
0.094099626 -0.076913185 -0.23703644
0.094102904 -0.076833181 -0.23703855
0.09410616 -0.076751217 -0.23703861
0.094109342 -0.076671258 -0.2370387
0.09411262 -0.076591253 -0.2370408
0.094116174 -0.076509163 -0.23704687
0.094119526 -0.076427162 -0.23704892
0.094122611 -0.076347239 -0.23704702
0.094125502 -0.076267406 -0.23704115
0.094128191 -0.07618767 -0.23703125
0.094130814 -0.076109916 -0.23702142
0.09413407 -0.07602796 -0.23702148
0.094137624 -0.075945869 -0.23702753
0.094140902 -0.075865865 -0.23702964
0.094143987 -0.07578595 -0.23702773
0.094146773 -0.075706154 -0.23701985
0.09414947 -0.075626418 -0.23700997
0.094152652 -0.075546458 -0.23701009
0.094156198 -0.07546436 -0.23701614
0.094159849 -0.075382233 -0.23702419
0.094163105 -0.075300269 -0.23702425
0.094166093 -0.075220391 -0.23702034
0.094169177 -0.075140476 -0.23701847
0.094172634 -0.07505843 -0.23702252
0.094175518 -0.074978597 -0.23701662
0.094178408 -0.074898764 -0.23701075
0.094181687 -0.07481876 -0.23701283
0.094184846 -0.074736848 -0.2370109
0.094187833 -0.074656971 -0.23700702
0.094190821 -0.074577101 -0.23700312
0.094193809 -0.074497223 -0.23699924
0.09419699 -0.074417263 -0.23699935
0.094200246 -0.074335299 -0.23699939
0.094203234 -0.074255429 -0.23699552
0.094206221 -0.074175552 -0.23699163
0.094209865 -0.074093416 -0.23699966
0.094213516 -0.074011281 -0.23700771
0.094216213 -0.073931545 -0.23699784
0.094219096 -0.073851712 -0.23699196
0.093145855 -0.10148115 -0.23747617
0.093148939 -0.10140122 -0.23747426
0.093151636 -0.10132148 -0.2374644
0.093154229 -0.10124178 -0.23745251
0.093156829 -0.10116208 -0.23744065
0.093159519 -0.10108234 -0.23743075
0.093162313 -0.10100255 -0.23742288
0.093164809 -0.1009229 -0.237409
0.093167625 -0.10084506 -0.23740315
0.093170218 -0.10076536 -0.23739129
0.093173109 -0.10068553 -0.23738539
0.093176581 -0.10060544 -0.2373915
0.093179859 -0.10052543 -0.23739359
0.093182944 -0.10044552 -0.23739171
0.093185931 -0.10036564 -0.23738781
0.093189016 -0.10028572 -0.23738593
0.093192004 -0.10020585 -0.23738204
0.093195669 -0.10012567 -0.23739213
0.09319897 -0.10004762 -0.23739627
0.093201175 -0.099968091 -0.23737641
0.093204357 -0.099888131 -0.23737651
0.093207635 -0.099808119 -0.23737863
0.093210913 -0.099728115 -0.23738071
0.093214393 -0.099648029 -0.23738682
0.093217179 -0.09956824 -0.23737893
0.093220361 -0.099488273 -0.23737904
0.093223639 -0.099408269 -0.23738115
0.093226917 -0.099328265 -0.23738325
0.093229927 -0.099250346 -0.2373814
0.093231253 -0.099171206 -0.23734356
0.093233265 -0.099091768 -0.23731971
0.093236446 -0.099011809 -0.2373198
0.093239039 -0.09893211 -0.23730794
0.093241543 -0.098852448 -0.23729406
0.093245506 -0.098772138 -0.23731014
0.093250148 -0.098691531 -0.2373402
0.093254209 -0.098611176 -0.23735827
0.093258455 -0.098530732 -0.23738036
0.093262419 -0.098450422 -0.23739643
0.09326455 -0.098372892 -0.23737663
0.093265392 -0.098293975 -0.2373288
0.093268476 -0.09821406 -0.23732691
0.093271561 -0.098134145 -0.23732501
0.09327396 -0.098054528 -0.23730913
0.093277633 -0.097974345 -0.23731923
0.093283542 -0.097893171 -0.23737526
0.093287602 -0.097812817 -0.23739335
0.093288541 -0.097733855 -0.23734751
0.093289793 -0.097656719 -0.23730971
0.093292974 -0.097576752 -0.23730981
0.093295664 -0.097497009 -0.23729995
0.093298458 -0.09741722 -0.23729207
0.093301542 -0.097337306 -0.23729017
0.09330482 -0.097257301 -0.23729226
0.093308002 -0.097177342 -0.23729238
0.093310982 -0.097097464 -0.23728848
0.093313992 -0.097019546 -0.23728664
0.093317449 -0.0969375 -0.23729071
0.093321234 -0.096859232 -0.23730484
0.093325391 -0.096778832 -0.23732489
0.093329236 -0.096696615 -0.23733695
0.093332045 -0.096618779 -0.23733109
0.093334347 -0.096539207 -0.23731324
0.093336552 -0.096459679 -0.23729338
0.09333954 -0.096379809 -0.23728949
0.093342915 -0.09629976 -0.23729359
0.09334629 -0.096219711 -0.23729768
0.093349278 -0.096139833 -0.23729379
0.093352556 -0.096059829 -0.2372959
0.093355469 -0.095981956 -0.23729205
0.093358628 -0.095900036 -0.23729011
0.093362316 -0.095821813 -0.23730224
0.09336587 -0.095739722 -0.23730831
0.093368195 -0.09566211 -0.23729248
0.093370885 -0.095582366 -0.2372826
0.093374163 -0.095502354 -0.23728471
0.093377441 -0.09542235 -0.23728681
0.093380824 -0.095342301 -0.2372909
0.093383707 -0.095262475 -0.23728502
0.093386114 -0.095182858 -0.23726915
0.0933889 -0.09510307 -0.23726127
0.09339191 -0.095025152 -0.23725942
0.093395457 -0.094943061 -0.23726547
0.093399033 -0.094862923 -0.23727357
0.093402132 -0.09478496 -0.23727372
0.093405396 -0.094703004 -0.23727378
0.093408793 -0.094624907 -0.23727992
0.093411386 -0.094545208 -0.23726805
0.09341418 -0.09446542 -0.23726016
0.093417749 -0.094385281 -0.23726825
0.093421027 -0.094305277 -0.23727036
0.093424015 -0.094225407 -0.23726647
0.093427002 -0.094145529 -0.23726258
0.09342999 -0.094065651 -0.2372587
0.093433172 -0.093985692 -0.23725879
0.093436152 -0.093905821 -0.23725492
0.093438968 -0.093827985 -0.23724908
0.093442224 -0.093746029 -0.23724914
0.093445599 -0.09366598 -0.23725322
0.0934489 -0.093587928 -0.23725738
0.093452156 -0.093505964 -0.23725742
0.093455434 -0.093425959 -0.23725954
0.093458816 -0.09334591 -0.23726365
0.093461998 -0.093265951 -0.23726374
0.093465194 -0.093187943 -0.23726588
0.093468353 -0.093106031 -0.23726395
0.093471169 -0.093028195 -0.23725811
0.09347406 -0.092948362 -0.23725224
0.093477435 -0.092868313 -0.23725633
0.093480617 -0.092788354 -0.23725644
0.093483604 -0.092708476 -0.23725255
0.09348698 -0.092628427 -0.23725665
0.093490332 -0.092546426 -0.2372587
0.093493246 -0.092468552 -0.23725486
0.093495935 -0.092388809 -0.23724498
0.093498923 -0.092308931 -0.23724109
0.093502201 -0.092228927 -0.23724321
0.093505286 -0.092149004 -0.2372413
0.093508467 -0.092069045 -0.23724142
0.093511939 -0.091988951 -0.23724751
0.093515411 -0.091908865 -0.23725361
0.093518794 -0.091828816 -0.2372577
0.093522534 -0.091746636 -0.23726776
0.093525812 -0.091666631 -0.23726985
0.093528993 -0.091586672 -0.23726995
0.093532078 -0.091506749 -0.23726806
0.093535163 -0.091426834 -0.23726618
0.093538538 -0.091346785 -0.23727027
0.093541525 -0.091266908 -0.23726639
0.093544237 -0.091189116 -0.23725855
0.093547694 -0.09110707 -0.23726261
0.093550876 -0.091027111 -0.2372627
0.09355367 -0.090947323 -0.23725483
0.093556948 -0.090867318 -0.23725694
0.09356042 -0.090787224 -0.23726302
0.093564086 -0.090707049 -0.23727313
0.093567565 -0.090626955 -0.23727921
0.093570918 -0.090544954 -0.23728126
0.093574099 -0.090464987 -0.23728138
0.093576908 -0.090387158 -0.23727554
0.093579896 -0.09030728 -0.23727165
0.093583547 -0.090225145 -0.23727968
0.093587019 -0.090145059 -0.23728579
0.093590006 -0.090065181 -0.2372819
0.093593091 -0.089985266 -0.23728001
0.093596078 -0.089905389 -0.23727614
0.093599059 -0.089825511 -0.23727223
0.09360224 -0.089745551 -0.23727235
0.093605325 -0.089665636 -0.23727044
0.093608506 -0.089585677 -0.23727055
0.093611985 -0.089505583 -0.23727666
0.093615361 -0.089425534 -0.23728076
0.09361805 -0.08934579 -0.23727088
0.093620844 -0.089266002 -0.23726299
0.093623832 -0.089186125 -0.2372591
0.09362711 -0.08910612 -0.23726121
0.093630388 -0.089026116 -0.23726331
0.093633667 -0.088946112 -0.23726541
0.093636848 -0.088866144 -0.23726553
0.093640126 -0.08878614 -0.23726761
0.093643479 -0.088704139 -0.23726967
0.09364666 -0.088624179 -0.23726979
0.093649551 -0.088544346 -0.23726389
0.093652733 -0.088464387 -0.23726401
0.093656011 -0.088384382 -0.23726611
0.093658805 -0.088304594 -0.23725823
0.093661986 -0.088224635 -0.23725832
0.093665168 -0.088144667 -0.23725843
0.093668148 -0.088064797 -0.23725455
0.093671627 -0.087984703 -0.23726064
0.093675271 -0.087902568 -0.23726869
0.093678452 -0.087822609 -0.23726881
0.093681343 -0.087742776 -0.2372629
0.093684427 -0.087662861 -0.23726101
0.093687609 -0.087582894 -0.23726112
0.0936905 -0.087503068 -0.23725525
0.093693212 -0.087425277 -0.23724741
0.093696564 -0.087343276 -0.23724945
0.093699649 -0.087263353 -0.23724756
0.093702465 -0.087185517 -0.23724172
0.093705527 -0.08710365 -0.23723778
0.093708709 -0.087023683 -0.2372379
0.093711793 -0.086943768 -0.23723599
0.09371458 -0.08686398 -0.23722813
0.093717858 -0.086783975 -0.23723021
0.093721531 -0.086703792 -0.23724031
0.093724519 -0.086623922 -0.23723643
0.093727209 -0.086544178 -0.23722655
0.09373039 -0.086464219 -0.23722665
0.093733765 -0.08638417 -0.23723075
0.093737222 -0.086302117 -0.2372348
0.093740501 -0.086222112 -0.2372369
0.093743391 -0.086142287 -0.23723102
0.093746275 -0.086062454 -0.23722515
0.093749657 -0.085982405 -0.23722923
0.093753107 -0.085900359 -0.23723328
0.093755916 -0.085822523 -0.23722744
0.093758807 -0.085742697 -0.23722157
0.093761794 -0.085662819 -0.23721768
0.093764879 -0.085582897 -0.23721579
0.093768135 -0.085500941 -0.23721585
0.093771316 -0.085420981 -0.23721595
0.093774498 -0.085341021 -0.23721606
0.093777582 -0.085261099 -0.23721415
0.093780763 -0.085181139 -0.23721427
0.093783848 -0.085101217 -0.23721237
0.093786836 -0.085021347 -0.23720849
0.093790092 -0.08493939 -0.23720855
0.093793176 -0.084859468 -0.23720665
0.093796186 -0.084781542 -0.23720482
0.093799539 -0.084699541 -0.23720688
0.09380272 -0.084619582 -0.23720697
0.093805611 -0.084539749 -0.23720109
0.093808793 -0.084459789 -0.23720118
0.093811974 -0.084379829 -0.2372013
0.093815058 -0.084299907 -0.2371994
0.093818039 -0.084220037 -0.23719552
0.093821108 -0.084138162 -0.23719159
0.093824483 -0.084058113 -0.23719567
0.093827665 -0.083978154 -0.23719579
0.093830749 -0.083898231 -0.2371939
0.093833834 -0.083818316 -0.237192
0.093836814 -0.083738439 -0.2371881
0.093839996 -0.083658479 -0.23718822
0.093843356 -0.083576478 -0.23719028
0.093846634 -0.083496474 -0.23719239
0.093849622 -0.083416596 -0.23718849
0.093852408 -0.083336808 -0.23718061
0.093855299 -0.083256975 -0.23717472
0.093858384 -0.08317706 -0.23717284
0.093861371 -0.083097182 -0.23716894
0.093864255 -0.083017349 -0.23716307
0.09386754 -0.082937345 -0.23716515
0.093870819 -0.082857341 -0.23716725
0.093873784 -0.082775518 -0.23716134
0.093876399 -0.082697771 -0.2371515
0.09387929 -0.082617939 -0.2371456
0.093882471 -0.082537979 -0.23714572
0.093885921 -0.082455933 -0.23714978
0.093889199 -0.082375921 -0.23715188
0.093892187 -0.082296051 -0.23714799
0.093895271 -0.082216129 -0.23714609
0.093898058 -0.08213634 -0.23713821
0.093901046 -0.08205647 -0.23713431
0.093904503 -0.081974417 -0.23713838
0.093907684 -0.081894457 -0.23713848
0.093910769 -0.081814542 -0.23713659
0.09391395 -0.081734583 -0.23713669
0.093916938 -0.081654705 -0.2371328
0.093919918 -0.081574827 -0.23712891
0.093922712 -0.081495047 -0.23712103
0.093925603 -0.081415214 -0.23711514
0.093928881 -0.081335209 -0.23711725
0.093932427 -0.081253119 -0.23712331
0.093935885 -0.081171073 -0.23712733
0.093938969 -0.081091151 -0.23712546
0.093941957 -0.08101128 -0.23712158
0.09394484 -0.080931447 -0.23711568
0.093947925 -0.080851525 -0.2371138
0.093951106 -0.080771565 -0.23711389
0.093954384 -0.080691561 -0.23711599
0.093957275 -0.080611728 -0.23711011
0.093960531 -0.080529772 -0.23711017
0.093963809 -0.080449767 -0.23711228
0.093966797 -0.08036989 -0.23710838
0.093969785 -0.08029002 -0.23710451
0.093972676 -0.080210187 -0.23709862
0.093975462 -0.080130398 -0.23709074
0.093978748 -0.080050394 -0.23709284
0.093981907 -0.079968475 -0.2370909
0.093984812 -0.079890594 -0.23708704
0.093987897 -0.079810679 -0.23708516
0.093991056 -0.079728767 -0.23708323
0.093994141 -0.079648845 -0.23708132
0.093997791 -0.079566717 -0.23708937
0.09400107 -0.079486713 -0.23709148
0.094004057 -0.079406835 -0.23708759
0.094007313 -0.079324871 -0.23708765
0.094010495 -0.079244912 -0.23708776
0.094013289 -0.079165123 -0.23707986
0.094016179 -0.07908529 -0.23707399
0.094019458 -0.079005286 -0.23707609
0.094022617 -0.078923374 -0.23707414
0.094025426 -0.078845538 -0.23706833
0.094028488 -0.078763664 -0.23706439
0.094031669 -0.078683704 -0.23706448
0.094035149 -0.07860361 -0.23707059
0.094038211 -0.078521743 -0.23706666
0.094040923 -0.078443944 -0.23705882
0.094044082 -0.078362033 -0.23705688
0.094047166 -0.078282118 -0.23705497
0.094050154 -0.07820224 -0.2370511
0.094053335 -0.078122281 -0.23705119
0.094056889 -0.07804019 -0.23705724
0.094060242 -0.077958182 -0.2370593
0.09406352 -0.077878177 -0.23706141
0.094066702 -0.077798218 -0.23706152
0.094070055 -0.077716216 -0.23706356
0.094073042 -0.077636346 -0.23705968
0.094075739 -0.077556595 -0.23704979
0.094078727 -0.077476725 -0.23704591
0.094081812 -0.07739681 -0.23704402
0.094085358 -0.077314712 -0.23705007
0.094088539 -0.077234752 -0.23705018
0.09409114 -0.077155054 -0.2370383
0.094093658 -0.077077352 -0.23702647
0.094096936 -0.076997347 -0.23702857
0.094100483 -0.076915257 -0.23703462
0.094103843 -0.076833248 -0.23703668
0.094106928 -0.076753333 -0.23703478
0.09411028 -0.076671332 -0.23703684
0.094113655 -0.076591283 -0.23704094
0.094117209 -0.076509193 -0.23704699
0.094120562 -0.076427191 -0.23704904
0.094123647 -0.076347269 -0.23704717
0.094126537 -0.076267436 -0.23704126
0.094129153 -0.076189697 -0.23703143
0.09413185 -0.076109946 -0.23702157
0.094135106 -0.076027989 -0.23702161
0.09413866 -0.075945899 -0.23702767
0.094141841 -0.075865939 -0.23702776
0.094144918 -0.075786017 -0.23702589
0.094147809 -0.075706184 -0.23701999
0.094150506 -0.07562644 -0.23701012
0.094153591 -0.075546525 -0.23700823
0.094157234 -0.07546439 -0.23701626
