# .PCD v0.7 - Point Cloud Data file format
VERSION 0.7
FIELDS x y z
SIZE 4 4 4
TYPE F F F
COUNT 1 1 1
WIDTH 1307
HEIGHT 1
VIEWPOINT 0 0 0 1 0 0 0
POINTS 1307
DATA ascii
0.060110491 -0.094609156 -0.23900342
0.060113966 -0.09452907 -0.23900953
0.060117152 -0.094449103 -0.23900962
0.060120143 -0.094369233 -0.23900574
0.060123131 -0.094289355 -0.23900184
0.060126413 -0.094209351 -0.23900394
0.060129598 -0.094129391 -0.23900405
0.060132489 -0.094049558 -0.23899817
0.060135476 -0.093969688 -0.23899427
0.060138762 -0.093889683 -0.23899637
0.060142141 -0.093809634 -0.23900047
0.060145423 -0.09372963 -0.23900259
0.060295902 -0.086114682 -0.23582906
0.060292553 -0.086047448 -0.23570356
0.060288347 -0.085982561 -0.23556216
0.060285486 -0.085915118 -0.23544666
0.060285218 -0.085842587 -0.23538101
0.060285147 -0.085769966 -0.23531935
0.060284782 -0.08569748 -0.23525169
0.060284536 -0.0856269 -0.23518807
0.060283877 -0.08555454 -0.23511443
0.060283341 -0.085484095 -0.23504482
0.060283169 -0.085411519 -0.23498116
0.060283877 -0.085338555 -0.23493546
0.060284588 -0.085265584 -0.23488979
0.060284026 -0.085193187 -0.23481813
0.060283098 -0.085122913 -0.23474056
0.060281605 -0.085054852 -0.23465301
0.06028229 -0.084979936 -0.23460528
0.060283195 -0.084906876 -0.23456359
0.060283709 -0.084833995 -0.23451391
0.060283754 -0.084763288 -0.23445627
0.060283877 -0.084690586 -0.2343986
0.060284294 -0.084617749 -0.23434693
0.060284242 -0.084547088 -0.23428732
0.060284365 -0.084474377 -0.23422965
0.06028527 -0.084401324 -0.23418795
0.060286075 -0.084328316 -0.23414426
0.060286202 -0.084255606 -0.23408659
0.060286909 -0.084182642 -0.23404089
0.060287148 -0.084111847 -0.23398727
0.060288325 -0.084036708 -0.23394953
0.060289912 -0.083963349 -0.23392181
0.060291089 -0.08388821 -0.23388407
0.060292967 -0.083814718 -0.23386234
0.060295001 -0.083737239 -0.23384053
0.060296297 -0.083664007 -0.23380682
0.060297884 -0.083590649 -0.2337791
0.060299646 -0.083515249 -0.23375335
0.060300939 -0.083442017 -0.23371965
0.060302604 -0.083366662 -0.23369189
0.060304269 -0.083291307 -0.23366413
0.060305659 -0.083218038 -0.23363242
0.060307711 -0.083142504 -0.23361266
0.060309671 -0.083067015 -0.23359087
0.06031153 -0.08299157 -0.23356712
0.060313582 -0.082916044 -0.23354733
0.060315363 -0.082842603 -0.23352362
0.060317028 -0.082767241 -0.23349586
0.060318813 -0.0826938 -0.23347214
0.060320769 -0.082618311 -0.23345038
0.060322434 -0.082542956 -0.23342262
0.060324583 -0.082467377 -0.23340484
0.060327321 -0.082391545 -0.23339905
0.060329862 -0.082315795 -0.23338926
0.06033219 -0.082238182 -0.23337343
0.060334168 -0.082164645 -0.2333537
0.060336396 -0.082087077 -0.23333588
0.060338471 -0.082013503 -0.23331816
0.060340621 -0.081937924 -0.23330039
0.060343046 -0.081860267 -0.23328656
0.06034559 -0.081784517 -0.23327678
0.060348503 -0.081706643 -0.23327294
0.060351141 -0.081630848 -0.23326515
0.060353294 -0.081555277 -0.23324737
0.060355835 -0.081479527 -0.23323759
0.060358942 -0.081401564 -0.23323774
0.060361855 -0.081323691 -0.2332339
0.06036469 -0.081247807 -0.23323011
0.060367599 -0.081169933 -0.23322627
0.060370415 -0.081092104 -0.23322043
0.060373154 -0.081016265 -0.23321463
0.060375597 -0.08094056 -0.23320284
0.060378313 -0.080862768 -0.23319501
0.060381148 -0.080786891 -0.23319122
0.060383864 -0.0807091 -0.23318338
0.060386974 -0.080631137 -0.23318353
0.060390372 -0.08055304 -0.23318967
0.060393382 -0.080475122 -0.23318782
0.060396314 -0.0803992 -0.23318604
0.06039913 -0.080321372 -0.2331802
0.060401477 -0.080245703 -0.23316643
0.060403727 -0.080170095 -0.23315063
0.060406365 -0.0800943 -0.23314285
0.060409278 -0.080016419 -0.23313901
0.060412578 -0.079938367 -0.23314315
0.060415685 -0.079860404 -0.2331433
0.060418423 -0.079784572 -0.23313752
0.06042153 -0.079706609 -0.23313767
0.060424834 -0.079628557 -0.23314181
0.060427941 -0.079550594 -0.23314196
0.060430754 -0.079472765 -0.23313613
0.060433589 -0.079396881 -0.23313233
0.060436405 -0.079319052 -0.23312649
0.06043924 -0.079243168 -0.23312271
0.06044225 -0.07916525 -0.23312086
0.06044516 -0.079087377 -0.23311701
0.060448464 -0.079009324 -0.23312116
0.060451962 -0.07893119 -0.23312929
0.06045536 -0.078853093 -0.23313545
0.060458448 -0.078773171 -0.23313355
0.060461573 -0.07869716 -0.23313576
0.060465053 -0.078617074 -0.23314185
0.060468353 -0.078539021 -0.23314598
0.060471557 -0.078461014 -0.23314816
0.06047447 -0.07838314 -0.23314431
0.060477305 -0.078307256 -0.2331405
0.060480412 -0.078229293 -0.23314066
0.060483519 -0.07815133 -0.23314083
0.060486529 -0.078073412 -0.23313898
0.060489636 -0.077995449 -0.23313913
0.060492374 -0.077919617 -0.23313333
0.060495287 -0.077841736 -0.23312949
0.060498588 -0.077763692 -0.23313364
0.060502086 -0.07768555 -0.23314178
0.060505465 -0.077605501 -0.23314588
0.060508396 -0.077529579 -0.23314407
0.060511407 -0.077451661 -0.23314223
0.06051432 -0.07737378 -0.2331384
0.06051733 -0.077295862 -0.23313656
0.06052063 -0.07721781 -0.23314071
0.060523737 -0.077139847 -0.23314086
0.060527138 -0.077061757 -0.233147
0.060530439 -0.076983705 -0.23315114
0.060533546 -0.076905742 -0.23315129
0.060536556 -0.076827817 -0.23314944
0.060539469 -0.076749943 -0.23314559
0.06054277 -0.076671891 -0.23314975
0.060546074 -0.076593846 -0.23315391
0.060549084 -0.07651592 -0.23315206
0.060552288 -0.07643792 -0.23315421
0.060555786 -0.076359779 -0.23316234
0.06055887 -0.076279856 -0.23316045
0.060561318 -0.076204151 -0.23314866
0.060564153 -0.076128274 -0.23314488
0.060567454 -0.076050222 -0.23314902
0.06057056 -0.075972259 -0.23314917
0.060573764 -0.075894251 -0.23315132
0.06057658 -0.075816423 -0.23314548
0.060579121 -0.075740673 -0.2331357
0.060582425 -0.07566262 -0.23313984
0.060586095 -0.075582445 -0.23314993
0.060589302 -0.075504437 -0.23315209
0.060274765 -0.10197383 -0.23914081
0.060277849 -0.10189391 -0.23913892
0.06028074 -0.10181408 -0.23913303
0.060283437 -0.10173433 -0.23912317
0.060285941 -0.10165468 -0.23910928
0.060288712 -0.10157294 -0.23909935
0.060291529 -0.1014951 -0.23909351
0.06029442 -0.10141527 -0.23908763
0.060297292 -0.10133348 -0.23907968
0.060299814 -0.10125578 -0.23906787
0.060303077 -0.10117383 -0.23906793
0.060306475 -0.10109573 -0.23907407
0.060309365 -0.1010159 -0.23906818
0.060312357 -0.10093603 -0.23906429
0.060315445 -0.10085611 -0.2390624
0.060318336 -0.10077628 -0.23905651
0.060321227 -0.10069644 -0.23905063
0.060323827 -0.10061675 -0.23903875
0.060326718 -0.10053691 -0.23903286
0.06033 -0.10045691 -0.23903498
0.060333088 -0.10037699 -0.23903307
0.060336076 -0.10029712 -0.2390292
0.060338989 -0.10021924 -0.23902534
0.060342152 -0.10013732 -0.2390234
0.060345065 -0.10005945 -0.23901957
0.06034784 -0.099977702 -0.23900963
0.060350459 -0.099899955 -0.2389998
0.060353253 -0.099820174 -0.23899192
0.06035712 -0.099739902 -0.23900601
0.060361475 -0.099659421 -0.23903008
0.060365148 -0.099579245 -0.23904017
0.060367648 -0.099499583 -0.23902629
0.060370073 -0.099421926 -0.23901246
0.060373139 -0.099340051 -0.23900853
0.060376346 -0.099262044 -0.23901069
0.060380116 -0.099181823 -0.23902276
0.060383786 -0.099101648 -0.23903286
0.060385313 -0.099022426 -0.23899901
0.060387619 -0.098942854 -0.23898114
0.060393147 -0.098861851 -0.23902918
0.060396038 -0.098782018 -0.2390233
0.060398638 -0.098702319 -0.23901141
0.060401432 -0.098622531 -0.23900354
0.060405102 -0.098542348 -0.23901361
0.060409088 -0.098463997 -0.23903176
0.060411569 -0.098382384 -0.23901585
0.0604137 -0.098304853 -0.23899601
0.060415909 -0.098225325 -0.23897615
0.060419776 -0.09814506 -0.23899023
0.060424328 -0.09806449 -0.23901829
0.060427416 -0.097984575 -0.23901641
0.060428649 -0.097905479 -0.23897657
0.06043027 -0.097826213 -0.23894471
0.060431018 -0.097747341 -0.23889491
0.060433224 -0.097667813 -0.23887503
0.0604368 -0.097587682 -0.23888314
0.060441174 -0.097509153 -0.23890924
0.060445532 -0.097428665 -0.23893331
0.06044852 -0.097348794 -0.23892942
0.060451999 -0.097268701 -0.23893552
0.060456254 -0.097188264 -0.2389576
0.060459927 -0.097108081 -0.23896769
0.060463209 -0.097028077 -0.2389698
0.060466688 -0.096947983 -0.23897588
0.060469873 -0.096868023 -0.238976
0.060473055 -0.096788064 -0.23897609
0.06047634 -0.096708059 -0.23897821
0.06047925 -0.096630178 -0.23897436
0.060481437 -0.096548699 -0.23895244
0.060483474 -0.096471213 -0.23893064
0.060487047 -0.096391082 -0.23893872
0.060491208 -0.096310683 -0.23895881
0.06049449 -0.096230678 -0.23896091
0.060496993 -0.096151017 -0.23894703
0.060499396 -0.096071407 -0.23893115
0.060501896 -0.095991746 -0.23891729
0.06050469 -0.095911965 -0.23890939
0.060508188 -0.095833823 -0.23891753
0.060512133 -0.095751561 -0.23893157
0.060515903 -0.095671341 -0.23894367
0.060519185 -0.095591329 -0.23894578
0.060522098 -0.095513456 -0.23894192
0.060525086 -0.095433578 -0.23893803
0.060527783 -0.095353834 -0.23892815
0.060530674 -0.095274009 -0.23892227
0.060534056 -0.09519396 -0.23892638
0.060537338 -0.095113955 -0.23892847
0.060540423 -0.095034033 -0.23892659
0.060543317 -0.094954208 -0.2389207
0.060546696 -0.094874159 -0.2389248
0.060550272 -0.09479402 -0.23893289
0.060553357 -0.094714105 -0.238931
0.060556076 -0.094636314 -0.23892316
0.060559042 -0.094554484 -0.23891723
0.060562346 -0.094476432 -0.23892137
0.060566097 -0.094394252 -0.23893142
0.060569279 -0.094314292 -0.23893152
0.060572095 -0.094236463 -0.23892568
0.06057528 -0.094156496 -0.23892578
0.060578465 -0.094076537 -0.2389259
0.060581356 -0.093996704 -0.23892
0.060584441 -0.093916789 -0.23891811
0.060587723 -0.093836784 -0.23892021
0.060590908 -0.093756825 -0.23892033
0.060594387 -0.093676731 -0.23892641
0.060597766 -0.093596682 -0.23893052
0.060600657 -0.093516849 -0.23892464
0.060740761 -0.086071469 -0.2356752
0.060736652 -0.086006537 -0.23553579
0.060733501 -0.085939221 -0.2354143
0.060731616 -0.085871339 -0.23531878
0.060729805 -0.08580146 -0.2352232
0.060729247 -0.085729055 -0.23515156
0.060729295 -0.085658349 -0.23509395
0.06072969 -0.08558356 -0.23504022
0.060729053 -0.085513152 -0.23496862
0.060728416 -0.085442752 -0.23489702
0.060728051 -0.085370265 -0.23482937
0.060727805 -0.085299686 -0.23476574
0.060727537 -0.085227154 -0.23470008
0.060726706 -0.085156836 -0.23462449
0.060725406 -0.085088693 -0.23454095
0.060721688 -0.085023589 -0.23440954
0.060722105 -0.084950753 -0.23435785
0.06072291 -0.084877744 -0.23431416
0.060723033 -0.084805034 -0.23425649
0.060723081 -0.084734328 -0.23419887
0.060723495 -0.084661491 -0.23414719
0.060723424 -0.08458887 -0.23408553
0.060723178 -0.084518299 -0.2340219
0.060724471 -0.084445067 -0.23398821
0.060726233 -0.084369667 -0.23396245
0.060727041 -0.084296659 -0.23391876
0.060726792 -0.084226079 -0.23385514
0.060727872 -0.084150985 -0.2338154
0.060729265 -0.084077716 -0.23378369
0.060730167 -0.084004655 -0.233742
0.060731929 -0.083929256 -0.23371623
0.060733885 -0.083853766 -0.23369446
0.060735844 -0.083778284 -0.23367269
0.060737625 -0.083704837 -0.23364899
0.06073929 -0.083629481 -0.23362121
0.060740855 -0.083554171 -0.23359147
0.060742542 -0.083480768 -0.23356575
0.0607443 -0.083405368 -0.23353998
0.060745791 -0.083332047 -0.23351027
0.060747553 -0.083256647 -0.23348451
0.060749609 -0.08318112 -0.23346475
0.060751855 -0.083105505 -0.23344895
0.060754206 -0.083029836 -0.23343518
0.060756356 -0.082954265 -0.23341741
0.060758214 -0.082878828 -0.23339364
0.060760174 -0.082803339 -0.23337188
0.060762051 -0.082729846 -0.23335016
0.060764205 -0.082654275 -0.23333238
0.060766257 -0.082578748 -0.23331261
0.060768604 -0.08250308 -0.23329882
0.060771227 -0.082425334 -0.233289
0.060773574 -0.082349673 -0.2332752
0.060775824 -0.082274057 -0.23325944
0.06077807 -0.082198441 -0.23324366
0.060780417 -0.08212278 -0.23322988
0.06078257 -0.082047202 -0.2332121
0.06078482 -0.081971586 -0.23319632
0.060787071 -0.08189597 -0.23318055
0.060789611 -0.08182022 -0.23317076
0.060792327 -0.081742436 -0.23316292
0.060794014 -0.081669033 -0.23313722
0.060795601 -0.081595674 -0.2331095
0.060797751 -0.081520095 -0.23309173
0.060800374 -0.081442356 -0.23308189
0.060803384 -0.08136443 -0.23308004
0.060806412 -0.081288464 -0.23308024
0.060809225 -0.081210628 -0.2330744
0.060811769 -0.081134886 -0.23306462
0.060814779 -0.081056967 -0.23306277
0.06081808 -0.080978915 -0.23306692
0.060821481 -0.080900818 -0.23307306
0.060824685 -0.080822811 -0.23307523
0.060827229 -0.080747068 -0.23306543
0.060830239 -0.080669142 -0.23306358
0.060833909 -0.080588967 -0.23307368
0.060837507 -0.08051078 -0.23308381
0.060840342 -0.080434904 -0.23308003
0.060842961 -0.080357157 -0.23307019
0.060845893 -0.080281235 -0.23306841
0.060849 -0.080203272 -0.23306854
0.060851716 -0.080125481 -0.23306072
0.060854454 -0.080049649 -0.23305491
0.060857661 -0.079971641 -0.23305707
0.060861059 -0.079893544 -0.23306322
0.060864266 -0.079815537 -0.23306537
0.060867373 -0.079737574 -0.23306552
0.060870383 -0.079659656 -0.23306367
0.060873121 -0.079583824 -0.23305787
0.060875934 -0.079505987 -0.23305205
0.060878575 -0.0794302 -0.23304424
0.060881115 -0.07935445 -0.23303446
0.060884029 -0.079276577 -0.23303062
0.060887702 -0.079196393 -0.23304072
0.060891002 -0.079118341 -0.23304486
0.060894307 -0.079040289 -0.23304901
0.060897317 -0.078962371 -0.23304716
0.060899954 -0.078886583 -0.23303938
0.060902867 -0.078808703 -0.23303553
0.060906366 -0.078730568 -0.23304367
0.060909942 -0.07865043 -0.23305178
0.060912874 -0.078574508 -0.23304997
0.060915511 -0.078498721 -0.23304218
0.06091889 -0.078418672 -0.23304629
0.060923152 -0.078338228 -0.23306836
0.060926922 -0.078258008 -0.23308045
0.060929656 -0.078182168 -0.23307465
0.060932666 -0.07810425 -0.23307282
0.06093597 -0.078026198 -0.23307696
0.060939174 -0.077948198 -0.23307911
0.060942478 -0.077870145 -0.23308325
0.060945585 -0.077792183 -0.2330834
0.060948499 -0.077714302 -0.23307957
0.060951136 -0.077638507 -0.23307177
0.060954243 -0.077560544 -0.23307192
0.060957447 -0.077482536 -0.23307408
0.060960457 -0.077404618 -0.23307224
0.060963392 -0.077328697 -0.23307043
0.060966674 -0.077248693 -0.23307253
0.060969606 -0.077172771 -0.23307073
0.060972616 -0.077094853 -0.23306888
0.060975529 -0.077016972 -0.23306505
0.060978461 -0.076941051 -0.23306325
0.060981177 -0.076863259 -0.23305541
0.060984481 -0.076785207 -0.23305956
0.060987685 -0.076707199 -0.23306173
0.060990792 -0.076629236 -0.23306186
0.060994193 -0.076551147 -0.23306802
0.060997475 -0.076471142 -0.23307012
0.061000213 -0.07639531 -0.23306432
0.061003026 -0.076317474 -0.23305848
0.061006058 -0.076241508 -0.23305869
0.061009437 -0.076161459 -0.23306279
0.061012737 -0.076083407 -0.23306693
0.061015844 -0.076005444 -0.2330671
0.061019052 -0.075927436 -0.23306924
0.061022256 -0.075849429 -0.23307139
0.061024994 -0.075773597 -0.23306561
0.061027516 -0.075695895 -0.23305377
0.061030351 -0.07562001 -0.23304997
0.061033826 -0.075539917 -0.23305607
0.061037034 -0.075461917 -0.23305821
0.061040431 -0.07538382 -0.23306435
0.061043635 -0.075305812 -0.2330665
0.061046645 -0.075227894 -0.23306465
0.060725112 -0.10191447 -0.23909724
0.060727417 -0.10183489 -0.23907939
0.06072953 -0.10175541 -0.23905751
0.060731933 -0.1016758 -0.23904164
0.060734726 -0.10159601 -0.23903376
0.06073752 -0.10151622 -0.23902589
0.060740706 -0.10143626 -0.23902598
0.060744181 -0.10135617 -0.23903209
0.060746975 -0.10127638 -0.23902421
0.060749281 -0.10119681 -0.23900634
0.060752075 -0.10111702 -0.23899844
0.060755454 -0.10103697 -0.23900256
0.060758639 -0.10095701 -0.23900265
0.060761239 -0.10087731 -0.23899077
0.060764227 -0.10079744 -0.23898688
0.060767435 -0.10071943 -0.23898904
0.060770422 -0.10063956 -0.23898515
0.06077341 -0.10055968 -0.23898126
0.060776107 -0.10047994 -0.23897138
0.060778707 -0.10040024 -0.23895949
0.060781695 -0.10032036 -0.2389556
0.060784977 -0.10024036 -0.2389577
0.060788453 -0.10016026 -0.23896381
0.060791347 -0.10008044 -0.23895791
0.060794335 -0.10000056 -0.23895404
0.060797736 -0.099922463 -0.23896018
0.060801018 -0.099842459 -0.23896228
0.060804203 -0.099762499 -0.23896238
0.060806606 -0.09968289 -0.23894651
0.060808521 -0.099603489 -0.23892066
0.060811803 -0.099523485 -0.23892274
0.060815379 -0.099443354 -0.23893085
0.060818952 -0.099363215 -0.23893894
0.060822919 -0.099282905 -0.23895502
0.0608261 -0.099202946 -0.23895513
0.060828019 -0.099123545 -0.23892927
0.060830344 -0.099045932 -0.23891345
0.060833335 -0.098966055 -0.23890956
0.060836516 -0.098886095 -0.23890966
0.060839605 -0.09880618 -0.23890778
0.060842592 -0.098726302 -0.23890388
0.060845386 -0.098646514 -0.238896
0.060848281 -0.098566689 -0.23889011
0.060851365 -0.098486766 -0.23888823
0.060853966 -0.098407067 -0.23887634
0.06085676 -0.098327279 -0.23886847
0.060860258 -0.098249145 -0.23887661
0.060863733 -0.098169051 -0.23888271
0.060867406 -0.098088868 -0.23889279
0.060871176 -0.098008648 -0.23890488
0.06087514 -0.097928338 -0.23892096
0.06087862 -0.097848244 -0.23892707
0.060880926 -0.097768679 -0.2389092
0.060883719 -0.097688891 -0.23890132
0.060887195 -0.097608797 -0.2389074
0.060890302 -0.097530834 -0.23890755
0.060892805 -0.097451173 -0.23889369
0.060895108 -0.097371608 -0.23887581
0.060898002 -0.097291775 -0.23886992
0.060901869 -0.09721151 -0.23888402
0.060906127 -0.097131066 -0.23890609
0.060909506 -0.097051017 -0.23891018
0.060912203 -0.096971273 -0.2389003
0.060914703 -0.096891619 -0.23888643
0.060917594 -0.096811786 -0.23888054
0.060920507 -0.096733913 -0.2388767
0.060923789 -0.096653908 -0.23887882
0.060928244 -0.096573383 -0.23890486
0.060932502 -0.096492939 -0.23892695
0.060935196 -0.096413195 -0.23891707
0.060937211 -0.096333757 -0.23889321
0.060939807 -0.096254058 -0.23888132
0.060942605 -0.09617427 -0.23887345
0.060945202 -0.096094564 -0.23886156
0.060948972 -0.096014343 -0.23887366
0.060953327 -0.095933862 -0.23889774
0.06095653 -0.095855854 -0.23889989
0.060959402 -0.095774069 -0.23889194
0.060962021 -0.095696323 -0.23888212
0.060964718 -0.095616579 -0.23887223
0.060968 -0.095536575 -0.23887433
0.060971186 -0.095456615 -0.23887444
0.060974173 -0.095376737 -0.23887055
0.060977358 -0.095296778 -0.23887065
0.060981032 -0.095216595 -0.23888075
0.060984313 -0.09513659 -0.23888284
0.06098691 -0.095056891 -0.23887098
0.06098951 -0.094977193 -0.23885909
0.060992129 -0.094899446 -0.23884925
0.060995314 -0.094819486 -0.23884937
0.060998891 -0.094739348 -0.23885746
0.061002173 -0.094659343 -0.23885956
0.061005551 -0.094579294 -0.23886366
0.06100893 -0.094499245 -0.23886776
0.061012115 -0.094419286 -0.23886786
0.061014909 -0.094339497 -0.23885998
0.0610178 -0.094259664 -0.2388541
0.061021276 -0.094179571 -0.23886019
0.061024949 -0.094099395 -0.23887029
0.061028328 -0.094019346 -0.23887438
0.061031513 -0.093939386 -0.2388745
0.061034795 -0.093859382 -0.2388766
0.061037492 -0.093779638 -0.23886672
0.061040208 -0.093701847 -0.23885888
0.061043665 -0.093619801 -0.23886293
0.061046947 -0.093539797 -0.23886503
0.061049763 -0.093461961 -0.23885921
0.061052557 -0.093382172 -0.23885131
0.061187729 -0.086096063 -0.23563161
0.061185163 -0.086028486 -0.23552212
0.06118267 -0.085958906 -0.23541257
0.061180785 -0.085891023 -0.23531705
0.061178021 -0.085823536 -0.23520355
0.061176505 -0.085753523 -0.23511396
0.061175771 -0.08568316 -0.23504037
0.061175212 -0.085610762 -0.23496872
0.061174672 -0.08554031 -0.2348991
0.061174229 -0.08546982 -0.23483151
0.061174057 -0.085397243 -0.23476785
0.06117342 -0.085326843 -0.23469624
0.061171144 -0.085259132 -0.23459274
0.061169162 -0.085191295 -0.23449522
0.061167747 -0.085121237 -0.23440763
0.06116432 -0.085056007 -0.23428221
0.061164074 -0.084985428 -0.23421858
0.061165344 -0.084910244 -0.23418283
0.061166249 -0.084837191 -0.23414114
0.061166391 -0.08476644 -0.23408553
0.061167471 -0.084691346 -0.23404577
0.061168764 -0.084618114 -0.23401207
0.061169278 -0.08454524 -0.2339624
0.061169595 -0.084472448 -0.23390871
0.061170034 -0.084401563 -0.23385909
0.061171111 -0.084326468 -0.23381934
0.061172403 -0.084253237 -0.23378563
0.061173677 -0.08417806 -0.2337499
0.061175071 -0.084104784 -0.23371819
0.06117693 -0.084029339 -0.23369442
0.061178789 -0.083953902 -0.23367065
0.061180569 -0.083880454 -0.23364693
0.061182898 -0.083802834 -0.2336311
0.061185341 -0.083727136 -0.23361933
0.061187394 -0.083651602 -0.23359954
0.061189741 -0.083575942 -0.23358577
0.061192285 -0.083500192 -0.23357598
0.061194047 -0.083424792 -0.23355022
0.061195806 -0.083349392 -0.23352446
0.061197296 -0.083276078 -0.23349476
0.061197907 -0.083203152 -0.23344706
0.06119854 -0.083132185 -0.23340143
0.061200574 -0.083054699 -0.2333796
0.061202649 -0.082981125 -0.23336188
0.061204605 -0.082905635 -0.23334011
0.061206266 -0.08283028 -0.23331237
0.061207756 -0.082756966 -0.23328266
0.061209247 -0.082683653 -0.23325294
0.061210811 -0.082608335 -0.23322318
0.061212692 -0.08253485 -0.23320144
0.061215408 -0.082457058 -0.23319362
0.061218146 -0.082381219 -0.23318782
0.061220199 -0.082305692 -0.23316807
0.061221886 -0.082232289 -0.23314235
0.061224114 -0.082154721 -0.23312451
0.061226286 -0.082081094 -0.23310879
0.061228808 -0.0820034 -0.23309696
0.061231546 -0.08192756 -0.23309118
0.06123399 -0.081851855 -0.23307937
0.061235946 -0.081776366 -0.23305762
0.061238099 -0.081700794 -0.23303984
0.06124064 -0.081625044 -0.23303005
0.061243258 -0.081547305 -0.23302022
0.061245702 -0.0814716 -0.23300844
0.061248247 -0.08139585 -0.23299865
0.061250787 -0.0813201 -0.23298886
0.061253894 -0.081242137 -0.23298901
0.061257392 -0.081164002 -0.23299715
0.061260596 -0.081085995 -0.23299932
0.061263315 -0.081008203 -0.23299147
0.061265953 -0.080932409 -0.23298368
0.061268963 -0.08085449 -0.23298183
0.061272267 -0.080776438 -0.23298599
0.061275102 -0.080700561 -0.23298219
0.061277818 -0.08062277 -0.23297435
0.061281022 -0.080544762 -0.23297651
0.061284054 -0.080468804 -0.2329767
0.061287161 -0.080390841 -0.23297685
0.061290268 -0.08031287 -0.232977
0.061293669 -0.080234781 -0.23298316
0.061296776 -0.080156818 -0.23298331
0.061299685 -0.080078937 -0.23297948
0.061302695 -0.080001019 -0.23297763
0.061305434 -0.079925179 -0.23297185
0.061308444 -0.079847261 -0.23297
0.061311942 -0.079769127 -0.23297814
0.06131573 -0.079690859 -0.23299226
0.06131874 -0.079612941 -0.23299041
0.061321281 -0.07953719 -0.23298064
0.061324194 -0.07945931 -0.23297679
0.061327301 -0.079381347 -0.23297694
0.061330311 -0.079303429 -0.2329751
0.061333612 -0.079225376 -0.23297924
0.061336722 -0.079147413 -0.23297939
0.061339926 -0.079069406 -0.23298155
0.061343227 -0.078991354 -0.23298571
0.061346333 -0.078913391 -0.23298584
0.061349735 -0.078835294 -0.23299199
0.061353505 -0.078755081 -0.23300408
0.061357003 -0.078676939 -0.23301221
0.061360303 -0.078598887 -0.23301637
0.061363511 -0.078520879 -0.23301852
0.06136642 -0.078443006 -0.23301467
0.061369061 -0.078367211 -0.23300688
0.061372265 -0.078289203 -0.23300904
0.061375372 -0.07821124 -0.23300919
0.061378013 -0.078135453 -0.2330014
0.061381217 -0.078057446 -0.23300354
0.061384793 -0.077977307 -0.23301163
0.061388191 -0.077899218 -0.23301779
0.061391398 -0.07782121 -0.23301993
0.061394796 -0.077743113 -0.23302609
0.061397709 -0.077665232 -0.23302224
0.06140025 -0.077589482 -0.23301245
0.061403826 -0.077509351 -0.23302054
0.061407126 -0.077431306 -0.23302469
0.061409671 -0.077355556 -0.23301491
0.06141258 -0.077277675 -0.23301107
0.061416078 -0.077199541 -0.2330192
0.061419088 -0.077121615 -0.23301736
0.061422002 -0.077043742 -0.23301353
0.061424643 -0.076967955 -0.23300573
0.061427649 -0.076890029 -0.23300388
0.061430953 -0.076811984 -0.23300804
0.061433766 -0.076734148 -0.23300219
0.061436504 -0.076658309 -0.2329964
0.061440002 -0.076580174 -0.23300454
0.061443478 -0.076500081 -0.23301065
0.06144651 -0.076424122 -0.23301083
0.061449695 -0.076344155 -0.23301095
0.06145253 -0.076268278 -0.23300715
0.061454974 -0.076192573 -0.23299536
0.061457984 -0.076114655 -0.23299351
0.061460622 -0.07603886 -0.23298573
0.061462969 -0.075963199 -0.23297197
0.061465882 -0.075885326 -0.23296812
0.061469279 -0.075807229 -0.23297426
0.06147315 -0.075726964 -0.23298834
0.061476819 -0.075646788 -0.23299843
0.061480124 -0.075568736 -0.23300257
0.061483134 -0.07549081 -0.23300074
0.061486162 -0.075414844 -0.23300093
0.061489172 -0.075336926 -0.23299909
0.061492085 -0.075259052 -0.23299524
0.061494898 -0.075181216 -0.23298942
0.061498106 -0.075103208 -0.23299156
0.061179746 -0.10185821 -0.23907025
0.061182521 -0.10177647 -0.23906034
0.061185312 -0.10169668 -0.23905244
0.061188105 -0.10161689 -0.23904456
0.061191097 -0.10153702 -0.23904067
0.06119379 -0.10145728 -0.23903079
0.061196778 -0.1013774 -0.2390269
0.061199885 -0.10129943 -0.23902705
0.061203245 -0.10121743 -0.23902911
0.061206449 -0.10113943 -0.23903126
0.061208948 -0.10105977 -0.23901738
0.061211646 -0.10098003 -0.2390075
0.061215319 -0.10089985 -0.23901761
0.061218794 -0.10081975 -0.23902369
0.061221782 -0.10073988 -0.23901981
0.06122487 -0.10065996 -0.2390179
0.061227955 -0.10058004 -0.23901603
0.061230943 -0.10050017 -0.23901212
0.06123393 -0.1004203 -0.23900825
0.061236825 -0.10034046 -0.23900235
0.061239343 -0.10026276 -0.23899052
0.061242215 -0.10018098 -0.23898259
0.061244737 -0.10010327 -0.23897076
0.061247997 -0.10002131 -0.23897082
0.061251786 -0.099943042 -0.23898496
0.061255362 -0.099862911 -0.23899305
0.061258644 -0.099782906 -0.23899515
0.061261728 -0.099702984 -0.23899326
0.061264817 -0.099623069 -0.23899136
0.061268099 -0.099543065 -0.23899347
0.061270811 -0.099465273 -0.23898563
0.06127378 -0.099383444 -0.2389797
0.061276987 -0.099305436 -0.23898184
0.061280362 -0.099225387 -0.23898594
0.061283451 -0.099145472 -0.23898405
0.061286341 -0.099065639 -0.23897818
0.061289232 -0.098985806 -0.23897228
0.061292123 -0.098905981 -0.23896641
0.061295308 -0.098826014 -0.23896649
0.06129849 -0.098746054 -0.23896661
0.061300993 -0.0986664 -0.23895273
0.061304566 -0.098586261 -0.23896082
0.061308745 -0.098507822 -0.23898295
0.061312009 -0.098425858 -0.23898301
0.061314236 -0.09834829 -0.23896518
0.061317127 -0.098268457 -0.23895928
0.061320506 -0.098188408 -0.2389634
0.061323591 -0.098108493 -0.2389615
0.061326582 -0.098028615 -0.23895761
0.061330251 -0.097948439 -0.2389677
0.06133334 -0.097868517 -0.23896581
0.061336033 -0.097788773 -0.23895593
0.061338924 -0.097708941 -0.23895004
0.061342403 -0.097628854 -0.23895614
0.061345879 -0.09754876 -0.23896223
0.061348889 -0.097470842 -0.23896039
0.06135207 -0.097390875 -0.2389605
0.061355449 -0.097310826 -0.23896459
0.061358441 -0.097230956 -0.2389607
0.061361037 -0.097151257 -0.23894882
0.061364025 -0.097071379 -0.23894495
0.061367404 -0.09699133 -0.23894903
0.061370686 -0.096911326 -0.23895115
0.061373774 -0.096831411 -0.23894925
0.061376467 -0.09675166 -0.23893937
0.061379284 -0.096673831 -0.23893353
0.061382934 -0.096591696 -0.23894158
0.061386432 -0.096513562 -0.23894972
0.061389692 -0.096431598 -0.23894978
0.061392702 -0.09635368 -0.23894793
0.06139569 -0.096273802 -0.23894404
0.061398387 -0.096194059 -0.23893416
0.061401278 -0.096114233 -0.23892827
0.061404265 -0.096034355 -0.23892438
0.061407447 -0.095954396 -0.23892449
0.061410341 -0.095874563 -0.2389186
0.061413523 -0.095794603 -0.23891872
0.061416902 -0.095714554 -0.2389228
0.061419696 -0.095634766 -0.23891494
0.061422881 -0.095554806 -0.23891503
0.061426379 -0.095476665 -0.23892316
0.061429933 -0.095394574 -0.23892921
0.061432939 -0.095316656 -0.23892738
0.061435636 -0.095236912 -0.2389175
0.061438624 -0.095157035 -0.23891361
0.061441712 -0.09507712 -0.23891172
0.06144499 -0.094997115 -0.23891382
0.061448567 -0.094916977 -0.23892191
0.061451554 -0.094837107 -0.23891802
0.061454155 -0.0947574 -0.23890615
0.061457336 -0.094677441 -0.23890625
0.061460618 -0.094597436 -0.23890835
0.061463803 -0.094517477 -0.23890845
0.061467279 -0.094437383 -0.23891455
0.061470266 -0.094357505 -0.23891066
0.06147318 -0.094279632 -0.23890683
0.061476637 -0.094197586 -0.23891087
0.061479915 -0.094117582 -0.23891297
0.061483003 -0.094037659 -0.23891108
0.061486185 -0.0939577 -0.23891118
0.061489489 -0.093879648 -0.23891534
0.061492749 -0.093797691 -0.23891538
0.061495759 -0.093719773 -0.23891354
0.061498921 -0.093637854 -0.2389116
0.061641276 -0.086114869 -0.23564632
0.061639857 -0.086044811 -0.23555875
0.061636996 -0.085977361 -0.23544325
0.061634135 -0.085909918 -0.23532775
0.061633866 -0.085837379 -0.2352621
0.061633501 -0.085764892 -0.23519444
0.06163181 -0.085696921 -0.23510292
0.061629806 -0.085627131 -0.23500335
0.061629072 -0.085556768 -0.23492974
0.061629117 -0.085486062 -0.23487213
0.061629318 -0.085411355 -0.23481441
0.061628874 -0.085340872 -0.23474681
0.061628606 -0.085268334 -0.23468114
0.061627209 -0.085200235 -0.23459561
0.061625887 -0.08513014 -0.23451003
0.061622947 -0.085064687 -0.23439458
0.061620772 -0.084996939 -0.23429307
0.061621577 -0.084923923 -0.23424938
0.061623044 -0.084848657 -0.23421763
0.06162348 -0.084777772 -0.23416799
0.06162446 -0.084702723 -0.23412624
0.061625853 -0.084629446 -0.23409453
0.061627321 -0.084554181 -0.23406279
0.061628692 -0.084478952 -0.23402902
0.061629985 -0.084405728 -0.23399532
0.061631452 -0.084330454 -0.23396358
0.061633136 -0.084257051 -0.23393786
0.061635267 -0.084179528 -0.23391804
0.061637517 -0.084103912 -0.23390228
0.061639473 -0.084028423 -0.23388049
0.06164182 -0.083952762 -0.23386672
0.061644163 -0.083877102 -0.23385292
0.061645925 -0.083801702 -0.23382717
0.061647881 -0.083726212 -0.23380542
0.061650794 -0.083648339 -0.23380156
0.06165351 -0.083570547 -0.23379372
0.06165576 -0.083494931 -0.23377794
0.061657716 -0.083419442 -0.23375618
0.061659496 -0.083345994 -0.23373246
0.061661355 -0.08327055 -0.23370869
0.061662629 -0.083195373 -0.23367295
0.061663825 -0.083122186 -0.23363724
0.061665583 -0.083046786 -0.23361148
0.061667658 -0.082973212 -0.23359375
0.061670084 -0.082895547 -0.23357993
0.061671864 -0.082822107 -0.23355621
0.061672669 -0.082749099 -0.23351252
0.061673865 -0.082675911 -0.23347682
0.061675258 -0.082602635 -0.23344511
0.061676726 -0.082527369 -0.23341335
0.061678313 -0.082454011 -0.23338565
0.061679702 -0.082380742 -0.23335393
0.061680704 -0.082307644 -0.23331425
0.061681896 -0.082234457 -0.23327853
0.061682802 -0.082161404 -0.23323685
0.061683606 -0.082088396 -0.23319316
0.061685584 -0.082014859 -0.23317343
0.061687715 -0.081937328 -0.23315361
0.061689887 -0.081863716 -0.23313788
0.0616927 -0.08178588 -0.23313203
0.061696 -0.081707828 -0.23313618
0.061699107 -0.081629865 -0.23313634
0.061701357 -0.081554249 -0.23312056
0.061702847 -0.081480935 -0.23309085
0.061704803 -0.081405446 -0.23306909
0.061706681 -0.081331953 -0.23304737
0.061708637 -0.081256472 -0.23302558
0.061710984 -0.081180811 -0.23301181
0.061714385 -0.081102714 -0.23301795
0.061718054 -0.081022531 -0.23302805
0.061721746 -0.080944315 -0.23304018
0.061725147 -0.080866218 -0.23304632
0.061728254 -0.080788255 -0.23304647
0.061731264 -0.080710337 -0.23304462
0.06173427 -0.080632411 -0.23304278
0.061737474 -0.080554403 -0.23304494
0.061740778 -0.080476359 -0.23304909
0.061744079 -0.080398306 -0.23305324
0.061747283 -0.080320299 -0.23305538
0.061750684 -0.080242202 -0.23306152
0.061753791 -0.080164239 -0.23306167
0.061756331 -0.080088489 -0.2330519
0.061759733 -0.080010399 -0.23305804
0.061763402 -0.079930216 -0.23306814
0.061766509 -0.079852253 -0.23306829
0.061769344 -0.079776376 -0.23306449
0.061771885 -0.079700626 -0.2330547
0.061774991 -0.079622664 -0.23305485
0.061778665 -0.079542488 -0.23306495
0.061782062 -0.079464391 -0.23307109
0.061785072 -0.079386473 -0.23306924
0.061787907 -0.079310596 -0.23306546
0.061790623 -0.079232804 -0.23305762
0.061793067 -0.079157099 -0.23304583
0.061795607 -0.079081349 -0.23303604
0.061798617 -0.079003431 -0.23303419
0.061801255 -0.078927636 -0.23302642
0.061804168 -0.078849763 -0.23302257
0.061807565 -0.078771666 -0.23302871
0.061811239 -0.07869149 -0.23303881
0.061814737 -0.078613356 -0.23304695
0.061818235 -0.078535214 -0.23305508
0.061821807 -0.078455076 -0.23306316
0.061824545 -0.078379244 -0.23305738
0.061827358 -0.078301407 -0.23305154
0.061830368 -0.078223489 -0.23304969
0.061833203 -0.078147613 -0.23304591
0.061835546 -0.078071952 -0.23303212
0.061838362 -0.077994116 -0.23302628
0.06184176 -0.077916019 -0.23303244
0.061845161 -0.077837929 -0.23303857
0.061848365 -0.077759922 -0.23304072
0.061851472 -0.077681959 -0.23304087
0.061854482 -0.077604041 -0.23303902
0.061857488 -0.077526115 -0.23303717
0.061860032 -0.077450365 -0.2330274
0.061862845 -0.077372536 -0.23302156
0.061866343 -0.077294394 -0.23302969
0.061869547 -0.077216387 -0.23303185
0.061872359 -0.077138558 -0.23302601
0.061875194 -0.077062681 -0.23302221
0.061878107 -0.0769848 -0.23301837
0.061881017 -0.076906927 -0.23301452
0.061883755 -0.076831087 -0.23300874
0.061886664 -0.076753214 -0.2330049
0.061889675 -0.076675296 -0.23300305
0.061892509 -0.076599419 -0.23299927
0.061895519 -0.076521493 -0.23299742
0.061898723 -0.076443486 -0.23299956
0.06190183 -0.076365523 -0.23299971
0.061904937 -0.07628756 -0.23299986
0.061908141 -0.076209553 -0.23300202
0.061911151 -0.076131634 -0.23300017
0.061913885 -0.076055795 -0.23299438
0.061916701 -0.075977966 -0.23298854
0.061919242 -0.075902216 -0.23297876
0.061921783 -0.075826466 -0.23296897
0.061923936 -0.075750895 -0.23295119
0.061926007 -0.07567732 -0.23293348
0.061929114 -0.075599357 -0.23293363
0.061933644 -0.075516827 -0.23295966
0.061936945 -0.075438783 -0.2329638
0.061939292 -0.075363114 -0.23295
0.06194203 -0.075287282 -0.23294422
0.061945215 -0.075207323 -0.23294432
0.061948244 -0.075131357 -0.23294452
0.061951544 -0.075053304 -0.23294868
0.061644189 -0.10189028 -0.23912522
0.061646182 -0.10180888 -0.23909931
0.061648391 -0.10172936 -0.23907945
0.061650895 -0.1016497 -0.23906557
0.061653882 -0.10156982 -0.23906168
0.061656874 -0.10148995 -0.23905779
0.061659276 -0.10141034 -0.23904192
0.061661486 -0.10133081 -0.23902205
0.06166428 -0.10125102 -0.23901418
0.061667368 -0.10117111 -0.23901229
0.061670549 -0.10109115 -0.23901239
0.061673932 -0.1010111 -0.23901649
0.061677016 -0.10093118 -0.2390146
0.061679907 -0.10085134 -0.23900869
0.061682701 -0.10077156 -0.23900083
0.061685596 -0.10069173 -0.23899493
0.061688781 -0.10061177 -0.23899505
0.061691672 -0.10053194 -0.23898917
0.061694369 -0.10045219 -0.23897928
0.061697356 -0.10037231 -0.23897541
0.06170056 -0.10029431 -0.23897754
0.061703745 -0.10021435 -0.23897766
0.061706733 -0.10013447 -0.23897377
0.061709724 -0.1000546 -0.23896986
0.061713297 -0.099974461 -0.23897797
0.061716191 -0.099894628 -0.23897207
0.061718691 -0.099814974 -0.23895821
0.06172207 -0.099734925 -0.23896229
0.061725743 -0.099654749 -0.2389724
0.061728634 -0.099574916 -0.23896652
0.061731253 -0.099497169 -0.23895667
0.061734613 -0.099415168 -0.23895875
0.06173772 -0.099337205 -0.23895888
0.06174032 -0.099257499 -0.238947
0.061743505 -0.099177539 -0.23894712
0.061746493 -0.099097669 -0.23894322
0.061748799 -0.099018097 -0.23892537
0.06175169 -0.098938264 -0.23891947
0.061755169 -0.09885817 -0.23892558
0.061758645 -0.098778084 -0.23893166
0.06176183 -0.098698117 -0.23893178
0.061764427 -0.098618418 -0.2389199
0.061767828 -0.098540328 -0.23892604
0.061770603 -0.098458581 -0.23891611
0.061772831 -0.098381013 -0.23889828
0.061776992 -0.098300613 -0.23891836
0.061781246 -0.098220177 -0.23894045
0.061784625 -0.098140128 -0.23894453
0.061788008 -0.098060079 -0.23894864
0.061790604 -0.09798038 -0.23893677
0.061793596 -0.097900502 -0.23893288
0.061796781 -0.097820543 -0.23893298
0.061799768 -0.097740665 -0.23892909
0.061802659 -0.097660832 -0.23892321
0.06180555 -0.097581007 -0.23891732
0.061807781 -0.097503431 -0.2388995
0.061810672 -0.097423598 -0.23889361
0.061814249 -0.097343467 -0.2389017
0.061817724 -0.097263373 -0.23890781
0.061821103 -0.097183324 -0.2389119
0.061824482 -0.097103275 -0.23891601
0.061827376 -0.097023442 -0.23891012
0.061829876 -0.096943788 -0.23889625
0.061833255 -0.096863739 -0.23890033
0.061837513 -0.096783303 -0.23892242
0.061841283 -0.096703075 -0.23893452
0.06184388 -0.096623376 -0.23892263
0.061846502 -0.096545629 -0.23891279
0.061849471 -0.096463799 -0.23890686
0.061852675 -0.096385792 -0.23890901
0.06185586 -0.096305832 -0.23890913
0.061858945 -0.096225917 -0.23890723
0.061861936 -0.09614604 -0.23890334
0.061865509 -0.096065901 -0.23891144
0.061868694 -0.095985942 -0.23891154
0.061871391 -0.095906198 -0.23890167
0.061874378 -0.095826328 -0.23889777
0.061877564 -0.095746361 -0.23889789
0.061880942 -0.095666312 -0.23890197
0.061884128 -0.095586352 -0.23890209
0.06188694 -0.095508516 -0.23889625
0.061889812 -0.095426738 -0.23888832
0.061892919 -0.095348768 -0.23888847
0.061896279 -0.095266767 -0.23889053
0.061899483 -0.095188759 -0.23889267
0.061902959 -0.095108666 -0.23889877
0.061906338 -0.095028624 -0.23890287
0.061909426 -0.094948702 -0.23890097
0.061912611 -0.094868742 -0.23890108
0.061916087 -0.094788648 -0.23890719
0.061919369 -0.094708644 -0.23890929
0.06192236 -0.094628766 -0.2389054
0.061925154 -0.094548978 -0.23889752
0.061928336 -0.094469018 -0.23889762
0.061931521 -0.094389059 -0.23889773
0.061934412 -0.094309226 -0.23889184
0.0619375 -0.094229311 -0.23888995
0.061940685 -0.094149351 -0.23889005
0.061943967 -0.094069339 -0.23889217
0.061947249 -0.093989335 -0.23889425
0.061950531 -0.093909331 -0.23889637
0.061953716 -0.093829371 -0.23889646
0.061956607 -0.093749538 -0.23889059
0.061959691 -0.093669623 -0.23888868
0.062107667 -0.086061701 -0.23566741
0.062102512 -0.085999206 -0.23550807
0.0620986 -0.085934184 -0.23537266
0.062097378 -0.085864045 -0.23528907
0.062097017 -0.085791558 -0.23522142
0.062096283 -0.085721195 -0.23514782
0.062095162 -0.08565101 -0.23506624
0.062094234 -0.085580736 -0.23498863
0.062093675 -0.085508332 -0.23491699
0.062093236 -0.085437842 -0.23484936
0.062092967 -0.08536531 -0.23478372
0.0620928 -0.085292734 -0.23472005
0.062092654 -0.085222118 -0.23465843
0.062091727 -0.085151844 -0.23458084
0.062089842 -0.085083961 -0.23448533
0.062088721 -0.08501377 -0.23440373
0.062089428 -0.084940806 -0.23435804
0.062091291 -0.084865361 -0.23433429
0.062092096 -0.084792346 -0.2342906
0.062091734 -0.084719859 -0.23422295
0.06209217 -0.084648982 -0.2341733
0.062093444 -0.084573798 -0.23413756
0.062094916 -0.084498525 -0.2341058
0.062096015 -0.08442539 -0.2340681
0.062096726 -0.084352419 -0.23402241
0.062097434 -0.084279448 -0.23397672
0.062098145 -0.084206484 -0.23393103
0.062099341 -0.084133297 -0.23389533
0.06210044 -0.084060162 -0.23385763
0.062101521 -0.08398506 -0.23381791
0.062103011 -0.083911747 -0.23378819
0.06210487 -0.083836302 -0.23376442
0.062106829 -0.083760813 -0.23374265
0.062108219 -0.083687544 -0.23371094
0.062109396 -0.083612405 -0.23367321
0.062110886 -0.083539091 -0.2336435
0.062112942 -0.083463557 -0.23362373
0.062115289 -0.083387896 -0.23360994
0.062117811 -0.083310194 -0.23359811
0.062120352 -0.083234444 -0.23358834
0.062122799 -0.083158746 -0.23357654
0.06212493 -0.083081216 -0.23355673
0.062126517 -0.083007857 -0.23352902
0.062128279 -0.082932457 -0.23350325
0.062130336 -0.082856923 -0.23348349
0.062131923 -0.082783565 -0.23345578
0.062133685 -0.082708165 -0.23343
0.062135175 -0.082634851 -0.2334003
0.062137034 -0.082559407 -0.23337653
0.062139284 -0.082483791 -0.23336074
0.062141337 -0.082408264 -0.23334098
0.06214349 -0.082332686 -0.23332322
0.062145546 -0.082257152 -0.23330343
0.062147796 -0.082181536 -0.23328766
0.062149946 -0.082105964 -0.23326989
0.062151827 -0.082032472 -0.23324817
0.062154155 -0.081954859 -0.23323235
0.062156502 -0.081879199 -0.23321855
0.062158946 -0.081803493 -0.23320678
0.06216139 -0.081727788 -0.23319501
0.06216364 -0.081652172 -0.23317921
0.062165793 -0.081576601 -0.23316145
0.062168043 -0.081500977 -0.23314565
0.062170487 -0.081425272 -0.23313388
0.062173497 -0.081347354 -0.23313203
0.062176235 -0.081271514 -0.23312625
0.062179148 -0.081193641 -0.23312241
0.062182449 -0.081115589 -0.23312655
0.062185459 -0.08103767 -0.2331247
0.062188271 -0.080959842 -0.23311886
0.062191304 -0.080883875 -0.23311907
0.062194411 -0.080805913 -0.23311922
0.062197126 -0.080728121 -0.23311138
0.062200427 -0.080650069 -0.23311554
0.062204219 -0.0805718 -0.23312968
0.062207695 -0.080491707 -0.23313577
0.062210999 -0.080413654 -0.23313992
0.062214494 -0.08033552 -0.23314805
0.062217504 -0.080257602 -0.23314622
0.062220611 -0.080179639 -0.23314637
0.062224403 -0.080101371 -0.2331605
0.062227976 -0.080021232 -0.2331686
0.062230811 -0.079945356 -0.2331648
0.062233627 -0.079867519 -0.23315896
0.062236927 -0.079789475 -0.2331631
0.062239937 -0.079711549 -0.23316127
0.062242478 -0.079635799 -0.23315148
0.062245294 -0.07955797 -0.23314564
0.062248401 -0.079480007 -0.2331458
0.062251899 -0.079401866 -0.23315394
0.062255494 -0.079323687 -0.23316407
0.06225821 -0.079245895 -0.23315623
0.062260557 -0.079170235 -0.23314247
0.062263567 -0.079092316 -0.23314062
0.062266577 -0.079014398 -0.23313877
0.062269509 -0.078938469 -0.23313698
0.062272888 -0.078858428 -0.23314106
0.062275819 -0.078782506 -0.23313928
0.062278636 -0.07870467 -0.23313344
0.062281646 -0.078626752 -0.23313159
0.06228438 -0.07855092 -0.23312581
0.062286906 -0.07847321 -0.23311397
0.062289737 -0.078397334 -0.23311019
0.06229265 -0.07831946 -0.23310633
0.062295388 -0.078243621 -0.23310053
0.062298201 -0.078165784 -0.23309472
0.062301312 -0.078087822 -0.23309486
0.062304318 -0.078009903 -0.23309302
0.062307231 -0.07793203 -0.23308918
0.062310264 -0.077856064 -0.23308937
0.062313076 -0.077778228 -0.23308353
0.062316086 -0.077700309 -0.2330817
0.062318921 -0.077624433 -0.23307791
0.062321737 -0.077546597 -0.23307206
0.062324278 -0.077470846 -0.23306227
0.062327191 -0.077392973 -0.23305842
0.062330395 -0.077314965 -0.2330606
0.062333327 -0.077239044 -0.2330588
0.062336139 -0.077161208 -0.23305294
0.062339347 -0.0770832 -0.23305511
0.062342454 -0.077005237 -0.23305525
0.062345464 -0.076927319 -0.23305342
0.062348474 -0.076849401 -0.23305157
0.062351309 -0.076773524 -0.23304778
0.062354218 -0.076695643 -0.23304392
0.062356763 -0.076619893 -0.23303413
0.062359381 -0.076542154 -0.23302431
0.062362608 -0.076466098 -0.2330285
0.062365692 -0.076386184 -0.23302662
0.062368527 -0.076310307 -0.23302281
0.062371731 -0.076232292 -0.23302495
0.062374841 -0.076154329 -0.23302513
0.062378045 -0.076076321 -0.23302728
0.062380955 -0.075998448 -0.23302343
0.062383402 -0.075922742 -0.23301165
0.06238614 -0.07584691 -0.23300585
0.062389344 -0.075768903 -0.23300801
0.062392451 -0.07569094 -0.23300815
0.062395461 -0.075613014 -0.23300631
0.062398374 -0.075535141 -0.23300248
0.062401205 -0.075459257 -0.23299868
0.062404022 -0.075381428 -0.23299284
0.062407129 -0.075303465 -0.23299299
0.062090889 -0.10191751 -0.23904237
0.062092904 -0.10183807 -0.2390185
0.062095989 -0.10175815 -0.23901661
0.062099054 -0.10167628 -0.23901267
0.062101871 -0.10159844 -0.23900683
0.062104955 -0.10151853 -0.23900494
0.062107943 -0.10143865 -0.23900107
0.062110934 -0.10135878 -0.23899716
0.06211441 -0.10127869 -0.23900327
0.062117983 -0.10119855 -0.23901135
0.062121265 -0.10111854 -0.23901346
0.062124256 -0.10103867 -0.23900956
0.062127244 -0.10095879 -0.23900568
0.062130623 -0.10087875 -0.23900978
0.062133923 -0.10080069 -0.23901393
0.062136814 -0.10072087 -0.23900804
0.062139414 -0.10064116 -0.23899618
0.062142599 -0.1005612 -0.23899627
0.062145196 -0.1004815 -0.23898441
0.062147699 -0.10040185 -0.23897052
0.06215059 -0.10032202 -0.23896463
0.062153775 -0.10024206 -0.23896474
0.062156763 -0.10016218 -0.23896086
0.062159751 -0.1000823 -0.23895697
0.062163226 -0.10000221 -0.23896307
0.062166218 -0.099922337 -0.23895918
0.062168717 -0.099842682 -0.23894531
0.062171709 -0.099762805 -0.2389414
0.062175184 -0.099682711 -0.23894751
0.062178075 -0.099602886 -0.23894164
0.062180791 -0.099525094 -0.23893379
0.06218376 -0.099443264 -0.23892787
0.062186185 -0.099365607 -0.23891404
0.062189955 -0.099285379 -0.23892611
0.06219304 -0.099205464 -0.23892424
0.062195737 -0.099125721 -0.23891434
0.062198728 -0.099045843 -0.23891047
0.062201522 -0.098966055 -0.23890257
0.062205095 -0.098885924 -0.23891068
0.062208764 -0.09880574 -0.23892076
0.062211756 -0.09872587 -0.23891687
0.062214646 -0.098646037 -0.23891099
0.062217459 -0.098568201 -0.23890516
0.062220626 -0.098486289 -0.23890321
0.062223632 -0.098408371 -0.23890138
0.062226426 -0.098328583 -0.23889348
0.062229708 -0.098248579 -0.2388956
0.062233381 -0.098168395 -0.23890567
0.062237538 -0.098087996 -0.23892576
0.062239066 -0.098008782 -0.23889191
0.062241763 -0.097929031 -0.23888204
0.062245529 -0.09784881 -0.23889412
0.062248714 -0.097768851 -0.23889422
0.062251605 -0.097689018 -0.23888834
0.062254887 -0.097609013 -0.23889044
0.062257897 -0.097531095 -0.23888859
0.062261082 -0.097451136 -0.23888871
0.062263776 -0.097371385 -0.23887883
0.062266473 -0.097291641 -0.23886895
0.062269561 -0.097211726 -0.23886706
0.06227323 -0.09713155 -0.23887715
0.062277194 -0.097051241 -0.23889323
0.062280186 -0.096971363 -0.23888934
0.062282782 -0.096891664 -0.23887748
0.062285773 -0.096811786 -0.23887357
0.062289074 -0.096733734 -0.23887773
0.062292531 -0.096651688 -0.23888178
0.062295638 -0.096573725 -0.23888192
0.062298607 -0.096491896 -0.238876
0.062301323 -0.096414112 -0.23886816
0.06230402 -0.096334361 -0.23885828
0.062306911 -0.096254535 -0.23885241
0.062310092 -0.096174568 -0.2388525
0.062313374 -0.096094564 -0.2388546
0.062316854 -0.096014477 -0.23886071
0.062319841 -0.0959346 -0.23885682
0.062322829 -0.095854722 -0.23885293
0.062326208 -0.09577468 -0.23885703
0.062329587 -0.095694631 -0.23886111
0.062332481 -0.095614798 -0.23885524
0.062335588 -0.095536835 -0.23885539
0.062338945 -0.095454827 -0.23885745
0.06234166 -0.095377043 -0.23884961
0.062344652 -0.095297165 -0.23884572
0.062347833 -0.095217206 -0.23884584
0.062350921 -0.095137283 -0.23884395
0.0623543 -0.095057234 -0.23884805
0.062357679 -0.094977193 -0.23885214
0.062360864 -0.094897225 -0.23885225
0.062364243 -0.094817176 -0.23885635
0.062367231 -0.094737306 -0.23885247
0.062370121 -0.094657473 -0.23884657
0.06237321 -0.094577558 -0.23884469
0.062376391 -0.094497591 -0.23884478
0.062379479 -0.094417676 -0.2388429
0.062382489 -0.094339758 -0.23884106
0.062386043 -0.094257668 -0.23884711
0.062389053 -0.094179749 -0.23884526
0.062392019 -0.09409792 -0.23883933
0.062395126 -0.094019949 -0.23883948
0.062398117 -0.093940079 -0.2388356
0.062401008 -0.093860246 -0.2388297
0.062404387 -0.093780197 -0.23883381
0.062407862 -0.093700111 -0.23883989
0.062411048 -0.093620144 -0.23884001
0.062413841 -0.093540356 -0.23883212
0.062554188 -0.086094871 -0.23558673
0.062550865 -0.086029589 -0.23546329
0.062548764 -0.085959837 -0.23536175
0.06254708 -0.085891873 -0.2352702
0.062544882 -0.085822165 -0.23516665
0.062545009 -0.085749455 -0.23510899
0.062545225 -0.085676707 -0.2350533
0.062545158 -0.085604087 -0.23499165
0.062543273 -0.085536204 -0.23489614
0.062540904 -0.085468538 -0.23479062
0.062540933 -0.085395873 -0.23473096
0.062540106 -0.085325554 -0.23465535
0.062538415 -0.085257582 -0.23456383
0.062537588 -0.085187271 -0.23448825
0.06253732 -0.085114732 -0.23442259
0.062536493 -0.085044414 -0.23434699
0.062535658 -0.084974103 -0.23427138
0.062535807 -0.084903352 -0.23421577
0.062536128 -0.084830552 -0.23416209
0.062537029 -0.084757499 -0.2341204
0.06253764 -0.084684581 -0.23407272
0.06253767 -0.084611915 -0.23401305
0.062538378 -0.084538952 -0.23396735
0.062539771 -0.084465675 -0.23393565
0.062541433 -0.08439032 -0.23390789
0.062542826 -0.084317051 -0.2338762
0.0625441 -0.084241867 -0.23384044
0.062545866 -0.084166467 -0.23381467
0.062548019 -0.084090889 -0.23379689
0.062549777 -0.084015489 -0.23377113
0.062550783 -0.083942391 -0.23373145
0.0625512 -0.083869554 -0.23367977
0.062552296 -0.083796412 -0.23364207
0.062554546 -0.083720796 -0.23362629
0.062556893 -0.083645135 -0.23361251
0.062558562 -0.08356978 -0.23358475
0.062560707 -0.083494201 -0.23356697
0.062563717 -0.083416283 -0.23356514
0.062566556 -0.083340406 -0.23356134
0.062569074 -0.083262704 -0.23354951
0.062571324 -0.083187088 -0.23353374
0.062573284 -0.083111599 -0.23351197
0.062574014 -0.083040588 -0.23346832
0.062574819 -0.082967572 -0.23342463
0.062576286 -0.082892306 -0.23339288
