# .PCD v0.7 - Point Cloud Data file format
VERSION 0.7
FIELDS x y z
SIZE 4 4 4
TYPE F F F
COUNT 1 1 1
WIDTH 1306
HEIGHT 1
VIEWPOINT 0 0 0 1 0 0 0
POINTS 1306
DATA ascii
-0.13305251 0.0014914237 -0.26901788
-0.13304874 0.0015735999 -0.26902792
-0.13304532 0.0016516913 -0.26903406
-0.13304231 0.0017315671 -0.26903018
-0.13303977 0.0018092692 -0.26901835
-0.13303733 0.0018869285 -0.26900452
-0.1330343 0.0019648485 -0.26900268
-0.13303052 0.0020450689 -0.26901478
-0.13302712 0.0021251161 -0.26901889
-0.1330242 0.0022049472 -0.26901302
-0.13302118 0.0022828653 -0.26901117
-0.13301854 0.0023606122 -0.26900136
-0.13301629 0.0024381839 -0.26898354
-0.13301308 0.0025181454 -0.26898366
-0.1330094 0.0025983229 -0.26899374
-0.13300666 0.0026761144 -0.2689859
-0.13300392 0.0027539022 -0.26897809
-0.13300073 0.0028338637 -0.26897818
-0.13299799 0.0029116534 -0.26897037
-0.13299516 0.0029894859 -0.26896453
-0.13299169 0.0030715317 -0.26896858
-0.13298865 0.0031494498 -0.26896673
-0.13298611 0.0032271519 -0.26895493
-0.13298328 0.0033049863 -0.26894909
-0.13297978 0.0033850782 -0.26895517
-0.13297638 0.0034651235 -0.26895928
-0.13297366 0.0035429131 -0.26895148
-0.13297102 0.0036206599 -0.26894164
-0.13296829 0.0037004054 -0.26893175
-0.13296556 0.003778195 -0.26892394
-0.13296217 0.0038582385 -0.26892802
-0.13295877 0.0039382875 -0.26893213
-0.13295564 0.0040162522 -0.26893228
-0.13295224 0.0040962975 -0.2689364
-0.13294885 0.0041763447 -0.26894051
-0.13294554 0.0042563509 -0.26894262
-0.13294242 0.0043343138 -0.26894277
-0.13293941 0.0044141877 -0.2689389
-0.13293658 0.0044920202 -0.26893306
-0.13293375 0.0045698546 -0.26892722
-0.13293044 0.0046498552 -0.26892933
-0.13292715 0.0047298614 -0.26893145
-0.13292384 0.0048098657 -0.26893353
-0.13292055 0.0048898701 -0.26893565
-0.13291742 0.0049678311 -0.2689358
-0.1329143 0.0050477497 -0.26893392
-0.13291177 0.0051254537 -0.26892209
-0.13290951 0.0052010715 -0.26890633
-0.1329063 0.0052810311 -0.26890644
-0.13290271 0.0053611659 -0.26891452
-0.1328994 0.0054411702 -0.26891664
-0.13289592 0.0055212602 -0.26892275
-0.13289271 0.0056012198 -0.26892287
-0.13288978 0.005679097 -0.26891902
-0.13288601 0.0057612732 -0.26892906
-0.13288261 0.0058413204 -0.26893318
-0.13287997 0.0059190653 -0.26892334
-0.13287744 0.0059967693 -0.26891154
-0.13287461 0.0060746018 -0.2689057
-0.1328713 0.0061546061 -0.26890779
-0.1328679 0.0062346533 -0.2689119
-0.1328647 0.0063146129 -0.26891202
-0.13286197 0.0063924026 -0.26890418
-0.13285913 0.0064702369 -0.26889834
-0.13285573 0.006550286 -0.26890245
-0.13285244 0.0066302866 -0.26890457
-0.1328495 0.0067081638 -0.26890072
-0.1328464 0.0067880824 -0.26889884
-0.1328432 0.0068680421 -0.26889896
-0.13284017 0.0069459621 -0.26889712
-0.13283725 0.0070257932 -0.26889125
-0.13283423 0.0071037132 -0.2688894
-0.13283083 0.0071837604 -0.26889351
-0.13282743 0.0072638057 -0.26889759
-0.13282433 0.0073437244 -0.26889572
-0.1328215 0.0074215587 -0.26888987
-0.13281839 0.0075014755 -0.268888
-0.13281545 0.0075793527 -0.26888415
-0.13281281 0.0076570977 -0.26887435
-0.13280942 0.007737143 -0.26887843
-0.13280612 0.0078171492 -0.26888055
-0.13280322 0.0078969803 -0.26887465
-0.13280018 0.0079749003 -0.26887283
-0.13279688 0.0080549028 -0.26887494
-0.13279368 0.0081348643 -0.26887506
-0.13279058 0.0082147829 -0.26887316
-0.13278773 0.0082926154 -0.26886731
-0.13278481 0.0083704889 -0.2688635
-0.13278151 0.0084504951 -0.26886559
-0.13277765 0.0085327141 -0.26887763
-0.13277425 0.0086127594 -0.26888174
-0.13277161 0.0086905062 -0.2688719
-0.13276887 0.0087682977 -0.2688641
-0.13276547 0.008848343 -0.26886821
-0.13276275 0.0089261346 -0.26886037
-0.13276011 0.0090038814 -0.26885054
-0.13275671 0.0090839267 -0.26885465
-0.13275331 0.0091639739 -0.26885873
-0.1327503 0.0092438497 -0.26885486
-0.13274747 0.0093216822 -0.26884902
-0.13274436 0.0094015971 -0.26884714
-0.13274144 0.0094794743 -0.26884329
-0.13273859 0.0095573068 -0.26883748
-0.13273492 0.009639442 -0.26884553
-0.13273087 0.0097217448 -0.26886156
-0.13272756 0.009801751 -0.26886368
-0.1327253 0.0098773688 -0.26884791
-0.13272266 0.0099551138 -0.26883808
-0.13271946 0.010035073 -0.26883817
-0.13271663 0.010112908 -0.26883236
-0.13271408 0.01019061 -0.26882052
-0.13271125 0.010268444 -0.26881468
-0.13270758 0.010350576 -0.26882273
-0.13270408 0.010430666 -0.26882884
-0.13270125 0.0105085 -0.26882303
-0.13269795 0.010588503 -0.26882511
-0.13269503 0.010668335 -0.26881924
-0.1326922 0.010746166 -0.2688134
-0.13268881 0.010826213 -0.26881751
-0.13268521 0.010906348 -0.26882562
-0.13268231 0.010986181 -0.26881975
-0.13267967 0.011063924 -0.26880991
-0.13267645 0.01114193 -0.26881206
-0.13267325 0.011221891 -0.26881218
-0.13267024 0.011301767 -0.26880828
-0.13266712 0.011381682 -0.2688064
-0.1326644 0.011459472 -0.26879859
-0.13266116 0.011537479 -0.26880074
-0.1326578 0.01161948 -0.26880279
-0.13265467 0.011697445 -0.26880294
-0.13265119 0.011779491 -0.26880699
-0.1326478 0.011859536 -0.26881111
-0.13483663 -0.037810348 -0.26459792
-0.1348339 -0.037732556 -0.26459008
-0.13483104 -0.03765668 -0.2645863
-0.13482812 -0.037578806 -0.26458246
-0.13482475 -0.037504666 -0.26459071
-0.13482119 -0.037430435 -0.26460296
-0.13481796 -0.037354387 -0.26460713
-0.13481469 -0.037280288 -0.26461339
-0.13481116 -0.037204105 -0.26462358
-0.1348079 -0.037130009 -0.26462981
-0.13480465 -0.037053958 -0.26463401
-0.13480151 -0.036977947 -0.26463622
-0.13479856 -0.036902029 -0.26463443
-0.13479541 -0.036826022 -0.26463664
-0.13479227 -0.036750011 -0.26463884
-0.13478941 -0.036674134 -0.26463506
-0.13478668 -0.036596343 -0.26462722
-0.13478401 -0.036520552 -0.26461944
-0.13478078 -0.0364445 -0.26462364
-0.13477722 -0.036370274 -0.26463586
-0.13477398 -0.036294222 -0.26464006
-0.13477074 -0.036218174 -0.26464427
-0.13476759 -0.036142163 -0.26464647
-0.13476525 -0.036064543 -0.26463065
-0.13476321 -0.035985105 -0.2646068
-0.13476056 -0.035909314 -0.26459903
-0.13475682 -0.035833046 -0.26461321
-0.13475366 -0.035758991 -0.26461744
-0.13475111 -0.035681289 -0.26460564
-0.13474827 -0.035605412 -0.26460183
-0.13474502 -0.03552936 -0.26460603
-0.13474199 -0.035451442 -0.26460418
-0.13473934 -0.035375647 -0.2645964
-0.1347369 -0.03529799 -0.26458257
-0.13473426 -0.035220243 -0.26457277
-0.1347315 -0.035144407 -0.26456696
-0.13472825 -0.035068356 -0.26457119
-0.13472502 -0.034992304 -0.26457536
-0.13472235 -0.034916513 -0.26456758
-0.13472003 -0.03483694 -0.26454973
-0.13471749 -0.034759238 -0.2645379
-0.13471493 -0.034683492 -0.26452813
-0.1347121 -0.03460566 -0.26452228
-0.13470906 -0.034529693 -0.26452249
-0.13470611 -0.034453772 -0.2645207
-0.13470376 -0.034376156 -0.26450488
-0.13470082 -0.034298278 -0.26450104
-0.13469778 -0.034222316 -0.26450124
-0.13469544 -0.0341447 -0.26448542
-0.1346927 -0.034066908 -0.26447761
-0.13468994 -0.033991076 -0.26447183
-0.1346876 -0.033913456 -0.264456
-0.13468505 -0.033835758 -0.26444417
-0.13468221 -0.033759877 -0.26444039
-0.13467938 -0.033682045 -0.26443455
-0.13467643 -0.033606119 -0.26443276
-0.13467368 -0.033528335 -0.26442492
-0.13467084 -0.033452455 -0.26442114
-0.13466778 -0.033376493 -0.26442134
-0.13466495 -0.033298656 -0.2644155
-0.1346622 -0.033222824 -0.26440972
-0.13465916 -0.033146858 -0.26440993
-0.13465561 -0.033070676 -0.26442012
-0.13465255 -0.032996666 -0.26442236
-0.13464932 -0.032918658 -0.2644245
-0.13464586 -0.032844476 -0.26443475
-0.13464242 -0.032768339 -0.26444295
-0.13463897 -0.032694153 -0.2644532
-0.13463573 -0.032618102 -0.2644574
-0.13463239 -0.032542009 -0.2644636
-0.13462873 -0.032467738 -0.26447782
-0.1346252 -0.032391556 -0.26448801
-0.13462204 -0.032317504 -0.26449227
-0.1346187 -0.032241408 -0.26449847
-0.13461515 -0.032165222 -0.26450866
-0.13461199 -0.032091171 -0.2645129
-0.13460846 -0.032014988 -0.26452309
-0.13460441 -0.031940546 -0.26454532
-0.13460106 -0.031866405 -0.26455355
-0.13459733 -0.031790137 -0.26456773
-0.13459316 -0.031717606 -0.26459399
-0.13458943 -0.031641334 -0.26460817
-0.13458587 -0.031567108 -0.26462042
-0.13458183 -0.031492665 -0.26464263
-0.13457839 -0.031416528 -0.26465082
-0.13457574 -0.031340733 -0.26464304
-0.1345724 -0.03126464 -0.26464924
-0.13456865 -0.031190326 -0.26466548
-0.1345638 -0.03111749 -0.26470572
-0.13456076 -0.031041525 -0.26470593
-0.1345576 -0.030965518 -0.2647081
-0.13455369 -0.030889165 -0.26472631
-0.13455003 -0.030814894 -0.26474053
-0.13454597 -0.030742403 -0.26476479
-0.13454182 -0.030667916 -0.26478902
-0.1345382 -0.030591693 -0.2648012
-0.13453425 -0.030517291 -0.26482144
-0.1345305 -0.030442977 -0.26483765
-0.13452627 -0.030368445 -0.26486388
-0.13452162 -0.030295698 -0.26490012
-0.13451628 -0.030222643 -0.26495036
-0.13451193 -0.030150022 -0.26498061
-0.13450798 -0.030075625 -0.26500082
-0.13450393 -0.030001178 -0.26502305
-0.13450012 -0.029924868 -0.26503924
-0.13449636 -0.029850554 -0.26505548
-0.13449211 -0.029776022 -0.26508167
-0.13448758 -0.029701363 -0.26511389
-0.13448334 -0.029628787 -0.26514214
-0.1344794 -0.029552432 -0.26516032
-0.13447486 -0.029479727 -0.26519457
-0.13446982 -0.029406805 -0.26523882
-0.13446489 -0.029331971 -0.265279
-0.13446026 -0.02925922 -0.26531523
-0.1344552 -0.029186299 -0.26535949
-0.13445066 -0.029113593 -0.26539373
-0.13444613 -0.029038932 -0.26542595
-0.13444199 -0.028964445 -0.26545018
-0.13443775 -0.028889915 -0.26547638
-0.13443263 -0.028814994 -0.26552057
-0.13442859 -0.028740551 -0.26554281
-0.13442545 -0.028664542 -0.26554501
-0.13441972 -0.028591316 -0.26560321
-0.13441318 -0.028521651 -0.26568151
-0.13440835 -0.028446861 -0.26571971
-0.13440323 -0.028373895 -0.26576594
-0.1343962 -0.028304014 -0.26585421
-0.13310538 0.00015038159 -0.26904106
-0.13310245 0.00022825785 -0.26903722
-0.13309953 0.00030613411 -0.2690334
-0.13309632 0.00038609467 -0.26903349
-0.133093 0.00046414416 -0.26903766
-0.13308969 0.00054414757 -0.26903975
-0.13308705 0.00062189437 -0.26902995
-0.13308395 0.00070181303 -0.26902807
-0.13308036 0.00078194588 -0.26903614
-0.13307723 0.00085990876 -0.26903629
-0.13307509 0.0009374395 -0.2690165
-0.13307226 0.001015272 -0.26901066
-0.13306867 0.0010954067 -0.26901877
-0.13306506 0.0011755396 -0.26902688
-0.13306186 0.0012555011 -0.26902696
-0.13305902 0.0013333336 -0.26902112
-0.13305601 0.0014132075 -0.26901725
-0.1330528 0.0014912132 -0.26901942
-0.13304903 0.0015733894 -0.26902947
-0.13304551 0.0016515236 -0.2690376
-0.13304251 0.0017313994 -0.26903373
-0.13304007 0.0018090587 -0.2690199
-0.13303743 0.0018868037 -0.26901007
-0.1330345 0.0019646809 -0.26900622
-0.13303071 0.0020449013 -0.26901832
-0.13302723 0.002126947 -0.26902241
-0.13302439 0.0022047795 -0.26901656
-0.13302137 0.0022826996 -0.26901472
-0.13301873 0.0023604464 -0.26900488
-0.13301648 0.0024380181 -0.26898706
-0.13301328 0.0025179796 -0.26898718
-0.13300969 0.0025981143 -0.26899529
-0.13300696 0.002675904 -0.26898745
-0.13300413 0.0027537346 -0.26898164
-0.13300101 0.0028336532 -0.26897973
-0.13299829 0.0029114448 -0.26897192
-0.13299544 0.0029892754 -0.26896608
-0.13299188 0.003071364 -0.26897213
-0.13298894 0.0031492412 -0.26896828
-0.13298641 0.0032269415 -0.26895645
-0.13298357 0.0033047758 -0.26895064
-0.13298008 0.0033848677 -0.26895672
-0.13297658 0.0034649577 -0.26896283
-0.13297385 0.0035427455 -0.26895499
-0.13297121 0.0036204923 -0.26894516
-0.13296859 0.0037001949 -0.2689333
-0.13296576 0.0037780274 -0.26892745
-0.13296236 0.0038580727 -0.26893157
-0.13295896 0.0039381217 -0.26893568
-0.13295583 0.0040160846 -0.26893583
-0.13295244 0.0040961318 -0.26893994
-0.13294914 0.0041761361 -0.26894206
-0.13294584 0.0042561404 -0.26894414
-0.13294262 0.004334148 -0.26894632
-0.1329397 0.0044139773 -0.26894045
-0.13293687 0.0044918098 -0.26893461
-0.13293386 0.0045716837 -0.2689307
-0.13293056 0.004651688 -0.26893282
-0.13292734 0.0047296938 -0.26893497
-0.13292414 0.0048096552 -0.26893508
-0.13292083 0.0048896596 -0.2689372
-0.1329177 0.0049676206 -0.26893735
-0.1329146 0.0050475392 -0.26893547
-0.13291207 0.0051252432 -0.26892364
-0.13290979 0.005200861 -0.26890787
-0.13290659 0.0052808207 -0.26890799
-0.13290299 0.0053609554 -0.26891607
-0.1328996 0.0054410025 -0.26892018
-0.13289611 0.0055210944 -0.26892629
-0.132893 0.0056010112 -0.26892442
-0.1328899 0.0056809299 -0.26892251
-0.1328862 0.0057611056 -0.26893261
-0.1328828 0.0058411527 -0.26893672
-0.13288017 0.0059188996 -0.26892689
-0.13287763 0.0059966035 -0.26891506
-0.13287489 0.0060743913 -0.26890725
-0.1328716 0.0061543956 -0.26890934
-0.1328682 0.0062344428 -0.26891345
-0.132865 0.0063144043 -0.26891357
-0.13286215 0.0063922368 -0.26890773
-0.13285932 0.0064700693 -0.26890188
-0.13285592 0.0065501183 -0.268906
-0.13285272 0.006630078 -0.26890612
-0.1328498 0.0067079533 -0.26890227
-0.13284668 0.0067878719 -0.26890039
-0.13284348 0.0068678334 -0.26890051
-0.13284045 0.0069457516 -0.26889867
-0.13283755 0.0070255827 -0.26889277
-0.13283452 0.0071035028 -0.26889095
-0.13283102 0.0071835928 -0.26889706
-0.13282773 0.0072635971 -0.26889914
-0.13282461 0.0073435158 -0.26889727
-0.13282178 0.0074213482 -0.26889142
-0.13281868 0.007501265 -0.26888955
-0.13281575 0.0075791422 -0.2688857
-0.13281311 0.007656889 -0.2688759
-0.13280971 0.0077369325 -0.26887998
-0.13280632 0.0078169815 -0.26888409
-0.13280341 0.0078968145 -0.26887822
-0.13280037 0.0079747345 -0.26887637
-0.13279717 0.0080546923 -0.26887649
-0.13279396 0.0081346538 -0.26887658
-0.13279077 0.0082146153 -0.2688767
-0.13278793 0.0082924478 -0.26887086
-0.1327851 0.0083702803 -0.26886505
-0.1327817 0.0084503274 -0.26886913
-0.13277784 0.0085325465 -0.2688812
-0.13277444 0.0086125936 -0.26888531
-0.13277189 0.0086902976 -0.26887348
-0.13276906 0.0087681301 -0.26886764
-0.13276577 0.0088481344 -0.26886976
-0.13276303 0.0089259241 -0.26886192
-0.13276039 0.0090036709 -0.26885208
-0.13275699 0.0090837181 -0.2688562
-0.1327536 0.0091637634 -0.26886028
-0.1327505 0.009243682 -0.2688584
-0.13274775 0.0093214735 -0.26885056
-0.13274466 0.0094013885 -0.26884869
-0.13274162 0.0094793066 -0.26884687
-0.13273889 0.0095570982 -0.26883903
-0.13273522 0.0096392315 -0.26884708
-0.13273115 0.0097215362 -0.26886311
-0.13272785 0.0098015405 -0.26886523
-0.13272549 0.0098772012 -0.26885146
-0.13272285 0.0099549461 -0.26884162
-0.13271974 0.010034863 -0.26883972
-0.13271682 0.01011274 -0.2688359
-0.13271427 0.010190444 -0.26882407
-0.13271137 0.010270273 -0.2688182
-0.13270767 0.010350453 -0.2688283
-0.13270418 0.010430543 -0.26883438
-0.13270137 0.010510329 -0.26882651
-0.13269816 0.010590291 -0.26882663
-0.13269533 0.010668125 -0.26882079
-0.1326924 0.010745998 -0.26881695
-0.132689 0.010826046 -0.26882106
-0.13268551 0.010906138 -0.26882717
-0.1326825 0.010986013 -0.26882327
-0.13267986 0.011063756 -0.26881346
-0.13267666 0.011143718 -0.26881355
-0.13267346 0.011223681 -0.26881367
-0.13267052 0.011301557 -0.26880983
-0.13266742 0.011381472 -0.26880795
-0.13266459 0.011459306 -0.26880211
-0.13266146 0.011537269 -0.26880229
-0.13265808 0.011619272 -0.26880434
-0.13265486 0.011697277 -0.26880649
-0.13265148 0.01177928 -0.26880854
-0.13264826 0.011857286 -0.26881072
-0.13483654 -0.037809916 -0.26459664
-0.1348339 -0.037732169 -0.26458681
-0.13483104 -0.037656292 -0.26458302
-0.13482802 -0.037578374 -0.26458117
-0.13482456 -0.037504189 -0.26459143
-0.13482101 -0.037429962 -0.26460364
-0.13481776 -0.037353911 -0.26460785
-0.13481461 -0.037279859 -0.26461211
-0.13481106 -0.037203677 -0.2646223
-0.1348078 -0.037129581 -0.26462853
-0.13480456 -0.037053529 -0.26463273
-0.13480142 -0.036977518 -0.26463494
-0.13479847 -0.036901597 -0.26463315
-0.13479532 -0.03682559 -0.26463532
-0.13479218 -0.036749579 -0.26463756
-0.13478932 -0.036673702 -0.26463377
-0.13478659 -0.036595911 -0.26462594
-0.13478385 -0.036518127 -0.2646181
-0.13478069 -0.036444068 -0.26462233
-0.13477693 -0.036369756 -0.26463857
-0.13477379 -0.036293749 -0.26464078
-0.13477054 -0.036217697 -0.26464498
-0.1347675 -0.036141731 -0.26464519
-0.13476506 -0.036064073 -0.26463136
-0.13476303 -0.035984632 -0.26460752
-0.13476036 -0.035908841 -0.26459971
-0.13475664 -0.035832569 -0.26461393
-0.13475348 -0.035758518 -0.26461816
-0.13475104 -0.03568086 -0.26460433
-0.13474809 -0.035604939 -0.26460254
-0.13474484 -0.035528883 -0.26460674
-0.1347418 -0.035452917 -0.26460695
-0.13473925 -0.035375215 -0.26459512
-0.13473681 -0.035297558 -0.26458129
-0.13473427 -0.035219856 -0.26456946
-0.13473152 -0.03514402 -0.26456368
-0.13472827 -0.035067968 -0.26456788
-0.13472503 -0.034991916 -0.26457208
-0.13472217 -0.03491604 -0.2645683
-0.13471985 -0.034836467 -0.26455045
-0.13471749 -0.034760807 -0.26453668
-0.13471475 -0.034683019 -0.26452881
-0.13471201 -0.034605227 -0.264521
-0.13470897 -0.034529261 -0.26452118
-0.13470602 -0.03445334 -0.26451939
-0.13470368 -0.034375727 -0.2645036
-0.13470075 -0.03429785 -0.26449975
-0.1346976 -0.034221843 -0.26450196
-0.13469526 -0.034144223 -0.26448613
-0.13469259 -0.034068435 -0.26447836
-0.13468976 -0.033990599 -0.26447251
-0.13468742 -0.033912987 -0.26445669
-0.13468488 -0.033835284 -0.26444489
-0.13468213 -0.033759449 -0.26443908
-0.13467909 -0.033681527 -0.26443726
-0.13467634 -0.033605691 -0.26443148
-0.13467361 -0.033527903 -0.26442364
-0.13467075 -0.033452023 -0.26441985
-0.13466761 -0.033376016 -0.26442206
-0.13466477 -0.033298183 -0.26441622
-0.13466202 -0.033222347 -0.26441044
-0.13465887 -0.03314634 -0.26441264
-0.13465545 -0.033070203 -0.26442084
-0.13465247 -0.032996237 -0.26442108
-0.13464925 -0.03291823 -0.26442322
-0.1346457 -0.032844 -0.26443547
-0.13464226 -0.032767862 -0.26444367
-0.1346388 -0.032693677 -0.26445389
-0.13463566 -0.032617673 -0.26445609
-0.13463232 -0.032541577 -0.26446229
-0.13462846 -0.032467216 -0.26448053
-0.13462511 -0.032393079 -0.26448876
-0.13462196 -0.032317072 -0.26449096
-0.13461863 -0.032240979 -0.26449716
-0.13461508 -0.032164793 -0.26450735
-0.13461183 -0.032090697 -0.26451358
-0.13460828 -0.032014515 -0.2645238
-0.13460435 -0.031940114 -0.26454401
-0.13460098 -0.031865977 -0.26455227
-0.13459726 -0.031789705 -0.26456642
-0.13459319 -0.031717218 -0.26459071
-0.13458936 -0.031640906 -0.26460689
-0.13458571 -0.031566635 -0.26462111
-0.13458176 -0.031492233 -0.26464134
-0.13457823 -0.031416051 -0.26465154
-0.13457566 -0.031340301 -0.26464176
-0.13457233 -0.031264208 -0.26464796
-0.13456848 -0.031189851 -0.26466617
-0.13456364 -0.031117015 -0.26470643
-0.13456059 -0.03104105 -0.26470661
-0.13455735 -0.030964999 -0.26471081
-0.13455361 -0.030888731 -0.264725
-0.13454987 -0.030814417 -0.26474124
-0.13454591 -0.030741971 -0.2647635
-0.13454166 -0.030667439 -0.26478973
-0.13453813 -0.030591259 -0.26479989
-0.13453418 -0.030516857 -0.26482013
-0.13453034 -0.0304425 -0.26483837
-0.1345261 -0.03036797 -0.26486456
-0.13452154 -0.030295264 -0.26489884
-0.13451622 -0.030222211 -0.26494905
-0.13451177 -0.030149549 -0.2649813
-0.13450782 -0.03007515 -0.26500154
-0.13450387 -0.030000748 -0.26502177
-0.13449995 -0.029924393 -0.26503992
-0.1344962 -0.029850081 -0.26505616
-0.13449197 -0.029775549 -0.26508239
-0.13448751 -0.029702887 -0.26511464
-0.13448317 -0.029628312 -0.26514286
-0.13447925 -0.029551957 -0.26516104
-0.1344748 -0.029479295 -0.26519328
-0.13446976 -0.029406372 -0.26523751
-0.13446492 -0.029333536 -0.26527777
-0.13446009 -0.029258745 -0.26531595
-0.13445514 -0.029185867 -0.26535821
-0.1344506 -0.029113159 -0.26539245
-0.13444607 -0.0290385 -0.26542467
-0.13444182 -0.028963968 -0.26545087
-0.1344377 -0.028889481 -0.26547509
-0.13443257 -0.02881456 -0.26551926
-0.13442853 -0.028740115 -0.26554149
-0.13442528 -0.028664066 -0.2655457
-0.13441955 -0.028592793 -0.26560596
-0.13441293 -0.028521132 -0.26568419
-0.1344083 -0.028446428 -0.2657184
-0.13440317 -0.028373461 -0.26576462
-0.13439605 -0.028303538 -0.2658549
-0.13310534 0.00015086774 -0.26904175
-0.13310251 0.00022870116 -0.26903591
-0.13309968 0.00030653365 -0.26903006
-0.13309638 0.00038653798 -0.26903218
-0.13309288 0.00046662893 -0.26903829
-0.13308966 0.00054463465 -0.26904044
-0.13308702 0.00062238052 -0.26903063
-0.13308391 0.00070229918 -0.26902872
-0.13308032 0.00078243203 -0.26903683
-0.1330774 0.00086030923 -0.26903298
-0.13307515 0.00093788095 -0.26901516
-0.13307232 0.0010157153 -0.26900935
-0.13306873 0.0010958482 -0.26901746
-0.13306513 0.0011759829 -0.26902553
-0.13306193 0.0012559444 -0.26902565
-0.13305908 0.0013337769 -0.26901981
-0.13305609 0.0014136508 -0.26901594
-0.13305286 0.0014916584 -0.26901808
-0.1330491 0.0015738327 -0.26902813
-0.13304558 0.0016519669 -0.26903629
-0.13304266 0.0017317999 -0.26903039
-0.13304013 0.001809502 -0.26901859
-0.13303758 0.0018872041 -0.26900673
-0.13303466 0.0019650795 -0.26900291
-0.13303077 0.0020453446 -0.26901701
-0.1330273 0.0021273904 -0.26902106
-0.13302447 0.0022052228 -0.26901522
-0.13302144 0.0022831429 -0.2690134
-0.13301881 0.0023608897 -0.26900357
-0.13301656 0.0024384614 -0.26898575
-0.13301335 0.0025184229 -0.26898587
-0.13300966 0.0025986005 -0.26899594
-0.13300693 0.0026763901 -0.26898813
-0.1330041 0.0027542226 -0.26898229
-0.13300098 0.0028341394 -0.26898038
-0.13299835 0.0029118862 -0.26897058
-0.13299552 0.0029897206 -0.26896474
-0.13299194 0.0030718073 -0.26897079
-0.13298891 0.0031497274 -0.26896897
-0.13298647 0.0032273866 -0.26895514
-0.13298355 0.0033052638 -0.2689513
-0.13298005 0.0033853538 -0.26895741
-0.13297665 0.003465401 -0.26896152
-0.13297391 0.0035431907 -0.26895368
-0.13297127 0.0036209375 -0.26894385
-0.13296847 0.0037007239 -0.26893598
-0.13296573 0.0037785135 -0.26892814
-0.13296233 0.0038585607 -0.26893225
-0.13295904 0.003938565 -0.26893437
-0.13295591 0.0040165279 -0.26893452
-0.13295241 0.0040966198 -0.26894063
-0.13294901 0.004176667 -0.26894471
-0.13294581 0.0042566266 -0.26894483
-0.13294269 0.0043345895 -0.26894498
-0.13293968 0.0044144653 -0.2689411
-0.13293694 0.0044922549 -0.26893327
-0.13293393 0.004572127 -0.26892939
-0.13293064 0.0046521313 -0.26893151
-0.13292742 0.0047301389 -0.26893365
-0.13292421 0.0048101004 -0.26893377
-0.13292082 0.0048901457 -0.26893789
-0.13291758 0.0049681515 -0.26894003
-0.13291459 0.0050480273 -0.26893616
-0.13291214 0.0051256865 -0.26892233
-0.13290988 0.0052013043 -0.26890653
-0.13290657 0.0052813087 -0.26890865
-0.13290308 0.0053613987 -0.26891476
-0.13289967 0.0054414459 -0.26891887
-0.13289608 0.0055215806 -0.26892698
-0.13289298 0.0056014992 -0.26892507
-0.13288988 0.0056814142 -0.26892319
-0.13288619 0.0057615936 -0.2689333
-0.13288279 0.0058416408 -0.26893738
-0.13288024 0.0059193447 -0.26892555
-0.13287771 0.005997045 -0.26891375
-0.13287488 0.0060748793 -0.2689079
-0.13287157 0.0061548837 -0.26891002
-0.13286828 0.006234888 -0.26891214
-0.13286507 0.0063148476 -0.26891223
-0.13286224 0.0063926801 -0.26890641
-0.13285941 0.0064705145 -0.26890057
-0.13285601 0.0065505635 -0.26890469
-0.1328527 0.0066305641 -0.26890677
-0.13284987 0.0067083985 -0.26890093
-0.13284677 0.0067883171 -0.26889905
-0.13284346 0.0068683196 -0.26890117
-0.13284054 0.0069461968 -0.26889732
-0.13283762 0.0070260279 -0.26889145
-0.1328346 0.0071039461 -0.26888961
-0.13283111 0.0071840361 -0.26889572
-0.13282764 0.0072660819 -0.26889977
-0.1328246 0.0073440019 -0.26889795
-0.13282187 0.0074217916 -0.26889008
-0.13281867 0.007501753 -0.2688902
-0.13281584 0.0075795855 -0.26888436
-0.13281302 0.0076593719 -0.26887649
-0.1328098 0.0077373777 -0.26887864
-0.13280641 0.0078174267 -0.26888275
-0.1328034 0.0078973025 -0.26887888
-0.13280046 0.0079751778 -0.26887503
-0.13279726 0.0080551356 -0.26887515
-0.13279396 0.0081351418 -0.26887727
-0.13279076 0.0082151033 -0.26887739
-0.13278802 0.0082928911 -0.26886955
-0.13278519 0.0083707236 -0.26886371
-0.1327817 0.0084508155 -0.26886982
-0.13277782 0.0085330363 -0.26888186
-0.13277453 0.0086130388 -0.26888397
-0.13277189 0.0086907856 -0.26887414
-0.13276915 0.0087685753 -0.2688663
-0.13276576 0.0088486224 -0.26887041
-0.13276303 0.0089264121 -0.26886258
-0.13276039 0.009004157 -0.26885274
-0.13275699 0.0090842042 -0.26885685
-0.1327536 0.0091642514 -0.26886097
-0.13275059 0.0092441272 -0.26885706
-0.13274775 0.0093219597 -0.26885125
-0.13274464 0.0094018765 -0.26884937
-0.13274162 0.0094797947 -0.26884753
-0.13273889 0.0095575862 -0.26883969
-0.13273521 0.0096397195 -0.26884773
-0.13273115 0.0097220223 -0.26886377
-0.13272785 0.0098020285 -0.26886588
-0.13272549 0.0098776892 -0.26885211
-0.13272294 0.0099553932 -0.26884028
-0.13271974 0.010035351 -0.2688404
-0.13271682 0.010113228 -0.26883656
-0.13271438 0.010190887 -0.26882273
-0.13271163 0.010268677 -0.26881492
-0.13270777 0.010350896 -0.26882696
-0.13270427 0.010430988 -0.26883304
-0.13270146 0.010510776 -0.26882517
-0.13269827 0.010590736 -0.26882529
-0.13269523 0.010668656 -0.26882344
-0.1326924 0.010746486 -0.26881763
-0.132689 0.010826536 -0.26882172
-0.13268551 0.010906626 -0.26882783
-0.13268259 0.010986459 -0.26882195
-0.13267995 0.011064203 -0.26881212
-0.13267675 0.011144163 -0.26881224
-0.13267356 0.011224125 -0.26881236
-0.13267063 0.011302002 -0.26880848
-0.13266753 0.011381919 -0.26880661
-0.13266459 0.011459794 -0.26880276
-0.13266139 0.011539755 -0.26880288
-0.13265808 0.011619762 -0.268805
-0.13265496 0.011697724 -0.26880515
-0.13265149 0.011779768 -0.26880923
-0.13264808 0.011859816 -0.26881331
-0.13483422 -0.037810892 -0.26459637
-0.13483158 -0.037733145 -0.26458657
-0.13482872 -0.037657268 -0.26458275
-0.1348258 -0.037579391 -0.26457894
-0.13482234 -0.037505209 -0.26458916
-0.13481867 -0.037430935 -0.26460341
-0.13481544 -0.037354887 -0.26460761
-0.13481227 -0.037280828 -0.26461184
-0.13480884 -0.03720469 -0.26462004
-0.13480547 -0.037130553 -0.26462829
-0.13480224 -0.037054501 -0.26463249
-0.13479918 -0.036978535 -0.2646327
-0.13479623 -0.036902614 -0.26463091
-0.134793 -0.036826566 -0.26463509
-0.13478985 -0.036750555 -0.26463729
-0.13478699 -0.036674678 -0.26463351
-0.13478427 -0.036596887 -0.26462567
-0.1347816 -0.036521096 -0.26461789
-0.13477837 -0.036445044 -0.26462209
-0.1347748 -0.036370814 -0.26463431
-0.13477157 -0.036294766 -0.26463854
-0.13476822 -0.036218669 -0.26464474
-0.13476518 -0.036142703 -0.26464492
-0.13476284 -0.036065087 -0.26462913
-0.1347608 -0.035985649 -0.26460525
-0.13475814 -0.035909858 -0.26459748
-0.13475442 -0.03583359 -0.26461166
-0.13475125 -0.035759535 -0.26461589
-0.1347488 -0.035681874 -0.26460209
-0.13474585 -0.035605952 -0.26460028
-0.13474262 -0.035529904 -0.26460448
-0.13473956 -0.035453938 -0.26460469
-0.13473693 -0.035376191 -0.26459485
-0.13473448 -0.035298534 -0.26458105
-0.13473204 -0.035220873 -0.26456723
-0.13472919 -0.035144992 -0.26456344
-0.13472596 -0.03506894 -0.26456764
-0.13472271 -0.034992889 -0.26457185
-0.13471995 -0.034917057 -0.26456606
-0.13471763 -0.034837484 -0.26454818
-0.1347151 -0.034759782 -0.26453638
-0.13471253 -0.034684032 -0.26452658
-0.1347097 -0.0346062 -0.26452073
-0.13470665 -0.034530237 -0.26452094
-0.1347037 -0.034454316 -0.26451916
-0.13470136 -0.034376699 -0.26450333
-0.13469842 -0.034298822 -0.26449949
-0.13469528 -0.034222815 -0.26450169
-0.13469303 -0.034145243 -0.26448387
-0.1346903 -0.034067452 -0.26447606
-0.13468754 -0.03399162 -0.26447028
-0.1346852 -0.033914 -0.26445445
-0.13468266 -0.033836298 -0.26444262
-0.1346799 -0.033760466 -0.26443684
-0.13467698 -0.033682585 -0.26443303
-0.13467412 -0.033606708 -0.26442921
-0.13467129 -0.033528879 -0.26442337
-0.13466844 -0.033452995 -0.26441959
-0.13466538 -0.033377033 -0.26441979
-0.13466255 -0.0332992 -0.26441395
-0.1346598 -0.033223365 -0.26440817
-0.13465676 -0.033147402 -0.26440838
-0.13465323 -0.03307122 -0.26441857
-0.13465016 -0.032997206 -0.26442081
-0.13464694 -0.032919198 -0.26442298
-0.13464348 -0.032845017 -0.26443321
-0.13463993 -0.032768838 -0.2644434
-0.13463658 -0.032694697 -0.26445165
-0.13463333 -0.032618646 -0.26445585
-0.1346301 -0.032542594 -0.26446006
-0.13462634 -0.032468278 -0.26447627
-0.13462281 -0.032392099 -0.26448646
-0.13461965 -0.032318044 -0.26449072
-0.1346164 -0.032241993 -0.26449493
-0.13461287 -0.03216581 -0.26450509
-0.13460961 -0.032091714 -0.26451135
-0.13460608 -0.032015532 -0.26452154
-0.13460203 -0.031941086 -0.26454377
-0.13459867 -0.031866945 -0.264552
-0.13459493 -0.031790681 -0.26456618
-0.13459088 -0.031718187 -0.26459044
-0.13458705 -0.031641878 -0.26460662
-0.13458349 -0.031567648 -0.26461887
-0.13457955 -0.03149325 -0.26463911
-0.13457611 -0.031417113 -0.26464731
-0.13457336 -0.031341277 -0.26464149
-0.13457012 -0.031265222 -0.2646457
-0.13456617 -0.031190824 -0.26466593
-0.13456142 -0.031118032 -0.26470417
-0.13455828 -0.031042023 -0.26470637
-0.13455524 -0.030966058 -0.26470658
-0.1345513 -0.030889705 -0.26472476
-0.13454756 -0.030815391 -0.26474097
-0.1345436 -0.030742943 -0.26476324
-0.13453946 -0.030668456 -0.26478747
-0.13453582 -0.030592231 -0.26479965
-0.13453197 -0.030517872 -0.26481789
-0.13452813 -0.030443516 -0.2648361
-0.13452388 -0.030368986 -0.26486233
-0.13451923 -0.030296236 -0.26489857
-0.13451391 -0.030223183 -0.26494882
-0.13450946 -0.030150522 -0.26498106
-0.1345056 -0.030076165 -0.26499927
-0.13450156 -0.03000172 -0.2650215
-0.13449773 -0.02992541 -0.26503769
-0.13449399 -0.029851096 -0.26505393
-0.13448974 -0.029776564 -0.26508012
-0.1344852 -0.029703859 -0.2651144
-0.13448097 -0.029629327 -0.26514059
-0.13447703 -0.029552974 -0.26515877
-0.13447258 -0.02948031 -0.26519102
-0.13446754 -0.029407389 -0.26523528
-0.13446254 -0.029332511 -0.26527748
-0.13445778 -0.029259717 -0.26531571
-0.13445285 -0.029186841 -0.26535794
-0.13444829 -0.029114131 -0.26539218
-0.13444376 -0.029039472 -0.2654244
-0.13443953 -0.02896494 -0.26545063
-0.13443539 -0.028890453 -0.26547486
-0.13443027 -0.028815532 -0.26551902
-0.13442633 -0.028741132 -0.26553926
-0.13442308 -0.028665081 -0.26554346
-0.13441727 -0.028591812 -0.26560366
-0.13441072 -0.028522149 -0.26568195
-0.134406 -0.028447401 -0.26571816
-0.13440086 -0.028374434 -0.26576439
-0.13439383 -0.028304555 -0.26585266
-0.13310027 0.00022772979 -0.26903567
-0.13309744 0.00030556228 -0.26902986
-0.13309415 0.00038556661 -0.26903194
-0.13309065 0.00046565756 -0.26903805
-0.13308752 0.00054362044 -0.2690382
-0.13308479 0.00062140822 -0.26903039
-0.13308178 0.00070128404 -0.26902652
-0.13307808 0.0007814616 -0.26903659
-0.13307516 0.00085933693 -0.26903278
-0.13307291 0.00093691051 -0.26901495
-0.13307008 0.001014743 -0.26900911
-0.13306649 0.0010948777 -0.26901722
-0.1330629 0.0011750106 -0.26902533
-0.1330597 0.0012549721 -0.26902542
-0.13305686 0.0013328046 -0.26901957
-0.13305385 0.0014126785 -0.2690157
-0.13305064 0.0014906861 -0.26901788
-0.13304687 0.0015728623 -0.26902789
-0.13304344 0.0016509537 -0.26903406
-0.13304044 0.0017308295 -0.26903018
-0.133038 0.0018084869 -0.26901636
-0.13303545 0.001886189 -0.26900452
-0.13303243 0.001964109 -0.26900268
-0.13302875 0.0020442884 -0.26901278
-0.13302524 0.0021243785 -0.26901889
-0.13302234 0.0022042077 -0.26901299
-0.1330193 0.0022821277 -0.26901117
-0.13301668 0.0023598745 -0.26900133
-0.13301432 0.002437491 -0.26898551
-0.13301112 0.0025174506 -0.26898563
-0.13300753 0.0025975853 -0.26899374
-0.1330047 0.0026754197 -0.26898789
-0.13300186 0.0027532522 -0.26898205
-0.13299876 0.002833169 -0.26898018
-0.13299613 0.0029109158 -0.26897034
-0.1329933 0.0029887483 -0.26896453
-0.13298972 0.003070835 -0.26897058
-0.13298678 0.0031487122 -0.26896673
-0.13298425 0.0032264143 -0.2689549
-0.13298142 0.0033042487 -0.26894906
-0.13297792 0.0033843406 -0.26895517
-0.13297443 0.0034644287 -0.26896128
-0.13297169 0.0035422184 -0.26895344
-0.13296916 0.0036199223 -0.26894161
-0.13296643 0.0036996659 -0.26893175
-0.1329636 0.0037774984 -0.26892591
-0.1329602 0.0038575456 -0.26893002
-0.1329568 0.0039375946 -0.26893413
-0.13295369 0.0040155556 -0.26893428
-0.13295038 0.0040955618 -0.2689364
-0.13294698 0.004175609 -0.26894051
-0.13294369 0.0042556133 -0.26894259
-0.13294046 0.004333619 -0.26894474
-0.13293755 0.0044134501 -0.2689389
-0.13293472 0.0044912845 -0.26893306
-0.13293189 0.004569117 -0.26892722
-0.13292859 0.0046491195 -0.26892933
-0.13292529 0.0047291238 -0.26893145
-0.13292199 0.00480913 -0.26893353
-0.13291869 0.0048891306 -0.26893562
-0.13291556 0.0049670935 -0.2689358
-0.13291246 0.0050470121 -0.26893392
-0.13290992 0.0051247161 -0.26892209
-0.13290766 0.0052003339 -0.26890633
-0.13290446 0.0052802935 -0.26890641
-0.13290085 0.0053604282 -0.26891452
-0.13289756 0.0054404326 -0.26891664
-0.13289396 0.0055205673 -0.26892474
-0.13289076 0.0056005269 -0.26892483
-0.13288775 0.0056804027 -0.26892096
-0.13288406 0.0057605803 -0.26893106
-0.13288076 0.0058405828 -0.26893318
-0.13287812 0.0059183296 -0.26892334
-0.13287559 0.0059960335 -0.26891151
-0.13287276 0.0060738642 -0.2689057
-0.13286945 0.0061538704 -0.26890779
-0.13286605 0.0062339157 -0.2689119
-0.13286285 0.006313879 -0.26891202
-0.13286012 0.0063916668 -0.26890418
-0.13285729 0.0064694993 -0.26889834
-0.1328539 0.0065495484 -0.26890245
-0.13285059 0.0066295508 -0.26890457
-0.13284765 0.0067074262 -0.26890072
-0.13284455 0.0067873448 -0.26889884
-0.13284135 0.0068673082 -0.26889893
-0.13283832 0.0069452263 -0.26889712
-0.13283542 0.0070250556 -0.26889122
-0.13283239 0.0071029756 -0.26888937
-0.132829 0.0071830247 -0.26889348
-0.1328256 0.00726307 -0.26889759
-0.13282248 0.0073429886 -0.26889572
-0.13281965 0.0074208211 -0.26888987
-0.13281655 0.0075007379 -0.268888
-0.13281362 0.0075786151 -0.26888415
-0.13281098 0.0076563619 -0.26887432
-0.13280758 0.0077364091 -0.26887843
-0.13280419 0.0078164563 -0.26888254
-0.13280128 0.0078962874 -0.26887667
-0.13279825 0.0079742074 -0.26887482
-0.13279505 0.008054167 -0.26887494
-0.13279185 0.0081341267 -0.26887503
-0.13278864 0.00821409 -0.26887515
-0.1327859 0.0082918797 -0.26886731
-0.13278298 0.008369755 -0.2688635
-0.13277958 0.0084498003 -0.26886758
-0.13277581 0.0085319784 -0.26887763
-0.13277231 0.0086120684 -0.26888373
-0.13276978 0.0086897705 -0.2688719
-0.13276695 0.008767603 -0.26886606
-0.13276364 0.0088476092 -0.26886821
-0.13276091 0.0089253988 -0.26886037
-0.13275827 0.0090031438 -0.26885054
-0.13275488 0.0090831909 -0.26885462
-0.13275148 0.0091632381 -0.26885873
-0.13274847 0.0092431139 -0.26885486
-0.13274564 0.0093209464 -0.26884902
-0.13274254 0.0094008632 -0.26884714
-0.1327395 0.0094787832 -0.26884529
-0.13273677 0.0095565729 -0.26883745
-0.13273311 0.0096387044 -0.2688455
-0.13272893 0.0097210538 -0.26886356
-0.13272575 0.0098010134 -0.26886368
-0.13272347 0.0098766312 -0.26884788
-0.13272083 0.009954378 -0.26883805
-0.13271764 0.010034338 -0.26883817
-0.1327147 0.010112215 -0.26883435
-0.13271226 0.010189874 -0.26882052
-0.13270943 0.010267707 -0.26881468
-0.13270566 0.010349885 -0.26882473
-0.13270217 0.010429973 -0.26883084
-0.13269933 0.010507805 -0.26882499
-0.13269605 0.010589767 -0.26882505
-0.13269322 0.0106676 -0.26881924
-0.1326903 0.010745473 -0.2688154
-0.1326869 0.010825522 -0.26881951
-0.1326834 0.010905614 -0.26882559
-0.13268049 0.010985445 -0.26881972
-0.13267785 0.011063188 -0.26880991
-0.13267463 0.011141196 -0.26881206
-0.13267143 0.011221157 -0.26881218
-0.13266842 0.011301033 -0.26880828
-0.13266531 0.011380948 -0.2688064
-0.13266248 0.011458781 -0.26880056
-0.13265936 0.011536743 -0.26880071
-0.13265598 0.011618746 -0.26880279
-0.13265276 0.011696752 -0.26880494
-0.13264938 0.011778755 -0.26880699
-0.13264598 0.011858802 -0.26881111
-0.13483199 -0.037811931 -0.26459637
-0.13482936 -0.037734184 -0.26458654
-0.13482651 -0.037658308 -0.26458275
-0.13482356 -0.037582386 -0.26458097
-0.13482012 -0.037506249 -0.26458916
-0.13481647 -0.037431978 -0.26460338
-0.13481323 -0.037355926 -0.26460758
-0.13480997 -0.037281826 -0.26461384
-0.13480653 -0.037205689 -0.26462203
-0.13480327 -0.037131593 -0.26462826
-0.13480003 -0.037055541 -0.26463246
-0.13479689 -0.036979534 -0.26463467
-0.13479394 -0.036903612 -0.26463288
-0.13479079 -0.036827601 -0.26463509
-0.13478763 -0.036751594 -0.26463729
-0.13478479 -0.036675714 -0.26463348
-0.13478206 -0.03659793 -0.26462567
-0.13477939 -0.036522135 -0.26461786
-0.13477616 -0.036446083 -0.26462209
-0.13477251 -0.036371812 -0.26463631
-0.13476926 -0.036295764 -0.26464051
-0.13476601 -0.036219709 -0.26464471
-0.13476297 -0.036143743 -0.26464492
-0.13476063 -0.03606613 -0.2646291
-0.13475859 -0.035986692 -0.26460522
-0.13475594 -0.035910897 -0.26459745
-0.13475221 -0.035834629 -0.26461163
-0.13474895 -0.035760529 -0.26461789
-0.13474651 -0.035682872 -0.26460406
-0.13474356 -0.035606951 -0.26460227
-0.13474031 -0.035530899 -0.26460648
-0.13473736 -0.035454974 -0.26460469
-0.13473472 -0.035377227 -0.26459485
-0.13473229 -0.035299573 -0.26458102
-0.13472974 -0.035221867 -0.26456922
-0.13472699 -0.035146035 -0.26456344
-0.13472375 -0.03506998 -0.26456761
-0.1347205 -0.034993932 -0.26457182
-0.13471775 -0.034918096 -0.26456603
-0.13471542 -0.034838527 -0.26454818
-0.13471289 -0.034760822 -0.26453635
-0.13471033 -0.034685075 -0.26452658
-0.1347075 -0.034607239 -0.26452073
-0.13470446 -0.034531277 -0.26452094
-0.13470151 -0.034455355 -0.26451916
-0.13469915 -0.034377739 -0.26450333
-0.13469623 -0.034299865 -0.26449949
-0.13469309 -0.034223855 -0.26450169
-0.13469084 -0.034146283 -0.26448387
-0.134688 -0.03406845 -0.26447803
-0.13468534 -0.033992656 -0.26447025
-0.13468291 -0.033914998 -0.26445645
-0.13468046 -0.033837341 -0.26444262
-0.1346776 -0.03376146 -0.26443881
-0.13467468 -0.033683583 -0.26443499
-0.13467182 -0.033607706 -0.26443121
-0.1346691 -0.033529915 -0.26442337
-0.13466623 -0.033454038 -0.26441959
-0.13466319 -0.033378072 -0.26441979
-0.13466026 -0.033300199 -0.26441595
-0.13465761 -0.033224404 -0.26440817
-0.13465446 -0.033148397 -0.26441038
-0.13465102 -0.033072259 -0.26441857
-0.13464786 -0.032998204 -0.2644228
-0.13464464 -0.032920197 -0.26442498
-0.13464119 -0.032846015 -0.2644352
-0.13463774 -0.032769877 -0.2644434
-0.13463429 -0.032695692 -0.26445362
-0.13463114 -0.032619685 -0.26445585
-0.1346278 -0.032543588 -0.26446202
-0.13462405 -0.032469273 -0.26447827
-0.13462062 -0.032393135 -0.26448646
-0.13461745 -0.032319084 -0.26449069
-0.13461411 -0.032242987 -0.26449689
-0.13461058 -0.032166809 -0.26450709
-0.13460732 -0.032092713 -0.26451331
-0.13460387 -0.032016572 -0.26452154
-0.13459983 -0.031942129 -0.26454374
-0.13459647 -0.031867988 -0.264552
-0.13459274 -0.031791721 -0.26456618
-0.13458869 -0.03171923 -0.26459044
-0.13458486 -0.031642921 -0.26460662
-0.13458121 -0.031568646 -0.26462084
-0.13457726 -0.031494249 -0.26464108
-0.13457382 -0.031418107 -0.26464927
-0.13457116 -0.031342316 -0.26464149
-0.13456783 -0.03126622 -0.26464769
-0.13456398 -0.031191865 -0.2646659
-0.13455923 -0.031119073 -0.26470417
-0.13455608 -0.031043064 -0.26470637
-0.13455305 -0.0309671 -0.26470655
-0.13454911 -0.030890744 -0.26472473
-0.13454537 -0.03081643 -0.26474097
-0.13454139 -0.030743983 -0.26476324
-0.13453726 -0.030669497 -0.26478747
-0.13453363 -0.030593272 -0.26479965
-0.13452968 -0.030518871 -0.26481986
-0.13452584 -0.030444514 -0.2648381
-0.13452169 -0.030370027 -0.26486233
-0.13451704 -0.030297279 -0.26489857
-0.13451172 -0.030224226 -0.26494879
-0.13450727 -0.030151563 -0.26498103
-0.13450332 -0.030077163 -0.26500127
-0.13449937 -0.030002762 -0.2650215
-0.13449554 -0.029926449 -0.26503769
-0.1344917 -0.029852092 -0.26505589
-0.13448747 -0.029777562 -0.26508212
-0.13448301 -0.0297049 -0.26511437
-0.13447867 -0.029630326 -0.26514259
-0.13447484 -0.029554015 -0.26515877
-0.13447039 -0.02948135 -0.26519102
-0.13446535 -0.029408429 -0.26523525
-0.13446042 -0.029335549 -0.2652775
-0.13445559 -0.029260758 -0.26531571
-0.13445066 -0.02918788 -0.26535794
-0.13444601 -0.029115129 -0.26539418
-0.13444157 -0.029040514 -0.2654244
-0.13443734 -0.028965982 -0.2654506
-0.13443319 -0.028891496 -0.26547483
-0.13442808 -0.028816573 -0.26551902
-0.13442403 -0.028742131 -0.26554126
-0.1344208 -0.028666079 -0.26554543
-0.13441508 -0.028592853 -0.26560366
-0.13440844 -0.028523145 -0.26568395
-0.13440381 -0.02844844 -0.26571813
-0.13439867 -0.028375477 -0.26576436
-0.13309816 0.00022668764 -0.2690357
-0.13309532 0.00030452106 -0.26902986
-0.13309212 0.00038448069 -0.26902997
-0.13308853 0.00046461634 -0.26903808
-0.13308541 0.00054257736 -0.2690382
-0.13308267 0.00062036887 -0.26903039
-0.13307966 0.00070024282 -0.26902652
-0.13307598 0.00078042038 -0.26903659
-0.13307305 0.00085829571 -0.26903278
-0.1330708 0.00093586929 -0.26901495
-0.13306797 0.0010137018 -0.26900911
-0.13306437 0.0010938365 -0.26901722
-0.13306078 0.0011739694 -0.26902533
-0.13305758 0.0012539309 -0.26902544
-0.13305475 0.0013317633 -0.2690196
-0.13305174 0.0014116392 -0.26901573
-0.13304852 0.0014896449 -0.26901788
-0.13304475 0.0015718192 -0.26902792
-0.13304123 0.0016499553 -0.26903605
-0.13303833 0.0017297864 -0.26903018
-0.13303578 0.0018074904 -0.26901835
-0.13303325 0.0018851925 -0.26900652
-0.13303031 0.0019630678 -0.26900271
-0.13302653 0.0020432901 -0.26901478
-0.13302304 0.0021233801 -0.26902092
-0.13302022 0.0022031665 -0.26901302
-0.1330172 0.0022810865 -0.26901117
-0.13301456 0.0023588333 -0.26900136
-0.13301222 0.0024364498 -0.26898554
-0.13300902 0.0025164112 -0.26898563
-0.13300543 0.0025965441 -0.26899374
-0.13300259 0.0026743785 -0.26898789
-0.13299985 0.0027521662 -0.26898009
-0.13299665 0.0028321277 -0.26898018
-0.13299401 0.0029098745 -0.26897037
-0.13299118 0.002987707 -0.26896453
-0.1329876 0.0030697957 -0.26897058
-0.13298458 0.0031477157 -0.26896876
-0.13298213 0.003225375 -0.26895493
-0.1329793 0.0033032075 -0.26894909
-0.13297582 0.0033832993 -0.2689552
-0.13297231 0.0034633894 -0.26896131
-0.13296959 0.003541179 -0.26895344
-0.13296695 0.0036189239 -0.26894364
-0.13296422 0.0036986694 -0.26893377
-0.1329615 0.003776459 -0.26892591
-0.1329581 0.0038565062 -0.26893002
-0.1329547 0.0039365515 -0.26893413
-0.13295157 0.0040145162 -0.26893431
-0.13294818 0.0040945653 -0.26893842
-0.13294488 0.0041745659 -0.26894051
-0.13294157 0.0042545721 -0.26894262
-0.13293836 0.0043325778 -0.26894477
-0.13293545 0.0044124108 -0.2689389
-0.13293262 0.0044902414 -0.26893306
-0.13292979 0.0045680758 -0.26892722
-0.13292648 0.0046480782 -0.26892933
-0.13292319 0.0047280844 -0.26893145
-0.13291988 0.0048080869 -0.26893353
-0.13291658 0.0048880912 -0.26893565
-0.13291337 0.004966097 -0.26893783
-0.13291036 0.0050459709 -0.26893392
-0.13290781 0.0051236749 -0.26892209
-0.13290554 0.0051992927 -0.26890633
-0.13290234 0.0052792542 -0.26890644
-0.13289875 0.005359387 -0.26891452
-0.13289545 0.0054393914 -0.26891667
-0.13289186 0.0055195261 -0.26892474
-0.13288866 0.0055994876 -0.26892486
-0.13288565 0.0056793597 -0.26892099
-0.13288195 0.0057595391 -0.26893106
-0.13287856 0.0058395863 -0.26893517
-0.13287602 0.0059172865 -0.26892334
-0.13287349 0.0059949905 -0.26891154
-0.13287066 0.006072823 -0.2689057
-0.13286735 0.0061528292 -0.26890782
-0.13286395 0.0062328745 -0.2689119
-0.13286075 0.006312836 -0.26891202
-0.13285802 0.0063906256 -0.26890418
-0.13285519 0.00646846 -0.26889837
-0.13285169 0.00654855 -0.26890445
-0.13284849 0.0066285096 -0.26890457
-0.13284557 0.0067063868 -0.26890072
-0.13284245 0.0067863055 -0.26889884
-0.13283925 0.0068662651 -0.26889896
-0.13283622 0.0069441851 -0.26889712
-0.13283332 0.0070240162 -0.26889125
-0.13283029 0.0071019363 -0.2688894
-0.13282679 0.0071820263 -0.26889551
-0.13282332 0.0072640702 -0.26889956
-0.13282038 0.0073419474 -0.26889572
-0.13281755 0.0074197799 -0.2688899
-0.13281445 0.0074996985 -0.268888
-0.13281152 0.0075775739 -0.26888418
-0.13280888 0.0076553207 -0.26887435
-0.13280548 0.007735366 -0.26887846
-0.13280208 0.007815415 -0.26888254
-0.13279918 0.0078952461 -0.26887667
-0.13279615 0.0079731662 -0.26887482
-0.13279295 0.0080531258 -0.26887494
-0.13278975 0.0081330873 -0.26887506
-0.13278654 0.0082130488 -0.26887515
-0.13278371 0.0082908813 -0.26886934
-0.13278088 0.0083687119 -0.2688635
-0.13277748 0.008448761 -0.26886761
-0.13277371 0.008530939 -0.26887766
-0.13277023 0.0086110272 -0.26888376
-0.13276768 0.0086887293 -0.26887193
-0.13276485 0.0087665636 -0.26886609
-0.13276155 0.0088465679 -0.26886821
-0.13275881 0.0089243576 -0.26886037
-0.13275617 0.0090021025 -0.26885054
-0.13275269 0.0090821944 -0.26885664
-0.13274938 0.0091621988 -0.26885876
-0.13274628 0.0092421155 -0.26885688
-0.13274354 0.0093199052 -0.26884905
-0.13274044 0.009399822 -0.26884717
-0.13273741 0.009477742 -0.26884532
-0.13273467 0.0095555298 -0.26883748
-0.13273101 0.009637665 -0.26884553
-0.13272685 0.0097200125 -0.26886356
-0.13272364 0.009799974 -0.26886368
-0.13272138 0.0098755918 -0.26884791
-0.13271874 0.0099533387 -0.26883808
-0.13271554 0.010033298 -0.2688382
-0.13271262 0.010111174 -0.26883435
-0.13271017 0.010188833 -0.26882052
-0.13270734 0.010266667 -0.26881471
-0.13270347 0.010348886 -0.26882675
-0.13270007 0.010428932 -0.26883087
-0.13269724 0.010506766 -0.26882502
-0.13269396 0.010588726 -0.26882508
-0.13269113 0.010666557 -0.26881927
-0.13268819 0.010744432 -0.2688154
-0.1326848 0.010824481 -0.26881951
-0.13268131 0.010904573 -0.26882562
-0.1326783 0.010984447 -0.26882175
-0.13267566 0.011062192 -0.26881191
-0.13267246 0.011142153 -0.26881203
-0.13266933 0.011220116 -0.26881218
-0.13266633 0.01129999 -0.26880831
-0.13266322 0.011379907 -0.2688064
-0.13266039 0.011457741 -0.26880059
-0.13265727 0.011535704 -0.26880074
-0.13265389 0.011617705 -0.26880279
-0.13265067 0.011695713 -0.26880497
-0.13264729 0.011777714 -0.26880702
-0.13264389 0.011857761 -0.26881111
-0.13483372 -0.037809998 -0.26459622
-0.13483109 -0.037732251 -0.26458639
-0.13482824 -0.037656374 -0.2645826
-0.13482529 -0.037580453 -0.26458082
-0.13482176 -0.037504271 -0.26459101
-0.1348182 -0.037430044 -0.26460323
-0.13481495 -0.037353992 -0.26460743
-0.1348117 -0.037279896 -0.26461369
-0.13480833 -0.037205756 -0.26462191
-0.13480489 -0.037129618 -0.26463011
-0.13480166 -0.037053566 -0.26463431
-0.1347986 -0.036977597 -0.26463452
-0.13479565 -0.036901675 -0.26463273
-0.13479251 -0.036825672 -0.26463494
-0.13478936 -0.036749661 -0.26463711
-0.13478652 -0.036673784 -0.26463336
-0.13478377 -0.036595993 -0.26462552
-0.13478112 -0.036520205 -0.26461774
-0.13477787 -0.03644415 -0.26462194
-0.13477412 -0.036369838 -0.26463816
-0.13477089 -0.036293786 -0.26464236
-0.13476774 -0.036217779 -0.26464456
-0.13476469 -0.036141813 -0.26464477
-0.13476224 -0.036064155 -0.26463094
-0.13476011 -0.035984673 -0.2646091
-0.13475746 -0.035908878 -0.26460129
-0.1347539 -0.035834651 -0.26461354
-0.13475066 -0.0357586 -0.26461774
-0.13474822 -0.035680939 -0.26460391
-0.13474527 -0.035605017 -0.26460212
-0.13474202 -0.035528969 -0.26460633
-0.13473897 -0.035452999 -0.26460654
-0.13473633 -0.035375252 -0.2645967
-0.13473399 -0.03529764 -0.26458091
-0.13473135 -0.035219893 -0.26457107
-0.1347286 -0.035144057 -0.26456529
-0.13472545 -0.03506805 -0.26456746
-0.13472211 -0.034991957 -0.26457369
-0.13471936 -0.034916122 -0.26456788
-0.13471703 -0.034836549 -0.26455003
-0.13471466 -0.034760889 -0.26453626
-0.13471194 -0.034683097 -0.26452842
-0.1347091 -0.034605265 -0.26452258
-0.13470615 -0.034529343 -0.26452079
-0.1347032 -0.034453422 -0.26451901
-0.13470076 -0.034375764 -0.26450518
-0.13469782 -0.034297887 -0.26450133
-0.13469477 -0.034221925 -0.26450154
-0.13469243 -0.034144308 -0.26448572
-0.13468967 -0.034068473 -0.26447994
-0.13468695 -0.033990681 -0.26447213
-0.1346845 -0.033913024 -0.2644583
-0.13468206 -0.033835363 -0.26444447
-0.1346793 -0.033759527 -0.26443869
-0.13467628 -0.033681609 -0.26443684
-0.13467352 -0.033605773 -0.26443106
-0.13467069 -0.033527941 -0.26442522
-0.13466783 -0.033452064 -0.26442143
-0.13466479 -0.033376098 -0.26442164
-0.13466196 -0.033298261 -0.2644158
-0.1346592 -0.033222429 -0.26441002
-0.13465606 -0.033146422 -0.26441222
-0.13465261 -0.033070285 -0.26442042
-0.13464954 -0.032996275 -0.26442266
-0.13464633 -0.032918267 -0.26442483
-0.13464287 -0.032844082 -0.26443505
-0.13463932 -0.032767903 -0.26444525
-0.13463597 -0.032693759 -0.26445347
-0.13463283 -0.032617755 -0.26445568
-0.13462938 -0.032541614 -0.2644639
-0.13462563 -0.032467298 -0.26448011
-0.13462228 -0.032393161 -0.26448834
-0.13461913 -0.032317154 -0.26449054
