# .PCD v0.7 - Point Cloud Data file format
VERSION 0.7
FIELDS x y z
SIZE 4 4 4
TYPE F F F
COUNT 1 1 1
WIDTH 1269
HEIGHT 1
VIEWPOINT 0 0 0 1 0 0 0
POINTS 1269
DATA ascii
-0.094390325 -0.05960504 -0.26820993
-0.094387308 -0.059527118 -0.26820809
-0.094384104 -0.05944911 -0.26821023
-0.094380893 -0.059371106 -0.26821241
-0.094377406 -0.059291013 -0.26821852
-0.094374098 -0.059212964 -0.26822263
-0.094371088 -0.059135042 -0.26822081
-0.094367795 -0.059055038 -0.26822293
-0.094364882 -0.058977161 -0.26821908
-0.094362058 -0.058899328 -0.26821324
-0.094358951 -0.058821365 -0.26821339
-0.09435574 -0.058743358 -0.26821554
-0.094352454 -0.058663353 -0.26821765
-0.094349436 -0.058585435 -0.26821581
-0.094346635 -0.058505647 -0.26820794
-0.094344109 -0.058427945 -0.26819611
-0.094341092 -0.058350023 -0.26819426
-0.094337806 -0.058270019 -0.26819634
-0.094334885 -0.058192141 -0.26819253
-0.094331682 -0.058114134 -0.26819468
-0.094327979 -0.05803591 -0.2682068
-0.094324768 -0.057957903 -0.26820898
-0.094321363 -0.057879809 -0.26821512
-0.094318271 -0.057799894 -0.26821321
-0.094315842 -0.057722233 -0.26819938
-0.094313242 -0.057642534 -0.26818752
-0.094310224 -0.057564612 -0.26818568
-0.094306529 -0.057486389 -0.26819783
-0.094303124 -0.057408296 -0.26820397
-0.094300032 -0.057328377 -0.26820207
-0.094297014 -0.057250459 -0.26820022
-0.094293706 -0.057172406 -0.26820439
-0.094290398 -0.057094358 -0.26820853
-0.094287477 -0.057016481 -0.26820469
-0.094284683 -0.056936692 -0.26819682
-0.094281763 -0.056858815 -0.26819298
-0.094278648 -0.056780852 -0.26819313
-0.094275653 -0.056700978 -0.26818925
-0.094273224 -0.056623317 -0.26817542
-0.094270132 -0.056543402 -0.26817352
-0.094266437 -0.056465179 -0.26818568
-0.094263032 -0.056387082 -0.26819181
-0.094260015 -0.056309164 -0.26818997
-0.094256803 -0.056231156 -0.26819211
-0.094253324 -0.056151066 -0.26819822
-0.094249919 -0.056072973 -0.26820436
-0.094246998 -0.055995096 -0.26820052
-0.094244294 -0.055915352 -0.26819065
-0.094241768 -0.05583765 -0.26817882
-0.094238661 -0.055759683 -0.26817897
-0.094235152 -0.055681549 -0.26818714
-0.094232045 -0.055603586 -0.26818728
-0.094228953 -0.055523667 -0.26818538
-0.094226032 -0.05544579 -0.26818156
-0.094223231 -0.055366002 -0.26817366
-0.094219923 -0.055287953 -0.26817781
-0.094216324 -0.055209771 -0.26818797
-0.094213307 -0.055131853 -0.26818612
-0.094210491 -0.055054016 -0.26818028
-0.094207399 -0.054974101 -0.2681784
-0.094204284 -0.054896139 -0.26817855
-0.094201073 -0.054818131 -0.2681807
-0.094197787 -0.054738127 -0.26818281
-0.094194867 -0.05466025 -0.26817897
-0.094192147 -0.054582458 -0.26817113
-0.094189033 -0.054504495 -0.26817128
-0.094185725 -0.054426447 -0.26817545
-0.094182342 -0.054346398 -0.26817954
-0.094179034 -0.054268349 -0.26818371
-0.094176136 -0.054188516 -0.26817781
-0.094173707 -0.054110859 -0.26816398
-0.09417069 -0.054032937 -0.26816213
-0.094167285 -0.053954843 -0.26816827
-0.094163999 -0.053874839 -0.26817039
-0.094160981 -0.053796917 -0.26816854
-0.094158165 -0.053719085 -0.26816273
-0.094154954 -0.053641077 -0.26816487
-0.094151571 -0.053561032 -0.26816899
-0.094148651 -0.053483155 -0.26816514
-0.094145834 -0.053405322 -0.26815927
-0.094142936 -0.053325489 -0.2681534
-0.094139919 -0.053247571 -0.26815158
-0.094136707 -0.053169563 -0.26815373
-0.094133601 -0.053091601 -0.26815388
-0.094130605 -0.053011727 -0.26814997
-0.094127685 -0.052933849 -0.26814616
-0.094124474 -0.052855842 -0.2681483
-0.0941208 -0.052775662 -0.26815838
-0.094117492 -0.052697614 -0.26816255
-0.094114475 -0.052619692 -0.2681607
-0.094111383 -0.052539777 -0.26815879
-0.094108656 -0.052461985 -0.26815099
-0.09410584 -0.052384153 -0.26814514
-0.094102629 -0.052306145 -0.26814729
-0.094099537 -0.052226231 -0.26814541
-0.094096228 -0.052148178 -0.26814955
-0.094093114 -0.052070215 -0.2681497
-0.09409032 -0.051990427 -0.26814184
-0.094087303 -0.051912509 -0.26813999
-0.094083801 -0.051834371 -0.26814812
-0.094080783 -0.051756449 -0.26814628
-0.094077885 -0.05167662 -0.26814041
-0.094074972 -0.051598743 -0.26813656
-0.094071567 -0.051520649 -0.2681427
-0.094067886 -0.05144047 -0.2681528
-0.094064772 -0.051362507 -0.26815295
-0.094061956 -0.051284675 -0.26814711
-0.094058864 -0.051204756 -0.26814523
-0.094055943 -0.051126879 -0.26814139
-0.094052829 -0.051048916 -0.26814157
-0.094049543 -0.050968911 -0.26814365
-0.094046332 -0.050890904 -0.2681458
-0.094043121 -0.0508129 -0.26814795
-0.094040208 -0.050735023 -0.26814413
-0.094037503 -0.050655276 -0.26813424
-0.09403488 -0.050577533 -0.2681244
-0.09403196 -0.050499655 -0.26812059
-0.094028771 -0.050419692 -0.26812068
-0.09402556 -0.050341688 -0.26812282
-0.094022155 -0.050263591 -0.26812899
-0.094018579 -0.050183456 -0.26813707
-0.094015367 -0.050105453 -0.26813924
-0.094012447 -0.050027575 -0.2681354
-0.094009355 -0.049947657 -0.26813349
-0.094006345 -0.049869739 -0.26813167
-0.09400323 -0.049791772 -0.26813182
-0.094000116 -0.049713809 -0.26813197
-0.09399683 -0.049633805 -0.26813406
-0.093993522 -0.049555756 -0.26813823
-0.093990721 -0.049475968 -0.26813033
-0.093988389 -0.049398351 -0.26811451
-0.093985274 -0.049320389 -0.26811469
-0.093981892 -0.04924034 -0.26811877
-0.093978971 -0.049162462 -0.26811492
-0.093976252 -0.049084675 -0.26810712
-0.093973041 -0.049006667 -0.26810926
-0.093969464 -0.048926532 -0.26811737
-0.093965955 -0.048848394 -0.2681255
-0.093962863 -0.048768476 -0.2681236
-0.09395995 -0.048690602 -0.26811975
-0.093956932 -0.04861268 -0.26811793
-0.093953744 -0.048532721 -0.26811802
-0.093950629 -0.048454754 -0.2681182
-0.093947813 -0.048376922 -0.26811236
-0.093944721 -0.048297003 -0.26811045
-0.09394151 -0.048218999 -0.26811263
-0.093938395 -0.048141036 -0.26811278
-0.093935303 -0.048061118 -0.26811087
-0.093932286 -0.047983196 -0.26810902
-0.093929194 -0.047903281 -0.26810715
-0.093926281 -0.047825404 -0.2681033
-0.093923166 -0.047747441 -0.26810348
-0.093920246 -0.047669563 -0.26809964
-0.093917355 -0.04758973 -0.26809373
-0.093914144 -0.047511727 -0.26809591
-0.093910657 -0.047431633 -0.26810199
-0.093907058 -0.047353454 -0.26811212
-0.093903966 -0.047273535 -0.26811025
-0.093901441 -0.047195833 -0.26809841
-0.093898818 -0.047118086 -0.26808858
-0.093896188 -0.04704034 -0.26807877
-0.093892589 -0.046962157 -0.26808891
-0.093889497 -0.046882242 -0.26808703
-0.093885802 -0.046804018 -0.26809916
-0.093882121 -0.046723839 -0.26810926
-0.093878537 -0.046643704 -0.26811734
-0.093875721 -0.046565872 -0.2681115
-0.093872905 -0.046488039 -0.26810566
-0.093870275 -0.046410292 -0.26809585
-0.093866989 -0.046330288 -0.26809794
-0.093863681 -0.046252236 -0.26810211
-0.093860865 -0.046174403 -0.26809627
-0.093858063 -0.046094615 -0.26808837
-0.093854658 -0.046016522 -0.26809451
-0.093851075 -0.045936387 -0.26810262
-0.093848161 -0.04585851 -0.26809877
-0.093844965 -0.04577855 -0.26809889
-0.093841858 -0.045700587 -0.26809904
-0.093838938 -0.04562271 -0.2680952
-0.093836039 -0.045542877 -0.26808932
-0.093832925 -0.045464914 -0.26808947
-0.093829721 -0.04538691 -0.26809162
-0.09382692 -0.045307122 -0.26808375
-0.093824394 -0.045229416 -0.26807192
-0.093821205 -0.045149457 -0.26807204
-0.093817897 -0.045071408 -0.26807618
-0.093814492 -0.044993311 -0.26808232
-0.093811102 -0.044913262 -0.26808643
-0.093808092 -0.044835344 -0.26808459
-0.093805 -0.044755425 -0.26808268
-0.093801983 -0.044677507 -0.26808086
-0.093798496 -0.044597417 -0.26808694
-0.09379492 -0.044517279 -0.26809505
-0.093791805 -0.044439316 -0.2680952
-0.093789376 -0.044361658 -0.26808137
-0.093786657 -0.044283867 -0.26807356
-0.093783364 -0.044203863 -0.26807564
-0.093780056 -0.044125814 -0.26807979
-0.09377677 -0.044045806 -0.2680819
-0.093773656 -0.043967843 -0.26808205
-0.093770936 -0.043890055 -0.26807421
-0.093767747 -0.043810092 -0.26807433
-0.093764439 -0.043732043 -0.26807848
-0.093760952 -0.043651953 -0.26808459
-0.09375757 -0.043571904 -0.2680887
-0.093754552 -0.043493982 -0.26808685
-0.093751736 -0.04341615 -0.26808101
-0.09374921 -0.043338448 -0.26806918
-0.093746021 -0.043258488 -0.2680693
-0.093742438 -0.04317835 -0.26807737
-0.093739226 -0.043100346 -0.26807952
-0.09373641 -0.043022513 -0.26807371
-0.093733415 -0.042942636 -0.2680698
-0.093730398 -0.042864718 -0.26806796
-0.093727306 -0.042784799 -0.26806608
-0.093724191 -0.042706836 -0.26806623
-0.093720905 -0.042626832 -0.26806834
-0.093717694 -0.042548824 -0.26807049
-0.093714505 -0.042468861 -0.26807061
-0.093711495 -0.042390943 -0.26806876
-0.093708597 -0.04231111 -0.26806286
-0.093705676 -0.042233236 -0.26805905
-0.093702391 -0.042153232 -0.26806113
-0.09369918 -0.042075224 -0.26806331
-0.0936957 -0.04199513 -0.26806939
-0.093692683 -0.041917212 -0.26806754
-0.093689859 -0.04183938 -0.26806173
-0.09368667 -0.041759416 -0.26806182
-0.093683854 -0.041681584 -0.26805598
-0.093681149 -0.04160184 -0.26804611
-0.093677938 -0.041523833 -0.26804826
-0.093674265 -0.041443653 -0.26805836
-0.093670875 -0.041363604 -0.26806247
-0.093667962 -0.041285731 -0.26805863
-0.093665332 -0.041207984 -0.26804879
-0.093662046 -0.04112798 -0.26805088
-0.093658738 -0.041049927 -0.26805502
-0.093655646 -0.040970013 -0.26805314
-0.09365283 -0.040892176 -0.2680473
-0.093649834 -0.040812306 -0.26804343
-0.093646817 -0.040734384 -0.26804158
-0.093643799 -0.040656462 -0.26803973
-0.093640804 -0.040576592 -0.26803586
-0.093637399 -0.040498495 -0.268042
-0.093634114 -0.040418491 -0.26804411
-0.093631491 -0.040340744 -0.26803428
-0.093628675 -0.040262911 -0.26802844
-0.093625285 -0.040182866 -0.26803255
-0.093621902 -0.040102817 -0.26803663
-0.093619078 -0.040024981 -0.26803082
-0.09361618 -0.039945152 -0.26802492
-0.093612872 -0.039867103 -0.26802909
-0.093609586 -0.039787099 -0.26803118
-0.093606576 -0.039709177 -0.26802933
-0.093603477 -0.039629258 -0.26802745
-0.093600661 -0.039551426 -0.26802161
-0.093597278 -0.039471377 -0.26802573
-0.093593597 -0.039391197 -0.26803583
-0.093590483 -0.039313234 -0.26803595
-0.093587682 -0.039233446 -0.26802808
-0.093584672 -0.039155528 -0.26802623
-0.093581386 -0.039075524 -0.26802835
-0.093578368 -0.038997605 -0.2680265
-0.093575373 -0.038917728 -0.26802263
-0.093572184 -0.038837768 -0.26802272
-0.093569264 -0.038759891 -0.2680189
-0.093566351 -0.038682014 -0.26801506
-0.093563259 -0.038602099 -0.26801318
-0.093559951 -0.038524047 -0.26801729
-0.093556762 -0.038444087 -0.26801741
-0.093553275 -0.038363993 -0.26802352
-0.093549892 -0.038283944 -0.2680276
-0.09354727 -0.038206197 -0.2680178
-0.093545206 -0.038130671 -0.26799804
-0.093542308 -0.038050838 -0.26799214
-0.093538634 -0.037970658 -0.26800224
-0.093535148 -0.037890568 -0.26800832
-0.093532234 -0.037812691 -0.26800448
-0.093528748 -0.037732601 -0.26801059
-0.093525559 -0.037652638 -0.26801071
-0.093523033 -0.037574936 -0.26799887
-0.093519747 -0.037494928 -0.26800099
-0.093516439 -0.037416879 -0.26800513
-0.093513146 -0.037336875 -0.26800722
-0.09350986 -0.03725687 -0.26800933
-0.093506649 -0.037178863 -0.26801148
-0.093503557 -0.037098944 -0.2680096
-0.093500935 -0.037021197 -0.26799977
-0.093498215 -0.03694341 -0.26799193
-0.093494825 -0.036863361 -0.26799604
-0.093491443 -0.036783315 -0.26800013
-0.093488351 -0.036703393 -0.26799825
-0.093485333 -0.036625475 -0.2679964
-0.093482226 -0.036547512 -0.26799655
-0.093479127 -0.036467593 -0.26799467
-0.093475938 -0.036387634 -0.26799479
-0.093472749 -0.03630767 -0.26799488
-0.093469732 -0.036229752 -0.26799303
-0.093466818 -0.036151879 -0.26798922
-0.093463533 -0.03607187 -0.2679913
-0.093460239 -0.035991866 -0.26799342
-0.093457423 -0.035914034 -0.26798758
-0.093454428 -0.035834156 -0.2679837
-0.093451314 -0.035756193 -0.26798385
-0.093448222 -0.035676278 -0.26798195
-0.093445309 -0.035598401 -0.26797813
-0.09344241 -0.035518572 -0.26797223
-0.093439028 -0.035438523 -0.26797634
-0.093435913 -0.03536056 -0.26797649
-0.093433015 -0.035280727 -0.26797062
-0.093429901 -0.035202764 -0.26797077
-0.093426712 -0.035122804 -0.26797086
-0.093423888 -0.035044968 -0.26796505
-0.093420796 -0.034965049 -0.26796314
-0.09341751 -0.034885049 -0.26796526
-0.0934145 -0.034807127 -0.26796341
-0.093411207 -0.034727119 -0.26796553
-0.093407921 -0.034647115 -0.26796761
-0.093404904 -0.034569196 -0.26796579
-0.093401909 -0.034489322 -0.26796189
-0.093399189 -0.034411535 -0.26795405
-0.093396097 -0.034331616 -0.26795217
-0.093392789 -0.034253567 -0.26795632
-0.093389504 -0.034173563 -0.26795843
-0.093386509 -0.034093685 -0.26795453
-0.093383588 -0.034015812 -0.26795071
-0.093380399 -0.033935849 -0.2679508
-0.09337721 -0.033855885 -0.26795092
-0.093374096 -0.033777922 -0.26795107
-0.09337081 -0.033697918 -0.26795316
-0.093367226 -0.033617783 -0.26796126
-0.093363747 -0.033537693 -0.26796737
-0.093361124 -0.033459947 -0.26795754
-0.093358494 -0.0333822 -0.2679477
-0.093355507 -0.033302322 -0.26794383
-0.093352586 -0.033224449 -0.26793998
-0.093349122 -0.033142403 -0.26794404
-0.093345448 -0.033062223 -0.26795411
-0.093342431 -0.032984301 -0.26795229
-0.093339726 -0.032904558 -0.26794243
-0.093336612 -0.032826595 -0.26794258
-0.093333133 -0.032746505 -0.26794869
-0.093329944 -0.032666542 -0.26794878
-0.093327224 -0.032588754 -0.26794094
-0.093324691 -0.032511052 -0.26792914
-0.093321405 -0.032431047 -0.26793122
-0.093318023 -0.032350998 -0.26793534
-0.093315028 -0.032271124 -0.26793143
-0.09331201 -0.032193203 -0.26792958
-0.093308918 -0.032113284 -0.26792771
-0.093305901 -0.032035366 -0.26792586
-0.093302906 -0.031955492 -0.26792198
-0.093299896 -0.03187757 -0.26792014
-0.093296707 -0.03179761 -0.26792026
-0.093293518 -0.031717651 -0.26792035
-0.093290031 -0.031637557 -0.26792645
-0.093286552 -0.031557467 -0.26793253
-0.093283266 -0.031477459 -0.26793465
-0.093280539 -0.031399671 -0.26792681
-0.093277641 -0.031319838 -0.26792094
-0.093274631 -0.031241918 -0.26791909
-0.093271337 -0.031161917 -0.26792121
-0.093268245 -0.031081999 -0.2679193
-0.093265131 -0.031004034 -0.26791948
-0.093262047 -0.030924115 -0.26791757
-0.093259417 -0.03084637 -0.26790774
-0.093256325 -0.030766454 -0.26790586
-0.09325321 -0.030688489 -0.26790601
-0.093250215 -0.030608615 -0.26790214
-0.093247123 -0.030528698 -0.26790023
-0.093244016 -0.030450733 -0.26790041
-0.093240924 -0.030370815 -0.2678985
-0.093237728 -0.030290853 -0.26789862
-0.093234524 -0.030212846 -0.26790076
-0.093231328 -0.030132886 -0.26790088
-0.093228608 -0.030055096 -0.26789305
-0.093225613 -0.029975221 -0.26788914
-0.093222521 -0.029895302 -0.26788726
-0.093219705 -0.029817469 -0.26788142
-0.093216881 -0.029739637 -0.26787558
-0.093213789 -0.02965972 -0.2678737
-0.093210697 -0.029579801 -0.2678718
-0.093207218 -0.02949971 -0.26787791
-0.093204007 -0.029421706 -0.26788005
-0.093200639 -0.029339701 -0.26788211
-0.093197525 -0.029261738 -0.26788229
-0.093194529 -0.029181864 -0.26787838
-0.093191423 -0.029103901 -0.26787853
-0.093188033 -0.029023852 -0.26788265
-0.093185134 -0.028944019 -0.26787677
-0.093182415 -0.028866231 -0.26786894
-0.093179129 -0.028786227 -0.26787102
-0.09317594 -0.028706264 -0.26787114
-0.093172655 -0.028626259 -0.26787326
-0.093169168 -0.028546169 -0.26787934
-0.093166642 -0.028468465 -0.26786751
-0.093164019 -0.02839072 -0.26785767
-0.093160823 -0.028310757 -0.26785779
-0.093157716 -0.028232794 -0.26785794
-0.093154058 -0.028150661 -0.26786602
-0.093150668 -0.028070614 -0.2678701
-0.09314768 -0.02799074 -0.26786619
-0.093144663 -0.02791282 -0.26786438
-0.093141839 -0.027834987 -0.26785854
-0.093138747 -0.027755069 -0.26785666
-0.093135364 -0.02767502 -0.26786077
-0.093131803 -0.027592931 -0.26786679
-0.093128689 -0.027514968 -0.26786697
-0.094924703 -0.062021956 -0.2685051
-0.094924167 -0.061941214 -0.26844925
-0.094925918 -0.061857559 -0.26834339
-0.094926968 -0.061775558 -0.26825351
-0.094924733 -0.061697982 -0.26823571
-0.094921544 -0.061618023 -0.2682358
-0.094918236 -0.06153997 -0.26823997
-0.094915412 -0.061462138 -0.26823413
-0.094912127 -0.061382134 -0.26823622
-0.094908819 -0.061304085 -0.26824039
-0.094905898 -0.061226208 -0.26823655
-0.094903082 -0.061148375 -0.26823071
-0.094899982 -0.061068457 -0.26822883
-0.094897263 -0.060990669 -0.26822096
-0.094894148 -0.060912702 -0.26822114
-0.094890863 -0.060832698 -0.26822323
-0.094888136 -0.06075491 -0.26821539
-0.094885319 -0.060677078 -0.26820958
-0.094881833 -0.060596984 -0.26821566
-0.094878525 -0.060518935 -0.26821983
-0.09487541 -0.060440972 -0.26821998
-0.094872206 -0.060362965 -0.26822212
-0.094868988 -0.060284957 -0.26822427
-0.094865702 -0.060204953 -0.26822639
-0.094862886 -0.06012712 -0.26822054
-0.094860278 -0.060047418 -0.26820868
-0.094857261 -0.0599695 -0.26820683
-0.094853759 -0.059891362 -0.26821497
-0.094850354 -0.059813268 -0.26822111
-0.09484724 -0.059735306 -0.26822126
-0.094844244 -0.059655432 -0.26821738
-0.094841227 -0.05957751 -0.26821554
-0.094838217 -0.059499592 -0.26821369
-0.094835021 -0.059419628 -0.26821381
-0.094831906 -0.059341665 -0.26821396
-0.094828695 -0.059263662 -0.26821613
-0.0948257 -0.059183784 -0.26821223
-0.094822884 -0.059105951 -0.26820639
-0.094819576 -0.059027903 -0.26821053
-0.094816364 -0.058949895 -0.26821268
-0.094813175 -0.058869936 -0.2682128
-0.094810061 -0.058791969 -0.26821297
-0.094807044 -0.058714051 -0.26821113
-0.094803929 -0.058636088 -0.26821128
-0.094801329 -0.058556385 -0.26819938
-0.094798699 -0.058478639 -0.26818955
-0.09479551 -0.058398679 -0.26818967
-0.094792105 -0.058320586 -0.26819584
-0.094788797 -0.058242533 -0.26819998
-0.09478578 -0.058164615 -0.26819813
-0.094782785 -0.058084741 -0.26819426
-0.09477938 -0.058006648 -0.2682004
-0.094776072 -0.057928596 -0.26820454
-0.094772562 -0.057850458 -0.26821268
-0.094769157 -0.057772368 -0.26821882
-0.094766364 -0.05769258 -0.26821095
-0.094764031 -0.057614964 -0.26819512
-0.094761595 -0.057537302 -0.26818129
-0.0947586 -0.057457428 -0.26817742
-0.094755098 -0.05737929 -0.26818556
-0.094751984 -0.057301328 -0.26818573
-0.094748974 -0.057223409 -0.26818389
-0.094745561 -0.057145316 -0.26819003
-0.094742082 -0.057065222 -0.26819611
-0.094739161 -0.056987345 -0.26819229
-0.094736561 -0.056907646 -0.2681804
-0.094733253 -0.056829594 -0.26818454
-0.094729647 -0.056751415 -0.26819468
-0.094726831 -0.056673583 -0.26818886
-0.094724104 -0.056595791 -0.26818103
-0.094720818 -0.056515787 -0.26818311
-0.094717607 -0.056437783 -0.26818529
-0.094714202 -0.05635969 -0.26819143
-0.094710991 -0.056281682 -0.2681936
-0.094708093 -0.056201849 -0.2681877
-0.094704881 -0.056123842 -0.26818985
-0.094701767 -0.056045879 -0.26819003
-0.094699144 -0.055968136 -0.26818019
-0.094696052 -0.055888217 -0.26817828
-0.09469264 -0.055810124 -0.26818442
-0.094689429 -0.055732116 -0.2681866
-0.09468624 -0.055652153 -0.26818669
-0.094683319 -0.055574276 -0.26818287
-0.094680406 -0.055496402 -0.26817903
-0.094677486 -0.055418525 -0.26817518
-0.094674587 -0.055338692 -0.26816928
-0.094671771 -0.055260859 -0.26816344
-0.094668366 -0.055182766 -0.26816961
-0.094665274 -0.055102848 -0.26816773
-0.09466245 -0.055025015 -0.26816189
-0.094659142 -0.054946966 -0.26816604
-0.094655931 -0.054868959 -0.26816818
-0.09465272 -0.054790951 -0.26817033
-0.094649628 -0.054711036 -0.26816845
-0.094646707 -0.054633159 -0.2681646
-0.094643593 -0.054555196 -0.26816475
-0.094640307 -0.054475188 -0.26816687
-0.094637096 -0.054397184 -0.26816902
-0.094634175 -0.054319307 -0.26816517
-0.094631456 -0.054241516 -0.26815736
-0.09462817 -0.054161511 -0.26815945
-0.094624959 -0.054083504 -0.26816159
-0.094621845 -0.054005541 -0.26816177
-0.094618656 -0.053925581 -0.26816186
-0.094615735 -0.053847704 -0.26815802
-0.094612814 -0.053769827 -0.2681542
-0.094609603 -0.053691819 -0.26815635
-0.094606787 -0.053613987 -0.26815051
-0.094604082 -0.053534243 -0.26814061
-0.094600968 -0.05345628 -0.26814079
-0.094597295 -0.053376101 -0.26815087
-0.094594076 -0.053298097 -0.26815301
-0.09459126 -0.053220261 -0.26814717
-0.094587758 -0.053142127 -0.26815534
-0.09458445 -0.053064074 -0.26815948
-0.094581552 -0.052984245 -0.26815361
-0.094578728 -0.052906413 -0.26814777
-0.094575711 -0.052828491 -0.26814592
-0.094572812 -0.052748661 -0.26814002
-0.094570093 -0.05267087 -0.26813221
-0.094566882 -0.052592862 -0.26813436
-0.094563574 -0.052514814 -0.26813853
-0.094560385 -0.05243485 -0.26813862
-0.094557464 -0.052356977 -0.26813477
-0.094554454 -0.052279055 -0.26813293
-0.094551064 -0.052199006 -0.26813704
-0.094547562 -0.052120872 -0.26814517
-0.094544448 -0.052042909 -0.26814532
-0.09454155 -0.051963076 -0.26813945
-0.094538629 -0.051885199 -0.26813561
-0.094535716 -0.051807322 -0.26813179
-0.094532408 -0.051729273 -0.26813591
-0.094529212 -0.051649313 -0.26813602
-0.094526395 -0.051571477 -0.26813018
-0.094523281 -0.051493514 -0.26813036
-0.094519503 -0.051413294 -0.26814246
-0.094516195 -0.051335242 -0.2681466
-0.094513573 -0.051257499 -0.26813674
-0.094511047 -0.051179796 -0.26812494
-0.094507851 -0.051099833 -0.26812506
-0.09450464 -0.051021826 -0.2681272
-0.094501726 -0.050943948 -0.26812336
-0.094498515 -0.050865944 -0.2681255
-0.094495125 -0.050785895 -0.26812959
-0.094492011 -0.050707933 -0.26812977
-0.094489604 -0.050628319 -0.26811391
-0.094486982 -0.050550573 -0.26810408
-0.094483279 -0.050472349 -0.26811621
-0.094479606 -0.05039217 -0.26812631
-0.094476685 -0.050314292 -0.26812246
-0.094473667 -0.050236374 -0.26812062
-0.094470166 -0.050158236 -0.26812875
-0.094466679 -0.050078142 -0.26813486
-0.094463766 -0.050000269 -0.26813102
-0.094460845 -0.049922392 -0.26812717
-0.094457559 -0.049842387 -0.26812929
-0.094454736 -0.049764551 -0.26812345
-0.094452016 -0.049686763 -0.26811561
-0.094448924 -0.049606845 -0.26811373
-0.094445318 -0.049528666 -0.26812387
-0.094441742 -0.049448531 -0.26813197
-0.094438627 -0.049370568 -0.26813212
-0.0944359 -0.049292777 -0.26812428
-0.094432786 -0.049214814 -0.26812443
-0.09442921 -0.049134679 -0.26813254
-0.094425999 -0.049056672 -0.26813468
-0.094422981 -0.048978753 -0.26813287
-0.09442018 -0.048898965 -0.26812497
-0.094417848 -0.048821349 -0.26810914
-0.094415031 -0.048743516 -0.2681033
-0.094411835 -0.048663557 -0.26810342
-0.09440843 -0.04858546 -0.26810956
-0.094404928 -0.048507325 -0.2681177
-0.094401933 -0.048427448 -0.26811382
-0.094399214 -0.04834966 -0.26810598
-0.09439639 -0.048271827 -0.26810014
-0.094393671 -0.048194036 -0.26809233
-0.094390571 -0.048114121 -0.26809043
-0.094387166 -0.048036024 -0.26809657
-0.094383687 -0.047955934 -0.26810268
-0.094380476 -0.047877926 -0.26810482
-0.094377555 -0.047800049 -0.26810098
-0.094374366 -0.04772009 -0.2681011
-0.094371058 -0.047642037 -0.26810524
-0.094368041 -0.047564119 -0.26810342
-0.094364949 -0.0474842 -0.26810151
-0.094361149 -0.047405936 -0.26811564
-0.094357572 -0.047325797 -0.26812375
-0.094354749 -0.047247965 -0.2681179
-0.094352126 -0.047170222 -0.26810807
-0.094349034 -0.047090303 -0.26810619
-0.09434621 -0.047012471 -0.26810035
-0.09434329 -0.046934593 -0.26809651
-0.094340004 -0.046854585 -0.26809862
-0.094336502 -0.046776451 -0.26810676
-0.094333313 -0.046696488 -0.26810688
-0.094330586 -0.0466187 -0.26809904
-0.094327472 -0.046540737 -0.26809919
-0.094324283 -0.046460778 -0.26809931
-0.094320782 -0.046382636 -0.26810744
-0.094317295 -0.046302546 -0.26811355
-0.094314083 -0.046224542 -0.2681157
-0.094310969 -0.046146575 -0.26811585
-0.094308175 -0.046066791 -0.26810798
-0.09430594 -0.045989215 -0.26809016
-0.094302431 -0.045911081 -0.26809829
-0.094298951 -0.045830987 -0.2681044
-0.094296031 -0.04575311 -0.26810056
-0.094292939 -0.045673192 -0.26809865
-0.094290122 -0.045595359 -0.26809284
-0.094287492 -0.045517616 -0.26808301
-0.094284482 -0.045439694 -0.26808116
-0.094281092 -0.045359645 -0.26808524
-0.094277978 -0.045281682 -0.26808542
-0.094274595 -0.045201633 -0.26808953
-0.094271772 -0.045123801 -0.26808369
-0.094269246 -0.045046099 -0.26807186
-0.094266228 -0.04496818 -0.26807001
-0.094262652 -0.044888042 -0.26807812
-0.094259165 -0.044807952 -0.2680842
-0.094256148 -0.04473003 -0.26808238
-0.094253331 -0.044652201 -0.26807654
-0.094250143 -0.044572238 -0.26807663
-0.094246462 -0.044492058 -0.26808673
-0.094243251 -0.044414051 -0.26808888
-0.094240524 -0.044336263 -0.26808104
-0.094237529 -0.044256389 -0.26807716
-0.094234519 -0.044178467 -0.26807532
-0.094231598 -0.04410059 -0.26807147
-0.094228409 -0.04402063 -0.26807159
-0.094224826 -0.043940496 -0.2680797
-0.094221808 -0.043862578 -0.26807785
-0.094218798 -0.043784656 -0.268076
-0.094215602 -0.043704696 -0.26807612
-0.094212592 -0.043626774 -0.26807427
-0.094209768 -0.043548942 -0.26806843
-0.094206676 -0.043469023 -0.26806653
-0.094203368 -0.043390974 -0.2680707
-0.094200276 -0.043311056 -0.26806879
-0.094197452 -0.043233223 -0.26806295
-0.094194733 -0.043155432 -0.26805514
-0.094191641 -0.043075517 -0.26805323
-0.094188429 -0.042997509 -0.26805538
-0.094184943 -0.042917415 -0.26806152
-0.094181731 -0.042839412 -0.26806366
-0.094178736 -0.042759538 -0.26805976
-0.09417592 -0.042681701 -0.26805392
-0.094172806 -0.042603739 -0.2680541
-0.094169319 -0.042523649 -0.26806018
-0.094165936 -0.0424436 -0.26806429
-0.094162822 -0.042365637 -0.26806444
-0.094159633 -0.042285673 -0.26806456
-0.094156712 -0.0422078 -0.26806071
-0.094153427 -0.042127796 -0.26806283
-0.094150312 -0.042049833 -0.26806298
-0.09414722 -0.041969914 -0.26806107
-0.094144009 -0.041891906 -0.26806325
-0.094140619 -0.041811857 -0.26806733
-0.0941379 -0.04173407 -0.26805949
-0.094135374 -0.041656367 -0.26804769
-0.094132282 -0.041576445 -0.26804578
-0.094128974 -0.041498397 -0.26804993
-0.094125584 -0.041418348 -0.26805404
-0.094122469 -0.041340385 -0.26805419
-0.094119847 -0.041262638 -0.26804435
-0.094116949 -0.041182809 -0.26803848
-0.094113737 -0.041104801 -0.26804063
-0.094110742 -0.041024927 -0.26803675
-0.094107822 -0.04094705 -0.26803291
-0.094104439 -0.040867001 -0.26803702
-0.094100952 -0.040786911 -0.2680431
-0.094097845 -0.040708948 -0.26804325
-0.094094731 -0.040630985 -0.26804343
-0.094091639 -0.040551066 -0.26804152
-0.094088525 -0.040473104 -0.26804167
-0.094085135 -0.040393054 -0.26804578
-0.094081946 -0.040313095 -0.2680459
-0.094079122 -0.040235262 -0.26804006
-0.094076306 -0.04015743 -0.26803422
-0.094073482 -0.040079594 -0.26802838
-0.094070196 -0.039999589 -0.26803049
-0.094066717 -0.039919496 -0.2680366
-0.094063327 -0.03983945 -0.26804069
-0.094060406 -0.039761573 -0.26803684
-0.09405759 -0.039683741 -0.268031
-0.094054595 -0.039603867 -0.26802713
-0.094051577 -0.039525945 -0.26802528
-0.094048485 -0.03944603 -0.2680234
-0.094045199 -0.039366022 -0.26802552
-0.094041795 -0.039287932 -0.26803166
-0.094038598 -0.039207969 -0.26803178
-0.094035685 -0.039130092 -0.2680279
-0.094032861 -0.039052259 -0.26802209
-0.094029769 -0.038972341 -0.26802021
-0.094026849 -0.038894463 -0.26801634
-0.094023854 -0.038814589 -0.26801246
-0.094020739 -0.038736627 -0.26801264
-0.094017163 -0.038656492 -0.26802072
-0.09401387 -0.038576487 -0.26802284
-0.09401115 -0.0384987 -0.268015
-0.094008349 -0.038418911 -0.2680071
-0.094005533 -0.038341075 -0.26800126
-0.094002612 -0.038263202 -0.26799744
-0.093999423 -0.038183238 -0.26799756
-0.093995839 -0.038103104 -0.26800564
-0.093992725 -0.038025141 -0.26800579
-0.093990006 -0.037947349 -0.26799795
-0.09398701 -0.037867479 -0.26799408
-0.093983822 -0.037787516 -0.26799417
-0.093980707 -0.037709553 -0.26799434
-0.093977414 -0.037629548 -0.26799643
-0.093974203 -0.037551541 -0.26799861
-0.093971111 -0.037471622 -0.26799673
-0.093968295 -0.03739379 -0.26799089
-0.093965203 -0.037313871 -0.26798898
-0.093961716 -0.037233777 -0.26799509
-0.093958698 -0.037155859 -0.26799324
-0.093955509 -0.0370759 -0.26799333
-0.093951933 -0.036995765 -0.26800144
-0.093948618 -0.036917716 -0.26800558
-0.093945622 -0.036837839 -0.26800171
-0.09394253 -0.036757924 -0.26799983
-0.093939513 -0.036680002 -0.26799798
-0.093936697 -0.036602169 -0.26799214
-0.093933605 -0.036522254 -0.26799023
-0.093930319 -0.036442246 -0.26799235
-0.093927301 -0.036364324 -0.26799053
-0.093924209 -0.036284409 -0.26798862
-0.093920916 -0.036204405 -0.26799074
-0.093917802 -0.036126442 -0.26799089
-0.093914911 -0.036046609 -0.26798499
-0.093912087 -0.035968777 -0.26797917
-0.093908504 -0.035888642 -0.26798725
-0.093905218 -0.035808638 -0.26798937
-0.0939022 -0.035730716 -0.26798752
-0.093899108 -0.035650797 -0.26798564
-0.093896091 -0.035572879 -0.26798379
-0.093893096 -0.035493005 -0.26797992
-0.093890183 -0.035415128 -0.26797608
-0.093886986 -0.035335168 -0.26797616
-0.093883604 -0.035255119 -0.26798028
-0.093880318 -0.035175115 -0.26798236
-0.093877397 -0.035097238 -0.26797855
-0.093874484 -0.03501936 -0.2679747
-0.093871579 -0.034939528 -0.26796883
-0.09386839 -0.034859568 -0.26796892
-0.09386538 -0.03478165 -0.2679671
-0.093862385 -0.034701772 -0.2679632
-0.093859076 -0.034623723 -0.26796734
-0.09385588 -0.03454376 -0.26796746
-0.093853064 -0.034465931 -0.26796162
-0.093850166 -0.034386098 -0.26795575
-0.093846872 -0.034306094 -0.26795784
-0.093843669 -0.034228086 -0.26796001
-0.093840569 -0.034148168 -0.2679581
-0.093837187 -0.034068123 -0.26796222
-0.093833975 -0.033990115 -0.26796436
-0.09383098 -0.033910241 -0.26796049
-0.09382806 -0.033832364 -0.26795664
-0.093824871 -0.033752404 -0.26795673
-0.093822248 -0.033674657 -0.2679469
-0.093819521 -0.033596866 -0.26793909
-0.093816139 -0.033516817 -0.26794317
-0.09381295 -0.033436857 -0.26794329
-0.093810029 -0.03335898 -0.26793945
-0.09380684 -0.03327902 -0.26793957
-0.093803547 -0.033199012 -0.26794165
-0.093800358 -0.033119053 -0.26794177
-0.093797542 -0.03304122 -0.26793593
-0.093794346 -0.032961257 -0.26793605
-0.093790673 -0.032881081 -0.26794612
-0.093787186 -0.032800987 -0.26795223
-0.093784191 -0.032721117 -0.26794836
-0.093781367 -0.032643281 -0.26794252
-0.093778551 -0.032565448 -0.26793668
-0.093775555 -0.032485574 -0.26793277
-0.093772635 -0.032407697 -0.26792896
-0.093769349 -0.032327693 -0.26793104
-0.093766354 -0.032247819 -0.26792717
-0.093763731 -0.032170072 -0.26791734
-0.093760908 -0.03209224 -0.26791149
-0.093757719 -0.032012276 -0.26791161
-0.09375453 -0.031932317 -0.26791173
-0.093751512 -0.031854399 -0.26790988
-0.093748122 -0.03177435 -0.267914
-0.093744837 -0.031694341 -0.26791608
-0.093741648 -0.031614382 -0.2679162
-0.093738161 -0.031534292 -0.26792228
-0.093735054 -0.031456329 -0.26792246
-0.093731955 -0.03137641 -0.26792055
-0.093728572 -0.031296365 -0.26792467
-0.093725845 -0.031218573 -0.26791683
-0.093723319 -0.031140869 -0.267905
-0.093719743 -0.031060735 -0.2679131
-0.093716182 -0.030978644 -0.26791915
-0.093713358 -0.030900812 -0.26791331
-0.093710639 -0.030823022 -0.26790547
-0.093707345 -0.030743016 -0.26790759
-0.09370406 -0.030663013 -0.26790971
-0.09370134 -0.030585224 -0.26790184
-0.093698516 -0.030507389 -0.26789603
-0.093695231 -0.030427385 -0.26789811
-0.093691766 -0.030345339 -0.2679022
-0.093688749 -0.030267419 -0.26790035
-0.093685932 -0.030189585 -0.26789451
-0.093682937 -0.030109713 -0.2678906
-0.093679547 -0.030029664 -0.26789472
-0.093676262 -0.029949659 -0.26789683
-0.093673244 -0.029871739 -0.26789498
-0.093669958 -0.029791735 -0.26789707
-0.093666568 -0.029711686 -0.26790118
-0.09366338 -0.029631725 -0.2679013
-0.093660288 -0.029551806 -0.26789939
-0.093657367 -0.029473931 -0.26789558
-0.093654647 -0.029396139 -0.26788774
-0.093651652 -0.029316267 -0.26788384
-0.093648635 -0.029238347 -0.26788199
-0.09364593 -0.029158602 -0.26787212
-0.09364292 -0.029080682 -0.26787028
-0.093639821 -0.029000763 -0.2678684
-0.093636908 -0.028922886 -0.26786456
-0.093633719 -0.028842926 -0.26786467
-0.093630329 -0.028762879 -0.26786879
-0.093627237 -0.02868296 -0.26786688
-0.093624026 -0.028604954 -0.26786903
-0.09362103 -0.028525081 -0.26786515
-0.093618214 -0.028447246 -0.26785931
-0.093614921 -0.028367242 -0.26786143
-0.093611538 -0.028287195 -0.26786551
-0.093608446 -0.028207276 -0.26786363
-0.09360572 -0.028129486 -0.26785579
-0.093602531 -0.028049525 -0.26785588
-0.093599148 -0.027969476 -0.26786
-0.093596421 -0.027891688 -0.26785219
-0.093593508 -0.027813811 -0.26784831
-0.093590043 -0.027731763 -0.2678524
-0.09358722 -0.027653929 -0.26784655
-0.093584597 -0.027576184 -0.26783672
-0.093581676 -0.027498309 -0.26783288
-0.095403522 -0.062065661 -0.26852295
-0.09540201 -0.061984483 -0.26848707
-0.095402256 -0.061904088 -0.26841524
-0.095403694 -0.061822258 -0.2683174
-0.095402874 -0.061741386 -0.26826751
-0.095400855 -0.061661944 -0.26824367
-0.095397957 -0.061582115 -0.26823777
-0.095394649 -0.061504066 -0.26824191
-0.095391139 -0.061425928 -0.26825005
-0.095387928 -0.06134792 -0.26825222
-0.095385112 -0.061270088 -0.26824638
-0.095381923 -0.061190125 -0.2682465
-0.095378511 -0.061112031 -0.26825264
-0.095375501 -0.061034113 -0.26825079
-0.095372774 -0.060956322 -0.26824296
-0.095369682 -0.060876407 -0.26824108
-0.095366277 -0.06079831 -0.26824722
-0.095363162 -0.060720347 -0.26824737
-0.095360048 -0.060642384 -0.26824754
-0.095357053 -0.06056251 -0.26824364
-0.095354132 -0.060484633 -0.2682398
-0.095350921 -0.060406629 -0.26824194
-0.09534771 -0.060328621 -0.26824412
-0.095344812 -0.060248788 -0.26823822
-0.095341705 -0.060170826 -0.26823837
-0.095338292 -0.060092732 -0.2682445
-0.0953352 -0.060012814 -0.26824263
-0.095332675 -0.059935112 -0.2682308
-0.095329657 -0.05985719 -0.26822895
-0.095326565 -0.059777275 -0.26822707
-0.095323846 -0.059699483 -0.26821923
-0.095320553 -0.059619479 -0.26822135
-0.095316932 -0.059543252 -0.26823354
-0.095313624 -0.059465203 -0.26823768
-0.095310628 -0.059385329 -0.26823378
-0.095307812 -0.059307497 -0.26822796
-0.095304422 -0.059227448 -0.26823205
-0.095301405 -0.059149526 -0.26823023
-0.095298491 -0.059071653 -0.26822639
-0.095295295 -0.058991689 -0.2682265
-0.095292382 -0.058913812 -0.26822263
-0.095289268 -0.058835849 -0.26822281
-0.095285669 -0.05875767 -0.26823294
-0.095282458 -0.058679663 -0.26823509
-0.095279358 -0.058599748 -0.26823321
-0.095276542 -0.058521912 -0.26822737
-0.095273331 -0.058443904 -0.26822951
-0.095269926 -0.058365811 -0.26823568
-0.095267102 -0.058287978 -0.26822984
-0.09526401 -0.05820806 -0.26822793
-0.095260799 -0.058130056 -0.26823008
-0.095257804 -0.058050178 -0.26822621
-0.095255084 -0.05797239 -0.26821837
-0.095252357 -0.057894599 -0.26821053
-0.095249437 -0.057816725 -0.26820669
-0.095246248 -0.057736762 -0.2682068
-0.095242843 -0.057658669 -0.26821294
-0.095239632 -0.057580661 -0.26821512
-0.095236421 -0.057502657 -0.26821727
-0.095233135 -0.057422649 -0.26821935
-0.095230311 -0.057344817 -0.26821351
-0.095227689 -0.05726707 -0.26820368
-0.095224671 -0.057189152 -0.26820186
-0.095221266 -0.057111058 -0.268208
-0.095218077 -0.057031095 -0.26820812
-0.09521506 -0.056953177 -0.26820627
-0.09521167 -0.056873128 -0.26821035
-0.095208265 -0.056795035 -0.26821652
-0.095205151 -0.056717072 -0.26821667
-0.095202141 -0.056639154 -0.26821482
-0.095199026 -0.056561187 -0.268215
-0.095195934 -0.056481272 -0.26821309
-0.09519282 -0.056403309 -0.26821324
-0.095189311 -0.056325171 -0.26822138
-0.095186397 -0.056247294 -0.26821756
-0.09518379 -0.056167591 -0.26820567
-0.095180869 -0.056089718 -0.26820183
-0.095177665 -0.05601171 -0.26820397
-0.09517435 -0.055933658 -0.26820815
-0.095171064 -0.055853654 -0.26821023
-0.095168248 -0.055775821 -0.26820439
-0.09516535 -0.055695992 -0.26819852
-0.095162138 -0.055617984 -0.26820067
-0.095159411 -0.055540193 -0.26819283
-0.095156595 -0.05546236 -0.26818699
-0.095153481 -0.055384398 -0.26818717
-0.095150091 -0.055304348 -0.26819128
-0.095146589 -0.055226214 -0.26819941
-0.095143184 -0.055148117 -0.26820555
-0.095140167 -0.055070199 -0.26820371
-0.095137268 -0.054990366 -0.26819783
-0.095134646 -0.054912623 -0.268188
-0.095131822 -0.054834791 -0.26818216
-0.095128708 -0.054756824 -0.26818231
-0.095125616 -0.054676909 -0.26818043
-0.095122308 -0.054598857 -0.26818457
-0.095118709 -0.054520678 -0.26819474
-0.095115416 -0.054440673 -0.26819682
-0.095112696 -0.054362882 -0.26818898
-0.095109873 -0.054285049 -0.26818314
-0.095106766 -0.054207087 -0.26818329
-0.09510377 -0.054127213 -0.26817942
-0.095100455 -0.05404916 -0.26818359
-0.095097244 -0.053971156 -0.26818573
-0.095094152 -0.053891238 -0.26818383
-0.095091037 -0.053813275 -0.26818401
-0.095088027 -0.053735353 -0.26818216
-0.095085301 -0.053657565 -0.26817432
-0.095082484 -0.053579733 -0.26816848
-0.0950789 -0.053499598 -0.26817656
-0.095075399 -0.05342146 -0.26818472
-0.095072404 -0.053341586 -0.26818082
-0.095069677 -0.053263795 -0.26817298
-0.09506686 -0.053185962 -0.26816717
-0.095063843 -0.053108044 -0.26816532
-0.095060535 -0.053029992 -0.26816946
-0.095057346 -0.052950032 -0.26816958
-0.095054425 -0.052872155 -0.26816574
-0.095051408 -0.052794233 -0.26816389
-0.095048413 -0.052714359 -0.26815999
-0.095045298 -0.052636396 -0.26816016
-0.095042184 -0.052558433 -0.26816031
-0.095038779 -0.05248034 -0.26816645
-0.095035098 -0.052400161 -0.26817656
-0.095032185 -0.052322283 -0.26817271
-0.09502995 -0.052244712 -0.26815489
-0.095027052 -0.052164882 -0.26814902
-0.095023841 -0.052086875 -0.26815116
-0.095020533 -0.052008823 -0.26815531
-0.095017247 -0.051928818 -0.26815742
-0.095014229 -0.0518509 -0.26815557
-0.095011309 -0.051773023 -0.26815173
-0.095008194 -0.05169506 -0.26815188
-0.095004886 -0.051617011 -0.26815605
-0.095001407 -0.051536918 -0.26816213
-0.094998583 -0.051459085 -0.26815629
-0.094996177 -0.051379472 -0.26814044
-0.094993547 -0.051301725 -0.2681306
-0.094990335 -0.051223718 -0.26813275
-0.09498664 -0.051145494 -0.26814491
-0.094983153 -0.051065404 -0.26815099
-0.094979845 -0.050987352 -0.26815513
-0.094976828 -0.050909434 -0.26815331
-0.094973914 -0.050831556 -0.26814947
-0.094970725 -0.050751597 -0.26814955
-0.094967708 -0.050673675 -0.26814771
-0.094964713 -0.050593801 -0.26814383
-0.094961792 -0.050515924 -0.26813999
-0.094958872 -0.050438046 -0.26813614
-0.094955467 -0.050359953 -0.26814231
-0.094951689 -0.050279733 -0.26815438
-0.094948776 -0.050201856 -0.26815057
-0.094946146 -0.050124109 -0.26814073
-0.094942935 -0.050046101 -0.26814288
-0.094939552 -0.049966056 -0.26814699
-0.094936341 -0.049888048 -0.26814914
-0.094932951 -0.049807999 -0.26815322
-0.094929844 -0.049730036 -0.26815337
-0.094927117 -0.049652249 -0.26814556
-0.094924219 -0.049572416 -0.26813966
-0.094921306 -0.049494538 -0.26813585
-0.094918095 -0.049416531 -0.26813799
-0.094914705 -0.049336486 -0.26814207
-0.094911397 -0.049258433 -0.26814622
-0.094908282 -0.04918047 -0.2681464
-0.094905563 -0.049102679 -0.26813856
-0.094902366 -0.049022719 -0.26813865
-0.094899356 -0.048944801 -0.26813683
-0.094896436 -0.048866924 -0.26813298
-0.094893247 -0.048786961 -0.2681331
-0.094890423 -0.048709128 -0.26812726
-0.094887704 -0.04863134 -0.26811942
-0.094884217 -0.048551247 -0.26812553
-0.094880812 -0.048473153 -0.26813167
-0.09487772 -0.048393235 -0.26812977
-0.094874509 -0.048315231 -0.26813194
-0.094871297 -0.048237223 -0.26813409
-0.094868399 -0.048157394 -0.26812822
-0.094865285 -0.048079427 -0.26812834
-0.094862074 -0.048001423 -0.26813048
-0.094859451 -0.047923677 -0.26812068
-0.094856746 -0.047843933 -0.26811078
-0.094853535 -0.047765926 -0.26811296
-0.09484984 -0.047687702 -0.26812509
-0.094846353 -0.047607608 -0.2681312
-0.094843239 -0.047529645 -0.26813135
-0.09484005 -0.047449686 -0.26813143
-0.094837032 -0.047371764 -0.26812959
-0.09483441 -0.047294021 -0.26811978
-0.094831124 -0.047214013 -0.26812187
-0.09482801 -0.04713605 -0.26812202
-0.09482462 -0.047056004 -0.26812613
-0.094821312 -0.046977952 -0.2681303
-0.094818197 -0.046899989 -0.26813042
-0.0948155 -0.046820246 -0.26812056
-0.094812676 -0.046742409 -0.26811472
-0.094809271 -0.04666432 -0.26812088
-0.0948053 -0.04658401 -0.26813695
-0.09480267 -0.046506263 -0.26812711
-0.094799854 -0.046428431 -0.2681213
-0.094796665 -0.046348467 -0.26812139
-0.094793551 -0.046270505 -0.26812154
-0.094790258 -0.0461905 -0.26812366
-0.094787247 -0.046112582 -0.26812181
-0.09478423 -0.04603466 -0.26811999
-0.094781041 -0.045954701 -0.26812008
-0.09477783 -0.045876693 -0.26812223
-0.094773658 -0.045796297 -0.26814231
-0.094771229 -0.045718636 -0.26812848
-0.094768994 -0.045641065 -0.26811066
-0.094766274 -0.045563277 -0.26810282
-0.094763085 -0.045483314 -0.26810294
-0.09475977 -0.045405265 -0.26810709
-0.094756387 -0.045325216 -0.2681112
-0.094753176 -0.045247208 -0.26811334
-0.09474989 -0.045167204 -0.26811546
-0.094746679 -0.0450892 -0.26811761
-0.094743878 -0.045009412 -0.26810971
-0.094741255 -0.044931665 -0.26809987
-0.094738431 -0.044853829 -0.26809406
-0.094735317 -0.044775866 -0.26809421
-0.094732031 -0.044695862 -0.26809633
-0.09472882 -0.044617854 -0.26809847
-0.094725631 -0.044537894 -0.26809856
-0.094722807 -0.044460062 -0.26809275
-0.094719887 -0.044382185 -0.26808891
-0.094716311 -0.04430205 -0.26809698
-0.094712824 -0.04422196 -0.26810309
-0.094709612 -0.044143952 -0.26810524
-0.094706424 -0.044063993 -0.26810536
-0.094703697 -0.043986201 -0.26809752
-0.094701074 -0.043908454 -0.26808769
-0.09469796 -0.043830492 -0.26808783
-0.094694674 -0.043750487 -0.26808995
-0.094691947 -0.043672696 -0.26808211
-0.094689034 -0.043594822 -0.26807827
-0.094685748 -0.043514818 -0.26808038
-0.094682731 -0.043436896 -0.26807854
-0.094679713 -0.043358974 -0.26807669
-0.094676226 -0.043278884 -0.2680828
-0.094673038 -0.043198921 -0.26808292
-0.09467002 -0.043121003 -0.26808107
-0.094667204 -0.04304317 -0.26807523
-0.094664112 -0.042963251 -0.26807332
-0.094660997 -0.042885289 -0.2680735
-0.094657511 -0.042805199 -0.26807958
-0.094654031 -0.042725109 -0.26808569
-0.094651014 -0.042647187 -0.26808384
-0.094648391 -0.04256944 -0.26807401
-0.094645493 -0.042489611 -0.26806813
-0.094642282 -0.042411603 -0.26807028
-0.094638795 -0.042331509 -0.26807639
-0.094635211 -0.042251378 -0.26808447
-0.094632395 -0.042173542 -0.26807863
-0.094629772 -0.042095795 -0.26806879
-0.094626755 -0.042017877 -0.26806697
-0.094623365 -0.041937828 -0.26807106
-0.094620451 -0.041859951 -0.26806724
-0.094617352 -0.041780032 -0.26806533
-0.094614245 -0.041702069 -0.26806551
-0.09461125 -0.041622195 -0.26806161
-0.094608232 -0.041544277 -0.26805976
-0.094605044 -0.041464314 -0.26805988
-0.094602026 -0.041386396 -0.26805803
-0.094598837 -0.041306436 -0.26805815
-0.094595328 -0.041228294 -0.26806629
-0.094592042 -0.04114829 -0.26806837
-0.094589323 -0.041070502 -0.26806056
-0.094586596 -0.040992714 -0.26805273
-0.094583698 -0.040912881 -0.26804686
-0.094580293 -0.040834788 -0.268053
-0.09457624 -0.040752482 -0.26806903
-0.094573028 -0.040674474 -0.26807117
-0.094570309 -0.040596686 -0.26806334
-0.094567411 -0.040516853 -0.26805747
-0.094564103 -0.040438805 -0.26806161
-0.094561107 -0.040358931 -0.26805773
-0.09455809 -0.040281009 -0.26805589
-0.094554782 -0.04020296 -0.26806003
-0.09455169 -0.040123042 -0.26805812
-0.094549164 -0.04004534 -0.26804632
-0.094546437 -0.039967548 -0.26803848
-0.094543055 -0.039887503 -0.26804256
-0.094539665 -0.039807454 -0.26804668
-0.094536185 -0.03972736 -0.26805279
-0.09453278 -0.039649267 -0.26805893
-0.094529487 -0.039569262 -0.26806104
-0.094526395 -0.039489344 -0.26805913
-0.094523773 -0.039411597 -0.2680493
-0.094520852 -0.039333723 -0.26804546
-0.094517663 -0.03925376 -0.26804557
-0.094514377 -0.039173756 -0.26804769
-0.094511166 -0.039095752 -0.26804984
-0.094508246 -0.039017875 -0.26804599
-0.09450525 -0.038938001 -0.26804212
-0.09450233 -0.038860124 -0.26803827
-0.094499141 -0.03878016 -0.26803839
-0.094496123 -0.038702242 -0.26803654
-0.094492935 -0.038622282 -0.26803663
-0.09448982 -0.038544316 -0.26803678
-0.094486535 -0.038464312 -0.2680389
-0.094483539 -0.038384438 -0.26803502
-0.094480619 -0.03830656 -0.26803118
-0.094477698 -0.038228683 -0.26802734
-0.094474509 -0.038148724 -0.26802745
-0.094471492 -0.038070805 -0.26802561
-0.094468109 -0.037990756 -0.26802969
-0.094465017 -0.037910838 -0.26802781
-0.09446229 -0.03783305 -0.26801997
-0.094459377 -0.037755169 -0.26801616
-0.094455987 -0.037675124 -0.26802024
-0.094452702 -0.037595119 -0.26802236
-0.094449982 -0.037517328 -0.26801452
-0.094446883 -0.037437409 -0.26801264
-0.094443873 -0.037359491 -0.2680108
-0.094440758 -0.037281528 -0.26801094
-0.0944371 -0.037199393 -0.26801899
-0.094433226 -0.037119128 -0.26803309
-0.094429255 -0.037038822 -0.26804915
-0.094385549 -0.035929613 -0.26803893
-0.094383121 -0.035851955 -0.2680251
-0.094380595 -0.035774253 -0.26801327
-0.094377778 -0.035696417 -0.26800743
-0.094374858 -0.035618544 -0.26800358
-0.094372138 -0.035540752 -0.26799577
-0.094368674 -0.035458706 -0.26799983
-0.094365269 -0.035380613 -0.26800597
-0.094362371 -0.035300784 -0.26800007
-0.094359644 -0.035222992 -0.26799226
-0.094356261 -0.035142943 -0.26799634
-0.094352968 -0.035062939 -0.26799846
-0.094350152 -0.034985106 -0.26799262
-0.094347328 -0.034907274 -0.26798677
-0.094344333 -0.034827396 -0.2679829
-0.094341122 -0.034749389 -0.26798505
-0.094337933 -0.034669429 -0.26798517
-0.094334744 -0.034589469 -0.26798525
-0.09433163 -0.034511507 -0.2679854
-0.094328828 -0.034431718 -0.26797754
-0.094325811 -0.034353796 -0.26797569
-0.094322428 -0.034273751 -0.2679798
-0.094319336 -0.034193829 -0.26797789
-0.094316319 -0.034115911 -0.26797605
-0.09431313 -0.034035951 -0.26797616
-0.094309449 -0.033955775 -0.26798627
-0.094306059 -0.033875726 -0.26799035
-0.094303533 -0.033798024 -0.26797855
-0.094300911 -0.033720277 -0.26796871
-0.094297625 -0.033640273 -0.2679708
-0.094294332 -0.033560269 -0.26797292
-0.094291516 -0.033482432 -0.26796708
-0.094288424 -0.033402514 -0.2679652
-0.094285406 -0.033324592 -0.26796335
-0.094282314 -0.033244677 -0.26796144
-0.094279297 -0.033166759 -0.26795959
-0.094276205 -0.033086836 -0.26795772
-0.094272912 -0.033006832 -0.26795983
-0.094269902 -0.032928914 -0.26795799
-0.094266802 -0.032848999 -0.26795608
-0.094263613 -0.032769036 -0.2679562
-0.094260134 -0.032688946 -0.26796231
-0.094257407 -0.032611154 -0.26795447
-0.094254591 -0.032533325 -0.26794863
-0.094251297 -0.032453317 -0.26795074
-0.094247915 -0.032373268 -0.26795483
-0.094245017 -0.032293439 -0.26794896
-0.094242193 -0.032215603 -0.26794314
-0.094239086 -0.03213764 -0.26794326
-0.094236091 -0.032057766 -0.26793939
-0.094233267 -0.031979933 -0.26793355
-0.094229877 -0.031899884 -0.26793766
-0.094226494 -0.031819835 -0.26794177
-0.094223306 -0.031739876 -0.26794186
-0.09422031 -0.031660002 -0.26793799
-0.094217293 -0.03158208 -0.26793614
-0.094214201 -0.031502165 -0.26793426
-0.094211087 -0.031424202 -0.26793441
-0.094208464 -0.031346455 -0.26792458
-0.094205469 -0.031266578 -0.26792067
-0.094201982 -0.031186489 -0.26792678
-0.094198495 -0.031106398 -0.26793289
-0.094195679 -0.031028565 -0.26792705
-0.094192587 -0.030948646 -0.26792514
-0.094188929 -0.030866513 -0.26793322
-0.094185717 -0.030788505 -0.26793537
-0.094182916 -0.030708717 -0.26792747
-0.094180092 -0.030630885 -0.26792163
-0.094177179 -0.030553007 -0.26791781
-0.094174087 -0.030473093 -0.2679159
-0.09417107 -0.030395173 -0.26791406
-0.094167978 -0.030315254 -0.26791218
-0.094164878 -0.030235335 -0.2679103
-0.094161868 -0.030157417 -0.26790845
-0.094158679 -0.030077456 -0.26790857
-0.094155289 -0.029997407 -0.26791266
-0.0941521 -0.029917445 -0.26791278
-0.09414947 -0.0298397 -0.26790294
-0.09414646 -0.02976178 -0.26790109
-0.094142899 -0.02967969 -0.26790714
-0.094139785 -0.029601725 -0.26790729
-0.094136596 -0.029521765 -0.26790741
-0.094133303 -0.029441759 -0.26790953
-0.094130389 -0.029363884 -0.26790568
-0.094127685 -0.02928414 -0.26789582
-0.094124667 -0.02920622 -0.26789397
-0.094120719 -0.029123956 -0.26790798
-0.094117135 -0.029043822 -0.26791608
-0.094114706 -0.028966162 -0.26790226
-0.094112083 -0.028888416 -0.26789242
-0.094108984 -0.028808499 -0.26789054
-0.094105311 -0.028728319 -0.26790065
-0.094102219 -0.028648401 -0.26789874
-0.094099864 -0.02857274 -0.26788497
-0.094096869 -0.028492866 -0.2678811
-0.094093576 -0.028412862 -0.26788318
-0.094090581 -0.028332986 -0.26787931
-0.094087571 -0.028255066 -0.26787746
-0.094084278 -0.028175062 -0.26787958
-0.094081186 -0.028095145 -0.2678777
-0.094078466 -0.028017355 -0.26786983
-0.094075546 -0.02793948 -0.26786602
-0.094072357 -0.027859516 -0.2678661
