# .PCD v0.7 - Point Cloud Data file format
VERSION 0.7
FIELDS x y z
SIZE 4 4 4
TYPE F F F
COUNT 1 1 1
WIDTH 1298
HEIGHT 1
VIEWPOINT 0 0 0 1 0 0 0
POINTS 1298
DATA ascii
-0.058729708 0.023006773 -0.2556017
-0.058726475 0.023080871 -0.25560793
-0.058723163 0.023156967 -0.25561413
-0.058720339 0.023232847 -0.25561032
-0.058717493 0.023306772 -0.25560856
-0.058714572 0.023382694 -0.25560677
-0.058711141 0.023456879 -0.25561699
-0.058707733 0.02353302 -0.25562519
-0.058705572 0.023606639 -0.25560945
-0.058703899 0.023680041 -0.25558373
-0.058700781 0.02375605 -0.25558591
-0.058696102 0.023832759 -0.25562006
-0.058692575 0.023906987 -0.25563228
-0.058689557 0.023982953 -0.25563246
-0.058686908 0.024056792 -0.25562674
-0.058683597 0.024132889 -0.25563294
-0.058680262 0.024207031 -0.25564116
-0.058677636 0.024282822 -0.25563335
-0.058675181 0.024356572 -0.25562361
-0.058671575 0.024432801 -0.2556358
-0.058667973 0.024509028 -0.25564796
-0.05866532 0.024582867 -0.25564224
-0.058662597 0.0246587 -0.25563642
-0.058659263 0.024732843 -0.25564468
-0.058655269 0.024809245 -0.25566483
-0.05865176 0.024885431 -0.25567502
-0.05864872 0.024959441 -0.25567722
-0.058645215 0.025035627 -0.25568742
-0.058641709 0.025111811 -0.25569761
-0.058638569 0.025185866 -0.25570184
-0.058635455 0.025261875 -0.25570405
-0.058632024 0.025336063 -0.25571427
-0.058628026 0.025412465 -0.25573444
-0.058624424 0.025488693 -0.2557466
-0.058621306 0.025564702 -0.25574881
-0.05861856 0.025638584 -0.25574505
-0.05861564 0.025714505 -0.25574324
-0.058612425 0.025790559 -0.25574744
-0.058609385 0.025864571 -0.25574967
-0.058606464 0.025940493 -0.25574788
-0.058603033 0.02601468 -0.25575811
-0.058599427 0.026090909 -0.25577027
-0.058595628 0.026167223 -0.25578645
-0.058591731 0.026243582 -0.25580463
-0.058588125 0.026319809 -0.25581682
-0.058584891 0.026393909 -0.25582302
-0.058581188 0.026470181 -0.2558372
-0.058576997 0.02654667 -0.25586137
-0.058573395 0.026622899 -0.25587356
-0.058570549 0.026696824 -0.25587177
-0.058567628 0.026772745 -0.25586998
-0.058564316 0.026848841 -0.25587618
-0.058560807 0.026925027 -0.25588638
-0.058557302 0.027001211 -0.25589654
-0.058553968 0.027075354 -0.25590476
-0.058550559 0.027151495 -0.25591296
-0.058546953 0.027227722 -0.25592512
-0.058543153 0.027304038 -0.2559413
-0.05853916 0.02738044 -0.25596148
-0.05853536 0.027456757 -0.25597763
-0.058531851 0.027532939 -0.25598782
-0.058528639 0.027608993 -0.255992
-0.058525324 0.027685091 -0.25599819
-0.058521036 0.027761623 -0.25602436
-0.058516845 0.027838115 -0.25604853
-0.05851246 0.027914692 -0.25607666
-0.058507979 0.027991312 -0.25610682
-0.058504198 0.028069582 -0.25612095
-0.058498934 0.02814655 -0.25616708
-0.058488656 0.028231652 -0.25631094
-0.058480892 0.028313667 -0.25640491
-0.059034973 0.0050146617 -0.25618222
-0.059032951 0.0050921459 -0.25616041
-0.059031337 0.0051714079 -0.25612855
-0.059032205 0.0052534891 -0.25604269
-0.05903409 0.0053390441 -0.25593275
-0.059032455 0.0054163532 -0.25590295
-0.059030823 0.0054936623 -0.25587314
-0.059028704 0.0055711921 -0.2558533
-0.059026074 0.0056469822 -0.25584552
-0.059024148 0.0057244226 -0.2558217
-0.059022415 0.0058017764 -0.25579387
-0.059020195 0.0058793481 -0.25577605
-0.059017569 0.0059551382 -0.25576827
-0.059015326 0.006030756 -0.25575247
-0.05901299 0.0061064158 -0.25573871
-0.059010264 0.0061822515 -0.25573289
-0.059007242 0.0062582185 -0.2557331
-0.059003811 0.006332403 -0.25574332
-0.059000477 0.0064065456 -0.25575155
-0.058997046 0.0064807329 -0.2557618
-0.058993325 0.0065550497 -0.25577801
-0.058989991 0.0066291932 -0.25578624
-0.058986969 0.0067051575 -0.25578642
-0.058983929 0.0067791697 -0.25578868
-0.058980301 0.0068534436 -0.2558029
-0.058976676 0.0069277175 -0.25581712
-0.058974046 0.0070035094 -0.25580934
-0.058971711 0.0070791692 -0.25579554
-0.058968864 0.0071530938 -0.25579378
-0.058965549 0.0072291903 -0.25579998
-0.058962315 0.0073032901 -0.25580621
-0.058959197 0.007379299 -0.25580841
-0.058956448 0.0074531799 -0.25580466
-0.058953721 0.0075290157 -0.25579888
-0.058951188 0.0076047629 -0.25578907
-0.058948949 0.0076803807 -0.25577328
-0.058946222 0.0077562155 -0.25576749
-0.058943301 0.0078321379 -0.25576568
-0.058940962 0.0079077985 -0.25575191
-0.058938745 0.0079853702 -0.25573409
-0.058936406 0.0080610309 -0.25572029
-0.058933485 0.0081369523 -0.2557185
-0.058930345 0.0082110073 -0.25572273
-0.058927402 0.0082849758 -0.25572297
-0.058924578 0.0083608544 -0.25571918
-0.058921557 0.0084368205 -0.25571936
-0.05891883 0.0085126553 -0.25571358
-0.058916084 0.0085865371 -0.25570983
-0.058912944 0.0086605921 -0.25571406
-0.05891002 0.0087365145 -0.25571227
-0.05890749 0.0088122627 -0.25570247
-0.058904663 0.0088881413 -0.25569868
-0.058901839 0.0089640208 -0.25569487
-0.05889919 0.009037856 -0.25568911
-0.05889646 0.0091136927 -0.25568333
-0.058893539 0.009189615 -0.25568151
-0.058890402 0.0092636701 -0.25568575
-0.058887087 0.0093397666 -0.25569195
-0.058884144 0.0094137341 -0.25569218
-0.058881417 0.0094895707 -0.2556864
-0.058878981 0.0095652752 -0.2556746
-0.058876354 0.0096410653 -0.25566679
-0.058873408 0.0097150337 -0.25566706
-0.058870487 0.009790957 -0.25566524
-0.05886735 0.009865012 -0.25566947
-0.058864035 0.0099411095 -0.25567567
-0.058860995 0.010015121 -0.25567794
-0.058858268 0.010090956 -0.25567213
-0.058856029 0.010166573 -0.25565633
-0.058853593 0.010242277 -0.25564456
-0.05885065 0.010316245 -0.2556448
-0.05884644 0.01039078 -0.25567099
-0.058842305 0.010463317 -0.25569725
-0.058839381 0.01053924 -0.25569546
-0.058837339 0.01061477 -0.25567567
-0.058834709 0.010690561 -0.25566787
-0.058831394 0.010766659 -0.25567406
-0.058828257 0.010840714 -0.2556783
-0.058824725 0.010914944 -0.25569054
-0.058821492 0.010989042 -0.25569677
-0.058818668 0.011064921 -0.25569296
-0.058815647 0.011140887 -0.25569317
-0.05881241 0.011214986 -0.2556994
-0.058808979 0.011289173 -0.25570965
-0.058805745 0.011363272 -0.25571585
-0.058802724 0.011439237 -0.25571606
-0.058799997 0.011515073 -0.25571024
-0.058797151 0.011588998 -0.25570852
-0.05879401 0.011663052 -0.25571275
-0.058790505 0.011739237 -0.25572294
-0.058787268 0.011813335 -0.25572917
-0.058783934 0.011887479 -0.25573739
-0.058780406 0.011961709 -0.25574961
-0.058776781 0.012035982 -0.25576383
-0.058773078 0.012112254 -0.25577801
-0.058769841 0.012186353 -0.25578424
-0.0587667 0.012260409 -0.25578848
-0.058763195 0.012336591 -0.25579867
-0.058760446 0.012410473 -0.25579491
-0.058757719 0.012486308 -0.25578913
-0.058754481 0.012560407 -0.25579536
-0.058751367 0.012636417 -0.25579756
-0.058748346 0.012712383 -0.25579774
-0.058745205 0.012786439 -0.25580198
-0.058742087 0.012862448 -0.25580418
-0.058739342 0.012936329 -0.25580043
-0.058736321 0.013012294 -0.2558006
-0.058732986 0.013086436 -0.25580883
-0.05873014 0.013160361 -0.2558071
-0.058727611 0.01323611 -0.2557973
-0.058724493 0.013312119 -0.2557995
-0.058721256 0.013386218 -0.25580573
-0.058718331 0.01346214 -0.25580394
-0.058715876 0.013535891 -0.25579417
-0.058713149 0.013611726 -0.25578839
-0.058709934 0.013687779 -0.25579259
-0.058706701 0.013761878 -0.25579882
-0.058703657 0.01383589 -0.25580105
-0.058700539 0.013911899 -0.25580326
-0.058696523 0.013986348 -0.25582546
-0.058692701 0.014060708 -0.25584367
-0.058689468 0.014134808 -0.2558499
-0.058686543 0.01421073 -0.25584811
-0.058683407 0.014284785 -0.25585234
-0.058679994 0.014360925 -0.25586054
-0.058677152 0.01443485 -0.25585878
-0.058674324 0.014510729 -0.25585496
-0.058671501 0.014586608 -0.25585118
-0.058668949 0.014660401 -0.25584343
-0.058666512 0.014736106 -0.25583166
-0.058663785 0.01481194 -0.25582585
-0.058660861 0.014887863 -0.25582406
-0.058658019 0.014961787 -0.2558223
-0.058654781 0.015035886 -0.25582853
-0.05865147 0.015111983 -0.2558347
-0.058648232 0.015186083 -0.25584096
-0.058645114 0.015262092 -0.25584316
-0.058642484 0.015337883 -0.25583535
-0.058639541 0.015411852 -0.25583559
-0.058636621 0.015487773 -0.2558338
-0.058633968 0.015561611 -0.25582802
-0.058631241 0.015637446 -0.25582224
-0.058628004 0.015711546 -0.2558285
-0.058624692 0.015787642 -0.25583467
-0.058621556 0.015861697 -0.2558389
-0.058617853 0.015937969 -0.25585309
-0.058614321 0.016012199 -0.25586531
-0.058611788 0.016087947 -0.25585553
-0.05860953 0.016161609 -0.25584179
-0.058606606 0.016237531 -0.25583997
-0.058603372 0.016311631 -0.2558462
-0.058600254 0.016387641 -0.25584841
-0.058597114 0.016461696 -0.25585264
-0.058594193 0.016537618 -0.25585085
-0.058591563 0.016613409 -0.25584304
-0.058589108 0.01668716 -0.2558333
-0.05858599 0.016763169 -0.2558355
-0.05858285 0.016837224 -0.25583974
-0.058580026 0.016913105 -0.25583595
-0.058577377 0.01698694 -0.2558302
-0.058574747 0.017062733 -0.25582239
-0.058572311 0.017138436 -0.25581062
-0.058569565 0.017212316 -0.25580686
-0.058566347 0.01728837 -0.25581104
-0.058563113 0.01736247 -0.25581729
-0.058559995 0.017438479 -0.25581947
-0.058557246 0.017512361 -0.25581571
-0.058553934 0.017588457 -0.25582191
-0.058550112 0.017662818 -0.25584012
-0.0585468 0.017738916 -0.25584632
-0.058544051 0.017812796 -0.25584257
-0.05854103 0.017888762 -0.25584275
-0.058537602 0.017962947 -0.255853
-0.058534659 0.018036917 -0.25585324
-0.058532029 0.018112708 -0.25584543
-0.058528911 0.018188717 -0.25584763
-0.058525674 0.018262817 -0.25585386
-0.058522556 0.018338826 -0.25585604
-0.058519516 0.018412838 -0.2558583
-0.058516983 0.018488586 -0.2558485
-0.05851455 0.018564289 -0.25583673
-0.058511507 0.018638302 -0.25583896
-0.058508292 0.018714355 -0.25584316
-0.058505837 0.018788105 -0.25583342
-0.058503013 0.018863983 -0.2558296
-0.058499385 0.018938256 -0.25584382
-0.058496658 0.019014092 -0.25583804
-0.058494613 0.019089622 -0.25581825
-0.058491379 0.01916372 -0.25582451
-0.058487654 0.019238038 -0.25584072
-0.058484536 0.019314047 -0.25584289
-0.058482394 0.019389622 -0.25582513
-0.05848033 0.019463196 -0.2558074
-0.058476821 0.01953938 -0.25581756
-0.05847339 0.019613568 -0.25582781
-0.058470663 0.019689402 -0.255822
-0.058468014 0.019763239 -0.25581625
-0.058465481 0.019838987 -0.25580648
-0.058462732 0.019912869 -0.25580272
-0.05845942 0.019988965 -0.25580889
-0.05845638 0.020062977 -0.25581115
-0.058453359 0.020138942 -0.25581133
-0.058450535 0.020214822 -0.25580755
-0.058447786 0.020288702 -0.25580379
-0.058445059 0.020364538 -0.25579798
-0.058442604 0.020438287 -0.25578827
-0.058439974 0.020514078 -0.25578046
-0.058437519 0.02058783 -0.25577071
-0.058435082 0.020663533 -0.25575891
-0.058432356 0.020739369 -0.25575313
-0.058429901 0.020813119 -0.25574338
-0.058427855 0.020888647 -0.2557236
-0.058425009 0.020962572 -0.25572187
-0.05842109 0.021036977 -0.25574207
-0.058417875 0.021113031 -0.25574628
-0.058415443 0.021188734 -0.25573447
-0.058412988 0.021262484 -0.25572473
-0.058409967 0.02133845 -0.25572494
-0.058406729 0.02141255 -0.25573117
-0.058403905 0.021488428 -0.25572735
-0.058401156 0.021562308 -0.2557236
-0.058398236 0.021638231 -0.25572181
-0.058395877 0.021711938 -0.25571007
-0.058393054 0.021787817 -0.25570628
-0.058389544 0.021864001 -0.25571644
-0.058386404 0.021938056 -0.2557207
-0.058383778 0.022013847 -0.2557129
-0.05838142 0.022087554 -0.25570115
-0.058379255 0.022161173 -0.25568542
-0.058376528 0.022237008 -0.25567964
-0.05837341 0.022313017 -0.25568181
-0.058370274 0.022387072 -0.25568604
-0.058367155 0.022463083 -0.25568825
-0.058364503 0.022536919 -0.2556825
-0.05836197 0.022612669 -0.25567272
-0.058359712 0.022686331 -0.25565898
-0.058357179 0.022762079 -0.25564918
-0.058354821 0.022835784 -0.25563744
-0.058351997 0.022911664 -0.25563365
-0.05834876 0.022985762 -0.25563988
-0.058346033 0.023061598 -0.2556341
-0.058343187 0.023135521 -0.25563234
-0.058339778 0.023211662 -0.25564051
-0.058336835 0.023285631 -0.25564075
-0.058333911 0.023361553 -0.25563896
-0.058330677 0.023435652 -0.25564519
-0.058327459 0.023511704 -0.25564939
-0.058324907 0.023585498 -0.25564164
-0.058322862 0.023661029 -0.25562185
-0.058320116 0.023734909 -0.25561813
-0.058316704 0.02381105 -0.25562629
-0.058313489 0.023887103 -0.25563049
-0.058310449 0.023961116 -0.25563273
-0.058307409 0.024035126 -0.25563496
-0.058304779 0.024110917 -0.25562716
-0.058302224 0.024184711 -0.25561941
-0.058299009 0.024260765 -0.25562361
-0.058295991 0.024336731 -0.25562382
-0.058293145 0.024410656 -0.25562206
-0.058289636 0.02448684 -0.25563222
-0.058286108 0.02456107 -0.25564447
-0.05828299 0.024637079 -0.25564665
-0.058279969 0.024713045 -0.25564685
-0.058276441 0.024787275 -0.25565907
-0.058272932 0.024863459 -0.25566927
-0.058269326 0.024939686 -0.25568146
-0.058265701 0.025013961 -0.25569564
-0.058262583 0.02508997 -0.25569785
-0.058259834 0.025163852 -0.25569409
-0.058256619 0.025239903 -0.25569829
-0.058252625 0.025316307 -0.25571847
-0.058248922 0.025392579 -0.25573263
-0.058245685 0.025466677 -0.25573885
-0.058241788 0.025543036 -0.25575703
-0.058237985 0.02561935 -0.25577322
-0.058235139 0.025693275 -0.25577146
-0.058232315 0.025769155 -0.25576764
-0.0582291 0.025845207 -0.25577185
-0.058226157 0.025919177 -0.25577208
-0.058223039 0.025995186 -0.25577426
-0.058219336 0.026071457 -0.25578845
-0.058215439 0.026147816 -0.25580662
-0.058212496 0.026221784 -0.25580686
-0.058209669 0.026297662 -0.25580305
-0.058205966 0.026373934 -0.25581723
-0.058201972 0.026450336 -0.25583741
-0.058197975 0.026526738 -0.25585759
-0.058194641 0.026600882 -0.25586581
-0.058191426 0.026676934 -0.25587001
-0.058188114 0.026753031 -0.25587618
-0.058185171 0.026827 -0.25587642
-0.058182247 0.026902921 -0.25587463
-0.058178838 0.026979063 -0.2558828
-0.058175135 0.027055334 -0.25589699
-0.058171723 0.027131476 -0.25590518
-0.058168292 0.027205661 -0.2559154
-0.05816412 0.027284104 -0.25593752
-0.058160495 0.027358379 -0.25595173
-0.05815699 0.027434563 -0.25596192
-0.058153674 0.02751066 -0.25596809
-0.058150169 0.027586844 -0.25597829
-0.05814578 0.027663421 -0.25600645
-0.058141299 0.027740043 -0.25603661
-0.058136638 0.027818704 -0.25606871
-0.058132742 0.027895063 -0.25608689
-0.058128648 0.027971508 -0.25610903
-0.058123987 0.028050171 -0.25614113
-0.058118626 0.028127184 -0.25618926
-0.058112018 0.028206719 -0.25626132
-0.058107164 0.02828547 -0.25629741
-0.058638655 0.005244487 -0.2558977
-0.058639131 0.0053267423 -0.25581983
-0.058637008 0.0054042703 -0.25580001
-0.058634672 0.0054799318 -0.25578621
-0.058632743 0.0055573713 -0.2557624
-0.058630798 0.0056328569 -0.25574061
-0.058629084 0.0057121646 -0.25571078
-0.058627646 0.005789388 -0.25567695
-0.058624916 0.0058652218 -0.25567117
-0.058621582 0.0059393635 -0.2556794
-0.058618952 0.0060151555 -0.25567159
-0.058616418 0.0060909046 -0.25566182
-0.058613982 0.0061666071 -0.25565004
-0.058611061 0.0062425304 -0.25564823
-0.058607843 0.0063185832 -0.25565243
-0.058604605 0.0063926838 -0.25565866
-0.058601175 0.0064668693 -0.25566888
-0.058597334 0.0065392768 -0.25568914
-0.058593217 0.0066137668 -0.25571334
-0.058589667 0.0066860421 -0.25572762
-0.058586042 0.006760316 -0.25574183
-0.05858263 0.0068364572 -0.25575003
-0.058580194 0.0069121607 -0.25573826
-0.058577564 0.0069879526 -0.25573045
-0.058574814 0.0070618335 -0.2557267
-0.058572087 0.0071376674 -0.25572091
-0.058569361 0.0072135041 -0.2557151
-0.05856663 0.0072893389 -0.25570929
-0.058563709 0.0073652603 -0.2557075
-0.058560863 0.0074391849 -0.25570574
-0.058558132 0.0075150207 -0.25569996
-0.058555599 0.0075907689 -0.25569016
-0.05855326 0.0076664286 -0.25567639
-0.05855063 0.0077422205 -0.25566858
-0.058547709 0.0078181438 -0.25566679
-0.058545154 0.0078919362 -0.25565904
-0.058542643 0.0079696383 -0.25564721
-0.058540009 0.0080454303 -0.25563943
-0.058537263 0.0081193103 -0.25563568
-0.058534339 0.0081952335 -0.25563386
-0.058531199 0.0082692895 -0.25563812
-0.058528375 0.0083451681 -0.25563431
-0.05852633 0.0084206965 -0.25561452
-0.058523912 0.0084983557 -0.25560069
-0.058520872 0.008572368 -0.25560296
-0.058518045 0.0086482456 -0.25559914
-0.058515511 0.0087239947 -0.25558934
-0.058512978 0.008799742 -0.25557956
-0.058509938 0.0088737532 -0.2555818
-0.058506507 0.0089479396 -0.25559202
-0.058503076 0.009022126 -0.25560224
-0.058499858 0.0090981796 -0.25560644
-0.058497012 0.0091721043 -0.25560468
-0.058494087 0.0092480257 -0.2556029
-0.058491457 0.0093238177 -0.25559509
-0.058488708 0.0093976986 -0.25559133
-0.05848559 0.0094737085 -0.25559354
-0.058482744 0.0095476322 -0.25559178
-0.058480017 0.009623467 -0.25558597
-0.058477189 0.0096993465 -0.25558218
-0.058474265 0.0097752679 -0.2555804
-0.05847152 0.0098491497 -0.25557664
-0.058468401 0.0099251587 -0.25557882
-0.058465455 0.0099991271 -0.25557908
-0.058462217 0.010073226 -0.25558531
-0.058459003 0.01014928 -0.25558949
-0.058455765 0.010223378 -0.25559574
-0.058452845 0.010299301 -0.25559393
-0.058449801 0.010373313 -0.25559616
-0.058446661 0.010447369 -0.25560039
-0.058443546 0.010523377 -0.2556026
-0.058440406 0.010597433 -0.25560683
-0.058437675 0.010673268 -0.25560105
-0.058435045 0.01074906 -0.25559324
-0.058431614 0.010823246 -0.25560349
-0.058427773 0.010895652 -0.25562373
-0.058424555 0.010971704 -0.25562793
-0.058421709 0.011045629 -0.25562617
-0.0584183 0.01112177 -0.25563437
-0.058414865 0.011195957 -0.25564459
-0.058412019 0.01126988 -0.25564283
-0.058409099 0.011345804 -0.25564104
-0.058405861 0.011419903 -0.25564727
-0.058402255 0.011496129 -0.25565946
-0.058399018 0.011570229 -0.25566569
-0.058395974 0.01164424 -0.25566792
-0.058392663 0.011720338 -0.25567412
-0.058389425 0.011794437 -0.25568032
-0.058386385 0.011868448 -0.25568259
-0.058382854 0.011942678 -0.25569481
-0.058379032 0.012017039 -0.25571302
-0.058375623 0.012093179 -0.25572121
-0.058372676 0.012167148 -0.25572145
-0.058369659 0.012243113 -0.25572163
-0.05836603 0.012317386 -0.25573587
-0.058362402 0.01239166 -0.25575009
-0.058359288 0.012467671 -0.2557523
-0.058356926 0.012541377 -0.25574055
-0.058354296 0.012617168 -0.25573277
-0.058351666 0.012692959 -0.25572497
-0.058348741 0.012768882 -0.25572318
-0.058345214 0.012843112 -0.2557354
-0.058341783 0.012917298 -0.25574562
-0.058338858 0.01299322 -0.2557438
-0.058336303 0.013067015 -0.25573605
-0.058333769 0.013142762 -0.25572628
-0.058330361 0.013218902 -0.25573447
-0.05832693 0.013293088 -0.2557447
-0.058323983 0.013367057 -0.25574493
-0.058320768 0.013443111 -0.25574914
-0.058317531 0.013517208 -0.25575536
-0.058314413 0.013593218 -0.25575754
-0.058311176 0.013667317 -0.2557638
-0.058308136 0.013741329 -0.25576603
-0.058305018 0.013817338 -0.25576821
-0.058301486 0.013891568 -0.25578046
-0.058297861 0.013965842 -0.25579467
-0.058294721 0.014039897 -0.25579891
-0.0582917 0.014115863 -0.25579911
-0.058288485 0.014191917 -0.25580329
-0.058285344 0.014265972 -0.25580752
-0.05828242 0.014341895 -0.25580573
-0.058280259 0.014415514 -0.25579
-0.058277726 0.014491261 -0.25578022
-0.058274608 0.014567271 -0.2557824
-0.058271758 0.014641196 -0.25578064
-0.058269326 0.0147169 -0.25576884
-0.058266595 0.014792735 -0.25576305
-0.058263164 0.014866921 -0.25577331
-0.058259442 0.014941238 -0.25578952
-0.058256127 0.015017335 -0.25579572
-0.058253497 0.015093126 -0.25578791
-0.058251429 0.015166702 -0.25577018
-0.058248896 0.01524245 -0.25576037
-0.058245778 0.01531846 -0.25576258
-0.058242738 0.015392471 -0.25576481
-0.058240205 0.015468219 -0.25575501
-0.058237456 0.0155421 -0.25575128
-0.058233947 0.015618284 -0.25576144
-0.058230419 0.015692513 -0.25577369
-0.058226984 0.015766699 -0.25578392
-0.058223672 0.015842797 -0.25579011
-0.058220435 0.015916895 -0.25579631
-0.058217317 0.015992906 -0.25579852
-0.058214374 0.016066875 -0.25579876
-0.058211256 0.016142882 -0.25580096
-0.058208309 0.016216852 -0.2558012
-0.058205485 0.01629273 -0.25579739
-0.058202952 0.016368479 -0.25578761
-0.058200594 0.016442183 -0.25577587
-0.058198255 0.016517844 -0.2557621
-0.058195625 0.016593637 -0.25575429
-0.058192484 0.016667692 -0.25575852
-0.058189075 0.016743831 -0.25576672
-0.058186032 0.016817844 -0.25576895
-0.058182992 0.016891856 -0.25577119
-0.058180068 0.016967779 -0.2557694
-0.058177341 0.017043613 -0.25576359
-0.058174785 0.017117407 -0.25575584
-0.058172252 0.017193154 -0.25574607
-0.058169603 0.017266992 -0.25574031
-0.058166582 0.017342959 -0.25574052
-0.058163635 0.017416926 -0.25574076
-0.058160126 0.01749311 -0.25575095
-0.058156405 0.017567428 -0.25576717
-0.05815319 0.017643481 -0.25577134
-0.05815044 0.017717361 -0.25576758
-0.058147222 0.017793415 -0.25577179
-0.058143694 0.017867643 -0.255784
-0.058140673 0.01794361 -0.25578421
-0.058138214 0.018017361 -0.25577447
-0.058135584 0.018093152 -0.25576666
-0.058133032 0.018166944 -0.25575894
-0.058130011 0.018242911 -0.25575912
-0.058126796 0.018318964 -0.25576332
-0.058123656 0.018393019 -0.25576755
-0.058120929 0.018468855 -0.25576174
-0.058117982 0.018542822 -0.25576198
-0.05811467 0.018618919 -0.25576818
-0.058112018 0.018692758 -0.25576243
-0.058109973 0.018768286 -0.25574267
-0.058107536 0.018843992 -0.25573087
-0.0581044 0.018918047 -0.2557351
-0.058100987 0.018994186 -0.25574329
-0.058097556 0.019068373 -0.25575352
-0.05809471 0.019142298 -0.25575179
-0.058091979 0.019218132 -0.25574598
-0.058089036 0.019292101 -0.25574622
-0.058085822 0.019368153 -0.25575042
-0.058082681 0.01944221 -0.25575465
-0.058080245 0.019517913 -0.25574285
-0.0580782 0.019593444 -0.25572309
-0.058075942 0.019667106 -0.25570935
-0.058073409 0.019742854 -0.25569955
-0.058070268 0.019816909 -0.25570381
-0.058066856 0.01989305 -0.25571197
-0.058064129 0.019968884 -0.25570619
-0.058061574 0.020042678 -0.25569844
-0.058058068 0.020118862 -0.25570861
-0.058054928 0.020192917 -0.25571287
-0.058052178 0.020266799 -0.25570911
-0.058049157 0.020342765 -0.25570929
-0.058046017 0.02041682 -0.25571352
-0.058043193 0.020492699 -0.25570974
-0.05804066 0.020568447 -0.25569993
-0.058038592 0.020642022 -0.25568223
-0.058036648 0.020717509 -0.25566044
-0.058033798 0.020791432 -0.25565869
-0.05803068 0.020867443 -0.25566089
-0.058028027 0.02094128 -0.25565514
-0.058025301 0.021017114 -0.25564933
-0.058022551 0.021090996 -0.25564557
-0.058019433 0.021167004 -0.25564778
-0.058016412 0.021242971 -0.25564799
-0.058013663 0.021316852 -0.2556442
-0.05801072 0.02139082 -0.25564447
-0.058007993 0.021466656 -0.25563866
-0.058005437 0.021540448 -0.25563091
-0.058002416 0.021616414 -0.25563112
-0.057999667 0.021690296 -0.25562736
-0.057996452 0.021766348 -0.25563157
-0.057993237 0.021842401 -0.25563574
-0.057990488 0.021916283 -0.25563198
-0.057987858 0.021992074 -0.2556242
-0.057985205 0.022065911 -0.25561845
-0.057982456 0.022139791 -0.2556147
-0.057979435 0.022215758 -0.25561491
-0.057976685 0.022289639 -0.25561115
-0.057974152 0.022365388 -0.25560135
-0.057971619 0.022441134 -0.25559157
-0.057969652 0.022514667 -0.25557184
-0.057967607 0.022590196 -0.25555205
-0.057964563 0.022664208 -0.25555432
-0.05796086 0.02274048 -0.25556847
-0.057957429 0.022814665 -0.2555787
-0.057954289 0.02288872 -0.25558296
-0.057951171 0.022964731 -0.25558513
-0.057948347 0.023040609 -0.25558135
-0.057946086 0.023114271 -0.25556761
-0.057943746 0.023189932 -0.25555381
-0.057941195 0.023263726 -0.25554609
-0.05793798 0.023339778 -0.25555027
-0.057934936 0.02341379 -0.2555525
-0.057932109 0.023489669 -0.25554872
-0.057929654 0.023563419 -0.25553897
-0.057927001 0.023637258 -0.25553322
-0.057923883 0.023713266 -0.25553542
-0.057920843 0.023787279 -0.25553763
-0.057918016 0.023863157 -0.25553387
-0.057914995 0.023939123 -0.25553405
-0.057911955 0.024013136 -0.25553629
-0.057908837 0.024089145 -0.25553849
-0.057905503 0.024163287 -0.25554672
-0.057902578 0.024239209 -0.2555449
-0.057899732 0.024313133 -0.25554317
-0.057896614 0.024389144 -0.25554535
-0.057893571 0.024463154 -0.25554758
-0.057890844 0.02453899 -0.2555418
-0.057888191 0.024612827 -0.25553605
-0.057885073 0.024688836 -0.25553823
-0.057881348 0.024763154 -0.25555444
-0.057877742 0.024839383 -0.25556666
-0.05787443 0.024915479 -0.25557283
-0.057870727 0.024991751 -0.25558698
-0.05786749 0.02506585 -0.25559324
-0.057864252 0.025139948 -0.25559947
-0.057860743 0.025216132 -0.25560963
-0.057856552 0.025292622 -0.25563383
-0.057852458 0.025369067 -0.25565597
-0.057848852 0.025445295 -0.25566816
-0.057845615 0.025519395 -0.25567439
-0.057842109 0.025595579 -0.25568455
-0.057838403 0.025671851 -0.25569874
-0.057835188 0.025747903 -0.25570294
-0.057832342 0.025821827 -0.25570118
-0.057829224 0.025897838 -0.25570339
-0.057825793 0.025972024 -0.25571361
-0.057822675 0.026048034 -0.25571579
-0.05781975 0.026123956 -0.255714
-0.05781661 0.026198011 -0.25571823
-0.057813101 0.026274197 -0.25572842
-0.057809595 0.026350379 -0.25573859
-0.057806455 0.026424434 -0.25574282
-0.057803042 0.026500575 -0.25575101
-0.057799924 0.026576586 -0.25575322
-0.057797566 0.026650291 -0.25574148
-0.057794642 0.026726214 -0.25573966
-0.057790745 0.026802573 -0.25575784
-0.057786845 0.026878931 -0.25577599
-0.057783142 0.026955202 -0.25579017
-0.057779808 0.027029347 -0.2557984
-0.057776004 0.027105659 -0.25581458
-0.057772204 0.027181976 -0.25583076
-0.057768695 0.02725816 -0.25584096
-0.057764992 0.027334431 -0.25585511
-0.057761192 0.027410746 -0.2558713
-0.057757292 0.027487105 -0.25588948
-0.057752907 0.027563682 -0.25591761
-0.057748344 0.0276423 -0.25594771
-0.057743862 0.02771892 -0.25597787
-0.057740137 0.027793238 -0.25599408
-0.057736158 0.027871594 -0.2560122
-0.05773158 0.027948258 -0.25604436
-0.057726726 0.028027007 -0.25608045
-0.05772195 0.02810376 -0.2561166
-0.057716411 0.028182814 -0.2561667
-0.057709314 0.028262567 -0.25624871
-0.05818617 0.005147161 -0.2559765
-0.05818823 0.0052306708 -0.25586462
-0.058188513 0.0053130165 -0.25579071
-0.058187097 0.005392191 -0.25575489
-0.058185268 0.0054695876 -0.25572908
-0.058183827 0.0055468092 -0.25569525
-0.058182411 0.0056259856 -0.2556594
-0.058180679 0.0057033412 -0.2556316
-0.058178343 0.005779 -0.2556178
-0.058175907 0.0058547035 -0.25560603
-0.058173589 0.005932318 -0.2555902
-0.058171038 0.0060061114 -0.25558245
-0.058168113 0.0060820347 -0.25558063
-0.058164977 0.0061560906 -0.2555849
-0.058161661 0.0062321862 -0.25559106
-0.058158327 0.0063063297 -0.25559932
-0.058154702 0.0063806027 -0.25561354
-0.058151074 0.0064548776 -0.25562775
-0.05814784 0.0065289764 -0.25563398
-0.058144603 0.0066030752 -0.25564021
-0.058141463 0.0066771312 -0.25564444
-0.058138344 0.0067531392 -0.25564665
-0.058135204 0.0068271952 -0.25565088
-0.058132067 0.0069012512 -0.25565511
-0.058129143 0.0069771726 -0.25565332
-0.058126125 0.0070531387 -0.2556535
-0.05812357 0.007126933 -0.25564575
-0.058120746 0.0072028106 -0.25564197
-0.058117919 0.0072786901 -0.25563818
-0.058115583 0.0073543508 -0.25562438
-0.058113459 0.0074318778 -0.25560457
-0.058111317 0.0075074509 -0.25558677
-0.058109295 0.0075849351 -0.25556496
-0.058106959 0.0076605957 -0.25555116
-0.058104012 0.0077345641 -0.25555143
-0.058100797 0.0078106178 -0.2555556
-0.058097661 0.0078846738 -0.25555986
-0.058094833 0.0079605514 -0.25555605
-0.0580923 0.0080362987 -0.25554627
-0.058089357 0.0081102671 -0.25554651
-0.058086239 0.008186277 -0.25554869
-0.05808349 0.008260157 -0.25554493
-0.058080859 0.0083359499 -0.25553715
-0.058078621 0.0084115667 -0.25552136
-0.058075991 0.0084873578 -0.25551358
-0.058072872 0.0085633676 -0.25551575
-0.058069736 0.0086374227 -0.25551999
-0.058066811 0.0087133441 -0.2555182
-0.058064062 0.0087872259 -0.25551444
-0.058061138 0.0088631492 -0.25551265
-0.058058508 0.0089389402 -0.25550485
-0.058055762 0.0090128211 -0.25550109
-0.058052231 0.0090870503 -0.25551331
-0.058049016 0.009163104 -0.25551751
-0.05804617 0.0092370287 -0.25551575
-0.058042955 0.0093130814 -0.25551996
-0.058039814 0.0093871364 -0.25552419
-0.058036774 0.0094611477 -0.25552642
-0.058033656 0.0095371585 -0.25552863
-0.058030929 0.0096129943 -0.25552282
-0.058028374 0.0096867876 -0.25551507
-0.058025353 0.0097627528 -0.25551528
-0.058022335 0.0098387199 -0.25551546
-0.058019388 0.0099126864 -0.25551569
-0.058016151 0.0099867862 -0.25552195
-0.058013037 0.010062796 -0.25552416
-0.058010191 0.010136721 -0.25552237
-0.05800717 0.010212686 -0.25552258
-0.058003932 0.010286786 -0.25552881
-0.058001108 0.010362663 -0.25552499
-0.057998359 0.010436544 -0.25552127
-0.057995316 0.010510556 -0.2555235
-0.057992198 0.010586566 -0.25552571
-0.057989255 0.010660535 -0.25552595
-0.057986137 0.010736544 -0.25552812
-0.057982802 0.010810686 -0.25553638
-0.057979666 0.010884742 -0.25554061
-0.05797635 0.01096084 -0.25554678
-0.057973113 0.011034939 -0.25555301
-0.057970073 0.01110895 -0.25555527
-0.057966348 0.011183267 -0.25557148
-0.057962429 0.011257671 -0.25559169
-0.057959095 0.011331813 -0.25559992
-0.057956073 0.01140778 -0.25560012
-0.05795313 0.011481748 -0.25560036
-0.057950012 0.011557758 -0.25560257
-0.057946973 0.011631769 -0.2556048
-0.057943441 0.011705999 -0.25561702
-0.057939719 0.011780317 -0.25563323
-0.057935797 0.011854721 -0.25565344
-0.057931975 0.011929081 -0.25567168
-0.057928838 0.012003137 -0.25567591
-0.057926014 0.012079015 -0.2556721
-0.057922777 0.012153115 -0.25567836
-0.05791907 0.012229387 -0.25569254
-0.05791603 0.012303397 -0.25569475
-0.057913594 0.012379101 -0.25568298
-0.057911061 0.012454851 -0.25567317
-0.057908531 0.012530597 -0.25566339
-0.057906583 0.012606083 -0.25564161
-0.057904735 0.012681527 -0.25561786
-0.057902005 0.012757361 -0.25561205
-0.057898086 0.012831765 -0.25563228
-0.05789395 0.012904303 -0.25565851
-0.057890054 0.012980662 -0.25567669
-0.057886329 0.01305498 -0.2556929
-0.057882994 0.013129123 -0.25570112
-0.057879757 0.013203221 -0.25570738
-0.057876617 0.013277275 -0.25571162
-0.057873599 0.013353243 -0.25571179
-0.057870675 0.013429165 -0.25571001
-0.057867829 0.01350309 -0.25570825
-0.057865005 0.013578967 -0.25570446
-0.057862256 0.013652848 -0.25570071
-0.057859235 0.013728815 -0.25570089
-0.057855606 0.013803089 -0.25571513
-0.057852175 0.013877275 -0.25572535
-0.057849351 0.013953153 -0.25572154
-0.057846017 0.014027296 -0.25572976
-0.057842195 0.014101657 -0.255748
-0.05783888 0.014177754 -0.25575417
-0.057835646 0.014251853 -0.25576043
-0.057832215 0.014326039 -0.25577062
-0.057829194 0.014402005 -0.25577083
-0.057826951 0.014477623 -0.25575507
-0.057824813 0.014553195 -0.25573727
-0.057821866 0.014627163 -0.25573751
-0.057818651 0.014703217 -0.25574172
-0.057816099 0.01477701 -0.25573397
-0.057813272 0.014852889 -0.25573015
-0.057810232 0.014926901 -0.25573242
-0.057807505 0.015002736 -0.25572661
-0.057804678 0.015078614 -0.25572282
-0.05780115 0.015152844 -0.25573504
-0.057797834 0.015228941 -0.25574124
-0.057794891 0.01530291 -0.25574148
-0.057791851 0.015376922 -0.25574371
-0.057789613 0.015452538 -0.25572792
-0.057787273 0.015528198 -0.25571415
-0.057783864 0.01560434 -0.25572234
-0.057780724 0.015678395 -0.25572658
-0.057777975 0.015752275 -0.25572282
-0.057774954 0.015828241 -0.255723
-0.057771426 0.015902471 -0.25573522
-0.057767622 0.015978787 -0.2557514
-0.057764582 0.016052797 -0.25575364
-0.057761952 0.016128588 -0.25574586
-0.057759203 0.01620247 -0.2557421
-0.057756379 0.016278349 -0.25573829
-0.057753652 0.016354185 -0.25573251
-0.057751 0.016428022 -0.25572675
-0.057748955 0.01650355 -0.25570697
-0.057747107 0.016578993 -0.25568321
-0.057743967 0.016653048 -0.25568745
-0.057740167 0.016729364 -0.25570363
-0.057737026 0.016803419 -0.25570786
-0.057734083 0.016877387 -0.2557081
-0.057730772 0.016953483 -0.2557143
-0.057727337 0.017027671 -0.25572452
-0.057724122 0.017103724 -0.25572872
-0.057721376 0.017177604 -0.25572497
-0.057718452 0.017253527 -0.25572315
-0.057715409 0.01732754 -0.25572538
-0.057712488 0.017403461 -0.2557236
-0.057709642 0.017477386 -0.25572184
-0.057706621 0.017553352 -0.25572205
-0.057703383 0.01762745 -0.25572824
-0.057700366 0.017703418 -0.25572845
-0.057697617 0.017777298 -0.2557247
-0.057694986 0.017853089 -0.25571692
-0.05769226 0.017928924 -0.25571111
-0.057689607 0.018002762 -0.25570536
-0.05768688 0.018078595 -0.25569957
-0.057684228 0.018152433 -0.25569382
-0.057681013 0.018228486 -0.25569803
-0.057677481 0.018302716 -0.25571024
-0.057674561 0.018378638 -0.25570846
-0.057672106 0.018452389 -0.25569868
-0.057669085 0.018528355 -0.25569889
-0.057666041 0.018602367 -0.25570112
-0.057663217 0.018678246 -0.25569731
-0.057660468 0.018752126 -0.25569358
-0.057657644 0.018828005 -0.25568977
-0.057654798 0.018901929 -0.25568801
-0.057651289 0.018978113 -0.2556982
-0.057647761 0.019052343 -0.25571042
-0.057644445 0.01912844 -0.25571662
-0.057641696 0.019202322 -0.25571287
-0.057638969 0.019278156 -0.25570709
-0.057636049 0.019354079 -0.25570527
-0.057633203 0.019428004 -0.25570351
-0.057630453 0.019501884 -0.25569975
-0.057627823 0.019577675 -0.25569195
-0.057625268 0.019651469 -0.25568423
-0.057622444 0.019727347 -0.25568044
-0.057619132 0.019803444 -0.25568661
-0.057616185 0.019877413 -0.25568685
-0.057613555 0.019953204 -0.25567907
-0.0576111 0.020026954 -0.25566933
-0.057609055 0.020102484 -0.25564954
-0.0576066 0.020176234 -0.25563979
-0.057603873 0.020252069 -0.25563401
-0.057601027 0.020325992 -0.25563225
-0.0575983 0.020401828 -0.25562644
-0.05759567 0.020477619 -0.25561866
-0.057593506 0.020551238 -0.25560293
-0.057590954 0.020625032 -0.25559518
-0.057587638 0.020701129 -0.25560138
-0.057584792 0.020775054 -0.25559962
-0.057581969 0.020850932 -0.2555958
-0.057579219 0.020924814 -0.25559205
-0.057576396 0.021000693 -0.25558826
-0.057573374 0.021076659 -0.25558847
-0.057570137 0.021150757 -0.25559467
-0.057567019 0.021226767 -0.25559688
-0.057564076 0.021300735 -0.25559711
-0.057561032 0.021374747 -0.25559938
-0.057558503 0.021450493 -0.25558957
-0.057556827 0.021523895 -0.25556386
-0.057554878 0.02159938 -0.25554207
-0.057551861 0.021675346 -0.25554228
-0.057548426 0.021749534 -0.2555525
-0.057544529 0.021825893 -0.25557068
-0.057540998 0.021900121 -0.2555829
-0.057537783 0.021976175 -0.2555871
-0.057534937 0.022050099 -0.25558534
-0.057532188 0.022123981 -0.25558159
-0.057529561 0.022199772 -0.25557378
-0.057527006 0.022273567 -0.25556606
-0.057524376 0.022349358 -0.25555825
-0.057521824 0.02242315 -0.2555505
-0.057519291 0.022498898 -0.25554073
-0.057517149 0.022574471 -0.25552294
-0.057515081 0.022648048 -0.2555052
-0.057513017 0.022721622 -0.25548747
-0.05751029 0.022797458 -0.25548166
-0.057506565 0.022871774 -0.2554979
-0.057502959 0.022948002 -0.25551009
-0.057500016 0.02302197 -0.25551033
-0.057497285 0.023097806 -0.25550452
-0.05749454 0.023171686 -0.25550076
-0.057491615 0.023247609 -0.25549898
-0.057488576 0.023321621 -0.25550121
-0.057485748 0.0233975 -0.2554974
-0.057483878 0.023470987 -0.25547567
-0.057481349 0.023546735 -0.25546589
-0.057478502 0.023620659 -0.25546414
-0.057475481 0.023696626 -0.25546432
-0.057472147 0.023770768 -0.25547257
-0.057468928 0.023846822 -0.25547677
-0.05746628 0.023920659 -0.25547099
-0.05746353 0.023994539 -0.25546724
-0.057460316 0.024070593 -0.25547144
-0.057457197 0.024146602 -0.25547364
-0.057454057 0.024220658 -0.25547788
-0.057450842 0.024296712 -0.25548208
-0.057447802 0.024370722 -0.25548428
-0.057444684 0.024446733 -0.25548649
-0.057441641 0.024520744 -0.25548875
-0.057438426 0.024596797 -0.25549293
-0.057435092 0.02467094 -0.25550115
-0.057431486 0.024747167 -0.25551334
-0.057428271 0.024823222 -0.25551754
-0.057425424 0.024897147 -0.25551578
-0.05742221 0.024973199 -0.25551996
-0.057418972 0.025047299 -0.25552619
-0.057415757 0.02512335 -0.25553039
-0.057412345 0.025199492 -0.25553858
-0.05740862 0.025273809 -0.2555548
-0.05740482 0.025350124 -0.25557095
-0.057401117 0.025426395 -0.25558513
-0.057397585 0.025500625 -0.25559735
-0.057394564 0.025576591 -0.25559756
-0.057392012 0.025650386 -0.25558981
-0.0573886 0.025726527 -0.25559801
-0.057384703 0.025802884 -0.25561616
-0.057381291 0.025879025 -0.25562435
-0.057377957 0.025953168 -0.25563258
-0.057374839 0.026029177 -0.25563478
-0.057371527 0.026105274 -0.25564095
-0.057368387 0.02617933 -0.25564519
-0.057365075 0.026255427 -0.25565138
-0.057361372 0.026331699 -0.25566557
-0.057357471 0.026408058 -0.25568372
-0.057354059 0.026484199 -0.25569192
-0.057350822 0.026558297 -0.25569814
-0.057347607 0.02663435 -0.25570232
-0.057344295 0.026710447 -0.25570852
-0.057340764 0.026784677 -0.25572073
-0.057337258 0.026860861 -0.25573093
-0.057333648 0.02693709 -0.25574312
-0.057330336 0.027013186 -0.25574929
-0.05732673 0.027089413 -0.25576147
-0.057323106 0.027163688 -0.25577569
-0.057319596 0.027239872 -0.25578588
-0.057316378 0.027315926 -0.25579005
-0.057312969 0.027392065 -0.25579825
-0.05730829 0.027468774 -0.25583237
-0.057303902 0.027545352 -0.25586057
-0.057299145 0.027624056 -0.25589466
-0.057294857 0.02770059 -0.2559208
-0.057291329 0.02777482 -0.25593305
-0.057287741 0.027853001 -0.25594318
-0.057283919 0.027927361 -0.25596139
-0.057279553 0.028005894 -0.2559875
-0.057274211 0.028084863 -0.25603357
-0.057268556 0.028162006 -0.25608769
-0.057262432 0.028241321 -0.25614977
-0.05725389 0.028323684 -0.25625968
-0.057690896 0.0051121367 -0.25599623
-0.057693485 0.0051993411 -0.25587028
-0.057692457 0.0052783415 -0.25582644
-0.057691138 0.005357475 -0.25578859
-0.0576897 0.0054346994 -0.2557548
-0.057688184 0.0055139195 -0.25572094
-0.057687137 0.0055909669 -0.25567916
-0.057685331 0.0056703165 -0.2556513
-0.057683285 0.0057458449 -0.25563151
-0.057680849 0.0058215521 -0.25561973
-0.057678219 0.0058973432 -0.25561196
-0.057675686 0.0059730913 -0.25560215
-0.057673078 0.0060508372 -0.25559232
-0.057670429 0.0061246725 -0.25558656
-0.057667408 0.0062006414 -0.25558674
-0.057664465 0.006274608 -0.25558701
-0.057661347 0.006350616 -0.25558919
-0.057657819 0.006424848 -0.25560144
-0.057654388 0.0064990334 -0.25561166
-0.057650954 0.0065732216 -0.25562188
-0.057647523 0.0066474061 -0.2556321
-0.057643875 0.0067197243 -0.25564837
-0.057640173 0.0067959968 -0.25566256
-0.05763723 0.0068699652 -0.2556628
-0.057634503 0.0069458 -0.25565702
-0.057631776 0.0070216348 -0.25565121
-0.057629243 0.007097383 -0.2556414
-0.057626396 0.0071713077 -0.25563967
-0.057623379 0.0072472738 -0.25563985
-0.057621039 0.0073229335 -0.25562608
-0.057618801 0.0073985513 -0.25561029
-0.057615977 0.0074744299 -0.25560647
-0.057612956 0.007550396 -0.25560671
-0.057610404 0.0076241884 -0.25559893
-0.057608381 0.0077016735 -0.25557712
-0.057606943 0.007778896 -0.25554332
-0.057604603 0.0078545567 -0.25552952
-0.057601485 0.0079305666 -0.25553173
-0.057598349 0.0080046216 -0.25553596
-0.057595231 0.0080806315 -0.25553817
-0.057592191 0.0081546428 -0.2555404
-0.057589442 0.0082285237 -0.25553665
-0.057586323 0.0083045335 -0.25553885
-0.05758379 0.0083802808 -0.25552905
-0.057581551 0.0084558986 -0.25551328
-0.057578631 0.0085318219 -0.25551146
-0.057575099 0.0086060502 -0.25552368
-0.057571962 0.0086801052 -0.25552791
-0.057569623 0.0087557668 -0.25551414
-0.05756719 0.0088314712 -0.25550237
-0.057563975 0.0089075239 -0.25550655
-0.057560835 0.008981579 -0.25551078
-0.057557698 0.009055635 -0.25551504
-0.057554167 0.0091298642 -0.25552726
-0.057550758 0.0092060044 -0.25553542
-0.057547621 0.0092800604 -0.25553966
-0.057544872 0.0093539413 -0.25553593
-0.057542048 0.0094298199 -0.25553212
-0.057539124 0.0095057422 -0.25553033
-0.057536494 0.0095815342 -0.25552255
-0.057533745 0.0096554151 -0.25551876
-0.057530824 0.0097313374 -0.25551698
-0.057528093 0.0098071722 -0.25551119
-0.057525054 0.0098811844 -0.25551343
-0.057521839 0.0099572372 -0.2555176
-0.057518799 0.010031249 -0.25551987
-0.057516146 0.010105086 -0.25551412
-0.057513226 0.01018101 -0.2555123
-0.057510499 0.010256845 -0.25550652
-0.057507671 0.010332722 -0.2555027
-0.057504535 0.010406777 -0.25550693
-0.057501398 0.010480833 -0.25551116
-0.057498064 0.010554976 -0.25551942
-0.057494339 0.010629294 -0.25553563
-0.057491027 0.01070539 -0.25554183
-0.057488471 0.010779184 -0.25553408
-0.057486039 0.010854889 -0.25552228
-0.05748241 0.010929161 -0.2555365
-0.057478298 0.011003653 -0.25556073
-0.057475258 0.011077665 -0.25556296
-0.05747243 0.011153544 -0.25555915
-0.057468608 0.011227904 -0.25557739
-0.057464786 0.011302264 -0.25559559
-0.057461455 0.011376407 -0.25560382
-0.057458121 0.01145055 -0.25561208
-0.05745469 0.011524737 -0.2556223
-0.05745155 0.011598792 -0.25562653
-0.057448335 0.011674846 -0.25563073
-0.057445511 0.011750724 -0.25562692
-0.057442568 0.011824693 -0.25562716
-0.057438843 0.011899009 -0.25564337
-0.057435118 0.011973326 -0.25565961
-0.057431493 0.0120476 -0.25567383
-0.057427965 0.01212183 -0.25568604
-0.05742465 0.012197928 -0.25569224
-0.057421826 0.012273805 -0.25568843
-0.05741898 0.01234773 -0.2556867
-0.057415862 0.01242374 -0.25568888
-0.057413504 0.012497446 -0.25567713
-0.05741109 0.012575105 -0.25566331
-0.057408754 0.012650765 -0.25564951
-0.057405908 0.01272469 -0.25564778
-0.05740238 0.01279892 -0.25566
-0.057399165 0.012874973 -0.25566417
-0.057396535 0.012950765 -0.25565639
-0.057393298 0.013024864 -0.25566262
-0.057389475 0.013099225 -0.25568086
-0.057385948 0.013173455 -0.25569308
-0.057382811 0.013247509 -0.25569731
-0.05737979 0.013323476 -0.25569749
-0.057376944 0.0133974 -0.25569576
-0.057373825 0.01347341 -0.25569794
-0.057370588 0.013547509 -0.25570416
-0.057367355 0.013621608 -0.25571042
-0.057363942 0.013697747 -0.25571859
-0.057360608 0.013771891 -0.25572681
-0.057357688 0.013847814 -0.25572503
-0.057354257 0.013921999 -0.25573525
-0.057350922 0.013996142 -0.25574347
-0.057348195 0.014071977 -0.25573769
-0.057345252 0.014145945 -0.25573793
-0.057341624 0.014220219 -0.25575215
-0.057338018 0.014296447 -0.25576434
-0.057334978 0.014370459 -0.25576657
-0.057331957 0.014446424 -0.25576678
-0.057329621 0.014522085 -0.25575298
-0.05732736 0.014595748 -0.25573924
-0.057324536 0.014671627 -0.25573546
-0.0573222 0.014747287 -0.25572166
-0.057319082 0.014823297 -0.25572386
-0.057315651 0.014897482 -0.25573409
-0.057312805 0.014971407 -0.25573233
-0.057310175 0.015047198 -0.25572455
-0.057307545 0.01512299 -0.25571674
-0.057304427 0.015199 -0.25571895
-0.05730119 0.0152731 -0.25572518
-0.057297952 0.015347198 -0.2557314
-0.057295226 0.015423033 -0.25572562
-0.057292596 0.015498824 -0.25571781
-0.05728985 0.015572706 -0.25571406
-0.057287022 0.015648585 -0.25571027
-0.057283983 0.015722595 -0.25571251
-0.057281062 0.015798518 -0.25571072
-0.057278216 0.015872443 -0.25570896
-0.057274416 0.015948758 -0.25572515
-0.057271082 0.0160229 -0.25573337
-0.057268333 0.016096782 -0.25572962
-0.057265118 0.016172834 -0.25573379
-0.057262193 0.016248757 -0.255732
-0.057259642 0.016322551 -0.25572425
-0.057256818 0.01639843 -0.25572044
-0.057254359 0.016472179 -0.25571072
-0.05725212 0.016547795 -0.25569493
-0.057249103 0.016623763 -0.25569513
-0.057245571 0.016697992 -0.25570735
-0.057242237 0.016772134 -0.25571558
-0.057239413 0.016848015 -0.25571179
-0.057236295 0.016924024 -0.255714
-0.057232961 0.016998166 -0.25572222
-0.057229944 0.017074132 -0.2557224
-0.057227682 0.017147794 -0.25570866
-0.057225347 0.017223455 -0.25569487
-0.0572225 0.01729738 -0.25569314
-0.057218894 0.017373608 -0.2557053
-0.057215463 0.017447794 -0.25571555
-0.057212636 0.017523672 -0.25571173
-0.05720979 0.017597597 -0.25570998
-0.057206675 0.017673608 -0.25571218
-0.057203632 0.017747618 -0.25571442
-0.057200417 0.017823672 -0.25571859
-0.057197865 0.017897466 -0.25571087
-0.057195138 0.0179733 -0.25570506
-0.057192389 0.018047182 -0.2557013
-0.057189856 0.01812293 -0.25569153
-0.057186544 0.018199027 -0.25569773
-0.057182916 0.0182733 -0.25571194
-0.057179779 0.018347355 -0.25571617
-0.057177052 0.01842319 -0.25571039
-0.057174206 0.018497115 -0.25570863
-0.057171673 0.018572863 -0.25569883
-0.057169043 0.018648654 -0.25569105
-0.057166196 0.018722579 -0.25568926
-0.057163179 0.018798545 -0.25568947
-0.057160135 0.018872557 -0.25569171
-0.057157017 0.018948566 -0.25569391
-0.057153977 0.019022578 -0.25569618
-0.057150763 0.019098632 -0.25570035
-0.057147626 0.019172687 -0.25570458
-0.057144411 0.019248739 -0.25570875
-0.057141174 0.019322839 -0.25571501
-0.057138056 0.019398849 -0.25571722
-0.057135403 0.019472685 -0.25571144
-0.057133459 0.019548172 -0.25568968
-0.057131395 0.019621747 -0.25567195
-0.057127982 0.019697888 -0.25568014
-0.057124943 0.0197719 -0.25568238
-0.0571227 0.019847516 -0.25566658
-0.05712017 0.019923264 -0.25565681
-0.05711703 0.019997319 -0.25566104
-0.057113815 0.020073373 -0.25566524
-0.057111066 0.020147255 -0.25566149
-0.057108514 0.020221047 -0.25565374
-0.057105593 0.02029697 -0.25565192
-0.057102278 0.020373067 -0.25565812
-0.057099823 0.020446816 -0.25564837
-0.057097878 0.020522302 -0.25562659
-0.057095323 0.020596096 -0.25561887
-0.057092499 0.020671975 -0.25561506
-0.057089947 0.020745769 -0.25560731
-0.057086926 0.020821735 -0.25560749
-0.057084177 0.020895615 -0.25560376
-0.057081841 0.020971276 -0.25558996
-0.057079211 0.021047067 -0.25558218
-0.05707578 0.021121254 -0.25559241
-0.057072565 0.021197308 -0.25559661
-0.057069719 0.021271233 -0.25559485
-0.05706697 0.021345112 -0.25559109
-0.057063852 0.021421121 -0.25559327
-0.057060909 0.021495091 -0.25559354
-0.057058278 0.021570882 -0.25558573
-0.057056334 0.021646367 -0.25556397
-0.057053879 0.021720119 -0.25555423
-0.057050563 0.021796215 -0.2555604
-0.05704733 0.021870313 -0.25556663
-0.057044603 0.021946149 -0.25556085
-0.057041854 0.022020031 -0.25555709
-0.057038713 0.022094086 -0.25556132
-0.057035793 0.022170007 -0.25555953
-0.057033435 0.022243714 -0.25554779
-0.057031095 0.022319375 -0.25553399
-0.057028838 0.022393037 -0.25552028
-0.057026207 0.022468828 -0.25551248
-0.057023384 0.022544708 -0.25550869
-0.05702034 0.022618718 -0.25551093
-0.057017222 0.022694729 -0.25551313
-0.057014182 0.02276874 -0.25551534
-0.057011142 0.022842752 -0.2555176
-0.057008609 0.0229185 -0.2555078
-0.057006545 0.022992074 -0.25549006
-0.0570045 0.023067605 -0.25547031
-0.057001654 0.023141529 -0.25546855
-0.056998439 0.023217583 -0.25547272
-0.056995299 0.023291638 -0.25547695
-0.05699189 0.023367779 -0.25548515
-0.056989044 0.023441704 -0.25548339
-0.056986805 0.02351732 -0.25546762
-0.056984253 0.023591114 -0.25545987
-0.056981035 0.023667168 -0.25546408
-0.056977898 0.023741223 -0.25546831
-0.056975074 0.023817101 -0.25546449
-0.056971934 0.023891157 -0.25546873
-0.056968912 0.023967123 -0.25546893
-0.056966361 0.024040917 -0.25546119
-0.05696344 0.024116838 -0.25545937
-0.056960396 0.024190851 -0.25546163
-0.056957379 0.024266817 -0.25546181
-0.056954045 0.024340959 -0.25547007
-0.05695083 0.024417013 -0.25547424
-0.056948178 0.02449085 -0.25546849
-0.056944668 0.024567034 -0.25547868
-0.056940868 0.02464335 -0.25549486
-0.056937438 0.024717536 -0.25550508
-0.056934223 0.024793588 -0.25550926
-0.056930985 0.024867687 -0.25551552
-0.056927674 0.024943784 -0.25552168
-0.05692485 0.025019664 -0.2555179
-0.056921907 0.025093632 -0.25551814
-0.056918398 0.025169816 -0.25552833
-0.056914672 0.025244132 -0.25554454
-0.056911264 0.025320273 -0.25555271
-0.056908049 0.025396327 -0.25555691
-0.056904811 0.025470424 -0.25556314
-0.056901399 0.025546566 -0.25557134
-0.056898184 0.025622619 -0.25557551
-0.05689485 0.025696762 -0.25558376
-0.05689105 0.025773078 -0.25559992
-0.056887642 0.025849218 -0.25560811
-0.056884423 0.025925271 -0.25561231
-0.056881581 0.025999196 -0.25561053
-0.056878366 0.026075248 -0.25561473
-0.056874834 0.026149478 -0.25562695
-0.056871228 0.026225707 -0.25563914
-0.056867916 0.026301803 -0.25564533
-0.056864507 0.026377944 -0.2556535
-0.056860901 0.026454173 -0.25566569
-0.056857079 0.026528534 -0.2556839
-0.056853179 0.026604891 -0.25570208
-0.056849964 0.026680944 -0.25570625
-0.056847315 0.026754782 -0.25570053
-0.056843709 0.026831008 -0.25571269
-0.056839712 0.026907412 -0.25573286
-0.056836009 0.026983682 -0.25574705
-0.056832403 0.027059913 -0.25575921
-0.056828994 0.027136052 -0.25576741
-0.056825485 0.027212236 -0.2557776
-0.056821857 0.027286509 -0.25579181
-0.056817863 0.027362913 -0.25581199
-0.056813691 0.027441356 -0.2558341
-0.056809209 0.027517976 -0.25586426
-0.056805212 0.027594378 -0.25588441
-0.056801312 0.027670737 -0.25590259
