# .PCD v0.7 - Point Cloud Data file format
VERSION 0.7
FIELDS x y z
SIZE 4 4 4
TYPE F F F
COUNT 1 1 1
WIDTH 1270
HEIGHT 1
VIEWPOINT 0 0 0 1 0 0 0
POINTS 1270
DATA ascii
-0.019262083 -0.060512047 -0.24219045
-0.019259438 -0.060446072 -0.2421909
-0.019256521 -0.060378011 -0.24219528
-0.0192538 -0.06031004 -0.24219567
-0.019251449 -0.060244191 -0.24219012
-0.019249724 -0.0601747 -0.24216849
-0.019248368 -0.060107335 -0.24214092
-0.019246526 -0.060039751 -0.24212334
-0.01924398 -0.059973821 -0.24212177
-0.019241843 -0.059906106 -0.24211018
-0.019240001 -0.059838522 -0.24209258
-0.019237865 -0.059770811 -0.24208099
-0.01923524 -0.059702881 -0.24207939
-0.019232303 -0.059636775 -0.24208581
-0.019229876 -0.05956893 -0.24208023
-0.019229203 -0.059501871 -0.24203867
-0.019232554 -0.059434637 -0.2419132
-0.019231902 -0.059365623 -0.2418696
-0.019229844 -0.059299909 -0.24185807
-0.019228488 -0.05923254 -0.24183048
-0.019227915 -0.059165522 -0.24178693
-0.019225974 -0.059097897 -0.24177136
-0.019222863 -0.059029751 -0.24177973
-0.019219145 -0.058963295 -0.24180214
-0.019214939 -0.058896624 -0.24183452
-0.019210754 -0.058828 -0.24186489
-0.019202331 -0.05876141 -0.2419852
-0.019193342 -0.058692612 -0.24211544
-0.019188356 -0.05862559 -0.24216381
-0.019185321 -0.05855944 -0.24217224
-0.019182796 -0.058491554 -0.24216864
-0.019180562 -0.058423799 -0.24215904
-0.019177839 -0.058355823 -0.24215943
-0.019175 -0.058289763 -0.24216387
-0.019172475 -0.058221873 -0.24216026
-0.019169949 -0.058153987 -0.24215665
-0.019167617 -0.058086187 -0.24214906
-0.01916519 -0.058018345 -0.24214345
-0.019162837 -0.057952497 -0.24213789
-0.019160215 -0.05788457 -0.24213628
-0.019157395 -0.05781655 -0.24213868
-0.019154556 -0.05775049 -0.24214309
-0.019151639 -0.057682429 -0.24214751
-0.019148918 -0.057614453 -0.24214789
-0.019146567 -0.057548609 -0.24214232
-0.019143943 -0.057480678 -0.24214071
-0.019141123 -0.057412662 -0.24214311
-0.019138597 -0.057344772 -0.24213952
-0.019136734 -0.057279147 -0.24212396
-0.019134209 -0.057211258 -0.24212036
-0.019130999 -0.057143066 -0.24213074
-0.019128354 -0.057077091 -0.24213117
-0.019125829 -0.057009205 -0.24212757
-0.019123107 -0.05694123 -0.24212795
-0.019120561 -0.0568753 -0.24212641
-0.019118717 -0.056807715 -0.24210882
-0.019116875 -0.056740135 -0.24209124
-0.019114446 -0.05667229 -0.24208564
-0.019110944 -0.056603968 -0.242102
-0.019107616 -0.056537688 -0.24211642
-0.01910509 -0.056469802 -0.24211282
-0.01910276 -0.056402002 -0.24210522
-0.019099627 -0.056335807 -0.24211565
-0.01909632 -0.056267574 -0.24212801
-0.019093696 -0.056199644 -0.24212641
-0.019091267 -0.056131799 -0.2421208
-0.019089013 -0.056065999 -0.24211325
-0.019086584 -0.055998154 -0.24210766
-0.019084059 -0.055930268 -0.24210404
-0.019081024 -0.055864118 -0.24211247
-0.019078303 -0.055796143 -0.24211286
-0.019075973 -0.055728342 -0.24210525
-0.019073056 -0.055660281 -0.24210966
-0.019070216 -0.055594221 -0.24211407
-0.019067984 -0.055526465 -0.24210449
-0.01906536 -0.055458535 -0.24210288
-0.019062813 -0.055392601 -0.24210131
-0.019060189 -0.05532467 -0.2420997
-0.019057371 -0.055256654 -0.24210209
-0.019054551 -0.055188637 -0.24210449
-0.0190522 -0.055122789 -0.24209893
-0.019050162 -0.055055119 -0.24208534
-0.01904783 -0.054987323 -0.24207774
-0.019044816 -0.054919217 -0.24208412
-0.019041782 -0.054853067 -0.24209255
-0.019039158 -0.054785136 -0.24209094
-0.019036632 -0.05471725 -0.24208733
-0.019034203 -0.054649405 -0.24208173
-0.019031949 -0.054583605 -0.24207419
-0.019029716 -0.054515846 -0.2420646
-0.019026995 -0.054447874 -0.24206498
-0.01902435 -0.0543819 -0.24206543
-0.019021336 -0.054313794 -0.24207179
-0.019017834 -0.054245472 -0.24208817
-0.019014917 -0.054177411 -0.24209255
-0.019012371 -0.054111481 -0.242091
-0.01900965 -0.054043505 -0.24209139
-0.019006832 -0.053975489 -0.24209377
-0.019003915 -0.053907428 -0.24209815
-0.019001173 -0.053841408 -0.2421006
-0.018998843 -0.053773608 -0.242093
-0.018996315 -0.053705722 -0.24208939
-0.018993497 -0.053637706 -0.24209177
-0.018991146 -0.053571858 -0.24208622
-0.01898901 -0.053504147 -0.24207462
-0.018986385 -0.053436216 -0.24207301
-0.018983644 -0.053370196 -0.24207544
-0.018980922 -0.053302221 -0.24207583
-0.018978201 -0.053234249 -0.24207623
-0.018975187 -0.053166144 -0.24208263
-0.01897227 -0.053098083 -0.24208701
-0.018969821 -0.053032193 -0.24208345
-0.018967491 -0.052964393 -0.24207583
-0.018964672 -0.052896377 -0.24207823
-0.018961951 -0.052828401 -0.24207863
-0.018959891 -0.052762687 -0.24206707
-0.018957268 -0.052694757 -0.24206546
-0.018954448 -0.05262674 -0.24206784
-0.018951435 -0.052558638 -0.24207424
-0.018948792 -0.05249266 -0.24207467
-0.018946363 -0.052424818 -0.24206907
-0.018943347 -0.052356713 -0.24207546
-0.018940333 -0.052288607 -0.24208184
-0.018938003 -0.052220806 -0.24207424
-0.018935554 -0.052154921 -0.24207067
-0.018932637 -0.05208686 -0.24207507
-0.018930111 -0.05201897 -0.24207145
-0.018927878 -0.051951215 -0.24206187
-0.018925428 -0.051885325 -0.24205831
-0.018922707 -0.051817354 -0.24205869
-0.018920181 -0.051749464 -0.24205509
-0.018917635 -0.051683534 -0.24205354
-0.018914642 -0.051613472 -0.24205787
-0.018911216 -0.051547151 -0.24207428
-0.0189083 -0.05147909 -0.24207866
-0.018906066 -0.051411334 -0.24206908
-0.018903637 -0.051343489 -0.24206346
-0.018901287 -0.051277645 -0.24205792
-0.018898759 -0.051209759 -0.24205431
-0.018895941 -0.051141739 -0.2420567
-0.01889322 -0.051073767 -0.24205709
-0.018890673 -0.051007833 -0.24205554
-0.018887952 -0.050939862 -0.24205592
-0.018885328 -0.050871931 -0.24205431
-0.018882802 -0.050804041 -0.24205071
-0.018879984 -0.050736025 -0.24205311
-0.018877435 -0.050670095 -0.24205154
-0.01887491 -0.050602205 -0.24204794
-0.018872287 -0.050534278 -0.24204633
-0.018869935 -0.05046843 -0.24204078
-0.018867409 -0.050400544 -0.24203718
-0.018864296 -0.050332397 -0.24204555
-0.018861283 -0.050264291 -0.24205193
-0.01885866 -0.050196361 -0.24205032
-0.018856036 -0.05012843 -0.24204871
-0.018853314 -0.050060458 -0.2420491
-0.018850768 -0.049994525 -0.24204755
-0.018848144 -0.049926594 -0.24204594
-0.018845618 -0.049858708 -0.24204233
-0.018843286 -0.049790908 -0.24203473
-0.018841032 -0.049725108 -0.24202719
-0.018838605 -0.049657263 -0.24202159
-0.01883598 -0.049589332 -0.24201998
-0.019379525 -0.06162994 -0.24068512
-0.019378755 -0.061562836 -0.24064556
-0.019375233 -0.06149647 -0.24066398
-0.019369055 -0.061430883 -0.24073836
-0.019359734 -0.061365861 -0.24087869
-0.019341351 -0.061304655 -0.24121094
-0.019325333 -0.061242539 -0.2414932
-0.019319739 -0.061177213 -0.2415556
-0.019316021 -0.061110761 -0.24157801
-0.0193133 -0.061042786 -0.2415784
-0.019310871 -0.060974941 -0.2415728
-0.019307641 -0.060908705 -0.24158522
-0.01930324 -0.060841948 -0.24162161
-0.019297844 -0.060776711 -0.24168
-0.019288834 -0.06070986 -0.2418123
-0.019275004 -0.060644794 -0.24204654
-0.019265877 -0.060579859 -0.24218288
-0.019262765 -0.060511708 -0.24219126
-0.019260122 -0.060445733 -0.2421917
-0.019257301 -0.060377717 -0.24219409
-0.019254483 -0.060309701 -0.24219647
-0.019252229 -0.060243897 -0.24218893
-0.019250406 -0.060174361 -0.24216929
-0.019249052 -0.060106996 -0.24214172
-0.019247111 -0.060039368 -0.24212614
-0.019244662 -0.059973478 -0.24212259
-0.019242525 -0.059905767 -0.242111
-0.019240683 -0.059838183 -0.24209341
-0.019238546 -0.059770472 -0.24208182
-0.019235922 -0.059702542 -0.24208021
-0.019232985 -0.059636436 -0.24208663
-0.019230654 -0.059568636 -0.24207903
-0.019229982 -0.059501573 -0.24203748
-0.019233234 -0.059434298 -0.241914
-0.019232582 -0.05936528 -0.2418704
-0.019230524 -0.059299566 -0.24185887
-0.019229168 -0.059232201 -0.2418313
-0.019228594 -0.059165183 -0.24178776
-0.01922675 -0.059097603 -0.24177016
-0.01922364 -0.059029453 -0.24177855
-0.019219823 -0.058962956 -0.24180296
-0.019215617 -0.058896285 -0.24183534
-0.019211432 -0.058827661 -0.24186569
-0.019202912 -0.05876103 -0.241988
-0.019193925 -0.058692228 -0.24211825
-0.019189036 -0.058625251 -0.24216463
-0.019186001 -0.058559101 -0.24217305
-0.019183474 -0.058491215 -0.24216944
-0.01918124 -0.05842346 -0.24215986
-0.01917842 -0.058355443 -0.24216224
-0.01917568 -0.058289424 -0.24216467
-0.019173153 -0.058221534 -0.24216107
-0.019170724 -0.058153693 -0.24215546
-0.019168295 -0.058085848 -0.24214986
-0.019165965 -0.058018047 -0.24214226
-0.019163515 -0.057952158 -0.24213871
-0.019160794 -0.057884187 -0.2421391
-0.019158073 -0.057816211 -0.24213949
-0.019155232 -0.057750151 -0.24214393
-0.019152317 -0.05768209 -0.24214831
-0.019149693 -0.057614159 -0.2421467
-0.019147243 -0.05754827 -0.24214315
-0.019144718 -0.057480384 -0.24213955
-0.019141898 -0.057412364 -0.24214193
-0.019139372 -0.057344478 -0.24213833
-0.01913741 -0.057278808 -0.24212478
-0.019134885 -0.057210919 -0.24212117
-0.019131675 -0.057142727 -0.24213155
-0.01912903 -0.057076752 -0.24213199
-0.019126602 -0.057008911 -0.24212639
-0.019123685 -0.05694085 -0.24213079
-0.019121235 -0.056874961 -0.24212721
-0.01911949 -0.056807421 -0.24210763
-0.019117549 -0.056739796 -0.24209204
-0.01911512 -0.056671951 -0.24208644
-0.019111695 -0.056605626 -0.24210286
-0.019108193 -0.056537308 -0.24211922
-0.019105764 -0.056469463 -0.24211363
-0.019103434 -0.056401663 -0.24210602
-0.019100301 -0.056335468 -0.24211645
-0.019097092 -0.056267276 -0.24212682
-0.01909437 -0.056199305 -0.24212721
-0.019092038 -0.056131504 -0.24211963
-0.019089688 -0.05606566 -0.24211407
-0.019087259 -0.055997815 -0.24210846
-0.019084634 -0.055929884 -0.24210685
-0.019081697 -0.055863779 -0.24211329
-0.019078879 -0.055795763 -0.24211568
-0.019076645 -0.055728003 -0.24210608
-0.019073728 -0.055659946 -0.24211046
-0.01907089 -0.055593882 -0.24211489
-0.019068655 -0.055526126 -0.24210531
-0.019066032 -0.055458196 -0.2421037
-0.019063484 -0.055392262 -0.24210215
-0.019060861 -0.055324331 -0.24210054
-0.019058041 -0.055256315 -0.24210292
-0.019055223 -0.055188298 -0.24210531
-0.019052871 -0.05512245 -0.24209975
-0.019050833 -0.055054784 -0.24208617
-0.019048501 -0.054986984 -0.24207857
-0.019045487 -0.054918878 -0.24208494
-0.019042453 -0.054852728 -0.24209337
-0.019039925 -0.054784842 -0.24208976
-0.019037303 -0.054716911 -0.24208817
-0.019034874 -0.05464907 -0.24208255
-0.019032717 -0.054583311 -0.24207301
-0.019030387 -0.054515511 -0.2420654
-0.019027762 -0.05444758 -0.24206379
-0.01902502 -0.054381561 -0.24206623
-0.019022007 -0.054313455 -0.24207261
-0.019018602 -0.054245178 -0.24208699
-0.019015588 -0.054177072 -0.24209337
-0.019012963 -0.054109141 -0.24209176
-0.019010318 -0.054043166 -0.24209219
-0.0190075 -0.05397515 -0.24209458
-0.019004485 -0.053907044 -0.24210097
-0.019001842 -0.053841069 -0.2421014
-0.01899951 -0.053773269 -0.2420938
-0.018996984 -0.053705383 -0.24209021
-0.018994164 -0.053637367 -0.24209259
-0.018991813 -0.053571519 -0.24208704
-0.018989677 -0.053503808 -0.24207544
-0.018987052 -0.053435877 -0.24207385
-0.01898431 -0.053369857 -0.24207628
-0.018981589 -0.053301882 -0.24207667
-0.018978771 -0.053233866 -0.24207905
-0.018975854 -0.053165805 -0.24208343
-0.01897284 -0.053097703 -0.24208982
-0.018970391 -0.053031813 -0.24208626
-0.018968157 -0.052964054 -0.24207667
-0.018965337 -0.052896038 -0.24207905
-0.018962616 -0.052828066 -0.24207944
-0.018960558 -0.052762348 -0.2420679
-0.018958032 -0.052694462 -0.2420643
-0.018955113 -0.052626401 -0.24206868
-0.0189521 -0.052558299 -0.24207506
-0.018949457 -0.052492321 -0.2420755
-0.018947028 -0.052424479 -0.2420699
-0.018944012 -0.052356374 -0.24207628
-0.018941097 -0.052288312 -0.24208066
-0.018938668 -0.052220471 -0.24207506
-0.01893612 -0.052154537 -0.24207351
-0.018933302 -0.052086521 -0.24207589
-0.018930774 -0.052018635 -0.24207228
-0.018928541 -0.051950876 -0.24206269
-0.018926093 -0.051884986 -0.24205913
-0.018923469 -0.05181706 -0.24205753
-0.018920844 -0.051749129 -0.24205592
-0.01891822 -0.051681198 -0.24205431
-0.018915303 -0.051613137 -0.24205869
-0.018911801 -0.051544815 -0.24207507
-0.018908963 -0.051478751 -0.2420795
-0.018906826 -0.05141104 -0.2420679
-0.018904397 -0.051343195 -0.2420623
-0.018901968 -0.05127535 -0.2420567
-0.018899519 -0.051209465 -0.24205315
-0.018896701 -0.051141445 -0.24205554
-0.018893883 -0.051073428 -0.24205792
-0.018891431 -0.051007539 -0.24205436
-0.018888613 -0.050939523 -0.24205676
-0.018885989 -0.050871592 -0.24205515
-0.018883463 -0.050803706 -0.24205154
-0.018880742 -0.050735731 -0.24205193
-0.018878097 -0.050669756 -0.24205236
-0.018875571 -0.05060187 -0.24204877
-0.018872947 -0.050533939 -0.24204716
-0.018870693 -0.050468136 -0.24203961
-0.018868167 -0.05040025 -0.242036
-0.018864958 -0.050332058 -0.24204639
-0.018861942 -0.050263952 -0.24205276
-0.018859319 -0.050196022 -0.24205115
-0.018856695 -0.050128095 -0.24204955
-0.018853877 -0.050060075 -0.24205193
-0.018851427 -0.049994186 -0.24204838
-0.018848803 -0.049926259 -0.24204677
-0.018846178 -0.049858324 -0.24204516
-0.018843945 -0.049790569 -0.24203557
-0.018841691 -0.049724769 -0.24202803
-0.018839262 -0.049656924 -0.24202241
-0.018836737 -0.049589038 -0.24201882
-0.019380033 -0.061630443 -0.24068546
-0.019379264 -0.061563335 -0.24064592
-0.019375741 -0.061496969 -0.24066433
-0.019369466 -0.061431341 -0.24074072
-0.019360144 -0.061366316 -0.24088104
-0.019341547 -0.06130698 -0.24121933
-0.019325646 -0.061242953 -0.24149756
-0.019320248 -0.061177716 -0.24155596
-0.01931653 -0.06111126 -0.24157836
-0.019313809 -0.061043285 -0.24157876
-0.01931138 -0.060975444 -0.24157315
-0.01930815 -0.060909208 -0.24158558
-0.019303748 -0.060842447 -0.24162196
-0.019298254 -0.060777165 -0.24168235
-0.019289149 -0.060710277 -0.24181664
-0.019275414 -0.060645252 -0.24204889
-0.019266386 -0.060580358 -0.24218324
-0.019263273 -0.060512211 -0.24219161
-0.01926063 -0.060446236 -0.24219206
-0.01925781 -0.060378216 -0.24219444
-0.019254992 -0.0603102 -0.24219683
-0.019252736 -0.0602444 -0.24218929
-0.019250914 -0.06017486 -0.24216965
-0.019249558 -0.060107496 -0.24214208
-0.019247716 -0.060039915 -0.2421245
-0.01924517 -0.059973981 -0.24212295
-0.01924313 -0.059906311 -0.24210936
-0.01924119 -0.059838686 -0.24209377
-0.019239053 -0.059770972 -0.24208218
-0.019236431 -0.059703041 -0.24208057
-0.019233493 -0.059636936 -0.24208698
-0.019231064 -0.059569091 -0.2420814
-0.019230491 -0.059502076 -0.24203783
-0.019233936 -0.059434883 -0.24191037
-0.019233089 -0.059365783 -0.24187076
-0.019231031 -0.059300069 -0.24185923
-0.019229677 -0.059232704 -0.24183166
-0.0192292 -0.059165727 -0.24178611
-0.019227259 -0.059098102 -0.24177052
-0.019224146 -0.059029955 -0.24177891
-0.01922033 -0.058963459 -0.24180332
-0.019216126 -0.058896787 -0.24183568
-0.01921194 -0.05882816 -0.24186605
-0.019203322 -0.058761485 -0.24199036
-0.019194333 -0.058692686 -0.24212059
-0.019189443 -0.058625709 -0.24216697
-0.019186508 -0.058559604 -0.2421734
-0.01918398 -0.058491718 -0.2421698
-0.01918165 -0.058423918 -0.2421622
-0.019178929 -0.058355942 -0.2421626
-0.019176187 -0.058289923 -0.24216503
-0.019173659 -0.058222037 -0.24216142
-0.01917123 -0.058154192 -0.24215582
-0.019168802 -0.058086351 -0.24215022
-0.019166471 -0.05801855 -0.24214262
-0.019164119 -0.057952706 -0.24213707
-0.019161398 -0.05788473 -0.24213746
-0.019158579 -0.057816714 -0.24213985
-0.019155838 -0.057750694 -0.24214229
-0.019152822 -0.057682589 -0.24214867
-0.019150199 -0.057614658 -0.24214706
-0.01914775 -0.057548769 -0.24214351
-0.019145222 -0.057480883 -0.24213989
-0.019142404 -0.057412867 -0.24214229
-0.01913978 -0.057344936 -0.24214068
-0.019137917 -0.057279307 -0.24212514
-0.019135389 -0.057211421 -0.24212153
-0.019132279 -0.057143275 -0.24212992
-0.019129634 -0.057077296 -0.24213034
-0.019127108 -0.05700941 -0.24212675
-0.019124191 -0.056941349 -0.24213114
-0.019121742 -0.05687546 -0.24212757
-0.019119997 -0.05680792 -0.24210799
-0.019118056 -0.056740295 -0.2420924
-0.019115627 -0.056672454 -0.2420868
-0.019112201 -0.056606129 -0.24210322
-0.019108698 -0.056537807 -0.24211958
-0.019106269 -0.056469962 -0.24211399
-0.019103939 -0.056402162 -0.24210638
-0.019100806 -0.056335971 -0.24211681
-0.019097596 -0.056267779 -0.24212718
-0.019094972 -0.056199849 -0.24212557
-0.019092545 -0.056132004 -0.24211998
-0.019090192 -0.056066159 -0.24211442
-0.019087764 -0.055998318 -0.24210882
-0.019085139 -0.055930387 -0.24210721
-0.019082204 -0.055864278 -0.24211365
-0.01907948 -0.055796307 -0.24211404
-0.01907715 -0.055728506 -0.24210644
-0.019074135 -0.055660401 -0.24211282
-0.019071393 -0.055594381 -0.24211524
-0.019069159 -0.055526625 -0.24210566
-0.019066537 -0.055458695 -0.24210405
-0.019063989 -0.055392765 -0.2421025
-0.019061366 -0.055324834 -0.24210089
-0.019058546 -0.055256814 -0.24210328
-0.019055728 -0.055188797 -0.24210566
-0.019053375 -0.055122953 -0.2421001
-0.019051338 -0.055055283 -0.24208653
-0.019048909 -0.054987438 -0.24208091
-0.019045893 -0.054919336 -0.2420873
-0.019042958 -0.054853231 -0.24209373
-0.019040333 -0.0547853 -0.24209212
-0.019037805 -0.05471741 -0.24208853
-0.019035378 -0.054649569 -0.24208291
-0.019033222 -0.05458381 -0.24207337
-0.019030889 -0.05451601 -0.24206576
-0.019028267 -0.054448079 -0.24206415
-0.019025622 -0.054382104 -0.2420646
-0.019022509 -0.054313958 -0.24207297
-0.019019105 -0.054245677 -0.24208735
-0.019016091 -0.054177575 -0.24209373
-0.019013545 -0.054111641 -0.24209216
-0.019010823 -0.054043669 -0.24209255
-0.019008003 -0.053975649 -0.24209493
-0.019004989 -0.053907547 -0.24210133
-0.019002344 -0.053841569 -0.24210176
-0.019000012 -0.053773768 -0.24209416
-0.018997487 -0.053705882 -0.24209057
-0.018994668 -0.053637866 -0.24209295
-0.018992415 -0.053572066 -0.2420854
-0.01899018 -0.053504307 -0.24207582
-0.018987557 -0.053436376 -0.24207421
-0.018984815 -0.053370357 -0.24207664
-0.018982191 -0.05330243 -0.24207503
-0.018979371 -0.05323441 -0.24207741
-0.018976357 -0.053166308 -0.24208379
-0.018973343 -0.053098202 -0.24209018
-0.018970894 -0.053032313 -0.24208662
-0.01896866 -0.052964557 -0.24207702
-0.01896584 -0.052896537 -0.24207941
-0.018963216 -0.05282861 -0.24207781
-0.018961061 -0.052762851 -0.24206826
-0.018958535 -0.052694961 -0.24206465
-0.018955715 -0.052626945 -0.24206704
-0.018952603 -0.052558798 -0.24207541
-0.018949861 -0.052492779 -0.24207786
-0.018947531 -0.052424978 -0.24207026
-0.018944614 -0.052356917 -0.24207464
-0.018941598 -0.052288815 -0.24208102
-0.018939072 -0.052220926 -0.24207741
-0.018936623 -0.05215504 -0.24207386
-0.018933805 -0.05208702 -0.24207625
-0.018931277 -0.052019134 -0.24207264
-0.018929044 -0.051951379 -0.24206305
-0.018926498 -0.051885445 -0.2420615
-0.018923972 -0.051817559 -0.24205789
-0.018921347 -0.051749628 -0.24205628
-0.018918723 -0.051681697 -0.24205467
-0.018915806 -0.051613636 -0.24205905
-0.018912304 -0.051545314 -0.24207543
-0.018909464 -0.05147925 -0.24207985
-0.018907327 -0.051411539 -0.24206826
-0.0189049 -0.051343694 -0.24206266
-0.018902471 -0.051275853 -0.24205706
-0.018900022 -0.051209964 -0.24205351
-0.018897202 -0.051141948 -0.24205589
-0.018894285 -0.051073886 -0.24206027
-0.018891934 -0.051008038 -0.24205473
-0.018889114 -0.050940022 -0.24205711
-0.018886492 -0.050872091 -0.24205551
-0.018883964 -0.050804205 -0.2420519
-0.018881146 -0.050736189 -0.24205428
-0.018878598 -0.050670255 -0.24205273
-0.018876072 -0.050602369 -0.24204913
-0.018873449 -0.050534438 -0.24204752
-0.018871021 -0.050466597 -0.24204192
-0.018868668 -0.050400749 -0.24203637
-0.018865459 -0.050332557 -0.24204674
-0.018862445 -0.050264455 -0.24205312
-0.01885982 -0.050196525 -0.24205151
-0.018857099 -0.050128549 -0.2420519
-0.018854378 -0.050060578 -0.24205229
-0.018851928 -0.049994688 -0.24204874
-0.018849304 -0.049926758 -0.24204713
-0.018846778 -0.049858872 -0.24204352
-0.018844446 -0.049791072 -0.24203593
-0.018842192 -0.049725268 -0.24202839
-0.018839763 -0.049657427 -0.24202278
-0.018837335 -0.049589582 -0.24201718
-0.019379644 -0.061631411 -0.24068677
-0.019378971 -0.061564352 -0.24064523
-0.019375449 -0.061497983 -0.24066363
-0.019369174 -0.061432354 -0.24074
-0.019359851 -0.061367333 -0.24088034
-0.019341664 -0.061306216 -0.2412086
-0.019325547 -0.061244056 -0.24149287
-0.019319955 -0.061178729 -0.24155527
-0.019316237 -0.061112273 -0.24157768
-0.019313514 -0.061044302 -0.24157807
-0.019311087 -0.060976457 -0.24157247
-0.019307857 -0.060910221 -0.24158488
-0.019303456 -0.060843464 -0.24162127
-0.019298058 -0.060778223 -0.24167967
-0.01928905 -0.060711376 -0.24181196
-0.019275218 -0.06064631 -0.24204621
-0.019266091 -0.060581371 -0.24218255
-0.019262981 -0.060513224 -0.24219093
-0.019260336 -0.06044725 -0.24219137
-0.019257419 -0.060379189 -0.24219576
-0.019254599 -0.060311172 -0.24219814
-0.019252345 -0.060245369 -0.2421906
-0.019250523 -0.060175832 -0.24217096
-0.019249264 -0.060108509 -0.2421414
-0.019247323 -0.060040884 -0.24212581
-0.019244876 -0.059974995 -0.24212225
-0.019242739 -0.059907284 -0.24211067
-0.019240897 -0.059839699 -0.24209307
-0.019238761 -0.059771985 -0.24208148
-0.019236233 -0.059704099 -0.24207789
-0.019233199 -0.059637949 -0.24208629
-0.01923077 -0.059570108 -0.2420807
-0.019230099 -0.059503045 -0.24203914
-0.019233448 -0.059435815 -0.24191368
-0.019232798 -0.059366796 -0.24187008
-0.019230738 -0.059301082 -0.24185854
-0.019229384 -0.059233718 -0.24183096
-0.019228809 -0.0591667 -0.2417874
-0.019226868 -0.059099074 -0.24177183
-0.019223757 -0.059030924 -0.24178021
-0.019220039 -0.058964472 -0.24180262
-0.019215833 -0.058897801 -0.241835
-0.019211646 -0.058829173 -0.24186537
-0.019203223 -0.058762588 -0.24198568
-0.01919404 -0.0586937 -0.24211991
-0.01918925 -0.058626767 -0.24216428
-0.019186215 -0.058560617 -0.24217272
-0.019183688 -0.058492731 -0.24216911
-0.019181455 -0.058424976 -0.24215952
-0.019178636 -0.058356956 -0.2421619
-0.019175895 -0.058290936 -0.24216434
-0.019173367 -0.05822305 -0.24216074
-0.019170841 -0.058155164 -0.24215713
-0.019168412 -0.058087319 -0.24215153
-0.019166082 -0.058019519 -0.24214393
-0.01916373 -0.057953674 -0.24213837
-0.019161105 -0.057885744 -0.24213678
-0.019158287 -0.057817727 -0.24213916
-0.019155446 -0.057751663 -0.24214359
-0.01915253 -0.057683602 -0.24214798
-0.01914981 -0.05761563 -0.24214837
-0.019147458 -0.057549786 -0.24214281
-0.019144833 -0.057481855 -0.2421412
-0.019142015 -0.057413835 -0.2421436
-0.019139487 -0.057345949 -0.24214
-0.019137625 -0.057280321 -0.24212444
-0.019135099 -0.057212435 -0.24212083
-0.01913189 -0.057144243 -0.24213122
-0.019129245 -0.057078268 -0.24213165
-0.019126719 -0.057010382 -0.24212804
-0.019123899 -0.056942362 -0.24213044
-0.019121449 -0.056876473 -0.24212688
-0.019119607 -0.056808893 -0.2421093
-0.019117763 -0.056741308 -0.24209172
-0.019115334 -0.056673467 -0.24208611
-0.019111833 -0.056605145 -0.24210247
-0.019108407 -0.05653882 -0.2421189
-0.019105978 -0.056470979 -0.24211329
-0.019103551 -0.056403134 -0.24210769
-0.019100418 -0.056336939 -0.24211812
-0.019097209 -0.056268748 -0.24212849
-0.019094585 -0.056200817 -0.24212688
-0.019092156 -0.056132976 -0.24212128
-0.019089902 -0.056067172 -0.24211374
-0.019087473 -0.055999331 -0.24210814
-0.019084848 -0.055931401 -0.24210653
-0.019081913 -0.055865295 -0.24211296
-0.019079093 -0.055797275 -0.24211535
-0.01907686 -0.05572952 -0.24210575
-0.019073846 -0.055661418 -0.24211213
-0.019071104 -0.055595398 -0.24211456
-0.019068772 -0.055527598 -0.24210697
-0.019066246 -0.055459708 -0.24210337
-0.0190637 -0.055393778 -0.2421018
-0.019061076 -0.055325847 -0.24210019
-0.019058255 -0.055257831 -0.24210258
-0.019055437 -0.055189811 -0.24210498
-0.019053085 -0.055123966 -0.2420994
-0.01905095 -0.055056255 -0.24208783
-0.019048717 -0.054988496 -0.24207821
-0.019045604 -0.054920349 -0.2420866
-0.019042667 -0.054854244 -0.24209303
-0.019040043 -0.054786313 -0.24209142
-0.019037517 -0.054718427 -0.24208783
-0.019035088 -0.054650582 -0.24208222
-0.019032933 -0.054584824 -0.24207267
-0.019030601 -0.054517023 -0.24206507
-0.019027976 -0.054449093 -0.24206346
-0.019025235 -0.054383073 -0.24206591
-0.019022221 -0.054314971 -0.24207228
-0.019018816 -0.054246694 -0.24208665
-0.019015802 -0.054178588 -0.24209304
-0.019013256 -0.054112654 -0.24209148
-0.019010533 -0.054044683 -0.24209186
-0.019007714 -0.053976662 -0.24209425
-0.019004701 -0.05390856 -0.24210064
-0.019002056 -0.053842586 -0.24210107
-0.018999726 -0.053774785 -0.24209347
-0.018997198 -0.053706899 -0.24208987
-0.01899438 -0.053638879 -0.24209225
-0.018992027 -0.053573035 -0.24208671
-0.018989891 -0.05350532 -0.24207512
-0.018987169 -0.053437348 -0.2420755
-0.018984526 -0.05337137 -0.24207595
-0.018981805 -0.053303398 -0.24207634
-0.018978985 -0.053235382 -0.24207872
-0.018975971 -0.053167276 -0.2420851
-0.018973054 -0.053099215 -0.24208948
-0.018970605 -0.053033326 -0.24208593
-0.018968372 -0.05296557 -0.24207634
-0.018965553 -0.052897554 -0.24207872
-0.01896283 -0.052829579 -0.24207911
-0.018960772 -0.052763864 -0.24206756
-0.018958149 -0.052695934 -0.24206595
-0.018955329 -0.052627917 -0.24206835
-0.018952316 -0.052559812 -0.24207473
-0.018949574 -0.052493792 -0.24207717
-0.018947242 -0.052425992 -0.24206957
-0.018944228 -0.05235789 -0.24207595
-0.018941214 -0.052289784 -0.24208233
-0.018938882 -0.052221984 -0.24207473
-0.018936433 -0.052156094 -0.24207118
-0.018933615 -0.052088078 -0.24207357
-0.01893099 -0.052020147 -0.24207196
-0.018928757 -0.051952392 -0.24206236
-0.018926308 -0.051886503 -0.2420588
-0.018923586 -0.051818527 -0.2420592
-0.01892106 -0.051750641 -0.24205559
-0.018918512 -0.051684707 -0.24205403
-0.018915422 -0.051614605 -0.24206036
-0.018912094 -0.051548328 -0.24207479
-0.018909177 -0.051480267 -0.24207917
-0.018906944 -0.051412508 -0.24206957
-0.018904613 -0.051344708 -0.24206197
-0.018902164 -0.051278822 -0.24205841
-0.018899735 -0.051210977 -0.24205281
-0.018896818 -0.051142916 -0.2420572
-0.018894097 -0.051074944 -0.24205759
-0.018891551 -0.051009011 -0.24205604
-0.018888829 -0.050941035 -0.24205641
-0.018886205 -0.050873108 -0.24205481
-0.018883679 -0.050805219 -0.24205121
-0.018880956 -0.050737247 -0.2420516
-0.018878313 -0.050671268 -0.24205205
-0.018875787 -0.050603382 -0.24204843
-0.018873163 -0.050535452 -0.24204682
-0.018870812 -0.050469607 -0.24204126
-0.018868284 -0.050401721 -0.24203765
-0.018865172 -0.050333571 -0.24204606
-0.018862158 -0.050265469 -0.24205244
-0.018859535 -0.050197538 -0.24205083
-0.018856911 -0.050129607 -0.24204922
-0.018854091 -0.050061591 -0.2420516
-0.018851642 -0.049995702 -0.24204805
-0.018849019 -0.049927771 -0.24204645
-0.018846394 -0.04985984 -0.24204484
-0.018844161 -0.049792085 -0.24203524
-0.018841907 -0.049726281 -0.24202767
-0.018839478 -0.04965844 -0.24202208
-0.018836953 -0.04959055 -0.24201848
-0.019378798 -0.061631296 -0.24068877
-0.019378128 -0.061564233 -0.24064723
-0.019374603 -0.061497867 -0.24066563
-0.019368425 -0.06143228 -0.24074
-0.019359104 -0.061367258 -0.24088034
-0.019340819 -0.061306097 -0.24121058
-0.019324701 -0.061243936 -0.24149486
-0.019319206 -0.061178654 -0.24155526
-0.01931539 -0.061112158 -0.24157965
-0.019312669 -0.061044183 -0.24158004
-0.01931024 -0.060976341 -0.24157445
-0.01930701 -0.060910106 -0.24158686
-0.019302608 -0.060843345 -0.24162325
-0.01929721 -0.060778107 -0.24168167
-0.019288203 -0.060711261 -0.24181396
-0.019274468 -0.060646236 -0.24204621
-0.019265244 -0.060581256 -0.24218455
-0.019262131 -0.060513109 -0.24219292
-0.019259486 -0.06044713 -0.24219336
-0.019256668 -0.060379114 -0.24219574
-0.019253848 -0.060311098 -0.24219812
-0.019251594 -0.060245294 -0.24219058
-0.019249773 -0.060175758 -0.24217096
-0.019248417 -0.060108393 -0.24214338
-0.019246476 -0.060040768 -0.24212781
-0.019244026 -0.059974879 -0.24212423
-0.019241892 -0.059907164 -0.24211264
-0.019240048 -0.059839584 -0.24209505
-0.019237913 -0.059771869 -0.24208346
-0.019235289 -0.059703939 -0.24208187
-0.019232448 -0.059637878 -0.24208629
-0.019229922 -0.059569988 -0.24208269
-0.019229349 -0.059502974 -0.24203914
-0.019232698 -0.05943574 -0.24191366
-0.019231949 -0.059366681 -0.24187207
-0.019229891 -0.059300967 -0.24186054
-0.019228537 -0.059233598 -0.24183296
-0.019227961 -0.059166584 -0.2417894
-0.019226119 -0.059099 -0.24177182
-0.019223006 -0.059030853 -0.24178019
-0.019219192 -0.058964353 -0.2418046
-0.019214986 -0.058897682 -0.24183699
-0.019210801 -0.058829058 -0.24186733
-0.019202376 -0.058762472 -0.24198766
-0.01919329 -0.058693625 -0.24211991
-0.0191884 -0.058626652 -0.24216628
-0.019185366 -0.058560502 -0.24217471
-0.01918284 -0.058492612 -0.24217109
-0.019180607 -0.058424857 -0.24216151
-0.019177886 -0.058356885 -0.2421619
-0.019175045 -0.058290821 -0.24216631
-0.019172519 -0.058222935 -0.24216273
-0.019170091 -0.05815509 -0.24215712
-0.019167662 -0.058087248 -0.24215151
-0.019165331 -0.058019448 -0.24214393
-0.019162882 -0.057953559 -0.24214035
-0.019160258 -0.057885628 -0.24213876
-0.019157439 -0.057817612 -0.24214114
-0.019154698 -0.057751592 -0.24214357
-0.019151682 -0.057683486 -0.24214996
-0.019149059 -0.057615556 -0.24214835
-0.01914661 -0.057549667 -0.24214479
-0.019143986 -0.057481736 -0.24214318
-0.019141264 -0.057413764 -0.24214359
-0.01913864 -0.057345834 -0.24214198
-0.019136777 -0.057280205 -0.24212644
-0.019134251 -0.057212319 -0.24212283
-0.019131042 -0.057144128 -0.2421332
-0.019128397 -0.057078149 -0.24213365
-0.019125968 -0.057010308 -0.24212804
-0.019123051 -0.056942247 -0.24213243
-0.019120602 -0.056876358 -0.24212888
-0.019118857 -0.056808818 -0.2421093
-0.019116916 -0.056741193 -0.24209371
-0.019114487 -0.056673348 -0.24208811
-0.019111061 -0.056607027 -0.24210453
-0.01910756 -0.056538705 -0.24212089
-0.019105131 -0.05647086 -0.24211529
-0.019102801 -0.05640306 -0.24210769
-0.019099668 -0.056336869 -0.24211812
-0.019096458 -0.056268677 -0.24212849
-0.019093737 -0.056200702 -0.24212888
-0.019091405 -0.056132901 -0.24212128
-0.019089054 -0.056067057 -0.24211572
-0.019086625 -0.055999212 -0.24211013
-0.019084001 -0.055931281 -0.24210852
-0.019081064 -0.055865176 -0.24211495
-0.019078245 -0.05579716 -0.24211733
-0.019076012 -0.055729404 -0.24210773
-0.019073095 -0.055661343 -0.24211213
-0.019070353 -0.055595323 -0.24211454
-0.019068021 -0.055527523 -0.24210696
-0.019065399 -0.055459592 -0.24210535
-0.019062851 -0.055393659 -0.24210379
-0.019060228 -0.055325732 -0.24210218
-0.019057408 -0.055257712 -0.24210456
-0.01905459 -0.055189695 -0.24210696
-0.019052237 -0.055123851 -0.2421014
-0.0190502 -0.055056181 -0.24208781
-0.019047869 -0.054988381 -0.24208021
-0.019044854 -0.054920275 -0.24208659
-0.019041918 -0.054854169 -0.24209303
-0.019039294 -0.054786239 -0.24209142
-0.019036669 -0.054718308 -0.24208981
-0.01903424 -0.054650467 -0.24208421
-0.019032083 -0.054584708 -0.24207467
-0.019029753 -0.054516908 -0.24206707
-0.019027032 -0.054448932 -0.24206746
-0.019024387 -0.054382958 -0.24206789
-0.019021373 -0.054314852 -0.24207428
-0.019017968 -0.054246575 -0.24208865
-0.019014955 -0.054178469 -0.24209502
-0.01901233 -0.054110542 -0.24209341
-0.019009687 -0.054044563 -0.24209386
-0.019006867 -0.053976547 -0.24209625
-0.019003853 -0.053908445 -0.24210262
-0.019001208 -0.053842466 -0.24210307
-0.018998878 -0.053774666 -0.24209547
-0.01899635 -0.05370678 -0.24209186
-0.018993532 -0.053638764 -0.24209425
-0.018991278 -0.05357296 -0.24208669
-0.018989045 -0.053505205 -0.24207711
-0.018986421 -0.053437274 -0.2420755
-0.018983679 -0.053371254 -0.24207792
-0.018981054 -0.053303324 -0.24207632
-0.018978138 -0.053235263 -0.24208072
-0.018975221 -0.053167202 -0.2420851
-0.018972207 -0.0530991 -0.24209148
-0.018969757 -0.05303321 -0.24208792
-0.018967524 -0.052965455 -0.24207833
-0.018964706 -0.052897435 -0.24208072
-0.018962082 -0.052829504 -0.24207911
-0.018959925 -0.052763745 -0.24206956
-0.018957399 -0.052695859 -0.24206595
-0.018954482 -0.052627798 -0.24207035
-0.018951468 -0.052559696 -0.24207672
-0.018948823 -0.052493721 -0.24207716
-0.018946394 -0.052425876 -0.24207155
-0.018943381 -0.052357771 -0.24207795
-0.018940464 -0.052289709 -0.24208233
-0.018938035 -0.052221868 -0.24207672
-0.018935489 -0.052155934 -0.24207516
-0.01893267 -0.052087918 -0.24207754
-0.018930143 -0.052020032 -0.24207395
-0.018927909 -0.051952273 -0.24206436
-0.01892546 -0.051886387 -0.2420608
-0.018922837 -0.051818457 -0.24205919
-0.018920213 -0.051750526 -0.24205758
-0.018917589 -0.051682595 -0.24205598
-0.018914672 -0.051614534 -0.24206036
-0.018911345 -0.051548254 -0.24207477
-0.018908428 -0.051480193 -0.24207915
-0.018906195 -0.051412437 -0.24206957
-0.018903766 -0.051344592 -0.24206397
-0.018901337 -0.051276751 -0.24205837
-0.018898888 -0.051210862 -0.24205482
-0.018896069 -0.051142842 -0.24205719
-0.018893249 -0.051074825 -0.24205957
-0.0188908 -0.051008936 -0.24205601
-0.018887982 -0.05094092 -0.24205841
-0.018885357 -0.050872989 -0.24205682
-0.018882832 -0.050805103 -0.2420532
-0.01888011 -0.050737128 -0.2420536
-0.018877562 -0.050671197 -0.24205203
-0.01887494 -0.050603267 -0.24205042
-0.018872315 -0.050535336 -0.24204883
-0.018870061 -0.050469533 -0.24204126
-0.018867536 -0.050401647 -0.24203765
-0.018864326 -0.050333455 -0.24204804
-0.018861312 -0.050265349 -0.2420544
-0.018858688 -0.050197423 -0.24205281
-0.018856063 -0.050129488 -0.2420512
-0.018853243 -0.050061472 -0.2420536
-0.018850796 -0.049995583 -0.24205004
-0.018848171 -0.049927652 -0.24204843
-0.018845646 -0.049859766 -0.24204482
-0.018843314 -0.049791966 -0.24203724
-0.01884106 -0.049726166 -0.24202968
-0.01883873 -0.049658366 -0.24202207
-0.018836105 -0.049590435 -0.24202046
-0.019378347 -0.061631236 -0.24068666
-0.019377479 -0.061564088 -0.2406491
-0.019374054 -0.061497763 -0.2406655
-0.019367779 -0.061432134 -0.24074188
-0.019358456 -0.061367109 -0.24088222
-0.019339858 -0.061307773 -0.2412205
-0.019323858 -0.061243705 -0.24150074
-0.01931846 -0.061178464 -0.24155912
-0.019314742 -0.061112013 -0.24158153
-0.019312119 -0.061044082 -0.24157992
-0.019309767 -0.060978238 -0.24157438
-0.019306362 -0.060909957 -0.24158874
-0.019302059 -0.060843244 -0.24162313
-0.019296564 -0.060777962 -0.24168354
-0.019287458 -0.060711071 -0.24181783
-0.019273723 -0.060646046 -0.24205008
-0.019264692 -0.060581151 -0.24218443
-0.019261582 -0.060513005 -0.2421928
-0.019258937 -0.06044703 -0.24219322
-0.019256119 -0.060379013 -0.24219562
-0.019253299 -0.060310993 -0.24219801
-0.019251045 -0.060245194 -0.24219045
-0.019249221 -0.060175657 -0.24217083
-0.019247867 -0.060108289 -0.24214324
-0.019246023 -0.060040709 -0.24212568
-0.019243477 -0.059974775 -0.24212411
-0.019241439 -0.059907105 -0.24211052
-0.019239498 -0.05983948 -0.24209493
-0.019237362 -0.059771765 -0.24208334
-0.019234739 -0.059703838 -0.24208173
-0.019231802 -0.059637729 -0.24208817
-0.019229472 -0.059569933 -0.24208057
-0.019228701 -0.059502825 -0.24204102
-0.019232051 -0.059435591 -0.24191554
-0.0192314 -0.059366576 -0.24187195
-0.019229244 -0.059300818 -0.2418624
-0.019227987 -0.059233498 -0.24183282
-0.019227412 -0.05916648 -0.24178928
-0.019225473 -0.059098855 -0.24177369
-0.01922236 -0.059030704 -0.24178207
-0.019218642 -0.058964252 -0.24180448
-0.019214436 -0.058897581 -0.24183688
-0.019210251 -0.058828954 -0.24186721
-0.019201633 -0.058762282 -0.24199152
-0.019192643 -0.05869348 -0.24212179
-0.019187754 -0.058626503 -0.24216816
-0.019184817 -0.058560397 -0.24217458
-0.019182291 -0.058492512 -0.24217097
-0.019179961 -0.058424711 -0.24216338
-0.019177239 -0.058356736 -0.24216378
-0.019174498 -0.058290716 -0.24216619
-0.01917197 -0.05822283 -0.2421626
-0.019169444 -0.058154944 -0.24215899
-0.019167114 -0.058087144 -0.24215139
-0.019164782 -0.058019344 -0.24214381
-0.019162333 -0.057953455 -0.24214023
-0.01915971 -0.057885524 -0.24213862
-0.01915689 -0.057817508 -0.24214101
-0.019154148 -0.057751488 -0.24214345
-0.019151134 -0.057683386 -0.24214983
-0.01914851 -0.057615455 -0.24214822
-0.019146061 -0.057549566 -0.24214467
-0.019143535 -0.057481676 -0.24214107
-0.019140717 -0.05741366 -0.24214345
-0.019138092 -0.057345729 -0.24214184
-0.019136131 -0.05728006 -0.24212831
-0.019133702 -0.057212215 -0.24212271
-0.019130589 -0.057144068 -0.24213108
-0.019127848 -0.057078049 -0.24213353
-0.019125421 -0.057010204 -0.24212793
-0.019122504 -0.056942143 -0.24213231
-0.019120054 -0.056876253 -0.24212874
-0.019118309 -0.056808718 -0.24210918
-0.019116368 -0.056741089 -0.24209359
-0.019113939 -0.056673247 -0.24208798
-0.019110417 -0.056606878 -0.24210639
-0.019107012 -0.0565386 -0.24212076
-0.019104583 -0.056470759 -0.24211517
-0.019102253 -0.056402959 -0.24210756
-0.01909912 -0.056336764 -0.24211799
-0.019095911 -0.056268573 -0.24212837
-0.019093286 -0.056200642 -0.24212676
-0.019090857 -0.056132801 -0.24212116
-0.019088507 -0.056066953 -0.24211559
-0.019086078 -0.055999111 -0.24211
-0.019083453 -0.055931181 -0.24210839
-0.019080516 -0.055865075 -0.24211483
-0.019077698 -0.055797055 -0.24211721
-0.019075464 -0.0557293 -0.2421076
-0.019072451 -0.055661198 -0.24211401
-0.019069709 -0.055595178 -0.24211642
-0.019067474 -0.055527419 -0.24210684
-0.019064851 -0.055459488 -0.24210523
-0.019062305 -0.055393558 -0.24210367
-0.01905968 -0.055325627 -0.24210206
-0.01905686 -0.055257611 -0.24210444
-0.019054042 -0.055189595 -0.24210683
-0.01905169 -0.055123746 -0.24210128
-0.019049652 -0.055056076 -0.24208769
-0.019047322 -0.054988276 -0.24208009
-0.019044308 -0.054920174 -0.24208647
-0.019041272 -0.054854024 -0.2420949
-0.019038649 -0.054786094 -0.24209329
-0.019036122 -0.054718208 -0.24208969
-0.019033596 -0.054650318 -0.24208608
-0.019031439 -0.054584563 -0.24207655
-0.019029208 -0.054516803 -0.24206695
-0.019026583 -0.054448873 -0.24206534
-0.019023841 -0.054382853 -0.24206777
-0.019020826 -0.054314751 -0.24207415
-0.019017421 -0.054246474 -0.24208853
-0.019014407 -0.054178368 -0.2420949
-0.019011861 -0.054112434 -0.24209335
-0.019009139 -0.054044463 -0.24209373
-0.019006319 -0.053976446 -0.24209613
-0.019003306 -0.053908341 -0.2421025
-0.019000661 -0.053842366 -0.24210295
-0.01899833 -0.053774565 -0.24209535
-0.018995805 -0.053706676 -0.24209175
-0.018992985 -0.053638659 -0.24209413
-0.018990731 -0.05357286 -0.24208657
-0.018988498 -0.0535051 -0.24207698
-0.018985875 -0.053437173 -0.24207538
-0.018983133 -0.053371154 -0.2420778
-0.018980509 -0.053303223 -0.24207619
-0.018977592 -0.053235162 -0.24208058
-0.018974675 -0.053167101 -0.24208497
-0.018971661 -0.053098995 -0.24209136
-0.018969212 -0.053033106 -0.24208778
-0.018966978 -0.05296535 -0.2420782
-0.018964158 -0.052897334 -0.2420806
-0.018961437 -0.052829359 -0.24208097
-0.018959282 -0.0527636 -0.24207142
-0.018956853 -0.052695759 -0.24206582
-0.018953936 -0.052627698 -0.24207021
-0.018950922 -0.052559592 -0.24207659
-0.018948277 -0.052493617 -0.24207704
-0.018945849 -0.052425772 -0.24207142
-0.018942932 -0.052357711 -0.2420758
-0.018939918 -0.052289609 -0.24208221
-0.018937392 -0.052221723 -0.2420786
-0.018934943 -0.052155834 -0.24207503
-0.018932123 -0.052087814 -0.24207743
-0.018929597 -0.052019928 -0.24207382
-0.018927364 -0.051952172 -0.24206424
-0.018924817 -0.051886238 -0.24206266
-0.018922292 -0.051818352 -0.24205905
-0.018919667 -0.051750422 -0.24205744
-0.018917043 -0.051682491 -0.24205583
-0.018914126 -0.05161443 -0.24206024
-0.018910624 -0.051546108 -0.24207661
-0.018907785 -0.051480047 -0.24208103
-0.018905649 -0.051412333 -0.24206944
-0.01890322 -0.051344492 -0.24206384
-0.018900791 -0.051276647 -0.24205825
-0.018898342 -0.051210757 -0.24205467
-0.018895425 -0.051142696 -0.24205907
-0.018892607 -0.05107468 -0.24206145
-0.018890256 -0.051008835 -0.24205589
-0.018887436 -0.050940815 -0.24205828
-0.018884812 -0.050872885 -0.24205667
-0.018882286 -0.050804999 -0.24205306
-0.018879468 -0.050736982 -0.24205546
-0.018876921 -0.050671048 -0.2420539
-0.018874394 -0.050603162 -0.24205029
-0.018871769 -0.050535232 -0.24204868
-0.018869342 -0.050467391 -0.24204309
-0.018866893 -0.050401501 -0.24203953
-0.01886378 -0.050333351 -0.24204791
-0.018860767 -0.050265249 -0.24205428
-0.018858142 -0.050197318 -0.24205267
-0.018855421 -0.050129343 -0.24205308
-0.0188527 -0.050061371 -0.24205346
-0.01885025 -0.049995482 -0.2420499
-0.018847626 -0.049927551 -0.24204829
-0.0188451 -0.049859665 -0.24204469
-0.01884277 -0.049791865 -0.2420371
-0.018840516 -0.049726062 -0.24202955
-0.018838087 -0.04965822 -0.24202394
-0.018835561 -0.049590331 -0.24202034
-0.019379372 -0.061630435 -0.24068704
-0.019378603 -0.061563328 -0.24064749
-0.019375177 -0.061497007 -0.24066392
-0.019368902 -0.061431374 -0.24074028
-0.019359678 -0.061366394 -0.24087861
-0.019341396 -0.061305232 -0.24120887
-0.019325281 -0.061243072 -0.24149314
-0.019319689 -0.061177745 -0.24155553
-0.019315971 -0.061111294 -0.24157794
-0.01931325 -0.061043318 -0.24157833
-0.019310821 -0.060975477 -0.24157272
-0.019307591 -0.060909241 -0.24158514
-0.019303191 -0.060842481 -0.24162152
-0.019297794 -0.060777243 -0.24167992
-0.019288786 -0.060710393 -0.24181223
-0.019274956 -0.060645327 -0.24204648
-0.019265831 -0.060580388 -0.24218281
-0.01926272 -0.060512241 -0.2421912
-0.019260075 -0.060446266 -0.24219163
-0.019257158 -0.060378205 -0.24219602
-0.01925434 -0.060310189 -0.24219841
-0.019252086 -0.060244385 -0.24219085
-0.019250361 -0.06017489 -0.24216923
-0.019249007 -0.060107525 -0.24214166
-0.019247066 -0.0600399 -0.24212606
-0.019244617 -0.059974011 -0.2421225
-0.01924248 -0.0599063 -0.24211091
-0.019240638 -0.059838716 -0.24209332
-0.019238502 -0.059771001 -0.24208173
-0.019235879 -0.059703074 -0.24208012
-0.019232942 -0.059636965 -0.24208656
-0.019230515 -0.059569124 -0.24208096
-0.019229842 -0.059502061 -0.24203941
-0.019233095 -0.059434786 -0.24191593
-0.019232541 -0.059365813 -0.24187033
-0.019230481 -0.059300099 -0.24185878
-0.019229127 -0.059232734 -0.24183121
-0.019228553 -0.059165716 -0.24178767
-0.019226613 -0.059098091 -0.24177209
-0.0192235 -0.059029944 -0.24178046
-0.019219881 -0.058963533 -0.24180087
-0.019215578 -0.058896817 -0.24183527
-0.019211393 -0.05882819 -0.24186561
-0.019203069 -0.058761649 -0.24198392
-0.019193886 -0.058692761 -0.24211818
-0.019188996 -0.058625784 -0.24216455
-0.019185964 -0.058559634 -0.24217297
-0.019183436 -0.058491748 -0.24216937
-0.019181203 -0.058423989 -0.24215977
-0.019178482 -0.058356017 -0.24216017
-0.019175643 -0.058289953 -0.24216458
-0.019173117 -0.058222067 -0.24216101
-0.019170592 -0.058154181 -0.24215738
-0.019168163 -0.058086336 -0.24215178
-0.019165833 -0.058018535 -0.2421442
-0.01916348 -0.057952691 -0.24213862
-0.019160857 -0.05788476 -0.24213703
-0.019158039 -0.057816744 -0.24213941
-0.019155199 -0.05775068 -0.24214384
-0.019152282 -0.057682618 -0.24214824
-0.019149562 -0.057614647 -0.24214861
-0.019147113 -0.057548758 -0.24214506
-0.019144587 -0.057480872 -0.24214146
-0.019141767 -0.057412852 -0.24214384
-0.019139241 -0.057344966 -0.24214025
-0.019137379 -0.057279337 -0.24212469
-0.019134853 -0.057211451 -0.2421211
-0.019131644 -0.05714326 -0.24213147
-0.019128999 -0.057077285 -0.24213192
-0.019126473 -0.057009399 -0.24212831
-0.019123655 -0.056941379 -0.2421307
-0.019121205 -0.05687549 -0.24212714
-0.019119363 -0.056807909 -0.24210955
-0.019117519 -0.056740325 -0.24209195
-0.019115092 -0.056672484 -0.24208637
-0.01911159 -0.056604162 -0.24210273
-0.019108165 -0.056537837 -0.24211915
-0.019105736 -0.056469992 -0.24211355
-0.019103307 -0.056402151 -0.24210793
-0.019100176 -0.056335956 -0.24211836
-0.019096967 -0.056267764 -0.24212874
-0.019094344 -0.056199834 -0.24212715
-0.019091915 -0.056131992 -0.24212155
-0.019089662 -0.056066189 -0.24211398
-0.019087233 -0.055998348 -0.24210839
-0.01908461 -0.055930417 -0.24210678
-0.019081673 -0.055864312 -0.2421132
-0.019078854 -0.055796292 -0.24211559
-0.019076621 -0.055728536 -0.24210599
-0.019073607 -0.05566043 -0.24211237
-0.019070866 -0.055594411 -0.24211481
-0.019068534 -0.055526614 -0.24210721
-0.019065911 -0.055458684 -0.2421056
-0.019063462 -0.055392794 -0.24210206
-0.019060839 -0.055324864 -0.24210045
-0.019058019 -0.055256847 -0.24210283
-0.019055201 -0.055188827 -0.24210522
-0.01905285 -0.055122983 -0.24209966
-0.01905081 -0.055055313 -0.24208608
-0.01904848 -0.054987513 -0.24207848
-0.01904537 -0.054919366 -0.24208686
-0.019042432 -0.054853261 -0.24209328
-0.01903981 -0.05478533 -0.24209167
-0.019037282 -0.054717444 -0.24208808
-0.019034855 -0.054649599 -0.24208248
-0.019032698 -0.05458384 -0.24207291
-0.019030366 -0.05451604 -0.24206533
-0.019027743 -0.054448109 -0.24206372
-0.019025002 -0.05438209 -0.24206614
-0.019021988 -0.054313987 -0.24207252
-0.019018486 -0.054245666 -0.24208888
-0.019015569 -0.054177605 -0.24209329
-0.019013023 -0.054111671 -0.24209172
-0.019010302 -0.054043699 -0.24209212
-0.019007483 -0.053975679 -0.2420945
-0.01900447 -0.053907577 -0.24210088
-0.019001825 -0.053841598 -0.24210131
-0.018999495 -0.053773798 -0.24209371
-0.01899687 -0.053705871 -0.2420921
-0.018994151 -0.053637896 -0.24209251
-0.018991798 -0.053572051 -0.24208695
-0.018989664 -0.053504337 -0.24207535
-0.018986942 -0.053436365 -0.24207574
-0.0189842 -0.053370345 -0.24207819
-0.018981576 -0.053302415 -0.24207658
-0.018978758 -0.053234398 -0.24207896
-0.018975841 -0.053166337 -0.24208334
-0.018972827 -0.053098232 -0.24208972
-0.018970476 -0.053032387 -0.24208418
-0.018968243 -0.052964628 -0.24207458
-0.018965326 -0.05289657 -0.24207896
-0.018962605 -0.052828595 -0.24207935
-0.018960547 -0.052762881 -0.24206781
-0.018957924 -0.05269495 -0.2420662
-0.018955104 -0.052626934 -0.24206859
-0.01895209 -0.052558828 -0.24207497
-0.018949348 -0.052492809 -0.24207741
-0.018947018 -0.052425008 -0.24206981
-0.018944005 -0.052356906 -0.24207619
-0.018940991 -0.0522888 -0.24208257
-0.018938659 -0.052221 -0.24207497
-0.018936211 -0.052155111 -0.24207142
-0.018933391 -0.052087095 -0.2420738
-0.018930769 -0.052019164 -0.24207219
-0.018928535 -0.051951408 -0.2420626
-0.018926086 -0.051885519 -0.24205904
-0.018923365 -0.051817544 -0.24205942
-0.018920839 -0.051749658 -0.24205583
-0.018918293 -0.051683724 -0.24205425
-0.018915201 -0.051613621 -0.2420606
-0.018911874 -0.051547341 -0.24207503
-0.018908959 -0.051479284 -0.24207941
-0.018906724 -0.051411524 -0.24206981
-0.018904394 -0.051343724 -0.24206221
-0.018901944 -0.051277839 -0.24205866
-0.018899517 -0.051209994 -0.24205305
-0.0188966 -0.051141933 -0.24205743
-0.018893879 -0.051073961 -0.24205783
-0.018891333 -0.051008027 -0.24205627
-0.018888611 -0.050940052 -0.24205664
-0.018885989 -0.050872121 -0.24205504
-0.018883461 -0.050804235 -0.24205145
-0.01888074 -0.050736263 -0.24205182
-0.018878097 -0.050670285 -0.24205227
-0.018875571 -0.050602399 -0.24204865
-0.018872947 -0.050534468 -0.24204706
-0.018870596 -0.050468624 -0.2420415
-0.01886807 -0.050400734 -0.24203791
-0.018864958 -0.050332587 -0.24204628
-0.018861944 -0.050264485 -0.24205266
-0.018859321 -0.050196555 -0.24205105
-0.018856697 -0.050128624 -0.24204946
-0.018853975 -0.050060648 -0.24204984
-0.018851429 -0.049994718 -0.24204828
-0.018848807 -0.049926788 -0.24204667
-0.018846182 -0.049858857 -0.24204506
-0.018843852 -0.049791057 -0.24203748
-0.018841695 -0.049725298 -0.24202791
-0.018839266 -0.049657453 -0.24202231
-0.018836644 -0.049589522 -0.2420207
-0.019380216 -0.061630614 -0.24068633
-0.019379349 -0.061563466 -0.24064878
-0.019375924 -0.061497141 -0.2406652
-0.019369747 -0.061431557 -0.24073955
-0.019360524 -0.061366577 -0.2408779
-0.019342044 -0.061305325 -0.24121214
-0.019326026 -0.06124321 -0.24149442
-0.019320531 -0.061177928 -0.2415548
-0.019316716 -0.061111432 -0.2415792
-0.019313995 -0.061043456 -0.24157959
-0.019311566 -0.060975611 -0.24157402
-0.019308336 -0.060909376 -0.24158642
-0.019303935 -0.060842618 -0.24162281
-0.019298539 -0.060777377 -0.24168122
-0.019289432 -0.060710486 -0.24181551
-0.019275701 -0.060645461 -0.24204774
-0.019266574 -0.060580526 -0.2421841
-0.019263461 -0.060512379 -0.24219248
-0.019260818 -0.0604464 -0.24219291
-0.019258 -0.060378384 -0.24219529
-0.01925518 -0.060310367 -0.24219768
-0.019252926 -0.060244564 -0.24219012
-0.019251104 -0.060175028 -0.24217051
-0.019249847 -0.060107708 -0.24214093
-0.019247906 -0.060040079 -0.24212536
-0.01924536 -0.059974149 -0.24212378
-0.019243224 -0.059906434 -0.24211219
