# .PCD v0.7 - Point Cloud Data file format
VERSION 0.7
FIELDS x y z
SIZE 4 4 4
TYPE F F F
COUNT 1 1 1
WIDTH 1303
HEIGHT 1
VIEWPOINT 0 0 0 1 0 0 0
POINTS 1303
DATA ascii
-0.063900925 0.023172367 -0.26953614
-0.063882969 0.023262875 -0.26983571
-0.063879825 0.023344791 -0.26983377
-0.06387648 0.023426794 -0.26983583
-0.063873015 0.023506887 -0.26984191
-0.063869864 0.023588805 -0.26983994
-0.063866518 0.023670807 -0.26984203
-0.063863076 0.023752855 -0.26984605
-0.063859344 0.023835033 -0.2698561
-0.063855685 0.023915214 -0.26986617
-0.063960746 0.021548864 -0.26963407
-0.063951649 0.021633442 -0.26975393
-0.063970968 0.021866314 -0.26915896
-0.06396848 0.02194597 -0.26914507
-0.063942686 0.022036061 -0.2696085
-0.063943632 0.022116143 -0.2695227
-0.063940182 0.022198191 -0.26952672
-0.06393528 0.022280892 -0.26956075
-0.063931718 0.022361029 -0.26956883
-0.063931689 0.022441549 -0.269503
-0.063929513 0.022523029 -0.26948106
-0.063904494 0.023093844 -0.26953146
-0.063901126 0.023173893 -0.26953554
-0.06388317 0.023264401 -0.26983511
-0.063879922 0.023346361 -0.26983517
-0.063876584 0.023428364 -0.26983723
-0.063873217 0.023508413 -0.26984131
-0.063870162 0.023590285 -0.26983738
-0.063866816 0.02367229 -0.26983944
-0.063863181 0.023754423 -0.26984748
-0.06385944 0.023836602 -0.2698575
-0.063855879 0.02391674 -0.2698656
-0.063958667 0.021549409 -0.26963508
-0.063949257 0.021632165 -0.26976299
-0.063968405 0.021867078 -0.26916999
-0.063966312 0.021946559 -0.26914811
-0.063941188 0.022036344 -0.26959756
-0.063941456 0.022116732 -0.26952571
-0.063938014 0.02219878 -0.26952976
-0.063933201 0.022281438 -0.26956177
-0.063929841 0.022361487 -0.26956585
-0.063929617 0.022442095 -0.26950401
-0.063927539 0.02252353 -0.26948008
-0.063902326 0.023094434 -0.26953447
-0.063899152 0.023174396 -0.26953459
-0.063881099 0.023264946 -0.26983616
-0.063877851 0.023346907 -0.26983619
-0.063874602 0.023428867 -0.26983625
-0.063871041 0.023509003 -0.26984435
-0.063867994 0.023590876 -0.26984039
-0.063864648 0.023672879 -0.26984245
-0.063861102 0.023754971 -0.2698485
-0.063857466 0.023837104 -0.26985654
-0.063853808 0.023917286 -0.26986662
-0.063956834 0.021548809 -0.26963285
-0.063947737 0.02163339 -0.26975271
-0.06396687 0.021866346 -0.26916173
-0.063964382 0.021946002 -0.26914784
-0.063938968 0.022035919 -0.26960331
-0.063939624 0.022116134 -0.26952347
-0.063936181 0.02219818 -0.26952749
-0.063931279 0.022280883 -0.26956153
-0.063927621 0.022361062 -0.2695716
-0.063927591 0.022441583 -0.26950574
-0.063925415 0.022523062 -0.26948383
-0.063900597 0.023093792 -0.26953024
-0.06389723 0.023173841 -0.26953432
-0.063879371 0.023264304 -0.2698319
-0.06387613 0.023346264 -0.26983196
-0.063872688 0.023428312 -0.26983601
-0.06386932 0.023508362 -0.26984009
-0.063866265 0.023590235 -0.26983616
-0.06386292 0.023672238 -0.26983821
-0.063859284 0.023754373 -0.26984626
-0.063855648 0.023836508 -0.26985428
-0.06385199 0.023916688 -0.26986438
-0.063957997 0.021548459 -0.26963791
-0.063948996 0.021632995 -0.26975578
-0.063968226 0.021865908 -0.2691628
-0.063965738 0.021945564 -0.26914892
-0.063941613 0.022036869 -0.26957637
-0.06394098 0.022115694 -0.26952451
-0.063937441 0.022197787 -0.26953059
-0.063932635 0.022280445 -0.26956257
-0.063929074 0.022360582 -0.26957065
-0.063929044 0.0224411 -0.26950482
-0.063926771 0.022522625 -0.26948488
-0.06390176 0.02309344 -0.2695353
-0.063898586 0.023173403 -0.26953539
-0.06388063 0.023263909 -0.26983497
-0.063877381 0.023345869 -0.26983503
-0.063873939 0.023427917 -0.26983905
-0.063870475 0.02350801 -0.26984516
-0.063867524 0.02358984 -0.26983923
-0.063864179 0.023671843 -0.26984125
-0.063860543 0.023753978 -0.2698493
-0.0638569 0.023836114 -0.26985735
-0.063853242 0.023916293 -0.26986742
-0.063959308 0.021548089 -0.26964283
-0.063949987 0.021630801 -0.26976877
-0.063969441 0.02186558 -0.26916975
-0.063967243 0.021945106 -0.26914987
-0.063941732 0.022035066 -0.26960731
-0.063942388 0.022115281 -0.26952749
-0.063939042 0.022197284 -0.26952952
-0.063934334 0.0222799 -0.26955953
-0.063930675 0.022360079 -0.26956964
-0.063930258 0.022440773 -0.26951176
-0.06392847 0.022522079 -0.26948184
-0.06389524 0.022937521 -0.26983166
-0.063903354 0.023092939 -0.26953423
-0.063900091 0.023172945 -0.26953635
-0.063882232 0.023263408 -0.26983392
-0.063878983 0.023345368 -0.26983398
-0.063875541 0.023427416 -0.26983804
-0.06387198 0.023507552 -0.26984611
-0.063868828 0.023589468 -0.26984417
-0.063865483 0.023671472 -0.2698462
-0.063861944 0.023753563 -0.26985225
-0.063858308 0.023835698 -0.2698603
-0.06385465 0.023915878 -0.26987037
-0.063959233 0.021547005 -0.26963934
-0.06394992 0.021629717 -0.26976526
-0.063969657 0.021864366 -0.26916024
-0.063967168 0.021944022 -0.26914638
-0.063941568 0.022034027 -0.26960582
-0.063942119 0.022114284 -0.26952797
-0.063938782 0.022196287 -0.26953003
-0.063934065 0.022278903 -0.26956004
-0.063930504 0.02235904 -0.26956812
-0.063930288 0.022439646 -0.26950625
-0.063928112 0.022521125 -0.26948434
-0.0639029 0.02309203 -0.26953873
-0.063899733 0.023171991 -0.26953882
-0.063881971 0.023262411 -0.2698344
-0.063878722 0.023344371 -0.26983446
-0.06387528 0.023426419 -0.26983851
-0.063871913 0.023506468 -0.26984259
-0.063868769 0.023588385 -0.26984066
-0.063865423 0.023670388 -0.26984271
-0.063861787 0.023752524 -0.26985073
-0.063858144 0.023834657 -0.26985878
-0.063854389 0.023914881 -0.26987088
-0.063958526 0.021544214 -0.26962984
-0.063953623 0.021626918 -0.26966384
-0.063967682 0.021862144 -0.26917669
-0.063965879 0.021941494 -0.26914883
-0.063941754 0.022032797 -0.26957625
-0.063941218 0.022111582 -0.26952243
-0.063937776 0.022193629 -0.26952648
-0.06393297 0.022276288 -0.26955849
-0.06392961 0.022356337 -0.2695626
-0.063929088 0.022437075 -0.26950672
-0.063926622 0.022518685 -0.26949081
-0.063901901 0.02308937 -0.26953518
-0.063898541 0.023169421 -0.2695393
-0.063880779 0.023259839 -0.26983488
-0.06387753 0.023341801 -0.26983494
-0.063874185 0.023423804 -0.26983699
-0.063870728 0.023503896 -0.26984307
-0.063867576 0.023585813 -0.26984113
-0.063864328 0.023667773 -0.26984119
-0.063860692 0.023749908 -0.26984921
-0.063857056 0.023832042 -0.26985726
-0.063853398 0.023912223 -0.26986733
-0.063959286 0.02154571 -0.269633
-0.063950285 0.021630244 -0.26975089
-0.063969709 0.021863071 -0.26915389
-0.063967027 0.021942815 -0.269144
-0.063941419 0.02203282 -0.26960346
-0.063942075 0.022113033 -0.26952362
-0.063938633 0.02219508 -0.26952767
-0.063933827 0.022277739 -0.26955968
-0.063930362 0.022357833 -0.26956576
-0.063930236 0.022438396 -0.26950192
-0.063927867 0.022519961 -0.26948398
-0.063902952 0.023090735 -0.26953238
-0.063899592 0.023170784 -0.26953647
-0.063881733 0.023261247 -0.26983404
-0.063878484 0.023343207 -0.2698341
-0.063875139 0.02342521 -0.26983616
-0.063871779 0.023505261 -0.26984024
-0.063868724 0.023587134 -0.26983631
-0.063865378 0.023669137 -0.26983836
-0.063861743 0.023751272 -0.26984641
-0.06385801 0.02383345 -0.26985642
-0.063854448 0.023913587 -0.26986453
-0.063960299 0.021548213 -0.26964039
-0.063951589 0.021632619 -0.26975229
-0.063970424 0.021865707 -0.2691673
-0.063968234 0.021945233 -0.26914743
-0.063943021 0.02203506 -0.26959887
-0.063943475 0.022115363 -0.26952302
-0.063940138 0.022197366 -0.26952508
-0.063935325 0.022280024 -0.26955709
-0.063931473 0.022360291 -0.26957119
-0.063931249 0.022440899 -0.26950932
-0.063929468 0.022522204 -0.26947939
-0.063904449 0.023093021 -0.26952979
-0.063901186 0.023173027 -0.26953191
-0.06388323 0.023263533 -0.26983148
-0.063879982 0.023345493 -0.26983154
-0.063876733 0.023427453 -0.2698316
-0.063873179 0.023507589 -0.26983967
-0.063870028 0.023589507 -0.26983774
-0.063866682 0.02367151 -0.26983976
-0.063863046 0.023753645 -0.26984781
-0.063859411 0.023835778 -0.26985586
-0.063855849 0.023915917 -0.26986393
-0.063958742 0.021546556 -0.26963687
-0.063950032 0.021630961 -0.26974875
-0.063969254 0.021863874 -0.26915577
-0.063966677 0.021943575 -0.26914388
-0.063940875 0.022033665 -0.26960734
-0.063941434 0.022113923 -0.26952949
-0.063938186 0.022195883 -0.26952955
-0.063933477 0.022278497 -0.26955956
-0.063930012 0.022358591 -0.26956564
-0.063930176 0.022439023 -0.26949579
-0.063928097 0.022520458 -0.26947188
-0.063902698 0.02309145 -0.26953027
-0.063899331 0.023171499 -0.26953435
-0.063881569 0.02326192 -0.26982993
-0.06387832 0.02334388 -0.26982999
-0.063874975 0.023425883 -0.26983204
-0.063871518 0.023505976 -0.26983812
-0.063868463 0.023587849 -0.26983419
-0.063865021 0.023669895 -0.26983821
-0.063861385 0.02375203 -0.26984626
-0.063857652 0.02383421 -0.2698563
-0.063854091 0.023914345 -0.26986438
-0.063957132 0.021544795 -0.26962981
-0.063947842 0.021629464 -0.26975369
-0.063967265 0.021862289 -0.26915669
-0.06396468 0.02194199 -0.2691448
-0.063940458 0.022033336 -0.26957425
-0.063939825 0.022112163 -0.26952243
-0.063936383 0.02219421 -0.26952648
-0.063931569 0.022276869 -0.26955849
-0.063928008 0.022357006 -0.26956657
-0.063927889 0.022437569 -0.26950273
-0.063925907 0.022518961 -0.2694768
-0.063900597 0.023089908 -0.26953319
-0.063897423 0.023169871 -0.26953328
-0.063879468 0.023260377 -0.26983285
-0.063876227 0.023342337 -0.26983291
-0.063872978 0.023424298 -0.26983297
-0.06386961 0.023504347 -0.26983705
-0.063866556 0.023586221 -0.26983312
-0.063863114 0.023668267 -0.26983717
-0.063859478 0.023750402 -0.26984522
-0.063855745 0.02383258 -0.26985526
-0.063852184 0.023912717 -0.26986334
-0.063958608 0.021548131 -0.26963416
-0.063949607 0.021632668 -0.26975206
-0.063969128 0.02186545 -0.26915306
-0.063965276 0.021945719 -0.26916713
-0.063942127 0.022036584 -0.26957461
-0.063941397 0.022115456 -0.26952478
-0.063937858 0.022197546 -0.26953083
-0.063933045 0.022280205 -0.26956284
-0.06392929 0.022360429 -0.26957491
-0.063929364 0.022440905 -0.26950708
-0.063927479 0.022522254 -0.26947916
-0.063902363 0.023093114 -0.26953155
-0.063899092 0.023173118 -0.26953363
-0.063881136 0.023263626 -0.26983321
-0.063877985 0.023345543 -0.26983127
-0.06387464 0.023427546 -0.26983333
-0.063871279 0.023507595 -0.26983741
-0.063868128 0.023589512 -0.26983547
-0.063864686 0.02367156 -0.26983953
-0.063860953 0.023753738 -0.26984957
-0.06385731 0.023835871 -0.26985759
-0.063853748 0.02391601 -0.26986569
-0.063960589 0.021549907 -0.26962429
-0.063951299 0.021634573 -0.26974818
-0.063970819 0.021867355 -0.26914918
-0.063967936 0.021947186 -0.26914328
-0.063942231 0.022037234 -0.26960474
-0.063942887 0.022117447 -0.2695249
-0.063939445 0.022199495 -0.26952896
-0.063934639 0.022282153 -0.26956096
-0.063930981 0.022362335 -0.26957104
-0.063931048 0.02244281 -0.26950321
-0.063929163 0.022524159 -0.26947528
-0.063903853 0.023095105 -0.26953167
-0.063900679 0.023175068 -0.26953179
-0.063882723 0.023265574 -0.26983136
-0.063879475 0.023347534 -0.26983139
-0.06387613 0.023429539 -0.26983345
-0.063872866 0.023509543 -0.26983553
-0.063869715 0.023591461 -0.26983359
-0.063866273 0.023673508 -0.26983765
-0.063862629 0.023755644 -0.26984569
-0.063858993 0.023837777 -0.26985371
-0.063855335 0.023917958 -0.26986381
-0.063960895 0.021547604 -0.26962784
-0.063951604 0.021632271 -0.26975173
-0.063971117 0.021865055 -0.26915273
-0.063968338 0.021944841 -0.26914483
-0.063942738 0.022034844 -0.26960427
-0.06394349 0.022115014 -0.26952246
-0.063940041 0.022197062 -0.26952651
-0.063935235 0.022279721 -0.26955849
-0.063931674 0.022359857 -0.2695666
-0.063931644 0.022440378 -0.26950073
-0.063929372 0.0225219 -0.26948082
-0.063904352 0.023092717 -0.26953122
-0.063900992 0.023172766 -0.2695353
-0.063883133 0.023263229 -0.26983288
-0.063879885 0.023345189 -0.26983294
-0.063876539 0.023427192 -0.269835
-0.063873172 0.023507241 -0.26983908
-0.063870117 0.023589116 -0.26983514
-0.063866675 0.023671161 -0.26983917
-0.063863039 0.023753297 -0.26984721
-0.063859403 0.023835432 -0.26985526
-0.063855745 0.023915611 -0.26986536
-0.063960887 0.021545449 -0.26963547
-0.063951887 0.021629985 -0.26975337
-0.063971594 0.021862682 -0.26915038
-0.063968718 0.021942513 -0.26914448
-0.063943312 0.022032429 -0.26959994
-0.063943967 0.022112643 -0.2695201
-0.063940428 0.022194734 -0.26952615
-0.063935615 0.022277392 -0.26955816
-0.063932151 0.022357486 -0.26956427
-0.063931733 0.02243818 -0.26950639
-0.063929461 0.022519702 -0.26948649
-0.063904546 0.023090474 -0.26953486
-0.063901372 0.023170438 -0.26953498
-0.063883416 0.023260944 -0.26983455
-0.063880265 0.023342859 -0.26983261
-0.063876927 0.023424864 -0.26983464
-0.063873462 0.023504958 -0.26984075
-0.063870311 0.023586873 -0.26983881
-0.063866965 0.023668876 -0.26984084
-0.063863426 0.023750968 -0.26984689
-0.063859791 0.023833103 -0.26985493
-0.063856125 0.023913283 -0.26986501
-0.063958988 0.021544542 -0.2696417
-0.063950479 0.02162886 -0.26974958
-0.063969605 0.021861818 -0.2691586
-0.063966922 0.021941563 -0.26914871
-0.06394171 0.022031391 -0.26960015
-0.063942268 0.022111647 -0.26952231
-0.063938826 0.022193694 -0.26952636
-0.063934013 0.022276353 -0.26955837
-0.063930452 0.022356492 -0.26956648
-0.063930131 0.02243714 -0.2695066
-0.06392806 0.022518577 -0.2694827
-0.063903138 0.023089349 -0.2695311
-0.06389977 0.023169398 -0.26953518
-0.063882016 0.023259819 -0.26983076
-0.063878767 0.023341779 -0.26983082
-0.063875325 0.023423824 -0.26983488
-0.063872054 0.023503831 -0.26983696
-0.06386891 0.023585748 -0.26983503
-0.063865468 0.023667794 -0.26983905
-0.063861825 0.023749929 -0.2698471
-0.063858286 0.023832021 -0.26985314
-0.063854724 0.023912158 -0.26986125
-0.063957565 0.021543402 -0.2696358
-0.063953146 0.021625888 -0.26965982
-0.063968182 0.021860678 -0.2691527
-0.063965306 0.021940511 -0.26914683
-0.063939795 0.022030469 -0.26960427
-0.063940547 0.022110639 -0.26952243
-0.063937008 0.02219273 -0.26952848
-0.063932098 0.022275433 -0.26956248
-0.063928545 0.02235557 -0.26957059
-0.063928418 0.022436133 -0.26950672
-0.063926436 0.022517525 -0.26948079
-0.063901328 0.023088384 -0.26953322
-0.063898057 0.023168391 -0.2695353
-0.063880198 0.023258854 -0.26983288
-0.063876949 0.023340814 -0.26983291
-0.063873507 0.02342286 -0.26983696
-0.063870139 0.023502911 -0.26984107
-0.063867092 0.023584783 -0.26983714
-0.063863747 0.023666786 -0.26983917
-0.063860014 0.023748964 -0.26984921
-0.063856378 0.023831099 -0.26985726
-0.063852817 0.023911236 -0.26986533
-0.063957095 0.021545218 -0.26963842
-0.063947991 0.021629797 -0.26975828
-0.06396693 0.021862842 -0.26917127
-0.063964933 0.02194228 -0.2691474
-0.063940711 0.022033628 -0.26957685
-0.063940272 0.022112366 -0.26952103
-0.063936636 0.022194501 -0.26952907
-0.063931733 0.022277204 -0.26956308
-0.063928172 0.022357341 -0.26957116
-0.063928142 0.022437859 -0.26950532
-0.063926749 0.022518991 -0.26946741
-0.063900955 0.023090156 -0.26953378
-0.063897684 0.023170162 -0.2695359
-0.063879833 0.023260625 -0.26983345
-0.063876584 0.023342585 -0.26983351
-0.063873142 0.023424633 -0.26983756
-0.063869677 0.023504727 -0.26984364
-0.063866623 0.023586599 -0.2698397
-0.063863277 0.023668602 -0.26984176
-0.063859642 0.023750737 -0.26984981
-0.063856006 0.023832873 -0.26985782
-0.063852347 0.023913052 -0.26986793
-0.063959114 0.021546135 -0.26963618
-0.063950308 0.021630583 -0.26975006
-0.063969538 0.021863496 -0.26915708
-0.063965879 0.021943677 -0.26916716
-0.06394273 0.022034544 -0.26957464
-0.063942194 0.022113327 -0.26952082
-0.063938655 0.022195417 -0.26952687
-0.063933656 0.022278164 -0.26956284
-0.063930191 0.022358257 -0.26956895
-0.063930258 0.022438733 -0.26950109
-0.063928083 0.022520212 -0.26947919
-0.063902974 0.023091072 -0.26953158
-0.063899606 0.023171121 -0.26953566
-0.063881747 0.023261584 -0.26983324
-0.063878506 0.023343544 -0.2698333
-0.063875161 0.023425549 -0.26983535
-0.063871793 0.023505598 -0.26983944
-0.063868642 0.023587516 -0.2698375
-0.0638652 0.023669563 -0.26984155
-0.063861661 0.023751654 -0.26984757
-0.063858025 0.023833789 -0.26985562
-0.063854367 0.023913968 -0.26986569
-0.063960277 0.021544045 -0.26963866
-0.063951157 0.02162667 -0.26976061
-0.063970506 0.021861495 -0.26916355
-0.063968018 0.021941151 -0.26914966
-0.063942604 0.022031069 -0.26960513
-0.063943356 0.022111237 -0.26952329
-0.063939914 0.022193285 -0.26952735
-0.063935012 0.022275988 -0.26956135
-0.063931547 0.02235608 -0.26956743
-0.063931517 0.0224366 -0.26950157
-0.063929245 0.022518123 -0.26948166
-0.063904136 0.023088982 -0.26953405
-0.063900866 0.023168989 -0.26953614
-0.063883014 0.023259452 -0.26983374
-0.063879766 0.023341412 -0.26983377
-0.06387642 0.023423415 -0.26983583
-0.063872956 0.023503508 -0.26984191
-0.063869908 0.023585381 -0.26983798
-0.063866563 0.023667384 -0.26984003
-0.06386292 0.023749519 -0.26984808
-0.063859187 0.023831699 -0.26985812
-0.063855529 0.023911878 -0.2698682
-0.063960329 0.021541603 -0.26963443
-0.063951015 0.021624316 -0.26976034
-0.063970454 0.021859096 -0.26916131
-0.063967869 0.021938797 -0.26914942
-0.063942365 0.022028757 -0.26960689
-0.063943021 0.02210897 -0.26952705
-0.063939676 0.022190975 -0.2695291
-0.063934773 0.022273676 -0.26956308
-0.063931309 0.02235377 -0.26956919
-0.063930988 0.022434421 -0.26950932
-0.063928813 0.0225159 -0.26948741
-0.063903995 0.023086628 -0.26953381
-0.063900724 0.023166634 -0.2695359
-0.063882776 0.02325714 -0.26983547
-0.063879527 0.0233391 -0.26983553
-0.063876182 0.023421105 -0.26983759
-0.063872717 0.023501199 -0.26984367
-0.063869566 0.023583114 -0.26984173
-0.063866228 0.023665119 -0.26984379
-0.063862681 0.023747209 -0.26984984
-0.063859046 0.023829345 -0.26985785
-0.063855387 0.023909524 -0.26986796
-0.063960202 0.021543514 -0.26963827
-0.063951299 0.021628005 -0.26975417
-0.063970722 0.021860832 -0.26915717
-0.06396804 0.021940576 -0.26914728
-0.063943915 0.022031879 -0.26957473
-0.063943379 0.022110661 -0.26952091
-0.063939936 0.022192709 -0.26952496
-0.063935131 0.022275368 -0.26955694
-0.063931569 0.022355504 -0.26956505
-0.063931055 0.022436243 -0.26950917
-0.063929364 0.022517504 -0.26947728
-0.063904256 0.023088364 -0.26952967
-0.063900888 0.023168413 -0.26953375
-0.063882932 0.023258921 -0.26983333
-0.06387978 0.023340836 -0.26983139
-0.063876435 0.023422841 -0.26983345
-0.063872978 0.023502933 -0.26983953
-0.063869826 0.02358485 -0.26983759
-0.063866481 0.023666853 -0.26983964
-0.063862845 0.023748988 -0.26984769
-0.063859209 0.023831123 -0.26985571
-0.063855648 0.02391126 -0.26986378
-0.06395907 0.021545157 -0.26963663
-0.063949756 0.021627869 -0.26976252
-0.063968807 0.021862825 -0.26917148
-0.063966714 0.021942306 -0.2691496
-0.063942492 0.022033654 -0.26957905
-0.063942052 0.022112394 -0.26952326
-0.06393861 0.022194441 -0.26952729
-0.063933708 0.022277143 -0.26956129
-0.063930146 0.022357279 -0.2695694
-0.063929923 0.022437885 -0.26950753
-0.063927941 0.022519279 -0.2694816
-0.063902833 0.023090139 -0.26953399
-0.063899659 0.023170101 -0.26953411
-0.063881807 0.023260564 -0.26983169
-0.063878559 0.023342524 -0.26983172
-0.063875116 0.023424571 -0.26983577
-0.063871652 0.023504665 -0.26984185
-0.063868597 0.023586538 -0.26983792
-0.063865259 0.023668541 -0.26983997
-0.063861616 0.023750676 -0.26984802
-0.06385798 0.023832811 -0.26985607
-0.063854419 0.023912948 -0.26986414
-0.063958012 0.021546714 -0.26963121
-0.063948721 0.021631381 -0.2697551
-0.063968338 0.021864118 -0.2691541
-0.063965656 0.021943862 -0.26914421
-0.063940048 0.022033866 -0.26960367
-0.06394051 0.022114167 -0.26952782
-0.063937262 0.022196127 -0.26952788
-0.063932553 0.022278743 -0.26955789
-0.063928895 0.022358922 -0.26956797
-0.063928775 0.022439485 -0.26950413
-0.063926697 0.022520922 -0.2694802
-0.063901685 0.023091737 -0.26953059
-0.063898414 0.023171743 -0.26953268
-0.063880458 0.023262251 -0.26983225
-0.06387721 0.023344211 -0.26983231
-0.063873865 0.023426214 -0.26983437
-0.063870408 0.023506308 -0.26984048
-0.063867353 0.023588181 -0.26983652
-0.063864008 0.023670185 -0.26983857
-0.063860372 0.023752319 -0.26984662
-0.063856639 0.023834497 -0.26985663
-0.063852981 0.023914678 -0.26986673
-0.063960657 0.021548631 -0.26963499
-0.06395185 0.021633079 -0.2697489
-0.06397137 0.02186586 -0.2691499
-0.063968591 0.021945648 -0.26914203
-0.06394279 0.02203574 -0.26960546
-0.063943543 0.022115909 -0.26952362
-0.063940004 0.022198001 -0.26952967
-0.063935295 0.022280615 -0.26955968
-0.06393183 0.022360709 -0.26956576
-0.0639318 0.022441227 -0.2694999
-0.063929334 0.022522839 -0.26948398
-0.063904315 0.023093654 -0.26953438
-0.063901044 0.02317366 -0.2695365
-0.063883185 0.023264125 -0.26983404
-0.063879944 0.023346083 -0.2698341
-0.063876599 0.023428088 -0.26983616
-0.063873231 0.023508137 -0.26984024
-0.063870177 0.02359001 -0.26983631
-0.063866735 0.023672057 -0.26984036
-0.063863099 0.023754193 -0.26984841
-0.063859463 0.023836326 -0.26985645
-0.063855805 0.023916507 -0.26986653
-0.063959256 0.021544931 -0.26963156
-0.063950248 0.021629468 -0.26974946
-0.063968897 0.021862645 -0.26916844
-0.063966699 0.02194217 -0.26914859
-0.06394238 0.022033559 -0.26958001
-0.063942239 0.022112168 -0.2695182
-0.063938402 0.022194391 -0.26953024
-0.063933596 0.02227705 -0.26956224
-0.063930131 0.022357142 -0.26956832
-0.063929908 0.022437749 -0.26950648
-0.063927345 0.022519404 -0.26949257
-0.063894704 0.022934584 -0.26983038
-0.063902721 0.023090044 -0.26953495
-0.063899353 0.023170093 -0.26953906
-0.063881494 0.023260556 -0.26983663
-0.063878343 0.023342473 -0.2698347
-0.063875005 0.023424476 -0.26983672
-0.06387154 0.02350457 -0.2698428
-0.063868389 0.023586486 -0.26984087
-0.063865043 0.02366849 -0.26984292
-0.063861504 0.023750581 -0.26984897
-0.063857868 0.023832716 -0.26985702
-0.06385421 0.023912897 -0.26986712
-0.063958749 0.021545958 -0.26963323
-0.063953847 0.021628659 -0.26966724
-0.063968785 0.021863494 -0.26916212
-0.063966393 0.021943107 -0.26914623
-0.063940883 0.022033067 -0.26960367
-0.063941538 0.02211328 -0.26952386
-0.063938096 0.022195328 -0.26952788
-0.063933291 0.022277987 -0.26955989
-0.063929729 0.022358123 -0.269568
-0.063929506 0.022438731 -0.26950613
-0.063927233 0.022520253 -0.26948622
-0.063902415 0.023090983 -0.26953262
-0.063899152 0.023170987 -0.26953471
-0.063881293 0.02326145 -0.26983228
-0.063878044 0.02334341 -0.26983234
-0.063874699 0.023425415 -0.2698344
-0.063871235 0.023505509 -0.26984048
-0.063867986 0.023587469 -0.26984054
-0.063864745 0.023669429 -0.2698406
-0.063861102 0.023751562 -0.26984861
-0.063857466 0.023833698 -0.26985666
-0.063853905 0.023913834 -0.26986474
-0.063959517 0.02154896 -0.26963806
-0.063950509 0.021633495 -0.26975593
-0.063969932 0.021866322 -0.26915896
-0.063967444 0.021945978 -0.26914507
-0.063941844 0.022035982 -0.2696045
-0.063942596 0.022116151 -0.26952267
-0.063939147 0.0221982 -0.26952672
-0.063934341 0.022280857 -0.26955873
-0.06393078 0.022360994 -0.2695668
-0.063930653 0.022441557 -0.26950297
-0.063928574 0.022522993 -0.26947904
-0.063903272 0.023093941 -0.26953542
-0.063900098 0.023173902 -0.26953554
-0.063882336 0.023264322 -0.26983112
-0.063879088 0.023346283 -0.26983118
-0.063875742 0.023428285 -0.26983321
-0.063872181 0.023508422 -0.26984131
-0.063869134 0.023590295 -0.26983738
-0.063865691 0.023672342 -0.2698414
-0.063862145 0.023754433 -0.26984745
-0.063858509 0.023836568 -0.2698555
-0.063854851 0.023916749 -0.26986557
-0.063960761 0.021547982 -0.26963854
-0.063955948 0.021630641 -0.26967055
-0.063970789 0.021865521 -0.26916742
-0.063968495 0.021945089 -0.26914954
-0.063943185 0.022034962 -0.26960298
-0.063943736 0.022115219 -0.26952517
-0.063940197 0.02219731 -0.26953119
-0.063935392 0.022279968 -0.2695632
-0.063931733 0.022360148 -0.2695733
-0.063931607 0.022440711 -0.26950943
-0.063929334 0.022522235 -0.26948953
-0.063904606 0.02309292 -0.26953393
-0.063901238 0.023172969 -0.26953802
-0.063883476 0.023263387 -0.26983359
-0.063880228 0.023345347 -0.26983365
-0.063876785 0.023427395 -0.26983771
-0.063873321 0.023507487 -0.26984379
-0.063870169 0.023589404 -0.26984185
-0.063866921 0.023671364 -0.26984191
-0.063863285 0.0237535 -0.26984993
-0.063859552 0.023835678 -0.26985997
-0.063855991 0.023915814 -0.26986808
-0.063961454 0.021545159 -0.26963797
-0.063952446 0.021629695 -0.26975584
-0.063971773 0.021862566 -0.26916087
-0.063969284 0.021942222 -0.26914698
-0.06394507 0.022033568 -0.26957643
-0.063944533 0.022112351 -0.26952261
-0.063940994 0.022194441 -0.26952863
-0.063936181 0.022277102 -0.26956064
-0.063932426 0.022357326 -0.26957273
-0.063932396 0.022437844 -0.26950687
-0.063930519 0.022519194 -0.26947898
-0.063905306 0.023090096 -0.26953337
-0.063902035 0.023170102 -0.26953545
-0.063884087 0.023260608 -0.26983503
-0.063880838 0.023342568 -0.26983508
-0.063877493 0.023424573 -0.26983714
-0.063874029 0.023504665 -0.26984322
-0.063870981 0.023586538 -0.26983929
-0.063867733 0.023668498 -0.26983935
-0.063863993 0.023750676 -0.26984936
-0.063860357 0.023832811 -0.26985741
-0.063856795 0.023912948 -0.26986551
-0.063959442 0.021548469 -0.26962677
-0.063949861 0.021633266 -0.26975662
-0.063970253 0.021865658 -0.26913968
-0.063966893 0.021945707 -0.26914376
-0.063941091 0.022035796 -0.26960722
-0.063942038 0.022115879 -0.26952139
-0.063938595 0.022197926 -0.26952544
-0.06393379 0.022280585 -0.26955745
-0.063930422 0.022360634 -0.26956153
-0.063930102 0.022441287 -0.26950169
-0.063927442 0.022522984 -0.26948977
-0.06390281 0.023093626 -0.26953214
-0.06389945 0.023173675 -0.26953626
-0.063881688 0.023264093 -0.26983184
-0.063878439 0.023346053 -0.26983187
-0.063875094 0.023428056 -0.26983392
-0.063871734 0.023508107 -0.26983804
-0.063868679 0.02358998 -0.26983407
-0.063865237 0.023672026 -0.26983812
-0.063861601 0.023754161 -0.26984617
-0.063857965 0.023836296 -0.26985422
-0.063854307 0.023916475 -0.26986429
-0.063958347 0.021547792 -0.26963925
-0.063952953 0.021630714 -0.26968324
-0.063968085 0.021865461 -0.2691741
-0.063966088 0.021944899 -0.26915026
-0.063940868 0.022034727 -0.2696017
-0.063941427 0.022114985 -0.26952386
-0.063937791 0.02219712 -0.26953191
-0.063932978 0.022279778 -0.26956391
-0.063929521 0.022359872 -0.26956999
-0.063929394 0.022440435 -0.26950616
-0.063926928 0.022522045 -0.26949024
-0.063902102 0.023092775 -0.26953661
-0.063898936 0.023172736 -0.26953673
-0.06388098 0.023263242 -0.26983631
-0.063877828 0.023345159 -0.26983434
-0.063874386 0.023427207 -0.26983839
-0.063870825 0.023507344 -0.2698465
-0.06386777 0.023589216 -0.26984254
-0.063864328 0.023671264 -0.26984659
-0.063860789 0.023753354 -0.26985264
-0.063857153 0.02383549 -0.26986068
-0.063853495 0.023915669 -0.26987076
-0.063961387 0.021544881 -0.26963463
-0.063952476 0.021629374 -0.26975054
-0.063971609 0.021862332 -0.26915956
-0.063969217 0.021941945 -0.26914364
-0.063943803 0.02203186 -0.26959911
-0.063944362 0.022112118 -0.26952127
-0.06394092 0.022194166 -0.26952532
-0.063936114 0.022276824 -0.26955733
-0.063932747 0.022356873 -0.26956141
-0.063932329 0.022437567 -0.26950356
-0.063930154 0.022519048 -0.26948166
-0.063905038 0.023089906 -0.26953402
-0.063901864 0.02316987 -0.26953414
-0.063884005 0.023260331 -0.26983172
-0.063880756 0.023342291 -0.26983178
-0.063877419 0.023424296 -0.2698338
-0.063874051 0.023504345 -0.26983792
-0.063870996 0.023586217 -0.26983398
-0.063867554 0.023668265 -0.26983801
-0.063863918 0.0237504 -0.26984605
-0.063860275 0.023832534 -0.2698541
-0.063856617 0.023912715 -0.26986417
-0.063961707 0.021545094 -0.26963171
-0.063957095 0.021627666 -0.26965973
-0.063972227 0.021862412 -0.26915061
-0.063969344 0.021942243 -0.26914471
-0.06394355 0.022032335 -0.26960817
-0.063944496 0.022112418 -0.26952234
-0.063941151 0.022194421 -0.2695244
-0.063936338 0.02227708 -0.2695564
-0.063932978 0.022357129 -0.26956049
-0.063932657 0.022437779 -0.26950061
-0.06392999 0.022519479 -0.26948869
-0.063906796 0.02268891 -0.26983234
-0.063905172 0.023090206 -0.26953509
-0.063901998 0.023170169 -0.26953518
-0.063884147 0.023260633 -0.26983279
-0.063880898 0.023342593 -0.26983282
-0.063877456 0.02342464 -0.26983687
-0.063874088 0.023504689 -0.26984096
-0.063871033 0.023586562 -0.26983702
-0.063867696 0.023668565 -0.26983908
-0.063864052 0.0237507 -0.26984712
-0.063860416 0.023832835 -0.26985514
-0.063856758 0.023913015 -0.26986524
-0.063961603 0.021545747 -0.26963183
-0.063956991 0.021628318 -0.26965985
-0.063971341 0.021863414 -0.26916671
-0.063969046 0.021942984 -0.26914883
-0.063943446 0.022032987 -0.26960829
-0.063944392 0.02211307 -0.26952246
-0.06394095 0.022195118 -0.26952651
-0.063936144 0.022277776 -0.26955852
-0.06393268 0.02235787 -0.2695646
-0.063932456 0.022438476 -0.26950276
-0.06392999 0.022520088 -0.26948681
-0.063906603 0.022689607 -0.26983446
-0.063905075 0.02309086 -0.26953521
-0.063901901 0.023170821 -0.2695353
-0.063884042 0.023261284 -0.26983291
-0.063880801 0.023343245 -0.26983294
-0.063877359 0.023425292 -0.26983699
-0.063873991 0.023505341 -0.26984107
-0.063870937 0.023587216 -0.26983714
-0.063867494 0.023669261 -0.26984119
-0.063863955 0.023751354 -0.26984724
-0.06386032 0.023833487 -0.26985526
-0.063856661 0.023913668 -0.26986536
-0.063963071 0.021544844 -0.269629
-0.063958749 0.021627285 -0.26965103
-0.063973099 0.021862382 -0.26915789
-0.063970514 0.021942083 -0.26914603
-0.06394501 0.022032041 -0.26960346
-0.063945763 0.022112211 -0.26952162
-0.063942321 0.022194259 -0.26952568
-0.063937411 0.02227696 -0.26955968
-0.063933946 0.022357054 -0.26956576
-0.06393382 0.022437617 -0.26950192
-0.06393145 0.022519184 -0.26948398
-0.063906536 0.023089956 -0.26953238
-0.063903265 0.023169963 -0.26953447
-0.063885309 0.023260469 -0.26983404
-0.063882068 0.023342429 -0.2698341
-0.063878626 0.023424476 -0.26983815
-0.063875355 0.023504481 -0.26984024
-0.063872397 0.02358631 -0.26983431
-0.063868955 0.023668358 -0.26983836
-0.063865319 0.023750493 -0.26984641
-0.063861586 0.023832671 -0.26985645
-0.063858025 0.023912808 -0.26986453
-0.063962556 0.021543955 -0.26964054
-0.063958041 0.021626482 -0.26966655
-0.063972875 0.021861361 -0.26916343
-0.063970588 0.021940932 -0.26914555
-0.063944787 0.02203102 -0.26960897
-0.063945733 0.022111103 -0.26952317
-0.063942194 0.022193195 -0.26952922
-0.063937381 0.022275854 -0.26956123
-0.063933916 0.022355946 -0.26956731
-0.06393379 0.022436509 -0.26950347
-0.06393142 0.022518076 -0.26948553
-0.063906401 0.023088893 -0.26953593
-0.063903138 0.023168899 -0.26953802
-0.063885376 0.023259318 -0.26983362
-0.063882127 0.023341278 -0.26983365
-0.063878782 0.023423281 -0.26983571
-0.063875318 0.023503374 -0.26984179
-0.063872166 0.02358529 -0.26983985
-0.063868821 0.023667295 -0.26984191
-0.063865185 0.023749428 -0.26984996
-0.063861549 0.023831563 -0.26985797
-0.063857988 0.0239117 -0.26986608
-0.063957214 0.021544436 -0.26963827
-0.063948609 0.021628797 -0.26974815
-0.063968323 0.021861494 -0.26914519
-0.063965157 0.021941457 -0.26914528
-0.063939743 0.022031371 -0.26960075
-0.063940302 0.022111628 -0.26952291
-0.063936755 0.022193719 -0.26952896
-0.063931949 0.022276377 -0.26956093
-0.063928679 0.022356384 -0.26956305
-0.063928261 0.022437077 -0.2695052
-0.063925795 0.022518689 -0.26948926
-0.063900977 0.023089416 -0.26953566
-0.063897707 0.023169423 -0.26953775
-0.063879944 0.023259841 -0.26983333
-0.063876696 0.023341801 -0.26983339
-0.063873351 0.023423806 -0.26983544
-0.063869886 0.023503898 -0.26984155
-0.063866742 0.023585815 -0.26983958
-0.063863494 0.023667775 -0.26983964
-0.06385985 0.023749908 -0.26984769
-0.063856117 0.023832086 -0.26985773
-0.063852459 0.023912268 -0.26986781
-0.063959859 0.021544155 -0.26963723
-0.063955538 0.021626595 -0.26965922
-0.063970283 0.021861518 -0.26915812
-0.06396769 0.021941219 -0.26914623
-0.063943475 0.022032565 -0.26957566
-0.063942939 0.022111347 -0.26952183
-0.063939497 0.022193395 -0.26952589
-0.063934684 0.022276053 -0.26955789
-0.063931316 0.022356102 -0.26956201
-0.063931197 0.022436665 -0.26949814
-0.063928626 0.02251832 -0.26948422
-0.063905142 0.022687882 -0.26983386
-0.063903607 0.023089137 -0.26953459
-0.063900441 0.023169098 -0.26953471
-0.063882485 0.023259604 -0.26983428
-0.063879237 0.023341564 -0.26983434
-0.063875794 0.023423612 -0.26983839
-0.063872427 0.023503661 -0.26984248
-0.063869469 0.023585491 -0.26983654
-0.063866124 0.023667494 -0.26983857
-0.063862488 0.023749629 -0.26984662
-0.063858852 0.023831762 -0.26985466
-0.063855194 0.023911944 -0.26986474
-0.063962065 0.021543931 -0.26964003
-0.063953355 0.021628337 -0.26975191
-0.063972488 0.021861296 -0.26916093
-0.063970096 0.021940907 -0.26914507
-0.063945875 0.022032253 -0.26957449
-0.063945435 0.022110993 -0.26951867
-0.063941896 0.022193085 -0.26952472
-0.06393709 0.022275744 -0.26955673
-0.063933626 0.022355836 -0.26956281
-0.063933201 0.022436529 -0.26950496
-0.063930929 0.022518054 -0.26948503
-0.063906111 0.023088783 -0.26953143
-0.06390284 0.023168787 -0.26953351
-0.063884884 0.023259293 -0.26983309
-0.063881636 0.023341253 -0.26983315
-0.06387829 0.023423258 -0.2698352
-0.063874923 0.023503307 -0.26983929
-0.063871868 0.02358518 -0.26983535
-0.063868426 0.023667227 -0.26983941
-0.06386479 0.023749363 -0.26984745
-0.063861154 0.023831496 -0.2698555
-0.063857496 0.023911677 -0.26986557
-0.063960366 0.021543559 -0.26963747
-0.06395556 0.021626217 -0.26966947
-0.063970104 0.021861229 -0.26917234
-0.063968107 0.021940667 -0.26914847
-0.063942693 0.022030581 -0.26960391
-0.063943349 0.022110796 -0.2695241
-0.06393981 0.022192886 -0.26953015
-0.063934997 0.022275545 -0.26956213
-0.06393154 0.022355638 -0.26956823
-0.06393151 0.022436157 -0.2695024
-0.063929237 0.022517681 -0.26948246
-0.063904122 0.023088541 -0.26953486
-0.063900948 0.023168502 -0.26953495
-0.063882992 0.023259008 -0.26983452
-0.063879743 0.023340968 -0.26983458
-0.063876405 0.023422973 -0.26983663
-0.063872844 0.02350311 -0.26984471
-0.063869789 0.023584982 -0.26984078
-0.063866541 0.023666942 -0.26984084
-0.063862905 0.023749076 -0.26984888
-0.063859269 0.023831211 -0.2698569
-0.063855708 0.023911348 -0.26986501
-0.063958071 0.021543182 -0.26963335
-0.063953459 0.021625753 -0.2696614
-0.063968688 0.02186046 -0.26915029
-0.063965715 0.021940334 -0.26914638
-0.063941397 0.022031723 -0.26957783
-0.06394086 0.022110507 -0.26952398
-0.063937321 0.022192597 -0.26953003
-0.063932508 0.022275256 -0.26956204
-0.063929051 0.02235535 -0.26956815
-0.063928925 0.022435913 -0.26950428
-0.063926458 0.022517523 -0.26948836
-0.063901536 0.023088295 -0.26953676
-0.06389837 0.023168258 -0.26953685
-0.063880414 0.023258764 -0.26983643
-0.063877165 0.023340724 -0.26983649
-0.063873723 0.023422772 -0.26984054
-0.063870452 0.023502776 -0.26984262
-0.063867405 0.023584649 -0.26983869
-0.06386406 0.023666654 -0.26984072
-0.063860424 0.023748789 -0.26984876
-0.063856684 0.023830967 -0.26985881
-0.063853025 0.023911146 -0.26986891
-0.063956946 0.021546029 -0.26962572
-0.063951939 0.021628775 -0.26966172
-0.063965999 0.021864003 -0.26917458
-0.063964002 0.021943441 -0.26915073
-0.063938789 0.02203327 -0.26960218
-0.063939437 0.022113483 -0.26952234
-0.063935898 0.022195574 -0.26952839
-0.063931093 0.022278232 -0.2695604
-0.063927628 0.022358326 -0.26956648
-0.063927405 0.022438932 -0.26950464
-0.063924842 0.022520587 -0.26949069
-0.063900121 0.023091272 -0.26953509
-0.06389685 0.023171278 -0.26953721
-0.063878894 0.023261786 -0.26983678
-0.063875653 0.023343746 -0.26983684
-0.063872308 0.023425749 -0.26983887
-0.06386894 0.023505798 -0.26984298
-0.063865788 0.023587715 -0.26984102
-0.063862443 0.023669718 -0.26984307
-0.063858807 0.023751853 -0.26985112
-0.063855171 0.023833988 -0.26985914
-0.06385161 0.023914125 -0.26986724
-0.063956767 0.021548998 -0.26964721
-0.063948154 0.021633361 -0.26975712
-0.063967586 0.021866186 -0.26916012
-0.063965 0.021945884 -0.26914826
-0.063939683 0.022035759 -0.2696017
-0.063940242 0.022116017 -0.26952386
-0.063936703 0.022198107 -0.26952991
-0.063931897 0.022280766 -0.26956192
-0.063928239 0.022360947 -0.26957199
-0.063928112 0.022441508 -0.26950815
-0.063926131 0.022522902 -0.26948223
-0.063900925 0.023093805 -0.26953661
-0.063897751 0.023173766 -0.26953673
-0.063879892 0.023264231 -0.26983428
-0.063876644 0.023346191 -0.26983434
-0.063873306 0.023428194 -0.2698364
-0.063869745 0.023508331 -0.26984447
-0.06386669 0.023590203 -0.26984054
-0.063863344 0.023672208 -0.26984259
-0.063859805 0.023754299 -0.26984864
-0.063856073 0.023836477 -0.26985866
-0.063852414 0.023916658 -0.26986876
-0.063959047 0.02154671 -0.26964536
-0.063950241 0.021631159 -0.26975924
-0.063970052 0.021863809 -0.26915428
-0.063967273 0.021943597 -0.26914638
-0.063943058 0.022034945 -0.26957583
-0.063942522 0.022113727 -0.26952201
-0.063938983 0.02219582 -0.26952806
-0.063934073 0.022278521 -0.26956207
-0.063930519 0.022358658 -0.26957014
-0.063930102 0.022439351 -0.26951227
-0.063927926 0.022520831 -0.26949036
-0.063903205 0.023091517 -0.26953477
-0.063899934 0.023171522 -0.26953685
-0.063882083 0.023261987 -0.26983443
-0.063878834 0.023343947 -0.26983449
-0.063875392 0.023425994 -0.26983854
-0.063872024 0.023506043 -0.26984262
-0.063868977 0.023587916 -0.26983869
-0.063865535 0.023669964 -0.26984274
-0.063861899 0.023752097 -0.26985079
-0.063858256 0.023834232 -0.26985881
-0.063854702 0.023914369 -0.26986688
-0.063959338 0.021548979 -0.26963347
-0.063954629 0.021631593 -0.26966345
-0.063968688 0.021866821 -0.26917633
-0.063966878 0.021946171 -0.26914847
-0.063941076 0.022036262 -0.2696119
-0.06394203 0.022116344 -0.26952606
-0.063938685 0.022198349 -0.26952812
-0.063933969 0.022280963 -0.26955813
-0.063930407 0.0223611 -0.26956621
-0.063930288 0.022441663 -0.26950237
-0.063927919 0.02252323 -0.26948443
-0.0639029 0.023094047 -0.26953483
-0.063899532 0.023174096 -0.26953894
-0.063881874 0.023264471 -0.26983252
-0.063878626 0.023346432 -0.26983255
-0.063875183 0.023428479 -0.2698366
-0.063871622 0.023508616 -0.26984471
-0.063868567 0.02359049 -0.26984075
-0.063865222 0.023672493 -0.2698428
-0.063861683 0.023754584 -0.26984885
-0.063858047 0.023836719 -0.2698569
-0.063854389 0.0239169 -0.26986697
-0.063957766 0.021545647 -0.26963407
-0.063948572 0.02163027 -0.26975593
-0.063967802 0.021863179 -0.26916295
-0.06396541 0.021942792 -0.26914707
-0.06393981 0.022032799 -0.2696065
-0.063940465 0.022113012 -0.26952666
-0.06393712 0.022195015 -0.26952872
-0.063932307 0.022277676 -0.26956072
-0.063928947 0.022357725 -0.26956481
-0.063928723 0.022438331 -0.26950297
-0.063926257 0.022519941 -0.26948702
-0.063902766 0.022689506 -0.26983669
-0.063901246 0.023090757 -0.26953742
-0.063897975 0.023170764 -0.26953954
-0.06388022 0.023261186 -0.26983511
-0.063876972 0.023343146 -0.26983514
-0.063873626 0.023425149 -0.2698372
-0.063870259 0.023505198 -0.26984131
-0.063867211 0.02358707 -0.26983735
-0.063863769 0.023669118 -0.2698414
-0.063860133 0.023751253 -0.26984945
-0.063856393 0.023833431 -0.26985949
-0.063852839 0.023913568 -0.26986757
-0.063958071 0.021548012 -0.26963913
-0.063949071 0.021632548 -0.269757
-0.063968696 0.021865286 -0.26915601
-0.063966013 0.021945029 -0.26914611
-0.063941695 0.02203642 -0.26957756
-0.063941158 0.022115204 -0.26952374
-0.063937716 0.02219725 -0.26952779
-0.063932814 0.022279954 -0.2695618
-0.063929349 0.022360047 -0.26956788
-0.063929223 0.022440609 -0.26950404
-0.063927345 0.022521958 -0.26947612
-0.063901938 0.02309295 -0.2695345
-0.063898675 0.023172956 -0.26953661
-0.063880816 0.023263419 -0.26983416
-0.063877568 0.023345379 -0.26983422
-0.063874125 0.023427427 -0.26983827
-0.063870758 0.023507476 -0.26984239
-0.063867614 0.023589391 -0.26984042
-0.063864268 0.023671396 -0.26984248
-0.063860632 0.023753531 -0.26985052
-0.063856997 0.023835665 -0.26985854
-0.063853338 0.023915846 -0.26986864
-0.063961059 0.021547969 -0.26963025
-0.063951649 0.021630725 -0.26975819
-0.063971192 0.021865463 -0.26915717
-0.063968509 0.021945206 -0.26914728
-0.063944288 0.022036552 -0.26957673
-0.063943848 0.022115292 -0.26952088
-0.063940406 0.02219734 -0.26952493
-0.063935496 0.022280043 -0.26955894
-0.063931838 0.022360222 -0.26956904
-0.063931711 0.022440786 -0.26950517
-0.063929342 0.022522353 -0.26948726
-0.063904718 0.023092994 -0.26952964
-0.06390135 0.023173044 -0.26953375
-0.063883394 0.023263549 -0.26983333
-0.063880146 0.02334551 -0.26983339
-0.0638768 0.023427514 -0.26983544
-0.06387344 0.023507563 -0.26983953
-0.063870482 0.023589393 -0.26983356
-0.06386704 0.023671439 -0.26983762
-0.063863404 0.023753574 -0.26984566
-0.063859664 0.023835752 -0.26985571
-0.063856103 0.023915889 -0.26986378
-0.063959904 0.021546613 -0.26963508
-0.063950904 0.02163115 -0.26975298
-0.063970327 0.021863976 -0.26915598
-0.063967645 0.02194372 -0.26914611
-0.063942231 0.022033637 -0.26960155
-0.063942693 0.022113938 -0.26952571
-0.063939348 0.022195941 -0.26952776
-0.063934542 0.022278599 -0.26955977
-0.063931078 0.022358693 -0.26956585
-0.063930757 0.022439344 -0.26950601
-0.063928582 0.022520823 -0.26948407
-0.063903756 0.023091551 -0.26953048
-0.063900396 0.023171602 -0.26953459
-0.06388244 0.023262108 -0.26983416
-0.063879289 0.023344025 -0.26983219
-0.063875847 0.023426071 -0.26983625
-0.063872479 0.023506122 -0.26984036
-0.063869327 0.023588037 -0.26983839
-0.063866079 0.023669997 -0.26983845
-0.063862346 0.023752175 -0.2698485
-0.06385871 0.02383431 -0.26985654
-0.063855149 0.023914447 -0.26986462
-0.063958213 0.021547263 -0.26964262
-0.063949287 0.021629801 -0.26976055
-0.06396883 0.021864537 -0.26915953
-0.063966148 0.021944281 -0.26914966
-0.063940838 0.022034155 -0.2696031
-0.063941486 0.022114368 -0.26952326
-0.063938044 0.022196416 -0.26952732
-0.063933142 0.022279117 -0.26956132
-0.063929483 0.022359299 -0.26957139
-0.06392955 0.022439774 -0.26950356
-0.063927382 0.022521254 -0.26948163
-0.063902266 0.023092113 -0.26953402
-0.063898996 0.02317212 -0.26953614
-0.063881136 0.023262583 -0.26983368
-0.063877895 0.023344543 -0.26983374
-0.063874453 0.02342659 -0.2698378
-0.063870989 0.023506684 -0.26984388
-0.063867837 0.0235886 -0.26984194
-0.063864589 0.02367056 -0.269842
-0.063860953 0.023752695 -0.26985005
-0.063857317 0.023834828 -0.26985806
-0.063853756 0.023914967 -0.26986617
-0.063958414 0.021548335 -0.26963475
-0.06394922 0.021632956 -0.26975662
-0.063968644 0.021865783 -0.26915964
-0.063965961 0.021945527 -0.26914975
-0.063940451 0.022035487 -0.26960719
-0.0639413 0.022115612 -0.26952338
-0.063937761 0.022197705 -0.2695294
-0.063932955 0.022280363 -0.26956141
-0.063929297 0.022360543 -0.26957151
-0.063929267 0.022441063 -0.26950565
-0.063927285 0.022522455 -0.26947975
-0.06390208 0.023093358 -0.26953414
-0.063898712 0.023173407 -0.26953822
-0.06388095 0.023263827 -0.2698338
-0.063877702 0.023345787 -0.26983386
-0.06387426 0.023427835 -0.26983792
-0.063870892 0.023507886 -0.269842
-0.063867748 0.023589801 -0.26984006
-0.063864402 0.023671804 -0.26984209
-0.063860759 0.023753939 -0.26985013
-0.063857123 0.023836074 -0.26985818
-0.063853562 0.023916211 -0.26986629
-0.063956216 0.021545485 -0.26963484
-0.063947313 0.021629976 -0.26975071
-0.063966736 0.021862801 -0.26915374
-0.063963957 0.021942589 -0.26914585
-0.063938059 0.022032725 -0.2696113
-0.063939102 0.022112763 -0.26952347
-0.06393566 0.02219481 -0.26952752
-0.063930854 0.022277469 -0.26955953
-0.063927293 0.022357605 -0.26956761
-0.063927263 0.022438126 -0.26950175
-0.063925281 0.022519518 -0.26947585
-0.063899972 0.023090465 -0.26953223
-0.063896611 0.023170514 -0.26953632
-0.063878745 0.023260977 -0.26983389
-0.063875504 0.023342937 -0.26983395
-0.063872054 0.023424985 -0.26983801
-0.063868694 0.023505034 -0.26984209
-0.063865639 0.023586906 -0.26983815
-0.063862294 0.023668911 -0.26984018
-0.063858658 0.023751047 -0.26984823
-0.063855022 0.02383318 -0.26985627
-0.063851364 0.023913361 -0.26986635
-0.063960031 0.021543175 -0.26963603
-0.063950934 0.021627754 -0.2697559
-0.063970454 0.02186054 -0.26915693
-0.063967869 0.021940241 -0.26914504
-0.063943647 0.022031585 -0.26957446
-0.06394311 0.022110369 -0.26952064
-0.063939668 0.022192415 -0.26952469
-0.063934855 0.022275073 -0.2695567
-0.0639311 0.022355298 -0.2695688
-0.063930973 0.022435861 -0.26950493
-0.063928604 0.022517428 -0.26948702
-0.063903973 0.02308807 -0.2695294
-0.063900605 0.023168119 -0.26953351
-0.063882746 0.02325858 -0.26983109
-0.063879497 0.02334054 -0.26983115
-0.063876055 0.023422588 -0.2698352
-0.063872695 0.023502637 -0.26983929
-0.063869543 0.023584554 -0.26983735
-0.063866198 0.023666557 -0.26983941
-0.063862555 0.023748692 -0.26984745
-0.063858919 0.023830827 -0.26985547
-0.063855357 0.023910962 -0.26986355
-0.063959375 0.021540847 -0.26963454
-0.063954763 0.021623418 -0.26966256
-0.0639695 0.02185834 -0.26916143
-0.063966915 0.021938041 -0.26914954
-0.063941509 0.022027956 -0.26960498
-0.063942157 0.022108171 -0.26952517
-0.063938715 0.022190217 -0.26952922
-0.063933812 0.02227292 -0.26956323
-0.063930348 0.022353012 -0.26956931
-0.063930124 0.02243362 -0.26950747
-0.063927948 0.022515099 -0.26948553
-0.063904464 0.022684662 -0.26983517
-0.063902929 0.023085915 -0.26953593
-0.063899763 0.023165878 -0.26953602
-0.06388171 0.023256429 -0.26983762
-0.063878462 0.023338389 -0.26983765
-0.063875116 0.023420392 -0.2698397
-0.063871749 0.023500441 -0.26984379
-0.063868701 0.023582313 -0.26983985
-0.063865356 0.023664318 -0.26984191
-0.063861713 0.023746451 -0.26984996
-0.063858077 0.023828587 -0.26985797
-0.063854516 0.023908723 -0.26986608
-0.063957766 0.021545872 -0.26964134
-0.063953251 0.0216284 -0.26966736
-0.063968576 0.021863058 -0.26915425
-0.063965797 0.021942846 -0.26914635
-0.063940093 0.022032894 -0.26960778
-0.063941136 0.022112934 -0.26951998
-0.063937694 0.022194982 -0.26952404
-0.063932784 0.022277683 -0.26955801
-0.063929327 0.022357777 -0.26956412
-0.063929006 0.022438426 -0.26950425
-0.063926436 0.02252008 -0.26949033
-0.063901618 0.02309081 -0.26953673
-0.063898444 0.023170771 -0.26953682
-0.063880488 0.023261279 -0.2698364
-0.06387724 0.023343239 -0.26983646
-0.063873895 0.023425242 -0.26983851
-0.063870534 0.023505293 -0.26984259
-0.06386748 0.023587165 -0.26983866
-0.063864037 0.023669213 -0.26984268
-0.063860498 0.023751304 -0.26984876
-0.063856862 0.023833439 -0.26985678
-0.063853204 0.023913618 -0.26986688
-0.06395898 0.021548124 -0.26963475
-0.063949876 0.021632703 -0.26975462
-0.063969404 0.021865487 -0.26915562
-0.063966714 0.021945231 -0.26914576
-0.063941106 0.022035234 -0.26960519
-0.063941859 0.022115404 -0.26952338
-0.063938417 0.022197451 -0.26952744
-0.063933514 0.022280153 -0.26956141
-0.06393005 0.022360247 -0.26956749
-0.063929826 0.022440853 -0.26950565
-0.063927747 0.022522289 -0.26948172
-0.063902631 0.023093149 -0.26953411
-0.063899361 0.023173155 -0.26953623
-0.063881502 0.023263618 -0.2698338
-0.063878253 0.023345578 -0.26983386
-0.063874908 0.023427581 -0.26983589
-0.063871451 0.023507675 -0.269842
-0.063868299 0.023589591 -0.26984006
-0.063864954 0.023671594 -0.26984209
-0.063861318 0.023753729 -0.26985013
-0.063857675 0.023835864 -0.26985818
-0.063854016 0.023916045 -0.26986825
-0.063960955 0.021547116 -0.26963276
-0.063951761 0.02163174 -0.26975462
-0.063971475 0.021864435 -0.26915163
-0.063968688 0.021944223 -0.26914376
-0.06394437 0.022035612 -0.26957518
-0.063944034 0.022114309 -0.26951736
-0.063940391 0.022196444 -0.26952541
-0.063935585 0.022279102 -0.26955742
-0.063932218 0.022359151 -0.2695615
-0.063931897 0.022439802 -0.26950166
-0.063929528 0.022521369 -0.26948372
-0.063904509 0.023092184 -0.26953411
-0.063901238 0.02317219 -0.2695362
-0.063883476 0.023262609 -0.26983181
-0.063880131 0.023344614 -0.26983386
-0.063876882 0.023426574 -0.26983389
-0.063873515 0.023506623 -0.26983801
-0.06387037 0.023588538 -0.26983607
-0.063866928 0.023670586 -0.26984009
-0.063863285 0.023752721 -0.26984814
-0.063859649 0.023834854 -0.26985618
-0.063856088 0.023914993 -0.26986426
-0.063962243 0.021545278 -0.26962462
-0.063957922 0.021627717 -0.26964664
-0.063972369 0.021862769 -0.26915151
-0.063969485 0.021942601 -0.26914561
-0.063945368 0.022033904 -0.26957306
-0.063945025 0.022112601 -0.26951525
-0.063941389 0.022194736 -0.26952329
-0.063936479 0.022277437 -0.2695573
-0.063933209 0.022357443 -0.26955938
-0.063932694 0.02243818 -0.26950353
