# .PCD v0.7 - Point Cloud Data file format
VERSION 0.7
FIELDS x y z
SIZE 4 4 4
TYPE F F F
COUNT 1 1 1
WIDTH 1275
HEIGHT 1
VIEWPOINT 0 0 0 1 0 0 0
POINTS 1275
DATA ascii
-0.032312736 -0.0099877501 -0.23049009
-0.032309715 -0.0099117849 -0.2304903
-0.032306965 -0.0098379031 -0.23048654
-0.03230441 -0.0097641107 -0.23047881
-0.032301679 -0.0096882749 -0.23047301
-0.032298639 -0.0096142637 -0.23047525
-0.032295499 -0.0095402077 -0.23047948
-0.032292943 -0.0094664153 -0.23047175
-0.032290213 -0.0093905795 -0.23046595
-0.032287072 -0.0093165245 -0.23047018
-0.032283816 -0.0092443796 -0.23047847
-0.032280695 -0.0091683697 -0.23048066
-0.032277849 -0.009094446 -0.2304789
-0.032274805 -0.0090204347 -0.23048115
-0.032271959 -0.00894651 -0.23047939
-0.03226921 -0.0088726291 -0.23047563
-0.032266285 -0.0087967059 -0.23047385
-0.032263435 -0.0087227821 -0.23047209
-0.032260492 -0.0086488146 -0.23047233
-0.032257762 -0.0085729789 -0.23046653
-0.032255109 -0.0084991418 -0.23046079
-0.032252379 -0.0084233079 -0.23045498
-0.032249533 -0.0083493832 -0.23045324
-0.032246392 -0.0082753273 -0.23045748
-0.032243058 -0.0082011847 -0.23046571
-0.032239895 -0.0081290845 -0.230472
-0.032236777 -0.0080530746 -0.2304742
-0.032234222 -0.0079792812 -0.23046644
-0.032231979 -0.0079036634 -0.23045066
-0.032229036 -0.007829695 -0.2304509
-0.032225311 -0.0077553783 -0.23046714
-0.03222217 -0.0076813232 -0.23047137
-0.032219909 -0.0076076612 -0.23045763
-0.032217275 -0.0075318692 -0.23044984
-0.032214135 -0.0074578132 -0.23045407
-0.032211091 -0.007383802 -0.23045632
-0.032208052 -0.0073097907 -0.23045856
-0.032205202 -0.007235866 -0.2304568
-0.032202572 -0.007160075 -0.23044902
-0.032199919 -0.007086237 -0.23044327
-0.032196973 -0.0070122685 -0.23044351
-0.032194242 -0.0069364347 -0.23043773
-0.032191493 -0.0068625538 -0.23043397
-0.032188453 -0.0067885416 -0.23043621
-0.032185312 -0.0067144865 -0.23044044
-0.032182463 -0.0066405628 -0.23043868
-0.032179538 -0.0065646404 -0.23043689
-0.032176789 -0.0064907596 -0.23043314
-0.032173943 -0.0064168349 -0.23043138
-0.032170802 -0.0063427789 -0.23043562
-0.032167856 -0.0062688114 -0.23043586
-0.032165226 -0.0061930204 -0.23042807
-0.03216267 -0.0061192261 -0.23042032
-0.032159626 -0.0060452148 -0.23042257
-0.032156684 -0.0059712464 -0.23042282
-0.032153953 -0.0058954116 -0.23041701
-0.032151204 -0.0058215307 -0.23041327
-0.03214816 -0.0057475194 -0.23041551
-0.032145213 -0.005673551 -0.23041576
-0.032142464 -0.0055996701 -0.23041201
-0.032139637 -0.0055237915 -0.23040821
-0.032136887 -0.0054499106 -0.23040447
-0.032134041 -0.005375986 -0.23040271
-0.032131214 -0.0053001083 -0.23039891
-0.032128267 -0.0052261399 -0.23039915
-0.032125421 -0.0051522152 -0.2303974
-0.032122768 -0.0050783781 -0.23039165
-0.032119922 -0.0050044535 -0.23038989
-0.032116994 -0.0049285321 -0.2303881
-0.032114245 -0.0048546512 -0.23038435
-0.032111496 -0.0047807693 -0.23038059
-0.032108769 -0.0047049345 -0.23037478
-0.03210631 -0.0046311845 -0.23036505
-0.032103464 -0.0045572608 -0.23036331
-0.032100223 -0.0044831615 -0.23036954
-0.032097083 -0.004409106 -0.23037377
-0.032093965 -0.0043330966 -0.23037598
-0.032090999 -0.0042610825 -0.23037827
-0.032088269 -0.0041852482 -0.23037246
-0.032086201 -0.0041116723 -0.23035474
-0.032083862 -0.0040360116 -0.23034096
-0.032080919 -0.0039620437 -0.2303412
-0.032077778 -0.0038879886 -0.23034543
-0.032074928 -0.003814064 -0.23034367
-0.032072179 -0.0037401831 -0.23033994
-0.032069452 -0.0036643483 -0.23033413
-0.032066699 -0.0035904669 -0.23033038
-0.032063853 -0.0035165432 -0.23032862
-0.032061297 -0.0034427494 -0.23032089
-0.032058764 -0.0033670012 -0.2303111
-0.032055914 -0.0032930765 -0.23030934
-0.032052778 -0.0032190224 -0.23031358
-0.032049734 -0.0031450102 -0.23031582
-0.032046787 -0.0030710418 -0.23031607
-0.032043844 -0.0029970738 -0.23031631
-0.032040898 -0.0029231058 -0.23031655
-0.032037564 -0.0028489628 -0.23032479
-0.03203452 -0.002774952 -0.23032704
-0.032031987 -0.0026992038 -0.23031723
-0.032029431 -0.0026254104 -0.2303095
-0.032026876 -0.0025516162 -0.23030174
-0.032024343 -0.0024758689 -0.23029196
-0.032021493 -0.0024019447 -0.2302902
-0.032018453 -0.002327933 -0.23029244
-0.032015897 -0.0022541387 -0.23028471
-0.032013632 -0.0021804767 -0.23027097
-0.032010514 -0.0021044668 -0.23027316
-0.032007355 -0.0020323656 -0.23027945
-0.032004334 -0.0019564 -0.23027964
-0.032001484 -0.0018824753 -0.2302779
-0.031998638 -0.0018085516 -0.23027614
-0.031995691 -0.0017345836 -0.23027638
-0.031992652 -0.0016605714 -0.23027861
-0.031989802 -0.0015866472 -0.23027687
-0.031986758 -0.0015126355 -0.2302791
-0.031983424 -0.0014384929 -0.23028734
-0.03198038 -0.0013644816 -0.23028958
-0.031977825 -0.0012906878 -0.23028183
-0.031975195 -0.0012148963 -0.23027405
-0.031971861 -0.0011407542 -0.23028228
-0.03196831 -0.0010684785 -0.23029655
-0.031965677 -0.00099268742 -0.23028876
-0.031963609 -0.00091911154 -0.23027101
-0.031961367 -0.0008434942 -0.23025525
-0.031959105 -0.00076983171 -0.23024151
-0.03195655 -0.00069603859 -0.23023376
-0.031953216 -0.00062189577 -0.23024198
-0.031949297 -0.00054749148 -0.23026221
-0.031946447 -0.00047356775 -0.23026046
-0.031944476 -0.00040003541 -0.23024073
-0.03194163 -0.00032611075 -0.23023897
-0.031938393 -0.00025201216 -0.2302452
-0.031935446 -0.00017804396 -0.23024546
-0.031932522 -0.00010212208 -0.23024365
-0.031929869 -2.8284499e-05 -0.2302379
-0.031927317 4.550931e-05 -0.23023015
-0.031924859 0.00011925912 -0.23022042
-0.031922109 0.00019314 -0.23021668
-0.031918675 0.0002673259 -0.2302269
-0.031915143 0.00034155534 -0.23023912
-0.0319122 0.00041552354 -0.23023936
-0.031909548 0.00048936112 -0.23023362
-0.031907089 0.00056311092 -0.23022388
-0.031904459 0.00063890242 -0.23021609
-0.031901613 0.00071282662 -0.23021433
-0.031898569 0.00078683835 -0.23021658
-0.031896014 0.0008606324 -0.23020884
-0.031893652 0.00093433796 -0.2301971
-0.031890709 0.0010083062 -0.23019734
-0.031887375 0.001082449 -0.23020557
-0.031884234 0.001156504 -0.2302098
-0.031881504 0.0012323391 -0.23020402
-0.031878948 0.0013061326 -0.23019627
-0.031876102 0.0013800571 -0.23019451
-0.031873155 0.0014540253 -0.23019476
-0.031870112 0.0015280365 -0.230197
-0.031866975 0.0016020918 -0.23020124
-0.031864028 0.00167606 -0.23020148
-0.031861376 0.0017498971 -0.23019573
-0.031858236 0.0018239524 -0.23019996
-0.031854805 0.0018981383 -0.2302102
-0.031852052 0.0019720192 -0.23020644
-0.031849694 0.0020457257 -0.23019472
-0.031846672 0.0021216916 -0.2301949
-0.031843707 0.0021937052 -0.23019719
-0.031840567 0.0022677602 -0.23020142
-0.031837057 0.0023439445 -0.23021162
-0.031834479 0.0024157835 -0.23020592
-0.031832043 0.0024914881 -0.23019412
-0.031829391 0.002565325 -0.23018838
-0.031826738 0.0026391624 -0.23018263
-0.031823792 0.0027131303 -0.23018289
-0.031820849 0.0027870983 -0.23018312
-0.031818487 0.0028608048 -0.23017138
-0.031815931 0.0029345981 -0.23016363
-0.031812891 0.0030086101 -0.23016588
-0.031809848 0.0030826216 -0.23016812
-0.031806901 0.0031565898 -0.23016837
-0.031803392 0.0032327734 -0.23017853
-0.031800255 0.0033068289 -0.2301828
-0.0317977 0.0033806222 -0.23017505
-0.031795338 0.003454329 -0.23016331
-0.031792879 0.0035280788 -0.23015356
-0.031789448 0.0036022647 -0.23016378
-0.031786017 0.0036764508 -0.23017402
-0.031783167 0.003750375 -0.23017228
-0.031780321 0.0038242997 -0.23017052
-0.031777669 0.003898137 -0.23016477
-0.031775113 0.0039719306 -0.23015702
-0.031772558 0.0040457239 -0.23014927
-0.031770296 0.0041193869 -0.23013553
-0.03176786 0.0041950913 -0.23012376
-0.031765111 0.0042689717 -0.23012
-0.03176197 0.0043430272 -0.23012424
-0.03175883 0.0044170823 -0.23012848
-0.031755786 0.004491094 -0.23013073
-0.031753037 0.0045649745 -0.23012698
-0.03175009 0.0046389429 -0.23012722
-0.031746756 0.004713085 -0.23013546
-0.031743422 0.0047872276 -0.23014368
-0.031740475 0.0048611956 -0.23014392
-0.031737529 0.0049351635 -0.23014417
-0.031734195 0.0050093061 -0.2301524
-0.031731367 0.0050851852 -0.23014861
-0.031728912 0.0051589347 -0.23013887
-0.031726334 0.0052307742 -0.23013316
-0.031723119 0.0053068269 -0.23013735
-0.031719882 0.0053809262 -0.23014358
-0.031716935 0.0054548942 -0.23014383
-0.031713992 0.0055288621 -0.23014408
-0.031711143 0.0056027863 -0.23014233
-0.0317082 0.0056767548 -0.23014256
-0.031704865 0.0057508969 -0.23015079
-0.03170155 0.0058269938 -0.23015699
-0.03169946 0.0058986149 -0.2301413
-0.031697489 0.005972147 -0.23012157
-0.031694565 0.0060480693 -0.23011976
-0.031691328 0.0061221682 -0.23012601
-0.031688288 0.0061961794 -0.23012824
-0.031686023 0.0062698424 -0.2301145
-0.031683177 0.006343767 -0.23011276
-0.031679843 0.0064179096 -0.23012099
-0.031676799 0.0064919209 -0.23012322
-0.031674147 0.006565758 -0.23011748
-0.031671006 0.0066398135 -0.23012173
-0.031667769 0.0067139119 -0.23012796
-0.031664647 0.0067899218 -0.23013015
-0.03166151 0.0068639773 -0.2301344
-0.03165837 0.0069380323 -0.23013863
-0.031655911 0.0070117824 -0.23012888
-0.031653553 0.0070854886 -0.23011714
-0.031650901 0.0071593258 -0.23011139
-0.031648148 0.0072332066 -0.23010765
-0.031645104 0.0073072184 -0.2301099
-0.031641871 0.0073813172 -0.23011613
-0.031639118 0.0074551981 -0.23011237
-0.031636368 0.0075290785 -0.23010862
-0.031633716 0.0076029161 -0.23010288
-0.031630889 0.0076787947 -0.23009908
-0.031628042 0.0077527193 -0.23009732
-0.031624999 0.0078267306 -0.23009956
-0.031622153 0.0079006553 -0.2300978
-0.0316195 0.0079744924 -0.23009206
-0.031617042 0.008048242 -0.23008233
-0.031614684 0.0081219487 -0.23007058
-0.031611834 0.0081958724 -0.23006883
-0.0316085 0.0082700159 -0.23007706
-0.031605653 0.0083439397 -0.2300753
-0.031602997 0.0084177768 -0.23006956
-0.031599686 0.0084938733 -0.23007575
-0.031596348 0.0085680159 -0.23008397
-0.031593502 0.0086419405 -0.23008223
-0.031591043 0.008715691 -0.2300725
-0.031588685 0.0087893968 -0.23006076
-0.031586424 0.0088630598 -0.23004702
-0.031583771 0.0089368969 -0.23004127
-0.031580433 0.0090110395 -0.23004949
-0.031577099 0.0090851821 -0.23005773
-0.03157388 0.0091612358 -0.23006192
-0.031570937 0.0092352033 -0.23006216
-0.031567894 0.0093092145 -0.23006441
-0.031565242 0.0093830517 -0.23005866
-0.031563271 0.0094565833 -0.23003893
-0.031561203 0.0095301596 -0.23002121
-0.031558532 0.0096020419 -0.2300175
-0.031555314 0.0096780956 -0.23002169
-0.031552274 0.0097521069 -0.23002392
-0.031549037 0.0098262057 -0.23003015
-0.031545524 0.0099023897 -0.23004034
-0.031542949 0.0099742291 -0.23003465
-0.031540588 0.010047935 -0.23002291
-0.031537667 0.010123858 -0.23002112
-0.031534426 0.010197956 -0.23002735
-0.031531774 0.010271794 -0.2300216
-0.031529415 0.0103455 -0.23000985
-0.031525984 0.010419685 -0.23002008
-0.031522356 0.010493959 -0.23003432
-0.031519506 0.010567884 -0.23003256
-0.031516876 0.010643676 -0.23002476
-0.031514592 0.010715384 -0.23001307
-0.031512134 0.010789134 -0.23000333
-0.031509873 0.010862797 -0.2299896
-0.031507805 0.010936372 -0.22997186
-0.031504393 0.011012512 -0.22998005
-0.031500276 0.011087004 -0.23000425
-0.031496651 0.011161277 -0.2300185
-0.03149353 0.011237287 -0.23002067
-0.03149078 0.011311168 -0.23001692
-0.031488322 0.011384917 -0.23000719
-0.031486157 0.011458537 -0.22999144
-0.03148368 0.011530332 -0.22998375
-0.031480853 0.011606211 -0.22997996
-0.03147791 0.011680179 -0.2299802
-0.031474963 0.011754147 -0.22998044
-0.031472117 0.011828071 -0.22997868
-0.03146917 0.01190204 -0.22997893
-0.031465758 0.01197818 -0.22998711
-0.031462327 0.012052366 -0.22999735
-0.031459868 0.012126115 -0.22998761
-0.0314578 0.012199691 -0.22996987
-0.031454954 0.012273616 -0.22996812
-0.031452008 0.012347584 -0.22996837
-0.031449065 0.012421551 -0.22996861
-0.03144604 0.012497517 -0.22996882
-0.031443488 0.012571312 -0.22996107
-0.031441301 0.012642976 -0.22994739
-0.031438474 0.012718854 -0.22994357
-0.031435236 0.012792953 -0.2299498
-0.031432293 0.012866922 -0.22995006
-0.031429347 0.012940889 -0.22995031
-0.031426597 0.013014771 -0.22994655
-0.031423748 0.013088696 -0.2299448
-0.031420998 0.013162577 -0.22994104
-0.031418268 0.01323841 -0.22993526
-0.031415518 0.013312291 -0.2299315
-0.031412281 0.013386391 -0.22993773
-0.031409338 0.013460359 -0.22993799
-0.031406976 0.013534065 -0.22992624
-0.031404033 0.013608032 -0.22992648
-0.03140099 0.013682044 -0.22992873
-0.031397969 0.013758011 -0.22992891
-0.031394925 0.013832022 -0.22993116
-0.031392273 0.01390586 -0.22992541
-0.031389717 0.013979652 -0.22991768
-0.031386577 0.014053708 -0.22992191
-0.031383924 0.014127545 -0.22991616
-0.031381294 0.014203338 -0.22990838
-0.031378813 0.014275133 -0.22990067
-0.031376086 0.014350967 -0.22989488
-0.031373333 0.014424847 -0.22989112
-0.031370856 0.014496644 -0.22988343
-0.031367641 0.014572697 -0.22988762
-0.031364501 0.014646753 -0.22989187
-0.031361479 0.014722718 -0.22989205
-0.031358339 0.014796773 -0.22989631
-0.031355102 0.014870873 -0.22990252
-0.031352643 0.014944622 -0.22989279
-0.031350087 0.015018417 -0.22988504
-0.031347066 0.015094382 -0.22988524
-0.031344119 0.01516835 -0.22988549
-0.03134137 0.015242231 -0.22988173
-0.031338524 0.015316156 -0.22987998
-0.031335771 0.015390037 -0.22987622
-0.031333022 0.015463917 -0.22987248
-0.031330176 0.015537841 -0.22987072
-0.031327154 0.015613807 -0.22987092
-0.031323623 0.015688037 -0.22988313
-0.031320408 0.015764089 -0.22988734
-0.031318046 0.015837796 -0.22987559
-0.031315394 0.015911633 -0.22986986
-0.031312644 0.015985515 -0.2298661
-0.031309798 0.01605944 -0.22986434
-0.031306949 0.016133362 -0.2298626
-0.03130449 0.016207114 -0.22985286
-0.031301644 0.016281039 -0.2298511
-0.031298794 0.016354963 -0.22984934
-0.03129597 0.01643084 -0.22984555
-0.031292535 0.016505025 -0.22985578
-0.031288929 0.016581254 -0.22986796
-0.031285886 0.016655266 -0.2298702
-0.031283136 0.016729146 -0.22986645
-0.031280406 0.016804982 -0.22986065
-0.031278025 0.016876735 -0.22985096
-0.031275298 0.016952569 -0.22984517
-0.031272158 0.017026626 -0.2298494
-0.031269506 0.017100461 -0.22984365
-0.031266756 0.017174341 -0.22983991
-0.03126305 0.017250612 -0.22985408
-0.031260125 0.017326538 -0.22985227
-0.031257939 0.017398201 -0.22983859
-0.031254627 0.017474297 -0.22984478
-0.031251486 0.017548352 -0.22984901
-0.031248834 0.01762219 -0.22984327
-0.031246006 0.017698068 -0.22983947
-0.03124306 0.017772038 -0.22983971
-0.031240311 0.017845917 -0.22983596
-0.031237094 0.017921971 -0.22984016
-0.031233856 0.017996069 -0.22984639
-0.031230932 0.01807199 -0.2298446
-0.03122828 0.018145829 -0.22983885
-0.031225801 0.018217623 -0.22983114
-0.031223344 0.018291375 -0.2298214
-0.031220691 0.018365212 -0.22981566
-0.031217963 0.018441048 -0.22980987
-0.031215018 0.018515013 -0.2298101
-0.031212561 0.018588765 -0.22980037
-0.03120981 0.018662646 -0.22979662
-0.031206768 0.018736657 -0.22979885
-0.031203549 0.01881271 -0.22980304
-0.03120004 0.018888894 -0.22981323
-0.031196725 0.018964991 -0.22981942
-0.031193487 0.019039091 -0.22982565
-0.031190174 0.019115187 -0.22983184
-0.031187326 0.019189112 -0.22983009
-0.03118477 0.019262904 -0.22982234
-0.031182216 0.019336699 -0.22981459
-0.031179562 0.019410536 -0.22980885
-0.031176521 0.019484546 -0.22981109
-0.031173401 0.019560557 -0.22981328
-0.031169891 0.019636741 -0.22982347
-0.031166771 0.01971275 -0.22982566
-0.03116449 0.019784458 -0.22981396
-0.031161565 0.019860381 -0.22981218
-0.031158153 0.019936522 -0.22982036
-0.031155869 0.020008231 -0.22980866
-0.031153899 0.020081762 -0.22978893
-0.031151053 0.020155685 -0.22978717
-0.031147445 0.020231914 -0.22979936
-0.031144325 0.020307925 -0.22980157
-0.031141967 0.020381629 -0.22978982
-0.031139508 0.020455379 -0.22978008
-0.031136464 0.020529391 -0.22978231
-0.031133054 0.020605532 -0.22979049
-0.031130206 0.020679457 -0.22978875
-0.031127553 0.020753294 -0.229783
-0.031124726 0.020829173 -0.2297792
-0.031121781 0.020903138 -0.22977945
-0.031118467 0.020979237 -0.22978564
-0.031115249 0.02105529 -0.22978982
-0.031112403 0.021129213 -0.22978806
-0.031109653 0.021203095 -0.22978431
-0.031106805 0.02127702 -0.22978255
-0.031104347 0.021350769 -0.22977282
-0.031101422 0.021426693 -0.22977102
-0.031098088 0.021500833 -0.22977926
-0.031095553 0.021576583 -0.22976947
-0.031093661 0.021648116 -0.22974977
-0.031090423 0.021722216 -0.22975603
-0.031086544 0.021800527 -0.22977215
-0.031083696 0.021874452 -0.22977039
-0.03108087 0.021950332 -0.22976659
-0.031077826 0.022024343 -0.22976884
-0.031074414 0.022100484 -0.22977702
-0.03107149 0.022176407 -0.22977522
-0.031069402 0.022248026 -0.22975953
-0.031067044 0.022321735 -0.2297478
-0.031063903 0.022395788 -0.22975203
-0.031060491 0.022471927 -0.22976023
-0.031057371 0.02254794 -0.22976241
-0.031054251 0.022623949 -0.22976461
-0.031051502 0.022697827 -0.22976086
-0.031048751 0.022771711 -0.2297571
-0.031046197 0.022845503 -0.22974935
-0.031043466 0.022921339 -0.22974357
-0.031040521 0.022995306 -0.22974381
-0.031037597 0.023071228 -0.22974202
-0.031034652 0.023145197 -0.22974226
-0.031031804 0.023219122 -0.2297405
-0.031028684 0.023295131 -0.22974269
-0.031025272 0.023371272 -0.22975087
-0.031022251 0.023447236 -0.22975108
-0.031019794 0.023520986 -0.22974133
-0.031017141 0.023594823 -0.22973558
-0.031014215 0.023670748 -0.22973378
-0.031010978 0.023744846 -0.22974002
-0.031007197 0.023823116 -0.22975415
-0.031004447 0.023896994 -0.22975039
-0.031002555 0.023968529 -0.22973073
-0.031000193 0.024042236 -0.22971898
-0.030997541 0.024116073 -0.22971323
-0.030993858 0.024194298 -0.22972536
-0.03099101 0.024268221 -0.22972362
-0.030988552 0.024341974 -0.22971386
-0.030985335 0.024418026 -0.22971806
-0.030981729 0.024494253 -0.22973025
-0.030978609 0.024570264 -0.22973244
-0.030976053 0.024644056 -0.22972469
-0.030973108 0.024718024 -0.22972494
-0.030969717 0.024796121 -0.22973108
-0.03096726 0.02486987 -0.22972134
-0.030965367 0.024941403 -0.22970165
-0.030962519 0.025015328 -0.22969991
-0.03095901 0.025091512 -0.22971007
-0.030955618 0.025169607 -0.22971621
-0.030953238 0.02524136 -0.22970653
-0.030950975 0.02531502 -0.22969279
-0.030948129 0.025388947 -0.22969104
-0.030945105 0.025464911 -0.22969124
-0.030942356 0.025538793 -0.22968748
-0.030939432 0.025614714 -0.22968569
-0.030936019 0.025690855 -0.22969386
-0.030932704 0.025766954 -0.22970006
-0.030930344 0.025840659 -0.22968832
-0.030927692 0.025914496 -0.22968256
-0.03092467 0.025990462 -0.22968277
-0.03092155 0.026066471 -0.22968496
-0.030918237 0.026142567 -0.22969115
-0.030915389 0.026216494 -0.22968939
-0.03091266 0.026292328 -0.22968361
-0.030910008 0.026366165 -0.22967786
-0.030906888 0.026442174 -0.22968005
-0.030903475 0.026518315 -0.22968823
-0.030901019 0.026592065 -0.22967848
-0.030898832 0.02666373 -0.2296648
-0.030896179 0.026737565 -0.22965905
-0.030893061 0.026813576 -0.22966126
-0.030890038 0.026889542 -0.22966143
-0.03088719 0.026963467 -0.22965969
-0.030884558 0.027039258 -0.2296519
-0.030881321 0.027113358 -0.22965813
-0.030877735 0.027191538 -0.22966826
-0.030875083 0.027265375 -0.22966252
-0.030872624 0.027339127 -0.22965278
-0.030869603 0.027415093 -0.22965297
-0.030866288 0.02749119 -0.22965917
-0.030863168 0.027567199 -0.22966136
-0.030860614 0.027640993 -0.22965361
-0.030857863 0.027714873 -0.22964987
-0.030854277 0.027793054 -0.22966
-0.030850865 0.027869197 -0.22966819
-0.030848116 0.027943077 -0.22966443
-0.030845754 0.028016781 -0.22965269
-0.030843005 0.028090663 -0.22964895
-0.030840276 0.028166499 -0.22964314
-0.030837525 0.028240379 -0.2296394
-0.030834407 0.028316388 -0.22964159
-0.030831851 0.028390182 -0.22963384
-0.03267191 -0.019151228 -0.2306233
-0.032667849 -0.019080691 -0.23064959
-0.032663986 -0.01901024 -0.23067191
-0.032660846 -0.018936181 -0.23067613
-0.032657295 -0.018863907 -0.23069042
-0.032654054 -0.018789809 -0.23069665
-0.032651424 -0.018714018 -0.23068886
-0.032648694 -0.018638182 -0.23068306
-0.032645945 -0.018564302 -0.2306793
-0.032643214 -0.018488467 -0.23067352
-0.032640461 -0.018414585 -0.23066977
-0.032637537 -0.018338664 -0.23066796
-0.032634493 -0.018264651 -0.23067021
-0.03263196 -0.018188905 -0.23066041
-0.032629836 -0.018111378 -0.23064059
-0.032627184 -0.018037537 -0.23063484
-0.03262363 -0.017965265 -0.23064911
-0.03262008 -0.017892988 -0.23066339
-0.032617155 -0.017817067 -0.23066159
-0.032614619 -0.017741319 -0.2306518
-0.032611579 -0.017667307 -0.23065403
-0.032608338 -0.017593209 -0.23066027
-0.032605492 -0.017519282 -0.23065853
-0.032602761 -0.017443448 -0.23065272
-0.032599915 -0.017369524 -0.23065098
-0.032596968 -0.017295554 -0.23065123
-0.032594431 -0.017219808 -0.23064142
-0.032591898 -0.017144062 -0.23063165
-0.03258907 -0.017068179 -0.23062785
-0.032586027 -0.016994169 -0.23063007
-0.032582983 -0.016920161 -0.23063233
-0.03257994 -0.016846146 -0.23063457
-0.032576606 -0.016772006 -0.2306428
-0.03257405 -0.01669821 -0.23063505
-0.032572143 -0.016618816 -0.23060921
-0.03256949 -0.016544979 -0.23060346
-0.032565743 -0.016472615 -0.23062173
-0.032562211 -0.016398387 -0.23063394
-0.032559365 -0.016324462 -0.23063219
-0.032556634 -0.016248625 -0.23062639
-0.032554176 -0.016174877 -0.23061666
-0.032551348 -0.016098998 -0.23061284
-0.032548305 -0.016024986 -0.23061509
-0.032545164 -0.015950933 -0.23061934
-0.032541927 -0.015876831 -0.23062557
-0.032538787 -0.015802778 -0.2306298
-0.032536153 -0.015726987 -0.23062202
-0.032533795 -0.015653279 -0.23061028
-0.032530967 -0.0155774 -0.23060648
-0.032527924 -0.015503388 -0.23060872
-0.032524977 -0.01542942 -0.23060897
-0.03252174 -0.015355323 -0.2306152
-0.032518599 -0.015281266 -0.23061945
-0.032516044 -0.015207473 -0.2306117
-0.032513216 -0.015131595 -0.2306079
-0.032510076 -0.01505754 -0.23061213
-0.032507248 -0.014981661 -0.23060834
-0.032504693 -0.014907867 -0.2306006
-0.032502159 -0.014832119 -0.23059081
-0.032499328 -0.01475624 -0.23058701
-0.032496482 -0.014682315 -0.23058525
-0.032493848 -0.014606524 -0.23057747
-0.032491196 -0.014532687 -0.23057172
-0.03248835 -0.014458762 -0.23056996
-0.032485325 -0.014382796 -0.23057017
-0.032482166 -0.014310695 -0.23057644
-0.032478947 -0.014234643 -0.23058063
-0.032476295 -0.014160806 -0.23057488
-0.032473955 -0.014085144 -0.23056109
-0.032471128 -0.014009267 -0.23055731
-0.032467965 -0.013937166 -0.23056358
-0.032464944 -0.0138612 -0.23056379
-0.032462507 -0.013785496 -0.230552
-0.032459855 -0.013711659 -0.23054625
-0.032456715 -0.013637602 -0.23055048
-0.032453474 -0.013563504 -0.23055673
-0.03245014 -0.013489362 -0.23056495
-0.032446902 -0.013415262 -0.23057118
-0.032444444 -0.013341514 -0.23056145
-0.032442007 -0.013265809 -0.23054966
-0.03243918 -0.01318993 -0.23054586
-0.03243633 -0.013116004 -0.23054412
-0.032433484 -0.013042081 -0.23054236
-0.03243044 -0.012968069 -0.2305446
-0.032428022 -0.01289041 -0.23053077
-0.032425877 -0.012814837 -0.23051299
-0.032422736 -0.012740783 -0.23051724
-0.03241948 -0.012668638 -0.23052552
-0.032416534 -0.01259467 -0.23052575
-0.032413509 -0.012518704 -0.23052596
-0.03241035 -0.012446603 -0.23053223
-0.032407016 -0.01237246 -0.23054048
-0.032404382 -0.012296668 -0.23053268
-0.032402042 -0.012221009 -0.23051889
-0.03239939 -0.012147171 -0.23051316
-0.032396466 -0.012071248 -0.23051134
-0.032393713 -0.011997368 -0.2305076
-0.032390963 -0.011923485 -0.23050386
-0.032388233 -0.011847652 -0.23049805
-0.032384899 -0.011773511 -0.23050627
-0.032381639 -0.011701364 -0.23051456
-0.032378517 -0.011625356 -0.23051676
-0.032375261 -0.01155321 -0.23052505
-0.032372218 -0.0114792 -0.23052728
-0.032369778 -0.011403495 -0.23051548
-0.032367341 -0.01132779 -0.23050371
-0.032364514 -0.011251912 -0.23049991
-0.032361764 -0.011178032 -0.23049617
-0.032358818 -0.011104062 -0.23049641
-0.03235558 -0.011029965 -0.23050264
-0.032352734 -0.010956041 -0.23050088
-0.032350004 -0.010880204 -0.2304951
-0.032347154 -0.010806281 -0.23049334
-0.032344013 -0.010732224 -0.23049757
-0.03234107 -0.010658258 -0.23049781
-0.032338124 -0.010584289 -0.23049808
-0.032335199 -0.010508368 -0.23049627
-0.032332547 -0.01043453 -0.23049051
-0.032329913 -0.010358738 -0.23048273
-0.032327261 -0.010284901 -0.23047698
-0.032324314 -0.010210933 -0.23047721
-0.03232139 -0.010135012 -0.23047543
-0.032318346 -0.010061 -0.23047766
-0.032315183 -0.0099888984 -0.23048395
-0.032312162 -0.0099129323 -0.23048413
-0.032309413 -0.0098390523 -0.2304804
-0.032306682 -0.0097632166 -0.23047459
-0.032304127 -0.0096894223 -0.23046684
-0.032301083 -0.0096154111 -0.23046909
-0.03229804 -0.0095413998 -0.23047134
-0.032295309 -0.009465565 -0.23046553
-0.032292753 -0.0093917716 -0.2304578
-0.032289617 -0.0093177157 -0.23046203
-0.032286279 -0.009243574 -0.23047027
-0.032283332 -0.0091696056 -0.23047051
-0.032280389 -0.0090956371 -0.23047075
-0.032277346 -0.0090216259 -0.23047298
-0.032274421 -0.0089457044 -0.23047119
-0.032271668 -0.0088718235 -0.23046744
-0.032268919 -0.0087979417 -0.23046368
-0.032265972 -0.0087239742 -0.23046395
-0.032263048 -0.0086480509 -0.23046213
-0.032260299 -0.008574171 -0.23045838
-0.032257646 -0.0085003339 -0.23045266
-0.032254916 -0.0084244981 -0.23044685
-0.032252066 -0.0083505735 -0.2304451
-0.032248925 -0.0082765194 -0.23044932
-0.032245494 -0.008202333 -0.23045957
-0.032242157 -0.0081281904 -0.2304678
-0.032239214 -0.008054222 -0.23046803
-0.032236755 -0.0079804715 -0.23045829
-0.032234434 -0.0079028569 -0.23044246
-0.032231588 -0.0078289332 -0.23044071
-0.03222784 -0.0077565704 -0.23045897
-0.032224603 -0.0076824715 -0.23046523
-0.032222264 -0.0076068118 -0.23045143
-0.032219727 -0.0075310627 -0.23044163
-0.032216761 -0.0074590491 -0.23044392
-0.032213621 -0.0073849941 -0.23044817
-0.032210499 -0.0073089851 -0.23045036
-0.032207653 -0.0072350604 -0.2304486
-0.032205097 -0.0071612671 -0.23044087
-0.03220227 -0.0070853885 -0.23043707
-0.03219942 -0.0070114639 -0.23043531
-0.032196671 -0.006937583 -0.23043157
-0.032194115 -0.0068637896 -0.23042382
-0.032190997 -0.0067877797 -0.23042601
-0.032187857 -0.0067137256 -0.23043025
-0.03218491 -0.0066397572 -0.2304305
-0.03218206 -0.0065658325 -0.23042876
-0.032179311 -0.0064919516 -0.230425
-0.032176387 -0.0064160302 -0.2304232
-0.032173324 -0.006343971 -0.23042747
-0.032170378 -0.0062700035 -0.23042773
-0.032167744 -0.0061942125 -0.23041993
-0.032165188 -0.0061204182 -0.23041219
-0.032162167 -0.006044453 -0.23041239
-0.032159124 -0.0059704417 -0.23041463
-0.032156471 -0.0058966037 -0.23040888
-0.032153819 -0.0058227666 -0.23040313
-0.032150678 -0.0057487115 -0.23040737
-0.032147653 -0.0056727463 -0.23040757
-0.032144904 -0.0055988654 -0.23040381
-0.032142058 -0.0055249408 -0.23040207
-0.032139406 -0.0054511027 -0.23039632
-0.032136556 -0.005377179 -0.23039457
-0.032133631 -0.0053012567 -0.23039277
-0.032130685 -0.0052272882 -0.23039301
-0.032127935 -0.0051534073 -0.23038927
-0.032125205 -0.0050775735 -0.23038346
-0.032122359 -0.0050036488 -0.2303817
-0.032119509 -0.0049297241 -0.23037995
-0.03211676 -0.0048558433 -0.23037621
-0.032114007 -0.0047819624 -0.23037246
-0.03211128 -0.0047061276 -0.23036666
-0.032108821 -0.0046323775 -0.23035693
-0.032105796 -0.0045564109 -0.23035711
-0.032102656 -0.0044823559 -0.23036134
-0.03209969 -0.0044103432 -0.23036364
-0.032096572 -0.0043343334 -0.23036584
-0.032093529 -0.0042603211 -0.23036808
-0.032090876 -0.004186484 -0.23036233
-0.03208873 -0.0041109105 -0.23034456
-0.032086469 -0.0040372484 -0.23033082
-0.032083426 -0.0039632367 -0.23033306
-0.032080382 -0.0038892245 -0.2303353
-0.03207726 -0.0038132151 -0.2303375
-0.032074608 -0.0037393784 -0.23033175
-0.032071956 -0.0036655413 -0.230326
-0.032069109 -0.0035916166 -0.23032424
-0.03206626 -0.003517692 -0.2303225
-0.032063626 -0.0034419 -0.2303147
-0.032061171 -0.0033681509 -0.23030496
-0.032058321 -0.0032942262 -0.23030321
-0.032055277 -0.0032202145 -0.23030545
-0.032052234 -0.0031462032 -0.2303077
-0.032049194 -0.0030721915 -0.23030993
-0.032046344 -0.0029982668 -0.23030818
-0.032043301 -0.0029242551 -0.23031041
-0.032040063 -0.0028501563 -0.23031665
-0.03203702 -0.002776145 -0.2303189
-0.032034386 -0.0027003535 -0.23031111
-0.032031834 -0.0026265597 -0.23030336
-0.032029279 -0.0025527664 -0.23029561
-0.032026742 -0.0024770182 -0.23028582
-0.032023992 -0.0024031377 -0.23028207
-0.032020949 -0.002329126 -0.23028432
-0.032018393 -0.0022553317 -0.23027658
-0.032016128 -0.0021816697 -0.23026285
-0.03201301 -0.0021056603 -0.23026504
-0.032009773 -0.002031561 -0.23027128
-0.032006826 -0.001957593 -0.23027152
-0.032003976 -0.0018836688 -0.23026976
-0.032001227 -0.0018097879 -0.230266
-0.031998284 -0.0017358204 -0.23026624
-0.03199514 -0.0016617649 -0.23027049
-0.031992197 -0.001587797 -0.23027074
-0.03198925 -0.0015138295 -0.23027098
-0.031985916 -0.0014396869 -0.23027921
-0.031982891 -0.0013637207 -0.23027942
-0.031980239 -0.0012898832 -0.23027366
-0.031977683 -0.0012160898 -0.23026592
-0.031974252 -0.0011419039 -0.23027614
-0.031970698 -0.0010696286 -0.23029041
-0.031968165 -0.00099388091 -0.23028064
-0.031966001 -0.00092026126 -0.2302649
-0.031963855 -0.00084468815 -0.23024711
-0.03196159 -0.0007710252 -0.23023339
-0.031959038 -0.00069723185 -0.23022564
-0.031955604 -0.00062304572 -0.23023587
-0.031951681 -0.0005486412 -0.23025608
-0.031949028 -0.00047480478 -0.23025033
-0.031946961 -0.0004012289 -0.23023261
-0.031944115 -0.00032730424 -0.23023085
-0.031940877 -0.00025320565 -0.2302371
-0.031937931 -0.00017923745 -0.23023733
-0.031935103 -0.00010335911 -0.23023354
-0.031932451 -2.9521761e-05 -0.23022778
-0.031929895 4.4271583e-05 -0.23022005
-0.03192734 0.00011806563 -0.2302123
-0.03192449 0.00019198982 -0.23021054
-0.031921253 0.00026608841 -0.23021679
-0.031917624 0.00034036185 -0.230231
-0.031914581 0.00041437335 -0.23023325
-0.031912025 0.00048816716 -0.2302255
-0.03190957 0.00056191743 -0.23021576
-0.031906936 0.00063770846 -0.23020798
-0.031904187 0.00071158889 -0.23020422
-0.03190124 0.00078555732 -0.23020446
-0.031898491 0.00085943821 -0.23020071
-0.031896032 0.00093318755 -0.23019096
-0.031893007 0.0010091541 -0.23019117
-0.031889848 0.001081255 -0.23019746
-0.031886708 0.0011553101 -0.23020169
-0.031883977 0.0012311451 -0.23019589
-0.031881519 0.0013048952 -0.23018615
-0.031878673 0.0013788193 -0.23018439
-0.031875629 0.0014528311 -0.23018664
-0.031872489 0.0015268861 -0.23019087
-0.031869348 0.0016009414 -0.23019512
-0.031866498 0.0016748658 -0.23019336
-0.031863846 0.0017487032 -0.23018762
-0.031860705 0.0018227582 -0.23019186
-0.031857274 0.0018969441 -0.23020208
-0.031854521 0.001970825 -0.23019832
-0.031852063 0.0020445751 -0.23018859
-0.031849042 0.0021205409 -0.23018879
-0.031846195 0.0021944654 -0.23018703
-0.03184313 0.0022665225 -0.23019132
-0.03183962 0.0023427065 -0.23020151
-0.031836871 0.0024165872 -0.23019776
-0.031834606 0.0024902502 -0.23018402
-0.031831954 0.002564087 -0.23017827
-0.031829301 0.0026379244 -0.23017251
-0.031826258 0.0027119361 -0.23017476
-0.031823311 0.0027859039 -0.23017502
-0.031820953 0.0028596104 -0.23016328
-0.0318183 0.0029334475 -0.23015752
-0.031815354 0.0030074157 -0.23015776
-0.031812232 0.0030834249 -0.23015997
-0.031809267 0.0031554387 -0.23016225
-0.031805757 0.0032316227 -0.23017243
-0.031802714 0.0033056343 -0.23017466
-0.031800158 0.0033794278 -0.23016694
-0.0317977 0.0034531779 -0.2301572
-0.031795342 0.0035268844 -0.23014545
-0.031792104 0.0036009829 -0.23015168
-0.031788573 0.0036752126 -0.23016392
-0.031785723 0.003749137 -0.23016217
-0.031782679 0.0038231486 -0.23016439
-0.03177993 0.0038970294 -0.23016065
-0.031777374 0.0039708233 -0.2301529
-0.031774819 0.0040446166 -0.23014516
-0.031772558 0.0041182796 -0.23013142
-0.031770315 0.0041938964 -0.23011565
-0.031767562 0.0042677773 -0.2301119
-0.031764422 0.0043418324 -0.23011613
-0.031761184 0.0044159312 -0.23012236
-0.031758044 0.0044899862 -0.2301266
-0.031755488 0.00456378 -0.23011886
-0.031752642 0.0046377042 -0.23011711
-0.031749208 0.0047118906 -0.23012733
-0.031745873 0.0047860327 -0.23013556
-0.031743024 0.0048599569 -0.23013382
-0.03173998 0.0049339687 -0.23013607
-0.031736743 0.0050080675 -0.2301423
-0.031733818 0.0050839898 -0.23014051
-0.03173136 0.0051577399 -0.23013075
-0.031728785 0.0052295793 -0.23012504
-0.031725567 0.005305632 -0.23012924
-0.031722426 0.0053796875 -0.23013347
-0.031719383 0.0054536993 -0.23013572
-0.031716533 0.0055276235 -0.23013398
-0.03171359 0.0056015914 -0.23013422
-0.031710643 0.0056755594 -0.23013446
-0.031707309 0.005749702 -0.23014268
-0.031703897 0.0058258423 -0.23015088
-0.031701807 0.0058974633 -0.23013519
-0.031699933 0.0059709516 -0.23011346
-0.031697009 0.006046874 -0.23011166
-0.031693771 0.0061209728 -0.23011789
-0.031690728 0.0061949845 -0.23012015
-0.03168837 0.0062686908 -0.23010841
-0.031685617 0.0063425717 -0.23010466
-0.031682186 0.0064167576 -0.23011488
-0.031679336 0.0064906823 -0.23011313
-0.031676587 0.0065645631 -0.23010938
-0.031673446 0.0066386177 -0.23011363
-0.031670205 0.006712717 -0.23011985
-0.031667087 0.0067887264 -0.23012206
-0.031663947 0.0068627815 -0.23012629
-0.031660806 0.0069368365 -0.23013052
-0.031658348 0.0070105866 -0.23012078
-0.03165599 0.0070842933 -0.23010904
-0.031653434 0.0071580866 -0.2301013
-0.031650681 0.0072319675 -0.23009756
-0.031647637 0.0073059788 -0.2300998
-0.0316444 0.0073800776 -0.23010603
-0.031641454 0.007454046 -0.23010628
-0.031638607 0.0075279702 -0.23010452
-0.031636052 0.0076017641 -0.23009677
-0.031633321 0.0076775989 -0.23009098
-0.03163065 0.0077494821 -0.23008728
-0.031627506 0.0078235371 -0.23009151
-0.031624582 0.0078994595 -0.23008972
-0.031621929 0.0079732966 -0.23008397
-0.031619571 0.0080470033 -0.23007223
-0.031617112 0.0081207529 -0.23006248
-0.031614166 0.0081947204 -0.23006272
-0.031610832 0.008268863 -0.23007096
-0.031607885 0.0083428314 -0.23007122
-0.031605329 0.0084166247 -0.23006347
-0.031602189 0.0084906798 -0.2300677
-0.031598851 0.0085648224 -0.23007593
-0.031596027 0.008640701 -0.23007214
-0.031593472 0.0087144943 -0.23006439
-0.03159111 0.008788201 -0.23005265
-0.031588748 0.0088619078 -0.23004091
-0.031586196 0.0089357011 -0.23003316
-0.031582955 0.0090097999 -0.2300394
-0.031579524 0.0090839863 -0.23004964
-0.03157638 0.0091580413 -0.23005387
-0.031573534 0.0092319651 -0.23005211
-0.031570394 0.0093060201 -0.23005636
-0.031567663 0.0093818549 -0.23005056
-0.031565771 0.0094533898 -0.23003088
-0.031563606 0.009527009 -0.23001516
-0.031560954 0.0096008461 -0.23000941
-0.03155791 0.0096748574 -0.23001164
-0.031554788 0.0097508673 -0.23001385
-0.031551551 0.0098249661 -0.23002008
-0.031548217 0.0098991087 -0.2300283
-0.031545367 0.0099730324 -0.23002654
-0.031543009 0.010046739 -0.2300148
-0.031540159 0.010120664 -0.23001306
-0.031536747 0.010196804 -0.23002124
-0.031534094 0.010270641 -0.23001549
-0.031531908 0.010342306 -0.23000181
-0.031528398 0.01041849 -0.230012
-0.03152477 0.010492763 -0.23002622
-0.031521823 0.010566731 -0.23002645
-0.031519189 0.010642523 -0.23001868
-0.031517006 0.010714187 -0.23000497
-0.031514548 0.010787938 -0.22999525
-0.031512186 0.010861644 -0.22998351
-0.031510118 0.010935219 -0.22996578
-0.031506784 0.011009362 -0.229974
-0.03150269 0.011085807 -0.22999617
-0.031499062 0.01116008 -0.23001039
-0.031495843 0.011236134 -0.23001459
-0.03149309 0.011310015 -0.23001084
-0.031490635 0.011383764 -0.23000109
-0.031488471 0.011457384 -0.22998536
-0.03148599 0.011529179 -0.22997767
-0.031483065 0.011605102 -0.22997586
-0.031480119 0.01167907 -0.2299761
-0.031477369 0.01175295 -0.22997236
-0.031474523 0.011826875 -0.2299706
-0.031471577 0.011900842 -0.22997084
-0.031468164 0.011976983 -0.22997904
-0.03146483 0.012051125 -0.22998726
-0.031462371 0.012124876 -0.22997752
-0.031460106 0.012198538 -0.22996378
-0.03145726 0.012272462 -0.22996202
-0.031454511 0.012346344 -0.2299583
-0.031451564 0.012420312 -0.22995853
-0.031448442 0.012496321 -0.22996072
-0.031445965 0.012568116 -0.22995302
-0.0314437 0.012641779 -0.22993928
-0.031440951 0.01271566 -0.22993554
-0.031437714 0.012789759 -0.22994177
-0.031434789 0.012865681 -0.22993997
-0.031431843 0.012939649 -0.22994022
-0.031428896 0.013013617 -0.22994046
-0.031426147 0.013087498 -0.22993672
-0.031423204 0.013161466 -0.22993696
-0.031420745 0.013235216 -0.22992721
-0.031417895 0.01330914 -0.22992545
-0.03141458 0.013385237 -0.22993165
-0.031411733 0.013459162 -0.22992989
-0.031409372 0.013532868 -0.22991815
-0.031406425 0.013606835 -0.22991839
-0.031403385 0.013680847 -0.22992064
-0.031400535 0.013754772 -0.2299189
-0.031397417 0.013830781 -0.22992107
-0.031394862 0.013904575 -0.22991334
-0.031392109 0.013978455 -0.2299096
-0.031389166 0.014052424 -0.22990984
-0.031386413 0.014126305 -0.22990608
-0.031383663 0.014200184 -0.22990233
-0.031381108 0.014273979 -0.22989458
-0.031378455 0.014347816 -0.22988884
-0.031375706 0.014421697 -0.22988509
-0.03137305 0.014495535 -0.22987935
-0.031369932 0.014571543 -0.22988153
-0.031366792 0.014645599 -0.22988579
-0.031363942 0.014719523 -0.22988403
-0.031360727 0.014795576 -0.22988822
-0.031357683 0.014869587 -0.22989045
-0.031355128 0.014943382 -0.22988272
-0.031352475 0.015017219 -0.22987697
-0.031349432 0.015091231 -0.2298792
-0.031346411 0.015167195 -0.22987941
-0.031343658 0.015241077 -0.22987565
-0.031340808 0.015315002 -0.2298739
-0.031337962 0.015388926 -0.22987214
-0.031335309 0.015462764 -0.2298664
-0.031332459 0.015536687 -0.22986464
-0.031329516 0.015610656 -0.2298649
-0.031325907 0.015686883 -0.22987707
-0.031322863 0.015760895 -0.2298793
-0.031320233 0.015836686 -0.22987153
-0.031317756 0.015908482 -0.22986382
-0.031315003 0.015982363 -0.22986007
-0.031312078 0.016058285 -0.22985828
-0.031309232 0.016132209 -0.22985652
-0.031306773 0.016205959 -0.22984678
-0.031303924 0.016279884 -0.22984502
-0.031301077 0.016353808 -0.22984327
-0.031298324 0.016427688 -0.22983952
-0.031294718 0.016503915 -0.22985169
-0.031291209 0.016580101 -0.22986189
-0.031288359 0.016654026 -0.22986013
-0.03128561 0.016727906 -0.22985637
-0.031282857 0.016801786 -0.22985263
-0.031280402 0.016875535 -0.22984289
-0.03127775 0.016949374 -0.22983715
-0.031274434 0.017025471 -0.22984333
-0.031271782 0.017099308 -0.22983758
-0.031269029 0.017173188 -0.22983383
-0.031265423 0.017249417 -0.229846
-0.031262673 0.017323297 -0.22984225
-0.031260215 0.017397046 -0.22983252
-0.031257074 0.017471101 -0.22983676
-0.031253953 0.017547112 -0.22983894
-0.0312513 0.017620947 -0.22983322
-0.031248353 0.017694917 -0.22983345
-0.031245429 0.017770838 -0.22983164
-0.03124268 0.017844718 -0.22982791
-0.031239441 0.017918818 -0.22983412
-0.031236224 0.017994871 -0.22983833
-0.031233374 0.018068794 -0.22983657
-0.031230625 0.018142676 -0.22983281
-0.031228265 0.018216383 -0.22982109
-0.031225808 0.018290132 -0.22981134
-0.031223057 0.018364014 -0.22980759
-0.031220306 0.018437894 -0.22980383
-0.031217556 0.018511776 -0.22980009
-0.031214902 0.018585613 -0.22979434
-0.031212075 0.018661492 -0.22979054
-0.03120913 0.018735459 -0.22979078
-0.031205913 0.018811513 -0.22979498
-0.031202577 0.018885655 -0.22980322
-0.031199262 0.018961752 -0.2298094
-0.031195946 0.019037848 -0.22981559
-0.03119261 0.019111991 -0.22982383
-0.031189686 0.019187912 -0.22982201
-0.031187031 0.019261749 -0.22981627
-0.031184575 0.019335501 -0.22980654
-0.03118192 0.019409338 -0.22980079
-0.031178879 0.01948335 -0.22980303
-0.031175759 0.019559357 -0.22980522
-0.031172151 0.019635586 -0.22981741
-0.03116901 0.019709641 -0.22982165
-0.031166747 0.019783303 -0.2298079
-0.031164095 0.01985714 -0.22980216
-0.031160682 0.019933281 -0.22981034
-0.031158224 0.020007033 -0.2298006
-0.031156428 0.020078521 -0.22977892
-0.031153405 0.020154487 -0.22977912
-0.031149797 0.020230716 -0.2297913
-0.03114658 0.020306768 -0.22979549
-0.031144297 0.020378478 -0.2297838
-0.03114184 0.020452226 -0.22977406
-0.031138817 0.020528194 -0.22977425
-0.031135481 0.020602336 -0.22978249
-0.031132556 0.020678258 -0.22978067
-0.031129904 0.020752097 -0.22977494
-0.031127153 0.020825975 -0.2297712
-0.03112413 0.020901941 -0.22977138
-0.031120893 0.020976041 -0.22977762
-0.031117577 0.021052137 -0.2297838
-0.031114826 0.021126019 -0.22978005
-0.031111998 0.021201896 -0.22977626
-0.031109249 0.021275777 -0.22977251
-0.031106694 0.021349572 -0.22976476
-0.031103943 0.021423452 -0.229761
-0.031100335 0.021499678 -0.22977319
-0.031097781 0.021573473 -0.22976544
-0.031096082 0.021644918 -0.22974178
-0.031092668 0.021721061 -0.22974996
-0.031088887 0.02179933 -0.22976409
-0.031086039 0.021873254 -0.22976235
-0.031083386 0.021947091 -0.22975659
-0.031080265 0.0220231 -0.22975878
-0.031076832 0.022097286 -0.22976902
-0.031073811 0.022173252 -0.2297692
-0.031071723 0.022244874 -0.22975352
-0.031069458 0.022318536 -0.22973979
-0.031066144 0.022394633 -0.22974598
-0.031062732 0.022470772 -0.22975415
-0.031059708 0.022546738 -0.22975436
-0.031056764 0.022620708 -0.2297546
-0.031053837 0.022696629 -0.22975281
-0.031051088 0.022770511 -0.22974905
-0.031048533 0.022844303 -0.22974131
-0.03104588 0.022918141 -0.22973555
-0.031042857 0.022994108 -0.22973576
-0.031040009 0.023068031 -0.229734
-0.031037161 0.023141956 -0.22973225
-0.031034235 0.023217879 -0.22973046
-0.031031117 0.023293886 -0.22973263
-0.031027606 0.02337007 -0.22974283
-0.031024583 0.023446037 -0.22974303
-0.031022202 0.023517789 -0.22973332
-0.03101955 0.023591628 -0.22972758
-0.031016625 0.02366755 -0.22972578
-0.03101331 0.023743644 -0.22973196
-0.031009603 0.023819918 -0.22974615
-0.031006875 0.023895752 -0.22974035
-0.031004786 0.023967372 -0.22972468
-0.031002425 0.024041081 -0.22971293
-0.030999772 0.024114916 -0.22970718
-0.030996088 0.024193142 -0.22971931
-0.030993141 0.024267111 -0.22971955
-0.030990781 0.024340816 -0.22970781
-0.030987564 0.02441687 -0.22971201
-0.030983957 0.024493098 -0.22972418
-0.030980837 0.024569105 -0.22972637
-0.030978184 0.024642946 -0.22972062
-0.030975433 0.024716824 -0.2297169
-0.030971846 0.024795007 -0.22972703
-0.030969368 0.024866803 -0.22971933
-0.030967494 0.02494029 -0.2296976
-0.030964745 0.025014171 -0.22969384
-0.030961137 0.0250904 -0.22970602
-0.030957822 0.025166495 -0.22971222
-0.030955266 0.025240289 -0.22970447
-0.030953102 0.025313908 -0.22968873
-0.030950546 0.025387703 -0.229681
-0.030947406 0.025461758 -0.22968525
-0.03094448 0.025537679 -0.22968343
-0.030941555 0.0256136 -0.22968164
-0.030938143 0.025689743 -0.22968982
-0.030934827 0.02576584 -0.22969601
-0.030932371 0.025839588 -0.22968626
-0.030929912 0.025913341 -0.22967651
-0.030926965 0.025987307 -0.22967677
-0.030924041 0.026063228 -0.22967497
-0.030920824 0.026139282 -0.22967917
-0.030917607 0.026215337 -0.22968334
-0.030915052 0.026289128 -0.22967561
-0.030912202 0.026363054 -0.22967386
-0.030909277 0.026438976 -0.22967204
-0.030905865 0.026515115 -0.22968024
-0.030903114 0.026588997 -0.22967649
-0.030901046 0.026662573 -0.22965875
-0.03089859 0.026736323 -0.22964901
-0.03089547 0.026812332 -0.22965121
-0.030892426 0.026886344 -0.22965345
-0.030889599 0.026962223 -0.22964966
-0.030886944 0.02703606 -0.22964391
-0.030883728 0.027112113 -0.22964808
-0.030879945 0.027190384 -0.22966222
-0.030877292 0.027264219 -0.22965649
-0.030874737 0.027338013 -0.22964874
-0.030871792 0.027411981 -0.22964898
-0.030868575 0.027488034 -0.22965315
-0.030865651 0.027563956 -0.22965136
-0.030863093 0.02763775 -0.22964361
-0.030860342 0.02771163 -0.22963987
-0.030856756 0.027789813 -0.22965001
-0.030853245 0.027865997 -0.22966018
-0.030850224 0.027941963 -0.22966039
-0.030847862 0.028015669 -0.22964865
-0.030845385 0.028087465 -0.22964096
-0.030842558 0.028163344 -0.22963715
-0.030839905 0.028237181 -0.22963141
-0.030836882 0.028313147 -0.2296316
-0.030834131 0.028387027 -0.22962785
-0.032673609 -0.019151738 -0.23062199
-0.032669645 -0.019081244 -0.23064628
-0.032665703 -0.019008795 -0.23066854
-0.03266266 -0.018934783 -0.23067079
-0.0326594 -0.018862639 -0.23067906
-0.032656163 -0.018788539 -0.23068532
-0.032653727 -0.018712835 -0.23067352
-0.032650996 -0.018637 -0.23066774
-0.032648146 -0.018563075 -0.23066598
-0.032645416 -0.018487241 -0.23066019
-0.032642666 -0.018413359 -0.23065643
-0.032639645 -0.018337395 -0.23065662
-0.032636598 -0.018263381 -0.23065887
-0.032633848 -0.018189501 -0.23065513
-0.032631822 -0.018112019 -0.2306333
-0.032629091 -0.018036183 -0.23062751
-0.032625444 -0.017963864 -0.23064378
-0.03262189 -0.017891588 -0.23065805
-0.032619238 -0.017817751 -0.2306523
-0.032616917 -0.017740136 -0.23063648
-0.03261397 -0.017666169 -0.23063672
-0.032610539 -0.017591981 -0.23064695
-0.032607593 -0.017518014 -0.23064719
-0.032604959 -0.017442221 -0.2306394
-0.032601915 -0.01736821 -0.23064165
-0.032599069 -0.017294286 -0.23063989
-0.032596435 -0.017218493 -0.2306321
-0.032593705 -0.017142659 -0.2306263
-0.032590955 -0.017068779 -0.23062256
-0.032587912 -0.016994767 -0.23062479
-0.032584868 -0.016920757 -0.23062703
-0.032581627 -0.016846655 -0.23063327
-0.03257839 -0.016772559 -0.2306395
-0.032575857 -0.016696809 -0.23062971
-0.032574121 -0.016619457 -0.23060191
-0.032571487 -0.016543664 -0.23059411
-0.03256784 -0.016471347 -0.23061037
-0.032564189 -0.016399028 -0.23062666
-0.032561146 -0.016325017 -0.23062888
-0.032558415 -0.01624918 -0.2306231
-0.032555882 -0.016173432 -0.23061332
-0.032553129 -0.016099554 -0.23060957
-0.032549988 -0.016025495 -0.2306138
-0.032546945 -0.015951486 -0.23061603
-0.032543611 -0.015877344 -0.23062427
-0.032540567 -0.015803332 -0.23062652
-0.032537933 -0.01572754 -0.23061872
-0.032535594 -0.01565188 -0.23060495
-0.032532744 -0.015577953 -0.23060319
-0.032529801 -0.015503988 -0.23060343
-0.032526854 -0.015430018 -0.23060367
-0.032523829 -0.015354052 -0.23060387
-0.032520689 -0.015279999 -0.23060811
-0.03251794 -0.015206115 -0.23060435
-0.032514993 -0.01513215 -0.2306046
-0.03251195 -0.015058136 -0.23060685
-0.032508928 -0.014982171 -0.23060703
-0.032506373 -0.014908379 -0.2305993
-0.032503933 -0.014832672 -0.23058751
-0.032501105 -0.014756793 -0.23058371
-0.032498259 -0.01468287 -0.23058197
-0.032495819 -0.014607165 -0.23057017
-0.032492895 -0.014531242 -0.23056838
-0.032490145 -0.014457364 -0.23056462
-0.032487392 -0.01438348 -0.23056087
-0.032484155 -0.014309384 -0.2305671
-0.03248072 -0.014235197 -0.23057735
-0.032477971 -0.014161317 -0.23057359
-0.032475632 -0.014085656 -0.2305598
-0.032472804 -0.014009776 -0.23055601
-0.03246966 -0.013935721 -0.23056024
-0.03246662 -0.01386171 -0.23056248
-0.032464277 -0.01378605 -0.23054871
-0.032461721 -0.013712255 -0.23054096
-0.032458603 -0.013636246 -0.23054315
-0.032455441 -0.013564145 -0.23054942
-0.032452006 -0.01348996 -0.23055968
-0.032448769 -0.013415858 -0.23056591
-0.032446232 -0.013340112 -0.23055612
-0.032443602 -0.013264321 -0.23054832
-0.032440752 -0.013190396 -0.23054656
-0.032438003 -0.013116516 -0.23054281
-0.032435175 -0.013040638 -0.23053902
-0.032432325 -0.012966713 -0.23053727
-0.032429986 -0.012891052 -0.23052348
-0.03242784 -0.012815479 -0.2305057
-0.032424796 -0.012741467 -0.23050794
-0.032421365 -0.012667282 -0.23051818
-0.032418221 -0.012593225 -0.23052242
-0.032415081 -0.01251917 -0.23052666
-0.03241194 -0.012445116 -0.23053089
-0.032408897 -0.012371102 -0.23053314
-0.032406341 -0.012297311 -0.23052539
-0.032404002 -0.012221649 -0.23051161
-0.032401271 -0.012145815 -0.23050581
-0.032398619 -0.012071977 -0.23050007
-0.032395594 -0.01199601 -0.23050025
-0.032392845 -0.011922131 -0.23049651
-0.032390095 -0.01184825 -0.23049277
-0.032386951 -0.011774195 -0.230497
-0.032383617 -0.011700053 -0.23050523
-0.032380477 -0.011625997 -0.23050947
-0.032377139 -0.011551854 -0.2305177
-0.032374192 -0.011477888 -0.23051795
-0.032371853 -0.011402226 -0.23050416
-0.032369398 -0.011328476 -0.23049441
-0.03236647 -0.011252554 -0.23049262
-0.032363623 -0.011178629 -0.23049086
-0.03236058 -0.011104617 -0.23049311
-0.032357339 -0.011030518 -0.23049936
-0.032354493 -0.010956594 -0.2304976
-0.032351859 -0.010880804 -0.23048979
-0.032348912 -0.010806835 -0.23049004
-0.032345772 -0.010732779 -0.23049429
-0.032342847 -0.010656858 -0.23049247
-0.032340094 -0.010582977 -0.23048873
-0.032337248 -0.010509052 -0.23048699
-0.032334518 -0.010433218 -0.23048118
