# .PCD v0.7 - Point Cloud Data file format
VERSION 0.7
FIELDS x y z
SIZE 4 4 4
TYPE F F F
COUNT 1 1 1
WIDTH 1262
HEIGHT 1
VIEWPOINT 0 0 0 1 0 0 0
POINTS 1262
DATA ascii
-0.063775964 -0.001221953 -0.26567322
-0.063772857 -0.001142038 -0.26567131
-0.06376946 -0.001061989 -0.26567543
-0.063766256 -0.00098202936 -0.26567554
-0.063763224 -0.00090410933 -0.26567373
-0.063760683 -0.00082640536 -0.2656619
-0.063757844 -0.00074857473 -0.26565605
-0.06375435 -0.00066848472 -0.26566216
-0.063750945 -0.00058843568 -0.26566628
-0.063747935 -0.00050856173 -0.26566237
-0.063744538 -0.00042851642 -0.26566648
-0.063741408 -0.00035055168 -0.26566666
-0.063738666 -0.00027276203 -0.26565883
-0.063735753 -0.00019293278 -0.26565295
-0.063732825 -0.00011505559 -0.26564911
-0.063729152 -3.2924116e-05 -0.26565716
-0.06372565 4.71659e-05 -0.26566327
-0.063723184 0.00012287125 -0.26565149
-0.063720934 0.00020044483 -0.26563367
-0.063717924 0.00028032064 -0.2656298
-0.063714527 0.00036036596 -0.26563391
-0.063711129 0.00044041313 -0.26563799
-0.063708 0.00051837787 -0.26563817
-0.063704893 0.0005982928 -0.26563627
-0.063701682 0.00067825429 -0.26563638
-0.063698575 0.00075817294 -0.26563451
-0.063695446 0.00083613396 -0.26563466
-0.063692421 0.00091405399 -0.26563284
-0.063689701 0.00099379756 -0.26562297
-0.063686863 0.0010716319 -0.26561713
-0.063683756 0.0011515487 -0.26561525
-0.063680723 0.0012294687 -0.26561341
-0.063677229 0.0013095606 -0.26561952
-0.063673928 0.0013895612 -0.2656216
-0.063671187 0.0014673509 -0.26561379
-0.063668273 0.0015471838 -0.26560789
-0.063665442 0.0016250145 -0.26560208
-0.063662037 0.0017050616 -0.26560619
-0.06365864 0.0017851107 -0.26561031
-0.063655533 0.0018650275 -0.26560843
-0.063652225 0.0019450299 -0.26561052
-0.063649297 0.0020229071 -0.26560667
-0.063646555 0.0021006949 -0.26559886
-0.063643448 0.0021806136 -0.26559699
-0.06364052 0.0022584908 -0.26559314
-0.063637309 0.0023384523 -0.26559323
-0.063633814 0.0024185404 -0.26559937
-0.063630804 0.0024984162 -0.26559547
-0.063627869 0.0025762934 -0.26559165
-0.063624665 0.0026562531 -0.26559174
-0.063621461 0.0027362145 -0.26559186
-0.063618056 0.0028162617 -0.26559597
-0.063615128 0.0028941371 -0.26559213
-0.063612483 0.0029718839 -0.26558232
-0.06360928 0.0030518435 -0.26558241
-0.063606076 0.0031318031 -0.26558253
-0.063602872 0.0032117665 -0.26558265
-0.063599743 0.0032897294 -0.2655828
-0.063596442 0.00336973 -0.26558492
-0.063593231 0.0034496933 -0.26558504
-0.0635904 0.0035275258 -0.26557919
-0.06358739 0.0036073998 -0.26557532
-0.063584261 0.0036853626 -0.26557547
-0.063581347 0.0037651937 -0.2655696
-0.063578315 0.0038431138 -0.26556775
-0.063575111 0.0039230734 -0.26556787
-0.063571908 0.0040030349 -0.26556799
-0.063568406 0.0040831231 -0.2655741
-0.063565202 0.0041630846 -0.26557419
-0.06356293 0.0042387042 -0.26555842
-0.063560113 0.0043184925 -0.26555055
-0.063557088 0.0043964107 -0.26554871
-0.06355454 0.0044741146 -0.2655369
-0.06355153 0.0045539867 -0.265533
-0.063547842 0.0046341643 -0.2655431
-0.063544266 0.0047162529 -0.26554918
-0.063541524 0.0047940426 -0.26554132
-0.063538499 0.0048719607 -0.2655395
-0.063534431 0.0049542673 -0.26555553
-0.063531034 0.0050343145 -0.26555964
-0.063528493 0.0051120166 -0.26554781
-0.063525379 0.0051919352 -0.26554593
-0.063521691 0.0052721128 -0.26555604
-0.063518211 0.0053541567 -0.26556009
-0.063515469 0.0054319464 -0.26555228
-0.063512832 0.0055096932 -0.26554245
-0.0635098 0.0055876132 -0.2655406
-0.06350679 0.0056674853 -0.26553673
-0.063503489 0.0057474915 -0.26553884
-0.063500457 0.0058254115 -0.26553699
-0.063498303 0.0059029385 -0.26551718
-0.06349574 0.0059786867 -0.2655074
-0.065468632 -0.044428237 -0.26644769
-0.065465815 -0.044348449 -0.26643983
-0.065462783 -0.04427053 -0.26643798
-0.065459579 -0.044190567 -0.2664381
-0.065456353 -0.044112563 -0.26644024
-0.065453149 -0.044032604 -0.26644036
-0.065449923 -0.043954596 -0.26644251
-0.0654466 -0.043876544 -0.26644668
-0.065443292 -0.043796539 -0.2664488
-0.065440789 -0.043714929 -0.26643288
-0.065438077 -0.043635186 -0.26642299
-0.06543456 -0.043557048 -0.26643115
-0.065431036 -0.043478914 -0.26643929
-0.065427907 -0.043400951 -0.26643944
-0.065424897 -0.043321073 -0.26643556
-0.065421887 -0.043241203 -0.26643169
-0.06541878 -0.043161284 -0.26642981
-0.065415964 -0.043081496 -0.26642191
-0.06541305 -0.043001667 -0.26641604
-0.06541004 -0.042921793 -0.26641217
-0.065406911 -0.04284383 -0.26641232
-0.065403804 -0.042763911 -0.26641044
-0.065400384 -0.042685822 -0.26641661
-0.065396361 -0.042609423 -0.26643679
-0.065392725 -0.042533197 -0.26644897
-0.065389827 -0.042451411 -0.26644105
-0.065387323 -0.042369798 -0.26642513
-0.065384395 -0.042291924 -0.26642129
-0.065381072 -0.042213872 -0.26642543
-0.065378077 -0.042132046 -0.26641953
-0.065375045 -0.042054124 -0.26641768
-0.065371335 -0.041975904 -0.26642984
-0.065367602 -0.041899636 -0.26644403
-0.065364785 -0.041819848 -0.26643613
-0.065362379 -0.041738279 -0.26641822
-0.065359563 -0.041658491 -0.26641035
-0.065356553 -0.041578617 -0.26640648
-0.065353736 -0.041498832 -0.26639861
-0.065350339 -0.041418783 -0.26640272
-0.065346919 -0.04134069 -0.26640886
-0.065343887 -0.041262772 -0.26640701
-0.065341093 -0.041181028 -0.26639709
-0.065338179 -0.041101195 -0.26639122
-0.06533505 -0.041023236 -0.26639137
-0.065331727 -0.040945187 -0.26639551
-0.065328427 -0.040865183 -0.26639766
-0.065325007 -0.04078709 -0.26640379
-0.065322191 -0.040707301 -0.26639593
-0.065319568 -0.040627599 -0.26638404
-0.065316364 -0.040547639 -0.26638415
-0.065313332 -0.040469721 -0.26638234
-0.065310538 -0.040387977 -0.26637238
-0.065307409 -0.040310018 -0.26637256
-0.065303892 -0.04023188 -0.2663807
-0.065300681 -0.04015192 -0.26638082
-0.065297849 -0.040074088 -0.26637498
-0.065294936 -0.039994255 -0.2663691
-0.065291516 -0.039916165 -0.26637524
-0.065288506 -0.039836287 -0.26637137
-0.065285593 -0.039756458 -0.2663655
-0.065282166 -0.039678365 -0.26637167
-0.065278865 -0.039598361 -0.26637375
-0.065275833 -0.039520442 -0.26637191
-0.065272413 -0.039442349 -0.26637807
-0.065268897 -0.039364211 -0.26638621
-0.065266177 -0.039284471 -0.26637635
-0.06526348 -0.039202772 -0.26636443
-0.065260351 -0.039124809 -0.26636457
-0.065257147 -0.03904485 -0.26636469
-0.065253824 -0.038966797 -0.26636887
-0.065250404 -0.038888708 -0.26637501
-0.065247096 -0.0388087 -0.26637712
-0.065244287 -0.038728915 -0.26636922
-0.065241471 -0.038649127 -0.26636136
-0.065238439 -0.038571209 -0.26635951
-0.065235429 -0.038491331 -0.26635563
-0.065232515 -0.038411498 -0.26634976
-0.065229289 -0.038333494 -0.26635194
-0.065226182 -0.038253579 -0.26635003
-0.065223463 -0.038173832 -0.26634017
-0.065220259 -0.038093872 -0.26634029
-0.065216735 -0.038015738 -0.26634842
-0.065213099 -0.037939511 -0.26636061
-0.065210193 -0.037859682 -0.26635474
-0.065207586 -0.037778027 -0.26634082
-0.065204561 -0.037700109 -0.26633897
-0.065201253 -0.037620105 -0.26634109
-0.065198228 -0.037542187 -0.26633927
-0.065195002 -0.037464179 -0.26634142
-0.065192088 -0.037384346 -0.26633555
-0.065189466 -0.037304647 -0.26632369
-0.065186359 -0.037224729 -0.26632178
-0.065182835 -0.037146591 -0.26632994
-0.065179907 -0.037068717 -0.2663261
-0.065177016 -0.036986932 -0.26631817
-0.06517338 -0.036910705 -0.26633036
-0.065169856 -0.036832571 -0.26633853
-0.065166749 -0.036752656 -0.26633662
-0.06516362 -0.036674693 -0.2663368
-0.065160707 -0.03659486 -0.2663309
-0.065157697 -0.036514986 -0.26632702
-0.065154277 -0.036436893 -0.26633316
-0.06515117 -0.036356978 -0.26633129
-0.065148547 -0.036277276 -0.26631942
-0.065145522 -0.036199354 -0.26631758
-0.065142214 -0.036119353 -0.26631969
-0.065139085 -0.036041386 -0.26631987
-0.065135881 -0.035961427 -0.26631996
-0.06513305 -0.035883594 -0.26631415
-0.065130129 -0.035803765 -0.26630825
-0.06512671 -0.035725672 -0.26631439
-0.065123312 -0.035645626 -0.2663185
-0.06512028 -0.035567705 -0.26631668
-0.065117463 -0.03548792 -0.26630878
-0.065114744 -0.035408173 -0.26629892
-0.065111734 -0.035328299 -0.26629505
-0.065108314 -0.035250209 -0.26630118
-0.065104701 -0.03517203 -0.26631135
-0.065101475 -0.035094023 -0.26631349
-0.065098852 -0.03501432 -0.26630163
-0.065095745 -0.034934405 -0.26629972
-0.065092325 -0.034856312 -0.26630589
-0.065089218 -0.034776393 -0.26630402
-0.065086089 -0.03469843 -0.26630417
-0.065083079 -0.034618556 -0.26630029
-0.065080144 -0.034540683 -0.26629645
-0.065077037 -0.034460764 -0.26629457
-0.065073811 -0.034382757 -0.26629674
-0.065070778 -0.034304835 -0.2662949
-0.065068066 -0.034225091 -0.266285
-0.065064952 -0.034145176 -0.26628312
-0.06506183 -0.034067214 -0.26628327
-0.065058716 -0.033987295 -0.2662814
-0.065056078 -0.033909548 -0.26627159
-0.065053165 -0.033829719 -0.26626569
-0.065049864 -0.033749714 -0.26626781
-0.065046541 -0.033671666 -0.26627195
-0.065043412 -0.033593703 -0.26627213
-0.065040499 -0.033513874 -0.26626623
-0.065037392 -0.033433955 -0.26626435
-0.065034069 -0.033355907 -0.26626849
-0.065030649 -0.03327781 -0.26627466
-0.06502752 -0.03319985 -0.26627481
-0.065024704 -0.033120062 -0.26626694
-0.0650215 -0.033040103 -0.26626706
-0.065018468 -0.032962181 -0.26626521
-0.065015554 -0.032882351 -0.26625934
-0.065012328 -0.032804348 -0.26626149
-0.06500861 -0.032726124 -0.26627365
-0.065004997 -0.032647945 -0.26628378
-0.065002166 -0.032570109 -0.26627797
-0.064999662 -0.032488499 -0.26626205
-0.064996943 -0.032408755 -0.26625216
-0.064994104 -0.032330923 -0.26624632
-0.064990707 -0.032250874 -0.26625043
-0.064987287 -0.032172784 -0.2662566
-0.064984061 -0.032094777 -0.26625875
-0.064980932 -0.032016814 -0.26625893
-0.064978719 -0.03193533 -0.26623702
-0.064976297 -0.031855717 -0.26622114
-0.06497217 -0.031779274 -0.26624331
-0.064968675 -0.031699184 -0.26624942
-0.064966127 -0.031621482 -0.26623759
-0.064962707 -0.031543389 -0.26624376
-0.064959191 -0.031465255 -0.26625189
-0.064955987 -0.031385291 -0.26625201
-0.064953268 -0.031305548 -0.26624215
-0.06495063 -0.031227801 -0.26623231
-0.064947404 -0.031149795 -0.26623446
-0.064943805 -0.031069662 -0.26624256
-0.064940579 -0.030991657 -0.26624474
-0.064937763 -0.030911868 -0.26623684
-0.064934731 -0.030833948 -0.26623499
-0.064931512 -0.030755943 -0.26623717
-0.064928301 -0.030675983 -0.26623729
-0.064925268 -0.030598063 -0.26623544
-0.06492205 -0.030520057 -0.26623762
-0.064918742 -0.030440053 -0.2662397
-0.06491591 -0.03036222 -0.26623389
-0.0649129 -0.030282345 -0.26622999
-0.064909868 -0.030204426 -0.26622817
-0.064906955 -0.030124595 -0.2662223
-0.064903729 -0.03004659 -0.26622444
-0.064901106 -0.029966889 -0.26621258
-0.06489858 -0.029887231 -0.26619869
-0.064895459 -0.02980927 -0.26619887
-0.064891934 -0.029731132 -0.26620701
-0.06488803 -0.029652823 -0.26622313
-0.064884514 -0.029574687 -0.2662313
-0.064881891 -0.029494986 -0.26621944
-0.064879172 -0.029415242 -0.26620954
-0.064876243 -0.029337367 -0.26620573
-0.064873427 -0.029257579 -0.26619783
-0.064870879 -0.029179875 -0.266186
-0.064867966 -0.029100046 -0.26618013
-0.06486474 -0.02902204 -0.2661823
-0.064861633 -0.028942121 -0.2661804
-0.064858705 -0.028864246 -0.26617658
-0.064855278 -0.028786153 -0.26618272
-0.06485188 -0.028706105 -0.26618683
-0.064848751 -0.028628144 -0.26618701
-0.064845137 -0.028549964 -0.26619714
-0.06484203 -0.028470047 -0.26619524
-0.064839482 -0.028392343 -0.26618344
-0.064836279 -0.028312381 -0.26618356
-0.064832956 -0.028234333 -0.2661877
-0.06483002 -0.028156457 -0.26618385
-0.064826816 -0.028076496 -0.26618397
-0.064823277 -0.028000316 -0.26619416
-0.064819783 -0.027920226 -0.26620027
-0.064817138 -0.027842479 -0.26619044
-0.064814426 -0.027762733 -0.26618057
-0.06481149 -0.027684858 -0.26617673
-0.064808771 -0.027605113 -0.26616687
-0.064806052 -0.027525369 -0.26615697
-0.064802825 -0.027447363 -0.26615915
-0.064799309 -0.027369227 -0.26616728
-0.064795598 -0.027291004 -0.26617944
-0.064792663 -0.027213128 -0.2661756
-0.064790137 -0.027133472 -0.26616174
-0.064786717 -0.027055379 -0.26616788
-0.064783029 -0.026975201 -0.26617798
-0.064780384 -0.026897455 -0.26616815
-0.064777866 -0.026817799 -0.26615429
-0.064774543 -0.02673975 -0.26615846
-0.064771317 -0.026661742 -0.26616061
-0.064768791 -0.026582085 -0.26614672
-0.064766169 -0.026502384 -0.26613486
-0.064762242 -0.02642603 -0.26615304
-0.064758748 -0.026345938 -0.26615915
-0.064756006 -0.026268149 -0.26615131
-0.064753287 -0.026188405 -0.26614144
-0.064750649 -0.026110658 -0.26613164
-0.064747639 -0.026030784 -0.26612774
-0.064744219 -0.025952693 -0.2661339
-0.064740501 -0.025874469 -0.26614603
-0.064736791 -0.025796248 -0.26615816
-0.064733565 -0.025718242 -0.26616034
-0.064730749 -0.025638454 -0.26615244
-0.064728029 -0.02555871 -0.26614258
-0.064725198 -0.025480878 -0.26613677
-0.064721875 -0.025402827 -0.26614091
-0.064718157 -0.025324605 -0.26615304
-0.064715147 -0.025244731 -0.26614916
-0.064712703 -0.02516707 -0.26613533
-0.064709984 -0.025087327 -0.26612547
-0.06470754 -0.025009668 -0.26611164
-0.06470453 -0.024929794 -0.26610777
-0.064701207 -0.024851743 -0.26611191
-0.064698175 -0.024773825 -0.26611009
-0.064695068 -0.024693906 -0.26610821
-0.064691842 -0.024615901 -0.26611036
-0.064688519 -0.024537852 -0.26611453
-0.064685583 -0.024459977 -0.26611066
-0.064682283 -0.024379972 -0.2661128
-0.064679056 -0.024301965 -0.26611495
-0.064676046 -0.024222091 -0.26611108
-0.064673208 -0.024144258 -0.26610523
-0.064670376 -0.024066426 -0.26609939
-0.064667463 -0.023986595 -0.26609352
-0.064664334 -0.023908632 -0.26609367
-0.064661205 -0.023830669 -0.26609385
-0.064658098 -0.023750752 -0.26609194
-0.064654969 -0.023672789 -0.26609212
-0.064651452 -0.023594653 -0.26610026
-0.064647838 -0.023516474 -0.26611042
-0.064644925 -0.023436643 -0.26610452
-0.064642087 -0.023358811 -0.26609871
-0.064638957 -0.023280848 -0.26609886
-0.064635657 -0.023200843 -0.26610097
-0.064632915 -0.023123054 -0.26609313
-0.064630203 -0.02304331 -0.26608327
-0.064626873 -0.02296526 -0.26608741
-0.064623654 -0.022887256 -0.26608959
-0.064620838 -0.022807468 -0.26608169
-0.064618193 -0.022729721 -0.26607189
-0.064615279 -0.02264989 -0.26606601
-0.064611956 -0.022571841 -0.26607016
-0.064608246 -0.022493618 -0.26608229
-0.064604536 -0.022415396 -0.26609445
-0.06460131 -0.02233739 -0.26609659
-0.064598396 -0.022257559 -0.26609072
-0.064595848 -0.022179857 -0.26607889
-0.064592935 -0.022100026 -0.26607302
-0.064589709 -0.02202202 -0.26607516
-0.064586781 -0.021944143 -0.26607132
-0.064583771 -0.021864269 -0.26606745
-0.064580053 -0.021786047 -0.2660796
-0.06457673 -0.021707997 -0.26608375
-0.064574406 -0.021628426 -0.2660659
-0.064572059 -0.02155081 -0.26605007
-0.064568847 -0.021470848 -0.26605016
-0.064565428 -0.021392757 -0.26605633
-0.064562306 -0.021314794 -0.26605648
-0.064559177 -0.021236831 -0.26605666
-0.064555965 -0.02115687 -0.26605678
-0.064552844 -0.021078907 -0.26605693
-0.064550005 -0.021001074 -0.26605108
-0.064547673 -0.020921504 -0.26603323
-0.064545035 -0.020843757 -0.2660234
-0.064542003 -0.020765837 -0.26602158
-0.064538509 -0.020685747 -0.26602766
-0.064534791 -0.020607525 -0.26603982
-0.064531565 -0.02052952 -0.26604196
-0.064528555 -0.020449646 -0.26603809
-0.064525232 -0.020371595 -0.26604223
-0.064521618 -0.020293416 -0.2660524
-0.064518899 -0.020213673 -0.2660425
-0.064516164 -0.020135883 -0.26603469
-0.064512938 -0.020057876 -0.26603684
-0.06450963 -0.019977873 -0.26603895
-0.064506412 -0.019899867 -0.2660411
-0.064503476 -0.01982199 -0.26603729
-0.064500347 -0.019744027 -0.26603743
-0.064497434 -0.019664196 -0.26603156
-0.064494893 -0.019586494 -0.26601973
-0.064491689 -0.019506533 -0.26601985
-0.064488262 -0.019428441 -0.26602599
-0.064485431 -0.019350607 -0.26602018
-0.064482518 -0.019270778 -0.26601428
-0.064479679 -0.019192945 -0.26600844
-0.064476356 -0.019114895 -0.26601261
-0.064473055 -0.01903489 -0.2660147
-0.064469926 -0.018956928 -0.26601487
-0.064466797 -0.018878965 -0.26601505
-0.06446398 -0.018799178 -0.26600716
-0.064460956 -0.018721258 -0.26600534
-0.064457729 -0.018643253 -0.26600748
-0.064454719 -0.018563379 -0.26600361
-0.064451978 -0.018485589 -0.26599577
-0.064449146 -0.018407756 -0.26598993
-0.064446032 -0.01832784 -0.26598805
-0.064443201 -0.018250005 -0.26598221
-0.064440362 -0.018172173 -0.2659764
-0.064437158 -0.018092211 -0.26597649
-0.06443432 -0.018014379 -0.26597068
-0.064431392 -0.017936504 -0.26596683
-0.06442789 -0.017856413 -0.26597294
-0.064424373 -0.017778277 -0.26598108
-0.064420968 -0.01769823 -0.26598519
-0.06441804 -0.017620353 -0.26598135
-0.064415202 -0.017542521 -0.26597553
-0.064412177 -0.017464601 -0.26597369
-0.064408965 -0.017384641 -0.26597381
-0.064405739 -0.017306633 -0.26597595
-0.06440261 -0.017228672 -0.26597613
-0.064399503 -0.017148754 -0.26597422
-0.064396672 -0.017070921 -0.26596838
-0.06439364 -0.016993001 -0.26596656
-0.064390436 -0.016913041 -0.26596668
-0.064387597 -0.016835209 -0.26596084
-0.06438449 -0.01675529 -0.26595896
-0.064381264 -0.016677285 -0.26596111
-0.064377941 -0.016599236 -0.26596528
-0.064374834 -0.016519319 -0.26596338
-0.064371996 -0.016441487 -0.26595756
-0.064369068 -0.01636361 -0.26595372
-0.064365759 -0.016283605 -0.26595584
-0.064362533 -0.0162056 -0.26595798
-0.06435933 -0.016125638 -0.2659581
-0.064356491 -0.016047806 -0.26595226
-0.06435366 -0.015969973 -0.26594645
-0.064350158 -0.015889883 -0.26595253
-0.064346544 -0.015811704 -0.26596269
-0.064343609 -0.015733827 -0.26595885
-0.064340696 -0.015653996 -0.26595297
-0.064337671 -0.015576077 -0.26595113
-0.064334542 -0.015498115 -0.26595128
-0.064331628 -0.015418284 -0.26594543
-0.064328305 -0.015340234 -0.26594958
-0.064324707 -0.0152601 -0.26595765
-0.064321779 -0.015182224 -0.26595384
-0.064319231 -0.015104521 -0.26594201
-0.064316981 -0.015026947 -0.26592422
-0.064314559 -0.014947333 -0.26590833
-0.064311624 -0.014869458 -0.26590449
-0.064307831 -0.014789237 -0.26591659
-0.064303927 -0.014710928 -0.26593274
-0.064300895 -0.014633009 -0.26593089
-0.064298175 -0.014553264 -0.26592103
-0.064295046 -0.014475301 -0.26592118
-0.064291649 -0.014395255 -0.26592529
-0.064288326 -0.014317205 -0.26592943
-0.064285196 -0.014239242 -0.26592961
-0.064282283 -0.014159412 -0.26592374
-0.064279251 -0.014081492 -0.26592189
-0.064276047 -0.014001532 -0.26592201
-0.064273015 -0.013923611 -0.26592016
-0.064270087 -0.013845736 -0.26591632
-0.064267069 -0.013765862 -0.26591244
-0.064263947 -0.013687899 -0.26591259
-0.06426093 -0.013608025 -0.26590872
-0.064257607 -0.013529976 -0.26591289
-0.064254284 -0.013451926 -0.26591703
-0.064250983 -0.013371922 -0.26591915
-0.064248048 -0.013294047 -0.2659153
-0.064245038 -0.013214172 -0.2659114
-0.0642424 -0.013136426 -0.2659016
-0.064239562 -0.013058593 -0.26589575
-0.06423597 -0.012978459 -0.26590386
-0.064232551 -0.012900366 -0.26591003
-0.064229339 -0.012820406 -0.26591012
-0.064226314 -0.012742487 -0.2659083
-0.064223476 -0.012664653 -0.26590246
-0.064220466 -0.012584779 -0.26589859
-0.06421724 -0.012506774 -0.26590073
-0.06421423 -0.0124269 -0.26589686
-0.064211883 -0.012349283 -0.26588103
-0.064209342 -0.01227158 -0.2658692
-0.064205915 -0.012193488 -0.26587537
-0.06420242 -0.012113396 -0.26588148
-0.064199485 -0.012035521 -0.26587763
-0.064196184 -0.011955516 -0.26587975
-0.064192861 -0.011877468 -0.26588389
-0.064189851 -0.011797593 -0.26588002
-0.064186916 -0.011719718 -0.26587617
-0.064183615 -0.011639713 -0.26587829
-0.064180389 -0.011561708 -0.26588044
-0.064177163 -0.011483701 -0.26588261
-0.064174056 -0.011403784 -0.2658807
-0.064171314 -0.011325995 -0.2658729
-0.064168498 -0.011246207 -0.26586503
-0.064165369 -0.011168244 -0.26586518
-0.064161949 -0.011090152 -0.26587132
-0.064158939 -0.011010277 -0.26586744
-0.064156204 -0.010932488 -0.2658596
-0.064153291 -0.010852657 -0.26585373
-0.064150162 -0.010774694 -0.26585388
-0.064147033 -0.010696732 -0.26585406
-0.064143732 -0.010616727 -0.26585618
-0.0641407 -0.010538807 -0.26585433
-0.064137787 -0.010458978 -0.26584846
-0.064134657 -0.010381014 -0.26584861
-0.064131528 -0.010303052 -0.26584876
-0.064128518 -0.010223177 -0.26584488
-0.064125389 -0.010145215 -0.26584506
-0.064122185 -0.010065255 -0.26584515
-0.064119153 -0.0099873347 -0.26584333
-0.064116225 -0.0099094585 -0.26583949
-0.064113021 -0.0098294979 -0.26583958
-0.064109989 -0.0097515788 -0.26583776
-0.064107172 -0.0096717924 -0.26582989
-0.064104527 -0.0095940456 -0.26582006
-0.064100936 -0.0095139109 -0.26582816
-0.064097144 -0.0094336914 -0.26584023
-0.064094014 -0.0093557276 -0.26584041
-0.064090811 -0.009275768 -0.26584053
-0.064087681 -0.0091978041 -0.26584068
-0.064084947 -0.0091200154 -0.26583284
-0.064082131 -0.0090402272 -0.26582497
-0.064079098 -0.0089623081 -0.26582313
-0.064075992 -0.0088823903 -0.26582125
-0.064072572 -0.008804298 -0.26582742
-0.06406907 -0.0087242071 -0.2658335
-0.064065866 -0.0086442474 -0.26583362
-0.064063028 -0.008566414 -0.2658278
-0.06406039 -0.0084886681 -0.26581797
-0.064057283 -0.0084087504 -0.26581609
-0.064054057 -0.0083307447 -0.26581824
-0.064051047 -0.0082508707 -0.26581436
-0.064048208 -0.0081730373 -0.26580852
-0.064044811 -0.0080929901 -0.26581264
-0.064041287 -0.008014854 -0.26582077
-0.064038277 -0.0079349801 -0.2658169
-0.064035349 -0.0078571038 -0.26581305
-0.064032316 -0.0077791847 -0.26581123
-0.064029209 -0.007699267 -0.26580936
-0.064025909 -0.0076192627 -0.26581144
-0.064022779 -0.0075413007 -0.26581162
-0.064019866 -0.0074614706 -0.26580572
-0.064017594 -0.0073858509 -0.26578996
-0.064014778 -0.0073060635 -0.26578209
-0.064011358 -0.0072279712 -0.26578823
-0.064008057 -0.0071479678 -0.26579034
-0.064005509 -0.0070702638 -0.26577851
-0.06400238 -0.006992301 -0.26577869
-0.06399861 -0.0069101267 -0.26578873
-0.063995779 -0.0068322932 -0.26578289
-0.06399323 -0.0067545902 -0.26577109
-0.063989736 -0.0066745002 -0.26577717
-0.063986413 -0.0065964507 -0.26578134
-0.063983008 -0.0065164035 -0.26578546
-0.063979901 -0.0064364858 -0.26578355
-0.063976973 -0.0063586105 -0.26577973
-0.063973859 -0.0062786927 -0.26577783
-0.063971125 -0.0062009022 -0.26577002
-0.063968584 -0.0061232001 -0.26575819
-0.063965842 -0.0060454104 -0.26575035
-0.06396281 -0.0059674913 -0.2657485
-0.063959412 -0.0058874432 -0.26575261
-0.063955717 -0.0058072666 -0.26576272
-0.063952044 -0.0057251342 -0.26577079
-0.063949108 -0.0056472588 -0.26576695
-0.063946374 -0.0055694692 -0.26575911
-0.06394317 -0.0054895086 -0.26575923
-0.063939653 -0.0054113716 -0.26576737
-0.063936442 -0.005331412 -0.26576748
-0.063933432 -0.005251538 -0.26576361
-0.063930012 -0.0051734447 -0.26576978
-0.063926615 -0.0050933976 -0.26577386
-0.063924268 -0.0050157811 -0.26575804
-0.063921623 -0.0049380362 -0.26574823
-0.063918516 -0.0048581176 -0.26574636
-0.06391529 -0.0047801118 -0.2657485
-0.063911989 -0.0047001075 -0.26575059
-0.063908875 -0.0046201907 -0.26574871
-0.063906141 -0.0045424011 -0.2657409
-0.063903011 -0.0044644382 -0.26574105
-0.063899711 -0.0043844339 -0.26574317
-0.063896969 -0.0043066442 -0.26573533
-0.063894056 -0.004226815 -0.26572946
-0.063890755 -0.0041468088 -0.26573157
-0.063887432 -0.0040687602 -0.26573572
-0.063884132 -0.0039887577 -0.26573783
-0.063881293 -0.0039109234 -0.26573199
-0.063878283 -0.0038310494 -0.26572812
-0.063875154 -0.0037530866 -0.26572827
-0.063872144 -0.0036732126 -0.26572439
-0.063869305 -0.0035953801 -0.26571855
-0.063866198 -0.0035154615 -0.26571667
-0.063863173 -0.0034375433 -0.26571482
-0.063859768 -0.0033574961 -0.26571894
-0.063856468 -0.0032774918 -0.26572105
-0.063853256 -0.0031975321 -0.26572117
-0.063850328 -0.003119655 -0.26571733
-0.063847393 -0.0030417778 -0.26571351
-0.06384448 -0.0029619485 -0.26570761
-0.063841842 -0.0028842017 -0.26569778
-0.06383834 -0.0028041098 -0.26570392
-0.063834846 -0.0027240198 -0.26571
-0.063832201 -0.0026462749 -0.26570016
-0.06382937 -0.0025684424 -0.26569435
-0.063826159 -0.0024884827 -0.26569444
-0.063823052 -0.0024085641 -0.26569256
-0.063820221 -0.0023307297 -0.26568675
-0.063816994 -0.002252724 -0.2656889
-0.063813321 -0.0021705925 -0.26569694
-0.063810192 -0.0020926297 -0.26569712
-0.063807279 -0.0020128004 -0.26569122
-0.06380444 -0.0019349661 -0.26568538
-0.063801609 -0.0018571336 -0.26567957
-0.063798793 -0.0017773453 -0.2656717
-0.063795857 -0.00169947 -0.26566786
-0.06379275 -0.0016195513 -0.26566598
-0.063789815 -0.001541676 -0.26566213
-0.063786514 -0.0014616735 -0.26566425
-0.063783213 -0.0013816692 -0.26566637
-0.063780084 -0.0013037063 -0.26566651
-0.063776679 -0.0012236591 -0.26567063
-0.063773476 -0.0011436995 -0.26567072
-0.063770078 -0.0010636505 -0.26567483
-0.063766949 -0.00098568946 -0.26567501
-0.063764036 -0.00090585649 -0.26566911
-0.063761391 -0.00082810968 -0.2656593
-0.063758656 -0.00075032189 -0.26565146
-0.063755058 -0.00067018904 -0.26565957
-0.06375166 -0.00059014 -0.26566368
-0.063748553 -0.00051022507 -0.26566178
-0.063745245 -0.00043021888 -0.26566389
-0.063742019 -0.00035221316 -0.26566607
-0.063739285 -0.00027442351 -0.26565823
-0.063736469 -0.00019463524 -0.26565033
-0.063733436 -0.00011671521 -0.26564851
-0.06372986 -3.4626573e-05 -0.26565456
-0.063726366 4.5463443e-05 -0.26566067
-0.063723899 0.00012116693 -0.2656489
-0.063721552 0.00019878522 -0.26563308
-0.063718639 0.00027861446 -0.26562721
-0.063715138 0.00035870448 -0.26563331
-0.06371174 0.00043875352 -0.26563743
-0.063708611 0.00051671453 -0.26563758
-0.063705504 0.00059663132 -0.26563567
-0.063702472 0.00067455135 -0.26563385
-0.063699365 0.00075446814 -0.26563197
-0.063696161 0.00083442964 -0.26563209
-0.063693129 0.00091234967 -0.26563025
-0.063690409 0.00099209324 -0.26562035
-0.06368757 0.0010699257 -0.26561454
-0.06368456 0.0011498015 -0.26561067
-0.063681431 0.0012277644 -0.26561081
-0.063677937 0.0013078544 -0.26561692
-0.063674629 0.0013878569 -0.26561904
-0.063671798 0.0014656913 -0.2656132
-0.063668981 0.0015454777 -0.26560533
-0.063666046 0.0016233549 -0.26560149
-0.063662745 0.0017033573 -0.2656036
-0.063659348 0.0017834045 -0.26560771
-0.063656136 0.001863366 -0.26560783
-0.063652933 0.0019433275 -0.26560792
-0.063649997 0.002021201 -0.26560408
-0.063647263 0.0020989925 -0.26559627
-0.063644156 0.0021789111 -0.26559436
-0.063641123 0.0022568312 -0.26559255
-0.063638017 0.0023367479 -0.26559067
-0.063634515 0.002416838 -0.26559675
-0.063631587 0.0024947133 -0.26559293
-0.063628577 0.0025745872 -0.26558906
-0.063625365 0.0026545487 -0.26558918
-0.063622065 0.0027345512 -0.26559126
-0.06361866 0.0028146002 -0.26559538
-0.063615732 0.0028924756 -0.26559153
-0.063613087 0.0029702224 -0.26558173
-0.063610077 0.0030500945 -0.26557782
-0.063606776 0.0031301007 -0.26557994
-0.06360355 0.0032081064 -0.26558208
-0.063600346 0.0032880679 -0.2655822
-0.063597143 0.0033680275 -0.26558232
-0.063593835 0.0034480318 -0.26558444
-0.0635911 0.0035258196 -0.2655766
-0.063587986 0.0036057383 -0.26557472
-0.063584864 0.003683703 -0.26557487
-0.063582048 0.0037634876 -0.265567
-0.063579015 0.0038414076 -0.26556516
-0.063575812 0.0039213691 -0.26556528
-0.0635726 0.0040013306 -0.2655654
-0.063569106 0.0040814187 -0.26557148
-0.063565999 0.0041613374 -0.26556963
-0.06356363 0.0042369999 -0.26555583
-0.063560814 0.0043167863 -0.26554796
-0.063557781 0.0043947063 -0.26554611
-0.063555144 0.0044724531 -0.26553631
-0.063552231 0.0045522824 -0.26553041
-0.063548535 0.00463246 -0.26554051
-0.063545041 0.0047125518 -0.26554662
-0.063542299 0.0047903396 -0.26553881
-0.063539192 0.0048702564 -0.2655369
-0.063535132 0.0049525648 -0.26555294
-0.063531727 0.0050326083 -0.26555705
-0.063529089 0.0051103551 -0.26554722
-0.063525982 0.0051902737 -0.26554534
-0.063522384 0.0052704085 -0.26555344
-0.063518904 0.0053524524 -0.26555753
-0.063516341 0.0054282006 -0.26554772
-0.063513525 0.0055079889 -0.26553985
-0.063510597 0.0055858642 -0.26553601
-0.063507564 0.0056637842 -0.26553416
-0.063504085 0.0057458282 -0.26553825
-0.063501149 0.0058237053 -0.2655344
-0.063498899 0.0059012789 -0.26551658
-0.063496433 0.0059769843 -0.26550481
-0.06546738 -0.044427507 -0.26644808
-0.065464392 -0.044345677 -0.26644218
-0.065461457 -0.044267803 -0.26643834
-0.065458253 -0.044187844 -0.26643845
-0.065455027 -0.044109836 -0.2664406
-0.065451726 -0.044029832 -0.26644272
-0.0654485 -0.043951824 -0.26644486
-0.065445274 -0.043873817 -0.26644704
-0.065441951 -0.043795768 -0.26645118
-0.065439448 -0.043714158 -0.26643527
-0.065436751 -0.043632459 -0.26642334
-0.065433234 -0.043554321 -0.26643151
-0.065429695 -0.043478139 -0.2664417
-0.065426491 -0.043398179 -0.26644182
-0.065423481 -0.043318305 -0.26643792
-0.065420471 -0.043238431 -0.26643404
-0.065417364 -0.043158516 -0.26643217
-0.065414548 -0.043078728 -0.2664243
-0.065411806 -0.043000937 -0.26641646
-0.065408722 -0.042919066 -0.26641253
-0.065405592 -0.042841103 -0.26641268
-0.065402485 -0.042761184 -0.2664108
-0.065398969 -0.04268305 -0.26641893
-0.065395042 -0.042606696 -0.26643711
-0.065391406 -0.04253047 -0.26644933
-0.06538859 -0.042450681 -0.26644146
-0.065386087 -0.042369071 -0.26642555
-0.065383077 -0.042289197 -0.26642165
-0.065379754 -0.042211145 -0.26642579
-0.065376841 -0.042131316 -0.26641992
-0.065373637 -0.042051356 -0.26642004
-0.065369926 -0.041973133 -0.26643217
-0.065366291 -0.041896909 -0.26644439
-0.065363377 -0.041817077 -0.26643848
-0.065360971 -0.041735508 -0.2664206
-0.065358251 -0.041655764 -0.26641071
-0.065355241 -0.04157589 -0.26640683
-0.065352328 -0.041496061 -0.26640093
-0.065349102 -0.041418053 -0.26640311
-0.065345608 -0.041337963 -0.26640922
-0.065342575 -0.041260041 -0.26640737
-0.065339684 -0.04117826 -0.26639944
-0.065336868 -0.041098472 -0.26639158
-0.065333642 -0.041020464 -0.26639372
-0.065330416 -0.04094246 -0.2663959
-0.065327115 -0.040862456 -0.26639801
-0.065323599 -0.040784318 -0.26640615
-0.065320782 -0.04070453 -0.26639825
-0.065318264 -0.040624872 -0.26638439
-0.065315053 -0.040544912 -0.26638451
-0.065311931 -0.040466949 -0.26638466
-0.065309234 -0.040385254 -0.26637274
-0.065306008 -0.040307246 -0.26637492
-0.065302491 -0.040229108 -0.26638305
-0.065299362 -0.040151149 -0.26638323
-0.065296546 -0.040071361 -0.26637536
-0.065293536 -0.039991483 -0.26637146
-0.065290213 -0.039913435 -0.2663756
-0.065287203 -0.039833561 -0.26637173
-0.065284289 -0.039753731 -0.26636586
-0.06528087 -0.039675638 -0.26637203
-0.065277472 -0.039595589 -0.26637611
-0.065274537 -0.039517716 -0.26637229
-0.065271117 -0.039439619 -0.26637843
-0.065267503 -0.03936144 -0.2663886
-0.065264784 -0.0392817 -0.2663787
-0.065262087 -0.0392 -0.26636678
-0.065259054 -0.039122082 -0.26636493
-0.065255754 -0.039042078 -0.26636708
-0.065252431 -0.038964026 -0.26637119
-0.065249011 -0.038885936 -0.26637736
-0.065245807 -0.038805977 -0.26637748
-0.065242894 -0.038726144 -0.26637161
-0.065240055 -0.038648307 -0.26636577
-0.065237045 -0.038568437 -0.26636189
-0.065234035 -0.038488559 -0.26635802
-0.065231122 -0.03840873 -0.26635212
-0.065227896 -0.038330726 -0.26635429
-0.065224886 -0.038250849 -0.26635039
-0.065222174 -0.038171105 -0.26634052
-0.065218963 -0.038091145 -0.26634064
-0.065215349 -0.038012967 -0.26635078
-0.065211713 -0.03793674 -0.26636297
-0.065208897 -0.037856955 -0.2663551
-0.065206297 -0.0377753 -0.26634118
-0.065203175 -0.037697338 -0.26634133
-0.065199867 -0.037617333 -0.26634344
-0.065196842 -0.037539415 -0.26634163
-0.065193616 -0.037461407 -0.26634377
-0.065190703 -0.037381575 -0.2663379
-0.065187983 -0.037301831 -0.26632801
-0.065184973 -0.037221957 -0.26632413
-0.065181553 -0.037143864 -0.2663303
-0.065178618 -0.03706599 -0.26632646
-0.06517563 -0.036984161 -0.26632053
-0.065171994 -0.036907934 -0.26633272
-0.065168478 -0.036829799 -0.26634088
-0.065165371 -0.036749881 -0.266339
-0.065162338 -0.036671963 -0.26633716
-0.065159328 -0.036592089 -0.26633325
-0.065156318 -0.036512211 -0.26632938
-0.065152995 -0.036434166 -0.26633352
-0.065149866 -0.036356203 -0.2663337
-0.065147348 -0.036276542 -0.26631981
-0.065144144 -0.036196582 -0.26631993
-0.065140918 -0.036118578 -0.26632211
-0.06513761 -0.036038574 -0.26632422
-0.065134585 -0.035960652 -0.26632237
-0.065131769 -0.035880867 -0.26631451
-0.065128855 -0.035801034 -0.26630861
-0.065125339 -0.035722896 -0.26631677
-0.065121934 -0.035642855 -0.26632088
-0.065119006 -0.035564978 -0.26631704
-0.065116093 -0.035485145 -0.26631117
-0.065113373 -0.035405401 -0.26630127
-0.065110363 -0.035325527 -0.2662974
-0.065106943 -0.035247434 -0.26630357
-0.06510333 -0.035169255 -0.2663137
-0.065100104 -0.035091251 -0.26631585
-0.065097578 -0.03501159 -0.26630199
-0.065094471 -0.034931675 -0.26630011
-0.065091051 -0.034853585 -0.26630625
-0.065087922 -0.034775618 -0.2663064
-0.065084815 -0.0346957 -0.26630452
-0.065081708 -0.034615785 -0.26630265
-0.065078877 -0.034537952 -0.2662968
-0.06507577 -0.034458034 -0.26629493
-0.065072544 -0.034380026 -0.2662971
-0.065069512 -0.034302108 -0.26629525
-0.065066695 -0.03422232 -0.26628739
-0.065063588 -0.034142405 -0.26628548
-0.065060459 -0.034064442 -0.26628566
-0.065057255 -0.033984482 -0.26628575
-0.065054618 -0.033906735 -0.26627594
-0.065051898 -0.033826992 -0.26626605
-0.065048598 -0.033746988 -0.26626819
-0.065045275 -0.033668935 -0.26627231
-0.065042146 -0.033590972 -0.26627249
-0.065039232 -0.033511143 -0.26626661
-0.065036103 -0.03343318 -0.26626676
-0.065032803 -0.033353176 -0.26626888
-0.065029383 -0.033275083 -0.26627502
-0.065026253 -0.03319712 -0.2662752
-0.06502334 -0.033117291 -0.26626933
-0.065020211 -0.033039328 -0.26626948
-0.065017007 -0.032959364 -0.26626956
-0.065014191 -0.03287958 -0.2662617
-0.065010965 -0.032801572 -0.26626387
-0.065007351 -0.032723393 -0.26627401
-0.065003641 -0.03264517 -0.26628613
-0.065000802 -0.032567337 -0.26628032
-0.064998403 -0.032485768 -0.26626241
-0.064995758 -0.032408021 -0.26625258
-0.064992748 -0.032328147 -0.2662487
-0.064989522 -0.032250144 -0.26625085
-0.064986028 -0.03217005 -0.26625696
-0.064982705 -0.032092005 -0.26626113
-0.064979672 -0.032014083 -0.26625928
-0.064977467 -0.0319326 -0.26623738
-0.064974941 -0.031852946 -0.26622352
-0.064970821 -0.031776503 -0.26624569
-0.064967401 -0.031698409 -0.26625183
-0.064964876 -0.031618752 -0.26623797
-0.064961359 -0.031540617 -0.26624611
-0.064957842 -0.031462479 -0.26625425
-0.064954638 -0.03138252 -0.26625437
-0.064951919 -0.031302772 -0.2662445
-0.064949274 -0.031225029 -0.26623467
-0.064946055 -0.031147022 -0.26623684
-0.064942457 -0.031066889 -0.26624495
-0.064939231 -0.030988883 -0.26624709
-0.064936414 -0.030909095 -0.26623923
-0.064933389 -0.030831177 -0.26623738
-0.064930163 -0.030753169 -0.26623952
-0.064926863 -0.030673165 -0.26624164
-0.064923927 -0.03059529 -0.2662378
-0.064920798 -0.030517327 -0.26623797
-0.0649174 -0.030437279 -0.26624209
-0.064914659 -0.03035949 -0.26623425
-0.064911649 -0.030279616 -0.26623034
-0.064908624 -0.030201696 -0.26622853
-0.064905614 -0.030121822 -0.26622465
-0.064902388 -0.030043814 -0.2662268
-0.064899862 -0.029964158 -0.26621294
-0.064897239 -0.029884458 -0.26620108
-0.064894214 -0.029806539 -0.26619923
-0.064890698 -0.029728401 -0.26620737
-0.064886689 -0.029650049 -0.26622552
-0.064883269 -0.029571958 -0.26623166
-0.064880647 -0.029492255 -0.26621979
-0.06487783 -0.029412467 -0.26621193
-0.064874902 -0.029334594 -0.26620808
-0.064872183 -0.029254848 -0.26619822
-0.064869642 -0.029177144 -0.26618639
-0.064866632 -0.02909727 -0.26618251
-0.064863406 -0.029019266 -0.26618466
-0.064860396 -0.028939392 -0.26618078
-0.064857461 -0.028861515 -0.26617694
-0.064853944 -0.028783379 -0.2661851
-0.064850643 -0.028703375 -0.26618719
-0.064847417 -0.028625369 -0.26618937
-0.064843804 -0.02854719 -0.2661995
-0.064840794 -0.028467316 -0.26619563
-0.064838149 -0.028389569 -0.26618579
-0.064835042 -0.028309651 -0.26618391
-0.064831622 -0.028231561 -0.26619005
-0.064828791 -0.028153727 -0.26618421
-0.064825587 -0.028073765 -0.26618433
-0.064821951 -0.027997542 -0.26619655
-0.064818546 -0.027917493 -0.26620063
-0.064815909 -0.027839746 -0.26619083
-0.064813189 -0.027760003 -0.26618093
-0.064810261 -0.027682127 -0.26617712
-0.064807542 -0.027602382 -0.26616722
-0.064804822 -0.027522638 -0.26615736
-0.064801499 -0.02744459 -0.2661615
-0.064797983 -0.027366454 -0.26616967
-0.064794369 -0.027288273 -0.2661798
-0.064791434 -0.027210398 -0.26617599
-0.064788811 -0.027130697 -0.26616412
-0.064785495 -0.027052648 -0.26616827
-0.0647818 -0.026972469 -0.26617837
-0.064779162 -0.026894724 -0.26616853
-0.06477654 -0.026815023 -0.26615667
-0.064773314 -0.026737018 -0.26615882
-0.064769991 -0.026658967 -0.26616296
-0.064767569 -0.026579354 -0.26614711
-0.06476485 -0.02649961 -0.26613724
-0.06476102 -0.026423298 -0.26615342
-0.064757422 -0.026343163 -0.2661615
-0.064754687 -0.026265375 -0.26615369
-0.064751968 -0.026185632 -0.2661438
-0.06474933 -0.026107885 -0.26613399
-0.06474632 -0.026028011 -0.26613009
-0.0647429 -0.025949918 -0.26613626
-0.064739279 -0.025871739 -0.26614642
-0.064735569 -0.025793515 -0.26615855
-0.064732343 -0.025715509 -0.2661607
-0.064729527 -0.025635723 -0.26615283
-0.06472671 -0.025555935 -0.26614496
-0.064723976 -0.025478145 -0.26613712
-0.064720556 -0.025400054 -0.26614326
-0.064716846 -0.02532183 -0.26615542
-0.06471391 -0.025243953 -0.26615158
-0.064711489 -0.02516434 -0.26613572
-0.064708769 -0.025084596 -0.26612586
-0.064706326 -0.025006935 -0.26611203
-0.064703315 -0.024927061 -0.26610816
-0.064699896 -0.024848968 -0.26611429
-0.064696863 -0.02477105 -0.26611245
-0.064693853 -0.024691176 -0.26610857
-0.064690627 -0.024613168 -0.26611072
-0.064687304 -0.02453512 -0.26611489
-0.064684376 -0.024457244 -0.26611105
-0.064681068 -0.02437724 -0.26611316
-0.064677745 -0.024299191 -0.2661173
-0.064674832 -0.02421936 -0.26611143
-0.064671904 -0.024141483 -0.26610762
-0.064669162 -0.024063693 -0.26609978
-0.064666152 -0.023983819 -0.26609588
-0.064663023 -0.023905857 -0.26609606
-0.064659998 -0.023827937 -0.26609421
-0.064656891 -0.02374802 -0.26609233
-0.064653762 -0.023670057 -0.26609248
-0.064650148 -0.023591878 -0.26610264
-0.064646631 -0.023513742 -0.26611078
-0.064643718 -0.023433911 -0.26610491
-0.06464088 -0.023356078 -0.26609907
-0.064637654 -0.023278072 -0.26610124
-0.064634256 -0.023198025 -0.26610532
-0.064631611 -0.023120278 -0.26609552
-0.064628899 -0.023040535 -0.26608562
-0.064625673 -0.022962527 -0.2660878
-0.064622447 -0.022884522 -0.26608995
-0.064619631 -0.022804735 -0.26608208
-0.064616993 -0.022726988 -0.26607224
-0.064613983 -0.022647114 -0.26606837
-0.06461066 -0.022569066 -0.26607251
-0.06460695 -0.022490842 -0.26608467
-0.064603232 -0.02241262 -0.2660968
-0.064599909 -0.02233457 -0.26610094
-0.064597093 -0.022254784 -0.26609308
-0.064594649 -0.022177123 -0.26607928
-0.064591736 -0.022097293 -0.26607338
-0.064588413 -0.022019243 -0.26607752
-0.064585485 -0.021941368 -0.2660737
-0.064582378 -0.021861449 -0.26607183
-0.064578757 -0.02178327 -0.26608196
-0.064575434 -0.021705221 -0.2660861
-0.064573109 -0.021625649 -0.26606825
-0.064570762 -0.021548033 -0.26605242
-0.064567655 -0.021468116 -0.26605055
-0.064564139 -0.02138998 -0.26605868
-0.064561009 -0.021312017 -0.26605886
-0.06455788 -0.021234054 -0.26605901
-0.064554773 -0.021154137 -0.26605713
-0.064551644 -0.021076174 -0.26605731
-0.064548813 -0.020998342 -0.26605147
-0.064546384 -0.020918727 -0.26603562
-0.064543843 -0.020841025 -0.26602378
-0.064540714 -0.020763062 -0.26602393
-0.06453722 -0.020682972 -0.26603004
-0.064533606 -0.020604791 -0.26604018
-0.064530283 -0.020526743 -0.26604435
-0.06452737 -0.020446911 -0.26603848
-0.064524047 -0.020368863 -0.26604262
-0.064520434 -0.020290684 -0.26605275
-0.064517617 -0.020210896 -0.26604488
-0.064514875 -0.020133106 -0.26603705
-0.064511746 -0.020055143 -0.26603723
-0.064508349 -0.019975096 -0.26604134
-0.064505219 -0.019897133 -0.26604149
-0.064502291 -0.019819258 -0.26603764
-0.064499065 -0.01974125 -0.26603979
-0.064496249 -0.019661464 -0.26603192
-0.064493708 -0.01958376 -0.26602012
-0.0644904 -0.019503757 -0.26602221
-0.064487077 -0.019425707 -0.26602638
-0.064484246 -0.019347874 -0.26602054
-0.064481333 -0.019268043 -0.26601467
-0.064478397 -0.019190168 -0.26601082
-0.064475074 -0.019112118 -0.26601499
-0.064471871 -0.019032158 -0.26601508
-0.064468645 -0.01895415 -0.26601726
-0.064465523 -0.018876189 -0.26601741
-0.064462706 -0.018796401 -0.26600954
-0.064459674 -0.018718481 -0.26600769
-0.064456448 -0.018640475 -0.26600987
-0.064453438 -0.018560601 -0.26600596
-0.064450704 -0.018482812 -0.26599813
-0.064447962 -0.018405022 -0.26599032
-0.064444758 -0.018325061 -0.26599044
-0.064442024 -0.018247273 -0.2659826
-0.064439088 -0.018169396 -0.26597875
-0.064435884 -0.018089436 -0.26597887
-0.064433046 -0.018011602 -0.26597303
-0.064430214 -0.017933769 -0.26596719
-0.064426616 -0.017853636 -0.2659753
-0.064423099 -0.0177755 -0.26598346
-0.064419799 -0.017695496 -0.26598558
-0.064416863 -0.017617619 -0.26598173
-0.064414032 -0.017539786 -0.26597589
-0.064410903 -0.017461823 -0.26597607
-0.064407699 -0.017381864 -0.26597619
-0.06440457 -0.017303901 -0.26597634
-0.06440144 -0.017225938 -0.26597649
-0.064398237 -0.017145976 -0.26597661
-0.064395398 -0.017068144 -0.26597077
-0.06439247 -0.016990267 -0.26596695
-0.064389266 -0.016910307 -0.26596707
-0.064386427 -0.016832475 -0.26596123
-0.064383321 -0.016752556 -0.26595932
-0.064380094 -0.016674552 -0.2659615
-0.064376771 -0.016596502 -0.26596564
-0.064373568 -0.01651654 -0.26596576
-0.064370736 -0.016438708 -0.26595992
-0.064367898 -0.016360875 -0.26595411
-0.064364597 -0.016280871 -0.26595622
-0.064361177 -0.016202778 -0.26596236
-0.06435807 -0.016122861 -0.26596045
-0.064355329 -0.016045071 -0.26595265
-0.064352401 -0.015967196 -0.2659488
-0.064348996 -0.015887149 -0.26595291
-0.064345382 -0.01580897 -0.26596308
-0.06434235 -0.01573105 -0.26596123
-0.064339533 -0.015651261 -0.26595336
-0.064336412 -0.015573299 -0.26595351
-0.064333282 -0.015495336 -0.26595366
-0.064330369 -0.015415506 -0.26594779
-0.064327046 -0.015337456 -0.26595193
-0.064323448 -0.015257322 -0.26596004
-0.06432052 -0.015179446 -0.26595622
-0.064318076 -0.015101787 -0.26594239
-0.064315729 -0.01502417 -0.26592657
-0.0643133 -0.014944555 -0.26591071
-0.064310372 -0.01486668 -0.26590687
-0.06430658 -0.014786459 -0.26591897
-0.064302765 -0.014708193 -0.2659331
-0.064299643 -0.01463023 -0.26593328
-0.064296827 -0.014550443 -0.26592541
-0.064293794 -0.014472523 -0.26592356
-0.064290397 -0.014392477 -0.26592767
-0.064287171 -0.01431447 -0.26592982
-0.064284042 -0.014236508 -0.26592997
-0.064281128 -0.014156677 -0.2659241
-0.064278096 -0.014078757 -0.26592225
-0.064274892 -0.013998796 -0.26592237
-0.064271763 -0.013920833 -0.26592255
-0.064268835 -0.013842957 -0.2659187
-0.064265825 -0.013763083 -0.2659148
-0.064262792 -0.013685164 -0.26591298
-0.064259589 -0.013605203 -0.2659131
-0.064256363 -0.013527197 -0.26591524
-0.06425304 -0.013449147 -0.26591942
-0.064249739 -0.013369143 -0.26592153
-0.064246707 -0.013291224 -0.26591969
-0.064243793 -0.013211394 -0.26591378
-0.064241156 -0.013133647 -0.26590395
-0.064238317 -0.013055814 -0.26589814
-0.064234823 -0.012975723 -0.26590425
-0.064231403 -0.012897631 -0.26591039
-0.064228095 -0.012817627 -0.2659125
-0.064225167 -0.012739751 -0.26590866
-0.064222232 -0.012661874 -0.26590484
-0.064219221 -0.012582 -0.26590094
-0.064215995 -0.012503995 -0.26590312
-0.064213082 -0.012424164 -0.26589721
-0.064210735 -0.012346547 -0.26588142
-0.064208098 -0.012268801 -0.26587158
-0.064204775 -0.012190752 -0.26587576
-0.06420128 -0.012110661 -0.26588184
-0.064198248 -0.012032742 -0.26588002
-0.064195044 -0.011952781 -0.26588011
-0.064191721 -0.011874732 -0.26588428
-0.064188711 -0.011794858 -0.26588041
-0.064185776 -0.011716982 -0.26587656
-0.064182475 -0.011636978 -0.26587868
-0.064179249 -0.011558971 -0.26588082
-0.064176023 -0.011480965 -0.26588297
-0.064172916 -0.011401048 -0.26588109
-0.064170182 -0.011323258 -0.26587325
-0.064167269 -0.011243427 -0.26586738
-0.064164139 -0.011165465 -0.26586753
-0.06416072 -0.011087373 -0.2658737
-0.064157806 -0.011007542 -0.26586783
-0.064155065 -0.010929752 -0.26585999
-0.064152054 -0.010849877 -0.26585612
-0.06414903 -0.010771959 -0.26585427
-0.0641459 -0.010693995 -0.26585442
-0.0641426 -0.010613991 -0.26585653
-0.064139567 -0.010536071 -0.26585472
-0.064136654 -0.010456241 -0.26584882
-0.064133525 -0.010378278 -0.26584899
-0.064130396 -0.010300315 -0.26584914
-0.064127386 -0.010220442 -0.26584527
-0.064124264 -0.010142478 -0.26584542
-0.064121053 -0.010062519 -0.26584554
-0.064118028 -0.0099845985 -0.26584369
-0.064115092 -0.0099067222 -0.26583987
-0.064111888 -0.0098267617 -0.26583999
-0.064108856 -0.0097488426 -0.26583815
-0.06410604 -0.0096690552 -0.26583028
-0.064103305 -0.0095912656 -0.26582244
-0.064099707 -0.0095111309 -0.26583055
-0.064096019 -0.0094309542 -0.26584065
-0.064092889 -0.0093529914 -0.2658408
-0.064089686 -0.0092730317 -0.26584089
-0.064086556 -0.0091950679 -0.26584107
-0.064083822 -0.0091172792 -0.26583323
-0.064081006 -0.0090374909 -0.26582536
-0.064077877 -0.0089595281 -0.26582551
-0.064074673 -0.0088795675 -0.26582563
-0.06407135 -0.008801518 -0.2658298
-0.064067848 -0.008721428 -0.26583588
-0.064064741 -0.0086415093 -0.265834
-0.06406191 -0.0085636768 -0.26582819
-0.064059168 -0.0084858872 -0.26582035
-0.064056061 -0.0084059704 -0.26581848
-0.064052835 -0.0083279638 -0.26582062
-0.064049825 -0.0082480907 -0.26581675
-0.064047091 -0.0081703011 -0.26580891
-0.064043589 -0.0080902092 -0.26581502
-0.064040169 -0.0080121178 -0.26582116
-0.064037062 -0.0079322001 -0.26581928
-0.064034134 -0.0078543238 -0.26581544
-0.064031199 -0.0077764476 -0.26581162
-0.064027995 -0.007696487 -0.26581171
-0.064024687 -0.0076164827 -0.26581383
-0.064021565 -0.0075385198 -0.26581401
-0.064018749 -0.0074587334 -0.26580611
-0.064016379 -0.0073830709 -0.26579234
-0.064013563 -0.0073032835 -0.26578447
-0.06401024 -0.0072252341 -0.26578861
-0.06400694 -0.0071452297 -0.26579073
-0.064004302 -0.0070674838 -0.2657809
-0.06400127 -0.0069895638 -0.26577908
-0.0639975 -0.0069073886 -0.26578912
-0.063994564 -0.0068295132 -0.26578528
-0.063992023 -0.0067518093 -0.26577348
-0.063988626 -0.006671763 -0.26577756
-0.063985206 -0.0065936698 -0.26578373
-0.063981898 -0.0065136664 -0.26578581
-0.063978694 -0.0064337067 -0.26578593
-0.063975766 -0.0063558295 -0.26578212
-0.063972652 -0.0062759118 -0.26578021
-0.063970014 -0.006198165 -0.26577041
-0.063967474 -0.0061204629 -0.26575857
-0.063964739 -0.0060426733 -0.26575074
-0.063961707 -0.0059647541 -0.26574892
-0.063958302 -0.005884706 -0.26575303
-0.063954517 -0.0058044856 -0.26576513
-0.063950941 -0.005722397 -0.26577115
-0.063948005 -0.0056445207 -0.26576734
-0.063945271 -0.005566732 -0.2657595
-0.06394206 -0.0054867715 -0.26575962
-0.063938372 -0.0054065939 -0.26576972
-0.063935339 -0.0053286739 -0.26576787
-0.063932329 -0.0052487999 -0.265764
-0.063928813 -0.0051706638 -0.26577213
-0.063925512 -0.0050906595 -0.26577425
-0.063923068 -0.0050130002 -0.26576042
-0.063920423 -0.0049352553 -0.26575062
-0.063917316 -0.0048553366 -0.26574874
-0.063914187 -0.0047773756 -0.26574889
-0.06391079 -0.0046973266 -0.265753
-0.063907683 -0.0046174098 -0.26575112
-0.063905045 -0.004539663 -0.26574129
-0.063901916 -0.0044617001 -0.26574144
-0.063898511 -0.0043816529 -0.26574555
-0.063895702 -0.0043018647 -0.26573765
-0.063892864 -0.0042240322 -0.26573184
-0.063889563 -0.0041440278 -0.26573396
-0.063886337 -0.0040660221 -0.2657361
-0.063882932 -0.0039859749 -0.26574022
-0.063880198 -0.0039081853 -0.26573238
-0.063877188 -0.0038283113 -0.2657285
-0.063873962 -0.0037503056 -0.26573065
-0.063870952 -0.0036704317 -0.26572677
-0.06386812 -0.0035925992 -0.26572093
-0.06386511 -0.0035127234 -0.26571706
-0.063861981 -0.0034347624 -0.26571721
-0.063858576 -0.0033547133 -0.26572132
-0.063855276 -0.0032747108 -0.26572344
-0.063852169 -0.0031947941 -0.26572156
-0.063849233 -0.0031169169 -0.26571772
-0.063846208 -0.0030389968 -0.2657159
-0.063843295 -0.0029591657 -0.26571
-0.06384065 -0.0028814189 -0.26570016
-0.063837253 -0.0028013736 -0.26570427
-0.063833654 -0.0027212389 -0.26571238
