# .PCD v0.7 - Point Cloud Data file format
VERSION 0.7
FIELDS x y z
SIZE 4 4 4
TYPE F F F
COUNT 1 1 1
WIDTH 1297
HEIGHT 1
VIEWPOINT 0 0 0 1 0 0 0
POINTS 1297
DATA ascii
-0.14498125 -0.031559844 -0.2702097
-0.14497812 -0.031481881 -0.27020985
-0.14497462 -0.031401791 -0.27021596
-0.14497159 -0.031323869 -0.27021414
-0.14496878 -0.031244082 -0.27020627
-0.14496596 -0.031164296 -0.27019837
-0.14496274 -0.031084334 -0.27019849
-0.14495933 -0.031006241 -0.27020463
-0.1449562 -0.03092828 -0.27020481
-0.14495309 -0.030848362 -0.27020293
-0.14494976 -0.030770313 -0.27020708
-0.14494646 -0.030690309 -0.27020919
-0.14494333 -0.030612346 -0.27020934
-0.14494023 -0.030532427 -0.27020746
-0.1449369 -0.030454379 -0.27021164
-0.14493309 -0.030376114 -0.27022576
-0.14493005 -0.030298196 -0.27022392
-0.14492695 -0.030218277 -0.27022204
-0.14492342 -0.030140141 -0.27023017
-0.14492039 -0.030062221 -0.27022836
-0.14491767 -0.029982477 -0.27021849
-0.14491446 -0.029902518 -0.27021858
-0.14491153 -0.029824641 -0.27021477
-0.14490862 -0.029744809 -0.2702089
-0.14490589 -0.029665066 -0.270199
-0.14490347 -0.029585451 -0.27018315
-0.14490046 -0.029505577 -0.27017927
-0.14489675 -0.029427355 -0.2701914
-0.14489381 -0.02934948 -0.27018756
-0.1448908 -0.029269606 -0.27018368
-0.14488767 -0.029191641 -0.27018386
-0.14488424 -0.02911355 -0.27019
-0.14488123 -0.029033676 -0.27018613
-0.14487872 -0.028954018 -0.27017227
-0.14487579 -0.028874189 -0.2701664
-0.14487198 -0.02879592 -0.27018052
-0.14486787 -0.028719481 -0.2702027
-0.14486545 -0.028637912 -0.27018479
-0.14486322 -0.028558383 -0.27016491
-0.14485939 -0.028482072 -0.27018112
-0.14485519 -0.028403632 -0.27020323
-0.14485228 -0.028323803 -0.27019736
-0.14484966 -0.028244102 -0.2701855
-0.14484653 -0.028166138 -0.27018565
-0.14484341 -0.028086223 -0.27018377
-0.1448407 -0.028006479 -0.27017391
-0.14483766 -0.027928557 -0.27017206
-0.14483404 -0.027850378 -0.27018219
-0.14483094 -0.027770463 -0.27018034
-0.14482832 -0.027690761 -0.27016845
-0.1448247 -0.027612582 -0.27017862
-0.14482118 -0.027534446 -0.27018675
-0.14481826 -0.027454615 -0.27018088
-0.14481504 -0.027376609 -0.27018303
-0.14481211 -0.027298734 -0.27017921
-0.14480948 -0.027219031 -0.27016732
-0.14480656 -0.027139202 -0.27016145
-0.14480355 -0.027059328 -0.27015758
-0.14480053 -0.02698141 -0.27015573
-0.1447973 -0.026903402 -0.27015787
-0.14479388 -0.026825309 -0.27016404
-0.14479046 -0.026747216 -0.27017018
-0.14478695 -0.026667126 -0.27017629
-0.14478402 -0.02658925 -0.27017248
-0.14478101 -0.026509374 -0.27016857
-0.14477818 -0.026431544 -0.27016276
-0.14477517 -0.02635167 -0.27015889
-0.14477174 -0.026273577 -0.27016503
-0.14476842 -0.026195526 -0.27016917
-0.14476541 -0.026115654 -0.27016529
-0.14476249 -0.026035823 -0.27015942
-0.14475936 -0.02595786 -0.27015957
-0.14475594 -0.025879767 -0.27016574
-0.14475252 -0.025801674 -0.27017188
-0.14474981 -0.02572193 -0.27016202
-0.14474648 -0.025643881 -0.27016616
-0.14474307 -0.025563834 -0.27017027
-0.14474005 -0.025485914 -0.27016842
-0.14473684 -0.025405955 -0.27016854
-0.144734 -0.025328122 -0.2701627
-0.1447309 -0.025248203 -0.27016082
-0.14472796 -0.025170326 -0.27015701
-0.14472553 -0.025090713 -0.27014112
-0.14472261 -0.025010882 -0.27013525
-0.14471909 -0.024932746 -0.27014339
-0.14471538 -0.024854524 -0.27015555
-0.14471234 -0.024776604 -0.2701537
-0.14470972 -0.024696905 -0.27014184
-0.14470682 -0.024617072 -0.27013597
-0.14470358 -0.024539068 -0.27013811
-0.14470038 -0.024459107 -0.27013823
-0.14469706 -0.024381056 -0.27014238
-0.14469382 -0.024303051 -0.27014455
-0.14469092 -0.02422322 -0.27013868
-0.14468828 -0.024145473 -0.27012885
-0.14468545 -0.024065686 -0.27012098
-0.14468274 -0.023985943 -0.27011108
-0.14467961 -0.02390798 -0.27011126
-0.14467579 -0.023829713 -0.27012539
-0.14467227 -0.023751579 -0.27013355
-0.14466916 -0.023671661 -0.27013165
-0.14466633 -0.023593828 -0.27012584
-0.14466321 -0.023513909 -0.27012396
-0.14466009 -0.023435948 -0.27012411
-0.14465667 -0.023357855 -0.27013028
-0.14465326 -0.023277808 -0.27013436
-0.14465092 -0.023200192 -0.27011853
-0.14464879 -0.023120707 -0.27009669
-0.14464536 -0.023042616 -0.27010286
-0.14464194 -0.022964522 -0.270109
-0.14463903 -0.022884691 -0.27010313
-0.14463611 -0.02280486 -0.27009726
-0.14463298 -0.022726897 -0.2700974
-0.14462985 -0.022648934 -0.27009755
-0.14462695 -0.022569105 -0.27009168
-0.14462402 -0.022489272 -0.27008581
-0.14462148 -0.02241157 -0.27007398
-0.14461885 -0.022331869 -0.27006212
-0.14461564 -0.022253864 -0.27006426
-0.14461201 -0.022175685 -0.27007443
-0.1446089 -0.022095768 -0.27007252
-0.14460607 -0.022017933 -0.27006671
-0.14460334 -0.02193819 -0.27005684
-0.14460032 -0.021860272 -0.270055
-0.14459699 -0.021782221 -0.27005914
-0.14459418 -0.021702435 -0.27005127
-0.14459126 -0.021622602 -0.2700454
-0.14458784 -0.02154451 -0.27005154
-0.14458433 -0.021466374 -0.2700597
-0.14458139 -0.021388499 -0.27005586
-0.14457858 -0.021308711 -0.27004799
-0.14457545 -0.021230748 -0.27004814
-0.14457214 -0.021150745 -0.27005026
-0.1445694 -0.021072956 -0.27004242
-0.14456648 -0.020993125 -0.27003655
-0.14456345 -0.020915205 -0.27003473
-0.14456032 -0.020837242 -0.27003488
-0.14455701 -0.020757239 -0.270037
-0.14455447 -0.020679535 -0.27002516
-0.14455156 -0.020599704 -0.27001929
-0.14454794 -0.020521525 -0.27002943
-0.14454462 -0.020443477 -0.2700336
-0.1445419 -0.020363731 -0.2700237
-0.14453916 -0.020285942 -0.2700159
-0.14453603 -0.020207979 -0.27001604
-0.14453253 -0.020127889 -0.27002215
-0.1445294 -0.020049926 -0.2700223
-0.14452659 -0.019970139 -0.27001444
-0.14452355 -0.019892219 -0.27001262
-0.14452033 -0.019814214 -0.27001476
-0.14451721 -0.019734297 -0.27001289
-0.14451399 -0.019656289 -0.27001503
-0.14451087 -0.019578326 -0.27001518
-0.14450786 -0.019498453 -0.27001131
-0.14450462 -0.019420447 -0.27001345
-0.1445013 -0.019342398 -0.27001762
-0.14449838 -0.019262567 -0.27001175
-0.14449525 -0.019184604 -0.2700119
-0.14449243 -0.019104816 -0.27000403
-0.1444899 -0.019027114 -0.2699922
-0.14448677 -0.018949151 -0.26999235
-0.14448336 -0.018869104 -0.26999646
-0.14448033 -0.018791184 -0.26999465
-0.14447729 -0.018713266 -0.2699928
-0.144474 -0.018633261 -0.26999491
-0.14447068 -0.018555213 -0.26999909
-0.14446744 -0.018477207 -0.27000123
-0.14446452 -0.018397376 -0.26999536
-0.1444618 -0.018319586 -0.26998752
-0.14445898 -0.018239798 -0.26997966
-0.14445566 -0.018161749 -0.2699838
-0.14445212 -0.018083613 -0.26999193
-0.14444903 -0.018003697 -0.26999006
-0.1444456 -0.017925603 -0.26999623
-0.14444228 -0.017847555 -0.27000037
-0.14443965 -0.017767854 -0.26998848
-0.14443672 -0.017689977 -0.26998466
-0.1444336 -0.01761006 -0.26998278
-0.14443135 -0.017532486 -0.26996496
-0.14442872 -0.01745474 -0.26995516
-0.14442521 -0.01737465 -0.26996124
-0.1444217 -0.017296514 -0.2699694
-0.14441808 -0.017218335 -0.26997954
-0.14441468 -0.017138287 -0.26998365
-0.14441213 -0.017060585 -0.26997182
-0.1444097 -0.01698097 -0.26995596
-0.14440668 -0.01690305 -0.26995412
-0.14440297 -0.016824828 -0.26996627
-0.14439966 -0.016744824 -0.26996839
-0.14439702 -0.016667079 -0.26995856
-0.14439398 -0.016589159 -0.26995671
-0.14439078 -0.016509198 -0.26995683
-0.14438814 -0.016431453 -0.26994699
-0.1443852 -0.016353576 -0.26994318
-0.1443817 -0.016273485 -0.26994926
-0.14437857 -0.016195523 -0.26994944
-0.14437555 -0.016117603 -0.26994759
-0.14437214 -0.016037555 -0.2699517
-0.14436901 -0.015959593 -0.26995188
-0.14436588 -0.015881632 -0.26995203
-0.14436267 -0.01580167 -0.26995215
-0.14435984 -0.015723838 -0.26994631
-0.14435683 -0.015643964 -0.26994243
-0.1443534 -0.01556587 -0.2699486
-0.14435086 -0.015488167 -0.26993677
-0.14434853 -0.015408596 -0.26991889
-0.14434452 -0.015330244 -0.26993704
-0.14434044 -0.015249894 -0.26995513
-0.14433751 -0.015172018 -0.26995128
-0.14433467 -0.015094185 -0.26994547
-0.14433146 -0.015014225 -0.26994556
-0.14432912 -0.014936608 -0.26992977
-0.14432718 -0.01485721 -0.2699039
-0.14432395 -0.014779205 -0.26990607
-0.14432013 -0.014700938 -0.2699202
-0.14431654 -0.014620805 -0.26992831
-0.14431311 -0.014542712 -0.26993445
-0.14430989 -0.014464706 -0.26993662
-0.14430717 -0.014384962 -0.26992673
-0.14430472 -0.014307301 -0.26991293
-0.14430179 -0.014229426 -0.26990908
-0.14429867 -0.014149508 -0.26990721
-0.14429575 -0.014071632 -0.26990336
-0.14429301 -0.013993843 -0.26989555
-0.14428931 -0.013913666 -0.26990563
-0.1442855 -0.0138354 -0.26991978
-0.14428268 -0.013755613 -0.26991192
-0.14428043 -0.013678039 -0.26989409
-0.1442775 -0.013600163 -0.26989025
-0.14427429 -0.013520203 -0.26989037
-0.14427164 -0.013442457 -0.26988053
-0.144269 -0.01336471 -0.26987073
-0.14426591 -0.013284793 -0.26986885
-0.14426248 -0.0132067 -0.26987499
-0.14425915 -0.013128651 -0.26987913
-0.14425585 -0.013048647 -0.26988125
-0.14425194 -0.012970338 -0.2698974
-0.14424844 -0.012890248 -0.26990351
-0.1442457 -0.012812458 -0.26989567
-0.14424257 -0.012734495 -0.26989585
-0.14423917 -0.012654448 -0.26989993
-0.14423624 -0.012576573 -0.26989609
-0.14423323 -0.012496698 -0.26989222
-0.14423029 -0.012418821 -0.2698884
-0.14422785 -0.012341162 -0.26987457
-0.14422484 -0.012261288 -0.2698707
-0.1442215 -0.012183239 -0.26987484
-0.14421801 -0.012103148 -0.26988095
-0.14421497 -0.012025229 -0.2698791
-0.14421214 -0.011947396 -0.26987326
-0.14420913 -0.011867522 -0.26986939
-0.1442062 -0.011789646 -0.26986557
-0.14420299 -0.011709685 -0.26986569
-0.14419986 -0.011631723 -0.26986584
-0.14419693 -0.011553846 -0.269862
-0.14419371 -0.011473886 -0.26986212
-0.14419079 -0.011396009 -0.2698583
-0.14418757 -0.011316049 -0.26985839
-0.14418425 -0.011237999 -0.26986253
-0.14418131 -0.011160124 -0.26985872
-0.14417821 -0.011080206 -0.26985684
-0.14417498 -0.0110022 -0.26985899
-0.14417167 -0.010922196 -0.2698611
-0.14416884 -0.010844363 -0.26985526
-0.14416601 -0.01076653 -0.26984945
-0.14416289 -0.010686614 -0.26984757
-0.14415996 -0.010608737 -0.26984373
-0.14415704 -0.010528906 -0.26983786
-0.14415421 -0.010451074 -0.26983202
-0.14415099 -0.010373067 -0.26983416
-0.14414729 -0.01029289 -0.26984426
-0.14414386 -0.010214798 -0.26985043
-0.14414085 -0.010134924 -0.26984656
-0.14413802 -0.010057091 -0.26984072
-0.14413498 -0.0099791717 -0.26983887
-0.14413187 -0.0098992549 -0.26983699
-0.14412865 -0.0098212482 -0.26983917
-0.14412583 -0.0097414609 -0.26983127
-0.14412309 -0.0096636713 -0.26982343
-0.14411977 -0.0095856218 -0.2698276
-0.14411657 -0.0095056612 -0.26982772
-0.14411372 -0.0094278287 -0.26982188
-0.14411043 -0.0093478244 -0.269824
-0.1441073 -0.0092698624 -0.26982415
-0.14410417 -0.0091918986 -0.26982433
-0.14410105 -0.0091119818 -0.26982242
-0.14409792 -0.009034019 -0.2698226
-0.14409433 -0.0089538852 -0.2698307
-0.14409111 -0.0088739246 -0.26983082
-0.14408799 -0.0087959617 -0.26983097
-0.14408505 -0.0087180855 -0.26982713
-0.14408234 -0.0086383419 -0.26981726
-0.14408018 -0.0085608121 -0.26979744
-0.14407735 -0.0084829796 -0.2697916
-0.14407316 -0.0084025851 -0.26981169
-0.14406918 -0.008322278 -0.26982778
-0.14406633 -0.0082444455 -0.26982194
-0.14406408 -0.0081668729 -0.26980415
-0.14406155 -0.0080891699 -0.26979232
-0.1440589 -0.0080114231 -0.26978251
-0.14405608 -0.0079316357 -0.26977462
-0.14405295 -0.0078536738 -0.26977479
-0.14404956 -0.0077736257 -0.26977891
-0.14404596 -0.0076934928 -0.26978701
-0.14404273 -0.0076154862 -0.26978916
-0.14403982 -0.0075356551 -0.26978326
-0.14403668 -0.0074576922 -0.26978344
-0.144033 -0.0073775155 -0.26979354
-0.14402996 -0.0072995964 -0.26979169
-0.14402685 -0.0072196787 -0.26978981
-0.14402343 -0.0071415864 -0.26979595
-0.14402062 -0.0070617991 -0.26978809
-0.14401788 -0.0069840094 -0.26978028
-0.14401504 -0.0069061769 -0.26977444
-0.14401211 -0.0068283007 -0.26977059
-0.1440087 -0.0067482525 -0.26977471
-0.1440054 -0.0066682491 -0.26977682
-0.14400256 -0.0065904167 -0.26977098
-0.14399935 -0.0065104561 -0.2697711
-0.14399633 -0.0064325361 -0.26976925
-0.14399359 -0.0063547473 -0.26976144
-0.14399047 -0.0062748296 -0.26975954
-0.14398697 -0.0061947387 -0.26976565
-0.14398365 -0.0061166892 -0.26976982
-0.14398062 -0.0060387691 -0.26976797
-0.14397742 -0.0059588095 -0.26976809
-0.14397418 -0.0058808038 -0.26977023
-0.14397137 -0.0058010155 -0.26976237
-0.14396882 -0.0057233134 -0.26975054
-0.1439658 -0.0056453934 -0.26974872
-0.14396229 -0.0055653034 -0.26975483
-0.1439589 -0.0054852553 -0.26975891
-0.14395605 -0.0054074228 -0.2697531
-0.14395332 -0.0053296341 -0.26974526
-0.14395002 -0.0052496297 -0.26974738
-0.14394671 -0.0051696254 -0.26974946
-0.14394347 -0.0050916197 -0.26975164
-0.14394027 -0.0050116591 -0.26975176
-0.14393783 -0.0049339989 -0.26973793
-0.14393538 -0.0048563397 -0.26972413
-0.14393178 -0.0047762059 -0.26973221
-0.14392845 -0.0046981564 -0.26973638
-0.14392544 -0.0046182834 -0.26973248
-0.14392231 -0.0045403196 -0.26973265
-0.14391853 -0.0044600992 -0.26974475
-0.14391512 -0.0043800529 -0.26974887
-0.14391267 -0.0043023918 -0.26973504
-0.14390977 -0.0042225625 -0.26972914
-0.14390683 -0.0041446863 -0.26972532
-0.1439039 -0.0040668091 -0.26972151
-0.14390059 -0.0039868057 -0.26972359
-0.14389719 -0.0039067585 -0.26972771
-0.14389445 -0.0038289689 -0.26971987
-0.14389171 -0.0037511801 -0.26971203
-0.14388821 -0.0036710883 -0.26971817
-0.14388472 -0.0035909982 -0.26972425
-0.14388138 -0.0035129488 -0.26972842
-0.14387789 -0.0034328587 -0.2697345
-0.14387488 -0.0033529839 -0.26973063
-0.1438726 -0.0032773651 -0.26971486
-0.14386968 -0.0031975359 -0.26970899
-0.14386629 -0.0031174878 -0.2697131
-0.14386278 -0.0030373977 -0.26971921
-0.14385957 -0.0029593911 -0.26972136
-0.14385712 -0.0028817318 -0.26970756
-0.14385447 -0.002803985 -0.26969773
-0.14385118 -0.0027239816 -0.26969981
-0.14384833 -0.0026461491 -0.269694
-0.14384532 -0.0025662743 -0.2696901
-0.1438418 -0.0024881391 -0.26969826
-0.1438386 -0.0024081785 -0.26969838
-0.14383559 -0.0023283036 -0.26969451
-0.14383209 -0.0022482136 -0.26970059
-0.14382915 -0.0021703374 -0.26969677
-0.1438266 -0.0020926343 -0.26968494
-0.1438234 -0.0020126738 -0.26968506
-0.14382046 -0.0019347975 -0.26968122
-0.14381754 -0.0018549673 -0.26967534
-0.14381395 -0.0017748326 -0.26968345
-0.14381033 -0.0016966537 -0.26969358
-0.14380713 -0.0016166931 -0.2696937
-0.1438043 -0.0015388606 -0.26968789
-0.14380118 -0.0014589429 -0.26968598
-0.14379807 -0.0013790261 -0.26968411
-0.14379504 -0.001301107 -0.26968229
-0.14379174 -0.0012211017 -0.26968437
-0.1437891 -0.0011433559 -0.26967454
-0.14378674 -0.0010657404 -0.26965874
-0.14378364 -0.00098582171 -0.26965684
-0.14378022 -0.00090773031 -0.26966301
-0.14377663 -0.00082759559 -0.26967111
-0.14377341 -0.00074763596 -0.26967123
-0.14377031 -0.00066771731 -0.26966935
-0.14376718 -0.0005897563 -0.2696695
-0.14376424 -0.0005118791 -0.26966566
-0.14376123 -0.00043200515 -0.26966178
-0.14375801 -0.00035204366 -0.2696619
-0.14375518 -0.00027421117 -0.26965606
-0.14375274 -0.0001965519 -0.26964223
-0.14374989 -0.00011871941 -0.26963639
-0.14374641 -3.8629398e-05 -0.26964253
-0.1437428 4.1503459e-05 -0.26965064
-0.14373951 0.00012150966 -0.26965272
-0.14373666 0.00019934215 -0.26964688
-0.14373365 0.0002792161 -0.26964301
-0.14373034 0.00035922043 -0.26964512
-0.14372702 0.00043726899 -0.26964927
-0.1437242 0.00051705539 -0.2696414
-0.14372157 0.0005948022 -0.26963159
-0.14371826 0.00067480654 -0.26963371
-0.14371513 0.00075276941 -0.26963386
-0.14371222 0.00083260052 -0.26962799
-0.14370909 0.00091056339 -0.26962814
-0.14370568 0.00099061057 -0.26963225
-0.14370267 0.0010704845 -0.26962835
-0.14369993 0.0011482742 -0.26962054
-0.1436971 0.0012261048 -0.2696147
-0.1436936 0.0013061967 -0.26962081
-0.14369 0.0013863314 -0.26962891
-0.14368699 0.0014662035 -0.26962504
-0.14368434 0.0015439503 -0.2696152
-0.14368114 0.0016239136 -0.26961532
-0.1436782 0.0017017871 -0.26961148
-0.14367519 0.0017816611 -0.2696076
-0.14367199 0.0018616226 -0.26960772
-0.14366905 0.0019394979 -0.26960388
-0.14366585 0.0020194594 -0.269604
-0.14366244 0.0020995066 -0.26960811
-0.14365952 0.0021773819 -0.26960427
-0.1436567 0.0022571702 -0.2695964
-0.14365366 0.0023350902 -0.26959455
-0.14365035 0.0024150927 -0.26959667
-0.14364733 0.0024930127 -0.26959485
-0.14364412 0.0025729742 -0.26959494
-0.14364111 0.0026528481 -0.26959106
-0.14363846 0.0027305949 -0.26958126
-0.14363563 0.0028084274 -0.26957542
-0.14363232 0.0028884299 -0.2695775
-0.14362893 0.0029684771 -0.26958162
-0.14362572 0.0030484404 -0.26958174
-0.14362268 0.0031263586 -0.26957989
-0.14361975 0.0032042321 -0.26957607
-0.14361654 0.0032841954 -0.26957619
-0.14361353 0.0033640675 -0.26957232
-0.1436106 0.0034419447 -0.26956847
-0.1436072 0.0035219919 -0.26957259
-0.14360389 0.0036019944 -0.2695747
-0.14360088 0.0036818702 -0.2695708
-0.14359803 0.0037597045 -0.26956499
-0.14359494 0.0038396195 -0.26956308
-0.1435917 0.0039176252 -0.26956525
-0.1435883 0.0039976742 -0.26956937
-0.1435851 0.0040776338 -0.26956946
-0.14358225 0.0041554682 -0.26956365
-0.14357924 0.0042353403 -0.26955974
-0.14357574 0.0043154303 -0.26956588
-0.14357226 0.0043955222 -0.26957196
-0.14356944 0.0044753104 -0.26956409
-0.14356659 0.0045531411 -0.26955825
-0.14356329 0.0046331473 -0.26956037
-0.14356016 0.0047111101 -0.26956052
-0.14355734 0.0047908947 -0.26955265
-0.14355461 0.0048686843 -0.26954484
-0.14355177 0.0049465187 -0.269539
-0.14354819 0.0050286073 -0.26954505
-0.1435446 0.0051087402 -0.26955315
-0.14354186 0.0051865298 -0.26954532
-0.14353912 0.0052643195 -0.26953751
-0.14353572 0.0053443667 -0.26954162
-0.14353241 0.0054243729 -0.26954371
-0.1435294 0.0055042431 -0.26953983
-0.14352657 0.0055820774 -0.26953399
-0.14352383 0.0056598671 -0.26952618
-0.14352082 0.005739741 -0.26952231
-0.14351751 0.0058197472 -0.2695244
-0.14351411 0.0058997925 -0.26952851
-0.14351127 0.005977625 -0.2695227
-0.14350826 0.0060575008 -0.26951879
-0.14350523 0.0061354209 -0.26951697
-0.14350221 0.0062152911 -0.26951307
-0.14349891 0.0062952973 -0.26951522
-0.14349587 0.0063732173 -0.26951337
-0.14349306 0.0064530037 -0.2695055
-0.14348993 0.0065309666 -0.26950565
-0.14348672 0.0066109281 -0.26950574
-0.14348389 0.0066887606 -0.26949993
-0.14348097 0.0067685917 -0.26949406
-0.14347777 0.0068485532 -0.26949418
-0.14347416 0.0069286842 -0.26950225
-0.14347067 0.0070087761 -0.26950836
-0.14346775 0.007088609 -0.26950249
-0.14346492 0.0071664378 -0.26949665
-0.14346181 0.0072463565 -0.26949477
-0.14345841 0.0073264055 -0.26949888
-0.14345481 0.0074065384 -0.26950699
-0.14345197 0.007484369 -0.26950115
-0.1434499 0.007559903 -0.26948139
-0.14344689 0.0076397769 -0.26947752
-0.14344348 0.0077198241 -0.26948163
-0.14344037 0.0077997427 -0.26947975
-0.14343745 0.0078776199 -0.26947591
-0.14343452 0.0079574473 -0.26947004
-0.14343132 0.0080374088 -0.26947013
-0.14342809 0.0081154145 -0.2694723
-0.1434247 0.0081974156 -0.26947436
-0.1434212 0.0082775075 -0.26948047
-0.14341761 0.0083576404 -0.26948857
-0.1434145 0.008437559 -0.26948667
-0.14341243 0.0085130893 -0.26946694
-0.14340998 0.0085907485 -0.26945311
-0.14340678 0.00867071 -0.2694532
-0.14340355 0.0087487176 -0.26945537
-0.14340016 0.0088307168 -0.26945743
-0.14339676 0.0089107659 -0.26946154
-0.14339383 0.0089886412 -0.2694577
-0.14339128 0.0090663433 -0.2694459
-0.14338808 0.0091463067 -0.26944599
-0.14338431 0.009228481 -0.26945606
-0.14338081 0.009308571 -0.26946217
-0.14337797 0.0093864053 -0.26945633
-0.14337523 0.009464195 -0.26944849
-0.14337192 0.0095441956 -0.2694506
-0.14336872 0.0096241571 -0.26945072
-0.14336589 0.0097019915 -0.26944488
-0.14336267 0.0097819511 -0.269445
-0.14335938 0.0098619554 -0.26944709
-0.14335653 0.0099397879 -0.26944128
-0.14335382 0.010019531 -0.26943141
-0.14335069 0.010097496 -0.26943156
-0.14334682 0.010179713 -0.26944363
-0.14334314 0.010261845 -0.26945168
-0.145319 -0.040191308 -0.27034006
-0.14531597 -0.040113386 -0.27033821
-0.14531267 -0.040033381 -0.27034032
-0.14531015 -0.039953724 -0.27032644
-0.14530765 -0.03987211 -0.27031052
-0.14530432 -0.039794061 -0.27031469
-0.14530082 -0.039713971 -0.2703208
-0.14529778 -0.039636053 -0.27031896
-0.14529477 -0.039556179 -0.27031508
-0.14529157 -0.039476216 -0.2703152
-0.14528835 -0.039398212 -0.27031735
-0.14528523 -0.039318293 -0.27031547
-0.14528231 -0.039238464 -0.2703096
-0.14527909 -0.03916046 -0.27031174
-0.14527538 -0.039082237 -0.2703239
-0.14527176 -0.039004058 -0.27033404
-0.14526923 -0.038924396 -0.27032018
-0.14526644 -0.038842656 -0.27031025
-0.14526331 -0.038764693 -0.2703104
-0.14526001 -0.038684689 -0.27031252
-0.14525707 -0.038606815 -0.27030867
-0.14525408 -0.038524985 -0.27030277
-0.14525086 -0.038446978 -0.27030492
-0.14524773 -0.038369015 -0.2703051
-0.14524472 -0.038289145 -0.27030119
-0.14524129 -0.038211051 -0.27030736
-0.1452377 -0.038130917 -0.27031547
-0.14523497 -0.038051173 -0.27030557
-0.14523205 -0.03797134 -0.2702997
-0.14522834 -0.037893116 -0.27031186
-0.14522541 -0.037815243 -0.27030802
-0.14522271 -0.037733544 -0.2702961
-0.14521909 -0.037655361 -0.27030626
-0.14521576 -0.037577316 -0.2703104
-0.14521275 -0.037497442 -0.27030653
-0.14520963 -0.037419479 -0.27030668
-0.14520672 -0.03733965 -0.27030081
-0.14520392 -0.037257906 -0.27029088
-0.14520098 -0.037180029 -0.27028704
-0.14519778 -0.037100069 -0.27028716
-0.14519458 -0.03702011 -0.27028728
-0.14519154 -0.036942191 -0.27028543
-0.14518844 -0.036862273 -0.27028355
-0.14518501 -0.03678418 -0.27028972
-0.1451818 -0.03670422 -0.27028984
-0.14517896 -0.036626384 -0.270284
-0.14517556 -0.036546338 -0.27028811
-0.14517255 -0.036466464 -0.27028424
-0.14516962 -0.036388591 -0.27028039
-0.14516622 -0.036308542 -0.2702845
-0.1451629 -0.03623049 -0.27028865
-0.14516017 -0.03615075 -0.27027875
-0.14515707 -0.036070831 -0.2702769
-0.14515345 -0.035992652 -0.27028704
-0.14515021 -0.035914645 -0.27028918
-0.1451474 -0.035834856 -0.27028131
-0.14514439 -0.035754982 -0.27027744
-0.14514138 -0.035675108 -0.27027357
-0.14513844 -0.035597235 -0.27026972
-0.14513533 -0.035517316 -0.27026784
-0.14513212 -0.035437357 -0.27026796
-0.145129 -0.035359394 -0.27026811
-0.14512558 -0.035281301 -0.27027428
-0.14512256 -0.035201427 -0.27027038
-0.14511935 -0.035121467 -0.2702705
-0.14511575 -0.035043284 -0.27028066
-0.14511263 -0.034963369 -0.27027875
-0.14510982 -0.034883581 -0.27027088
-0.14510639 -0.034805492 -0.27027702
-0.14510307 -0.034727439 -0.2702812
-0.14510016 -0.03464761 -0.27027529
-0.14509766 -0.034565993 -0.27025941
-0.14509512 -0.034486338 -0.27024555
-0.14509222 -0.034406506 -0.27023965
-0.14508899 -0.034328502 -0.27024183
-0.14508566 -0.034250453 -0.27024597
-0.14508197 -0.034170277 -0.27025607
-0.14507844 -0.034094095 -0.27026626
-0.14507513 -0.034014091 -0.27026838
-0.14507192 -0.033934131 -0.2702685
-0.14506888 -0.033856209 -0.27026665
-0.14506598 -0.03377638 -0.27026078
-0.14506306 -0.033696547 -0.27025491
-0.14506014 -0.033616718 -0.27024901
-0.14505723 -0.033536889 -0.27024314
-0.1450543 -0.033459011 -0.27023932
-0.14505129 -0.033379138 -0.27023542
-0.14504816 -0.033301175 -0.2702356
-0.14504485 -0.03322117 -0.27023771
-0.14504161 -0.033143163 -0.27023986
-0.14503829 -0.033065114 -0.270244
-0.1450347 -0.032984983 -0.27025211
-0.14503196 -0.032907192 -0.2702443
-0.14502934 -0.032827489 -0.27023241
-0.14502634 -0.032745663 -0.27022648
-0.14502321 -0.0326677 -0.27022666
-0.14501989 -0.032589652 -0.2702308
-0.14501657 -0.032511599 -0.27023497
-0.14501336 -0.03243164 -0.27023506
-0.14501044 -0.03235181 -0.27022919
-0.14500731 -0.032273848 -0.27022937
-0.14500383 -0.032193758 -0.27023548
-0.14500098 -0.032115921 -0.27022964
-0.14499827 -0.032036178 -0.27021974
-0.14499526 -0.031956308 -0.27021587
-0.14499213 -0.031878345 -0.27021605
-0.14498833 -0.031798124 -0.27022815
-0.14498511 -0.031720117 -0.27023029
-0.14498249 -0.031640414 -0.27021843
-0.14497986 -0.031560715 -0.27020654
-0.14497654 -0.031482667 -0.27021071
-0.14497294 -0.031402528 -0.27021882
-0.14496991 -0.03132461 -0.27021697
-0.14496729 -0.031244911 -0.27020511
-0.14496447 -0.031165123 -0.27019721
-0.14496136 -0.031085206 -0.27019534
-0.14495794 -0.031007113 -0.2702015
-0.14495462 -0.030929063 -0.27020565
-0.1449514 -0.030849103 -0.27020577
-0.14494827 -0.030771142 -0.27020591
-0.14494498 -0.030691136 -0.27020803
-0.14494166 -0.030613087 -0.27021217
-0.14493862 -0.030535169 -0.27021036
-0.14493529 -0.030457119 -0.2702145
-0.1449317 -0.030376986 -0.2702226
-0.14492866 -0.030299066 -0.27022079
-0.14492546 -0.030219106 -0.27022088
-0.14492194 -0.03014097 -0.27022904
-0.14491901 -0.030063093 -0.2702252
-0.14491628 -0.029983349 -0.27021533
-0.14491299 -0.029903345 -0.27021745
-0.14491005 -0.029825469 -0.2702136
-0.14490743 -0.029745767 -0.27020174
-0.14490451 -0.029665936 -0.27019587
-0.1449016 -0.029586107 -0.27019
-0.14489847 -0.029508144 -0.27019015
-0.14489485 -0.029429965 -0.27020028
-0.14489204 -0.029350176 -0.27019241
-0.14488931 -0.029270433 -0.27018255
-0.14488629 -0.029192513 -0.2701807
-0.14488277 -0.029114379 -0.27018887
-0.14487956 -0.029034417 -0.27018896
-0.14487684 -0.028954674 -0.27017909
-0.14487432 -0.028875016 -0.27016523
-0.1448708 -0.02879688 -0.27017337
-0.14486609 -0.028720178 -0.27020752
-0.14486386 -0.02864065 -0.27018768
-0.14486183 -0.028559254 -0.27016178
-0.14485762 -0.028482772 -0.27018595
-0.14485322 -0.028404245 -0.27021208
-0.14485067 -0.028326543 -0.27020025
-0.14484827 -0.028244974 -0.27018234
-0.14484514 -0.028167009 -0.27018252
-0.14484191 -0.028089006 -0.27018467
-0.144839 -0.028009173 -0.27017879
-0.14483599 -0.0279293 -0.27017492
-0.14483257 -0.027851207 -0.27018106
-0.14482945 -0.02777129 -0.27017918
-0.14482702 -0.027691675 -0.27016333
-0.14482351 -0.027613539 -0.27017146
-0.1448198 -0.027535317 -0.27018362
-0.14481688 -0.027455486 -0.27017772
-0.14481366 -0.027377479 -0.2701799
-0.14481033 -0.02729943 -0.27018404
-0.14480752 -0.027219644 -0.27017617
-0.14480479 -0.027139898 -0.27016628
-0.14480196 -0.027062066 -0.27016047
-0.14479885 -0.026982151 -0.27015859
-0.14479582 -0.026904229 -0.27015674
-0.14479241 -0.026824182 -0.27016085
-0.14478898 -0.026748044 -0.27016905
-0.14478528 -0.026667869 -0.27017915
-0.14478244 -0.026590034 -0.27017331
-0.14477953 -0.026510203 -0.27016744
-0.1447766 -0.026432328 -0.2701636
-0.14477368 -0.026352499 -0.27015772
-0.14477026 -0.026274405 -0.27016389
-0.14476703 -0.026196398 -0.27016604
-0.14476411 -0.026116569 -0.27016017
-0.14476101 -0.02603665 -0.27015829
-0.14475778 -0.025958646 -0.27016044
-0.14475445 -0.025880596 -0.27016458
-0.14475113 -0.025802545 -0.27016875
-0.14474832 -0.025722759 -0.27016085
-0.14474499 -0.025644708 -0.27016503
-0.14474137 -0.025566529 -0.27017516
-0.14473827 -0.025486613 -0.27017328
-0.14473525 -0.025406739 -0.27016941
-0.14473242 -0.025328906 -0.27016357
-0.14472941 -0.02524903 -0.27015969
-0.14472666 -0.025171243 -0.27015185
-0.14472395 -0.025091497 -0.27014199
-0.14472073 -0.025011538 -0.27014211
-0.14471741 -0.024933489 -0.27014625
-0.1447137 -0.024855265 -0.27015841
-0.14471067 -0.024777345 -0.27015656
-0.14470805 -0.024697646 -0.2701447
-0.14470513 -0.024617814 -0.2701388
-0.144702 -0.024539853 -0.27013898
-0.14469889 -0.024459934 -0.2701371
-0.14469567 -0.024381928 -0.27013925
-0.14469236 -0.024301924 -0.27014136
-0.14468962 -0.024224136 -0.27013353
-0.14468689 -0.024146345 -0.27012572
-0.14468397 -0.024066515 -0.27011985
-0.14468125 -0.023986772 -0.27010995
-0.14467832 -0.023908895 -0.27010614
-0.14467441 -0.023830585 -0.27012226
-0.14467061 -0.023752321 -0.27013642
-0.14466749 -0.023672402 -0.27013451
-0.14466465 -0.023594569 -0.27012867
-0.14466155 -0.023514651 -0.27012682
-0.14465831 -0.023436647 -0.27012897
-0.14465509 -0.023358641 -0.27013111
-0.14465179 -0.023278637 -0.27013323
-0.14464943 -0.023201019 -0.2701174
-0.14464721 -0.023121491 -0.27009755
-0.14464398 -0.023043485 -0.2700997
-0.14464036 -0.022965306 -0.27010986
-0.14463735 -0.022885434 -0.27010599
-0.14463444 -0.022805601 -0.27010012
-0.1446314 -0.022727683 -0.27009827
-0.14462839 -0.022647809 -0.27009439
-0.14462556 -0.022569977 -0.27008855
-0.14462264 -0.022490144 -0.27008268
-0.14462 -0.022412397 -0.27007285
-0.14461727 -0.022332653 -0.27006298
-0.14461395 -0.022254605 -0.27006713
-0.14461054 -0.022176512 -0.27007329
-0.14460732 -0.022096552 -0.27007341
-0.14460459 -0.022018762 -0.27006558
-0.14460197 -0.021939062 -0.27005368
-0.14459893 -0.021861142 -0.27005187
-0.14459541 -0.021783005 -0.27006
-0.1445924 -0.021703131 -0.27005613
-0.14458977 -0.021625385 -0.27004629
-0.14458627 -0.021545295 -0.2700524
-0.14458275 -0.021467159 -0.27006057
-0.14457971 -0.02138924 -0.27005872
-0.14457709 -0.02130954 -0.27004686
-0.14457427 -0.021229751 -0.27003899
-0.14457105 -0.021151746 -0.27004114
-0.14456792 -0.021073783 -0.27004129
-0.144565 -0.020993952 -0.27003542
-0.14456207 -0.020916075 -0.27003157
-0.14455885 -0.020838071 -0.27003375
-0.14455535 -0.020757981 -0.27003986
-0.14455269 -0.020680234 -0.27003002
-0.14455006 -0.020602487 -0.27002019
-0.14454646 -0.020522352 -0.27002829
-0.14454323 -0.020444347 -0.27003047
-0.14454032 -0.020364515 -0.2700246
-0.14453767 -0.020286771 -0.27001476
-0.14453465 -0.020208851 -0.27001292
-0.14453115 -0.02012876 -0.27001902
-0.14452793 -0.020050755 -0.2700212
-0.14452511 -0.019970967 -0.2700133
-0.14452207 -0.019893046 -0.27001148
-0.14451894 -0.019815084 -0.27001163
-0.14451583 -0.019735167 -0.27000976
-0.1445125 -0.019657118 -0.2700139
-0.14450938 -0.019579155 -0.27001405
-0.14450628 -0.019499239 -0.27001217
-0.14450304 -0.019421231 -0.27001435
-0.14449972 -0.019343182 -0.27001849
-0.1444966 -0.019263266 -0.27001661
-0.14449358 -0.019185346 -0.27001476
-0.14449075 -0.019107513 -0.27000892
-0.14448822 -0.019027855 -0.26999509
-0.144485 -0.01894985 -0.26999724
-0.14448178 -0.018869888 -0.26999736
-0.14447895 -0.018792056 -0.26999152
-0.14447582 -0.018714093 -0.26999167
-0.14447251 -0.018634088 -0.26999378
-0.14446919 -0.01855604 -0.26999795
-0.14446586 -0.018477991 -0.2700021
-0.14446285 -0.018398117 -0.26999822
-0.14446011 -0.018320328 -0.26999038
-0.1444571 -0.018240452 -0.26998651
-0.14445397 -0.018162491 -0.26998666
-0.14445056 -0.018084398 -0.26999283
-0.14444754 -0.018004524 -0.26998892
-0.14444432 -0.017926518 -0.2699911
-0.14444099 -0.017848469 -0.26999524
-0.14443818 -0.017768681 -0.26998737
-0.14443524 -0.017690804 -0.26998353
-0.14443213 -0.017610887 -0.26998165
-0.14442979 -0.017533271 -0.26996583
-0.14442714 -0.017455526 -0.26995602
-0.14442374 -0.017375477 -0.26996011
-0.14442012 -0.017297298 -0.26997027
-0.1444163 -0.017219033 -0.26998442
-0.1444129 -0.017138986 -0.26998854
-0.14441057 -0.017061369 -0.26997271
-0.14440823 -0.016981797 -0.26995483
-0.14440529 -0.016903922 -0.26995102
-0.14440158 -0.0168257 -0.26996315
-0.14439818 -0.016745653 -0.26996726
-0.14439553 -0.016667906 -0.26995742
-0.1443924 -0.016589943 -0.2699576
-0.1443892 -0.016509982 -0.26995772
-0.14438646 -0.016432192 -0.26994988
-0.14438362 -0.01635436 -0.26994404
-0.14438012 -0.01627427 -0.26995015
-0.1443771 -0.01619635 -0.2699483
-0.14437406 -0.016118431 -0.26994649
-0.14437056 -0.01603834 -0.2699526
-0.14436744 -0.015960377 -0.26995274
-0.14436431 -0.015882414 -0.26995289
-0.1443609 -0.015802369 -0.26995701
-0.14435816 -0.015724577 -0.2699492
-0.14435506 -0.01564466 -0.26994729
-0.14435174 -0.015566612 -0.26995146
-0.14434928 -0.015488951 -0.26993763
-0.14434706 -0.015409424 -0.26991779
-0.14434333 -0.015331201 -0.26992992
-0.14433905 -0.015250765 -0.269952
-0.14433584 -0.015172759 -0.26995414
-0.14433299 -0.015094926 -0.26994833
-0.14432979 -0.015014965 -0.26994845
-0.14432745 -0.014937349 -0.26993263
-0.14432549 -0.014857951 -0.26990679
-0.14432237 -0.014779989 -0.26990694
-0.14431857 -0.014701722 -0.26992109
-0.14431477 -0.014621502 -0.26993316
-0.14431155 -0.014543496 -0.26993534
-0.14430831 -0.01446549 -0.26993749
-0.1443055 -0.014385703 -0.26992962
-0.14430314 -0.014308086 -0.26991379
-0.14430042 -0.014230297 -0.26990598
-0.1442972 -0.014150336 -0.26990607
-0.14429417 -0.014072416 -0.26990426
-0.14429143 -0.013994627 -0.26989642
-0.14428803 -0.01391458 -0.26990053
-0.14428432 -0.013836358 -0.26991266
-0.1442814 -0.013756527 -0.26990679
-0.14427896 -0.013678867 -0.26989299
-0.14427602 -0.013600991 -0.26988915
-0.14427282 -0.013521031 -0.26988927
-0.14427036 -0.01344337 -0.26987544
-0.14426763 -0.013365581 -0.2698676
-0.14426422 -0.013285534 -0.26987171
-0.14426081 -0.013207441 -0.26987785
-0.14425768 -0.013129478 -0.26987803
-0.14425418 -0.013049388 -0.26988414
-0.14425027 -0.012971079 -0.26990026
-0.14424686 -0.012891032 -0.26990438
-0.14424422 -0.012813285 -0.26989454
-0.14424109 -0.012735322 -0.26989472
-0.1442377 -0.012655276 -0.26989883
-0.14423476 -0.0125774 -0.26989499
-0.14423165 -0.012497482 -0.26989311
-0.14422871 -0.012419606 -0.26988927
-0.14422616 -0.012341903 -0.26987743
-0.14422326 -0.012262072 -0.26987156
-0.14421983 -0.012183979 -0.26987773
-0.14421643 -0.012103932 -0.26988184
-0.1442135 -0.012026057 -0.269878
-0.14421076 -0.011948267 -0.26987016
-0.14420775 -0.011868393 -0.26986629
-0.14420472 -0.011790473 -0.26986444
-0.14420161 -0.011710556 -0.26986256
-0.14419837 -0.011632551 -0.26986474
-0.14419526 -0.011554588 -0.26986489
-0.14419223 -0.011474714 -0.26986101
-0.1441893 -0.011396836 -0.26985717
-0.1441862 -0.01131692 -0.26985529
-0.14418297 -0.011238914 -0.26985744
-0.14417984 -0.011160951 -0.26985759
-0.14417663 -0.011080991 -0.2698577
-0.14417341 -0.011002984 -0.26985988
-0.14417 -0.010922937 -0.26986399
-0.14416717 -0.010845104 -0.26985815
-0.14416453 -0.010767357 -0.26984832
-0.14416142 -0.010687441 -0.26984644
-0.14415848 -0.010609564 -0.26984262
-0.14415567 -0.010529777 -0.26983473
-0.14415273 -0.010451902 -0.26983091
-0.14414951 -0.010373895 -0.26983306
-0.14414571 -0.010293675 -0.26984516
-0.14414228 -0.010215582 -0.2698513
-0.14413938 -0.010135751 -0.26984543
-0.14413634 -0.010057832 -0.26984361
-0.14413331 -0.0099799121 -0.26984176
-0.1441303 -0.0099000381 -0.26983786
-0.14412718 -0.0098220753 -0.26983804
-0.14412417 -0.0097422013 -0.26983416
-0.14412142 -0.0096644126 -0.26982632
-0.14411819 -0.0095864059 -0.2698285
-0.1441149 -0.0095064016 -0.26983058
-0.14411196 -0.0094285253 -0.26982677
-0.14410885 -0.0093486086 -0.26982486
-0.14410582 -0.0092706895 -0.26982304
-0.14410289 -0.0091928132 -0.2698192
-0.14409977 -0.0091128955 -0.26981732
-0.14409664 -0.0090349326 -0.26981747
-0.14409286 -0.0089547131 -0.26982957
-0.14408955 -0.0088747088 -0.26983169
-0.14408642 -0.0087967459 -0.26983184
-0.14408331 -0.0087168291 -0.26982996
-0.14408076 -0.0086391252 -0.26981813
-0.1440787 -0.0085616391 -0.26979634
-0.14407577 -0.0084837629 -0.2697925
-0.14407159 -0.0084033702 -0.26981258
-0.1440677 -0.0083231051 -0.26982668
-0.14406496 -0.0082453163 -0.26981884
-0.14406241 -0.0081676133 -0.26980704
-0.1440597 -0.0080878688 -0.26979715
-0.14405726 -0.0080102095 -0.26978335
-0.14405452 -0.0079324199 -0.26977551
-0.14405128 -0.0078544132 -0.26977766
-0.14404778 -0.0077743232 -0.26978377
-0.14404438 -0.007694276 -0.26978788
-0.14404126 -0.0076163132 -0.26978803
-0.14403835 -0.0075364821 -0.26978216
-0.14403512 -0.0074584763 -0.26978433
-0.14403161 -0.0073783863 -0.26979044
-0.14402859 -0.0073004663 -0.26978859
-0.14402528 -0.0072204629 -0.26979071
-0.14402196 -0.0071424134 -0.26979485
-0.14401914 -0.0070626261 -0.26978698
-0.14401621 -0.0069847498 -0.26978314
-0.14401327 -0.0069068735 -0.26977932
-0.14401063 -0.0068291277 -0.26976949
-0.14400733 -0.0067491233 -0.26977161
-0.14400402 -0.0066691199 -0.26977372
-0.14400108 -0.0065912437 -0.26976988
-0.14399788 -0.0065112831 -0.26977
-0.14399485 -0.006433364 -0.26976815
-0.14399211 -0.0063555734 -0.26976031
-0.143989 -0.0062756566 -0.26975843
-0.14398567 -0.0061976071 -0.26976261
-0.14398237 -0.0061176028 -0.26976472
-0.14397934 -0.0060396837 -0.26976287
-0.14397594 -0.0059596356 -0.26976699
-0.14397253 -0.0058795894 -0.2697711
-0.14396989 -0.0058018435 -0.26976126
-0.14396735 -0.0057241395 -0.26974943
-0.14396422 -0.0056461776 -0.26974961
-0.14396062 -0.0055660438 -0.26975769
-0.14395732 -0.0054860394 -0.2697598
-0.14395458 -0.0054082507 -0.269752
-0.14395174 -0.0053304173 -0.26974615
-0.14394844 -0.005250413 -0.26974827
-0.14394534 -0.0051704962 -0.26974636
-0.14394221 -0.0050925333 -0.26974654
-0.1439389 -0.005012529 -0.26974866
-0.14393635 -0.0049348269 -0.26973683
-0.14393361 -0.0048570372 -0.26972899
-0.14393002 -0.0047769034 -0.26973709
-0.14392698 -0.0046989834 -0.26973528
-0.14392397 -0.0046191104 -0.2697314
-0.14392057 -0.0045390623 -0.26973549
-0.14391686 -0.0044608396 -0.26974764
-0.14391346 -0.0043807924 -0.26975176
-0.143911 -0.0043031331 -0.26973793
-0.14390829 -0.0042233886 -0.26972806
-0.14390536 -0.0041455124 -0.26972422
-0.14390242 -0.0040676361 -0.26972038
-0.14389892 -0.0039875461 -0.26972649
-0.14389542 -0.0039074551 -0.26973259
-0.14389278 -0.0038297093 -0.26972276
-0.14389014 -0.0037519634 -0.26971295
-0.14388664 -0.0036718724 -0.26971906
-0.14388314 -0.0035917815 -0.26972514
-0.14387964 -0.0035116915 -0.26973125
-0.14387624 -0.0034316443 -0.26973537
-0.14387321 -0.0033537243 -0.26973355
-0.14387076 -0.0032760659 -0.26971972
-0.14386792 -0.0031982325 -0.26971388
-0.14386462 -0.0031182282 -0.26971599
-0.14386122 -0.003038181 -0.26972011
-0.14385819 -0.002960261 -0.26971826
-0.14385584 -0.0028826445 -0.26970243
-0.14385273 -0.0028027277 -0.26970056
-0.1438494 -0.0027246783 -0.2697047
-0.14384669 -0.0026449347 -0.26969483
-0.14384365 -0.0025670147 -0.26969302
-0.14384006 -0.0024868818 -0.26970112
-0.14383702 -0.0024089627 -0.26969928
-0.14383392 -0.002329044 -0.2696974
-0.14383051 -0.0022489969 -0.26970151
-0.14382768 -0.0021711644 -0.26969567
-0.14382504 -0.0020934176 -0.26968583
-0.14382192 -0.0020135008 -0.26968396
-0.14381909 -0.0019356683 -0.26967812
-0.14381598 -0.0018557506 -0.26967624
-0.14381228 -0.001775573 -0.26968634
-0.14380896 -0.0016975245 -0.26969048
-0.14380576 -0.001617563 -0.2696906
-0.14380264 -0.0015376462 -0.26968873
-0.14379942 -0.0014596414 -0.26969087
-0.14379631 -0.0013797227 -0.26968899
-0.14379348 -0.0013018902 -0.26968318
-0.14379017 -0.0012218859 -0.26968527
-0.14378753 -0.0011441391 -0.26967546
-0.14378507 -0.0010664808 -0.26966164
-0.14378197 -0.00098656304 -0.26965976
-0.14377855 -0.00090846978 -0.2696659
-0.14377497 -0.00082638301 -0.26967198
-0.14377195 -0.00074846298 -0.26967013
-0.14376873 -0.00066850148 -0.26967025
-0.1437656 -0.00059054047 -0.2696704
-0.14376287 -0.00051274896 -0.26966256
-0.14375995 -0.00043291785 -0.26965669
-0.14375655 -0.00035287254 -0.2696608
-0.14375362 -0.00027499534 -0.26965696
-0.14375126 -0.00019737892 -0.26964116
-0.14374843 -0.00011954643 -0.26963532
-0.14374466 -3.7372112e-05 -0.26964539
-0.14374124 4.0721148e-05 -0.26965153
-0.14373803 0.00012068264 -0.26965165
-0.14373519 0.00019851513 -0.26964581
-0.14373218 0.00027838908 -0.26964194
-0.14372888 0.00035839342 -0.26964402
-0.14372554 0.00043644197 -0.26964819
-0.14372264 0.00051627308 -0.26964232
-0.14372 0.00059401989 -0.26963249
-0.14371689 0.00067393668 -0.26963061
-0.14371376 0.00075189956 -0.26963076
-0.14371064 0.00083181635 -0.26962888
-0.14370771 0.00090969354 -0.26962504
-0.14370431 0.00098974071 -0.26962915
-0.14370111 0.0010697003 -0.26962927
-0.14369828 0.0011475328 -0.26962343
-0.14369543 0.0012253672 -0.26961762
-0.14369212 0.0013053715 -0.2696197
-0.14368863 0.0013854597 -0.26962584
-0.14368561 0.0014653355 -0.26962194
-0.14368288 0.0015431251 -0.2696141
-0.14367957 0.0016231276 -0.26961625
-0.14367656 0.0017030016 -0.26961234
-0.14367363 0.0017808788 -0.2696085
-0.14367051 0.0018607955 -0.26960662
-0.14366758 0.0019386727 -0.26960281
-0.14366418 0.0020187199 -0.26960689
-0.14366087 0.0020987224 -0.269609
-0.14365794 0.0021765996 -0.26960516
-0.14365512 0.0022563878 -0.26959729
-0.14365229 0.0023342203 -0.26959145
-0.14364916 0.0024121832 -0.26959163
-0.14364596 0.0024921428 -0.26959175
-0.14364274 0.0025721025 -0.26959187
-0.14363973 0.0026519783 -0.26958796
-0.143637 0.0027297679 -0.26958016
-0.14363416 0.0028076004 -0.26957431
-0.14363065 0.0028876904 -0.26958042
-0.14362717 0.0029677823 -0.26958653
-0.14362405 0.0030476991 -0.26958466
-0.14362112 0.0031255744 -0.26958081
-0.143618 0.0032054931 -0.26957893
-0.1436148 0.0032854527 -0.26957905
-0.14361197 0.0033632852 -0.26957321
-0.14360896 0.0034431592 -0.26956934
-0.14360572 0.003521163 -0.26957148
-0.14360252 0.0036011264 -0.2695716
-0.14359941 0.003681045 -0.26956969
-0.14359647 0.0037589185 -0.26956588
-0.14359337 0.0038388371 -0.269564
-0.14359014 0.0039168429 -0.26956618
-0.14358683 0.0039968453 -0.26956826
-0.14358354 0.0040768515 -0.26957038
-0.14358079 0.0041546412 -0.26956254
-0.14357778 0.0042345133 -0.26955867
-0.14357418 0.004314648 -0.26956677
-0.14357078 0.004394697 -0.26957089
-0.14356786 0.0044745244 -0.26956502
-0.14356503 0.0045523588 -0.26955917
-0.14356183 0.0046323203 -0.26955929
-0.14355879 0.0047102384 -0.26955745
-0.14355606 0.0047880299 -0.26954961
-0.14355314 0.0048678592 -0.26954374
-0.14355031 0.0049456917 -0.26953793
-0.14354709 0.0050256532 -0.26953802
-0.14354339 0.0051058307 -0.26954812
-0.14354029 0.0051857457 -0.26954624
-0.14353755 0.0052635372 -0.2695384
-0.14353424 0.0053435415 -0.26954052
-0.14353094 0.0054235458 -0.26954263
-0.14352784 0.0055034608 -0.26954076
-0.1435249 0.005581338 -0.26953691
-0.14352217 0.0056610815 -0.26952705
-0.14351924 0.0057389587 -0.2695232
-0.14351584 0.0058190078 -0.26952732
-0.14351283 0.005898878 -0.26952344
-0.14351016 0.0059746709 -0.26951563
-0.14350696 0.0060546324 -0.26951575
-0.14350386 0.0061345492 -0.26951391
-0.14350083 0.0062144231 -0.26951
-0.14349754 0.0062944274 -0.26951212
-0.14349431 0.0063724332 -0.26951426
-0.14349149 0.0064522214 -0.26950639
-0.14348827 0.006530229 -0.26950854
-0.14348516 0.0066101439 -0.26950666
-0.14348224 0.006689975 -0.26950079
-0.14347921 0.0067678951 -0.26949894
-0.1434761 0.0068478119 -0.26949707
-0.1434727 0.006927859 -0.26950118
-0.14346911 0.0070079938 -0.26950929
-0.143466 0.0070879105 -0.26950741
-0.14346325 0.0071656983 -0.26949957
-0.14346024 0.0072455741 -0.2694957
-0.14345685 0.0073256213 -0.26949981
-0.14345334 0.0074057132 -0.26950592
-0.14345071 0.0074834581 -0.26949608
-0.14344843 0.0075590778 -0.26948032
-0.14344522 0.0076390356 -0.26948041
-0.14344183 0.0077190846 -0.26948452
-0.14343891 0.0077989139 -0.26947865
-0.14343607 0.0078767482 -0.26947284
-0.14343296 0.007956665 -0.26947093
-0.14342965 0.0080366693 -0.26947305
-0.14342634 0.0081166737 -0.26947516
-0.14342295 0.0081967209 -0.26947927
-0.14341944 0.0082768109 -0.26948538
-0.14341596 0.0083569027 -0.26949146
-0.14341293 0.0084367748 -0.26948759
-0.14341097 0.0085122623 -0.26946583
-0.14340851 0.0085899234 -0.26945204
-0.14340511 0.0086699706 -0.26945612
-0.14340171 0.0087500177 -0.26946023
-0.14339821 0.0088301077 -0.26946634
-0.14339481 0.0089101568 -0.26947045
-0.14339226 0.0089878589 -0.26945862
-0.14338982 0.0090655182 -0.26944479
-0.14338651 0.0091455244 -0.26944691
-0.14338301 0.0092256106 -0.26945302
-0.14337951 0.0093057025 -0.26945913
-0.14337669 0.0093854927 -0.26945126
-0.14337406 0.0094632376 -0.26944143
-0.14337055 0.0095433276 -0.26944754
-0.14336705 0.0096234195 -0.26945364
-0.14336433 0.0097012073 -0.26944581
-0.1433613 0.0097810831 -0.26944193
-0.1433582 0.0098609999 -0.26944005
-0.14335516 0.0099389181 -0.26943821
-0.14335215 0.010018792 -0.26943433
-0.14334884 0.010098796 -0.26943642
-0.14334518 0.010180928 -0.2694445
-0.14334205 0.010258891 -0.26944464
-0.14531976 -0.040189017 -0.27033702
-0.14531675 -0.040109143 -0.27033311
-0.14531372 -0.040029265 -0.27032924
-0.14531131 -0.039949656 -0.27031338
-0.14530841 -0.039867867 -0.27030545
-0.14530489 -0.039789733 -0.27031359
-0.14530146 -0.039711639 -0.27031976
-0.14529845 -0.039631765 -0.27031589
-0.14529552 -0.039553888 -0.27031204
-0.14529242 -0.039473973 -0.27031016
-0.14528899 -0.03939588 -0.2703163
-0.14528608 -0.039316051 -0.27031043
-0.14528316 -0.039236218 -0.27030456
-0.14527994 -0.03915821 -0.27030671
-0.14527594 -0.03907986 -0.27032483
-0.14527242 -0.039001726 -0.27033299
-0.14526981 -0.038920067 -0.27031907
-0.14526728 -0.038840409 -0.27030522
-0.14526406 -0.038762406 -0.27030736
-0.14526086 -0.038682446 -0.27030748
-0.14525793 -0.038602613 -0.27030161
-0.14525492 -0.038522739 -0.27029774
-0.14525169 -0.038444735 -0.27029988
-0.14524849 -0.038364772 -0.2703
-0.14524548 -0.038284898 -0.2702961
-0.14524207 -0.038206808 -0.27030227
-0.14523873 -0.038128756 -0.27030641
-0.14523591 -0.038048968 -0.27029854
-0.1452329 -0.037969097 -0.27029467
-0.14522919 -0.037890874 -0.2703068
-0.14522618 -0.037811 -0.27030292
-0.14522336 -0.037731208 -0.27029505
-0.14521994 -0.037653118 -0.27030119
-0.14521661 -0.03757507 -0.27030537
-0.1452136 -0.037495196 -0.27030146
-0.1452105 -0.037415277 -0.27029958
-0.14520739 -0.037335359 -0.27029771
-0.14520447 -0.037255529 -0.27029184
-0.14520165 -0.037175741 -0.27028394
-0.14519875 -0.037095912 -0.27027807
-0.14519551 -0.037017904 -0.27028024
-0.14519221 -0.0369379 -0.27028233
-0.14518918 -0.036859982 -0.27028051
-0.14518598 -0.036780022 -0.27028063
-0.14518285 -0.036702059 -0.27028078
-0.14517964 -0.0366221 -0.2702809
-0.14517651 -0.036544137 -0.27028108
-0.1451734 -0.036464218 -0.27027917
-0.14517048 -0.036384389 -0.2702733
-0.14516716 -0.036306337 -0.27027744
-0.14516395 -0.036226377 -0.27027756
-0.14516114 -0.036146589 -0.27026969
-0.14515801 -0.036068626 -0.27026984
-0.14515439 -0.035990447 -0.27028
-0.14515099 -0.035910401 -0.27028412
-0.14514816 -0.035832569 -0.27027828
-0.14514516 -0.035750739 -0.27027234
-0.14514223 -0.035672866 -0.2702685
-0.14513922 -0.035592988 -0.27026463
-0.14513601 -0.035513029 -0.27026474
-0.14513288 -0.035435066 -0.27026489
-0.14512977 -0.035355147 -0.27026302
-0.14512634 -0.035277054 -0.27026916
-0.14512321 -0.035199091 -0.27026933
-0.14511992 -0.03511909 -0.27027145
-0.1451163 -0.035040908 -0.27028158
-0.14511329 -0.034961037 -0.27027771
-0.14511067 -0.034881335 -0.27026582
-0.14510724 -0.034803241 -0.27027199
-0.14510404 -0.034723282 -0.27027211
-0.14510141 -0.034643583 -0.27026021
-0.1450987 -0.034563836 -0.27025035
-0.14509597 -0.034484096 -0.27024049
-0.14509296 -0.034404218 -0.27023661
-0.14508976 -0.034324259 -0.27023673
-0.14508644 -0.03424621 -0.27024087
-0.14508271 -0.034167986 -0.27025303
-0.14507911 -0.034089807 -0.27026317
-0.14507587 -0.0340118 -0.27026534
-0.14507267 -0.03393184 -0.27026543
-0.14506975 -0.033852011 -0.27025956
-0.14506693 -0.033772223 -0.27025169
-0.1450641 -0.03369439 -0.27024585
-0.14506119 -0.033614557 -0.27023998
-0.14505798 -0.033534598 -0.27024007
-0.14505504 -0.03345672 -0.27023625
-0.14505194 -0.033376805 -0.27023438
-0.14504871 -0.033298798 -0.27023652
-0.1450454 -0.033218794 -0.27023864
-0.1450423 -0.033138879 -0.27023676
-0.14503907 -0.033060871 -0.27023891
-0.14503565 -0.032982782 -0.27024508
-0.14503273 -0.032902949 -0.27023917
-0.14503002 -0.032823201 -0.27022931
-0.14502721 -0.032743417 -0.27022144
-0.14502397 -0.032665409 -0.27022359
-0.14502054 -0.03258732 -0.27022976
-0.14501725 -0.032507315 -0.27023184
-0.14501421 -0.032429393 -0.27023003
-0.14501131 -0.032349564 -0.27022415
-0.14500819 -0.032269645 -0.27022225
-0.14500487 -0.032191597 -0.27022642
-0.14500195 -0.032111764 -0.27022052
-0.14499913 -0.032031979 -0.27021265
-0.14499611 -0.031954058 -0.27021083
-0.14499299 -0.031874143 -0.27020895
-0.14498948 -0.031796008 -0.27021709
-0.14498615 -0.031717956 -0.27022123
-0.14498334 -0.031638168 -0.27021337
-0.14498052 -0.031558383 -0.2702055
-0.14497741 -0.031478465 -0.27020359
-0.14497389 -0.031400327 -0.27021176
-0.14497086 -0.031322408 -0.27020991
-0.14496814 -0.031242665 -0.27020004
-0.14496525 -0.031160878 -0.27019212
-0.14496212 -0.031082917 -0.27019227
-0.14495869 -0.031004824 -0.27019843
-0.14495549 -0.030924864 -0.27019855
-0.14495246 -0.030846942 -0.27019671
-0.14494905 -0.030766897 -0.27020082
-0.14494573 -0.030688846 -0.27020496
-0.1449426 -0.030610884 -0.27020514
-0.14493959 -0.03053101 -0.27020127
-0.14493626 -0.030452963 -0.27020541
-0.14493245 -0.030374695 -0.27021956
-0.14492951 -0.030296819 -0.27021572
