# .PCD v0.7 - Point Cloud Data file format
VERSION 0.7
FIELDS x y z
SIZE 4 4 4
TYPE F F F
COUNT 1 1 1
WIDTH 1256
HEIGHT 1
VIEWPOINT 0 0 0 1 0 0 0
POINTS 1256
DATA ascii
-0.068340182 0.0047422349 -0.19279273
-0.068337783 0.0048120324 -0.19278508
-0.068335786 0.0048836106 -0.1927674
-0.068333477 0.0049533653 -0.19275776
-0.068330958 0.0050212517 -0.19275415
-0.068328165 0.0050912243 -0.19275449
-0.068325467 0.0051611522 -0.19275284
-0.068322577 0.0052311677 -0.19275518
-0.068319783 0.0053011402 -0.19275552
-0.068317086 0.0053710686 -0.19275385
-0.068314292 0.0054410403 -0.19275419
-0.068311892 0.0055108387 -0.19274655
-0.068309389 0.0055806795 -0.19274089
-0.068306573 0.0056486968 -0.19274327
-0.068303779 0.0057186689 -0.19274363
-0.068300985 0.0057886411 -0.19274397
-0.068297803 0.0058587873 -0.1927523
-0.068294622 0.0059289336 -0.19276062
-0.068291999 0.0059968643 -0.19275901
-0.068289697 0.0060666185 -0.19274938
-0.068287291 0.0061364155 -0.19274172
-0.068284497 0.0062063877 -0.19274206
-0.068281703 0.0062763598 -0.19274241
-0.068279102 0.0063462444 -0.19273876
-0.068276599 0.0064160861 -0.19273311
-0.068274006 0.0064859712 -0.19272944
-0.068271697 0.0065557254 -0.19271982
-0.068269394 0.0066254796 -0.19271016
-0.068266697 0.0066954079 -0.19270849
-0.068264388 0.0067651621 -0.19269887
-0.06826286 0.0068345685 -0.19267324
-0.068261631 0.0069038435 -0.19264162
-0.068260029 0.0069752475 -0.19261596
-0.068258092 0.0070428737 -0.19260037
-0.068255492 0.0071127582 -0.19259672
-0.06825231 0.0071829041 -0.19260505
-0.068248712 0.0072512701 -0.19262341
-0.068245038 0.0073216339 -0.19264172
-0.068241954 0.0073917368 -0.19264805
-0.068239354 0.0074616214 -0.19264439
-0.068237148 0.0075313323 -0.19263276
-0.068233646 0.0075996546 -0.19264913
-0.068229295 0.0076703229 -0.19268142
-0.068226792 0.0077401646 -0.19267577
-0.068225265 0.0078095705 -0.19265014
-0.068222575 0.0078794993 -0.1926485
-0.068219855 0.0079474729 -0.19264887
-0.068218157 0.0080189202 -0.19262519
-0.068217508 0.0080879349 -0.19258159
-0.068216272 0.0081572104 -0.19255
-0.06821426 0.0082268333 -0.19253436
-0.068212926 0.0082961526 -0.19250473
-0.068212107 0.0083672078 -0.1924631
-0.068210579 0.0084366137 -0.19243747
-0.068208054 0.0085045006 -0.19243386
-0.06819576 0.010294867 -0.19120854
-0.068191774 0.010363407 -0.19123489
-0.06880141 -0.011375876 -0.1965521
-0.068798438 -0.011303864 -0.19655439
-0.06879545 -0.011233805 -0.19655873
-0.068792485 -0.011161791 -0.19656101
-0.068789691 -0.011091819 -0.19656137
-0.068786815 -0.011019848 -0.19656166
-0.068784043 -0.010947924 -0.19655997
-0.068781152 -0.010877909 -0.19656229
-0.068777986 -0.010805806 -0.19656858
-0.068774804 -0.010735661 -0.19657689
-0.06877172 -0.010665558 -0.19658324
-0.068769157 -0.010591766 -0.19657549
-0.06876678 -0.010520013 -0.19656581
-0.068764098 -0.01044813 -0.19656211
-0.06876152 -0.010376289 -0.1965564
-0.068759255 -0.010302627 -0.19654267
-0.068756677 -0.010230787 -0.19653697
-0.068753399 -0.010160597 -0.1965473
-0.068750113 -0.010090407 -0.19655761
-0.068747051 -0.010018352 -0.1965619
-0.068744354 -0.0099484231 -0.19656026
-0.068741478 -0.0098764542 -0.19656055
-0.0687382 -0.0098062623 -0.19657087
-0.068735018 -0.0097361188 -0.1965792
-0.068732142 -0.0096641462 -0.19657949
-0.068729565 -0.0095923096 -0.19657381
-0.068726987 -0.0095204692 -0.1965681
-0.068724118 -0.0094484985 -0.1965684
-0.068721242 -0.0093765296 -0.1965687
-0.068718567 -0.0093046464 -0.19656499
-0.068715774 -0.0092346743 -0.19656533
-0.068712808 -0.0091626607 -0.19656762
-0.068709739 -0.0090906043 -0.19657192
-0.068706751 -0.0090205465 -0.19657624
-0.068703882 -0.0089485757 -0.19657654
-0.068701208 -0.0088766925 -0.19657284
-0.068698429 -0.0088047646 -0.19657114
-0.068695635 -0.0087347925 -0.19657147
-0.068692669 -0.0086627807 -0.19657376
-0.068689995 -0.0085908975 -0.19657007
-0.068687215 -0.0085189696 -0.19656837
-0.068684153 -0.0084469151 -0.19657266
-0.068681069 -0.0083768126 -0.19657898
-0.06867817 -0.0083067957 -0.19658133
-0.068675302 -0.008234825 -0.1965816
-0.068672627 -0.0081629418 -0.19657792
-0.068670049 -0.0080911051 -0.19657221
-0.068667278 -0.0080191772 -0.19657052
-0.068664595 -0.007947294 -0.19656682
-0.068661921 -0.0078754108 -0.19656311
-0.068658859 -0.0078033544 -0.1965674
-0.068655573 -0.0077331644 -0.19657773
-0.068652488 -0.0076630618 -0.19658406
-0.068649523 -0.0075910483 -0.19658634
-0.068646841 -0.0075191651 -0.19658265
-0.06864395 -0.0074491482 -0.19658498
-0.068640985 -0.0073771384 -0.19658728
-0.068638116 -0.0073051658 -0.19658756
-0.068635121 -0.0072351079 -0.19659191
-0.068631768 -0.0071629193 -0.19660218
-0.06862887 -0.0070929043 -0.19660452
-0.068626195 -0.0070210211 -0.19660082
-0.068623424 -0.0069490951 -0.19659913
-0.068620436 -0.0068790354 -0.19660345
-0.068617366 -0.006806979 -0.19660774
-0.068614908 -0.0067332294 -0.19659801
-0.068612814 -0.006661607 -0.19658232
-0.068609849 -0.0065895934 -0.19658461
-0.068606883 -0.0065175816 -0.19658691
-0.068604693 -0.0064459145 -0.19657323
-0.068602234 -0.0063721668 -0.19656348
-0.068599239 -0.0063021071 -0.1965678
-0.068595961 -0.0062319171 -0.19657815
-0.068592794 -0.0061598159 -0.19658443
-0.068589926 -0.0060878452 -0.19658473
-0.068587154 -0.0060159191 -0.19658302
-0.068584576 -0.0059440807 -0.19657731
-0.068581581 -0.005874021 -0.19658165
-0.0685784 -0.0058038756 -0.19658999
-0.068575233 -0.0057317745 -0.19659626
-0.068572171 -0.0056597181 -0.19660056
-0.068569593 -0.0055878777 -0.19659486
-0.068566918 -0.0055159954 -0.19659115
-0.06856373 -0.0054458482 -0.19659948
-0.068560764 -0.0053738356 -0.19660178
-0.068558089 -0.0053019533 -0.19659808
-0.068555214 -0.0052299835 -0.19659837
-0.068552226 -0.0051599238 -0.1966027
-0.068549357 -0.005087954 -0.196603
-0.068546481 -0.0050159842 -0.1966033
-0.068543203 -0.004945796 -0.19661361
-0.068540238 -0.0048737805 -0.1966159
-0.068537541 -0.0048038531 -0.19661425
-0.068534277 -0.0047317073 -0.19662254
-0.068531387 -0.0046616932 -0.19662488
-0.068528928 -0.0045879427 -0.19661513
-0.068526737 -0.0045162775 -0.19660145
-0.068524279 -0.0044425279 -0.19659171
-0.068521485 -0.0043725567 -0.19659205
-0.068518512 -0.0043005412 -0.19659434
-0.06851574 -0.0042286152 -0.19659263
-0.068513379 -0.0041549085 -0.1965809
-0.068510488 -0.0040848944 -0.19658324
-0.068507008 -0.0040146168 -0.19659756
-0.068503626 -0.0039443839 -0.19660988
-0.06850037 -0.0038722381 -0.19661817
-0.068497285 -0.0038021374 -0.19662449
-0.068494506 -0.0037302114 -0.19662279
-0.068492025 -0.0036584148 -0.1966151
-0.068489954 -0.0035848385 -0.19659737
-0.068487689 -0.0035111755 -0.19658363
-0.068484917 -0.0034392495 -0.19658193
-0.068481535 -0.0033690166 -0.19659427
-0.068477944 -0.00330065 -0.19661263
-0.068474293 -0.0032283319 -0.1966289
-0.068471402 -0.003158316 -0.19663122
-0.068468943 -0.0030845655 -0.19662149
-0.068466753 -0.0030129012 -0.1966078
-0.068463884 -0.0029409304 -0.1966081
-0.068460695 -0.0028707841 -0.19661643
-0.068457633 -0.0027987277 -0.19662072
-0.068455465 -0.0027251085 -0.196605
-0.068453372 -0.002653487 -0.19658931
-0.068450503 -0.0025815172 -0.19658959
-0.068447024 -0.0025112396 -0.19660392
-0.068443939 -0.0024411371 -0.19661024
-0.068441063 -0.0023691673 -0.19661054
-0.068438098 -0.0022971537 -0.19661283
-0.068435326 -0.0022252277 -0.19661114
-0.068432942 -0.0021534748 -0.19660145
-0.068430558 -0.002081722 -0.19659173
-0.068427488 -0.0020096656 -0.19659603
-0.068424404 -0.0019395631 -0.19660237
-0.068421632 -0.001867637 -0.19660068
-0.068418659 -0.0017956235 -0.19660296
-0.068415985 -0.0017237402 -0.19659926
-0.068413116 -0.0016517704 -0.19659954
-0.068410143 -0.0015797578 -0.19660184
-0.068407059 -0.0015096543 -0.19660819
-0.0684039 -0.0014375541 -0.19661444
-0.068401299 -0.0013676696 -0.19661081
-0.068398446 -0.0012937449 -0.19660905
-0.068395652 -0.0012237728 -0.19660939
-0.06839259 -0.0011517154 -0.19661368
-0.068389617 -0.0010797027 -0.19661598
-0.068386823 -0.0010097306 -0.19661632
-0.068383761 -0.00093767419 -0.19662061
-0.068380691 -0.0008656159 -0.19662489
-0.068378016 -0.00079373363 -0.19662118
-0.068375245 -0.00072180666 -0.19661948
-0.068372354 -0.00065179169 -0.19662182
-0.068369381 -0.00057977811 -0.19662412
-0.068366513 -0.00050780829 -0.1966244
-0.06836354 -0.0004357947 -0.19662669
-0.068360358 -0.00036564842 -0.19663502
-0.068357192 -0.00029354822 -0.19664133
-0.068354517 -0.00022166595 -0.19663762
-0.068352327 -0.00014999975 -0.19662392
-0.068349846 -7.8205019e-05 -0.19661623
-0.068347074 -6.2771142e-06 -0.19661453
-0.068344302 6.5648928e-05 -0.19661283
-0.068341918 0.00013740174 -0.19660313
-0.06833934 0.00020924024 -0.19659743
-0.06833598 0.00028142706 -0.19660772
-0.06833221 0.00035183504 -0.19662803
-0.068328835 0.00042206794 -0.19664036
-0.068325959 0.00049403869 -0.19664064
-0.068323478 0.00056583434 -0.19663295
-0.068320803 0.00063771661 -0.19662926
-0.068317741 0.00070977397 -0.19663355
-0.068314746 0.00077983271 -0.19663787
-0.068311878 0.00085180253 -0.19663817
-0.068309009 0.00092377327 -0.19663846
-0.068306237 0.00099569932 -0.19663677
-0.068303339 0.0010657143 -0.19663909
-0.068300374 0.0011377279 -0.19664139
-0.068297505 0.0012096977 -0.19664168
-0.068294533 0.0012817113 -0.19664398
-0.068291642 0.0013517272 -0.1966463
-0.068288773 0.0014236961 -0.1966466
-0.068285607 0.0014957972 -0.19665289
-0.068282545 0.0015678536 -0.19665718
-0.068279751 0.0016378257 -0.19665752
-0.068276875 0.0017097965 -0.19665781
-0.068273813 0.0017818529 -0.1966621
-0.068270743 0.0018539093 -0.19666639
-0.068267874 0.0019258801 -0.19666669
-0.06826508 0.0019958522 -0.19666702
-0.068262205 0.002067822 -0.19666731
-0.068259336 0.0021397918 -0.19666761
-0.068256371 0.0022118054 -0.19666991
-0.068253592 0.0022837315 -0.19666819
-0.068251111 0.0023555276 -0.1966605
-0.068248734 0.0024272795 -0.1966508
-0.06824635 0.0024990328 -0.19664112
-0.068243571 0.0025709588 -0.19663942
-0.068240315 0.0026431032 -0.1966477
-0.068236642 0.0027134661 -0.196666
-0.068233557 0.0027835686 -0.19667235
-0.068230897 0.0028574062 -0.1966666
-0.068228513 0.002929159 -0.19665691
-0.068226427 0.00300078 -0.19664122
-0.06822326 0.0030728811 -0.19664751
-0.068219371 0.0031413771 -0.19667187
-0.068215527 0.0032137819 -0.19669212
-0.068212345 0.0032839281 -0.19670045
-0.068209372 0.0033559417 -0.19670275
-0.068206891 0.0034277374 -0.19669506
-0.068204604 0.0034994469 -0.19668336
-0.068201832 0.0035713729 -0.19668165
-0.068199158 0.0036432557 -0.19667797
-0.068196967 0.003714921 -0.19666427
-0.068194292 0.0037868032 -0.19666058
-0.068191327 0.0038588177 -0.19666287
-0.068188451 0.0039307871 -0.19666316
-0.068185776 0.0040026698 -0.19665946
-0.068183005 0.0040745968 -0.19665775
-0.068180233 0.0041465219 -0.19665605
-0.06817773 0.0042163637 -0.1966504
-0.068174854 0.0042883339 -0.19665068
-0.068171598 0.0043604784 -0.19665897
-0.068168335 0.0044326219 -0.19666725
-0.068165056 0.0045028119 -0.1966776
-0.068161793 0.0045749559 -0.19668587
-0.068159021 0.0046468824 -0.19668417
-0.06815654 0.0047186781 -0.19667646
-0.068154059 0.0047904737 -0.19666877
-0.068151169 0.0048604896 -0.19667111
-0.068147711 0.0049327207 -0.19668338
-0.068144739 0.0050047338 -0.19668567
-0.068142064 0.005076617 -0.19668198
-0.068139292 0.0051485435 -0.19668028
-0.068136401 0.0052185589 -0.19668262
-0.068133332 0.0052906158 -0.19668691
-0.068130463 0.0053625861 -0.19668719
-0.068127789 0.0054344684 -0.1966835
-0.06812501 0.0055063949 -0.1966818
-0.068122432 0.0055782339 -0.19667609
-0.068119757 0.0056501171 -0.19667241
-0.068116285 0.0057203937 -0.19668671
-0.068112731 0.005792669 -0.19670099
-0.068110734 0.0058642467 -0.19668332
-0.068109617 0.0059354329 -0.19664764
-0.06810794 0.0060088346 -0.19662194
-0.068104774 0.0060809352 -0.19662821
-0.068100713 0.0061514731 -0.19665453
-0.06809704 0.0062218374 -0.19667284
-0.068094172 0.0062938072 -0.19667314
-0.068091691 0.0063656024 -0.19666544
-0.068088919 0.0064375289 -0.19666374
-0.068085827 0.0065076319 -0.19667007
-0.06808237 0.0065798634 -0.19668235
-0.068078525 0.0066522681 -0.1967026
-0.068075344 0.0067224144 -0.19671094
-0.06807337 0.0067959465 -0.19669122
-0.068071961 0.0068672635 -0.19666156
-0.068070062 0.0069387984 -0.19664188
-0.068067484 0.0070106378 -0.19663619
-0.068064786 0.0070805661 -0.19663453
-0.068061821 0.0071525793 -0.19663683
-0.068058558 0.0072247232 -0.1966451
-0.068055399 0.0072968239 -0.19665137
-0.068053208 0.0073684892 -0.19663769
-0.068052284 0.0074395887 -0.19659805
-0.068050973 0.0075108614 -0.19656637
-0.068047717 0.0075830054 -0.19657466
-0.068044841 0.0076549756 -0.19657496
-0.06804236 0.0077267718 -0.19656727
-0.068039469 0.0077967867 -0.19656959
-0.068036117 0.0078689754 -0.19657987
-0.068032168 0.007941423 -0.19660214
-0.068028495 0.0080117872 -0.19662046
-0.068024457 0.0080842795 -0.19664472
-0.068020687 0.0081546865 -0.19666503
-0.068017915 0.0082266135 -0.19666332
-0.068015628 0.0082983226 -0.19665164
-0.068013735 0.0083698565 -0.19663197
-0.068012342 0.0084431283 -0.19660026
-0.068011016 0.0085124467 -0.19657063
-0.068008453 0.0085862409 -0.19656289
-0.068005562 0.0086562559 -0.19656524
-0.068003178 0.0087280087 -0.19655554
-0.068001866 0.0087992819 -0.19652387
-0.067999586 0.00887099 -0.19651219
-0.067995928 0.0089433091 -0.19652846
-0.068973564 -0.010809032 -0.19248593
-0.06896995 -0.01074262 -0.19250634
-0.068965413 -0.010679726 -0.19254881
-0.068959981 -0.010618394 -0.19261131
-0.068954647 -0.010557106 -0.19267181
-0.068949215 -0.010495774 -0.19273427
-0.06894388 -0.010434486 -0.19279478
-0.068938844 -0.01037333 -0.19284928
-0.068933293 -0.010313908 -0.19291581
-0.068927251 -0.010254269 -0.19299233
-0.068920925 -0.010194499 -0.19307484
-0.06891375 -0.010140246 -0.19317946
-0.068906702 -0.01008408 -0.19328003
-0.068899862 -0.010026047 -0.19337457
-0.068893 -0.0099699702 -0.19347116
-0.068886049 -0.0099138469 -0.19356973
-0.068878703 -0.0098575521 -0.19367629
-0.068871766 -0.0097994767 -0.19377282
-0.068865217 -0.0097415745 -0.1938614
-0.068859085 -0.0096818916 -0.19393989
-0.068851836 -0.0096256398 -0.19404447
-0.06864357 -0.010174746 -0.19884112
-0.068640411 -0.010102648 -0.19884738
-0.068637535 -0.010030678 -0.19884768
-0.068634473 -0.0099586193 -0.19885197
-0.068631597 -0.0098866504 -0.19885227
-0.068628654 -0.0098126829 -0.19885251
-0.068625487 -0.0097405799 -0.1988588
-0.068622619 -0.0096686129 -0.1988591
-0.06861984 -0.0095966849 -0.1988574
-0.068616875 -0.0095246714 -0.19885969
-0.068613924 -0.0094507039 -0.19885993
-0.068611056 -0.0093787331 -0.19886023
-0.068608083 -0.0093067214 -0.19886252
-0.068604924 -0.0092346203 -0.19886881
-0.068601854 -0.0091625638 -0.19887309
-0.068598807 -0.0090885516 -0.19887534
-0.068595938 -0.0090165827 -0.19887564
-0.068593286 -0.0089427438 -0.19886988
-0.068590723 -0.0088689514 -0.19886214
-0.068587542 -0.0087988041 -0.19887047
-0.068584181 -0.0087266173 -0.19888075
-0.068581313 -0.0086546466 -0.19888103
-0.068578556 -0.0085807666 -0.19887729
-0.068575591 -0.008508753 -0.1988796
-0.068572327 -0.0084366091 -0.19888787
-0.068569064 -0.0083644651 -0.19889614
-0.068566196 -0.0082924943 -0.19889644
-0.068563223 -0.0082204826 -0.19889873
-0.06856028 -0.0081465133 -0.19889897
-0.068557605 -0.0080746301 -0.19889528
-0.068554752 -0.0080007054 -0.19889352
-0.068551883 -0.0079287365 -0.19889382
-0.068548717 -0.0078566354 -0.1989001
-0.068545453 -0.0077844914 -0.19890839
-0.068542488 -0.007712476 -0.19891068
-0.068539537 -0.0076385103 -0.19891092
-0.068536863 -0.0075666271 -0.19890723
-0.068533793 -0.0074945688 -0.19891152
-0.068530552 -0.0074204728 -0.19891775
-0.068527684 -0.0073485021 -0.19891804
-0.068525031 -0.0072746649 -0.19891229
-0.068522468 -0.0072008688 -0.19890456
-0.068519697 -0.0071289446 -0.19890286
-0.06851653 -0.0070568454 -0.19890913
-0.068513371 -0.0069847442 -0.19891542
-0.068510398 -0.0069127306 -0.19891772
-0.068507552 -0.006838806 -0.19891596
-0.068504483 -0.0067667495 -0.19892025
-0.068501316 -0.0066946484 -0.19892654
-0.068498254 -0.006622592 -0.19893083
-0.068495303 -0.0065486226 -0.19893107
-0.068492338 -0.0064766109 -0.19893336
-0.068489075 -0.0064044651 -0.19894165
-0.068485811 -0.0063323211 -0.19894993
-0.068482652 -0.0062602218 -0.19895622
-0.068479583 -0.0061881654 -0.19896051
-0.068476714 -0.0061161928 -0.1989608
-0.068474151 -0.0060424004 -0.19895305
-0.068471983 -0.0059687812 -0.19893733
-0.068469621 -0.0058950745 -0.19892558
-0.068467088 -0.0058193263 -0.19891579
-0.068464406 -0.0057474449 -0.1989121
-0.068461441 -0.0056754295 -0.19891439
-0.0684582 -0.0056013316 -0.19892064
-0.068455018 -0.0055311853 -0.19892897
-0.068451658 -0.0054589985 -0.19893923
-0.068448395 -0.0053868527 -0.19894752
-0.068445034 -0.0053146668 -0.1989578
-0.068441674 -0.0052424781 -0.19896808
-0.068438709 -0.0051704645 -0.19897038
-0.06843584 -0.0050984956 -0.19897068
-0.068433277 -0.0050247014 -0.19896293
-0.068430819 -0.0049509527 -0.19895318
-0.068428166 -0.0048771128 -0.19894743
-0.068425193 -0.004805102 -0.19894972
-0.068422034 -0.004733 -0.19895601
-0.068419062 -0.0046609864 -0.19895831
-0.068416111 -0.0045870189 -0.19895855
-0.068413049 -0.0045149624 -0.19896284
-0.068409592 -0.0044427291 -0.19897512
-0.068406522 -0.0043706745 -0.19897941
-0.068403751 -0.0042987466 -0.19897771
-0.068400897 -0.0042248219 -0.19897595
-0.068397954 -0.0041508554 -0.19897619
-0.068395182 -0.0040789274 -0.19897449
-0.068392426 -0.0040050484 -0.19897075
-0.06838946 -0.003933033 -0.19897303
-0.068386294 -0.0038609337 -0.19897932
-0.068383224 -0.0037888763 -0.19898361
-0.068379968 -0.0037167333 -0.19899189
-0.068377018 -0.0036427658 -0.19899213
-0.06837415 -0.0035707951 -0.19899243
-0.068371177 -0.0034987805 -0.19899473
-0.068367936 -0.0034246827 -0.19900095
-0.068364874 -0.0033526253 -0.19900525
-0.068362214 -0.0032787891 -0.19899951
-0.068359733 -0.0032069935 -0.19899181
-0.068356767 -0.0031349799 -0.1989941
-0.068353526 -0.003060881 -0.19900034
-0.06835065 -0.0029889112 -0.19900063
-0.068347901 -0.0029150303 -0.19899689
-0.068345025 -0.0028430605 -0.19899717
-0.068342276 -0.0027691796 -0.19899343
-0.068339601 -0.0026972955 -0.19898973
-0.068336844 -0.0026234156 -0.19898599
-0.068334192 -0.0025495794 -0.19898024
-0.068331219 -0.0024775648 -0.19898254
-0.06832806 -0.0024054646 -0.19898883
-0.0683247 -0.002333276 -0.19899911
-0.068321437 -0.0022611329 -0.19900738
-0.068318471 -0.0021891193 -0.19900967
-0.068315811 -0.0021152822 -0.19900393
-0.068313256 -0.0020414889 -0.19899619
-0.068310581 -0.0019696057 -0.19899248
-0.068307318 -0.0018974617 -0.19900076
-0.068303667 -0.0018251436 -0.19901703
-0.068300404 -0.0017529996 -0.1990253
-0.068297729 -0.0016811164 -0.19902161
-0.068294778 -0.0016071489 -0.19902186
-0.068291619 -0.0015350478 -0.19902815
-0.068288863 -0.0014611669 -0.19902441
-0.068286188 -0.0013892837 -0.1990207
-0.068283021 -0.0013171835 -0.19902699
-0.068279982 -0.0012431731 -0.19902924
-0.068277009 -0.0011711586 -0.19903152
-0.068274155 -0.001097234 -0.19902977
-0.068271481 -0.0010253517 -0.19902608
-0.068268418 -0.00095329527 -0.19903035
-0.068265274 -0.00087923929 -0.1990346
-0.068262108 -0.00080713816 -0.19904089
-0.068258852 -0.00073499512 -0.19904917
-0.068255782 -0.00066293776 -0.19905345
-0.068252638 -0.00058888365 -0.1990577
-0.068249479 -0.00051678251 -0.19906399
-0.068246506 -0.00044476986 -0.19906627
-0.068243459 -0.00037075765 -0.19906852
-0.06824059 -0.00029878877 -0.1990688
-0.068237722 -0.00022681803 -0.19906911
-0.068234868 -0.00015289336 -0.19906735
-0.068232015 -7.8968704e-05 -0.1990656
-0.068229146 -6.9988891e-06 -0.19906589
-0.068226174 6.5013766e-05 -0.19906819
-0.068223424 0.00013889465 -0.19906443
-0.068220869 0.000212688 -0.19905668
-0.068218186 0.00028457213 -0.19905299
-0.068215631 0.00035836548 -0.19904526
-0.068213657 0.00043189805 -0.19902553
-0.068211488 0.00050551724 -0.19900981
-0.068208426 0.0005775746 -0.1990141
-0.068204969 0.00064980518 -0.19902636
-0.068201728 0.000723904 -0.1990326
-0.068198271 0.00079613551 -0.19904488
-0.068195105 0.00086823571 -0.19905116
-0.068192624 0.00094003137 -0.19904345
-0.068189971 0.0010138685 -0.19903772
-0.068186805 0.0010859696 -0.19904402
-0.068183541 0.0011581127 -0.19905229
-0.068180501 0.0012321249 -0.19905454
-0.068177529 0.0013041375 -0.19905682
-0.06817437 0.0013762387 -0.19906312
-0.068170913 0.0014484692 -0.19907539
-0.068167962 0.0015224377 -0.19907564
-0.068165094 0.0015944084 -0.19907594
-0.06816195 0.0016684625 -0.19908017
-0.068159178 0.0017403895 -0.19907847
-0.068156615 0.0018141828 -0.19907072
-0.068154037 0.0018860213 -0.19906503
-0.068150871 0.0019581225 -0.1990713
-0.068147533 0.0020322641 -0.19907954
-0.068144664 0.0021042349 -0.19907984
-0.068141617 0.0021782462 -0.19908208
-0.068138257 0.0022504339 -0.19909236
-0.068134703 0.0023227092 -0.19910663
-0.06813135 0.002394896 -0.19911692
-0.068128474 0.0024668658 -0.19911721
-0.068125919 0.0025406592 -0.19910946
-0.068123557 0.0026143659 -0.19909772
-0.068120681 0.0026863366 -0.19909802
-0.068117738 0.0027603037 -0.19909827
-0.068114862 0.002832274 -0.19909856
-0.068111524 0.0029064165 -0.1991068
-0.068108365 0.0029785158 -0.19911309
-0.068105392 0.0030505299 -0.19911537
-0.068102129 0.0031226734 -0.19912365
-0.068098776 0.0031948611 -0.19913393
-0.068095632 0.0032689162 -0.19913818
-0.068092369 0.0033410606 -0.19914645
-0.068089202 0.0034131608 -0.19915274
-0.068086356 0.0034870855 -0.19915099
-0.068083189 0.0035591857 -0.19915727
-0.068080023 0.0036312868 -0.19916356
-0.068076983 0.0037052976 -0.19916581
-0.068073623 0.0037774849 -0.19917609
-0.068070166 0.0038497169 -0.19918835
-0.068066902 0.0039218604 -0.19919664
-0.068063959 0.0039958283 -0.19919689
-0.068061672 0.0040675369 -0.19918519
-0.068059601 0.0041411133 -0.19916748
-0.06805753 0.0042146891 -0.19914974
-0.068055265 0.0042883526 -0.19913602
-0.068052903 0.0043620588 -0.19912428
-0.068050712 0.0044337246 -0.1991106
-0.068048157 0.0045075184 -0.19910285
-0.068045206 0.0045814859 -0.19910309
-0.068042137 0.0046535428 -0.19910738
-0.068039268 0.004725513 -0.19910768
-0.06803593 0.0047996552 -0.19911592
-0.06803228 0.0048719733 -0.19913217
-0.068028726 0.0049442472 -0.19914645
-0.068025656 0.0050163046 -0.19915074
-0.06802281 0.0050902292 -0.199149
-0.068019837 0.0051622428 -0.19915128
-0.068016969 0.0052342126 -0.19915158
-0.068013728 0.005308311 -0.19915783
-0.068010271 0.005380542 -0.1991701
-0.068006933 0.0054546846 -0.19917834
-0.068004064 0.0055266544 -0.19917862
-0.068001188 0.0055986242 -0.19917892
-0.067998044 0.0056726788 -0.19918317
-0.067995079 0.0057446924 -0.19918545
-0.067992128 0.0058186604 -0.1991857
-0.06798926 0.0058906302 -0.199186
-0.067986384 0.0059626 -0.19918628
-0.067983441 0.006036568 -0.19918653
-0.067980766 0.0061084507 -0.19918282
-0.067977816 0.0061824187 -0.19918308
-0.067974649 0.0062545193 -0.19918936
-0.067971386 0.0063266633 -0.19919765
-0.067968249 0.0064007184 -0.19920188
-0.067965567 0.0064726011 -0.19919819
-0.067962818 0.006546482 -0.19919443
-0.067960046 0.0066184085 -0.19919273
-0.067957193 0.0066923331 -0.19919097
-0.067954026 0.0067644333 -0.19919726
-0.06795077 0.0068365769 -0.19920555
-0.067947723 0.0069105886 -0.1992078
-0.067944854 0.0069825584 -0.19920808
-0.067941688 0.0070546595 -0.19921437
-0.067938544 0.0071287141 -0.19921862
-0.067935675 0.0072006839 -0.1992189
-0.067932725 0.0072746519 -0.19921915
-0.067929655 0.0073467093 -0.19922343
-0.067926511 0.0074207638 -0.19922769
-0.067923836 0.0074926466 -0.19922398
-0.067920789 0.0075666578 -0.19922623
-0.067917727 0.0076387152 -0.19923052
-0.067915067 0.0077125523 -0.19922477
-0.067912392 0.0077844355 -0.19922107
-0.067909054 0.0078585781 -0.1992293
-0.067905501 0.0079308515 -0.19924358
-0.06790214 0.0080030393 -0.19925386
-0.0678991 0.0080770515 -0.19925609
-0.067896321 0.0081489775 -0.19925439
-0.067893572 0.0082228584 -0.19925065
-0.067890994 0.0082946979 -0.19924495
-0.067888334 0.008368535 -0.19923919
-0.067885466 0.0084405048 -0.19923951
-0.067882299 0.008512605 -0.19924578
-0.067878962 0.0085867476 -0.19925402
-0.067875803 0.0086588478 -0.19926029
-0.067872852 0.0087328162 -0.19926055
-0.067869879 0.0088048289 -0.19926286
-0.067866936 0.0088787973 -0.1992631
-0.067864262 0.0089506796 -0.1992594
-0.067861311 0.009024648 -0.19925964
-0.067858338 0.0090966616 -0.19926193
-0.06785588 0.0091704112 -0.19925219
-0.067853205 0.0092422944 -0.19924849
-0.06784977 0.0093164798 -0.19925871
-0.067846604 0.00938858 -0.199265
-0.067843832 0.009460507 -0.1992633
-0.067841075 0.0095343869 -0.19925955
-0.067838497 0.0096062263 -0.19925386
-0.067835554 0.0096801948 -0.1992541
-0.067832679 0.0097521646 -0.19925439
-0.067829728 0.0098261321 -0.19925465
-0.06782686 0.0098981019 -0.19925493
-0.067823894 0.0099701155 -0.19925722
-0.067820653 0.010044214 -0.19926345
-0.067817487 0.010116315 -0.19926974
-0.067814343 0.01019037 -0.19927399
-0.067811474 0.010262339 -0.19927429
-0.067808136 0.010336482 -0.19928253
-0.067804776 0.01040867 -0.19929281
-0.067801632 0.010482725 -0.19929704
-0.067798764 0.010554695 -0.19929734
-0.06779591 0.010628618 -0.19929558
-0.067793526 0.010700371 -0.19928589
-0.06779097 0.010774164 -0.19927815
-0.067788295 0.010846048 -0.19927445
-0.067785345 0.010920015 -0.19927469
-0.067782573 0.010991941 -0.19927299
-0.067779623 0.01106591 -0.19927323
-0.067776553 0.011137966 -0.19927752
-0.06777361 0.011211934 -0.19927777
-0.067770638 0.011283948 -0.19928005
-0.067767009 0.01135822 -0.1992943
-0.067763261 0.011430582 -0.19931257
-0.067759827 0.011504767 -0.19932279
-0.067757048 0.011576694 -0.19932109
-0.067754298 0.011650575 -0.19931734
-0.067751527 0.011722501 -0.19931564
-0.067748941 0.011794341 -0.19930995
-0.067746773 0.01186796 -0.19929421
-0.067744493 0.011939669 -0.19928253
-0.067741446 0.01201368 -0.19928476
-0.067738496 0.012087649 -0.199285
-0.067736305 0.012159314 -0.19927132
-0.06773404 0.012232976 -0.19925758
-0.067731269 0.012304903 -0.19925588
-0.067728415 0.012378827 -0.19925413
-0.06772545 0.01245084 -0.19925642
-0.067723066 0.012522593 -0.19924673
-0.06772168 0.012595864 -0.19921502
-0.067719877 0.012667355 -0.19919334
-0.067716837 0.012741366 -0.19919559
-0.067713477 0.012813554 -0.19920588
-0.067711189 0.012885263 -0.19919419
-0.068984941 -0.010769449 -0.19222775
-0.06898234 -0.010699565 -0.19222412
-0.068979621 -0.010631591 -0.19222449
-0.068976514 -0.010563442 -0.19223286
-0.068973407 -0.010495294 -0.19224125
-0.068970516 -0.010425277 -0.19224358
-0.068967797 -0.010357304 -0.19224396
-0.068965197 -0.010287419 -0.19224033
-0.068962596 -0.010217534 -0.19223666
-0.068959296 -0.0101493 -0.19224903
-0.068955973 -0.01008302 -0.19226345
-0.068952866 -0.010014869 -0.19227183
-0.068949372 -0.0099465474 -0.19228819
-0.068945736 -0.0098820906 -0.19231063
-0.068942532 -0.0098138992 -0.19232103
-0.068939008 -0.0097475313 -0.19233942
-0.068935007 -0.0096809454 -0.19236782
-0.068931296 -0.0096144918 -0.19239023
-0.068927482 -0.0095479917 -0.19241463
-0.068923362 -0.0094833188 -0.19244707
-0.068918943 -0.0094185136 -0.1924855
-0.068914115 -0.0093554873 -0.19253395
-0.068909585 -0.0092925932 -0.19257644
-0.068904974 -0.0092277005 -0.19261885
-0.068900146 -0.0091646742 -0.19266731
-0.068895414 -0.0091016926 -0.19271377
-0.068890512 -0.0090366714 -0.1927622
-0.068884961 -0.0089772493 -0.19282873
-0.068878829 -0.0089175664 -0.19290724
-0.068872713 -0.0088559315 -0.19298372
-0.068867572 -0.0087947305 -0.19304021
-0.068862066 -0.0087314006 -0.19310264
-0.068857044 -0.0086682886 -0.19315511
-0.068852216 -0.0086052641 -0.19320357
-0.068847194 -0.0085421503 -0.19325602
-0.068841785 -0.008478865 -0.19331646
-0.068836667 -0.0084157083 -0.19337091
-0.068831839 -0.0083526839 -0.19341937
-0.068826333 -0.0082893539 -0.19348182
-0.068820097 -0.0082296282 -0.19356233
-0.068813257 -0.0081715975 -0.19365686
-0.068805739 -0.0081132594 -0.19376539
-0.068796575 -0.0080620423 -0.19391404
-0.068786904 -0.008012563 -0.19407472
-0.068777859 -0.0079594366 -0.19421932
-0.068768211 -0.0079080034 -0.19437796
-0.068746582 -0.0078865681 -0.19481106
-0.068736114 -0.0078386944 -0.19498977
-0.068728298 -0.0077802259 -0.19510427
-0.068722889 -0.0077169407 -0.19516471
-0.068503395 -0.0082158688 -0.20015399
-0.068501346 -0.0081403367 -0.20013422
-0.068499297 -0.0080648065 -0.20011444
-0.06849654 -0.0079909265 -0.2001107
-0.068493396 -0.0079168696 -0.20011494
-0.068490528 -0.0078449026 -0.20011523
-0.06848719 -0.00777076 -0.20012346
-0.06848371 -0.0077004824 -0.20013779
-0.06848035 -0.0076282956 -0.20014808
-0.068477206 -0.0075542387 -0.20015231
-0.068474531 -0.0074823573 -0.20014861
-0.068471603 -0.007406434 -0.20014681
-0.068468831 -0.007334508 -0.2001451
-0.068465784 -0.0072604977 -0.20014735
-0.068462834 -0.0071865283 -0.2001476
-0.068460062 -0.0071146041 -0.2001459
-0.068456918 -0.0070405472 -0.20015013
-0.068453461 -0.0069683176 -0.20016241
-0.068450496 -0.0068963021 -0.20016471
-0.068447955 -0.0068205558 -0.20015492
-0.06844569 -0.0067468919 -0.20014119
-0.06844335 -0.0066712294 -0.20012741
-0.0684404 -0.0065972637 -0.20012765
-0.068436533 -0.006526811 -0.20014997
-0.068432666 -0.0064563621 -0.20017228
-0.068428606 -0.0063858237 -0.20019858
-0.068425268 -0.0063116811 -0.20020682
-0.068423115 -0.006236108 -0.20018904
-0.068420559 -0.0061623137 -0.20018129
-0.068417706 -0.0060883891 -0.20017955
-0.068414956 -0.0060145091 -0.20017579
-0.068412103 -0.0059405826 -0.20017403
-0.068408944 -0.0058684852 -0.20018032
-0.068405271 -0.0057981201 -0.20019865
-0.068401426 -0.0057257153 -0.20021892
-0.068398066 -0.0056535266 -0.20022918
-0.068395212 -0.0055796038 -0.20022744
-0.068392463 -0.0055057202 -0.20022368
-0.068389706 -0.0054318411 -0.20021994
-0.06838695 -0.0053579602 -0.2002162
-0.068384178 -0.0052860342 -0.20021449
-0.068380937 -0.0052119344 -0.20022073
-0.068377577 -0.0051397476 -0.20023102
-0.068374418 -0.0050676474 -0.20023729
-0.068371177 -0.0049935468 -0.20024353
-0.06836801 -0.0049214484 -0.20024982
-0.068365157 -0.0048475238 -0.20024806
-0.068362601 -0.0047737295 -0.20024031
-0.068360142 -0.004699979 -0.20023058
-0.068357699 -0.0046242755 -0.2002188
-0.068354949 -0.0045503946 -0.20021504
-0.06835188 -0.0044783382 -0.20021933
-0.068348542 -0.0044041956 -0.20022759
-0.068344966 -0.0043338761 -0.20024389
-0.068341434 -0.004259645 -0.20025611
-0.068338469 -0.0041876324 -0.2002584
-0.068335421 -0.0041136201 -0.20026065
-0.068331867 -0.0040413458 -0.20027493
-0.068328604 -0.0039692037 -0.2002832
-0.068326361 -0.0038935831 -0.20026743
-0.068324506 -0.0038181413 -0.20024367
-0.068321459 -0.003744131 -0.20024592
-0.068318099 -0.0036719423 -0.2002562
-0.068315037 -0.0035998849 -0.20026049
-0.068312183 -0.0035259612 -0.20025873
-0.068309531 -0.0034521241 -0.20025298
-0.06830629 -0.0033780253 -0.20025922
-0.068303026 -0.0033058813 -0.20026749
-0.06830027 -0.0032320004 -0.20026375
-0.068297327 -0.0031580329 -0.20026401
-0.068294063 -0.0030858889 -0.20027229
-0.0682908 -0.003013745 -0.20028058
-0.068287462 -0.0029396024 -0.2002888
-0.068283908 -0.002867328 -0.20030308
-0.068280846 -0.0027952706 -0.20030737
-0.068277799 -0.0027212584 -0.2003096
-0.068274848 -0.0026472919 -0.20030986
-0.068272196 -0.0025734548 -0.20030412
-0.068269633 -0.0024996605 -0.20029637
-0.068266571 -0.0024276031 -0.20030066
-0.06826333 -0.0023535043 -0.20030689
-0.068260163 -0.0022814041 -0.20031318
-0.068256825 -0.0022072624 -0.20032141
-0.06825386 -0.0021352498 -0.2003237
-0.068250909 -0.0020612814 -0.20032395
-0.068247959 -0.0019873129 -0.20032421
-0.068245105 -0.0019133883 -0.20032245
-0.068242237 -0.0018414194 -0.20032273
-0.068239093 -0.0017673643 -0.20032698
-0.068236046 -0.0016933531 -0.20032921
-0.068233274 -0.0016214261 -0.20032752
-0.068230227 -0.0015474148 -0.20032978
-0.068227381 -0.0014734901 -0.20032802
-0.068224624 -0.0013996102 -0.20032427
-0.068221658 -0.0013275966 -0.20032656
-0.068218216 -0.0012534102 -0.20033678
-0.068214469 -0.0011810493 -0.20035505
-0.068210818 -0.0011087311 -0.20037133
-0.068207972 -0.0010348065 -0.20036958
-0.068205118 -0.00096088182 -0.20036784
-0.06820225 -0.00088891108 -0.20036811
-0.068199493 -0.00081503205 -0.20036438
-0.068196744 -0.00074115116 -0.20036063
-0.068193503 -0.00066705234 -0.20036685
-0.068190239 -0.00059490744 -0.20037514
-0.068186998 -0.00052080862 -0.20038138
-0.068183541 -0.00044857897 -0.20039365
-0.068179987 -0.00037630461 -0.20040794
-0.068176746 -0.00030220579 -0.20041418
-0.068173699 -0.00022819359 -0.20041642
-0.068171144 -0.00015440024 -0.20040867
-0.068168782 -8.0693513e-05 -0.20039694
-0.068166517 -7.0305541e-06 -0.2003832
-0.068164147 6.6677108e-05 -0.20037147
-0.068161204 0.00014064461 -0.20037171
-0.068157747 0.00021287613 -0.20038399
-0.068153821 0.00028727856 -0.2004042
-0.068150148 0.00035764277 -0.20042253
-0.0681464 0.00043000467 -0.20044079
-0.068142772 0.00050427672 -0.20045501
-0.068139799 0.0005762903 -0.2004573
-0.068137266 0.00065203849 -0.20044753
-0.068135291 0.00072557107 -0.2004278
-0.068133317 0.00079910364 -0.20040807
-0.068131365 0.00087459013 -0.2003863
-0.068128809 0.0009483844 -0.20037857
-0.068125568 0.0010224823 -0.2003848
-0.068122305 0.0010946263 -0.20039308
-0.068119161 0.0011686813 -0.20039731
-0.068115801 0.00124087 -0.20040759
-0.068112463 0.0013150116 -0.20041583
-0.068109103 0.0013871994 -0.20042612
-0.068104871 0.0014597783 -0.20045437
-0.068100341 0.0015324885 -0.20048861
-0.068097368 0.0016045021 -0.20049089
-0.068096004 0.0016797278 -0.20045716
-0.068094052 0.0017552152 -0.20043539
-0.068091296 0.0018290961 -0.20043164
-0.06808874 0.0019028895 -0.2004239
-0.06808608 0.0019767266 -0.20041814
-0.068082824 0.0020488705 -0.20042643
-0.068078876 0.0021213191 -0.20044869
-0.068074934 0.0021937685 -0.20047095
-0.068071306 0.0022680415 -0.20048517
-0.068067946 0.0023402283 -0.20049545
-0.068065383 0.0024140216 -0.2004877
-0.068063334 0.0024895519 -0.20046794
-0.068060972 0.0025632591 -0.2004562
-0.068058118 0.0026371828 -0.20045446
-0.068054661 0.0027094143 -0.20046672
-0.068050817 0.0027818196 -0.200487
-0.068047091 0.0028561358 -0.20050323
-0.068043634 0.0029283669 -0.20051551
-0.06804008 0.0030006422 -0.20052978
-0.068036936 0.0030746972 -0.20053402
-0.068033986 0.0031486657 -0.20053425
-0.068030842 0.0032227188 -0.20053852
-0.068027973 0.0032946896 -0.20053878
-0.068025902 0.0033682659 -0.20052108
-0.068024144 0.0034436658 -0.2004953
-0.068021879 0.0035173283 -0.20048156
-0.068019226 0.0035911659 -0.20047583
-0.068016566 0.0036650035 -0.20047009
-0.06801372 0.0037389281 -0.20046833
-0.068010867 0.0038128518 -0.20046657
-0.068007603 0.0038849954 -0.20047486
-0.068004169 0.0039591813 -0.2004851
-0.068000615 0.0040314556 -0.20049937
-0.067997083 0.0041056853 -0.2005116
-0.067993917 0.0041777864 -0.20051788
-0.067990676 0.0042518843 -0.20052412
-0.067987338 0.0043260264 -0.20053235
-0.067984179 0.0043981266 -0.20053864
-0.067981325 0.0044720508 -0.20053688
-0.06797877 0.0045458446 -0.20052914
-0.067975722 0.0046198559 -0.20053139
-0.067972481 0.0046939552 -0.20053762
-0.067969412 0.0047660116 -0.20054191
-0.067966171 0.00484011 -0.20054816
-0.067962915 0.0049122539 -0.20055643
-0.067959376 0.0049864831 -0.20056866
-0.067956626 0.005060364 -0.20056492
-0.067954458 0.0051339837 -0.20054919
-0.067951411 0.005207995 -0.20055142
-0.067948148 0.0052801389 -0.20055971
-0.067945592 0.0053539327 -0.20055199
-0.067943051 0.0054296814 -0.20054218
-0.067940377 0.0055015637 -0.20053849
-0.067936845 0.0055757929 -0.20055071
-0.067933507 0.0056499345 -0.20055896
-0.067930631 0.0057219048 -0.20055924
-0.06792739 0.0057960036 -0.20056549
-0.067923546 0.0058684088 -0.20058575
-0.067919523 0.005942855 -0.20060796
-0.067915678 0.0060152607 -0.20062822
-0.06791234 0.0060894028 -0.20063646
-0.067909785 0.0061631966 -0.20062871
-0.067907222 0.0062369904 -0.20062098
-0.067904547 0.0063088732 -0.20061728
-0.067901798 0.0063827536 -0.20061353
-0.067898653 0.0064568091 -0.20061776
-0.067895703 0.0065307766 -0.20061801
-0.067893438 0.00660444 -0.20060427
-0.067891076 0.0066781463 -0.20059255
-0.067888029 0.0067521576 -0.20059478
-0.067884281 0.0068245195 -0.20061305
-0.067880355 0.0068989228 -0.20063327
-0.067877188 0.0069710235 -0.20063955
-0.067874439 0.0070449044 -0.20063582
-0.06787198 0.0071186544 -0.20062608
-0.067869321 0.0071924916 -0.20062032
-0.067866273 0.0072665028 -0.20062256
-0.067863017 0.0073386473 -0.20063084
-0.067859776 0.0074127456 -0.2006371
-0.067857116 0.0074865827 -0.20063135
-0.067853972 0.0075606378 -0.20063558
-0.067850225 0.0076329997 -0.20065385
-0.067846209 0.0077074468 -0.20067607
-0.067843042 0.007779547 -0.20068237
-0.067840092 0.0078535154 -0.20068261
-0.067836948 0.0079275696 -0.20068684
-0.067834102 0.0080014942 -0.20068508
-0.067831539 0.0080752876 -0.20067735
-0.067828692 0.0081492122 -0.20067561
-0.067825429 0.0082213562 -0.20068388
-0.067822769 0.0082951933 -0.20067814
-0.067820311 0.0083689438 -0.20066839
-0.06781736 0.0084429113 -0.20066863
-0.067814417 0.0085168798 -0.20066889
-0.06781137 0.008590891 -0.20067114
-0.067807816 0.0086631654 -0.20068541
-0.067803994 0.008737525 -0.20070362
-0.067800649 0.0088116676 -0.20071186
-0.067797586 0.008883724 -0.20071615
-0.067795023 0.0089575183 -0.2007084
-0.067792758 0.0090311812 -0.20069468
-0.067790009 0.0091050621 -0.20069093
-0.067786574 0.0091792475 -0.20070116
-0.067783505 0.009251304 -0.20070544
-0.067780577 0.0093272263 -0.20070365
-0.067777708 0.0093991971 -0.20070395
-0.067774467 0.009473295 -0.20071018
-0.067770831 0.0095475679 -0.20072442
-0.067767769 0.0096196253 -0.20072868
-0.067765117 0.0096934624 -0.20072295
-0.067762651 0.009767212 -0.20071322
-0.067760676 0.0098407445 -0.20069349
-0.067758806 0.0099142333 -0.20067176
-0.067756049 0.0099881142 -0.20066801
-0.067752026 0.010062561 -0.20069024
-0.067748472 0.010134836 -0.20070451
-0.06774582 0.010208674 -0.20069876
-0.067743361 0.010282423 -0.20068902
-0.067740411 0.010356391 -0.20068927
-0.067736782 0.010430664 -0.2007035
-0.067733325 0.010502895 -0.20071578
-0.067730471 0.010576819 -0.20071402
-0.06772723 0.010650918 -0.20072025
-0.067723602 0.010725191 -0.20073448
-0.067719966 0.010799463 -0.20074871
-0.067716807 0.010871563 -0.200755
-0.067713588 0.010947617 -0.20075919
-0.067710131 0.011019848 -0.20077147
-0.067707084 0.011093859 -0.20077372
-0.067704529 0.011167653 -0.20076597
-0.067701772 0.011241534 -0.20076221
-0.067698628 0.011315589 -0.20076646
-0.067695759 0.011387559 -0.20076676
-0.067692615 0.011461614 -0.200771
-0.067689568 0.011535625 -0.20077324
-0.067686424 0.01160968 -0.20077747
-0.067683473 0.011683648 -0.20077772
-0.067680821 0.011757485 -0.20077199
-0.067677751 0.011829542 -0.20077626
-0.067674339 0.011905682 -0.20078444
-0.067671172 0.011977782 -0.20079073
-0.067667641 0.012052012 -0.20080297
-0.06766469 0.012125979 -0.20080322
-0.067662038 0.012199816 -0.20079747
-0.067659482 0.012273611 -0.20078973
-0.067656823 0.012347448 -0.20078398
-0.067653872 0.012421416 -0.20078424
-0.06765081 0.012493473 -0.20078853
-0.067647666 0.012567528 -0.20079276
-0.067644618 0.012641539 -0.20079499
-0.067641869 0.01271542 -0.20079125
-0.067638919 0.012789387 -0.20079151
-0.067635581 0.01286353 -0.20079973
-0.067632414 0.01293563 -0.20080602
-0.067629099 0.013011727 -0.20081222
-0.067625642 0.013083958 -0.20082448
-0.067622498 0.013158012 -0.20082873
-0.067619547 0.013231981 -0.20082898
-0.067616604 0.013305948 -0.20082922
-0.067613557 0.013379959 -0.20083147
-0.067610219 0.013454102 -0.2008397
-0.067606881 0.013528244 -0.20084794
-0.067603737 0.013602299 -0.20085219
-0.06760069 0.01367631 -0.20085442
-0.067597739 0.013750277 -0.20085466
-0.067595161 0.013822118 -0.20084897
-0.067592703 0.013895867 -0.20083922
-0.067590043 0.013969705 -0.20083348
-0.067586809 0.014043803 -0.20083973
-0.06758327 0.014118033 -0.20085195
-0.067579933 0.014192174 -0.20086017
-0.067577183 0.014266055 -0.20085645
-0.067574717 0.014339806 -0.2008467
-0.06757167 0.014413817 -0.20084894
-0.067568138 0.014488046 -0.20086117
-0.0675648 0.014562188 -0.20086941
-0.067561559 0.014636287 -0.20087564
-0.067558512 0.014710298 -0.20087789
-0.067556128 0.014782051 -0.20086819
-0.067553185 0.014856018 -0.20086846
-0.067549556 0.014930291 -0.20088267
-0.067546137 0.01500643 -0.20089085
-0.067543462 0.015078314 -0.20088716
-0.067540511 0.015152281 -0.20088741
-0.067537077 0.015226467 -0.20089763
-0.067533642 0.015300652 -0.20090786
-0.067530982 0.01537449 -0.20090213
-0.067528814 0.015448109 -0.2008864
-0.067526259 0.015521903 -0.20087865
-0.067522824 0.015596088 -0.20088889
-0.06751968 0.015670143 -0.20089312
-0.067516923 0.015744025 -0.20088938
-0.067513682 0.015818123 -0.20089561
-0.067510545 0.015892178 -0.20089985
-0.067507692 0.015966102 -0.20089811
-0.067504644 0.016040113 -0.20090035
-0.067501791 0.016114037 -0.20089859
-0.067498751 0.01618805 -0.20090085
-0.067495897 0.016261974 -0.20089909
-0.067493044 0.016335897 -0.20089734
-0.067490004 0.016409909 -0.20089957
-0.067486562 0.016484095 -0.20090981
-0.067483127 0.01655828 -0.20092005
-0.067479983 0.016632335 -0.20092428
-0.067476645 0.016706478 -0.20093252
-0.067473605 0.016780488 -0.20093477
-0.067470752 0.016854413 -0.20093301
-0.067467608 0.016928468 -0.20093724
-0.067464463 0.017002523 -0.2009415
-0.067461513 0.01707649 -0.20094174
-0.067458667 0.017150415 -0.20093998
-0.067456596 0.017223991 -0.20092227
-0.067454115 0.017295787 -0.20091456
-0.06744992 0.017372277 -0.20093873
-0.067444257 0.017449416 -0.20099285
-0.067436181 0.017529601 -0.20109487
-0.067427546 0.017612001 -0.2012068
-0.069001906 -0.010712646 -0.19182548
-0.068998918 -0.010642588 -0.1918298
-0.068995692 -0.010576349 -0.19184223
-0.068992391 -0.010508114 -0.1918546
-0.068989478 -0.010440055 -0.19185898
-0.068986662 -0.010372035 -0.19186136
-0.068983361 -0.010303799 -0.19187373
-0.068980329 -0.010237651 -0.19188216
-0.068977319 -0.010169547 -0.19188854
-0.068974525 -0.010099575 -0.19188888
-0.068971924 -0.01002969 -0.19188523
-0.068969131 -0.0099597182 -0.19188558
-0.068966314 -0.0098917 -0.19188796
-0.068963289 -0.00982555 -0.19189638
-0.068959981 -0.0097573139 -0.19190875
-0.068957292 -0.0096873865 -0.19190711
-0.068954982 -0.0096176323 -0.19189745
-0.068952069 -0.0095495712 -0.19190183
-0.068948865 -0.0094813779 -0.1919122
-0.068945952 -0.0094133168 -0.19191658
-0.068943352 -0.0093434323 -0.19191295
-0.068941168 -0.009271767 -0.19189924
-0.068938762 -0.0092019681 -0.19189161
-0.068936162 -0.0091320854 -0.19188796
-0.068933152 -0.0090639796 -0.19189432
-0.068929128 -0.0089993495 -0.19192477
-0.068925314 -0.0089328494 -0.19194917
-0.068731278 -0.0063741058 -0.19387676
-0.068723954 -0.0063158534 -0.19398129
-0.06871663 -0.0062576067 -0.19408581
-0.068710536 -0.0061940141 -0.19416024
-0.068704106 -0.0061342008 -0.19424474
-0.068696819 -0.0060720425 -0.19434518
-0.068690702 -0.0060104076 -0.19442165
-0.068681993 -0.0059535019 -0.19455618
-0.068549164 -0.0060257576 -0.19738531
-0.06854447 -0.0059588682 -0.19742769
-0.068388209 -0.006154187 -0.20084718
-0.068385065 -0.006080132 -0.20085144
-0.068381995 -0.0060080756 -0.20085573
-0.068379052 -0.005934108 -0.20085597
-0.068376295 -0.0058602262 -0.20085222
-0.068373248 -0.005786214 -0.20085447
-0.068370007 -0.005712118 -0.20086071
-0.068366751 -0.0056399722 -0.20086898
-0.06836351 -0.0055658743 -0.20087522
-0.068360835 -0.0054939911 -0.20087153
-0.068357907 -0.0054180697 -0.20086971
-0.068354547 -0.0053458819 -0.20088001
-0.068350993 -0.0052736057 -0.20089427
-0.068347439 -0.0052013332 -0.20090854
-0.068343885 -0.005129057 -0.20092282
-0.068340838 -0.0050550476 -0.20092507
-0.068338498 -0.0049793832 -0.20091128
-0.068335935 -0.0049055908 -0.20090353
-0.068332575 -0.004833404 -0.20091382
-0.068329044 -0.0047591748 -0.20092607
-0.06832619 -0.0046852501 -0.20092431
-0.06832274 -0.0046130195 -0.20093659
-0.068319283 -0.004540788 -0.20094886
-0.06831672 -0.0044669937 -0.20094112
-0.068313994 -0.004391158 -0.20093532
-0.06831073 -0.0043190159 -0.2009436
-0.068307683 -0.0042450028 -0.20094585
-0.068304345 -0.004170862 -0.20095408
-0.068300478 -0.0041004103 -0.20097639
-0.068297237 -0.0040263114 -0.20098263
-0.068294488 -0.0039524324 -0.20097888
-0.068291344 -0.0038783755 -0.20098312
-0.0682882 -0.0038043214 -0.20098737
-0.068285033 -0.0037322193 -0.20099366
-0.068281986 -0.0036582099 -0.20099589
-0.068279527 -0.0035844594 -0.20098615
-0.06827648 -0.0035104482 -0.2009884
-0.068273239 -0.0034363493 -0.20099464
-0.068269983 -0.0033642054 -0.20100291
-0.068266429 -0.003291931 -0.20101719
-0.068262793 -0.003217658 -0.20103142
-0.06825985 -0.0031436896 -0.20103166
-0.068257503 -0.0030680289 -0.20101789
-0.068254754 -0.0029941481 -0.20101413
-0.0682512 -0.0029218737 -0.20102841
-0.068247348 -0.002849468 -0.20104867
-0.0682436 -0.0027771061 -0.20106694
-0.068240456 -0.0027030511 -0.20107117
-0.068238094 -0.0026293453 -0.20105945
-0.068235442 -0.0025555072 -0.20105371
-0.068232588 -0.0024815826 -0.20105195
-0.068230048 -0.0024058353 -0.20104216
-0.068226889 -0.0023337342 -0.20104845
-0.068223141 -0.0022613732 -0.2010667
-0.068219587 -0.0021890989 -0.20108098
-0.068215951 -0.0021148259 -0.20109521
-0.068212494 -0.0020425944 -0.20110749
-0.06820935 -0.0019685384 -0.20111173
-0.068206407 -0.0018945718 -0.20111197
-0.068203554 -0.0018206481 -0.20111023
-0.068200998 -0.0017468538 -0.2011025
-0.068198361 -0.0016710609 -0.20109469
-0.068195507 -0.0015971381 -0.20109294
-0.068192564 -0.0015231706 -0.2010932
-0.068189204 -0.0014509819 -0.20110348
-0.068185262 -0.0013785334 -0.20112574
-0.06818141 -0.0013061278 -0.20114601
-0.068177782 -0.0012318548 -0.20116022
-0.068175033 -0.0011579748 -0.20115648
-0.068172663 -0.0010842681 -0.20114474
-0.06816972 -0.0010103006 -0.20114499
-0.068166278 -0.00093611423 -0.20115522
-0.06816294 -0.00086197164 -0.20116346
-0.068160385 -0.00078817923 -0.20115571
-0.068157732 -0.00071434118 -0.20114997
-0.068154193 -0.00064011198 -0.20116219
-0.06815064 -0.00056783762 -0.20117646
-0.068147503 -0.00049378257 -0.2011807
-0.068144552 -0.00041981507 -0.20118096
-0.068141192 -0.00034762733 -0.20119125
-0.068137661 -0.00027339812 -0.20120347
-0.068134204 -0.00020116661 -0.20121574
-0.068130866 -0.00012702495 -0.20122397
-0.068128109 -5.3144991e-05 -0.20122023
-0.068125062 2.0867214e-05 -0.20122248
-0.068122216 9.4791874e-05 -0.20122072
-0.068119951 0.00016845483 -0.20120698
-0.06811741 0.00024420209 -0.20119721
-0.068114363 0.0003182143 -0.20119944
-0.068111494 0.00039018411 -0.20119974
-0.068108253 0.00046428293 -0.20120597
-0.068104818 0.00053846929 -0.20121621
-0.068101481 0.00061261002 -0.20122445
-0.06809812 0.00068479776 -0.20123473
-0.068094686 0.00075898319 -0.20124495
-0.068091832 0.00083290786 -0.20124321
-0.068089567 0.00090657175 -0.20122948
-0.068086818 0.00098045077 -0.20122573
-0.068083279 0.00105468 -0.20123795
-0.068080023 0.0011268249 -0.20124623
-0.068076685 0.0012009675 -0.20125447
-0.068072833 0.0012733722 -0.20127474
-0.068068914 0.0013477746 -0.20129496
-0.068065964 0.0014217431 -0.2012952
-0.068063505 0.0014954936 -0.20128545
-0.068060942 0.0015692879 -0.20127772
-0.068058506 0.0016449913 -0.20126593
-0.068055749 0.0017188722 -0.20126218
-0.068052396 0.00179106 -0.20127246
-0.068048954 0.0018652454 -0.20128271
-0.068045326 0.0019395184 -0.20129693
-0.068041384 0.0020119669 -0.20131919
-0.068037145 0.0020845467 -0.20134744
-0.068033107 0.0021570381 -0.2013717
-0.068030059 0.0022310503 -0.20137393
-0.068027422 0.0023068427 -0.20136616
-0.068024673 0.0023807222 -0.2013624
-0.06802211 0.002454516 -0.20135467
-0.068019554 0.0025283098 -0.20134693
-0.068016991 0.0026021041 -0.20133919
-0.068014361 0.0026778961 -0.20133138
-0.068011604 0.002751776 -0.20132764
-0.06800805 0.0028240513 -0.20134193
-0.068004228 0.0028984114 -0.20136014
-0.067999989 0.0029709903 -0.20138839
-0.067995854 0.0030435268 -0.20141464
-0.067992516 0.0031176675 -0.2014229
-0.067989759 0.0031915484 -0.20141914
-0.067987688 0.0032651247 -0.20140141
-0.067985252 0.0033408306 -0.20138963
-0.067981809 0.0034150155 -0.20139986
-0.06797836 0.0034872461 -0.20141214
-0.067975819 0.0035629943 -0.20140234
-0.067973047 0.0036349213 -0.20140064
-0.067969613 0.0037091072 -0.20141087
-0.067966372 0.0037832055 -0.20141712
