# .PCD v0.7 - Point Cloud Data file format
VERSION 0.7
FIELDS x y z
SIZE 4 4 4
TYPE F F F
COUNT 1 1 1
WIDTH 1269
HEIGHT 1
VIEWPOINT 0 0 0 1 0 0 0
POINTS 1269
DATA ascii
-0.069563285 -0.034389917 -0.26679295
-0.069559723 -0.034307826 -0.266799
-0.069556609 -0.034229867 -0.26679915
-0.069553874 -0.034152076 -0.26679131
-0.069550879 -0.034072198 -0.26678741
-0.069547683 -0.033992238 -0.26678753
-0.069544487 -0.033912279 -0.26678765
-0.069541268 -0.033834271 -0.26678979
-0.069538176 -0.033754356 -0.26678792
-0.069535151 -0.033676434 -0.26678607
-0.069532156 -0.03359656 -0.26678219
-0.069529057 -0.033516642 -0.26678032
-0.069526032 -0.03343872 -0.26677847
-0.069523208 -0.033360891 -0.26677263
-0.069520116 -0.033280972 -0.26677072
-0.069516823 -0.033200964 -0.26677284
-0.069513723 -0.033121049 -0.26677096
-0.069510505 -0.033043042 -0.2667731
-0.069507405 -0.032963127 -0.26677123
-0.069504507 -0.032883294 -0.26676536
-0.069501385 -0.032805331 -0.26676548
-0.069498003 -0.032725282 -0.26676959
-0.069494903 -0.032645367 -0.26676771
-0.069491878 -0.032567445 -0.26676586
-0.069489248 -0.032489698 -0.26675606
-0.069486618 -0.032411952 -0.26674622
-0.069483154 -0.03232991 -0.26675028
-0.069479764 -0.03224986 -0.26675439
-0.069476739 -0.032171942 -0.26675254
-0.06947355 -0.032091979 -0.26675263
-0.069470257 -0.032011975 -0.26675475
-0.069467157 -0.031932056 -0.26675284
-0.06946443 -0.031854264 -0.26674503
-0.06946151 -0.031776391 -0.26674119
-0.069458216 -0.031696387 -0.2667433
-0.06945502 -0.031616427 -0.26674339
-0.069451727 -0.031536423 -0.26674551
-0.069448434 -0.031456418 -0.26674762
-0.069445416 -0.031378496 -0.26674578
-0.069442414 -0.031298622 -0.26674187
-0.069439493 -0.031220745 -0.26673806
-0.069436297 -0.031140786 -0.26673818
-0.069433294 -0.031060912 -0.26673427
-0.06943047 -0.030983077 -0.26672843
-0.069427446 -0.030905157 -0.26672658
-0.069424257 -0.030825196 -0.2667267
-0.069420867 -0.030745149 -0.26673082
-0.06941767 -0.030665185 -0.2667309
-0.069414474 -0.030585226 -0.26673102
-0.069410987 -0.030505136 -0.26673713
-0.069407694 -0.030425129 -0.26673925
-0.069404788 -0.030345298 -0.26673335
-0.069401965 -0.030267466 -0.26672751
-0.069399141 -0.030189633 -0.26672167
-0.069396041 -0.030109715 -0.26671979
-0.069393024 -0.030031797 -0.26671797
-0.069390118 -0.029951965 -0.26671207
-0.069387101 -0.029874045 -0.26671022
-0.069383711 -0.029793998 -0.26671433
-0.069380142 -0.029711908 -0.26672038
-0.069377027 -0.029633943 -0.26672053
-0.069374219 -0.029554158 -0.26671267
-0.069371395 -0.029476326 -0.26670682
-0.069368199 -0.029396364 -0.26670694
-0.069365181 -0.029318444 -0.2667051
-0.069362082 -0.029238526 -0.26670319
-0.069358982 -0.029158609 -0.26670131
-0.069355965 -0.029080689 -0.26669949
-0.07018432 -0.061823793 -0.26730049
-0.070184149 -0.061745178 -0.26723871
-0.070184991 -0.061663087 -0.26715285
-0.070185326 -0.061582733 -0.267079
-0.07018359 -0.061503425 -0.26704916
-0.070181079 -0.061423764 -0.26703528
-0.070178255 -0.061345935 -0.26702946
-0.070175238 -0.061268013 -0.26702762
-0.070172139 -0.061188094 -0.26702571
-0.070169121 -0.061110176 -0.26702386
-0.070165902 -0.061032169 -0.26702604
-0.070162587 -0.06095412 -0.26703018
-0.070159398 -0.060874157 -0.2670303
-0.07015647 -0.060796283 -0.26702645
-0.070153452 -0.060718361 -0.26702461
-0.070150062 -0.060638316 -0.26702872
-0.070147142 -0.060560439 -0.26702487
-0.070144318 -0.060482606 -0.26701903
-0.070141315 -0.060402729 -0.26701516
-0.070138291 -0.06032481 -0.26701331
-0.070135079 -0.060246803 -0.26701546
-0.070132062 -0.060168885 -0.26701364
-0.070128672 -0.060088836 -0.26701772
-0.070125259 -0.060010742 -0.26702389
-0.070122138 -0.05993278 -0.26702404
-0.070119508 -0.059855033 -0.26701421
-0.070116706 -0.059775248 -0.26700634
-0.070113592 -0.059697282 -0.26700649
-0.070110179 -0.059619188 -0.26701263
-0.070106961 -0.059541184 -0.2670148
-0.070103966 -0.059461311 -0.2670109
-0.070101336 -0.059383564 -0.26700109
-0.070098333 -0.05930369 -0.26699719
-0.070094727 -0.059225507 -0.26700732
-0.070091397 -0.059149414 -0.26701352
-0.070088297 -0.059069496 -0.26701164
-0.070085377 -0.058991618 -0.2670078
-0.07008189 -0.058911528 -0.26701391
-0.07007838 -0.05883339 -0.26702204
-0.070075259 -0.058755428 -0.26702219
-0.070072733 -0.058677725 -0.26701039
-0.070069924 -0.058597937 -0.26700249
-0.07006681 -0.058519974 -0.26700264
-0.070064083 -0.058442183 -0.26699483
-0.070061058 -0.058364265 -0.26699299
-0.070057571 -0.058284175 -0.26699907
-0.070054553 -0.058206253 -0.26699722
-0.070051551 -0.058126379 -0.26699334
-0.070048243 -0.05804833 -0.26699752
-0.070045024 -0.057970323 -0.26699966
-0.070041709 -0.057892274 -0.2670038
-0.070038103 -0.057814091 -0.26701397
-0.070034817 -0.057734087 -0.26701605
-0.070031986 -0.057656255 -0.26701021
-0.070029356 -0.057578508 -0.26700038
-0.07002636 -0.057498634 -0.2669965
-0.070023336 -0.057420716 -0.26699466
-0.070020221 -0.057342753 -0.26699483
-0.070017099 -0.05726479 -0.26699498
-0.070014179 -0.057186913 -0.26699114
-0.070010982 -0.057106949 -0.26699126
-0.070007481 -0.057028815 -0.26699939
-0.070004262 -0.056950808 -0.26700157
-0.070001364 -0.056870978 -0.26699567
-0.069998831 -0.056793272 -0.26698384
-0.069995806 -0.056715354 -0.26698199
-0.069992401 -0.056637261 -0.26698816
-0.069989011 -0.056557212 -0.26699227
-0.069985695 -0.056479163 -0.26699638
-0.069982477 -0.056401156 -0.26699856
-0.069979183 -0.056321152 -0.26700068
-0.069976263 -0.056243274 -0.2669968
-0.06997373 -0.056165572 -0.266985
-0.069970712 -0.056087654 -0.26698315
-0.069967397 -0.056009602 -0.26698732
-0.069964007 -0.055929556 -0.26699141
-0.069961086 -0.055851679 -0.26698756
-0.069958284 -0.055771891 -0.26697969
-0.069954969 -0.055693842 -0.26698384
-0.069951363 -0.05561566 -0.266994
-0.069948152 -0.055537656 -0.26699615
-0.069945127 -0.055459734 -0.2669943
-0.06994193 -0.055379774 -0.26699442
-0.069938913 -0.055301853 -0.26699257
-0.069936089 -0.05522402 -0.26698673
-0.069933183 -0.055144191 -0.26698086
-0.06993036 -0.055066358 -0.26697502
-0.069927141 -0.054988351 -0.26697716
-0.069923654 -0.054908261 -0.26698327
-0.069920346 -0.054830208 -0.26698741
-0.069917321 -0.05475229 -0.2669856
-0.069914594 -0.054674499 -0.26697773
-0.069911502 -0.054594584 -0.26697585
-0.069908284 -0.054516576 -0.26697803
-0.069905072 -0.054438569 -0.26698017
-0.069901973 -0.05435865 -0.26697826
-0.069899052 -0.054280777 -0.26697445
-0.069895834 -0.054202769 -0.26697659
-0.069892347 -0.054122675 -0.26698267
-0.069889128 -0.054044671 -0.26698485
-0.069886208 -0.053966794 -0.26698101
-0.069883674 -0.053889092 -0.26696917
-0.069880873 -0.053809304 -0.26696131
-0.069877461 -0.053731211 -0.26696745
-0.069874145 -0.053653162 -0.26697159
-0.069870859 -0.053573154 -0.2669737
-0.069867641 -0.05349515 -0.26697588
-0.06986472 -0.053417273 -0.26697204
-0.069862284 -0.053339615 -0.26695821
-0.069859184 -0.053259697 -0.26695633
-0.069855973 -0.053181689 -0.26695848
-0.069852754 -0.053103682 -0.26696062
-0.069849268 -0.053023592 -0.26696673
-0.069846153 -0.052945629 -0.26696688
-0.069843419 -0.052867837 -0.26695904
-0.069840133 -0.052787833 -0.26696116
-0.069836818 -0.052709784 -0.2669653
-0.069833994 -0.052631952 -0.26695946
-0.069830991 -0.052552078 -0.26695558
-0.069827482 -0.05247394 -0.26696372
-0.069824368 -0.052395977 -0.26696387
-0.069821738 -0.05231823 -0.26695406
-0.069818735 -0.052238356 -0.26695016
-0.069815524 -0.052160349 -0.26695234
-0.069812208 -0.0520823 -0.26695648
-0.069809012 -0.052002341 -0.26695657
-0.069805995 -0.051924419 -0.26695472
-0.069802701 -0.051844414 -0.26695684
-0.069799289 -0.051766321 -0.26696301
-0.069796078 -0.051688313 -0.26696515
-0.069793075 -0.05160844 -0.26696128
-0.069790445 -0.051530693 -0.26695144
-0.069787525 -0.051452819 -0.2669476
-0.069784306 -0.051374812 -0.26694974
-0.06978111 -0.051294848 -0.26694986
-0.069778092 -0.05121693 -0.26694801
-0.069775172 -0.051139053 -0.26694417
-0.069771878 -0.051059049 -0.26694629
-0.06976866 -0.050981045 -0.26694843
-0.069765739 -0.050903168 -0.26694459
-0.069762841 -0.050823335 -0.26693872
-0.069759429 -0.050745241 -0.26694486
-0.069755942 -0.050665151 -0.26695096
-0.06975282 -0.050587188 -0.26695111
-0.06975019 -0.050509442 -0.26694131
-0.069747172 -0.05043152 -0.26693946
-0.069743395 -0.050351299 -0.26695156
-0.069740467 -0.050273426 -0.26694772
-0.06973803 -0.050195765 -0.26693389
-0.069734842 -0.050115801 -0.26693398
-0.069731623 -0.050037798 -0.26693615
-0.069728136 -0.049957708 -0.26694226
-0.069725022 -0.049879741 -0.26694241
-0.0697219 -0.049801778 -0.26694256
-0.06971851 -0.049721733 -0.26694667
-0.069715299 -0.049643725 -0.26694882
-0.069712177 -0.049565762 -0.26694897
-0.069709279 -0.049485929 -0.2669431
-0.069706447 -0.049408097 -0.26693726
-0.069703817 -0.04933035 -0.26692742
-0.069700725 -0.049250435 -0.26692554
-0.069697313 -0.049172342 -0.26693168
-0.069693729 -0.049092207 -0.26693979
-0.069690607 -0.049014241 -0.26693994
-0.069687687 -0.048936367 -0.26693612
-0.069684587 -0.048856448 -0.26693422
-0.069681764 -0.048778616 -0.26692837
-0.069678552 -0.048700608 -0.26693052
-0.069675259 -0.048620604 -0.26693264
-0.069672331 -0.048542727 -0.26692879
-0.069669314 -0.048464809 -0.26692694
-0.069666311 -0.048384935 -0.26692307
-0.069663391 -0.048307057 -0.26691923
-0.069660276 -0.048229095 -0.2669194
-0.069656789 -0.048149005 -0.26692551
-0.069653302 -0.048068911 -0.26693159
-0.069650471 -0.047991078 -0.26692575
-0.069647744 -0.047913291 -0.26691794
-0.06964463 -0.047835328 -0.26691809
-0.069641143 -0.047755234 -0.2669242
-0.069637656 -0.047675144 -0.26693028
-0.069634825 -0.047597311 -0.26692444
-0.069632001 -0.047519479 -0.2669186
-0.069628611 -0.04743943 -0.26692271
-0.069624811 -0.047361162 -0.26693687
-0.069621518 -0.047281157 -0.26693895
-0.069618888 -0.047203414 -0.26692912
-0.069616064 -0.047125578 -0.26692331
-0.069613166 -0.047045749 -0.26691741
-0.069609948 -0.046967741 -0.26691955
-0.069606461 -0.046887651 -0.26692566
-0.069603339 -0.046809688 -0.26692581
-0.069600515 -0.046731852 -0.26692
-0.069597423 -0.046651937 -0.26691812
-0.069594495 -0.04657406 -0.26691425
-0.069591403 -0.046494141 -0.26691237
-0.069588184 -0.046416134 -0.26691455
-0.069584891 -0.046336129 -0.26691663
-0.06958168 -0.046258125 -0.26691878
-0.069578364 -0.046180077 -0.26692295
-0.069575459 -0.046100244 -0.26691705
-0.069572344 -0.046022281 -0.26691723
-0.069568858 -0.045942187 -0.26692331
-0.069566227 -0.045864441 -0.26691347
-0.069563501 -0.045786656 -0.26690567
-0.069560111 -0.045706607 -0.26690975
-0.069556892 -0.0456286 -0.26691192
-0.069553696 -0.045548636 -0.26691201
-0.069550678 -0.045470718 -0.2669102
-0.069547854 -0.045392886 -0.26690435
-0.069544852 -0.045313012 -0.26690045
-0.069541447 -0.045234919 -0.26690662
-0.069538154 -0.045154914 -0.26690871
-0.069535129 -0.045076992 -0.26690686
-0.069531739 -0.044996947 -0.26691097
-0.069528252 -0.044916853 -0.26691708
-0.069525719 -0.044839151 -0.26690525
-0.069524042 -0.044763796 -0.26687747
-0.069521047 -0.044683918 -0.2668736
-0.069517247 -0.04460565 -0.26688775
-0.069513001 -0.044523261 -0.26690778
-0.069509976 -0.04444534 -0.26690593
-0.069507346 -0.044367593 -0.26689613
-0.069504246 -0.044287674 -0.26689422
-0.069500841 -0.044209581 -0.26690036
-0.069497451 -0.044129536 -0.26690447
-0.069494329 -0.044051573 -0.26690462
-0.069491133 -0.043971609 -0.26690474
-0.069488041 -0.043891691 -0.26690286
-0.069485113 -0.043813817 -0.26689902
-0.069481999 -0.043735854 -0.26689917
-0.069478899 -0.043655936 -0.26689726
-0.069475979 -0.043578058 -0.26689345
-0.069472879 -0.043498144 -0.26689154
-0.069469862 -0.043420222 -0.26688972
-0.069466569 -0.043340217 -0.26689184
-0.069463357 -0.04326221 -0.26689398
-0.069460452 -0.04318238 -0.26688808
-0.069457628 -0.043104548 -0.26688224
-0.069454312 -0.043026496 -0.26688641
-0.069450825 -0.042946406 -0.26689249
-0.06944792 -0.042866573 -0.26688662
-0.069445096 -0.04278874 -0.26688078
-0.069441788 -0.042710692 -0.26688495
-0.069438495 -0.042630687 -0.26688707
-0.069435298 -0.042550728 -0.26688716
-0.069432281 -0.042472806 -0.26688531
-0.069429278 -0.042392932 -0.26688144
-0.06942606 -0.042314924 -0.26688358
-0.069422767 -0.04223492 -0.2668857
-0.069419749 -0.042157002 -0.26688385
-0.069416359 -0.042076953 -0.26688796
-0.069412969 -0.041996904 -0.26689205
-0.069410145 -0.041919071 -0.26688623
-0.069407612 -0.041841369 -0.2668744
-0.069404498 -0.041763406 -0.26687455
-0.069401205 -0.041683402 -0.26687664
-0.069398105 -0.041603483 -0.26687476
-0.069394886 -0.041525476 -0.26687694
-0.069391795 -0.041445561 -0.26687503
-0.069388673 -0.041367598 -0.26687518
-0.069385476 -0.041287635 -0.2668753
-0.06938228 -0.041207675 -0.26687542
-0.069379263 -0.041129753 -0.26687357
-0.069375947 -0.041051704 -0.26687771
-0.069372855 -0.040971786 -0.26687583
-0.069370128 -0.040893998 -0.266868
-0.069367126 -0.040814124 -0.26686412
-0.069363832 -0.04073412 -0.26686621
-0.069360815 -0.040656198 -0.26686439
-0.069357991 -0.040578365 -0.26685855
-0.069354795 -0.040498406 -0.26685864
-0.069351405 -0.040418357 -0.26686275
-0.069348015 -0.040338308 -0.26686686
-0.069344699 -0.040260259 -0.26687101
-0.069341801 -0.04018043 -0.26686513
-0.069338873 -0.040102549 -0.26686129
-0.069335483 -0.040022504 -0.26686537
-0.069332272 -0.039944496 -0.26686755
-0.069329366 -0.039864667 -0.26686168
-0.069326349 -0.039786749 -0.26685983
-0.069323525 -0.039708912 -0.26685399
-0.069320619 -0.039629079 -0.26684812
-0.069317423 -0.03954912 -0.26684821
-0.069314115 -0.039471071 -0.26685238
-0.069310822 -0.039391067 -0.26685447
-0.069307797 -0.039313145 -0.26685262
-0.069304898 -0.039233316 -0.26684675
-0.069302171 -0.039155528 -0.26683891
-0.069299072 -0.039075609 -0.26683703
-0.069295958 -0.038997646 -0.26683718
-0.06929256 -0.038917597 -0.26684129
-0.069289073 -0.038837507 -0.26684737
-0.069286056 -0.038759585 -0.26684555
-0.069283053 -0.038679712 -0.26684165
-0.069280036 -0.038601793 -0.26683983
-0.069276936 -0.038521875 -0.26683795
-0.069273546 -0.038441826 -0.26684204
-0.069270432 -0.038363863 -0.26684219
-0.069267429 -0.038283989 -0.26683831
-0.069264606 -0.038206156 -0.26683247
-0.069261119 -0.038126066 -0.26683858
-0.069257922 -0.038046107 -0.26683867
-0.069255196 -0.037968315 -0.26683086
-0.069252297 -0.037888482 -0.26682496
-0.069249175 -0.037810519 -0.26682514
-0.069245882 -0.037730515 -0.26682723
-0.069242589 -0.037650511 -0.26682934
-0.069239669 -0.037572637 -0.2668255
-0.069236666 -0.03749276 -0.26682162
-0.069233552 -0.037414797 -0.26682177
-0.069230162 -0.037334748 -0.26682588
-0.069227062 -0.037254833 -0.26682398
-0.069224142 -0.037176955 -0.26682013
-0.069221236 -0.037097123 -0.26681426
-0.069218218 -0.037019201 -0.26681244
-0.069214828 -0.036939159 -0.26681653
-0.069211535 -0.036859155 -0.26681864
-0.069208413 -0.036781188 -0.26681879
-0.069205418 -0.036701314 -0.26681492
-0.069202498 -0.036623441 -0.26681107
-0.069199398 -0.036543518 -0.26680917
-0.069196478 -0.036465645 -0.26680535
-0.069193378 -0.036385726 -0.26680344
-0.069190182 -0.036305767 -0.26680356
-0.069187067 -0.036227804 -0.26680371
-0.069183871 -0.03614784 -0.26680383
-0.069180384 -0.036067747 -0.26680994
-0.069177456 -0.035989873 -0.2668061
-0.069174752 -0.03591013 -0.26679623
-0.069171831 -0.035832256 -0.26679239
-0.069168709 -0.035754293 -0.26679254
-0.069165245 -0.035672244 -0.26679659
-0.069161661 -0.035592109 -0.2668047
-0.069158368 -0.035512105 -0.26680678
-0.069155544 -0.035434268 -0.26680097
-0.06915281 -0.035356481 -0.26679313
-0.069149911 -0.035276651 -0.26678726
-0.069146693 -0.035198644 -0.26678941
-0.069143601 -0.035118729 -0.26678753
-0.06914077 -0.035040893 -0.26678169
-0.069137581 -0.034960933 -0.26678178
-0.069134384 -0.034880973 -0.2667819
-0.069131464 -0.034803096 -0.26677805
-0.069128074 -0.034723051 -0.26678216
-0.069124579 -0.034642957 -0.26678827
-0.069121756 -0.034565121 -0.26678243
-0.069118857 -0.034485295 -0.26677653
-0.069115467 -0.034405246 -0.26678064
-0.069112077 -0.034325197 -0.26678476
-0.069108978 -0.034245279 -0.26678288
-0.069106154 -0.034167446 -0.26677704
-0.06910333 -0.034089614 -0.2667712
-0.069100037 -0.034009606 -0.26677328
-0.069096744 -0.033929605 -0.2667754
-0.069094017 -0.033851817 -0.26676756
-0.069091089 -0.033773936 -0.26676375
-0.069087625 -0.033691891 -0.2667678
-0.069084406 -0.033613883 -0.26676995
-0.069081508 -0.033534057 -0.26676407
-0.069078878 -0.033456311 -0.26675424
-0.069075957 -0.033378433 -0.2667504
-0.069072388 -0.033296339 -0.26675645
-0.069068901 -0.033216253 -0.26676255
-0.069065705 -0.03313629 -0.26676267
-0.069062687 -0.033058371 -0.26676083
-0.069059588 -0.032978453 -0.26675892
-0.069056764 -0.03290062 -0.26675308
-0.069053665 -0.032820702 -0.2667512
-0.069050372 -0.032740697 -0.26675332
-0.069047451 -0.03266282 -0.26674947
-0.069044158 -0.032582819 -0.26675159
-0.069040962 -0.032502856 -0.26675171
-0.069037944 -0.032424934 -0.26674986
-0.069034554 -0.032344885 -0.26675397
-0.069031551 -0.032265015 -0.26675007
-0.069028631 -0.032187138 -0.26674622
-0.069025628 -0.032107264 -0.26674235
-0.069022708 -0.032029387 -0.2667385
-0.069019705 -0.031949513 -0.26673463
-0.069016412 -0.031869508 -0.26673675
-0.069013394 -0.03179159 -0.2667349
-0.069010198 -0.031711627 -0.26673499
-0.069007099 -0.031631708 -0.26673311
-0.069004081 -0.03155379 -0.26673126
-0.069000885 -0.03147383 -0.26673138
-0.068998255 -0.031396084 -0.26672155
-0.068995625 -0.031318337 -0.26671171
-0.068992332 -0.031238332 -0.26671383
-0.068988942 -0.031158285 -0.26671791
-0.068985455 -0.031078191 -0.26672405
-0.068981968 -0.0309981 -0.26673013
-0.068978973 -0.030918226 -0.26672626
-0.068976142 -0.030840393 -0.26672041
-0.06897305 -0.030760476 -0.26671851
-0.06896995 -0.030680558 -0.26671663
-0.068966836 -0.030602595 -0.26671678
-0.068963364 -0.030520549 -0.26672083
-0.068960145 -0.030442541 -0.26672301
-0.068957247 -0.03036271 -0.26671714
-0.06895452 -0.030284921 -0.26670927
-0.068951324 -0.030204963 -0.26670939
-0.068947934 -0.030124914 -0.2667135
-0.068945207 -0.030047122 -0.26670566
-0.068942301 -0.029967293 -0.26669979
-0.06893909 -0.029889286 -0.26670194
-0.068935893 -0.029809324 -0.26670206
-0.068932503 -0.029729277 -0.26670617
-0.068929404 -0.02964936 -0.26670426
-0.068926774 -0.029571615 -0.26669443
-0.068924047 -0.029493824 -0.26668662
-0.068921126 -0.029415948 -0.26668274
-0.068917662 -0.029333901 -0.2666868
-0.068914071 -0.029253766 -0.2666949
-0.068911076 -0.029173894 -0.26669103
-0.068908244 -0.02909606 -0.26668519
-0.069737367 -0.061776247 -0.26723278
-0.069736339 -0.061695285 -0.26718691
-0.069736674 -0.061614934 -0.26711309
-0.0697366 -0.061536361 -0.26704928
-0.069734789 -0.061455052 -0.26701939
-0.069731772 -0.061377134 -0.26701754
-0.069728553 -0.061299127 -0.26701969
-0.069725633 -0.061221249 -0.26701587
-0.069722727 -0.06114142 -0.26700997
-0.069719806 -0.061063543 -0.26700616
-0.069716804 -0.060983669 -0.26700225
-0.069713593 -0.060905661 -0.2670044
-0.069710471 -0.060827699 -0.26700458
-0.069707252 -0.060749691 -0.26700673
-0.069703862 -0.060669646 -0.26701084
-0.069700941 -0.060591768 -0.26700699
-0.069698118 -0.060513936 -0.26700115
-0.069694921 -0.060433973 -0.26700127
-0.069691703 -0.060355969 -0.26700342
-0.069688685 -0.060278047 -0.26700157
-0.069685765 -0.06020017 -0.26699772
-0.069682762 -0.060120296 -0.26699385
-0.069679841 -0.060042419 -0.26699001
-0.069676623 -0.059964415 -0.26699215
-0.069673114 -0.059886277 -0.26700032
-0.069669701 -0.059808183 -0.26700646
-0.069666311 -0.059728134 -0.26701057
-0.0696631 -0.059650131 -0.26701272
-0.069660567 -0.059572428 -0.26700088
-0.069657952 -0.059492726 -0.26698902
-0.069655716 -0.059415154 -0.2669712
-0.06965398 -0.059335843 -0.26694134
-0.069650866 -0.05925788 -0.26694152
-0.069646187 -0.059179224 -0.26697361
-0.069642186 -0.05910087 -0.26699173
-0.069638975 -0.059022862 -0.26699391
-0.069635876 -0.058942944 -0.26699203
-0.069633149 -0.058865156 -0.26698416
-0.069630519 -0.058787409 -0.26697433
-0.069627009 -0.058709271 -0.2669825
-0.06962321 -0.058631007 -0.26699662
-0.069619723 -0.058550913 -0.26700273
-0.069616601 -0.05847295 -0.26700288
-0.069613777 -0.058395118 -0.26699704
-0.069610678 -0.058315199 -0.26699516
-0.069607466 -0.058237195 -0.26699731
-0.069604538 -0.058159318 -0.26699349
-0.069601715 -0.058081485 -0.26698765
-0.069598518 -0.058001522 -0.26698774
-0.06959521 -0.057923473 -0.26699191
-0.069592282 -0.057845596 -0.26698807
-0.069589481 -0.057765808 -0.26698017
-0.069586553 -0.057687934 -0.26697636
-0.069583148 -0.057609841 -0.2669825
-0.069579758 -0.057529792 -0.26698661
-0.069576927 -0.05745196 -0.26698077
-0.069573812 -0.057373997 -0.26698092
-0.0695704 -0.057295904 -0.26698709
-0.069567285 -0.057217941 -0.26698723
-0.06956438 -0.057138108 -0.26698133
-0.06956175 -0.057060361 -0.26697153
-0.069558844 -0.056980532 -0.26696563
-0.069555536 -0.056902483 -0.2669698
-0.069552511 -0.056824561 -0.26696795
-0.069549881 -0.056746814 -0.26695812
-0.06954667 -0.056668811 -0.26696026
-0.069542982 -0.056588631 -0.26697037
-0.06953977 -0.056510624 -0.26697251
-0.069536746 -0.056432705 -0.26697066
-0.069533452 -0.056352701 -0.26697278
-0.069530241 -0.056274693 -0.26697493
-0.069527023 -0.056196686 -0.26697707
-0.069523908 -0.056118723 -0.26697725
-0.069521077 -0.056040891 -0.26697141
-0.069517985 -0.055960972 -0.2669695
-0.06951496 -0.055883054 -0.26696768
-0.069511667 -0.055803049 -0.2669698
-0.069508359 -0.055724997 -0.26697391
-0.069505237 -0.055647034 -0.26697409
-0.069502123 -0.055569071 -0.26697424
-0.069499098 -0.055491153 -0.26697242
-0.069496095 -0.055411279 -0.26696852
-0.069493465 -0.055333532 -0.26695871
-0.069490544 -0.055255655 -0.26695484
-0.069487154 -0.055175606 -0.26695895
-0.069483839 -0.055097558 -0.26696312
-0.069480725 -0.055019595 -0.26696324
-0.069477431 -0.05493959 -0.26696539
-0.06947431 -0.054861628 -0.26696554
-0.06947168 -0.054783881 -0.2669557
-0.069468759 -0.054706004 -0.26695186
-0.069465369 -0.054625958 -0.26695597
-0.069462352 -0.054548036 -0.26695412
-0.06945952 -0.054470204 -0.26694828
-0.069456428 -0.054390285 -0.26694641
-0.06945321 -0.054312281 -0.26694855
-0.069450289 -0.054234404 -0.26694471
-0.069446996 -0.0541544 -0.26694682
-0.069443487 -0.054076262 -0.26695496
-0.069440268 -0.053998254 -0.2669571
-0.069437735 -0.053920552 -0.2669453
-0.069434933 -0.053840764 -0.2669374
-0.069431812 -0.053762801 -0.26693755
-0.069428399 -0.053684708 -0.26694372
-0.069425106 -0.053604703 -0.26694584
-0.069421895 -0.0535267 -0.26694798
-0.069418974 -0.053448822 -0.26694414
-0.069415681 -0.053368818 -0.26694626
-0.069412366 -0.053290766 -0.2669504
-0.069409147 -0.053212762 -0.26695254
-0.069406129 -0.05313484 -0.2669507
-0.069403127 -0.053054966 -0.26694682
-0.069400012 -0.052977003 -0.26694697
-0.069396891 -0.05289904 -0.26694715
-0.069393896 -0.052819166 -0.26694325
-0.069391064 -0.052741334 -0.26693743
-0.069388047 -0.052663412 -0.26693559
-0.06938456 -0.052583322 -0.26694167
-0.069381051 -0.052505184 -0.2669498
-0.069377638 -0.052427091 -0.26695597
-0.069374539 -0.052347176 -0.26695406
-0.069371909 -0.052269429 -0.26694423
-0.069369085 -0.052191593 -0.26693842
-0.069366165 -0.052113719 -0.26693457
-0.069363259 -0.052033886 -0.26692867
-0.069360241 -0.051955968 -0.26692685
-0.069357045 -0.051876009 -0.26692697
-0.069353826 -0.051798001 -0.26692912
-0.069350421 -0.051719908 -0.26693526
-0.069347396 -0.051641986 -0.26693344
-0.069344297 -0.051562071 -0.26693153
-0.069341086 -0.051484063 -0.26693368
-0.069338061 -0.051406145 -0.26693183
-0.069334969 -0.051326226 -0.26692995
-0.069331847 -0.051248264 -0.26693013
-0.069328725 -0.051170297 -0.26693028
-0.069325432 -0.051090293 -0.26693237
-0.069322415 -0.051012374 -0.26693052
-0.069319099 -0.050934326 -0.26693469
-0.069315419 -0.050854146 -0.2669448
-0.069312401 -0.050776228 -0.26694295
-0.069309883 -0.05069657 -0.26692906
-0.069306865 -0.050618649 -0.26692724
-0.069303259 -0.05054047 -0.26693738
-0.06930016 -0.050460551 -0.2669355
-0.069297433 -0.050382763 -0.26692766
-0.069294117 -0.050304711 -0.2669318
-0.069290534 -0.05022458 -0.26693991
-0.069287322 -0.050146572 -0.26694205
-0.069284588 -0.050068781 -0.26693422
-0.069281787 -0.049988993 -0.26692635
-0.069278568 -0.049910989 -0.26692849
-0.069275357 -0.049832981 -0.26693064
-0.069272161 -0.049753021 -0.26693076
-0.069269434 -0.04967523 -0.26692292
-0.069266804 -0.049597483 -0.26691309
-0.069263414 -0.049517438 -0.2669172
-0.069259807 -0.049439255 -0.26692733
-0.069256783 -0.049361337 -0.26692551
-0.069253884 -0.049281508 -0.26691961
-0.069250956 -0.049203631 -0.2669158
-0.069247566 -0.049123581 -0.26691988
-0.069244355 -0.049045574 -0.26692203
-0.069241427 -0.048967697 -0.26691821
-0.069238432 -0.048887823 -0.26691431
-0.069234923 -0.048809689 -0.26692247
-0.069231533 -0.04872964 -0.26692656
-0.069228902 -0.048651893 -0.26691672
-0.069225781 -0.04857393 -0.2669169
-0.069222391 -0.048493881 -0.26692098
-0.069219373 -0.048415963 -0.26691917
-0.06921608 -0.048335958 -0.26692125
-0.069212861 -0.048257951 -0.26692343
-0.069210328 -0.048180249 -0.26691157
-0.069207504 -0.048102416 -0.26690575
-0.069204211 -0.048022412 -0.26690787
-0.069200605 -0.047944233 -0.266918
-0.069197215 -0.047864184 -0.26692212
-0.069194391 -0.047786351 -0.26691628
-0.069191858 -0.047708645 -0.26690444
-0.069189131 -0.047630858 -0.26689661
-0.069185644 -0.047550768 -0.26690271
-0.069181956 -0.047470588 -0.26691282
-0.069178842 -0.047392625 -0.26691297
-0.069175936 -0.047312796 -0.2669071
-0.069173016 -0.047234919 -0.26690325
-0.069170088 -0.047157042 -0.26689941
-0.069166794 -0.047077037 -0.26690149
-0.069163486 -0.046998985 -0.26690567
-0.06916029 -0.046919025 -0.26690578
-0.069157071 -0.046841018 -0.26690793
-0.069154538 -0.046763316 -0.2668961
-0.069151811 -0.046685528 -0.26688826
-0.069148518 -0.046605524 -0.26689038
-0.069145031 -0.046525434 -0.26689649
-0.06914182 -0.046447426 -0.26689863
-0.069138527 -0.046367422 -0.26690072
-0.069135405 -0.046289459 -0.2669009
-0.069132484 -0.046211582 -0.26689705
-0.069129385 -0.046131663 -0.26689517
-0.069126166 -0.046053655 -0.26689732
-0.069122776 -0.045973606 -0.26690143
-0.069119565 -0.045895603 -0.26690358
-0.06911654 -0.045817681 -0.26690173
-0.069113642 -0.045737851 -0.26689586
-0.069110617 -0.04565993 -0.26689401
-0.069107227 -0.045579884 -0.2668981
-0.069103815 -0.045501791 -0.26690426
-0.06910082 -0.045421917 -0.26690036
-0.069098093 -0.045344129 -0.26689255
-0.069094971 -0.045266163 -0.2668927
-0.069091678 -0.045186158 -0.26689482
-0.069088385 -0.045106154 -0.2668969
-0.069085367 -0.045028236 -0.26689506
-0.069082342 -0.044950314 -0.26689321
-0.06907925 -0.044870399 -0.26689133
-0.069076128 -0.044792432 -0.26689148
-0.069072835 -0.044712432 -0.2668936
-0.069069423 -0.044634335 -0.26689973
-0.069066428 -0.044554461 -0.26689586
-0.069064185 -0.044476889 -0.26687804
-0.069061063 -0.044398926 -0.26687822
-0.069057673 -0.044318877 -0.2668823
-0.069054365 -0.044240829 -0.26688644
-0.069050975 -0.044160783 -0.26689056
-0.069047682 -0.044080775 -0.26689267
-0.06904456 -0.044002812 -0.26689282
-0.069041364 -0.043922853 -0.26689294
-0.069038346 -0.043844931 -0.26689109
-0.069035538 -0.043765143 -0.26688322
-0.069032811 -0.043687355 -0.26687539
-0.069029987 -0.043609522 -0.26686954
-0.069026865 -0.043531559 -0.26686969
-0.069023475 -0.04345151 -0.26687381
-0.069020279 -0.043371551 -0.26687393
-0.069017164 -0.043293588 -0.26687407
-0.069013968 -0.043213625 -0.26687419
-0.069010749 -0.043135621 -0.26687634
-0.069007657 -0.043055702 -0.26687443
-0.069004729 -0.042977825 -0.26687062
-0.069001541 -0.042897865 -0.26687071
-0.068998322 -0.042819858 -0.26687288
-0.068995319 -0.042739984 -0.26686898
-0.068992205 -0.042662021 -0.26686913
-0.068988912 -0.042582016 -0.26687124
-0.068985887 -0.042504095 -0.2668694
-0.068982892 -0.042424221 -0.26686552
-0.06897977 -0.042346261 -0.26686567
-0.068976849 -0.042268381 -0.26686186
-0.068973847 -0.042188507 -0.26685795
-0.068970166 -0.042108331 -0.26686805
-0.068966679 -0.042028241 -0.26687413
-0.068963848 -0.041950405 -0.26686829
-0.068960831 -0.041872486 -0.26686648
-0.068957634 -0.041792527 -0.26686656
-0.068954907 -0.041714735 -0.26685876
-0.068951614 -0.041634731 -0.26686084
-0.068948299 -0.041556679 -0.26686502
-0.068945669 -0.041478932 -0.26685518
-0.06894277 -0.041399103 -0.26684928
-0.068939283 -0.041319013 -0.26685539
-0.068935886 -0.041238964 -0.2668595
-0.068932965 -0.04116109 -0.26685566
-0.068930045 -0.041083209 -0.26685184
-0.068926945 -0.041003294 -0.26684994
-0.068923727 -0.040925287 -0.26685208
-0.068920538 -0.040845327 -0.2668522
-0.068917245 -0.040765323 -0.26685432
-0.068914123 -0.04068736 -0.26685447
-0.06891083 -0.040607356 -0.26685655
-0.06890744 -0.040527306 -0.26686066
-0.06890481 -0.04044956 -0.26685083
-0.068901889 -0.040371682 -0.26684701
-0.06889879 -0.040291764 -0.26684511
-0.068896063 -0.040213976 -0.26683727
-0.068892963 -0.040134057 -0.26683539
-0.06888938 -0.040053926 -0.2668435
-0.068886161 -0.039975919 -0.26684564
-0.068882965 -0.039895955 -0.26684576
-0.068879947 -0.039818034 -0.26684391
-0.068877041 -0.039738204 -0.26683801
-0.068874314 -0.039660417 -0.26683021
-0.068871118 -0.039580457 -0.26683033
-0.068867706 -0.03950236 -0.26683646
-0.068864807 -0.039422531 -0.26683056
-0.068862543 -0.039346911 -0.2668148
-0.068859547 -0.039267037 -0.26681089
-0.068855859 -0.039186861 -0.26682103
-0.068852372 -0.039106771 -0.26682711
-0.068849273 -0.039026849 -0.26682523
-0.068846449 -0.038949016 -0.26681939
-0.068843253 -0.038869057 -0.26681951
-0.068839937 -0.038791008 -0.26682365
-0.068836749 -0.038711045 -0.26682377
-0.068833724 -0.038633127 -0.26682192
-0.068830624 -0.038553208 -0.26682001
-0.068827607 -0.03847529 -0.2668182
-0.068824604 -0.038395412 -0.26681429
-0.068821609 -0.038315542 -0.26681042
-0.068818584 -0.03823762 -0.26680857
-0.068815373 -0.038159613 -0.26681072
-0.068812177 -0.038079649 -0.26681083
-0.068808883 -0.037999649 -0.26681295
-0.068805881 -0.037919775 -0.26680905
-0.06880296 -0.037841897 -0.26680523
-0.068799935 -0.037763976 -0.26680338
-0.068796843 -0.037684061 -0.26680148
-0.06879355 -0.037604056 -0.26680359
-0.068790153 -0.037524007 -0.26680771
-0.068787038 -0.037446044 -0.26680785
-0.068783842 -0.037366085 -0.26680797
-0.068780549 -0.03728608 -0.26681006
-0.068777531 -0.037208159 -0.26680821
-0.068774529 -0.037128285 -0.26680434
-0.068771333 -0.037048325 -0.26680446
-0.068768412 -0.036970448 -0.26680061
-0.068765312 -0.036890529 -0.26679873
-0.068762094 -0.036812522 -0.26680088
-0.068758801 -0.036732517 -0.266803
-0.068755902 -0.036652688 -0.26679713
-0.068752781 -0.036574725 -0.26679727
-0.068749689 -0.036494806 -0.26679537
-0.068746567 -0.036416844 -0.26679552
-0.06874337 -0.036336884 -0.26679564
-0.068740547 -0.036259051 -0.26678979
-0.068737447 -0.036179133 -0.26678792
-0.068734251 -0.036099173 -0.26678804
-0.06873133 -0.036021292 -0.26678419
-0.068728231 -0.035941377 -0.26678231
-0.06872502 -0.03586337 -0.26678446
-0.068721727 -0.035783365 -0.26678658
-0.068718821 -0.035703532 -0.26678067
-0.068715803 -0.035625614 -0.26677883
-0.068712704 -0.035545699 -0.26677695
-0.068709977 -0.035467908 -0.26676911
-0.068706952 -0.03538999 -0.26676726
-0.068703391 -0.035307899 -0.26677334
-0.068700001 -0.03522785 -0.26677743
-0.068696707 -0.035147846 -0.26677954
-0.068693586 -0.035069883 -0.26677969
-0.068690583 -0.034990009 -0.26677582
-0.068687759 -0.034912176 -0.26676998
-0.068684839 -0.034834299 -0.26676613
-0.068681367 -0.034752253 -0.26677018
-0.068678156 -0.03467425 -0.26677236
-0.068675056 -0.034594331 -0.26677048
-0.068671763 -0.034514323 -0.26677257
-0.068668567 -0.034434363 -0.26677269
-0.068665273 -0.034354359 -0.26677477
-0.068662725 -0.034278613 -0.266765
-0.068660192 -0.034200907 -0.26675317
-0.068657286 -0.034121081 -0.2667473
-0.068653993 -0.034041073 -0.26674938
-0.068650313 -0.033960894 -0.26675949
-0.068646923 -0.033880845 -0.2667636
-0.068643995 -0.033802971 -0.26675975
-0.068641096 -0.033723138 -0.26675385
-0.068638168 -0.033645265 -0.26675004
-0.068634875 -0.03356526 -0.26675215
-0.068631679 -0.033485301 -0.26675224
-0.068628661 -0.033407379 -0.2667504
-0.068625562 -0.03332746 -0.26674852
-0.068622366 -0.033247501 -0.26674864
-0.06861937 -0.033167623 -0.26674473
-0.068616539 -0.033089794 -0.26673889
-0.068613715 -0.033011958 -0.26673308
-0.068610817 -0.032932129 -0.26672721
-0.068607502 -0.03285408 -0.26673135
-0.068603836 -0.032771945 -0.2667394
-0.068600446 -0.032691896 -0.26674351
-0.068596959 -0.03261181 -0.26674959
-0.06859462 -0.03253419 -0.26673377
-0.068592362 -0.032458574 -0.266718
-0.068589069 -0.032378569 -0.26672012
-0.06858521 -0.032296348 -0.26673216
-0.068582095 -0.032218385 -0.26673231
-0.068579189 -0.032138556 -0.26672643
-0.068575799 -0.032058507 -0.26673055
-0.068572409 -0.031978458 -0.26673463
-0.068569683 -0.03190067 -0.26672679
-0.068566859 -0.031822838 -0.26672098
-0.068563856 -0.03174296 -0.26671708
-0.068561129 -0.031665172 -0.26670924
-0.068557933 -0.031585209 -0.26670936
-0.068554543 -0.031505164 -0.26671347
-0.06855125 -0.031425159 -0.26671559
-0.068548054 -0.0313452 -0.26671568
-0.068545133 -0.031267323 -0.26671183
-0.068542033 -0.031187404 -0.26670995
-0.068539008 -0.031109484 -0.26670811
-0.068535812 -0.031029522 -0.26670823
-0.068532914 -0.030949693 -0.26670235
-0.068530455 -0.030873988 -0.26669055
-0.068527259 -0.030794026 -0.26669067
-0.068523601 -0.030711893 -0.26669872
-0.068520479 -0.03063393 -0.26669887
-0.068517379 -0.030554013 -0.26669699
-0.068514183 -0.03047405 -0.26669711
-0.06851089 -0.030394047 -0.26669919
-0.068508163 -0.030316258 -0.26669139
-0.068505436 -0.030238468 -0.26668355
-0.068502337 -0.03015855 -0.26668167
-0.068499044 -0.030078545 -0.26668376
-0.06849622 -0.030000713 -0.26667792
-0.068493128 -0.029920794 -0.26667604
-0.068490103 -0.029842876 -0.26667419
-0.068487003 -0.029762957 -0.26667231
-0.068483613 -0.02968291 -0.26667643
-0.068480514 -0.029602993 -0.26667452
-0.068477787 -0.029525202 -0.26666668
-0.068474397 -0.029445155 -0.26667079
-0.06847091 -0.029365063 -0.2666769
-0.068467811 -0.029285146 -0.266675
-0.068465084 -0.029207356 -0.26666719
-0.068462163 -0.029129481 -0.26666334
-0.06912978 -0.061739653 -0.26717114
-0.069129996 -0.06166121 -0.26710135
-0.069129847 -0.061580639 -0.26703751
-0.069128811 -0.061499678 -0.26699165
-0.069126479 -0.061422065 -0.26697582
-0.06912338 -0.061342146 -0.26697394
-0.069120452 -0.061264269 -0.2669701
-0.069117144 -0.06118622 -0.26697424
-0.069114044 -0.061106302 -0.26697236
-0.069111213 -0.061028469 -0.26696652
-0.069108002 -0.060950462 -0.26696867
-0.06910459 -0.060872369 -0.26697481
-0.069101661 -0.060794491 -0.26697099
-0.069098763 -0.060714662 -0.26696509
-0.069095351 -0.060636569 -0.26697126
-0.069092251 -0.06055665 -0.26696938
-0.069089428 -0.060478818 -0.26696354
-0.069086403 -0.060400896 -0.26696169
-0.069083408 -0.060321026 -0.26695779
-0.069080383 -0.060243104 -0.26695597
-0.069077261 -0.060165141 -0.26695612
-0.06907434 -0.060087264 -0.26695228
-0.069071218 -0.060009301 -0.26695243
-0.06906803 -0.059929341 -0.26695254
-0.069065005 -0.059851419 -0.2669507
-0.069061786 -0.059773415 -0.26695287
-0.069058374 -0.059695322 -0.26695901
-0.069054872 -0.059617184 -0.26696715
-0.069051675 -0.059537224 -0.26696724
-0.069049038 -0.059459478 -0.26695743
-0.069046043 -0.059379604 -0.26695353
-0.069043115 -0.059301727 -0.26694971
-0.069040582 -0.059224024 -0.26693788
-0.069037385 -0.059144061 -0.26693797
-0.069033764 -0.059067838 -0.26695019
-0.069030076 -0.058987658 -0.26696026
-0.069027059 -0.05890974 -0.26695842
-0.069024228 -0.058831908 -0.2669526
-0.069021031 -0.058751944 -0.26695269
-0.06901782 -0.058673941 -0.26695484
-0.069014892 -0.058596063 -0.26695102
-0.069012068 -0.058518231 -0.26694518
-0.06900885 -0.058440223 -0.26694733
-0.06900546 -0.058360174 -0.26695144
-0.069002636 -0.058282342 -0.2669456
-0.068999633 -0.058202468 -0.26694173
-0.068996221 -0.058124375 -0.26694787
-0.068993002 -0.058046367 -0.26695001
-0.068989985 -0.057968449 -0.26694816
-0.068986863 -0.057890486 -0.26694834
-0.068983868 -0.057810612 -0.26694444
-0.068981037 -0.057732776 -0.26693863
-0.068978213 -0.057654943 -0.26693279
-0.068974532 -0.057574768 -0.26694286
-0.06897112 -0.057496674 -0.26694903
-0.068968289 -0.057418842 -0.26694319
-0.068965368 -0.057340965 -0.26693934
-0.068962172 -0.057261001 -0.26693946
-0.06895905 -0.057183038 -0.26693961
-0.068955839 -0.057105035 -0.26694176
-0.068952642 -0.057025071 -0.26694188
-0.068949915 -0.056947283 -0.26693404
-0.068947084 -0.056869451 -0.2669282
-0.068944067 -0.056791529 -0.26692638
-0.068940967 -0.056711614 -0.2669245
-0.068937749 -0.056633607 -0.26692665
-0.068934731 -0.056555685 -0.2669248
-0.068931609 -0.056477722 -0.26692495
-0.068928316 -0.056397717 -0.26692706
-0.068925098 -0.056319714 -0.26692921
-0.068922274 -0.056241877 -0.26692337
-0.068919256 -0.056163959 -0.26692152
-0.068915665 -0.056083824 -0.26692963
-0.068912551 -0.056005862 -0.26692978
-0.068909824 -0.055928074 -0.26692194
-0.068906426 -0.055848025 -0.26692605
-0.068903118 -0.055769973 -0.26693022
-0.068900093 -0.055692054 -0.26692837
-0.068896778 -0.055614006 -0.26693252
-0.068893582 -0.055534042 -0.26693264
-0.06889037 -0.055456039 -0.26693478
-0.068887055 -0.055377986 -0.26693892
-0.068884134 -0.055300109 -0.26693508
-0.068881132 -0.055220235 -0.26693121
-0.068878107 -0.055142317 -0.26692936
-0.068874992 -0.055064354 -0.26692951
-0.06887228 -0.054984611 -0.26691964
-0.068869554 -0.054906819 -0.2669118
-0.068866238 -0.05482877 -0.26691598
-0.068862922 -0.054750722 -0.26692012
-0.068859629 -0.054670718 -0.26692224
-0.068856709 -0.05459284 -0.26691836
-0.068853684 -0.054514918 -0.26691654
-0.068850487 -0.054434959 -0.26691666
-0.068847664 -0.054357126 -0.26691082
-0.068844646 -0.054279204 -0.26690897
-0.068841353 -0.0541992 -0.26691109
-0.06883911 -0.054121628 -0.26689327
-0.068836771 -0.054044012 -0.26687744
-0.068832971 -0.053965747 -0.2668916
-0.068828702 -0.053885307 -0.26691365
-0.06882558 -0.053807344 -0.2669138
-0.06882295 -0.053729597 -0.266904
-0.068819851 -0.053649679 -0.26690209
-0.068816736 -0.053571716 -0.26690227
-0.068813808 -0.053493842 -0.26689842
-0.068810396 -0.053415749 -0.26690456
-0.068806812 -0.053335615 -0.26691264
-0.068803497 -0.053257562 -0.26691681
-0.068800576 -0.053179689 -0.26691297
-0.06879767 -0.053099856 -0.2669071
-0.068794653 -0.053021938 -0.26690525
-0.068791926 -0.052944146 -0.26689741
-0.068788923 -0.052864272 -0.26689354
-0.068785511 -0.052786179 -0.26689968
-0.068782099 -0.052708086 -0.26690581
-0.068778902 -0.052628126 -0.26690593
-0.06877578 -0.052550163 -0.26690608
-0.068772666 -0.052472197 -0.26690626
-0.068769351 -0.052394148 -0.2669104
-0.068765961 -0.052314103 -0.26691449
-0.068763524 -0.052236442 -0.26690069
-0.068760894 -0.052158695 -0.26689085
-0.068757311 -0.05207856 -0.26689893
-0.068754479 -0.052000728 -0.26689312
-0.068751752 -0.05192294 -0.26688528
-0.068748459 -0.051842935 -0.26688737
-0.06874495 -0.051764797 -0.26689553
-0.068741731 -0.05168679 -0.26689768
-0.068738438 -0.051606786 -0.26689979
-0.068735518 -0.051528908 -0.26689595
-0.068732791 -0.051451121 -0.26688811
-0.068729863 -0.051373243 -0.26688427
-0.068726473 -0.051293194 -0.26688838
-0.06872306 -0.051215105 -0.26689452
-0.068719864 -0.051135141 -0.26689464
-0.06871675 -0.051057179 -0.26689479
-0.068713531 -0.050979171 -0.26689696
-0.068710044 -0.050899081 -0.26690304
-0.068707213 -0.050821248 -0.2668972
-0.06870468 -0.050743546 -0.2668854
-0.06870129 -0.050663497 -0.26688948
-0.068697974 -0.050585449 -0.26689363
-0.068694763 -0.050507441 -0.26689577
-0.068691663 -0.050427523 -0.26689389
-0.068688937 -0.050349735 -0.26688606
-0.068686008 -0.050271858 -0.26688224
-0.068682991 -0.050193936 -0.26688039
-0.068679988 -0.050114062 -0.26687652
-0.068676971 -0.050036144 -0.26687467
-0.06867367 -0.049956139 -0.26687676
-0.068670653 -0.049878217 -0.26687494
-0.068667829 -0.049800389 -0.2668691
-0.06866502 -0.0497206 -0.2668612
-0.068661898 -0.049642637 -0.26686138
-0.068658493 -0.04956454 -0.26686752
-0.068654999 -0.04948445 -0.26687363
-0.068651296 -0.049406227 -0.26688576
-0.068648197 -0.049326308 -0.26688388
-0.068645962 -0.049248736 -0.26686606
-0.068643034 -0.049170859 -0.26686221
-0.068639621 -0.04909277 -0.26686835
-0.068636425 -0.049012806 -0.26686847
-0.06863302 -0.048934713 -0.26687461
-0.068629332 -0.048854537 -0.26688471
-0.068626605 -0.048776746 -0.26687688
-0.068624169 -0.048699088 -0.26686305
-0.068621248 -0.048621211 -0.26685923
-0.068617657 -0.048541076 -0.26686731
-0.068613879 -0.048460856 -0.26687941
-0.068610467 -0.048382759 -0.26688558
-0.068607643 -0.048304927 -0.26687974
-0.068604834 -0.048225142 -0.26687184
-0.068602011 -0.048147306 -0.266866
-0.068599083 -0.048069432 -0.26686218
-0.068595402 -0.047989253 -0.26687226
-0.068592183 -0.047911245 -0.26687443
-0.06858936 -0.047833413 -0.26686859
-0.06858597 -0.047753364 -0.2668727
-0.068582676 -0.04767336 -0.26687479
-0.068579748 -0.047595486 -0.26687098
-0.068576925 -0.04751765 -0.26686513
-0.068574101 -0.047439821 -0.26685929
-0.068570904 -0.047359858 -0.26685941
-0.068567686 -0.04728185 -0.26686156
-0.068564586 -0.047201931 -0.26685965
-0.068561465 -0.047123969 -0.26685983
-0.068557978 -0.047043879 -0.26686591
-0.068554863 -0.046965916 -0.26686609
-0.068551369 -0.046885826 -0.26687217
-0.068548352 -0.046807908 -0.26687032
-0.068545818 -0.046730202 -0.26685852
-0.068542331 -0.046650112 -0.2668646
-0.06853874 -0.046569977 -0.2668727
-0.068536483 -0.046494357 -0.26685694
-0.068533771 -0.046414614 -0.26684704
-0.068530358 -0.04633652 -0.26685321
-0.068526678 -0.046256341 -0.26686329
-0.068523191 -0.046176251 -0.2668694
-0.068520658 -0.046098549 -0.26685756
-0.068518318 -0.046020932 -0.26684174
-0.068515003 -0.045942884 -0.26684588
-0.068511613 -0.045862835 -0.26684999
-0.068508394 -0.045784827 -0.26685214
-0.068505004 -0.045704782 -0.26685625
-0.068501987 -0.045626864 -0.26685441
-0.068499081 -0.045547031 -0.26684853
-0.068495862 -0.045469023 -0.26685068
-0.068492472 -0.045388974 -0.26685479
-0.068489552 -0.045311101 -0.26685095
-0.06848672 -0.045233265 -0.26684511
-0.068483427 -0.04515326 -0.26684722
-0.068480015 -0.045075171 -0.26685339
-0.068476819 -0.044995207 -0.26685348
-0.068473801 -0.044917289 -0.26685163
-0.068470702 -0.044837371 -0.26684976
-0.068467483 -0.044759363 -0.2668519
-0.068464093 -0.044679314 -0.26685601
-0.068460703 -0.044599269 -0.26686013
-0.068457484 -0.044521261 -0.26686227
-0.068454757 -0.044443473 -0.26685444
-0.068452224 -0.044365771 -0.2668426
-0.068448931 -0.044285767 -0.26684472
-0.068445735 -0.044205803 -0.26684484
-0.068442814 -0.044127926 -0.26684099
-0.068439692 -0.044049963 -0.26684114
-0.068436496 -0.043970004 -0.26684123
-0.068433285 -0.043891996 -0.26684341
-0.06842979 -0.043811906 -0.26684952
-0.068426497 -0.043731902 -0.2668516
-0.068423577 -0.043654025 -0.26684776
-0.068420649 -0.043576147 -0.26684394
-0.068417452 -0.043496188 -0.26684403
-0.068414435 -0.043418266 -0.26684219
-0.068411335 -0.043338351 -0.26684031
-0.068408214 -0.043260388 -0.26684046
-0.068405218 -0.04318051 -0.26683658
-0.06840229 -0.043102637 -0.26683274
-0.068399094 -0.043022677 -0.26683286
-0.068396173 -0.042944796 -0.26682901
-0.068392977 -0.042864837 -0.26682913
-0.068389855 -0.042786874 -0.26682928
-0.068386644 -0.042708866 -0.26683143
-0.068383545 -0.042628951 -0.26682955
-0.068380617 -0.042551074 -0.26682571
-0.06837742 -0.042471111 -0.26682582
-0.068374403 -0.042393193 -0.26682398
-0.068371303 -0.042313278 -0.2668221
-0.068368383 -0.042235397 -0.26681826
-0.068365186 -0.042155437 -0.26681834
-0.068361789 -0.042075388 -0.26682246
-0.068358965 -0.041997556 -0.26681662
-0.068356141 -0.041919723 -0.2668108
-0.068353117 -0.041841805 -0.26680896
-0.068350017 -0.041761886 -0.26680708
-0.068346828 -0.041681927 -0.26680717
-0.06834361 -0.041603919 -0.26680934
-0.06834022 -0.041523874 -0.26681343
-0.068336926 -0.041443866 -0.26681554
-0.068334192 -0.041366078 -0.26680771
-0.068331271 -0.041288201 -0.26680386
-0.068327487 -0.041207977 -0.26681596
-0.068324 -0.04112789 -0.26682207
-0.068321273 -0.041050099 -0.26681423
-0.068318076 -0.040970139 -0.26681435
-0.068315156 -0.040892262 -0.26681048
-0.068312153 -0.040812388 -0.2668066
-0.068308838 -0.040734336 -0.26681077
-0.068305545 -0.040654331 -0.26681286
-0.068302624 -0.040576458 -0.26680905
-0.068299524 -0.040496539 -0.26680714
-0.068296701 -0.040418707 -0.2668013
-0.068293497 -0.040338747 -0.26680142
-0.068290107 -0.040258698 -0.26680553
-0.068286993 -0.040180735 -0.26680568
-0.068284184 -0.040100947 -0.26679781
-0.06828136 -0.040023111 -0.26679197
-0.068278238 -0.039945148 -0.26679212
-0.068274751 -0.039865062 -0.26679823
-0.068271361 -0.039785013 -0.26680231
-0.068268456 -0.03970518 -0.26679644
-0.068265632 -0.039627347 -0.2667906
-0.068262413 -0.039549343 -0.26679274
-0.068259217 -0.03946938 -0.26679286
-0.068256393 -0.039391547 -0.26678705
-0.068253294 -0.039311629 -0.26678514
-0.06825 -0.039231624 -0.26678726
-0.068246417 -0.03915149 -0.26679534
-0.068243295 -0.039073527 -0.26679552
-0.068240859 -0.038995869 -0.26678169
-0.068237856 -0.038915992 -0.26677778
-0.068234175 -0.038835816 -0.26678789
-0.068230785 -0.038755767 -0.266792
-0.068227857 -0.03867789 -0.26678815
-0.068225034 -0.038600057 -0.26678231
-0.068221934 -0.038520142 -0.26678044
-0.068218812 -0.03844218 -0.26678059
-0.068215422 -0.038362131 -0.2667847
-0.068212323 -0.038282212 -0.26678282
-0.068209402 -0.038204335 -0.26677895
-0.0682064 -0.038124461 -0.26677507
-0.068203382 -0.038046543 -0.26677322
-0.068200476 -0.037966713 -0.26676735
-0.068197653 -0.037888877 -0.26676151
-0.068194434 -0.03781087 -0.26676369
-0.068190865 -0.037728783 -0.26676974
-0.068187751 -0.03765082 -0.26676989
-0.068184845 -0.037570987 -0.26676399
-0.068181731 -0.037493024 -0.26676416
-0.068178333 -0.037412979 -0.26676825
-0.068175241 -0.03733306 -0.26676637
-0.068172313 -0.037255183 -0.26676255
-0.06816902 -0.037175179 -0.26676464
-0.068166196 -0.037097342 -0.2667588
-0.068163097 -0.037017427 -0.26675692
-0.068159804 -0.036937423 -0.26675904
-0.068156488 -0.036859374 -0.26676318
-0.068153389 -0.036779456 -0.2667613
-0.068150096 -0.036699452 -0.26676339
-0.068146981 -0.036621489 -0.26676357
-0.068143882 -0.03654157 -0.26676166
-0.068140782 -0.036461651 -0.26675978
-0.068137959 -0.036383819 -0.26675394
-0.068134755 -0.036303859 -0.26675403
-0.068131641 -0.036225896 -0.26675421
-0.068128638 -0.036146022 -0.26675034
-0.06812562 -0.0360681 -0.26674849
-0.068122424 -0.035988141 -0.26674858
-0.068119228 -0.035908181 -0.2667487
-0.068116203 -0.035830259 -0.26674685
-0.068113297 -0.035750426 -0.26674098
-0.068110473 -0.035672598 -0.26673514
-0.068107374 -0.035592679 -0.26673326
-0.068104357 -0.035514757 -0.26673141
-0.06810087 -0.035434671 -0.26673749
-0.068097569 -0.035354663 -0.26673961
-0.068094842 -0.035276875 -0.2667318
-0.068091646 -0.035196915 -0.26673189
-0.068088159 -0.035116822 -0.266738
-0.068085238 -0.035038944 -0.26673415
-0.068082236 -0.03495907 -0.26673028
-0.068079308 -0.034881193 -0.26672643
-0.068076409 -0.034801364 -0.26672053
-0.068073481 -0.034723487 -0.26671672
-0.068070285 -0.034643523 -0.26671684
-0.068066798 -0.034563437 -0.26672292
-0.068063602 -0.034483474 -0.26672304
-0.068060599 -0.0344036 -0.26671913
-0.068057582 -0.034325682 -0.26671731
-0.068054557 -0.03424776 -0.26671547
-0.068051264 -0.034167755 -0.26671755
-0.068047777 -0.034087665 -0.26672366
-0.068044208 -0.034005575 -0.26672971
-0.068041481 -0.033927787 -0.2667219
-0.068039224 -0.033852167 -0.26670611
-0.068036124 -0.033772253 -0.26670423
-0.068032265 -0.033690028 -0.26671627
-0.068028972 -0.033610027 -0.26671839
-0.068026245 -0.033532239 -0.26671055
-0.06802351 -0.033454448 -0.26670271
-0.068020217 -0.033374444 -0.2667048
-0.068016924 -0.033294436 -0.26670694
-0.068013728 -0.033214476 -0.26670703
-0.068010516 -0.033136472 -0.26670918
-0.068007417 -0.033056553 -0.2667073
-0.068004683 -0.032978762 -0.26669946
-0.068001688 -0.032898888 -0.26669559
-0.067998394 -0.032818884 -0.26669767
-0.067995563 -0.032741051 -0.26669186
-0.067992546 -0.032663129 -0.26669002
