# .PCD v0.7 - Point Cloud Data file format
VERSION 0.7
FIELDS x y z
SIZE 4 4 4
TYPE F F F
COUNT 1 1 1
WIDTH 1304
HEIGHT 1
VIEWPOINT 0 0 0 1 0 0 0
POINTS 1304
DATA ascii
-0.03884732 0.022563372 -0.26965532
-0.038846023 0.02264446 -0.26961544
-0.038844436 0.022725677 -0.26958156
-0.038764339 0.022938235 -0.27107513
-0.038759064 0.023023065 -0.27111506
-0.038754079 0.023107767 -0.27114904
-0.038743783 0.02344029 -0.2710892
-0.038740635 0.023522208 -0.27108723
-0.038897559 0.018781099 -0.27175605
-0.038896285 0.019031042 -0.27157629
-0.03891439 0.019111304 -0.27113277
-0.038980994 0.019179685 -0.26968846
-0.038978137 0.019261472 -0.26968053
-0.038878281 0.019367015 -0.27167419
-0.038964119 0.019511227 -0.26976651
-0.039010443 0.019580826 -0.26874378
-0.039008267 0.019662306 -0.26872188
-0.038935035 0.019763794 -0.27016413
-0.038932078 0.019845624 -0.2701582
-0.038930703 0.019928709 -0.27011827
-0.038932063 0.020010572 -0.27002242
-0.038978558 0.02007813 -0.26899776
-0.038973924 0.020158747 -0.2690278
-0.038901635 0.020265706 -0.27044597
-0.038967058 0.020324796 -0.26903385
-0.038899645 0.020429572 -0.27035215
-0.038896028 0.020513661 -0.27035815
-0.038892779 0.020595621 -0.2703582
-0.038893141 0.020675967 -0.27028435
-0.038959425 0.02073271 -0.26885632
-0.038954712 0.020815324 -0.26888633
-0.038908415 0.020914581 -0.26976916
-0.038903039 0.020999454 -0.26981112
-0.038941063 0.02106295 -0.26896638
-0.038937524 0.021145042 -0.26897243
-0.038906761 0.021239311 -0.26953566
-0.038865384 0.021340292 -0.27031454
-0.038864106 0.021423334 -0.27027261
-0.03889801 0.021486709 -0.26951382
-0.038856655 0.021589644 -0.27029067
-0.038889974 0.021653282 -0.26954383
-0.038886435 0.021735372 -0.26954985
-0.038850248 0.021835996 -0.27022088
-0.038908795 0.021884417 -0.26896086
-0.038841918 0.022002699 -0.27025688
-0.038839549 0.022084266 -0.27023894
-0.038867794 0.022150172 -0.26959598
-0.038864251 0.022232264 -0.269602
-0.038861003 0.022314224 -0.26960206
-0.038827963 0.022415403 -0.27020711
-0.0388253 0.022497103 -0.27019519
-0.038848568 0.022565234 -0.26965407
-0.038806841 0.022670299 -0.27043685
-0.038818698 0.02274354 -0.27012938
-0.038765591 0.022940094 -0.27107385
-0.038760312 0.023024924 -0.27111381
-0.038755327 0.023109626 -0.27114776
-0.038745716 0.023441844 -0.27107394
-0.038741879 0.023524065 -0.27108598
-0.038896304 0.018781025 -0.27175686
-0.038894642 0.019031143 -0.27158508
-0.038913041 0.019111274 -0.27113557
-0.03897965 0.019179655 -0.26969126
-0.038976695 0.019261483 -0.26968533
-0.038877122 0.019366898 -0.27167302
-0.038886603 0.019447092 -0.27140933
-0.038964238 0.019510541 -0.26973936
-0.039009493 0.019580621 -0.2687386
-0.039007217 0.019662144 -0.26871869
-0.038933784 0.019763719 -0.27016497
-0.038930729 0.019845594 -0.270161
-0.038929258 0.019928722 -0.27012306
-0.038931008 0.02001041 -0.27001923
-0.038977314 0.020078056 -0.26899856
-0.03897268 0.020158673 -0.2690286
-0.038900673 0.020265501 -0.27044079
-0.038965717 0.020324765 -0.26903665
-0.038898394 0.020429498 -0.27035296
-0.038894873 0.020513542 -0.27035695
-0.038891625 0.020595502 -0.27035701
-0.038891889 0.020675892 -0.27028519
-0.038958177 0.020732634 -0.26885712
-0.038953464 0.02081525 -0.26888713
-0.038900528 0.020917473 -0.26990578
-0.03890169 0.020999424 -0.26981393
-0.038939718 0.021062918 -0.26896918
-0.038936079 0.021145053 -0.26897722
-0.038905509 0.021239236 -0.26953647
-0.038862079 0.021341134 -0.27035731
-0.03886256 0.02142339 -0.27027941
-0.038859311 0.02150535 -0.27027947
-0.0388554 0.02158957 -0.27029145
-0.03888882 0.021653162 -0.26954263
-0.03888528 0.021735253 -0.26954865
-0.038848896 0.021835964 -0.27022368
-0.038907353 0.021884428 -0.26896566
-0.038840663 0.022002624 -0.27025768
-0.038838193 0.022084234 -0.27024174
-0.038866542 0.022150097 -0.26959679
-0.038862903 0.022232231 -0.2696048
-0.038859751 0.022314148 -0.26960286
-0.038826704 0.022415329 -0.27020791
-0.038823847 0.022497114 -0.27019998
-0.038847119 0.022565246 -0.26965886
-0.038845919 0.022646289 -0.26961696
-0.038844429 0.022727463 -0.26958108
-0.038764328 0.022940019 -0.27107465
-0.038759146 0.023024807 -0.27111262
-0.038754065 0.023109552 -0.27114856
-0.03874445 0.023441769 -0.27107474
-0.038740616 0.023523992 -0.27108678
-0.038897391 0.018780401 -0.27175647
-0.038919602 0.01902573 -0.27109125
-0.038914226 0.019110605 -0.27113321
-0.038980938 0.01917894 -0.26968691
-0.038978294 0.019262591 -0.26967293
-0.038878113 0.019366316 -0.27167463
-0.038889837 0.019445507 -0.27136505
-0.038965523 0.019509826 -0.26973498
-0.039010193 0.019580167 -0.26874623
-0.039008018 0.019661646 -0.26872432
-0.038934875 0.019763093 -0.27016458
-0.038931917 0.019844923 -0.27015865
-0.038930643 0.019927964 -0.27011672
-0.038931806 0.020009914 -0.27002484
-0.038978212 0.020077514 -0.26900217
-0.038973674 0.020158088 -0.26903024
-0.038901471 0.020265006 -0.27044642
-0.038966808 0.020324137 -0.26903629
-0.038899481 0.020428872 -0.2703526
-0.038895864 0.020512961 -0.27035859
-0.038892712 0.020594876 -0.27035666
-0.038893174 0.020675177 -0.27028081
-0.038959272 0.020732006 -0.26885676
-0.038954459 0.020814665 -0.26888877
-0.03890162 0.020916846 -0.26990542
-0.038902979 0.020998709 -0.26980954
-0.038941104 0.02106216 -0.2689628
-0.038937561 0.02114425 -0.26896888
-0.0389066 0.021238608 -0.26953611
-0.038865119 0.021339636 -0.27031699
-0.038863748 0.02142272 -0.27027705
-0.03889785 0.021486007 -0.26951423
-0.038856391 0.021588987 -0.27029309
-0.038889911 0.021652535 -0.26954225
-0.038886368 0.021734625 -0.2695483
-0.038850084 0.021835294 -0.27022129
-0.038908444 0.021883801 -0.2689653
-0.038841851 0.022001954 -0.27025533
-0.038839284 0.022083608 -0.27024138
-0.03886763 0.02214947 -0.2695964
-0.038863994 0.022231605 -0.26960444
-0.038860843 0.02231352 -0.26960251
-0.038827892 0.022414658 -0.27020556
-0.038825132 0.0224964 -0.2701956
-0.038848113 0.022564663 -0.26966047
-0.038847107 0.022645619 -0.26961461
-0.038845517 0.022726838 -0.26958069
-0.038765512 0.02293935 -0.2710723
-0.038760234 0.023024183 -0.27111226
-0.038755152 0.023108926 -0.2711482
-0.038745441 0.023441188 -0.27107635
-0.038741704 0.023523366 -0.27108639
-0.038899638 0.018781677 -0.27175102
-0.038898051 0.019029796 -0.27157927
-0.038916353 0.01910997 -0.27113178
-0.038982965 0.019178351 -0.26968747
-0.038980301 0.019260049 -0.26967555
-0.038880438 0.019365594 -0.27166921
-0.038892843 0.019444479 -0.27134565
-0.03896765 0.019509193 -0.26973358
-0.039012805 0.019579316 -0.26873481
-0.039010242 0.01966097 -0.2687209
-0.038936999 0.01976246 -0.27016315
-0.038934045 0.01984429 -0.27015722
-0.038932182 0.019927593 -0.27012727
-0.038933832 0.020009324 -0.27002543
-0.038980532 0.020076795 -0.26899678
-0.038975894 0.020157412 -0.26902682
-0.038903691 0.020264328 -0.27044296
-0.038969029 0.020323461 -0.26903287
-0.038901605 0.020428237 -0.27035117
-0.038898185 0.020512238 -0.27035317
-0.038894836 0.020594243 -0.27035522
-0.0388951 0.020674631 -0.27028337
-0.038961392 0.020731373 -0.26885533
-0.038956679 0.020813989 -0.26888534
-0.038903743 0.020916212 -0.26990399
-0.038905099 0.020998076 -0.26980811
-0.038942836 0.021061702 -0.26896939
-0.03893939 0.021143749 -0.26897341
-0.038908821 0.021237932 -0.26953268
-0.038867243 0.021339001 -0.27031559
-0.038865771 0.021422129 -0.27027762
-0.03886262 0.021504046 -0.27027568
-0.038858414 0.021588396 -0.27029365
-0.038891934 0.021651946 -0.26954284
-0.038888391 0.021734037 -0.26954886
-0.038852204 0.02183466 -0.27021986
-0.038910564 0.021883169 -0.26896387
-0.038843967 0.02200132 -0.2702539
-0.038841501 0.02208293 -0.27023795
-0.03886975 0.022148836 -0.26959497
-0.03886611 0.022230972 -0.26960301
-0.038862959 0.022312887 -0.26960108
-0.038829915 0.022414068 -0.27020612
-0.038827151 0.02249581 -0.2701962
-0.038850717 0.022563811 -0.26964909
-0.038808793 0.022668965 -0.27043587
-0.038847812 0.022724163 -0.26957732
-0.038767532 0.02293876 -0.27107286
-0.038762644 0.023023415 -0.27110481
-0.038757272 0.023108291 -0.27114677
-0.038747557 0.023440553 -0.27107495
-0.038744114 0.023522601 -0.27107897
-0.038898706 0.018780589 -0.27174559
-0.038897119 0.01902871 -0.27157384
-0.038915228 0.019108972 -0.27113035
-0.038981836 0.019177357 -0.26968604
-0.038886145 0.019279066 -0.2715959
-0.038879111 0.019364683 -0.27167177
-0.038965836 0.019508503 -0.26974612
-0.039011482 0.019578412 -0.26873738
-0.039009113 0.019659977 -0.26871946
-0.03893587 0.019761464 -0.27016175
-0.038932815 0.019843336 -0.27015778
-0.038931247 0.019926509 -0.27012184
-0.038932994 0.020008197 -0.27001801
-0.0389794 0.020075802 -0.26899534
-0.038974766 0.020156419 -0.26902539
-0.038902659 0.020263288 -0.27043957
-0.038967896 0.020322468 -0.26903144
-0.038900472 0.020427242 -0.27034974
-0.038896855 0.020511329 -0.27035573
-0.038893607 0.020593289 -0.27035579
-0.038894065 0.020673592 -0.27027994
-0.038960163 0.020730425 -0.2688559
-0.038955547 0.020812996 -0.26888391
-0.038909048 0.020912338 -0.26977074
-0.03890416 0.020996993 -0.26980269
-0.038941897 0.021060621 -0.26896396
-0.038938258 0.021142757 -0.26897201
-0.038907684 0.021236937 -0.26953125
-0.038866106 0.021338005 -0.27031416
-0.038864926 0.021421002 -0.2702702
-0.038898837 0.021484379 -0.2695114
-0.038857475 0.021587314 -0.27028823
-0.038890895 0.021650909 -0.26953942
-0.038887352 0.021732999 -0.26954544
-0.038850967 0.021833709 -0.27022046
-0.038909428 0.021882176 -0.26896244
-0.038842734 0.022000369 -0.27025446
-0.038840264 0.022081979 -0.27023852
-0.038868614 0.022147842 -0.26959357
-0.038864974 0.022229977 -0.26960158
-0.038861822 0.022311892 -0.26959965
-0.038828678 0.022413116 -0.27020669
-0.038826015 0.022494813 -0.27019477
-0.038849287 0.022562947 -0.26965365
-0.038847987 0.022644036 -0.26961374
-0.0388464 0.022725252 -0.26957986
-0.038766488 0.022937717 -0.27106944
-0.03876121 0.023022549 -0.2711094
-0.038755935 0.02310738 -0.27114934
-0.03874661 0.023439467 -0.27106953
-0.038742777 0.02352169 -0.27108157
-0.038897175 0.018778816 -0.27175155
-0.038895804 0.019028803 -0.27157378
-0.038913909 0.019109063 -0.27113026
-0.038980417 0.019177487 -0.26968795
-0.038977556 0.019259272 -0.26968002
-0.038877998 0.019364689 -0.27166769
-0.03888835 0.01944449 -0.27138606
-0.038964029 0.019508809 -0.26975602
-0.039009959 0.019578582 -0.26874128
-0.039007787 0.019660061 -0.26871938
-0.038934652 0.01976151 -0.27015966
-0.038994342 0.019825127 -0.26886332
-0.038930222 0.019926466 -0.27011576
-0.038931679 0.020008286 -0.27001792
-0.038978081 0.020075887 -0.26899523
-0.038973443 0.020156503 -0.2690253
-0.038901154 0.020263465 -0.27044347
-0.038966678 0.020322509 -0.26902935
-0.038899068 0.020427374 -0.27035165
-0.038895547 0.020511419 -0.27035564
-0.038892299 0.020593379 -0.2703557
-0.03889266 0.020673724 -0.27028185
-0.038958944 0.020730466 -0.26885381
-0.038954232 0.02081308 -0.26888382
-0.03890774 0.020912426 -0.26977065
-0.038902268 0.020997344 -0.26981461
-0.038940683 0.021060662 -0.26896188
-0.03893714 0.021142755 -0.26896793
-0.03890628 0.021237068 -0.26953316
-0.038864806 0.021338094 -0.27031404
-0.038863432 0.021421179 -0.2702741
-0.038897533 0.021484466 -0.26951131
-0.038856078 0.021587446 -0.27029014
-0.038889594 0.021650994 -0.2695393
-0.038886052 0.021733087 -0.26954538
-0.038849674 0.021833798 -0.27022037
-0.038908124 0.021882262 -0.26896235
-0.038841441 0.022000458 -0.27025437
-0.038838971 0.022082068 -0.27023843
-0.038867317 0.022147929 -0.26959348
-0.038863678 0.022230064 -0.26960152
-0.038860526 0.022311982 -0.26959956
-0.038827386 0.022413205 -0.2702066
-0.038824726 0.022494905 -0.27019468
-0.038775526 0.022607241 -0.27112716
-0.038806364 0.022668058 -0.27043435
-0.038817927 0.022741428 -0.27013287
-0.038765211 0.02293781 -0.27106935
-0.038760424 0.023022423 -0.27109933
-0.038755145 0.023107255 -0.27113926
-0.038745336 0.02343956 -0.27106941
-0.038741406 0.023521826 -0.27108344
-0.038896125 0.018778633 -0.27175707
-0.038895048 0.019028489 -0.27157331
-0.038912963 0.019108837 -0.27113378
-0.038979575 0.019177217 -0.2696895
-0.03888388 0.019278932 -0.27159932
-0.038876947 0.019364506 -0.27167323
-0.038887598 0.019444175 -0.27138561
-0.038964555 0.019507928 -0.26972961
-0.039009031 0.019578356 -0.26874483
-0.039007049 0.019659748 -0.2687189
-0.038933709 0.019761283 -0.27016318
-0.038930655 0.019843156 -0.27015924
-0.038929284 0.019926241 -0.27011931
-0.038922228 0.020009903 -0.27019724
-0.038977049 0.020075703 -0.26900077
-0.038972512 0.020156277 -0.26902884
-0.03890001 0.020263325 -0.27045101
-0.038965546 0.020322369 -0.26903689
-0.038898218 0.020427104 -0.2703532
-0.038894601 0.020511193 -0.27035919
-0.038891353 0.020593153 -0.27035925
-0.038891815 0.020673454 -0.2702834
-0.038958009 0.020730238 -0.26885736
-0.038953297 0.020812854 -0.26888737
-0.038900454 0.020915035 -0.26990402
-0.038901716 0.020996941 -0.26981014
-0.038939647 0.02106048 -0.26896739
-0.038936205 0.021142527 -0.26897144
-0.038905438 0.021236798 -0.26953471
-0.03886386 0.021337869 -0.27031758
-0.038862582 0.021420909 -0.27027565
-0.03889659 0.021484239 -0.26951483
-0.038855229 0.021587176 -0.27029169
-0.038888652 0.021650769 -0.26954284
-0.038885109 0.021732859 -0.26954889
-0.038848821 0.021833526 -0.27022189
-0.038907185 0.021882035 -0.2689659
-0.038840588 0.022000186 -0.27025592
-0.038838122 0.022081798 -0.27023998
-0.038866371 0.022147704 -0.26959699
-0.038862735 0.022229837 -0.26960504
-0.038859583 0.022311755 -0.2696031
-0.038826536 0.022412935 -0.27020815
-0.038823776 0.022494677 -0.27019823
-0.038846951 0.022562852 -0.26965907
-0.038845751 0.022643896 -0.2696172
-0.038844433 0.022723028 -0.26957935
-0.038764056 0.02293767 -0.27107689
-0.038758975 0.023022413 -0.27111286
-0.038754188 0.023107028 -0.27114278
-0.038744181 0.02343942 -0.27107695
-0.038740348 0.023521643 -0.27108899
-0.038901668 0.01869759 -0.27175727
-0.038898539 0.018781461 -0.27175328
-0.038920533 0.019024923 -0.27109408
-0.038915161 0.019109797 -0.27113605
-0.038981866 0.019178135 -0.26968974
-0.038978912 0.019259965 -0.26968381
-0.038879145 0.019365465 -0.27167547
-0.038888719 0.019445615 -0.27140981
-0.03896616 0.019509152 -0.26974383
-0.039011318 0.019579276 -0.26874506
-0.03900934 0.019660668 -0.26871917
-0.038936 0.019762201 -0.27016342
-0.038932849 0.019844117 -0.27016148
-0.038931474 0.019927202 -0.27012154
-0.038933128 0.020008935 -0.27001971
-0.038979337 0.020076623 -0.26900101
-0.038974799 0.020157197 -0.26902908
-0.038902499 0.020264156 -0.27044725
-0.038967833 0.02032329 -0.26903713
-0.038900509 0.020428022 -0.27035344
-0.038896892 0.020512111 -0.27035943
-0.038893644 0.020594072 -0.27035949
-0.038894005 0.020674415 -0.27028567
-0.038960103 0.020731246 -0.26886159
-0.03895539 0.02081386 -0.2688916
-0.038902648 0.020915998 -0.26990625
-0.038904004 0.020997861 -0.26981041
-0.038942032 0.021061355 -0.26896566
-0.038938396 0.02114349 -0.26897371
-0.038907629 0.021237761 -0.26953694
-0.038866151 0.021338787 -0.27031785
-0.038864873 0.021421827 -0.27027589
-0.038898878 0.021485157 -0.2695151
-0.038857423 0.021588137 -0.27029395
-0.038890939 0.021651687 -0.26954311
-0.038887396 0.021733778 -0.26954913
-0.038851112 0.021834444 -0.27022216
-0.038909473 0.021882955 -0.26896614
-0.038842782 0.022001147 -0.27025816
-0.038840413 0.022082716 -0.27024022
-0.038868658 0.022148622 -0.26959726
-0.038865022 0.022230756 -0.26960528
-0.038861871 0.022312673 -0.26960334
-0.038828824 0.022413854 -0.27020839
-0.038826063 0.022495594 -0.27019846
-0.038849436 0.022563683 -0.26965535
-0.038807705 0.022668749 -0.27043813
-0.038846351 0.022726076 -0.26958555
-0.038766444 0.022938544 -0.27107513
-0.038761169 0.023023374 -0.27111509
-0.038756087 0.023108117 -0.27115104
-0.038746569 0.023440294 -0.27107522
-0.038742736 0.023522515 -0.27108726
-0.038899098 0.01877895 -0.27175617
-0.038897634 0.019028982 -0.27158037
-0.038915738 0.019109244 -0.27113688
-0.038982634 0.019177493 -0.26968658
-0.038979679 0.019259322 -0.26968065
-0.038879823 0.019364867 -0.27167431
-0.038890861 0.019444363 -0.2713787
-0.038966931 0.019508511 -0.26974067
-0.039011985 0.019578679 -0.2687439
-0.039010007 0.019660071 -0.268718
-0.038936578 0.019761646 -0.27016425
-0.03893362 0.019843476 -0.27015832
-0.038932052 0.019926649 -0.27012238
-0.038933899 0.020008292 -0.27001655
-0.038980104 0.020075982 -0.26899785
-0.038975567 0.020156555 -0.26902592
-0.038903177 0.020263556 -0.27044606
-0.038968701 0.020322604 -0.26903197
-0.038901091 0.020427467 -0.27035427
-0.03889757 0.020511512 -0.27035826
-0.038894419 0.020593429 -0.27035633
-0.03889478 0.020673774 -0.27028251
-0.038960967 0.020730561 -0.26885644
-0.038956061 0.020813264 -0.26889044
-0.038903322 0.0209154 -0.26990509
-0.038904585 0.020997306 -0.26981124
-0.038942508 0.021060845 -0.26896849
-0.038939066 0.021142893 -0.26897255
-0.038908303 0.021237163 -0.26953578
-0.038866729 0.021338232 -0.27031869
-0.038865454 0.021421272 -0.27027673
-0.038862109 0.021503277 -0.27027878
-0.038858101 0.021587539 -0.27029276
-0.038891613 0.021651089 -0.26954192
-0.038888171 0.021733137 -0.26954597
-0.038851693 0.021833891 -0.27022299
-0.038910143 0.021882355 -0.26896498
-0.03884346 0.022000551 -0.270257
-0.038840994 0.022082161 -0.27024105
-0.038869336 0.022148024 -0.2695961
-0.038865697 0.022230159 -0.26960415
-0.038862549 0.022312075 -0.26960218
-0.038829505 0.022413256 -0.27020723
-0.038826842 0.022494953 -0.27019531
-0.038850307 0.022562999 -0.26965016
-0.038808383 0.022668151 -0.27043697
-0.03882939 0.022735333 -0.2699438
-0.038767327 0.022937858 -0.27106997
-0.038761757 0.023022819 -0.2711159
-0.038756773 0.023107521 -0.27114987
-0.038747255 0.023439696 -0.27107406
-0.038743421 0.023521917 -0.2710861
-0.038896799 0.01877859 -0.27176428
-0.038896114 0.019028272 -0.2715725
-0.038914025 0.019108621 -0.27113301
-0.038980633 0.019177003 -0.2696887
-0.038885046 0.019278672 -0.27159655
-0.038878109 0.019364245 -0.27167043
-0.038889248 0.019443696 -0.27137282
-0.038963657 0.019508587 -0.26976874
-0.039010081 0.019578144 -0.26874402
-0.039007906 0.019659624 -0.26872212
-0.03893467 0.019761112 -0.27016437
-0.038931716 0.019842941 -0.27015844
-0.038930342 0.019926026 -0.2701185
-0.038931698 0.020007888 -0.27002263
-0.038978197 0.020075448 -0.26899797
-0.038973663 0.02015602 -0.26902604
-0.038901173 0.020263067 -0.27044821
-0.038966697 0.020322112 -0.26903409
-0.03889928 0.02042689 -0.27035239
-0.038895663 0.020510977 -0.27035838
-0.038892414 0.020592937 -0.27035844
-0.038892873 0.02067324 -0.2702826
-0.03895916 0.020729983 -0.26885456
-0.038954448 0.020812597 -0.26888457
-0.038908053 0.020911897 -0.2697694
-0.038902774 0.020996727 -0.26980934
-0.038940702 0.021060267 -0.26896662
-0.038937163 0.021142358 -0.26897264
-0.038906496 0.021236584 -0.2695339
-0.038864922 0.021337654 -0.27031678
-0.038863841 0.021420607 -0.27027085
-0.038860593 0.021502567 -0.27027088
-0.03885629 0.021586962 -0.27029088
-0.03888971 0.021650555 -0.26954204
-0.038886268 0.021732602 -0.26954609
-0.038849786 0.021833356 -0.27022308
-0.038846049 0.021915535 -0.27023312
-0.038841553 0.022000015 -0.27025712
-0.038839087 0.022081627 -0.27024117
-0.038867433 0.02214749 -0.26959622
-0.03886389 0.02222958 -0.26960224
-0.038860641 0.02231154 -0.2696023
-0.038827501 0.022412764 -0.27020934
-0.038824741 0.022494506 -0.27019942
-0.038848303 0.022562508 -0.26965228
-0.038806479 0.022667617 -0.27043706
-0.038818236 0.022740901 -0.27013159
-0.038765222 0.022937411 -0.27107409
-0.03875985 0.023022287 -0.27111602
-0.038755059 0.023106899 -0.271146
-0.038745739 0.023438986 -0.27106619
-0.038741615 0.02352134 -0.27108419
-0.038896173 0.018778946 -0.27175698
-0.038894903 0.019028891 -0.27157718
-0.038913008 0.019109152 -0.27113369
-0.038979519 0.019177578 -0.26969141
-0.038883928 0.019279245 -0.27159923
-0.038877092 0.019364776 -0.27167112
-0.038963716 0.019508637 -0.26974747
-0.039008778 0.019578805 -0.26875073
-0.039006993 0.019660112 -0.26872081
-0.038933657 0.019761642 -0.27016509
-0.038930699 0.019843472 -0.27015913
-0.038929325 0.019926557 -0.27011919
-0.038930491 0.020008506 -0.27002734
-0.03897709 0.020076022 -0.26900068
-0.038972549 0.020156596 -0.26902872
-0.038900252 0.020263553 -0.2704469
-0.038965683 0.020322643 -0.26903477
-0.038898166 0.020427464 -0.27035508
-0.038894646 0.020511508 -0.2703591
-0.038891397 0.020593468 -0.27035916
-0.038891759 0.020673813 -0.27028531
-0.03895805 0.020730557 -0.26885724
-0.038953338 0.020813173 -0.26888728
-0.038906939 0.020912472 -0.26977208
-0.038901761 0.020997258 -0.26981005
-0.038939886 0.021060711 -0.26896331
-0.038936246 0.021142846 -0.26897135
-0.038905479 0.021237114 -0.26953459
-0.038864002 0.021338141 -0.2703155
-0.038862627 0.021421226 -0.27027553
-0.038896635 0.021484556 -0.26951474
-0.038855076 0.02158758 -0.27029559
-0.038888693 0.021651085 -0.26954275
-0.038885154 0.021733176 -0.2695488
-0.038848866 0.021833843 -0.2702218
-0.03890742 0.021882266 -0.26896179
-0.038840536 0.022000546 -0.2702578
-0.038838066 0.022082157 -0.27024189
-0.038866416 0.022148021 -0.2695969
-0.038862776 0.022230156 -0.26960495
-0.038859624 0.022312071 -0.26960301
-0.038826678 0.022413207 -0.27020603
-0.038823918 0.022494949 -0.27019611
-0.038846992 0.022563169 -0.26965898
-0.038845792 0.022644212 -0.26961708
-0.038844205 0.022725431 -0.2695832
-0.038764201 0.022937942 -0.27107477
-0.038758826 0.023022816 -0.27111673
-0.038754039 0.023107428 -0.27114668
-0.038744617 0.02343956 -0.27106887
-0.038740687 0.023521826 -0.27108291
-0.038901135 0.018697659 -0.27174646
-0.038897716 0.01878166 -0.27174845
-0.038896326 0.019029692 -0.27157274
-0.038914233 0.019110043 -0.27113324
-0.038980842 0.019178424 -0.2696889
-0.038978182 0.019260122 -0.26967698
-0.038878318 0.019365666 -0.27167064
-0.038889162 0.019445248 -0.27137905
-0.038965136 0.01950944 -0.269743
-0.039010096 0.019579651 -0.26874825
-0.039008215 0.019661 -0.26872033
-0.038934879 0.019762533 -0.27016461
-0.038931925 0.019844361 -0.27015868
-0.038930159 0.019927621 -0.27012673
-0.03893191 0.020009309 -0.27002287
-0.038978506 0.020076824 -0.26899621
-0.038973872 0.020157441 -0.26902628
-0.038901381 0.020264488 -0.27044842
-0.038966812 0.020323578 -0.26903629
-0.038899392 0.020428354 -0.27035463
-0.038895871 0.020512398 -0.27035862
-0.038892623 0.020594358 -0.27035868
-0.038892984 0.020674704 -0.27028483
-0.038959272 0.020731447 -0.26885679
-0.038954366 0.020814149 -0.2688908
-0.038908359 0.020913273 -0.26976764
-0.038903177 0.020998061 -0.26980558
-0.038940914 0.021061689 -0.26896685
-0.038937371 0.021143779 -0.26897287
-0.038906705 0.021238005 -0.26953411
-0.03886503 0.021339118 -0.27031901
-0.038863756 0.021422159 -0.27027708
-0.03889776 0.021485491 -0.26951626
-0.038856301 0.021588469 -0.27029511
-0.038889918 0.021651976 -0.26954228
-0.038886376 0.021734066 -0.26954833
-0.038850091 0.021834733 -0.27022132
-0.038908642 0.021883156 -0.26896131
-0.038841762 0.022001436 -0.27025732
-0.038839292 0.022083048 -0.27024141
-0.038867638 0.022148911 -0.26959643
-0.038864098 0.022231001 -0.26960248
-0.038860846 0.022312962 -0.26960254
-0.038827803 0.02241414 -0.27020758
-0.038824946 0.022495927 -0.27019966
-0.038848411 0.022563972 -0.26965451
-0.038806684 0.022669036 -0.2704373
-0.038818344 0.022742365 -0.27013385
-0.038765229 0.022938918 -0.27107832
-0.038760051 0.023023706 -0.27111626
-0.038755264 0.023108318 -0.27114624
-0.038745552 0.023440581 -0.27107438
-0.038741715 0.023522804 -0.27108642
-0.038894732 0.018779531 -0.27176225
-0.038893756 0.019029344 -0.27157649
-0.03891186 0.019109603 -0.27113301
-0.038978465 0.019177983 -0.2696887
-0.038975801 0.01925968 -0.26967674
-0.038875751 0.019365316 -0.27167442
-0.038886789 0.019444812 -0.27137882
-0.038961686 0.019509479 -0.26976475
-0.039007913 0.019579122 -0.26874402
-0.039005935 0.019660514 -0.26871812
-0.038932603 0.019762048 -0.27016237
-0.038929354 0.019844009 -0.27016243
-0.038928274 0.019926963 -0.27011651
-0.038921222 0.020010626 -0.27019444
-0.038976032 0.020076426 -0.26899797
-0.038971495 0.020156998 -0.26902604
-0.038899105 0.020264003 -0.27044618
-0.038964339 0.02032318 -0.26903808
-0.038897216 0.020427827 -0.2703504
-0.038893599 0.020511916 -0.27035639
-0.038890254 0.020593919 -0.27035844
-0.038890615 0.020674264 -0.27028459
-0.038956899 0.020731004 -0.26885656
-0.038952187 0.02081362 -0.26888657
-0.038899254 0.020915845 -0.26990521
-0.038900223 0.020997882 -0.26981735
-0.038938444 0.02106129 -0.26896858
-0.038934998 0.021143336 -0.26897264
-0.038904235 0.021237608 -0.2695359
-0.038862858 0.021338591 -0.27031478
-0.038861681 0.021421589 -0.27027085
-0.038858432 0.021503549 -0.27027088
-0.03885413 0.021587944 -0.27029088
-0.038887549 0.021651534 -0.26954204
-0.038884103 0.021733582 -0.26954609
-0.038847726 0.021834293 -0.27022108
-0.038905982 0.021882843 -0.26896709
-0.038839493 0.022000954 -0.27025509
-0.038837027 0.022082563 -0.27023917
-0.038865272 0.022148469 -0.26959622
-0.038861632 0.022230605 -0.26960424
-0.038858481 0.02231252 -0.2696023
-0.038825441 0.022413701 -0.27020735
-0.038822681 0.022495443 -0.27019739
-0.038847685 0.022560835 -0.26962239
-0.038844652 0.022644661 -0.2696164
-0.038843434 0.022723751 -0.26957655
-0.038763165 0.02293835 -0.27107209
-0.038758084 0.023023095 -0.27110803
-0.038767986 0.023097206 -0.27084053
-0.038743585 0.02343997 -0.27106619
-0.038739458 0.023522321 -0.27108419
-0.038897272 0.018783035 -0.27175993
-0.038896196 0.019032888 -0.27157614
-0.038914401 0.019113105 -0.27113065
-0.038980905 0.019181523 -0.26968834
-0.038978145 0.019263264 -0.26967841
-0.038878292 0.01936882 -0.27167207
-0.038889915 0.019448051 -0.27136448
-0.039008606 0.019500971 -0.26884753
-0.039009869 0.019582877 -0.26875365
-0.039007887 0.019664269 -0.26872775
-0.038934946 0.019765634 -0.27016401
-0.038931895 0.019847507 -0.27016008
-0.038930327 0.019930679 -0.27012414
-0.038932074 0.020012366 -0.27002028
-0.038978279 0.02008005 -0.2690016
-0.038973741 0.020160625 -0.26902968
-0.038901642 0.020267503 -0.27044386
-0.038967069 0.020326586 -0.26903173
-0.03889956 0.020431412 -0.27035204
-0.038896136 0.020515414 -0.27035403
-0.038892888 0.020597374 -0.27035409
-0.038892861 0.020677892 -0.27028823
-0.038959242 0.020734586 -0.26885819
-0.038954724 0.020817112 -0.26888421
-0.038901694 0.020919386 -0.26990485
-0.038903054 0.021001248 -0.26980898
-0.038940884 0.021064827 -0.26896822
-0.038937535 0.02114683 -0.26897028
-0.038906675 0.021241147 -0.26953554
-0.038864911 0.021342307 -0.27032241
-0.03886373 0.021425305 -0.27027848
-0.038897928 0.021488544 -0.26951367
-0.03885667 0.021591442 -0.27028853
-0.038889989 0.021655073 -0.26954168
-0.038886447 0.021737166 -0.26954773
-0.038850166 0.021837834 -0.27022073
-0.038908519 0.021886338 -0.26896471
-0.038841836 0.022004539 -0.27025673
-0.038839366 0.022086149 -0.27024081
-0.038867712 0.022152008 -0.26959583
-0.038864072 0.022234144 -0.26960388
-0.038860824 0.022316104 -0.26960391
-0.038827978 0.022417199 -0.27020496
-0.038825121 0.022498984 -0.27019703
-0.038809523 0.022590399 -0.27044663
-0.038847093 0.022648202 -0.26961604
-0.038845874 0.02272729 -0.26957619
-0.038765702 0.02294185 -0.27106971
-0.038760524 0.023026638 -0.27110767
-0.038755443 0.023111382 -0.27114362
-0.038745731 0.023443645 -0.27107179
-0.038741704 0.023525953 -0.27108783
-0.03889975 0.018701021 -0.27176431
-0.038897403 0.018784543 -0.27174434
-0.038895719 0.019032706 -0.27157462
-0.038913824 0.019112965 -0.2711311
-0.038980335 0.019181386 -0.26968879
-0.038977478 0.019263171 -0.26968086
-0.038877908 0.019368593 -0.27166855
-0.038888849 0.019448129 -0.27137491
-0.038964629 0.019512402 -0.26974288
-0.039009981 0.019582435 -0.26874012
-0.039007902 0.01966387 -0.26871622
-0.038934276 0.019765539 -0.27016649
-0.038931321 0.019847369 -0.27016056
-0.038929652 0.019930584 -0.27012658
-0.038931403 0.020012273 -0.27002275
-0.038977902 0.020079827 -0.26899809
-0.038973365 0.020160399 -0.26902613
-0.038901068 0.020267366 -0.2704443
-0.038966402 0.020326493 -0.26903421
-0.038898982 0.020431275 -0.27035248
-0.038895462 0.020515319 -0.27035648
-0.038892116 0.020597324 -0.27035853
-0.038892478 0.020677667 -0.27028471
-0.038958669 0.02073445 -0.26885864
-0.038953859 0.020817108 -0.26889065
-0.038907852 0.020916237 -0.26976749
-0.038902674 0.021001024 -0.26980543
-0.03894021 0.021064734 -0.2689707
-0.038936865 0.021146737 -0.26897275
-0.038906198 0.021240966 -0.26953399
-0.038864523 0.021342082 -0.27031887
-0.038863152 0.021425167 -0.27027893
-0.03889735 0.021488408 -0.26951414
-0.038855895 0.021591391 -0.270293
-0.038889412 0.021654937 -0.26954216
-0.03888597 0.021736983 -0.26954621
-0.038849391 0.021837784 -0.2702252
-0.038907945 0.021886202 -0.26896518
-0.038841255 0.022004401 -0.2702572
-0.038838789 0.022086011 -0.27024126
-0.038867135 0.022151873 -0.26959628
-0.038863495 0.022234006 -0.26960433
-0.038860247 0.022315966 -0.26960438
-0.0388273 0.022417106 -0.27020743
-0.038824443 0.022498891 -0.27019951
-0.038849451 0.022564281 -0.26962447
-0.038846515 0.022648064 -0.26961648
-0.038827576 0.022739008 -0.26993603
-0.038764924 0.0229418 -0.27107418
-0.038759742 0.023026587 -0.27111214
-0.038754564 0.023111373 -0.27115008
-0.038745146 0.023443505 -0.27107227
-0.038741313 0.023525728 -0.27108431
-0.038898125 0.018700914 -0.27178276
-0.038896266 0.018784218 -0.2717528
-0.038895264 0.019032076 -0.27156907
-0.038913082 0.019112466 -0.27113158
-0.038979597 0.01918089 -0.26968926
-0.038883902 0.019282605 -0.27159908
-0.038876966 0.019368179 -0.27167299
-0.03888879 0.019447325 -0.27136141
-0.038962428 0.01951256 -0.2697733
-0.039008658 0.019582203 -0.26875257
-0.039006874 0.019663507 -0.26872265
-0.038933631 0.019764999 -0.27016494
-0.038930774 0.019846784 -0.27015701
-0.038929008 0.019930044 -0.27012506
-0.038930658 0.020011775 -0.27002323
-0.038977068 0.020079376 -0.26900053
-0.038972527 0.020159949 -0.2690286
-0.038900129 0.020266954 -0.27044877
-0.038965859 0.02032591 -0.26903066
-0.038898237 0.020430777 -0.27035296
-0.03889462 0.020514866 -0.27035895
-0.038891371 0.020596826 -0.27035901
-0.038887925 0.020678874 -0.27036303
-0.038958028 0.020733912 -0.26885712
-0.038953315 0.020816525 -0.26888713
-0.03890701 0.020915784 -0.26976997
-0.038901635 0.021000659 -0.26981193
-0.03893986 0.021064065 -0.26896316
-0.03893622 0.021146199 -0.2689712
-0.03890555 0.021240426 -0.26953247
-0.03886212 0.021342326 -0.27035329
-0.038862698 0.021424539 -0.27027342
-0.038896605 0.021487912 -0.26951459
-0.038855243 0.021590849 -0.27029145
-0.038888667 0.02165444 -0.2695426
-0.038885221 0.021736488 -0.26954666
-0.038848739 0.021837244 -0.27022368
-0.038907394 0.021885619 -0.26896167
-0.038840603 0.022003859 -0.27025568
-0.038838137 0.022085469 -0.27023974
-0.038866483 0.022151332 -0.26959476
-0.038862847 0.022233466 -0.26960281
-0.038859595 0.022315426 -0.26960286
-0.038826548 0.022416608 -0.27020788
-0.038823888 0.022498306 -0.27019596
-0.038848896 0.022563698 -0.26962095
-0.038845766 0.022647567 -0.26961696
-0.038844272 0.022728741 -0.26958105
-0.038763974 0.022941388 -0.27107865
-0.038758695 0.023026219 -0.27111858
-0.038753904 0.023110831 -0.27114856
-0.038744293 0.023443051 -0.27107471
-0.038740359 0.023525316 -0.27108875
-0.038896553 0.018782586 -0.27176011
-0.038895868 0.019032266 -0.27156836
-0.038913682 0.019112658 -0.27113086
-0.038980193 0.019181078 -0.26968855
-0.038977534 0.019262776 -0.26967663
-0.038877469 0.019368414 -0.27167428
-0.038888901 0.019447735 -0.27137068
-0.038963806 0.0195124 -0.26975662
-0.039009549 0.019582259 -0.26874587
-0.03900747 0.019663695 -0.26872197
-0.038934134 0.019765232 -0.27016622
-0.038931176 0.019847061 -0.27016029
-0.038929999 0.019930059 -0.27011636
-0.038931455 0.020011878 -0.27001852
-0.038977761 0.02007952 -0.26899785
-0.038973227 0.020160094 -0.26902589
-0.038900826 0.020267099 -0.27044606
-0.038966261 0.020326186 -0.26903394
-0.038898841 0.020430967 -0.27035224
-0.03889522 0.020515054 -0.27035823
-0.038891971 0.020597015 -0.27035829
-0.038888529 0.020679062 -0.27036232
-0.038958725 0.020734055 -0.26885441
-0.038953915 0.020816714 -0.26888642
-0.038907513 0.020916015 -0.26977125
-0.038902137 0.02100089 -0.26981318
-0.038940363 0.021064296 -0.26896447
-0.038936723 0.021146432 -0.26897252
-0.038905956 0.021240702 -0.26953575
-0.038864672 0.021341642 -0.27031264
-0.038863394 0.021424685 -0.27027071
-0.038897209 0.0214881 -0.26951388
-0.038855847 0.021591039 -0.27029073
-0.038889267 0.021654628 -0.26954189
-0.038885824 0.021736676 -0.26954594
-0.038849439 0.021837389 -0.27022094
-0.038845606 0.02191961 -0.27023298
-0.038841207 0.022004049 -0.27025497
-0.038838737 0.022085659 -0.27023903
-0.038866989 0.022151563 -0.26959604
-0.03886335 0.022233699 -0.26960409
-0.038860198 0.022315614 -0.26960215
-0.038827151 0.022416797 -0.27020717
-0.038824391 0.022498539 -0.27019724
-0.038775284 0.022610834 -0.27112773
-0.038806126 0.022671649 -0.27043492
-0.038844775 0.022728974 -0.26958233
-0.038764674 0.022941533 -0.27107593
-0.038759593 0.023026278 -0.27111188
-0.038754705 0.023110934 -0.27114385
-0.038744994 0.023443196 -0.271072
-0.03874116 0.023525419 -0.27108404
-0.038901716 0.018699447 -0.27173552
-0.038897492 0.018781843 -0.27175555
-0.038919702 0.01902717 -0.27109033
-0.03891433 0.019112045 -0.27113226
-0.038981035 0.019180378 -0.26968595
-0.038885444 0.019282054 -0.27159381
-0.038878217 0.019367758 -0.27167371
-0.038889255 0.019447252 -0.27137807
-0.038965233 0.019511439 -0.26974204
-0.039010093 0.01958169 -0.2687493
-0.039008114 0.019663082 -0.26872337
-0.038934976 0.019764533 -0.27016366
-0.038931921 0.019846406 -0.27015972
-0.03893701 0.019928563 -0.26998591
-0.038932003 0.02001131 -0.27002192
-0.038978502 0.020078864 -0.26899725
-0.038973965 0.020159436 -0.2690253
-0.038901571 0.020266443 -0.27044547
-0.038966905 0.020325573 -0.26903534
-0.038899485 0.020430354 -0.27035367
-0.038895965 0.020514399 -0.27035764
-0.038892716 0.020596359 -0.2703577
-0.038893078 0.020676704 -0.27028388
-0.038959268 0.020733487 -0.26885781
-0.038954459 0.020816144 -0.26888981
-0.03890172 0.020918285 -0.26990446
-0.038902979 0.021000192 -0.26981062
-0.038941301 0.021063553 -0.26895988
-0.038937662 0.021145687 -0.26896793
-0.038906798 0.021240002 -0.26953316
-0.038865224 0.021341074 -0.27031606
-0.038864043 0.021424072 -0.27027211
-0.03889795 0.021487445 -0.26951331
-0.038856495 0.021590427 -0.27029216
-0.038890012 0.021653973 -0.26954132
-0.038886469 0.021736063 -0.26954734
-0.038850088 0.021836776 -0.27022237
-0.038908739 0.021885151 -0.26896036
-0.038841855 0.022003436 -0.27025637
-0.038839288 0.022085091 -0.27024242
-0.038867734 0.022150908 -0.26959544
-0.038864095 0.022233043 -0.26960349
-0.038860943 0.022314958 -0.26960155
-0.038827799 0.022416186 -0.2702086
-0.038825139 0.022497883 -0.27019668
-0.038848508 0.02256597 -0.26965356
-0.038847111 0.022647101 -0.26961565
-0.038845621 0.022728276 -0.26957977
-0.03876552 0.022940835 -0.27107334
-0.038760733 0.023025448 -0.27110332
-0.038755748 0.023110148 -0.27113727
-0.038745742 0.02344254 -0.27107143
-0.038741812 0.023524806 -0.27108544
-0.038896997 0.018779872 -0.27176401
-0.038895726 0.019029815 -0.27158424
-0.038914222 0.019109901 -0.27113277
-0.038980927 0.019178238 -0.26968646
-0.038885146 0.019279998 -0.27159828
-0.03887821 0.01936557 -0.27167219
-0.038888663 0.019445326 -0.27138853
-0.039007846 0.019498039 -0.26886159
-0.039009791 0.01957964 -0.26875377
-0.039008003 0.019660944 -0.26872385
-0.038934767 0.019762436 -0.27016613
-0.038931813 0.019844264 -0.2701602
-0.038930438 0.019927349 -0.27012026
-0.038931895 0.020009167 -0.27002239
-0.038978297 0.020076768 -0.26899973
-0.03897376 0.020157343 -0.26902777
-0.038901269 0.020264391 -0.27044994
-0.038966697 0.02032348 -0.26903784
-0.038899474 0.02042817 -0.27035215
-0.038895857 0.020512257 -0.27035815
-0.038892705 0.020594174 -0.27035618
-0.038893066 0.020674519 -0.27028236
-0.038959257 0.020731304 -0.26885632
-0.038954545 0.02081392 -0.26888633
-0.038908243 0.020913176 -0.26976913
-0.038902968 0.020998007 -0.2698091
-0.038941093 0.021061458 -0.26896238
-0.03893755 0.021143548 -0.2689684
-0.038906686 0.021237863 -0.26953363
-0.038865112 0.021338932 -0.27031654
-0.038863741 0.021422017 -0.27027661
-0.038897842 0.021485304 -0.26951379
-0.038856484 0.021588242 -0.27029064
-0.0388899 0.021651834 -0.2695418
-0.038886458 0.02173388 -0.26954585
-0.038850076 0.021834591 -0.27022085
-0.03890853 0.021883056 -0.26896286
-0.038841743 0.022001296 -0.27025685
-0.038839277 0.022082906 -0.27024093
-0.038867623 0.022148767 -0.26959595
-0.038863983 0.022230903 -0.269604
-0.038860831 0.02231282 -0.26960206
-0.038827788 0.022414001 -0.27020711
-0.038825125 0.022495698 -0.27019516
-0.038848296 0.022563873 -0.26965603
-0.038846999 0.022644961 -0.26961616
-0.038845681 0.022724094 -0.26957831
-0.038765214 0.022938779 -0.27107784
-0.038759843 0.023023654 -0.27111977
-0.038755052 0.023108266 -0.27114972
-0.038745634 0.023440398 -0.27107191
-0.038741797 0.023522619 -0.27108395
-0.038899511 0.018696275 -0.27177596
-0.038897455 0.018779665 -0.27175
-0.038895287 0.019028049 -0.27159023
-0.038914073 0.019108005 -0.27113277
-0.038980775 0.019176343 -0.26968646
-0.038977917 0.01925813 -0.26967853
-0.038877964 0.019363716 -0.27167419
-0.039007694 0.019496147 -0.26886162
-0.039009929 0.019577617 -0.26874778
-0.039007951 0.019659009 -0.26872188
-0.038934812 0.019760452 -0.27016217
-0.038931761 0.019842325 -0.2701582
-0.038936749 0.019924527 -0.26998639
-0.038931645 0.020007316 -0.27002442
-0.038978145 0.020074876 -0.26899976
-0.038973704 0.020155406 -0.2690258
-0.038901314 0.020262407 -0.27044594
-0.038966544 0.020321585 -0.26903784
-0.038899325 0.020426273 -0.27035215
-0.038895708 0.020510362 -0.27035815
-0.038892556 0.020592278 -0.27035621
-0.038889013 0.02067437 -0.27036226
-0.038959105 0.020729411 -0.26885632
-0.038954392 0.020812027 -0.26888633
-0.0389078 0.020911412 -0.26977515
-0.038902719 0.020996157 -0.26981112
-0.038940743 0.021059653 -0.26896638
-0.0389373 0.0211417 -0.26897043
-0.038906537 0.021235969 -0.26953366
-0.038864963 0.021337038 -0.27031654
-0.038863782 0.021420036 -0.27027261
-0.038897593 0.021483455 -0.26951581
-0.038856234 0.02158639 -0.27029264
-0.038889751 0.02164994 -0.2695418
-0.038886208 0.02173203 -0.26954788
-0.038849924 0.021832697 -0.27022088
-0.03890828 0.021881208 -0.26896486
-0.038841691 0.021999355 -0.27025488
-0.038839124 0.02208101 -0.27024093
-0.03886747 0.022146873 -0.26959598
-0.03886383 0.022229008 -0.26960403
-0.038860679 0.022310926 -0.26960206
-0.038827635 0.022412105 -0.27020711
-0.038824778 0.02249389 -0.27019918
-0.038848341 0.022561893 -0.26965207
-0.03884685 0.022643067 -0.26961616
-0.038845532 0.0227222 -0.26957831
-0.038765162 0.022936838 -0.27107584
-0.038759984 0.023021625 -0.27111381
-0.038754903 0.023106368 -0.27114975
-0.038745578 0.023438457 -0.27106994
-0.038741451 0.023520809 -0.27108797
-0.038899601 0.018695114 -0.27177489
-0.038897641 0.01877846 -0.27174693
-0.038895763 0.019026712 -0.27158117
-0.038914159 0.019106843 -0.27113169
-0.038980767 0.019175228 -0.26968738
-0.038978104 0.019256925 -0.26967543
-0.038878441 0.019362379 -0.27166513
-0.038964767 0.019506374 -0.26974744
-0.039010212 0.019576371 -0.26874271
-0.03900804 0.01965785 -0.26872081
-0.038934708 0.019759379 -0.27016506
-0.038931653 0.019841252 -0.27016112
-0.038930375 0.019924294 -0.27011919
-0.038931832 0.020006113 -0.27002135
-0.038978331 0.020073675 -0.26899666
-0.038973793 0.020154247 -0.26902473
-0.038901597 0.020261159 -0.27044088
-0.038967025 0.020320252 -0.26902878
-0.038899414 0.020425113 -0.27035108
-0.03889589 0.020509157 -0.27035508
-0.038892645 0.020591117 -0.27035514
-0.03889291 0.020671507 -0.27028328
-0.038959194 0.020728253 -0.26885524
-0.038954481 0.020810867 -0.26888525
-0.038901549 0.020913091 -0.2699039
-0.038902905 0.020994952 -0.26980805
-0.038940638 0.02105858 -0.2689693
-0.038937192 0.021140628 -0.26897335
-0.038906626 0.021234808 -0.26953259
-0.038864955 0.02133592 -0.27031747
-0.038863678 0.021418963 -0.27027553
-0.038860332 0.021500966 -0.27027759
-0.038856223 0.021585273 -0.27029356
-0.03888974 0.021648824 -0.26954275
-0.038886201 0.021730915 -0.26954877
-0.038850013 0.021831535 -0.2702198
-0.03890837 0.021880047 -0.26896378
-0.03884178 0.021998195 -0.27025381
-0.038839214 0.02207985 -0.27023986
-0.038867559 0.022145715 -0.26959491
-0.03886392 0.02222785 -0.26960295
-0.038860768 0.022309765 -0.26960099
-0.038827628 0.022410987 -0.27020803
-0.038824867 0.022492729 -0.27019811
-0.038848333 0.022560775 -0.26965296
-0.03884694 0.022641907 -0.26961508
-0.038845446 0.022723081 -0.26957917
-0.038765445 0.022935588 -0.27107078
-0.038760364 0.023020333 -0.27110672
-0.038755283 0.023105076 -0.27114269
-0.038745571 0.02343734 -0.27107087
-0.038741641 0.023519605 -0.2710849
-0.038897023 0.018775677 -0.2717621
-0.038896337 0.019025359 -0.27157035
-0.038914345 0.019105665 -0.27112883
-0.038980853 0.019174095 -0.26968655
-0.038977996 0.019255882 -0.26967859
-0.038878333 0.019361332 -0.27166829
-0.038888101 0.019441396 -0.27139863
-0.038964368 0.019505462 -0.26975662
-0.039010495 0.019575153 -0.26873788
-0.03900842 0.019656589 -0.26871395
-0.038934987 0.019758161 -0.27016023
-0.038994487 0.019821871 -0.26886791
-0.038930465 0.019923162 -0.27011836
-0.038931921 0.02000498 -0.27002051
-0.038978614 0.020072456 -0.26899183
-0.038974077 0.020153029 -0.2690199
-0.038901489 0.020260114 -0.27044404
-0.03896711 0.020319121 -0.26902795
-0.038899597 0.020423938 -0.27034825
-0.038896076 0.020507982 -0.27035224
-0.038892731 0.020589985 -0.2703543
-0.038889192 0.020672077 -0.27036035
-0.038959283 0.020727122 -0.26885441
-0.038954571 0.020809736 -0.26888442
-0.038901731 0.020911915 -0.26990107
-0.038903091 0.020993777 -0.26980519
-0.038940728 0.021057449 -0.26896846
-0.038937185 0.021139542 -0.26897448
-0.038906712 0.021233678 -0.26953176
-0.038863286 0.021335574 -0.2703526
-0.038863864 0.021417785 -0.2702727
-0.038860418 0.021499833 -0.27027676
-0.038856409 0.021584097 -0.27029073
-0.038889926 0.021647649 -0.26953989
-0.038886484 0.021729697 -0.26954395
-0.038850002 0.021830447 -0.27022097
-0.038846169 0.02191267 -0.27023298
-0.038841769 0.021997107 -0.27025497
-0.0388394 0.022078674 -0.27023703
-0.038867649 0.022144582 -0.26959407
-0.038864106 0.022226674 -0.26960009
-0.038860857 0.022308635 -0.26960015
-0.038827814 0.022409812 -0.2702052
-0.038825151 0.022491511 -0.27019328
-0.038809456 0.022582965 -0.27044487
-0.038847029 0.022640776 -0.26961428
-0.038818646 0.022737905 -0.27012548
-0.038765438 0.0229345 -0.27107194
-0.038760453 0.0230192 -0.27110592
-0.038755372 0.023103943 -0.27114186
-0.038745172 0.023436423 -0.27108002
-0.038741633 0.023518516 -0.27108607
-0.03890172 0.018698474 -0.27176663
-0.03889937 0.018781995 -0.27174667
-0.038897883 0.019030072 -0.27157295
-0.038915794 0.019110421 -0.27113342
-0.038982499 0.019178761 -0.26968712
-0.038979642 0.019260546 -0.26967919
-0.038879972 0.019366002 -0.27166885
-0.038892183 0.019444974 -0.27134928
-0.038965624 0.019510301 -0.26976517
-0.039012145 0.019579815 -0.26873845
-0.039009772 0.019661382 -0.26872054
-0.038936436 0.019762913 -0.27016482
-0.038933579 0.019844698 -0.27015686
-0.038931813 0.019927958 -0.27012491
-0.038925052 0.02001149 -0.27019686
-0.038980063 0.020077206 -0.26899642
-0.038975526 0.020157779 -0.26902446
-0.038903031 0.020264823 -0.27044663
-0.03896866 0.020323828 -0.26903051
-0.038901143 0.020428646 -0.27035081
-0.038897622 0.020512693 -0.27035484
-0.03889437 0.020594651 -0.27035487
-0.038894735 0.020674996 -0.27028105
-0.038960926 0.020731784 -0.26885498
-0.038956214 0.0208144 -0.26888502
-0.038903277 0.020916622 -0.26990363
-0.038904831 0.020998398 -0.26980379
-0.03894227 0.021062156 -0.26897103
-0.038939022 0.021144116 -0.26897109
-0.038908258 0.021238385 -0.26953435
-0.038866583 0.021339498 -0.27031922
-0.038865402 0.021422496 -0.27027529
-0.038862154 0.021504456 -0.27027532
-0.038858145 0.021588719 -0.2702893
-0.038891565 0.021652313 -0.26954049
-0.038888026 0.021734403 -0.26954654
-0.038851641 0.021835113 -0.27022153
-0.038910002 0.021883624 -0.26896551
-0.038843408 0.022001773 -0.27025554
-0.038840938 0.022083383 -0.27023962
-0.038869284 0.022149246 -0.26959464
-0.038865648 0.022231381 -0.26960269
-0.038862497 0.022313299 -0.26960075
-0.038829353 0.022414522 -0.27020776
-0.038826592 0.022496263 -0.27019784
-0.038850058 0.022564309 -0.26965272
-0.038848665 0.02264544 -0.26961482
-0.038847346 0.022724573 -0.269577
-0.038767166 0.022939123 -0.27107051
-0.038761891 0.023023956 -0.27111048
-0.038756907 0.023108654 -0.27114442
-0.038747292 0.023440873 -0.2710706
-0.038743455 0.023523096 -0.27108264
-0.038897928 0.018780256 -0.27176261
-0.038896654 0.019030198 -0.27158284
-0.038915053 0.019110329 -0.27113336
-0.038981758 0.019178668 -0.26968706
-0.038885973 0.019280424 -0.27159888
-0.03887894 0.019366041 -0.27167478
-0.03889066 0.019445231 -0.27136517
-0.03896556 0.019509902 -0.2697511
-0.0390114 0.019579722 -0.26873839
-0.03900893 0.019661333 -0.26872244
-0.038935792 0.019762777 -0.27016273
-0.038932737 0.019844649 -0.2701588
-0.038931265 0.019927777 -0.27012086
-0.038932525 0.020009685 -0.27002698
-0.038979221 0.020077156 -0.26899832
-0.038974583 0.020157773 -0.26902837
-0.038902286 0.020264732 -0.27044654
-0.038967717 0.020323822 -0.26903445
-0.038900297 0.020428598 -0.27035275
-0.038896777 0.020512642 -0.27035674
-0.038893431 0.020594647 -0.2703588
-0.038893692 0.020675035 -0.27028695
-0.03895998 0.020731779 -0.26885891
-0.038955271 0.020814393 -0.26888892
-0.038909066 0.020913605 -0.26976973
-0.038903788 0.020998437 -0.26980969
-0.038941622 0.02106202 -0.26896894
-0.038938079 0.021144111 -0.26897499
-0.038907409 0.021238336 -0.26953626
-0.038865738 0.021339448 -0.27032113
-0.038864363 0.021422533 -0.2702812
-0.038898561 0.021485778 -0.26951638
-0.0388573 0.02158867 -0.27029124
-0.038890619 0.021652307 -0.26954439
-0.03888708 0.021734398 -0.26955044
-0.038850889 0.02183502 -0.27022144
-0.038909346 0.021883486 -0.26896346
-0.038842656 0.02200168 -0.27025545
-0.038840089 0.022083335 -0.27024153
-0.038868435 0.022149198 -0.26959655
-0.038864795 0.022231333 -0.26960459
-0.038861547 0.022313293 -0.26960465
-0.0388286 0.022414429 -0.2702077
-0.038825743 0.022496214 -0.27019978
-0.038849011 0.022564346 -0.26965863
-0.038807478 0.022669325 -0.27043742
-0.038818941 0.022742739 -0.27013797
-0.03876622 0.022939119 -0.27107444
-0.038761038 0.023023905 -0.27111238
-0.038756151 0.023108562 -0.27114433
-0.038746439 0.023440825 -0.27107251
-0.038742505 0.02352309 -0.27108654
-0.038897306 0.018779397 -0.27176416
-0.038896032 0.019029342 -0.27158439
-0.038914725 0.01910934 -0.27112889
-0.038981326 0.019177722 -0.26968458
-0.038978469 0.019259507 -0.26967663
-0.038878419 0.019365139 -0.27167431
-0.038890529 0.019444155 -0.27135673
-0.039008148 0.019497566 -0.26886174
-0.039010286 0.019579079 -0.26874989
-0.039008405 0.019660428 -0.268722
-0.03893517 0.019761918 -0.27016425
-0.038932215 0.019843746 -0.27015832
-0.038930938 0.019926788 -0.27011639
-0.038932394 0.020008607 -0.27001852
-0.038978696 0.020076253 -0.26899785
-0.038974158 0.020156825 -0.26902592
-0.038901672 0.020263873 -0.27044809
-0.038967293 0.020322874 -0.26903197
-0.038899779 0.020427695 -0.27035227
-0.038896356 0.020511696 -0.27035427
-0.03889301 0.020593701 -0.27035633
-0.038889468 0.020675791 -0.27036238
-0.038959559 0.020730831 -0.26885644
-0.038954943 0.020813402 -0.26888445
-0.038902011 0.020915627 -0.26990309
-0.038903173 0.020997576 -0.26981124
-0.038941003 0.02106116 -0.26897049
-0.038937557 0.021143207 -0.26897454
-0.038906991 0.02123739 -0.26953378
-0.038863465 0.021339333 -0.2703566
-0.038864043 0.021421544 -0.27027673
-0.038898144 0.021484831 -0.26951393
-0.038856786 0.021587767 -0.27029076
-0.038890205 0.021651359 -0.26954192
-0.038886663 0.021733452 -0.269548
-0.038850378 0.021834118 -0.27022099
-0.038908731 0.021882627 -0.26896498
-0.038842048 0.022000821 -0.270257
-0.038839675 0.022082388 -0.27023906
-0.038867924 0.022148294 -0.2695961
-0.038864285 0.02223043 -0.26960415
-0.038861133 0.022312345 -0.26960218
-0.03882809 0.022413526 -0.27020723
-0.038825329 0.022495268 -0.2701973
-0.038848601 0.0225634 -0.26965618
