# .PCD v0.7 - Point Cloud Data file format
VERSION 0.7
FIELDS x y z
SIZE 4 4 4
TYPE F F F
COUNT 1 1 1
WIDTH 1323
HEIGHT 1
VIEWPOINT 0 0 0 1 0 0 0
POINTS 1323
DATA ascii
-0.13527434 0.024231199 -0.26816657
-0.13527103 0.024311204 -0.26816866
-0.13526811 0.024389081 -0.26816484
-0.13526517 0.024466958 -0.268161
-0.13526215 0.024544876 -0.26815915
-0.13525923 0.024622753 -0.26815534
-0.13525651 0.024702497 -0.26814544
-0.13525349 0.024780417 -0.26814359
-0.13525027 0.024858423 -0.26814574
-0.13524714 0.024936385 -0.26814592
-0.13524392 0.025014393 -0.26814806
-0.13524121 0.025094137 -0.2681382
-0.13523848 0.025171926 -0.26813036
-0.13523497 0.025250062 -0.26813853
-0.13523157 0.02533011 -0.26814261
-0.13522874 0.025407942 -0.2681368
-0.13522571 0.025485862 -0.26813495
-0.13522269 0.02556378 -0.2681331
-0.13522007 0.025641527 -0.26812327
-0.13521686 0.025721489 -0.26812339
-0.13521354 0.025799539 -0.26812753
-0.13521071 0.025877371 -0.26812169
-0.13520798 0.025955161 -0.26811385
-0.13520466 0.026033211 -0.26811802
-0.13520136 0.026113214 -0.26812011
-0.13519853 0.026191048 -0.26811427
-0.13519523 0.026269097 -0.26811844
-0.13519268 0.026346799 -0.26810661
-0.13519034 0.026424415 -0.26809078
-0.13518724 0.026504334 -0.26808891
-0.13518372 0.02658247 -0.26809704
-0.13518052 0.026662432 -0.26809716
-0.13517749 0.02674035 -0.26809531
-0.13517427 0.026818357 -0.26809749
-0.13517144 0.02689619 -0.26809165
-0.13516861 0.026974022 -0.26808581
-0.13516542 0.027053984 -0.26808593
-0.13516268 0.027131774 -0.26807809
-0.13515995 0.027209561 -0.26807025
-0.13515674 0.027287569 -0.26807243
-0.13515371 0.027365489 -0.26807058
-0.1351507 0.027445363 -0.26806667
-0.13514787 0.027523195 -0.26806083
-0.13514514 0.027600985 -0.26805303
-0.13514192 0.027678991 -0.26805517
-0.13513833 0.027759125 -0.26806328
-0.13513511 0.027837131 -0.26806542
-0.13513239 0.027914921 -0.26805758
-0.13512956 0.027992755 -0.26805174
-0.13512625 0.02807276 -0.26805386
-0.13512333 0.028150635 -0.26805001
-0.1351205 0.028228467 -0.26804417
-0.13511728 0.028306473 -0.26804635
-0.13511425 0.028384395 -0.2680445
-0.13511115 0.02846431 -0.26804262
-0.13510802 0.028542275 -0.26804277
-0.13510473 0.028622279 -0.26804489
-0.13510151 0.028700285 -0.26804703
-0.13509858 0.028778162 -0.26804322
-0.13509575 0.028855994 -0.26803738
-0.13509282 0.02893387 -0.26803353
-0.13508962 0.029013831 -0.26803362
-0.1350867 0.029091708 -0.26802981
-0.13508406 0.029169453 -0.26801997
-0.13508123 0.029247286 -0.26801413
-0.13507791 0.029325336 -0.26801831
-0.13507442 0.029405426 -0.26802438
-0.13507169 0.029483218 -0.26801658
-0.13506934 0.029560832 -0.26800075
-0.13506642 0.029638708 -0.26799691
-0.13506302 0.029718757 -0.26800102
-0.13505971 0.029796805 -0.26800516
-0.13505678 0.029874682 -0.26800132
-0.13505395 0.029952515 -0.26799548
-0.13505085 0.030032434 -0.2679936
-0.13504772 0.030110396 -0.26799375
-0.13504453 0.030190356 -0.26799387
-0.13504151 0.030268276 -0.26799202
-0.13503887 0.030346021 -0.26798221
-0.13503593 0.030423898 -0.26797837
-0.13503321 0.030501688 -0.26797053
-0.13503018 0.030579608 -0.26796868
-0.13502669 0.030659698 -0.26797479
-0.13502318 0.030737836 -0.26798296
-0.13502036 0.030817622 -0.26797506
-0.13501801 0.030893283 -0.26796129
-0.13501529 0.030973028 -0.2679514
-0.13501284 0.031048734 -0.26793963
-0.13500963 0.031128693 -0.26793975
-0.13500574 0.031208958 -0.26795381
-0.13500243 0.031287007 -0.26795799
-0.1349999 0.031364709 -0.26794615
-0.13499735 0.031442411 -0.26793432
-0.13499443 0.031520288 -0.26793051
-0.13499123 0.031600252 -0.2679306
-0.13498782 0.031678341 -0.26793677
-0.13498412 0.031758521 -0.26794684
-0.13498043 0.031836744 -0.267959
-0.13497703 0.031916793 -0.26796308
-0.13497448 0.031994496 -0.26795125
-0.13497262 0.03206994 -0.2679275
-0.13496991 0.032149684 -0.26791763
-0.13496669 0.032227688 -0.26791978
-0.13496394 0.032305479 -0.26791197
-0.13496171 0.032383051 -0.26789415
-0.13495897 0.032460839 -0.26788631
-0.13495529 0.032541018 -0.26789638
-0.13495128 0.032619372 -0.26791453
-0.1349476 0.032699548 -0.26792461
-0.13494466 0.032777429 -0.26792079
-0.13494167 0.032857299 -0.26791692
-0.13493834 0.032935351 -0.26792106
-0.13493495 0.0330154 -0.26792517
-0.13493192 0.033093318 -0.26792333
-0.13492978 0.033170849 -0.26790351
-0.13492762 0.03324642 -0.26788574
-0.13492422 0.033326469 -0.26788986
-0.13492158 0.033404216 -0.26788002
-0.1349199 0.033479571 -0.26785225
-0.13491766 0.033557147 -0.26783442
-0.13491522 0.033634804 -0.26782063
-0.13491212 0.033714723 -0.26781875
-0.13490918 0.0337926 -0.26781487
-0.13490626 0.033870474 -0.26781106
-0.13490237 0.033950739 -0.26782516
-0.13489839 0.034031048 -0.26784122
-0.13489471 0.034111224 -0.26785132
-0.13489139 0.034189276 -0.26785547
-0.13488837 0.034267195 -0.26785365
-0.13488488 0.034347285 -0.26785976
-0.13488147 0.034425378 -0.2678659
-0.13487865 0.034505166 -0.26785803
-0.13487609 0.034580916 -0.26784822
-0.13487309 0.034660786 -0.26784435
-0.13486977 0.034738839 -0.26784849
-0.13486637 0.034818888 -0.2678526
-0.13486326 0.034896851 -0.26785275
-0.13486032 0.034974724 -0.26784891
-0.13485779 0.035052426 -0.26783708
-0.13485497 0.035132214 -0.26782921
-0.13485195 0.035210133 -0.26782736
-0.13484873 0.03528814 -0.26782954
-0.13484514 0.035368275 -0.26783764
-0.13484192 0.035446279 -0.26783979
-0.13483892 0.035526156 -0.26783592
-0.1348359 0.035604075 -0.26783407
-0.1348325 0.035684124 -0.26783815
-0.13482967 0.035761956 -0.26783234
-0.1348276 0.035837486 -0.26781255
-0.13482478 0.035917275 -0.26780468
-0.13482128 0.035995409 -0.26781282
-0.13481769 0.036075547 -0.26782092
-0.1348144 0.036155552 -0.26782304
-0.13481127 0.036233515 -0.26782319
-0.13480817 0.036313429 -0.26782131
-0.13480484 0.036391482 -0.26782545
-0.13480175 0.036471397 -0.26782358
-0.13479891 0.036549229 -0.26781774
-0.13479646 0.036624935 -0.26780596
-0.13479345 0.036704808 -0.26780206
-0.13478774 0.036787853 -0.26785207
-0.13478157 0.036875024 -0.26790795
-0.13477625 0.03695789 -0.26794994
-0.13477083 0.037040804 -0.26799396
-0.13629994 -0.002119584 -0.26869428
-0.13629675 -0.0020396225 -0.2686944
-0.13629353 -0.0019616149 -0.26869655
-0.13629021 -0.0018835645 -0.26870072
-0.1362868 -0.0018054731 -0.26870686
-0.1362837 -0.0017255545 -0.26870498
-0.13628058 -0.0016456377 -0.2687031
-0.13627736 -0.001567632 -0.26870525
-0.13627425 -0.0014896672 -0.2687054
-0.13627124 -0.0014097951 -0.26870152
-0.13626783 -0.0013317 -0.26870766
-0.13626461 -0.0012536943 -0.26870981
-0.13626179 -0.0011739079 -0.26870194
-0.13625938 -0.0010942947 -0.26868609
-0.1362569 -0.0010107271 -0.26866812
-0.13625357 -0.0009346325 -0.26867431
-0.13624994 -0.00085645169 -0.26868445
-0.13624714 -0.00077666529 -0.26867658
-0.13624424 -0.00069683418 -0.26867068
-0.13624062 -0.00061865337 -0.26868084
-0.1362375 -0.00054068863 -0.26868099
-0.1362344 -0.00046077371 -0.26867911
-0.13623108 -0.00038272515 -0.26868325
-0.13622814 -0.00030484796 -0.26867941
-0.13622516 -0.00022301823 -0.26867348
-0.13622233 -0.00014518574 -0.26866767
-0.13621913 -6.5226108e-05 -0.26866776
-0.13621633 1.456216e-05 -0.26865989
-0.13621362 9.4305724e-05 -0.26865003
-0.1362104 0.0001723133 -0.26865217
-0.13620688 0.0002504494 -0.26866031
-0.13620348 0.00033049658 -0.26866442
-0.13620007 0.00040858984 -0.26867056
-0.13619673 0.00048468448 -0.26867676
-0.13619344 0.00056469068 -0.26867887
-0.13619101 0.00064430386 -0.26866302
-0.13618833 0.0007260032 -0.26865107
-0.1361846 0.00080227107 -0.26866525
-0.13618118 0.00088036433 -0.26867142
-0.13617849 0.00096206367 -0.2686595
-0.13617566 0.0010398943 -0.26865366
-0.13617216 0.0011199862 -0.26865977
-0.13616943 0.0011977758 -0.26865193
-0.13616642 0.0012776516 -0.26864806
-0.1361632 0.0013556555 -0.2686502
-0.13616002 0.001435617 -0.26865032
-0.13615669 0.0015136674 -0.26865447
-0.13615337 0.001591716 -0.26865861
-0.13614976 0.0016698968 -0.26866877
-0.13614604 0.0017461665 -0.26868296
-0.13614303 0.0018260386 -0.26867905
-0.13614012 0.0019058697 -0.26867318
-0.1361371 0.0019837897 -0.26867133
-0.13613449 0.0020634905 -0.26865947
-0.13613169 0.0021452326 -0.26864955
-0.13612866 0.0022231508 -0.2686477
-0.13612536 0.0023012012 -0.26865184
-0.13612184 0.0023793373 -0.26866001
-0.13611871 0.0024573021 -0.26866016
-0.13611603 0.0025389995 -0.26864824
-0.13611309 0.0026168767 -0.26864439
-0.13610999 0.0026967935 -0.26864251
-0.13610667 0.0027748439 -0.26864666
-0.13610357 0.0028547607 -0.26864478
-0.13610055 0.0029326808 -0.26864293
-0.13609713 0.003010774 -0.2686491
-0.13609354 0.0030909069 -0.26865718
-0.13609071 0.0031687412 -0.26865137
-0.136088 0.0032484848 -0.26864147
-0.1360846 0.003328532 -0.26864558
-0.13608138 0.0034065396 -0.26864773
-0.13607858 0.003486326 -0.26863986
-0.13607536 0.0035643335 -0.26864201
-0.13607213 0.0036423374 -0.26864415
-0.13606945 0.0037240386 -0.26863223
-0.13606632 0.0038019996 -0.26863241
-0.13606301 0.00388005 -0.26863655
-0.13605981 0.0039600097 -0.26863664
-0.13605678 0.0040379297 -0.26863483
-0.13605416 0.0041176323 -0.26862293
-0.13605097 0.0041975919 -0.26862305
-0.13604784 0.0042755567 -0.26862323
-0.13604513 0.0043552984 -0.26861334
-0.13604161 0.0044334363 -0.26862147
-0.13603771 0.0045117456 -0.26863763
-0.13603488 0.00458958 -0.26863179
-0.13603248 0.0046711452 -0.26861387
-0.13602945 0.0047490671 -0.26861203
-0.13602604 0.0048271604 -0.26861817
-0.13602284 0.0049071219 -0.26861829
-0.13602011 0.0049849115 -0.26861045
-0.1360174 0.0050646532 -0.26860058
-0.13601419 0.0051446147 -0.2686007
-0.13601117 0.0052225348 -0.26859885
-0.13600798 0.0053024963 -0.26859897
-0.13600454 0.0053786356 -0.26860714
-0.13600114 0.0054586809 -0.26861125
-0.13599822 0.0055365562 -0.26860744
-0.13599512 0.0056164749 -0.26860553
-0.1359919 0.0056944825 -0.26860768
-0.13598886 0.0057724025 -0.26860586
-0.13598596 0.0058522327 -0.26859999
-0.13598305 0.0059320629 -0.26859409
-0.13598002 0.0060099829 -0.26859224
-0.13597673 0.0060899882 -0.26859435
-0.13597322 0.0061681233 -0.26860249
-0.13596991 0.0062461738 -0.26860666
-0.13596699 0.006326003 -0.26860076
-0.13596445 0.006403707 -0.26858896
-0.13596177 0.0064854054 -0.26857704
-0.13595894 0.0065632388 -0.2685712
-0.13595574 0.0066431984 -0.26857129
-0.13595261 0.0067211622 -0.26857147
-0.1359493 0.0067992117 -0.26857561
-0.13594609 0.0068791723 -0.26857573
-0.13594277 0.0069572227 -0.26857987
-0.13593946 0.0070352722 -0.26858401
-0.13593635 0.007115189 -0.26858214
-0.13593332 0.007193109 -0.26858029
-0.13592982 0.0072712461 -0.26858842
-0.1359265 0.0073492946 -0.2685926
-0.1359231 0.0074293436 -0.26859671
-0.13591968 0.0075054821 -0.26860487
-0.13591677 0.0075853132 -0.268599
-0.13591434 0.0076649264 -0.26858312
-0.13591142 0.0077428017 -0.2685793
-0.13590841 0.0078226766 -0.26857543
-0.13590589 0.0079023344 -0.26856154
-0.13590297 0.0079802098 -0.26855773
-0.13589957 0.0080602588 -0.26856181
-0.13589655 0.008138177 -0.26855999
-0.13589364 0.008218009 -0.26855409
-0.1358909 0.0082957987 -0.26854625
-0.13588768 0.0083738044 -0.26854843
-0.13588469 0.0084536793 -0.26854452
-0.13588178 0.0085335094 -0.26853865
-0.13587895 0.0086113419 -0.26853281
-0.13587594 0.0086912159 -0.26852894
-0.13587272 0.0087692225 -0.26853108
-0.13586931 0.0088473158 -0.26853722
-0.13586609 0.0089253224 -0.26853937
-0.13586278 0.0090053268 -0.26854149
-0.13585976 0.0090832449 -0.26853967
-0.13585715 0.0091629475 -0.26852778
-0.13585424 0.0092427768 -0.2685219
-0.13585103 0.0093207844 -0.26852405
-0.13584751 0.0093989205 -0.26853222
-0.13584438 0.0094768833 -0.26853237
-0.13584158 0.0095566716 -0.26852447
-0.13583875 0.0096345041 -0.26851863
-0.13583554 0.0097144647 -0.26851875
-0.13583243 0.0097924285 -0.26851892
-0.1358293 0.0098703904 -0.26851907
-0.13582629 0.0099502653 -0.26851517
-0.13582298 0.010028314 -0.26851934
-0.13581985 0.010106278 -0.26851949
-0.13581695 0.010186108 -0.26851362
-0.13581443 0.010265766 -0.26849973
-0.13581112 0.010343815 -0.2685039
-0.13580741 0.010422038 -0.26851603
-0.13580419 0.010500045 -0.26851821
-0.13580127 0.010579877 -0.26851231
-0.13579816 0.010657838 -0.26851246
-0.13579522 0.010735715 -0.26850861
-0.13579223 0.010815589 -0.26850474
-0.1357892 0.010893508 -0.26850289
-0.13578638 0.010973295 -0.26849502
-0.13578355 0.01105113 -0.26848918
-0.13578053 0.01112905 -0.26848733
-0.13577724 0.011209052 -0.26848945
-0.1357744 0.011286886 -0.26848364
-0.1357712 0.011366846 -0.26848373
-0.13576809 0.011444809 -0.26848388
-0.13576487 0.011522816 -0.26848605
-0.13576165 0.011600822 -0.2684882
-0.13575864 0.011680696 -0.26848429
-0.13575561 0.011758616 -0.26848248
-0.13575248 0.011836579 -0.26848263
-0.13574958 0.01191641 -0.26847675
-0.13574666 0.011994286 -0.26847291
-0.13574305 0.012072466 -0.26848304
-0.13573962 0.01215056 -0.26848921
-0.13573672 0.01223039 -0.26848334
-0.13573408 0.012308136 -0.26847351
-0.13573098 0.012388052 -0.2684716
-0.13572854 0.012465713 -0.26845777
-0.13572554 0.012545586 -0.2684539
-0.13572222 0.012623636 -0.26845804
-0.13571911 0.0127016 -0.26845822
-0.13571548 0.012779779 -0.26846835
-0.13571188 0.012857959 -0.26847848
-0.13570936 0.012937617 -0.26846462
-0.13570704 0.013017187 -0.26844674
-0.13570412 0.013095063 -0.26844293
-0.13570099 0.013173025 -0.26844308
-0.1356978 0.013252988 -0.2684432
-0.13569447 0.013331037 -0.26844734
-0.13569155 0.013408912 -0.2684435
-0.13568854 0.013488788 -0.26843962
-0.13568532 0.013566794 -0.26844177
-0.1356823 0.013644713 -0.26843995
-0.13567939 0.013724544 -0.26843405
-0.13567618 0.013802551 -0.26843619
-0.13567315 0.01388047 -0.26843438
-0.13567033 0.013960257 -0.26842648
-0.13566761 0.014038047 -0.26841867
-0.13566458 0.014115967 -0.26841682
-0.13566115 0.014194059 -0.26842296
-0.13565746 0.014272283 -0.26843512
-0.13565426 0.014352243 -0.26843521
-0.13565172 0.014429945 -0.26842338
-0.1356488 0.014509778 -0.26841751
-0.13564569 0.01458774 -0.26841766
-0.13564266 0.01466566 -0.26841584
-0.13563953 0.014743622 -0.26841599
-0.13563642 0.014821585 -0.26841614
-0.13563351 0.014901417 -0.26841027
-0.13563077 0.014979205 -0.26840243
-0.13562755 0.015057212 -0.26840457
-0.13562416 0.015137261 -0.26840869
-0.13562143 0.015215049 -0.26840085
-0.13561872 0.015294794 -0.26839098
-0.1356155 0.0153728 -0.26839313
-0.13561228 0.015450806 -0.26839527
-0.13560934 0.015528683 -0.26839146
-0.13560623 0.015606645 -0.26839161
-0.13560283 0.015686693 -0.26839572
-0.13559981 0.015764613 -0.26839387
-0.13559736 0.015842272 -0.26838005
-0.13559476 0.015921973 -0.26836818
-0.13559124 0.016000109 -0.26837632
-0.13558792 0.016078159 -0.26838046
-0.13558482 0.016158078 -0.26837859
-0.13558179 0.016235996 -0.26837674
-0.13557887 0.016313873 -0.26837289
-0.13557585 0.016391791 -0.26837108
-0.13557275 0.01647171 -0.2683692
-0.13556992 0.016549543 -0.26836336
-0.1355667 0.01662755 -0.2683655
-0.13556311 0.016707683 -0.26837361
-0.13556008 0.016785603 -0.26837176
-0.13555734 0.016863393 -0.26836392
-0.13555451 0.016941225 -0.26835811
-0.13555151 0.017021099 -0.26835421
-0.13554858 0.017098974 -0.26835036
-0.13554527 0.017177025 -0.26835454
-0.13554156 0.017255249 -0.26836666
-0.13553853 0.017333169 -0.26836482
-0.13553591 0.017412869 -0.26835296
-0.13553289 0.017490789 -0.26835111
-0.13552967 0.017568795 -0.26835328
-0.13552657 0.017648712 -0.26835138
-0.13552393 0.017726459 -0.26834154
-0.1355212 0.017804248 -0.26833373
-0.13551827 0.017882124 -0.26832989
-0.13551508 0.017962085 -0.26832998
-0.13551225 0.018039918 -0.26832414
-0.13550922 0.018117838 -0.26832232
-0.135506 0.018195843 -0.26832446
-0.1355028 0.018275805 -0.26832458
-0.13549978 0.018353725 -0.26832274
-0.13549694 0.018431557 -0.26831692
-0.13549392 0.018509477 -0.26831508
-0.13549089 0.018587396 -0.26831323
-0.13548769 0.018667357 -0.26831335
-0.13548438 0.018745407 -0.26831749
-0.13548155 0.01882324 -0.26831165
-0.13547893 0.018902941 -0.26829979
-0.13547601 0.018980816 -0.26829594
-0.13547318 0.019058648 -0.2682901
-0.13547024 0.019136526 -0.26828629
-0.13546675 0.019216618 -0.26829237
-0.13546315 0.019294797 -0.26830253
-0.13545972 0.01937289 -0.26830867
-0.13545661 0.019450853 -0.26830882
-0.13545378 0.019528685 -0.26830298
-0.13545117 0.019608386 -0.26829112
-0.13544853 0.019686133 -0.26828128
-0.13544559 0.019764008 -0.26827744
-0.1354426 0.019843882 -0.26827356
-0.13543917 0.019921975 -0.2682797
-0.13543557 0.020000156 -0.26828986
-0.13543235 0.020078162 -0.26829201
-0.13542932 0.020156082 -0.26829016
-0.13542652 0.02023587 -0.26828229
-0.13542397 0.020313572 -0.26827046
-0.13542144 0.020391274 -0.26825863
-0.13541831 0.020469237 -0.26825881
-0.1354149 0.02054733 -0.26826495
-0.13541169 0.020627292 -0.26826507
-0.13540897 0.020705082 -0.26825723
-0.13540564 0.02078313 -0.26826137
-0.13540234 0.02086118 -0.26826555
-0.13539962 0.020940924 -0.26825565
-0.13539709 0.021018628 -0.26824382
-0.13539435 0.021096418 -0.26823598
-0.13539135 0.02117629 -0.26823211
-0.13538803 0.02125434 -0.26823628
-0.13538471 0.021332391 -0.26824042
-0.13538159 0.021410353 -0.26824057
-0.13537838 0.021488359 -0.26824272
-0.13537517 0.021568321 -0.26824284
-0.13537185 0.021646369 -0.26824698
-0.13536873 0.021724334 -0.26824713
-0.13536599 0.021802122 -0.26823932
-0.13536327 0.021879911 -0.26823148
-0.13536017 0.02195983 -0.2682296
-0.13535704 0.022037793 -0.26822975
-0.13535401 0.022115713 -0.26822791
-0.13535079 0.022193719 -0.26823005
-0.13534787 0.022271594 -0.26822624
-0.13534544 0.022351209 -0.26821035
-0.13534261 0.022429042 -0.26820451
-0.1353393 0.022507092 -0.26820868
-0.1353358 0.022587182 -0.26821476
-0.13533249 0.022665232 -0.26821893
-0.13532928 0.022743238 -0.26822108
-0.13532634 0.022821115 -0.26821724
-0.13532361 0.022898905 -0.2682094
-0.1353209 0.022978649 -0.26819953
-0.13531788 0.023056567 -0.26819772
-0.13531466 0.023134574 -0.26819986
-0.13531163 0.023212494 -0.26819801
-0.13530831 0.023290543 -0.26820219
-0.13530521 0.023370462 -0.26820028
-0.13530268 0.023448164 -0.26818845
-0.13529994 0.023525953 -0.26818061
-0.13529691 0.023603873 -0.26817879
-0.13529408 0.023681706 -0.26817295
-0.13529098 0.023761623 -0.26817104
-0.13528746 0.023839761 -0.26817921
-0.13528427 0.02391972 -0.2681793
-0.13528153 0.02399751 -0.26817149
-0.13527851 0.02407543 -0.26816964
-0.13527548 0.02415335 -0.26816779
-0.13527256 0.024231225 -0.26816398
-0.13526936 0.024311187 -0.26816407
-0.13526633 0.024389107 -0.26816225
-0.1352635 0.024466939 -0.26815641
-0.13526058 0.024544815 -0.26815256
-0.13525765 0.024622692 -0.26814872
-0.13525493 0.024702435 -0.26813886
-0.13525191 0.024780355 -0.26813701
-0.13524888 0.024858275 -0.26813516
-0.13524577 0.024936238 -0.26813534
-0.13524245 0.025014287 -0.26813948
-0.13523974 0.025094032 -0.26812959
-0.13523681 0.025171908 -0.26812577
-0.1352333 0.025250044 -0.26813391
-0.1352299 0.025330093 -0.26813802
-0.13522707 0.025407925 -0.26813218
-0.13522415 0.025485801 -0.26812834
-0.13522112 0.025563721 -0.26812652
-0.13521829 0.025641553 -0.26812068
-0.13521528 0.025721427 -0.26811677
-0.13521187 0.02579952 -0.26812291
-0.13520904 0.025877353 -0.2681171
-0.13520621 0.025955185 -0.26811129
-0.1352028 0.026033279 -0.26811743
-0.1351997 0.026113197 -0.26811552
-0.13519686 0.02619103 -0.26810968
-0.13519365 0.026269037 -0.26811182
-0.1351911 0.026346739 -0.26810002
-0.13518856 0.026424441 -0.26808819
-0.13518547 0.02650436 -0.26808631
-0.13518195 0.026582494 -0.26809445
-0.13517883 0.026660459 -0.2680946
-0.13517591 0.02674029 -0.26808873
-0.13517261 0.026818339 -0.26809287
-0.13516967 0.026896216 -0.26808906
-0.13516705 0.026973961 -0.26807922
-0.13516384 0.027053922 -0.26807934
-0.13516101 0.027131755 -0.2680735
-0.13515809 0.027209632 -0.26806965
-0.13515496 0.027287595 -0.2680698
-0.13515194 0.027365513 -0.26806796
-0.13514912 0.027445301 -0.26806009
-0.1351462 0.027523179 -0.26805627
-0.13514337 0.027601011 -0.26805043
-0.13514024 0.027678974 -0.26805058
-0.13513666 0.027759109 -0.26805866
-0.13513353 0.027837072 -0.26805884
-0.13513081 0.027914859 -0.268051
-0.13512787 0.027992737 -0.26804715
-0.13512458 0.028072741 -0.26804927
-0.13512175 0.028150573 -0.26804343
-0.13511872 0.028228493 -0.26804161
-0.1351155 0.028306499 -0.26804376
-0.13511238 0.028384462 -0.26804391
-0.13510957 0.02846425 -0.26803604
-0.13510644 0.028542213 -0.26803619
-0.13510314 0.028620262 -0.26804036
-0.13509993 0.028700223 -0.26804045
-0.13509691 0.028778143 -0.2680386
-0.13509408 0.028855976 -0.26803279
-0.13509114 0.028933853 -0.26802894
-0.13508804 0.02901377 -0.26802707
-0.13508521 0.029091602 -0.26802123
-0.13508259 0.029169349 -0.26801139
-0.13507956 0.029247269 -0.26800954
-0.13507614 0.029325362 -0.26801568
-0.13507274 0.029405409 -0.2680198
-0.13507001 0.029483199 -0.26801199
-0.13506757 0.029560858 -0.26799816
-0.13506475 0.029638691 -0.26799232
-0.13506152 0.029716697 -0.26799446
-0.13505813 0.029796746 -0.26799858
-0.13505501 0.029874709 -0.26799873
-0.13505217 0.029952541 -0.26799291
-0.13504916 0.030032415 -0.26798901
-0.13504595 0.030110423 -0.26799116
-0.13504265 0.030190427 -0.26799327
-0.13503982 0.030268259 -0.26798743
-0.13503699 0.030346092 -0.26798159
-0.13503416 0.030423924 -0.26797578
-0.13503154 0.030501671 -0.26796594
-0.13502871 0.030579504 -0.2679601
-0.1350252 0.030659594 -0.26796621
-0.1350216 0.030737774 -0.26797634
-0.1350185 0.030817691 -0.26797447
-0.13501623 0.030893309 -0.2679587
-0.13501361 0.03097301 -0.26794684
-0.13501115 0.031048715 -0.26793504
-0.13500786 0.031128719 -0.26793715
-0.13500388 0.031209027 -0.26795325
-0.13500066 0.031287037 -0.26795539
-0.13499822 0.031364694 -0.26794156
-0.13499568 0.031442396 -0.26792973
-0.13499275 0.031520274 -0.26792592
-0.13498946 0.031600274 -0.267928
-0.13498604 0.031678371 -0.26793414
-0.13498245 0.031758502 -0.26794225
-0.13497885 0.031836685 -0.26795238
-0.13497534 0.031916775 -0.26795849
-0.13497281 0.031994477 -0.26794666
-0.13497074 0.032070011 -0.2679269
-0.13496821 0.032147713 -0.26791507
-0.1349652 0.032227583 -0.2679112
-0.13496254 0.032303378 -0.26790342
-0.13496003 0.032383032 -0.26788953
-0.1349573 0.032460824 -0.26788172
-0.13495398 0.032538876 -0.26788586
-0.13495019 0.032619096 -0.26789796
-0.13494658 0.032697275 -0.2679081
-0.13494328 0.03277728 -0.26791021
-0.13494006 0.032855287 -0.26791236
-0.13493666 0.032935333 -0.26791647
-0.13493328 0.033015382 -0.26792055
-0.13493025 0.0330933 -0.26791874
-0.13492811 0.03317083 -0.26789892
-0.13492593 0.033246405 -0.26788116
-0.13492253 0.033326451 -0.26788524
-0.1349197 0.033404283 -0.26787943
-0.13491784 0.033479728 -0.26785564
-0.13491568 0.033557259 -0.26783586
-0.13491344 0.03363483 -0.26781803
-0.13491042 0.033712752 -0.26781619
-0.13490778 0.033790499 -0.26780635
-0.13490495 0.033868328 -0.26780051
-0.13490097 0.033948638 -0.2678166
-0.13489689 0.034028988 -0.26783469
-0.13489321 0.034109168 -0.2678448
-0.13488981 0.034189213 -0.26784891
-0.13488679 0.034267135 -0.26784706
-0.13488339 0.03434718 -0.26785114
-0.13487987 0.034425318 -0.26785928
-0.13487715 0.03450311 -0.26785147
-0.13487461 0.034580812 -0.26783964
-0.13487148 0.034658775 -0.26783979
-0.13486789 0.034738906 -0.2678479
-0.1348647 0.034818869 -0.26784801
-0.13486168 0.034896787 -0.26784617
-0.13485855 0.03497475 -0.26784632
-0.13485602 0.035052452 -0.26783448
-0.13485347 0.035130158 -0.26782268
-0.13485028 0.035210118 -0.26782277
-0.13484696 0.035288166 -0.26782694
-0.13484356 0.035368215 -0.26783103
-0.13484034 0.035446219 -0.2678332
-0.13483724 0.035526142 -0.2678313
-0.13483422 0.03560406 -0.26782948
-0.13483092 0.035684064 -0.26783156
-0.13482818 0.035761852 -0.26782376
-0.13482611 0.035837382 -0.26780397
-0.13482329 0.035915218 -0.26779816
-0.1348197 0.035995349 -0.26780623
-0.13481611 0.036075488 -0.26781434
-0.13481289 0.036153492 -0.26781648
-0.13480958 0.036233496 -0.2678186
-0.13480629 0.0363135 -0.26782072
-0.13480297 0.036391549 -0.26782486
-0.13479978 0.036471512 -0.26782495
-0.13479704 0.0365493 -0.26781714
-0.13479468 0.036624961 -0.26780337
-0.13479167 0.036704838 -0.26779947
-0.13478614 0.036787793 -0.26784548
-0.13478017 0.03687292 -0.26789942
-0.13477476 0.036957789 -0.26794136
-0.13476914 0.037040785 -0.26798937
-0.13630089 -0.0021192878 -0.26869613
-0.13629769 -0.0020393245 -0.26869622
-0.13629447 -0.0019613188 -0.26869836
-0.13629115 -0.0018832702 -0.26870251
-0.13628764 -0.0018051341 -0.26871067
-0.13628452 -0.0017271694 -0.26871082
-0.13628151 -0.0016472954 -0.26870695
-0.13627829 -0.0015692897 -0.26870909
-0.13627519 -0.0014893729 -0.26870722
-0.13627209 -0.0014094543 -0.26870531
-0.13626884 -0.0013334025 -0.26870954
-0.13626546 -0.0012533534 -0.26871362
-0.13626255 -0.001173526 -0.26870775
-0.13626023 -0.0010939538 -0.26868987
-0.13625772 -0.0010123421 -0.26867396
-0.1362544 -0.00093429163 -0.26867813
-0.13625079 -0.00085611455 -0.26868826
-0.13624799 -0.00077632442 -0.26868039
-0.13624498 -0.00069645047 -0.26867649
-0.13624147 -0.00061831251 -0.26868463
-0.13623844 -0.00054039247 -0.26868281
-0.13623515 -0.00046039186 -0.26868492
-0.13623182 -0.00038234144 -0.26868907
-0.1362289 -0.00030446425 -0.26868522
-0.13622609 -0.00022467598 -0.26867735
-0.13622309 -0.0001448039 -0.26867348
-0.13621989 -6.4842403e-05 -0.26867357
-0.13621707 1.4945865e-05 -0.2686657
-0.13621436 9.4689429e-05 -0.26865581
-0.13621114 0.00017269328 -0.26865798
-0.13620763 0.00025083125 -0.26866612
-0.13620432 0.00032888167 -0.26867026
-0.1362009 0.00040697493 -0.2686764
-0.13619758 0.00048502535 -0.26868057
-0.13619418 0.00056507438 -0.26868469
-0.13619186 0.000644641 -0.2686668
-0.13618918 0.0007263422 -0.26865488
-0.13618544 0.00080261007 -0.26866907
-0.13618203 0.00088070333 -0.26867521
-0.13617942 0.00096040405 -0.26866335
-0.13617641 0.001040278 -0.26865947
-0.13617299 0.0011183713 -0.26866561
-0.13617018 0.0011981595 -0.26865774
-0.13616727 0.0012779888 -0.26865184
-0.13616405 0.0013559945 -0.26865399
-0.13616094 0.0014339574 -0.26865417
-0.13615754 0.0015140064 -0.26865825
-0.13615413 0.0015920997 -0.26866442
-0.1361506 0.0016682819 -0.26867461
-0.13614689 0.0017465036 -0.26868674
-0.13614386 0.0018244237 -0.26868489
-0.13614087 0.0019062534 -0.26867896
-0.13613795 0.0019841287 -0.26867515
-0.13613524 0.0020638723 -0.26866525
-0.13613242 0.0021436606 -0.26865739
-0.13612951 0.0022234917 -0.26865149
-0.13612629 0.0023014974 -0.26865366
-0.13612269 0.0023796782 -0.26866379
-0.13611947 0.002457682 -0.26866597
-0.13611676 0.0025374275 -0.26865608
-0.13611394 0.0026172157 -0.26864821
-0.13611084 0.0026971325 -0.2686463
-0.13610743 0.0027752258 -0.26865247
-0.1361044 0.002853144 -0.26865062
-0.13610131 0.0029330626 -0.26864874
-0.13609779 0.0030112006 -0.26865688
-0.13609438 0.0030892938 -0.26866302
-0.13609147 0.0031691231 -0.26865715
-0.13608876 0.0032488666 -0.26864728
-0.13608554 0.0033268742 -0.26864943
-0.13608222 0.0034049246 -0.26865357
-0.13607943 0.003486665 -0.26864365
-0.1360763 0.0035646278 -0.2686438
-0.13607298 0.0036426783 -0.26864797
-0.13607037 0.0037223808 -0.26863611
-0.13606708 0.0038023815 -0.26863819
-0.13606375 0.0038804319 -0.26864237
-0.13606073 0.0039583519 -0.26864052
-0.13605753 0.0040383134 -0.26864061
-0.13605492 0.004118016 -0.26862875
-0.13605191 0.0041978881 -0.26862487
-0.13604879 0.004275851 -0.26862502
-0.13604598 0.0043556392 -0.26861712
-0.13604246 0.0044337753 -0.26862526
-0.13603865 0.0045100879 -0.26864147
-0.13603583 0.0045898743 -0.26863357
-0.13603331 0.0046695303 -0.26861972
-0.1360303 0.0047494061 -0.26861584
-0.13602699 0.0048274565 -0.26861998
-0.13602367 0.004905507 -0.26862413
-0.13602076 0.0049853362 -0.26861823
-0.13601816 0.0050650369 -0.26860636
-0.13601503 0.0051429998 -0.26860654
-0.13601193 0.0052229185 -0.26860464
-0.1360089 0.0053008366 -0.26860279
-0.13600539 0.0053789727 -0.26861095
-0.13600199 0.0054590199 -0.26861507
-0.13599907 0.0055368971 -0.26861122
-0.13599604 0.0056148171 -0.26860937
-0.13599274 0.0056948215 -0.26861149
-0.13598962 0.0057727844 -0.26861164
-0.1359868 0.0058525726 -0.26860374
-0.135984 0.005932359 -0.26859587
-0.13598087 0.006010321 -0.26859605
-0.13597758 0.0060903262 -0.26859814
-0.13597414 0.0061664646 -0.26860633
-0.13597065 0.0062465565 -0.26861244
-0.13596782 0.0063243899 -0.2686066
-0.13596521 0.0064040879 -0.26859474
-0.13596259 0.0064837895 -0.26858285
-0.13595968 0.0065636216 -0.26857698
-0.13595648 0.0066435821 -0.2685771
-0.13595346 0.0067215003 -0.26857525
-0.13595015 0.0067995507 -0.26857939
-0.13594693 0.0068775574 -0.26858157
-0.13594361 0.0069556069 -0.26858571
-0.13594031 0.0070356131 -0.26858783
-0.13593729 0.0071135331 -0.26858598
-0.13593417 0.007193448 -0.26858407
-0.13593067 0.0072715841 -0.26859224
-0.13592726 0.0073496783 -0.26859838
-0.13592394 0.0074277278 -0.26860252
-0.13592042 0.0075058648 -0.26861066
-0.13591759 0.0075836964 -0.26860484
-0.13591519 0.0076652654 -0.26858693
-0.13591227 0.0077431416 -0.26858309
-0.13590917 0.0078230603 -0.26858121
-0.13590674 0.0079026734 -0.26856536
-0.13590382 0.0079805488 -0.26856151
-0.13590041 0.008058643 -0.26856765
-0.13589729 0.0081385598 -0.26856577
-0.13589449 0.008218348 -0.26855788
-0.13589166 0.0082961814 -0.26855206
-0.13588853 0.0083741434 -0.26855221
-0.13588554 0.0084540183 -0.26854831
-0.13588272 0.0085338047 -0.26854044
-0.1358798 0.0086116809 -0.26853663
-0.13587679 0.0086915549 -0.26853272
-0.13587357 0.0087695615 -0.26853487
-0.13587005 0.0088476986 -0.268543
-0.13586694 0.0089256614 -0.26854318
-0.13586362 0.0090037109 -0.26854733
-0.13586052 0.0090836277 -0.26854545
-0.13585797 0.0091613308 -0.26853362
-0.13585506 0.0092411609 -0.26852775
-0.13585195 0.0093191247 -0.2685279
-0.13584845 0.0093992166 -0.26853397
-0.13584523 0.0094772223 -0.26853615
-0.1358425 0.009555012 -0.26852831
-0.13583949 0.0096348859 -0.26852444
-0.13583647 0.009712806 -0.26852259
-0.13583337 0.0097927237 -0.26852071
-0.13583025 0.0098706856 -0.26852086
-0.13582712 0.0099486494 -0.26852101
-0.13582392 0.01002861 -0.26852113
-0.1358207 0.010106617 -0.26852328
-0.1358178 0.010186447 -0.2685174
-0.13581519 0.010266148 -0.26850551
-0.13581195 0.010344154 -0.26850769
-0.13580815 0.01042242 -0.26852182
-0.13580504 0.010500384 -0.26852196
-0.13580203 0.010580258 -0.26851809
-0.1357989 0.01065822 -0.26851827
-0.13579598 0.010736097 -0.26851439
-0.13579307 0.010815928 -0.26850852
-0.13578995 0.010893891 -0.2685087
-0.13578723 0.010973635 -0.26849881
-0.1357844 0.011051469 -0.26849297
-0.13578138 0.011129389 -0.26849115
-0.13577808 0.011209392 -0.26849324
-0.13577516 0.011287268 -0.26848939
-0.13577214 0.011365187 -0.26848757
-0.13576894 0.011445149 -0.26848769
-0.13576572 0.011523155 -0.26848984
-0.1357625 0.011601161 -0.26849198
-0.13575956 0.011679037 -0.26848814
-0.13575646 0.011758954 -0.26848626
-0.13575333 0.011836918 -0.26848644
-0.13575041 0.011914794 -0.26848257
-0.1357474 0.011994668 -0.26847869
-0.13574399 0.012072762 -0.26848483
-0.13574038 0.012150941 -0.26849499
-0.13573755 0.012228774 -0.26848915
-0.13573484 0.012308518 -0.26847929
-0.13573182 0.012386438 -0.26847744
-0.1357293 0.012466095 -0.26846355
-0.13572629 0.012545968 -0.26845968
-0.13572307 0.012623975 -0.26846182
-0.13571995 0.012701938 -0.268462
-0.13571633 0.012780118 -0.26847214
-0.13571273 0.012858299 -0.26848227
-0.13571012 0.012937998 -0.26847041
-0.1357078 0.01301757 -0.26845253
-0.13570486 0.013095445 -0.26844871
-0.13570175 0.013173408 -0.26844886
-0.13569862 0.013251372 -0.26844901
-0.13569522 0.013331419 -0.26845312
-0.1356924 0.013409251 -0.26844728
-0.13568947 0.013487129 -0.26844347
-0.13568598 0.013567219 -0.26844954
-0.13568296 0.013645139 -0.2684477
-0.13568014 0.013724926 -0.26843983
-0.13567702 0.01380289 -0.26844001
-0.1356739 0.013880851 -0.26844013
-0.13567118 0.013960596 -0.26843026
-0.13566835 0.01403843 -0.26842442
-0.13566524 0.014116392 -0.2684246
-0.13566191 0.014194441 -0.26842874
-0.1356582 0.014272665 -0.26844087
-0.13565509 0.014350628 -0.26844105
-0.13565247 0.014430328 -0.26842916
-0.13564964 0.014508161 -0.26842335
-0.13564654 0.014588079 -0.26842144
-0.13564351 0.014665999 -0.26841962
-0.13564038 0.014743961 -0.26841974
-0.13563727 0.014821924 -0.26841992
-0.13563436 0.014901755 -0.26841405
-0.13563162 0.014979544 -0.26840621
-0.13562831 0.015057595 -0.26841035
-0.135625 0.015137599 -0.26841247
-0.13562238 0.015215346 -0.26840264
-0.13561967 0.015295088 -0.26839277
-0.13561635 0.015373139 -0.26839691
-0.13561293 0.015451232 -0.26840305
-0.1356101 0.015529064 -0.26839721
-0.13560697 0.015607027 -0.26839739
-0.13560359 0.015687075 -0.26840147
-0.13560066 0.015764952 -0.26839766
-0.13559812 0.015842654 -0.26838583
-0.1355956 0.015922312 -0.26837194
-0.13559209 0.016000448 -0.26838011
-0.13558868 0.016078541 -0.26838624
-0.13558576 0.016156416 -0.2683824
-0.13558264 0.016236335 -0.26838052
-0.13557972 0.01631421 -0.26837668
-0.1355767 0.01639213 -0.26837486
-0.1355736 0.016472049 -0.26837295
-0.13557076 0.016549882 -0.26836711
-0.13556735 0.016627975 -0.26837328
-0.13556384 0.016706111 -0.26838142
-0.13556083 0.016785985 -0.26837754
-0.1355581 0.016863775 -0.2683697
-0.13555527 0.016941607 -0.26836386
-0.13555244 0.017019439 -0.26835802
-0.13554953 0.017099271 -0.26835215
-0.13554621 0.017177321 -0.26835629
-0.13554241 0.017255586 -0.26837045
-0.13553938 0.017333508 -0.2683686
-0.13553675 0.017411252 -0.26835877
-0.13553365 0.017491171 -0.26835689
-0.13553043 0.017569177 -0.26835904
-0.13552752 0.017649008 -0.26835316
-0.13552478 0.017726796 -0.26834533
-0.13552214 0.017804543 -0.26833549
-0.13551912 0.017882463 -0.26833364
-0.13551593 0.017962424 -0.26833376
-0.1355131 0.018040257 -0.26832792
-0.13550997 0.018118219 -0.26832807
-0.13550675 0.018196225 -0.26833025
-0.13550355 0.018276187 -0.26833034
-0.13550052 0.018354107 -0.26832852
-0.1354979 0.018431852 -0.26831868
-0.13549487 0.018509772 -0.26831684
-0.13549164 0.018587777 -0.26831901
-0.13548845 0.018667739 -0.2683191
-0.13548504 0.018745832 -0.26832527
-0.1354823 0.018823622 -0.26831743
-0.13547969 0.018903323 -0.26830554
-0.13547686 0.018981155 -0.26829973
-0.13547403 0.019058987 -0.26829389
-0.13547111 0.019136865 -0.26829004
-0.1354676 0.019216955 -0.26829615
-0.135464 0.019295136 -0.26830629
-0.13546059 0.019373229 -0.26831245
-0.13545746 0.019451192 -0.26831257
-0.13545462 0.019529024 -0.26830676
-0.13545202 0.019608725 -0.26829487
-0.13544919 0.019686557 -0.26828906
-0.13544635 0.01976439 -0.26828322
-0.13544334 0.019844264 -0.26827934
-0.13544004 0.019922314 -0.26828349
-0.13543633 0.020000538 -0.26829562
-0.13543311 0.020078544 -0.26829779
-0.13543008 0.020156464 -0.26829594
-0.13542727 0.02023625 -0.26828808
-0.13542482 0.020313909 -0.26827425
-0.1354222 0.020391656 -0.26826441
-0.13541907 0.020469619 -0.26826456
-0.13541566 0.020547712 -0.2682707
-0.13541245 0.020627674 -0.26827082
-0.13540973 0.020705463 -0.26826298
-0.1354064 0.020783512 -0.26826715
-0.13540319 0.020861518 -0.2682693
-0.13540047 0.020941263 -0.26825941
-0.13539794 0.021018965 -0.2682476
-0.1353952 0.021096755 -0.26823977
-0.1353922 0.021176629 -0.26823586
-0.13538888 0.021254679 -0.26824003
-0.13538556 0.021332728 -0.26824418
-0.13538234 0.021410735 -0.26824635
-0.13537912 0.021488741 -0.2682485
-0.13537602 0.02156866 -0.26824659
-0.1353727 0.021646708 -0.26825076
-0.13536958 0.021724671 -0.26825091
-0.13536684 0.021802461 -0.26824307
-0.13536422 0.021880208 -0.26823324
-0.13536102 0.021960167 -0.26823336
-0.13535799 0.022038087 -0.26823151
-0.13535486 0.02211605 -0.26823169
-0.13535164 0.022194058 -0.26823384
-0.13534872 0.022271933 -0.26822999
-0.1353462 0.022351591 -0.26821613
-0.13534346 0.022429381 -0.2682083
-0.13534015 0.022507429 -0.26821244
-0.13533676 0.022587478 -0.26821655
-0.13533334 0.02266557 -0.26822269
-0.13533002 0.02274362 -0.26822686
-0.13532719 0.022821452 -0.26822102
-0.13532436 0.022899285 -0.26821518
-0.13532175 0.022978986 -0.26820332
-0.13531862 0.023056949 -0.26820347
-0.1353154 0.023134956 -0.26820561
-0.13531248 0.023212831 -0.26820177
-0.13530926 0.023290839 -0.26820394
-0.13530606 0.023370799 -0.26820403
-0.13530353 0.023448503 -0.26819223
-0.13530079 0.023526292 -0.26818439
-0.13529776 0.02360421 -0.26818255
-0.13529485 0.023684042 -0.26817667
-0.13529174 0.023762004 -0.26817682
-0.13528833 0.023840098 -0.26818296
-0.13528512 0.023920059 -0.26818308
-0.13528238 0.023997849 -0.26817524
-0.13527936 0.024075767 -0.2681734
-0.13527633 0.024153687 -0.26817155
-0.1352735 0.02423152 -0.26816574
-0.13527031 0.024311481 -0.26816586
-0.13526718 0.024389444 -0.26816601
-0.13526435 0.024467276 -0.26816016
-0.13526143 0.024545154 -0.26815632
-0.1352585 0.024623029 -0.26815251
-0.13525578 0.024702772 -0.26814261
-0.13525276 0.024780693 -0.26814079
-0.13524964 0.024858655 -0.26814094
-0.13524652 0.024936618 -0.26814109
-0.1352433 0.025014626 -0.26814324
-0.13524039 0.025094457 -0.26813737
-0.13523756 0.025172289 -0.26813152
-0.13523415 0.025250383 -0.26813769
-0.13523075 0.02533043 -0.26814178
-0.13522792 0.025408262 -0.26813594
-0.135225 0.025486138 -0.26813212
-0.13522197 0.025564058 -0.26813027
-0.13521923 0.025641847 -0.26812243
-0.13521604 0.025721809 -0.26812255
-0.13521272 0.025799859 -0.2681267
-0.13520999 0.025877647 -0.26811886
-0.13520706 0.025955524 -0.26811504
-0.13520375 0.026033573 -0.26811919
-0.13520055 0.026113534 -0.26811928
-0.1351978 0.026191324 -0.26811147
-0.1351945 0.026269374 -0.26811561
-0.13519186 0.026347119 -0.26810578
-0.13518952 0.026424736 -0.26808995
-0.13518631 0.026504697 -0.26809007
-0.13518271 0.026582878 -0.2681002
-0.13517961 0.026662793 -0.26809832
-0.13517667 0.02674067 -0.26809448
-0.13517345 0.026818678 -0.26809663
-0.13517062 0.02689651 -0.26809081
-0.1351679 0.026974298 -0.26808298
-0.13516469 0.027054261 -0.2680831
-0.13516177 0.027132137 -0.26807925
-0.13515894 0.027209969 -0.26807341
-0.13515581 0.027287932 -0.26807356
-0.13515289 0.027365807 -0.26806974
-0.13514999 0.02744564 -0.26806384
-0.13514705 0.027523516 -0.26806003
-0.13514422 0.027601348 -0.26805419
-0.13514119 0.027679268 -0.26805234
-0.1351376 0.027759403 -0.26806045
-0.13513438 0.027837409 -0.26806259
-0.13513166 0.027915198 -0.26805478
-0.13512872 0.027993076 -0.26805094
-0.13512543 0.02807308 -0.26805303
-0.1351226 0.028150912 -0.26804721
-0.13511968 0.028228788 -0.26804334
-0.13511635 0.028306838 -0.26804751
-0.13511322 0.028384801 -0.26804766
-0.13511051 0.028464545 -0.2680378
-0.1351074 0.028542507 -0.26803795
-0.13510391 0.028622597 -0.26804405
-0.13510078 0.02870056 -0.2680442
-0.13509776 0.028778482 -0.26804239
-0.13509493 0.028856315 -0.26803654
-0.13509201 0.02893419 -0.2680327
-0.135089 0.029014064 -0.26802883
-0.13508597 0.029091984 -0.26802698
-0.13508333 0.029169731 -0.26801714
-0.1350805 0.029247563 -0.26801133
-0.13507709 0.029325657 -0.26801747
-0.1350736 0.029405747 -0.26802355
-0.13507096 0.029483493 -0.26801372
-0.13506852 0.029561153 -0.26799992
-0.13506569 0.029638985 -0.26799408
-0.13506229 0.029719032 -0.26799816
-0.13505898 0.029797083 -0.26800233
-0.13505585 0.029875046 -0.26800248
-0.13505293 0.029952921 -0.26799864
-0.13505003 0.030032752 -0.26799276
-0.13504681 0.030110758 -0.26799494
-0.1350435 0.030190762 -0.26799703
-0.13504067 0.030268596 -0.26799119
-0.13503784 0.030346429 -0.26798537
-0.13503501 0.030424261 -0.26797953
-0.13503239 0.030502008 -0.2679697
-0.13502955 0.030579841 -0.26796386
-0.13502605 0.030659933 -0.26796997
-0.13502236 0.030738156 -0.2679821
-0.13501944 0.030817986 -0.26797622
-0.13501708 0.030893646 -0.26796246
-0.13501446 0.030973349 -0.26795056
-0.13501184 0.031051094 -0.26794076
-0.13500871 0.031129057 -0.26794091
-0.13500473 0.031209365 -0.26795697
-0.13500141 0.031287417 -0.26796114
-0.13499898 0.031365074 -0.26794732
-0.13499643 0.031442776 -0.26793548
-0.13499351 0.031520654 -0.26793164
-0.1349903 0.031600613 -0.26793176
-0.134987 0.031678662 -0.26793593
-0.13498341 0.0317588 -0.26794401
-0.1349797 0.03183702 -0.26795614
-0.13497619 0.03191711 -0.26796225
-0.13497357 0.031994857 -0.26795244
-0.13497141 0.032072388 -0.26793259
-0.13496898 0.032150045 -0.2679188
-0.13496596 0.032227967 -0.26791695
-0.13496321 0.032305755 -0.26790911
-0.13496068 0.032383457 -0.26789728
-0.13495804 0.032461204 -0.26788747
-0.13495474 0.032539256 -0.26789162
-0.13495095 0.032619476 -0.26790372
-0.13494736 0.032699607 -0.26791179
-0.13494414 0.032777615 -0.26791397
-0.13494101 0.032855578 -0.26791412
-0.13493742 0.032935716 -0.26792222
-0.13493413 0.033015717 -0.26792431
-0.1349311 0.033093639 -0.26792246
-0.13492905 0.033171125 -0.26790068
-0.13492678 0.033246741 -0.26788491
-0.13492349 0.033326745 -0.267887
-0.13492057 0.033404622 -0.26788318
-0.13491842 0.033482149 -0.26786333
-0.13491637 0.033559635 -0.26784155
-0.13491419 0.03363521 -0.26782376
-0.13491137 0.033713043 -0.26781794
-0.13490863 0.033790834 -0.26781011
-0.1349058 0.033868667 -0.26780427
-0.13490175 0.033950973 -0.2678203
-0.13489757 0.034031369 -0.26784039
-0.13489395 0.034109548 -0.26785055
-0.13489066 0.034189552 -0.26785266
-0.13488764 0.03426747 -0.26785082
-0.13488415 0.034347564 -0.2678569
-0.13488074 0.034425654 -0.26786304
-0.13487792 0.034505442 -0.26785517
-0.13487546 0.034581147 -0.2678434
-0.13487226 0.034661107 -0.26784348
-0.13486877 0.034741201 -0.26784962
-0.13486555 0.034819208 -0.26785177
-0.13486242 0.034897167 -0.26785192
-0.13485943 0.034977041 -0.26784801
-0.13485686 0.035052791 -0.26783824
-0.13485415 0.035132535 -0.26782838
-0.13485113 0.035210453 -0.26782653
-0.13484773 0.035290502 -0.26783064
-0.13484432 0.035368595 -0.26783678
-0.1348411 0.035446599 -0.26783895
-0.13483809 0.035526477 -0.26783505
-0.13483506 0.035604395 -0.26783323
-0.13483177 0.035684399 -0.26783532
-0.13482894 0.035762236 -0.26782948
-0.13482678 0.035837807 -0.26781172
-0.13482396 0.035917595 -0.26780385
-0.13482055 0.035995688 -0.26780999
-0.13481696 0.036075823 -0.26781809
-0.13481367 0.036155827 -0.26782018
-0.13481043 0.036233835 -0.26782236
-0.13480714 0.036313839 -0.26782447
-0.13480392 0.036391843 -0.26782662
-0.13480072 0.036471806 -0.26782674
-0.13479789 0.036549635 -0.26782089
-0.13479535 0.036627337 -0.26780906
-0.13479252 0.036705174 -0.26780322
-0.1347869 0.036788173 -0.26785123
-0.13478084 0.0368753 -0.26790512
-0.13477561 0.036958124 -0.26794511
-0.13476999 0.037041124 -0.26799309
-0.13630196 -0.0021177437 -0.26869988
-0.13629876 -0.0020377822 -0.2687
-0.13629554 -0.0019597746 -0.26870215
-0.1362922 -0.00188368 -0.26870835
-0.13628872 -0.00180359 -0.26871443
-0.13628559 -0.0017256271 -0.26871461
-0.13628258 -0.0016457513 -0.26871073
-0.13627936 -0.0015677474 -0.26871288
-0.13627625 -0.0014897827 -0.26871303
-0.13627334 -0.0014099535 -0.26870716
-0.13626991 -0.0013318602 -0.2687133
-0.13626653 -0.0012518112 -0.26871741
-0.13626379 -0.0011740215 -0.26870957
-0.13626119 -0.0010923669 -0.26869565
-0.1362588 -0.0010107998 -0.26867774
-0.13625547 -0.00093274936 -0.26868188
-0.13625187 -0.00085456856 -0.26869202
-0.13624905 -0.00077478215 -0.26868415
-0.13624613 -0.00069690496 -0.26868033
-0.13624272 -0.0006188117 -0.26868647
-0.13623951 -0.0005388502 -0.26868659
-0.1362363 -0.00046084449 -0.26868874
-0.13623288 -0.00038275309 -0.26869488
-0.13622996 -0.00030292198 -0.26868898
-0.13622716 -0.00022313371 -0.26868111
-0.13622415 -0.00014326163 -0.26867723
-0.13622093 -6.5254048e-05 -0.26867938
-0.13621803 1.4577061e-05 -0.26867351
-0.1362154 9.4279647e-05 -0.26866162
-0.13621211 0.00017428026 -0.26866373
-0.13620877 0.00025037676 -0.26866993
-0.13620548 0.0003303811 -0.26867205
-0.13620205 0.00040847436 -0.26867819
-0.13619855 0.00048661232 -0.26868632
-0.13619523 0.00056466088 -0.26869047
-0.13619292 0.00064618513 -0.26867056
-0.13619041 0.00072584301 -0.2686567
-0.13618651 0.0008041542 -0.26867282
-0.13618319 0.00088220462 -0.268677
-0.13618056 0.00096190348 -0.26866513
-0.13617747 0.0010418203 -0.26866323
-0.13617395 0.0011199582 -0.26867139
-0.13617112 0.0011977907 -0.26866555
-0.13616832 0.0012775771 -0.26865768
-0.13616502 0.0013575815 -0.26865977
-0.13616189 0.0014355443 -0.26865992
-0.13615867 0.0015135519 -0.2686621
-0.13615526 0.0015916452 -0.26866823
-0.13615164 0.0016698241 -0.26867837
-0.13614793 0.0017480478 -0.2686905
-0.13614491 0.0018259659 -0.26868868
-0.13614219 0.0019057114 -0.26867878
-0.13613909 0.0019856263 -0.26867691
-0.13613638 0.0020653717 -0.26866704
-0.13613348 0.0021452047 -0.26866114
-0.13613057 0.0022250339 -0.26865527
-0.13612735 0.0023030397 -0.26865742
-0.13612384 0.0023811758 -0.26866555
-0.13612051 0.0024592262 -0.26866972
-0.13611761 0.0025390573 -0.26866382
-0.1361149 0.0026188027 -0.26865396
-0.1361118 0.0026987176 -0.26865208
-0.13610847 0.0027767681 -0.26865622
-0.13610545 0.0028546881 -0.26865438
-0.13610244 0.0029345639 -0.2686505
-0.13609894 0.0030126981 -0.26865864
-0.13609532 0.0030908789 -0.26866877
-0.13609241 0.0031707082 -0.2686629
-0.13608977 0.003248455 -0.26865309
-0.13608648 0.0033284593 -0.26865518
-0.13608316 0.0034065098 -0.26865935
-0.13608055 0.0034862105 -0.26864746
-0.13607734 0.003566172 -0.26864755
-0.13607402 0.0036442205 -0.26865172
-0.13607131 0.0037239641 -0.26864186
-0.13606809 0.0038019717 -0.26864401
-0.13606489 0.0038819313 -0.26864412
-0.13606177 0.0039598942 -0.26864427
-0.13605855 0.0040378999 -0.26864642
-0.13605586 0.0041196011 -0.2686345
-0.13605294 0.0041974764 -0.26863068
-0.13604982 0.0042773932 -0.26862878
-0.13604711 0.0043571368 -0.26861888
-0.13604368 0.0044332743 -0.26862711
-0.13603978 0.0045115855 -0.26864323
-0.13603677 0.0045914613 -0.26863933
-0.13603435 0.0046710745 -0.26862347
-0.13603134 0.0047509484 -0.2686196
-0.13602802 0.004828997 -0.26862374
-0.13602471 0.0049070474 -0.26862788
-0.1360219 0.0049868356 -0.26862001
-0.13601929 0.0050665345 -0.26860815
-0.13601606 0.0051445402 -0.2686103
-0.13601294 0.005222505 -0.26861045
-0.13600984 0.0053024236 -0.26860857
-0.13600641 0.0053805169 -0.26861471
-0.1360032 0.0054585226 -0.26861686
-0.1360001 0.0055384375 -0.26861498
-0.13599707 0.0056163594 -0.26861313
-0.13599367 0.0056964066 -0.26861724
-0.13599065 0.0057743257 -0.26861542
-0.13598785 0.005854114 -0.26860753
-0.13598502 0.0059319474 -0.26860169
-0.13598181 0.006011907 -0.2686018
-0.13597868 0.0060898708 -0.26860195
-0.13597517 0.006168006 -0.26861012
-0.13597167 0.006246143 -0.26861826
-0.13596876 0.0063259751 -0.26861238
-0.13596614 0.0064056749 -0.26860049
-0.13596362 0.0064853309 -0.26858664
-0.13596061 0.0065652067 -0.26858273
-0.13595749 0.0066431696 -0.26858288
-0.13595439 0.0067230863 -0.268581
-0.13595116 0.0068010911 -0.26858318
-0.13594794 0.0068790987 -0.26858532
-0.13594463 0.0069571482 -0.26858947
-0.13594124 0.0070371972 -0.26859358
-0.13593821 0.0071151173 -0.26859173
-0.13593519 0.0071930354 -0.26858988
-0.13593179 0.0072730826 -0.268594
-0.13592847 0.0073511321 -0.26859814
-0.13592505 0.0074292263 -0.26860428
-0.13592145 0.0075074062 -0.26861444
-0.13591851 0.0075852815 -0.2686106
-0.13591611 0.0076668495 -0.26859269
-0.13591328 0.007744683 -0.26858687
-0.13591027 0.0078245588 -0.26858297
-0.13590777 0.0079042148 -0.26856911
-0.13590494 0.0079820473 -0.26856327
-0.13590162 0.0080600977 -0.26856741
-0.13589841 0.0081400573 -0.26856753
-0.13589558 0.0082178907 -0.26856169
-0.13589257 0.0082977647 -0.26855782
-0.13588955 0.0083756847 -0.26855597
-0.13588645 0.0084556025 -0.26855409
-0.13588372 0.0085333921 -0.26854625
-0.13588071 0.0086132661 -0.26854235
-0.13587779 0.0086911414 -0.26853853
-0.13587457 0.008769149 -0.26854068
-0.13587107 0.008849239 -0.26854679
-0.13586785 0.0089272456 -0.26854894
-0.13586463 0.0090052523 -0.26855108
-0.13586162 0.0090851262 -0.26854721
-0.13585909 0.0091628293 -0.26853538
-0.13585618 0.0092426594 -0.2685295
-0.13585305 0.0093206223 -0.26852965
-0.13584957 0.0094007142 -0.26853576
-0.13584624 0.0094787637 -0.26853991
-0.13584352 0.0095565524 -0.2685321
-0.13584051 0.0096364273 -0.26852819
-0.13583748 0.0097143473 -0.26852635
-0.13583428 0.0097943079 -0.26852646
-0.13583125 0.0098722279 -0.26852462
-0.13582814 0.0099501899 -0.26852477
-0.13582493 0.010030151 -0.26852489
-0.13582171 0.010108157 -0.26852703
-0.1358189 0.010187944 -0.26851916
-0.13581626 0.01026569 -0.26850933
-0.13581297 0.010345695 -0.26851144
-0.13580926 0.010423918 -0.26852357
-0.13580604 0.010501924 -0.26852572
