# .PCD v0.7 - Point Cloud Data file format
VERSION 0.7
FIELDS x y z
SIZE 4 4 4
TYPE F F F
COUNT 1 1 1
WIDTH 1309
HEIGHT 1
VIEWPOINT 0 0 0 1 0 0 0
POINTS 1309
DATA ascii
0.022603981 0.016301932 -0.22718224
0.022606669 0.016381675 -0.22717236
0.022609554 0.016461506 -0.22716647
0.022612555 0.016539427 -0.22716463
0.022616122 0.016619563 -0.22717272
0.022619592 0.016699655 -0.22717881
0.022622671 0.016779574 -0.2271769
0.022625457 0.016859362 -0.22716902
0.022628341 0.016939193 -0.22716314
0.022631051 0.017016981 -0.2271553
0.022633662 0.017094728 -0.22714546
0.022636937 0.017174734 -0.22714755
0.022640601 0.017254913 -0.22715765
0.022644244 0.017337047 -0.2271657
0.022647247 0.017414967 -0.22716385
0.022649741 0.017494624 -0.22714996
0.022652159 0.017572282 -0.22713614
0.022654673 0.017649984 -0.22712429
0.022657849 0.017729947 -0.22712439
0.02266122 0.017809996 -0.22712849
0.022664202 0.01788987 -0.2271246
0.022667106 0.017967746 -0.22712076
0.022670284 0.018047709 -0.22712085
0.022673752 0.018127799 -0.22712696
0.022677027 0.018207807 -0.22712904
0.022680009 0.018287683 -0.22712515
0.022683088 0.0183676 -0.22712326
0.022686362 0.018447606 -0.22712536
0.022689441 0.018527525 -0.22712347
0.022692055 0.018605269 -0.22711362
0.022695327 0.018685274 -0.22711572
0.022698503 0.018765235 -0.22711581
0.022701312 0.01884307 -0.22710997
0.022704488 0.018923033 -0.22711009
0.022707567 0.01900295 -0.22710818
0.022710081 0.019080652 -0.22709635
0.022713162 0.019160571 -0.22709446
0.022716824 0.01924075 -0.22710454
0.02272037 0.01932284 -0.22711058
0.022723179 0.019400673 -0.22710474
0.022725966 0.019480461 -0.22709686
0.022729238 0.019560467 -0.22709896
0.022732513 0.019640474 -0.22710106
0.022735689 0.019720435 -0.22710115
0.022738595 0.019798312 -0.2270973
0.022741575 0.019878184 -0.22709341
0.022744948 0.019958235 -0.22709751
0.022748027 0.020038154 -0.22709562
0.02275091 0.020117983 -0.22708973
0.022753913 0.020195905 -0.22708789
0.022756992 0.020275824 -0.22708598
0.022760071 0.020355742 -0.2270841
0.022763249 0.020435702 -0.22708419
0.022766523 0.020515708 -0.22708629
0.022769894 0.020595757 -0.22709039
0.022773363 0.020675849 -0.22709647
0.022776052 0.020755593 -0.22708659
0.02277847 0.020833254 -0.22707276
0.022781646 0.020913215 -0.22707286
0.022784648 0.020991134 -0.22707102
0.022787727 0.021071052 -0.22706911
0.022791002 0.021151058 -0.22707123
0.022794081 0.021230975 -0.22706932
0.02279716 0.021310894 -0.22706743
0.022799771 0.021388639 -0.22705758
0.022802265 0.021468299 -0.22704372
0.02280478 0.021546001 -0.22703186
0.022808444 0.021626178 -0.22704196
0.022812186 0.021708358 -0.227052
0.02281509 0.021786233 -0.22704816
0.022817876 0.02186602 -0.22704026
0.022821054 0.021945981 -0.22704037
0.022824328 0.022025988 -0.22704247
0.022827309 0.022105861 -0.22703858
0.022830311 0.022183783 -0.22703673
0.022833761 0.022265831 -0.22704077
0.022836838 0.022345748 -0.22703888
0.022839548 0.022423537 -0.22703105
0.022842627 0.022503456 -0.22702914
0.022845805 0.022583418 -0.22702923
0.022848884 0.022663334 -0.22702734
0.022851788 0.022741213 -0.22702351
0.022854673 0.022821045 -0.22701761
0.022857945 0.022901051 -0.22701971
0.022861319 0.022981098 -0.22702381
0.022864202 0.023060929 -0.22701791
0.022867009 0.023138762 -0.22701207
0.022870652 0.023220897 -0.22702011
0.022873927 0.023300901 -0.2270222
0.022876538 0.023378648 -0.22701238
0.022879619 0.023458568 -0.22701049
0.022882894 0.023538571 -0.22701257
0.022885971 0.02361849 -0.22701068
0.022888757 0.023698278 -0.2270028
0.022891371 0.023776025 -0.22699296
0.022894254 0.023855854 -0.22698706
0.022896964 0.023933642 -0.22697923
0.022899967 0.024011564 -0.22697738
0.022903318 0.024093566 -0.22697943
0.02290659 0.024173573 -0.22698152
0.022909768 0.024253536 -0.22698164
0.02291275 0.02433341 -0.22697774
0.02291546 0.024411198 -0.2269699
0.02291844 0.024491072 -0.22696601
0.022921911 0.024571165 -0.2269721
0.022925261 0.024653168 -0.22697414
0.022928165 0.024731047 -0.2269703
0.022930875 0.024808835 -0.22696246
0.022933858 0.024888711 -0.22695857
0.022937402 0.0249708 -0.22696462
0.022940384 0.025050675 -0.22696072
0.022942726 0.025126336 -0.22694694
0.022946758 0.025208643 -0.22696297
0.022950305 0.025290735 -0.226969
0.022953384 0.025370654 -0.22696711
0.022955898 0.025448356 -0.22695528
0.022958977 0.025528274 -0.22695339
0.022962544 0.025608411 -0.22696146
0.022965623 0.025688328 -0.22695959
0.022968605 0.025768204 -0.2269557
0.02297188 0.02584821 -0.2269578
0.022974003 0.025925737 -0.22693798
0.022976246 0.026001355 -0.22692218
0.022979327 0.026081273 -0.22692029
0.02298221 0.026161103 -0.22691441
0.022985289 0.026241021 -0.2269125
0.022989225 0.026323285 -0.22692654
0.022993356 0.02640564 -0.22694457
0.022997096 0.026487816 -0.22695461
0.023000469 0.026567865 -0.22695869
0.023003625 0.026649781 -0.22695675
0.023006432 0.026727613 -0.22695091
0.023009241 0.026805447 -0.22694507
0.023011656 0.026883107 -0.22693124
0.023014443 0.026962895 -0.22692335
0.023017522 0.027042812 -0.22692147
0.023020992 0.027122904 -0.22692755
0.020657467 -0.02358924 -0.22812569
0.020660233 -0.023507498 -0.22811575
0.020662921 -0.023427755 -0.22810587
0.020666096 -0.023347793 -0.22810596
0.020668568 -0.023266181 -0.22809005
0.020670943 -0.023184614 -0.22807214
0.020674119 -0.023104653 -0.22807223
0.020677079 -0.023022823 -0.2280663
0.020679766 -0.022943079 -0.2280564
0.020683138 -0.02286303 -0.2280605
0.020686334 -0.022785023 -0.22806264
0.020689802 -0.022704931 -0.22806874
0.020693291 -0.022626791 -0.22807688
0.020696174 -0.02254696 -0.22807099
0.020699058 -0.022467129 -0.2280651
0.020702137 -0.022387212 -0.2280632
0.020705193 -0.022305338 -0.22805926
0.020707784 -0.022225641 -0.22804737
0.020710764 -0.022145765 -0.22804348
0.020714331 -0.022065628 -0.22805157
0.020717312 -0.021985754 -0.22804767
0.020720098 -0.021905966 -0.2280398
0.020723566 -0.021825872 -0.22804588
0.020727172 -0.021749645 -0.22805807
0.020730328 -0.02166773 -0.22805613
0.020733017 -0.021587986 -0.22804624
0.020735782 -0.021506244 -0.22803631
0.020738762 -0.02142637 -0.22803241
0.020742349 -0.021348188 -0.22804254
0.020745721 -0.021268137 -0.22804664
0.0207479 -0.021186657 -0.22802472
0.020750761 -0.02110487 -0.22801679
0.020754056 -0.021026822 -0.22802094
0.020757545 -0.020948684 -0.22802907
0.020760506 -0.020866854 -0.22802314
0.020762999 -0.020787198 -0.22800925
0.020766174 -0.020707237 -0.22800936
0.020769859 -0.020629009 -0.2280215
0.020773347 -0.020550871 -0.22802962
0.020776523 -0.02047091 -0.22802973
0.020779504 -0.020391036 -0.22802584
0.020782366 -0.020309249 -0.2280179
0.020785347 -0.020229377 -0.22801399
0.020788446 -0.020151412 -0.22801416
0.020791719 -0.020071406 -0.22801626
0.02079509 -0.019991355 -0.22802034
0.020797875 -0.019911569 -0.22801246
0.020800445 -0.019829914 -0.22799852
0.020803545 -0.019751949 -0.22799867
0.020807208 -0.019671772 -0.22800878
0.020810502 -0.019593721 -0.2280129
0.020813776 -0.019513715 -0.22801501
0.020816561 -0.019433925 -0.22800712
0.020818936 -0.019352358 -0.2279892
0.020821722 -0.019272571 -0.22798131
0.020825092 -0.019192522 -0.22798541
0.020828679 -0.019114342 -0.22799554
0.020832168 -0.019036204 -0.22800368
0.020834954 -0.018956415 -0.2279958
0.02083813 -0.018876454 -0.22799589
0.020841306 -0.018796491 -0.22799599
0.020844482 -0.018716529 -0.2279961
0.020847872 -0.018638434 -0.22800224
0.020851342 -0.01855834 -0.22800833
0.020854635 -0.01848029 -0.22801247
0.020857615 -0.018400418 -0.22800857
0.020860478 -0.018318631 -0.22800064
0.020863578 -0.018240664 -0.22800079
0.020866657 -0.018160747 -0.2279989
0.020869713 -0.018078875 -0.22799495
0.020873105 -0.01800078 -0.22800109
0.020875989 -0.01792095 -0.2279952
0.020878969 -0.017841075 -0.22799131
0.02088234 -0.017761026 -0.2279954
0.020885516 -0.017681066 -0.22799551
0.020888615 -0.017603099 -0.22799566
0.020891692 -0.017523181 -0.22799376
0.020894868 -0.017443219 -0.22799385
0.02089824 -0.017363172 -0.22799796
0.020901339 -0.017285207 -0.22799811
0.020904299 -0.017203378 -0.22799218
0.020907182 -0.017123548 -0.22798628
0.020910282 -0.017045582 -0.22798643
0.02091375 -0.01696549 -0.2279925
0.020917043 -0.016887438 -0.22799666
0.02091983 -0.016807653 -0.22798876
0.020922691 -0.016725866 -0.22798084
0.020925574 -0.016646035 -0.22797495
0.020928262 -0.016566293 -0.22796506
0.020931341 -0.016486375 -0.22796316
0.020934537 -0.016408365 -0.22796531
0.020937713 -0.016328404 -0.22796541
0.020940792 -0.016248485 -0.22796352
0.020943966 -0.016168524 -0.22796361
0.020947143 -0.01608856 -0.22796372
0.020950241 -0.016010599 -0.22796386
0.020953201 -0.015928769 -0.22795793
0.020955987 -0.015848981 -0.22795004
0.020959184 -0.015770974 -0.22795218
0.020962458 -0.015690967 -0.2279543
0.020965438 -0.015611093 -0.22795039
0.020968614 -0.015531133 -0.2279505
0.020971518 -0.015453257 -0.22794664
0.020974498 -0.015373381 -0.22794276
0.020977458 -0.015291553 -0.2279368
0.020980265 -0.015213719 -0.22793096
0.020983733 -0.015133625 -0.22793707
0.020987418 -0.0150554 -0.2279492
0.020990204 -0.014975612 -0.2279413
0.020992577 -0.014894046 -0.22792339
0.020995753 -0.014814083 -0.22792348
0.020998949 -0.014736077 -0.22792563
0.021002222 -0.014656071 -0.22792773
0.0210054 -0.014576108 -0.22792783
0.02100838 -0.014496233 -0.22792393
0.021011479 -0.01441827 -0.22792409
0.021014556 -0.014338353 -0.2279222
0.021017537 -0.014258478 -0.2279183
0.021020519 -0.014178602 -0.22791442
0.021023402 -0.014098773 -0.22790852
0.021026481 -0.014018852 -0.22790661
0.02102985 -0.013938803 -0.22791071
0.021032635 -0.013859017 -0.22790283
0.021035541 -0.013781141 -0.22789899
0.021038715 -0.013701178 -0.22789907
0.021041794 -0.013621259 -0.2278972
0.02104497 -0.0135413 -0.22789729
0.021047972 -0.013463378 -0.22789544
0.021050757 -0.013383591 -0.22788756
0.021053836 -0.013303672 -0.22788566
0.02105701 -0.01322371 -0.22788575
0.021060305 -0.013145659 -0.22788991
0.021063384 -0.01306574 -0.22788802
0.021066267 -0.012985909 -0.22788212
0.021069247 -0.012906035 -0.22787821
0.021072228 -0.012826161 -0.22787434
0.021075208 -0.012746286 -0.22787043
0.02107821 -0.012668366 -0.22786859
0.021081386 -0.012588404 -0.22786869
0.021084756 -0.012508355 -0.22787279
0.021087466 -0.012430565 -0.22786495
0.021090329 -0.01234878 -0.22785701
0.021093622 -0.012270729 -0.22786115
0.021097014 -0.012192633 -0.22786731
0.021099994 -0.012112759 -0.2278634
0.021103073 -0.01203284 -0.22786149
0.021106346 -0.011952835 -0.22786359
0.021109445 -0.011874871 -0.22786376
0.021112522 -0.011794954 -0.22786185
0.021115405 -0.011715122 -0.22785597
0.021118386 -0.011635248 -0.22785208
0.021121465 -0.011555329 -0.22785017
0.021124369 -0.011477453 -0.22784632
0.021127349 -0.011397577 -0.22784244
0.021130232 -0.011317747 -0.22783655
0.021133214 -0.011237873 -0.22783265
0.021136487 -0.011157867 -0.22783475
0.021139584 -0.011079902 -0.2278349
0.021142762 -0.01099994 -0.227835
0.021145839 -0.010920023 -0.22783309
0.021148819 -0.010840148 -0.22782922
0.021151802 -0.010760273 -0.22782531
0.021154802 -0.010682353 -0.22782347
0.021157783 -0.010602479 -0.22781959
0.021161057 -0.010522473 -0.22782168
0.021164155 -0.010444509 -0.22782183
0.021167429 -0.010364503 -0.22782391
0.021171015 -0.01028632 -0.22783405
0.021173997 -0.010206446 -0.22783017
0.021176293 -0.010126878 -0.22781229
0.021178689 -0.010047264 -0.22779641
0.021181181 -0.0099676074 -0.22778253
0.021183871 -0.0098878648 -0.22777265
0.021187143 -0.0098078586 -0.22777474
0.021190828 -0.0097296331 -0.22778687
0.02119422 -0.009651538 -0.22779301
0.021197688 -0.0095714452 -0.22779912
0.021200765 -0.0094915275 -0.22779721
0.021203475 -0.0094137378 -0.22778937
0.021206845 -0.0093336888 -0.22779347
0.021209944 -0.009255724 -0.22779362
0.021212906 -0.0091738952 -0.22778767
0.021215808 -0.009096019 -0.22778384
0.0212192 -0.0090179238 -0.22778997
0.021222278 -0.0089380052 -0.22778808
0.021225259 -0.0088581312 -0.22778419
0.021228533 -0.008778125 -0.22778629
0.021231534 -0.008700205 -0.22778444
0.021234613 -0.0086202864 -0.22778255
0.021237299 -0.0085405437 -0.22777265
0.021240182 -0.0084607126 -0.22776675
0.021243574 -0.0083826175 -0.22777289
0.021246554 -0.0083027426 -0.22776902
0.02124944 -0.0082229124 -0.22776312
0.021252634 -0.0081449039 -0.22776526
0.021256104 -0.008064812 -0.22777136
0.021259181 -0.0079848934 -0.22776946
0.021261986 -0.007907059 -0.22776362
0.021265261 -0.0078270547 -0.22776571
0.021268535 -0.0077470494 -0.22776783
0.021271633 -0.0076690856 -0.22776796
0.021274906 -0.0075890799 -0.22777006
0.021277595 -0.0075093359 -0.22776018
0.021280108 -0.0074316338 -0.22774833
0.021283576 -0.007351541 -0.22775443
0.021287261 -0.0072733155 -0.22776657
0.021290243 -0.0071934415 -0.22776267
0.021293027 -0.0071136523 -0.22775477
0.021296613 -0.0070354715 -0.22776492
0.021300592 -0.0069571156 -0.22778304
0.021303475 -0.0068772826 -0.22777715
0.021305772 -0.0067977142 -0.22775927
0.021308459 -0.0067179711 -0.22774939
0.021311851 -0.0066398755 -0.22775555
0.021315418 -0.0065597389 -0.22776362
0.021318419 -0.0064818198 -0.22776178
0.021321498 -0.0064019011 -0.22775987
0.021324597 -0.0063239364 -0.22776003
0.021327578 -0.0062440624 -0.22775614
0.021331262 -0.006165836 -0.22776827
0.021335119 -0.006085569 -0.22778234
0.021337515 -0.0060059559 -0.22776648
0.021340009 -0.0059262998 -0.2277526
0.02134301 -0.0058483789 -0.22775075
0.021346379 -0.0057683308 -0.22775483
0.021349382 -0.0056904107 -0.22775298
0.021352459 -0.0056104921 -0.22775109
0.021355538 -0.0055305734 -0.2277492
0.021358538 -0.0054526534 -0.22774735
0.021361716 -0.0053726914 -0.22774746
0.021365106 -0.0052945968 -0.22775359
0.021368185 -0.0052146786 -0.2277517
0.021370482 -0.0051351087 -0.22773382
0.021372976 -0.0050554527 -0.22771993
0.021376248 -0.0049754474 -0.22772205
0.021379543 -0.0048973956 -0.22772619
0.021383207 -0.0048172157 -0.22773626
0.021386404 -0.0047392086 -0.22773841
0.021389384 -0.0046593342 -0.22773454
0.02139258 -0.0045813262 -0.22773668
0.021395463 -0.0045014955 -0.22773078
0.021398151 -0.0044217515 -0.22772089
0.021401035 -0.0043419199 -0.227715
0.021404035 -0.0042639999 -0.22771315
0.021407114 -0.0041840822 -0.22771126
0.021409823 -0.0041062925 -0.22770342
0.021412902 -0.0040263738 -0.22770151
0.021415979 -0.0039464561 -0.22769962
0.021418786 -0.0038686227 -0.22769378
0.021422157 -0.0037885737 -0.22769788
0.021425646 -0.0037104355 -0.22770602
0.021428432 -0.0036306477 -0.22769812
0.021431217 -0.0035508603 -0.22769025
0.021434413 -0.0034728525 -0.2276924
0.021437492 -0.0033929348 -0.22769049
0.021440297 -0.0033151016 -0.22768465
0.021443278 -0.0032352267 -0.22768076
0.021446357 -0.003155309 -0.22767887
0.021449357 -0.0030773885 -0.22767702
0.021452338 -0.0029975134 -0.22767311
0.02145532 -0.0029176392 -0.22766922
0.021458613 -0.0028395879 -0.22767337
0.021461887 -0.0027595824 -0.22767547
0.021465376 -0.0026814439 -0.2276836
0.021468649 -0.0026014384 -0.2276857
0.021470968 -0.0025238232 -0.22766988
0.021473147 -0.0024423432 -0.22764796
0.021476246 -0.0023643796 -0.22764811
0.021479346 -0.0022864158 -0.22764826
0.021482715 -0.0022063663 -0.22765234
0.021486185 -0.0021262742 -0.22765845
0.021489186 -0.0020483537 -0.22765659
0.021491874 -0.0019686094 -0.22764671
0.021494679 -0.0018907762 -0.22764087
0.021497855 -0.001810815 -0.22764096
0.021501129 -0.001730809 -0.22764307
0.02150413 -0.001652889 -0.22764122
0.02150711 -0.0015730141 -0.22763732
0.021510113 -0.001495094 -0.22763547
0.021513483 -0.0014150448 -0.22763957
0.021516658 -0.001335083 -0.22763968
0.02152005 -0.0012569879 -0.22764581
0.021523325 -0.0011769827 -0.22764792
0.021525741 -0.0010993241 -0.22763407
0.021528428 -0.0010195801 -0.22762419
0.021531507 -0.00093966187 -0.2276223
0.021534702 -0.00086165452 -0.22762445
0.021538075 -0.00078160525 -0.22762854
0.021541173 -0.00070364145 -0.22762868
0.021544348 -0.00062367925 -0.2276288
0.021547057 -0.00054589007 -0.22762094
0.021550331 -0.00046588434 -0.22762305
0.021553507 -0.00038592238 -0.22762315
0.021556117 -0.00030817697 -0.2276133
0.021558806 -0.00022843317 -0.22760344
0.021561688 -0.00014860206 -0.22759753
0.02156508 -7.0507172e-05 -0.22760367
0.02156806 9.3674753e-06 -0.22759977
0.021570574 8.7069813e-05 -0.22758794
0.021573555 0.00016694446 -0.22758406
0.021576459 0.00024482072 -0.2275802
0.021579146 0.00032456475 -0.22757033
0.021582421 0.00040457037 -0.22757243
0.021585422 0.00048249064 -0.22757058
0.021588206 0.00056227786 -0.22756268
0.021591501 0.00064032921 -0.22756684
0.02159497 0.0007204219 -0.22757292
0.021598341 0.00080047094 -0.22757702
0.021601439 0.00087843486 -0.22757716
0.021604322 0.00095826609 -0.22757128
0.021607129 0.001036099 -0.22756542
0.021610109 0.0011159738 -0.22756153
0.021613382 0.0011959791 -0.22756363
0.021616776 0.0012740741 -0.22756977
0.021620046 0.0013540795 -0.22757187
0.021622756 0.0014318689 -0.22756404
0.021625737 0.0015117435 -0.22756013
0.021628717 0.0015916183 -0.22755626
0.021631427 0.0016694078 -0.22754842
0.021634407 0.0017492822 -0.22754452
0.021637212 0.0018271154 -0.22753868
0.021639803 0.0019068153 -0.22752678
0.021643098 0.0019848668 -0.22753093
0.02164676 0.0020650467 -0.22754101
0.021650035 0.0021450522 -0.22754312
0.021653427 0.0022231471 -0.22754925
0.021656407 0.0023030217 -0.22754537
0.021659214 0.0023808547 -0.22753952
0.021662194 0.0024607293 -0.22753564
0.021665271 0.0025406478 -0.22753373
0.021668274 0.002618568 -0.22753188
0.021671059 0.0026983554 -0.227524
0.021673378 0.0027759704 -0.22750816
0.021675969 0.0028556704 -0.22749628
0.021678872 0.0029335471 -0.22749244
0.021681949 0.0030134653 -0.22749054
0.021685418 0.0030935579 -0.22749662
0.021688713 0.0031716092 -0.22750077
0.021691985 0.0032516147 -0.22750288
0.021694986 0.003329535 -0.22750103
0.021697968 0.0034094099 -0.22749713
0.021700656 0.0034891535 -0.22748725
0.021703364 0.0035669429 -0.22747941
0.02170654 0.0036469046 -0.22747952
0.021709833 0.003724956 -0.22748366
0.021712815 0.0038048306 -0.22747976
0.0217156 0.0038846179 -0.22747187
0.021718992 0.0039627128 -0.22747801
0.021722265 0.0040427186 -0.22748011
0.021725072 0.004120551 -0.22747427
0.02172854 0.0042006443 -0.22748035
0.021731716 0.0042806063 -0.22748047
0.021734424 0.0043583955 -0.22747262
0.021737427 0.004436316 -0.22747077
0.021740407 0.0045161908 -0.22746688
0.021743484 0.0045961086 -0.22746497
0.021746758 0.0046761143 -0.22746709
0.021749564 0.0047539473 -0.22746123
0.021752566 0.0048318673 -0.22745939
0.021755742 0.0049118297 -0.22745949
0.021758722 0.0049917041 -0.22745559
0.021761723 0.0050696246 -0.22745374
0.021764997 0.0051496299 -0.22745585
0.021767998 0.0052275504 -0.22745401
0.021770783 0.0053073377 -0.22744611
0.021773765 0.0053872121 -0.22744222
0.021776669 0.0054650889 -0.22743839
0.021779845 0.0055450508 -0.22743848
0.021782652 0.0056228838 -0.22743264
0.021785144 0.0057025407 -0.22741875
0.021788046 0.0057804175 -0.22741491
0.021791905 0.0058606844 -0.227429
0.021795668 0.0059409081 -0.22744107
0.021799039 0.0060209571 -0.22744517
0.021802137 0.0060989214 -0.2274453
0.021805312 0.0061788829 -0.22744542
0.021808391 0.0062588016 -0.22744352
0.021811295 0.0063366778 -0.22743967
0.021814179 0.0064165089 -0.22743377
0.021816984 0.0064943423 -0.22742794
0.02181977 0.0065741292 -0.22742006
0.021822652 0.0066539608 -0.22741416
0.021825654 0.0067318808 -0.22741231
0.021828851 0.0068098879 -0.22741446
0.021832123 0.0068898937 -0.22741655
0.021835299 0.0069698561 -0.22741666
0.021838475 0.0070498176 -0.22741675
0.021841379 0.0071276948 -0.22741291
0.021844262 0.0072075254 -0.22740704
0.02184736 0.0072854888 -0.22740717
0.021850342 0.0073653641 -0.22740328
0.021853322 0.0074452385 -0.22739938
0.021856714 0.0075233337 -0.22740553
0.021859989 0.0076033389 -0.22740763
0.021862969 0.0076832138 -0.22740373
0.021865774 0.0077610472 -0.22739789
0.021868657 0.0078408774 -0.227392
0.021871561 0.0079187546 -0.22738814
0.021874933 0.0079988036 -0.22739226
0.021878108 0.0080787651 -0.22739235
0.02188072 0.008156511 -0.22738251
0.021883408 0.0082362546 -0.22737263
0.021886408 0.0083141755 -0.22737078
0.021889584 0.008394137 -0.22737089
0.021892956 0.0084741861 -0.22737497
0.021896152 0.0085521936 -0.22737712
0.021899035 0.0086320248 -0.22737123
0.02190184 0.0087098572 -0.22736539
0.021904919 0.0087897759 -0.2273635
0.021908192 0.0088697812 -0.22736558
0.021911388 0.0089477887 -0.22736773
0.021914564 0.0090277512 -0.22736785
0.021917839 0.0091077564 -0.22736993
0.021921502 0.0091879368 -0.22738002
0.021924872 0.0092679858 -0.22738412
0.021927191 0.0093456004 -0.22736828
0.021929218 0.0094230846 -0.22734646
0.021932002 0.0095028719 -0.22733858
0.021935198 0.0095808795 -0.22734073
0.021938765 0.009661017 -0.22734882
0.021942234 0.0097411089 -0.22735491
0.021945801 0.0098212454 -0.22736299
0.021949366 0.009901382 -0.2273711
0.021951977 0.009979127 -0.22736126
0.021954276 0.010058697 -0.22734338
0.021956984 0.010136485 -0.22733554
0.021960355 0.010216535 -0.22733963
0.021963453 0.0102945 -0.22733977
0.021966532 0.010374418 -0.2273379
0.021969903 0.010454467 -0.22734198
0.021972904 0.010532387 -0.22734013
0.021975983 0.010612305 -0.22733822
0.021979157 0.010692267 -0.22733834
0.021982724 0.010772403 -0.22734642
0.021985997 0.01085241 -0.22734852
0.021989096 0.010930372 -0.22734867
0.021991882 0.011010161 -0.22734079
0.0219942 0.011087776 -0.22732496
0.021996811 0.01116552 -0.22731511
0.022000376 0.011245657 -0.2273232
0.022003651 0.011325663 -0.22732532
0.022006728 0.011405581 -0.22732341
0.022010198 0.011485673 -0.22732951
0.022013567 0.011565723 -0.22733361
0.022017134 0.01164586 -0.22734168
0.022019355 0.011723431 -0.22732386
0.022021577 0.011801002 -0.22730604
0.022025434 0.01188127 -0.22732012
0.022029098 0.01196145 -0.22733021
0.022032177 0.012041368 -0.22732832
0.022035256 0.012121286 -0.22732642
0.022038333 0.012201205 -0.22732452
0.022041237 0.012279081 -0.22732067
0.022044413 0.012359043 -0.22732078
0.022047492 0.012438962 -0.22731888
0.022050297 0.012516794 -0.22731304
0.022052985 0.012596538 -0.22730315
0.022056475 0.012674677 -0.22731128
0.022059845 0.012754725 -0.22731538
0.022062631 0.012834513 -0.2273075
0.022065729 0.012912477 -0.22730765
0.022069179 0.012994524 -0.2273117
0.022072472 0.013072575 -0.22731583
0.022075355 0.013152406 -0.22730994
0.022078063 0.013230195 -0.2273021
0.022080947 0.013310026 -0.2272962
0.022084318 0.013390075 -0.2273003
0.022087494 0.013470037 -0.22730041
0.022090299 0.013547871 -0.22729456
0.022093086 0.013627658 -0.22728668
0.022096282 0.013705666 -0.22728883
0.022099826 0.013787757 -0.22729486
0.022102829 0.013865677 -0.22729301
0.022106102 0.013945682 -0.22729512
0.022109374 0.014025688 -0.22729722
0.022112453 0.014105606 -0.22729532
0.022115454 0.014183526 -0.22729348
0.022118533 0.014263444 -0.22729158
0.022121437 0.014341321 -0.22728774
0.022124125 0.014421064 -0.22727785
0.022126637 0.014498767 -0.22726601
0.022129716 0.014578686 -0.22726412
0.022133088 0.014658734 -0.22726822
0.022136457 0.014738783 -0.2272723
0.022139244 0.014818572 -0.22726442
0.022142051 0.014896404 -0.22725856
0.022145323 0.01497641 -0.22726068
0.022148598 0.015056415 -0.22726277
0.022151696 0.015134379 -0.22726291
0.022155046 0.015216382 -0.22726497
0.022158047 0.015294302 -0.22726312
0.022160735 0.015374047 -0.22725323
0.022163542 0.01545188 -0.2272474
0.022166718 0.015531842 -0.22724749
0.022170186 0.015611934 -0.22725359
0.022173461 0.01569194 -0.22725569
0.022176441 0.015771814 -0.2272518
0.022179518 0.015851732 -0.22724989
0.02218252 0.015929652 -0.22724804
0.022185206 0.016009398 -0.22723816
0.022187917 0.016087186 -0.22723033
0.022190996 0.016167104 -0.22722843
0.022194268 0.01624711 -0.22723052
0.022197269 0.01632503 -0.22722867
0.022200445 0.016404992 -0.22722878
0.022203717 0.016484998 -0.22723088
0.022206895 0.01656496 -0.22723098
0.022210069 0.016644921 -0.22723109
0.022213344 0.016724927 -0.22723317
0.022216519 0.016804889 -0.22723328
0.02221952 0.016882809 -0.22723143
0.02222221 0.016962552 -0.22722155
0.022224722 0.017040255 -0.22720972
0.022227801 0.017120173 -0.22720781
0.022230607 0.017198008 -0.22720197
0.022232827 0.017275577 -0.22718415
0.022235418 0.017355278 -0.22717227
0.022238985 0.017435415 -0.22718036
0.022243213 0.017517811 -0.22720037
0.022246778 0.017597947 -0.22720847
0.022249857 0.017677866 -0.22720656
0.022252837 0.01775774 -0.22720268
0.022255741 0.017835617 -0.22719884
0.022257961 0.017913189 -0.22718102
0.022259891 0.017990628 -0.22715721
0.022262892 0.018068548 -0.22715534
0.02226634 0.018150594 -0.22715938
0.022269808 0.01823069 -0.22716549
0.022273082 0.018310694 -0.22716758
0.022275496 0.018388351 -0.22715375
0.022278303 0.018466184 -0.22714791
0.022282239 0.018548451 -0.22716194
0.02228561 0.018628499 -0.22716603
0.022288298 0.018708242 -0.22715616
0.02229091 0.018785991 -0.22714631
0.022294182 0.018865995 -0.22714841
0.022297554 0.018946044 -0.2271525
0.022301022 0.019026138 -0.22715861
0.022303807 0.019105924 -0.22715071
0.022306517 0.019183714 -0.22714287
0.022309985 0.019263806 -0.22714897
0.022313531 0.019345896 -0.22715501
0.022316629 0.019423863 -0.22715515
0.022319611 0.019503735 -0.22715127
0.022322785 0.019583698 -0.22715136
0.022325668 0.019663529 -0.22714546
0.022328377 0.019741319 -0.22713763
0.022330988 0.019819064 -0.22712779
0.022334339 0.019901067 -0.22712985
0.0223381 0.019981293 -0.22714193
0.022341471 0.02006134 -0.22714603
0.022344451 0.020141214 -0.22714214
0.022347432 0.02022109 -0.22713824
0.022350609 0.020301051 -0.22713834
0.022353707 0.020379014 -0.22713849
0.022356395 0.020458758 -0.22712861
0.022359103 0.020536549 -0.22712076
0.022362281 0.020616513 -0.22712088
0.02236565 0.02069656 -0.22712496
0.022368632 0.020776434 -0.22712108
0.022371437 0.020854268 -0.22711524
0.022374222 0.020934055 -0.22710735
0.022377204 0.021013929 -0.22710344
0.022380672 0.02109402 -0.22710955
0.022383848 0.021173986 -0.22710964
0.022386927 0.021253902 -0.22710773
0.022390004 0.021333821 -0.22710586
0.022392713 0.021411611 -0.22709802
0.022395791 0.021491528 -0.22709611
0.022398967 0.021571489 -0.22709621
0.022402436 0.021651583 -0.22710231
0.022405786 0.021733586 -0.22710437
0.022408396 0.021811333 -0.22709452
0.022410715 0.021888947 -0.22707869
0.022413425 0.021966737 -0.22707085
0.022416795 0.022046786 -0.22707495
0.022420339 0.022128876 -0.227081
0.022423614 0.022208881 -0.22708309
0.022426985 0.02228893 -0.22708718
0.022429965 0.022368805 -0.2270833
0.022432772 0.02244664 -0.22707745
0.022435851 0.022526558 -0.22707556
0.022438928 0.022606473 -0.22707367
0.022442104 0.022686437 -0.22707376
0.022445183 0.022766355 -0.22707185
0.022447892 0.022844145 -0.22706401
0.022450579 0.022923889 -0.22705415
0.022453483 0.023001764 -0.22705029
0.022456756 0.02308177 -0.22705239
0.022460302 0.023163861 -0.22705844
0.022463478 0.023243822 -0.22705854
0.02246638 0.023321699 -0.22705469
0.022469655 0.023401706 -0.22705679
0.022473006 0.023483709 -0.22705883
0.022475811 0.023561543 -0.22705299
0.022479085 0.023641549 -0.2270551
0.022482261 0.023721509 -0.22705519
0.022484949 0.023801252 -0.22704533
0.022487657 0.023879042 -0.22703746
0.022490637 0.023958918 -0.22703359
0.022493249 0.024036665 -0.22702375
0.022495957 0.024114452 -0.22701591
0.02249923 0.024194458 -0.227018
0.022502679 0.024276506 -0.22702205
0.022505855 0.024356466 -0.22702214
0.022508759 0.024434343 -0.2270183
0.022511914 0.02451626 -0.22701636
0.022515284 0.024596307 -0.22702044
0.02251846 0.024676273 -0.22702056
0.022521734 0.024756279 -0.22702265
0.022525007 0.024836281 -0.22702476
0.02252752 0.024913983 -0.22701292
0.022530306 0.024993772 -0.22700503
0.022533579 0.025073778 -0.22700712
0.022536853 0.025153782 -0.22700922
0.02253993 0.025233701 -0.22700733
0.022542913 0.025313577 -0.22700343
0.022545524 0.025391322 -0.22699359
0.022548232 0.025469109 -0.22698575
0.022551408 0.025549073 -0.22698587
0.022554778 0.025629122 -0.22698995
0.022558888 0.025713429 -0.22700593
0.022562357 0.025793521 -0.22701204
0.022564676 0.025871135 -0.22699621
0.022567559 0.025950968 -0.22699031
0.022571124 0.026031105 -0.22699839
0.022574008 0.026110936 -0.22699252
0.022576619 0.026188681 -0.22698268
0.022579502 0.02626851 -0.22697678
0.022582775 0.026348516 -0.22697888
0.022586245 0.02642861 -0.22698498
0.022589419 0.026508572 -0.22698508
0.022592597 0.026588535 -0.22698517
0.022595577 0.026668409 -0.22698128
0.02259809 0.026746109 -0.22696945
0.022600701 0.026823856 -0.22695962
0.022603953 0.026905816 -0.22695968
0.022607422 0.026985908 -0.22696576
0.022610404 0.027065782 -0.22696187
0.022612819 0.027143443 -0.22694804
0.020222044 -0.023577102 -0.22821116
0.020224907 -0.023495315 -0.22820321
0.020227594 -0.023415569 -0.22819334
0.020230457 -0.023333784 -0.22818539
0.020233341 -0.023253955 -0.22817951
0.02023642 -0.023174036 -0.22817761
0.020238774 -0.023090513 -0.22815765
0.020241149 -0.023008946 -0.22813973
0.020244541 -0.022930851 -0.22814587
0.020248441 -0.022854494 -0.22816403
0.020252027 -0.022776311 -0.22817418
0.020254675 -0.02269266 -0.2281602
0.020257168 -0.022613002 -0.22814631
0.020260658 -0.022534864 -0.22815445
0.020264516 -0.022454597 -0.22816855
0.020267811 -0.022376547 -0.22817267
0.020270791 -0.022296671 -0.22816879
0.020273168 -0.022215106 -0.22815087
0.02027644 -0.022135099 -0.22815296
0.020279929 -0.02205696 -0.2281611
0.020282695 -0.021975219 -0.22815117
0.020285461 -0.021893477 -0.22814123
0.020288344 -0.021813646 -0.22813535
0.020291228 -0.021733813 -0.22812946
0.020294188 -0.021651985 -0.22812352
0.020296875 -0.021572242 -0.22811362
0.02030015 -0.021492235 -0.22811574
0.020303641 -0.021414097 -0.22812387
0.020306913 -0.021334093 -0.22812596
0.020309698 -0.021254305 -0.22811809
0.020313071 -0.021174256 -0.22812217
0.020316657 -0.021096073 -0.22813231
0.02031954 -0.021016244 -0.22812642
0.020322306 -0.0209345 -0.22811648
0.020325189 -0.020854671 -0.22811058
0.020328073 -0.020774839 -0.22810471
0.020331131 -0.020692967 -0.22810078
0.02033421 -0.020613048 -0.22809887
0.020337308 -0.020535085 -0.22809902
0.020340484 -0.020455122 -0.22809912
0.020343348 -0.020373339 -0.22809118
0.020346232 -0.020293506 -0.22808528
0.020349309 -0.020213589 -0.2280834
0.020352799 -0.020135451 -0.22809154
0.020356191 -0.020057356 -0.22809768
0.020359464 -0.01997735 -0.22809976
0.020362329 -0.019895565 -0.22809184
0.020364605 -0.019814041 -0.22807191
0.020367488 -0.019734209 -0.22806603
0.020371173 -0.019655984 -0.22807816
0.02037476 -0.019577801 -0.22808829
0.020378131 -0.019497752 -0.22809239
0.020381035 -0.019419877 -0.22808854
0.020383507 -0.019338265 -0.22807261
0.020386273 -0.019256523 -0.22806269
0.020389762 -0.019178385 -0.22807083
0.020393133 -0.019098338 -0.22807491
0.020396329 -0.019020328 -0.22807705
0.020399917 -0.018942147 -0.22808719
0.020403288 -0.018862097 -0.2280913
0.020406172 -0.018782265 -0.2280854
0.020408938 -0.018700525 -0.22807546
0.020411626 -0.018620782 -0.22806558
0.020414606 -0.018540908 -0.22806168
0.020417979 -0.018460859 -0.22806579
0.020421175 -0.018382849 -0.22806793
0.020424232 -0.018300977 -0.228064
0.020427018 -0.018221188 -0.2280561
0.020429805 -0.018141402 -0.22804821
0.020432884 -0.018061485 -0.22804631
0.020436255 -0.017981436 -0.22805041
0.020439334 -0.017901517 -0.22804852
0.020442432 -0.017823553 -0.22804867
0.020445706 -0.017743547 -0.22805077
0.020448687 -0.017663673 -0.22804686
0.020451669 -0.017583797 -0.22804299
0.02045504 -0.01750375 -0.22804707
0.020458236 -0.017425742 -0.22804922
0.020461608 -0.017345693 -0.22805332
0.020464588 -0.017265817 -0.22804943
0.020467276 -0.017186075 -0.22803953
0.020470433 -0.017104158 -0.2280376
0.020474039 -0.017027929 -0.22804977
0.020478018 -0.016949574 -0.2280679
0.020481193 -0.01686961 -0.22806799
0.020483881 -0.016789868 -0.22805811
0.020486861 -0.016709993 -0.22805421
0.020489844 -0.016630119 -0.22805032
0.020492531 -0.016550375 -0.22804043
0.02049559 -0.016468503 -0.22803649
0.020498885 -0.01639045 -0.22804064
0.020502254 -0.016310401 -0.22804473
0.020505257 -0.016232481 -0.22804289
0.020508433 -0.01615252 -0.22804299
0.020511415 -0.016072644 -0.22803909
0.0205142 -0.015992858 -0.22803122
0.020516869 -0.01591116 -0.22801927
0.020519752 -0.015831329 -0.2280134
0.020523142 -0.015753234 -0.22801954
0.020526513 -0.015673183 -0.22802362
0.020529008 -0.015593527 -0.22800975
0.020531891 -0.015513698 -0.22800386
0.020535478 -0.015435516 -0.22801399
0.020538654 -0.015355553 -0.22801408
0.020541225 -0.0152739 -0.22800016
0.020544108 -0.015194069 -0.22799426
0.0205475 -0.015115972 -0.2280004
0.020550676 -0.015036009 -0.22800052
0.020553755 -0.014956092 -0.22799861
0.02055705 -0.014878042 -0.22800276
0.020560225 -0.01479808 -0.22800288
0.020562893 -0.014716382 -0.22799093
0.020565776 -0.014636551 -0.22798504
0.020568777 -0.014558629 -0.22798319
0.020571856 -0.01447871 -0.2279813
0.020574935 -0.014398794 -0.22797939
0.020578306 -0.014318744 -0.2279835
0.020581599 -0.014240693 -0.22798763
0.020584483 -0.014160864 -0.22798175
0.020587249 -0.014079121 -0.22797182
0.020589937 -0.013999376 -0.22796193
0.020593114 -0.013919417 -0.22796202
0.020596214 -0.013841451 -0.22796218
0.020598998 -0.013761663 -0.2279543
0.020602077 -0.013681744 -0.22795239
0.020605762 -0.013603521 -0.22796452
0.020609133 -0.013523472 -0.22796862
0.020611821 -0.013443727 -0.22795874
0.020614509 -0.013363985 -0.22794884
0.020617295 -0.013284196 -0.22794098
0.020620374 -0.013204277 -0.22793907
0.02062355 -0.013124315 -0.22793917
0.020626649 -0.013046352 -0.22793932
0.020629825 -0.012966391 -0.22793941
0.02063271 -0.01288656 -0.22793353
0.020635691 -0.012806684 -0.22792964
0.020638768 -0.012726766 -0.22792774
0.02064177 -0.012648846 -0.2279259
0.020644946 -0.012568885 -0.22792599
0.020648317 -0.012488835 -0.2279301
0.020651709 -0.012410739 -0.22793622
0.020654885 -0.012330778 -0.22793633
0.020657768 -0.012250947 -0.22793043
0.020660479 -0.012173158 -0.22792259
0.020663438 -0.012091329 -0.22791666
0.020666342 -0.012013452 -0.22791281
0.020669518 -0.011933491 -0.22791292
0.020672597 -0.011853572 -0.22791103
0.020675577 -0.011773697 -0.22790712
0.020678559 -0.011693823 -0.22790323
0.020681659 -0.011615858 -0.22790338
0.020684542 -0.011536028 -0.2278975
0.020687522 -0.011456153 -0.22789359
0.020690817 -0.011378101 -0.22789773
0.02069409 -0.011298097 -0.22789982
0.020696877 -0.011218309 -0.22789195
0.020699564 -0.011138566 -0.22788206
0.020702839 -0.011058561 -0.22788416
0.020706328 -0.010980422 -0.22789229
0.020709503 -0.01090046 -0.2278924
0.02071229 -0.010820672 -0.22788452
0.02071498 -0.010740928 -0.22787464
0.020717863 -0.010661097 -0.22786874
0.020721449 -0.010582916 -0.22787887
0.020724919 -0.010502824 -0.22788496
0.020727919 -0.010424903 -0.22788312
0.020730607 -0.010345158 -0.22787324
0.020733198 -0.010265458 -0.22786134
0.020736473 -0.010185453 -0.22786345
0.020739669 -0.010107446 -0.22786559
0.020742455 -0.010027658 -0.22785771
0.020745339 -0.0099478271 -0.22785181
0.020748612 -0.0098678209 -0.22785392
0.020751614 -0.0097899009 -0.22785208
0.020754594 -0.0097100269 -0.22784817
0.020757381 -0.0096302396 -0.22784027
0.020760264 -0.0095504085 -0.22783439
0.020763636 -0.0094703585 -0.22783849
0.020767124 -0.0093922215 -0.22784662
0.020770203 -0.0093123019 -0.22784473
0.020772815 -0.009234556 -0.22783488
0.020776089 -0.0091545507 -0.227837
0.020779461 -0.0090745026 -0.22784108
0.020782461 -0.0089965817 -0.22783923
0.020785248 -0.0089167934 -0.22783135
0.020788521 -0.0088367891 -0.22783345
0.020792011 -0.0087586502 -0.22784159
0.020794895 -0.00867882 -0.22783569
0.020798068 -0.0085988585 -0.22783579
0.020800974 -0.0085209813 -0.22783196
0.020804051 -0.0084410626 -0.22783005
0.020807326 -0.0083610574 -0.22783215
0.020810619 -0.008283006 -0.2278363
0.020813601 -0.0082031311 -0.22783241
0.020816095 -0.0081234742 -0.22781852
0.020818882 -0.0080436878 -0.22781064
0.020822251 -0.0079636388 -0.22781473
0.02082574 -0.0078854999 -0.22782287
0.020829035 -0.0078074485 -0.22782701
0.020832602 -0.0077273129 -0.2278351
0.020835994 -0.0076492177 -0.22784124
0.020838877 -0.0075693871 -0.22783536
0.020841761 -0.0074895555 -0.22782946
0.020844959 -0.0074115475 -0.2278316
0.020847939 -0.0073316731 -0.2278277
0.020850725 -0.0072518867 -0.22781982
0.020853706 -0.0071720118 -0.22781593
0.020857194 -0.0070938724 -0.22782406
0.020860586 -0.0070157787 -0.2278302
0.020863665 -0.00693586 -0.22782829
0.020866841 -0.0068558976 -0.22782841
0.020869821 -0.0067760237 -0.22782451
0.020873312 -0.0066978857 -0.22783265
0.020876704 -0.0066197901 -0.22783878
0.020879392 -0.0065400461 -0.2278289
0.020881787 -0.0064604338 -0.22781304
0.02088467 -0.0063806032 -0.22780713
0.020888062 -0.0063025076 -0.22781327
0.020891726 -0.0062223282 -0.22782338
0.020894609 -0.0061424971 -0.22781748
0.020896832 -0.0060649249 -0.22779965
0.020899598 -0.0059831832 -0.22778971
0.020902988 -0.0059050894 -0.22779587
0.020906966 -0.0058267331 -0.22781399
0.020909362 -0.005747119 -0.2277981
0.020911366 -0.0056676809 -0.22777423
0.02091464 -0.0055876761 -0.22777635
0.020918813 -0.0055092322 -0.22779846
0.0209224 -0.0054310495 -0.22780859
0.020925576 -0.005351088 -0.22780868
0.020928577 -0.005273168 -0.22780684
0.02093146 -0.0051933369 -0.22780095
0.020933954 -0.0051136799 -0.22778708
0.020936253 -0.005034111 -0.2277692
0.020939136 -0.0049542803 -0.22776331
0.02094282 -0.0048760539 -0.22777544
0.02094668 -0.0047957869 -0.22778952
0.020949975 -0.004717736 -0.22779366
0.020953052 -0.0046378174 -0.22779176
0.020955935 -0.0045579867 -0.22778589
0.020959035 -0.0044800229 -0.22778603
0.02096221 -0.004400061 -0.22778612
0.020964704 -0.004320404 -0.22777225
0.020966828 -0.0042428761 -0.22775243
0.020970102 -0.0041628713 -0.22775453
0.020973884 -0.004084602 -0.22776866
0.020977352 -0.0040045092 -0.22777474
0.020981036 -0.0039262837 -0.22778687
0.020984408 -0.0038462342 -0.22779097
0.020987507 -0.0037682704 -0.22779113
0.020990098 -0.0036885703 -0.22777924
0.020992592 -0.0036089139 -0.22776535
0.020995475 -0.0035290825 -0.22775947
0.020998379 -0.0034512056 -0.22775562
0.021001458 -0.0033712878 -0.22775373
0.021004634 -0.0032913261 -0.22775382
0.021007733 -0.0032133621 -0.22775397
0.021010909 -0.0031334001 -0.22775407
0.021013912 -0.0030554796 -0.22775222
0.021016598 -0.002975736 -0.22774234
0.021019677 -0.0028958183 -0.22774044
0.021022853 -0.0028158559 -0.22774056
0.021025758 -0.0027379792 -0.22773671
0.021028642 -0.0026581483 -0.22773081
0.021031037 -0.0025785354 -0.22771493
0.021033453 -0.002500877 -0.2277011
0.021036923 -0.002420784 -0.22770719
0.021040607 -0.0023425587 -0.22771932
0.02104388 -0.0022625532 -0.22772142
0.021046763 -0.0021827219 -0.22771552
0.02104957 -0.0021048889 -0.2277097
0.021053039 -0.0020247963 -0.22771579
0.021056334 -0.0019467447 -0.22771993
0.021059509 -0.001866783 -0.22772002
0.021062609 -0.0017888194 -0.22772017
0.021065589 -0.0017089448 -0.22771628
0.02106818 -0.0016292445 -0.22770441
0.021070771 -0.0015495443 -0.22769251
0.021073774 -0.0014716242 -0.22769067
0.021077435 -0.0013914441 -0.22770076
0.021080634 -0.0013134365 -0.2277029
0.021083713 -0.0012335181 -0.22770101
0.021086713 -0.0011555981 -0.22769916
0.021089792 -0.0010756799 -0.22769725
0.021092676 -0.00099584879 -0.22769138
0.021095676 -0.00091792853 -0.22768952
0.021098951 -0.00083792279 -0.22769162
0.021101855 -0.0007600463 -0.22768778
0.021104934 -0.00068012811 -0.22768587
0.021108013 -0.00060020969 -0.22768399
0.021110818 -0.00052237674 -0.22767815
0.021113897 -0.00044245832 -0.22767624
0.021117192 -0.00036440743 -0.22768039
0.02111988 -0.00028466387 -0.22767049
0.021122567 -0.00020491984 -0.22766063
0.021125667 -0.0001269558 -0.22766076
0.021129038 -4.690676e-05 -0.22766486
0.021132234 3.1100819e-05 -0.227667
0.021135118 0.00011093169 -0.2276611
0.021138197 0.00019084988 -0.22765921
0.021141004 0.00026868307 -0.22765338
0.021143887 0.00034851406 -0.22764748
0.021146987 0.0004264781 -0.22764763
0.021150162 0.00050643994 -0.22764774
0.021153046 0.00058627094 -0.22764185
0.021156244 0.00066427852 -0.227644
0.021159906 0.00074445852 -0.22765407
0.021162812 0.00082233513 -0.22765023
0.021165986 0.00090229698 -0.22765033
0.021168968 0.00098217174 -0.22764644
0.02117119 0.001059743 -0.22762862
0.021173974 0.0011395304 -0.22762072
0.02117715 0.0012194922 -0.22762083
0.02117986 0.0012972816 -0.22761297
0.021183036 0.0013772433 -0.22761309
0.021186331 0.0014552948 -0.22761723
0.021189312 0.0015351692 -0.22761333
0.02119239 0.0016150875 -0.22761144
0.021195196 0.0016929205 -0.2276056
0.021198373 0.0017728824 -0.2276057
0.021202058 0.001851108 -0.22761783
0.021205233 0.0019310699 -0.22761792
0.021208312 0.0020109881 -0.22761603
0.021210825 0.0020886904 -0.2276042
0.021213612 0.0021684777 -0.22759631
0.021217296 0.0022467035 -0.22760844
0.021220472 0.0023266652 -0.22760853
0.021222401 0.0024041058 -0.22758472
0.021225089 0.0024838494 -0.22757484
0.021228168 0.0025637678 -0.22757295
0.021231169 0.0026416881 -0.2275711
0.02123454 0.0027217371 -0.22757518
0.02123764 0.0027997012 -0.22757533
0.021240816 0.0028796629 -0.22757544
0.021243894 0.0029595811 -0.22757354
0.021246506 0.003037327 -0.22756371
0.021249682 0.0031172889 -0.2275638
0.021252977 0.00319534 -0.22756794
0.021256056 0.0032752585 -0.22756606
0.021259328 0.003355264 -0.22756815
0.021262527 0.0034332713 -0.2275703
0.02126541 0.0035131024 -0.22756439
0.021268312 0.0035909789 -0.22756055
0.02127149 0.0036709411 -0.22756067
0.021274861 0.0037509901 -0.22756475
0.021277862 0.0038289104 -0.2275629
0.021280941 0.0039088288 -0.22756101
0.02128402 0.003988747 -0.22755912
0.021286435 0.0040664054 -0.22754529
0.021289123 0.0041461494 -0.2275354
0.021292614 0.0042242873 -0.22754353
0.021296082 0.0043043802 -0.22754964
0.021299258 0.0043843426 -0.22754973
0.02130265 0.0044624368 -0.22755587
0.021305729 0.004542355 -0.22755398
0.021308925 0.004620363 -0.22755612
0.021311808 0.0047001936 -0.22755024
0.021314399 0.0047798939 -0.22753835
0.021317011 0.0048576398 -0.22752851
0.021319602 0.0049373396 -0.22751662
0.021322407 0.005015173 -0.22751078
0.021326073 0.0050953529 -0.22752087
0.021329833 0.0051755765 -0.22753295
0.021332933 0.0052535404 -0.2275331
0.021335816 0.0053333715 -0.2275272
0.021338232 0.0054110298 -0.22751337
0.021341115 0.0054908609 -0.2275075
0.021344878 0.005571085 -0.22751957
0.021348463 0.0056492668 -0.2275297
0.021351445 0.0057291412 -0.22752582
0.021354232 0.0058089285 -0.22751793
0.021356843 0.0058866744 -0.2275081
0.021359824 0.0059665488 -0.22750419
0.021362923 0.0060445131 -0.22750434
0.021365806 0.0061243437 -0.22749846
0.021368612 0.0062021771 -0.22749262
0.021371691 0.0062820949 -0.22749072
0.021374866 0.0063620573 -0.22749081
0.021377966 0.0064400211 -0.22749096
0.021380948 0.006519896 -0.22748707
0.021383559 0.0065976419 -0.22747724
0.021387126 0.006677778 -0.22748533
0.021390496 0.0067578265 -0.22748941
0.0213934 0.0068357037 -0.22748557
0.021396577 0.0069156657 -0.22748567
0.021399461 0.0069954963 -0.22747979
0.021401877 0.0070731547 -0.22746596
0.021404857 0.0071530296 -0.22746205
0.021408152 0.0072310809 -0.2274662
0.021411132 0.0073109553 -0.22746231
0.021414211 0.0073908735 -0.22746041
0.021417778 0.0074710101 -0.22746849
0.021421365 0.0075491918 -0.22747862
0.021425322 0.007629503 -0.22749472
0.021428986 0.0077096829 -0.2275048
0.021431109 0.0077872109 -0.22748497
0.021433407 0.0078667803 -0.2274671
0.021436214 0.0079446128 -0.22746125
0.021439292 0.0080245314 -0.22745937
0.021442274 0.0081044054 -0.22745547
0.021445177 0.0081822826 -0.22745162
0.021448061 0.0082621137 -0.22744574
0.021450866 0.0083399471 -0.2274399
0.021454044 0.0084199086 -0.22744
0.021457903 0.0085001756 -0.22745408
0.021461565 0.0085803559 -0.22746417
0.021464547 0.0086602299 -0.22746027
0.021467159 0.0087379757 -0.22745043
0.021470238 0.0088178944 -0.22744852
0.021473803 0.008898031 -0.22745663
0.021476999 0.0089760385 -0.22745878
0.021479592 0.0090557383 -0.22744688
0.021481909 0.0091333538 -0.22743106
0.021485379 0.0092134457 -0.22743715
0.021488847 0.0092935385 -0.22744325
0.021491654 0.0093713719 -0.22743741
0.021494245 0.0094510717 -0.22742552
0.021496661 0.0095287301 -0.22741169
0.021499936 0.0096087363 -0.22741379
0.021504086 0.0096891336 -0.22743386
0.021507945 0.0097694015 -0.22744794
0.021510437 0.0098490585 -0.22743407
0.021512659 0.0099266302 -0.22741625
0.021515662 0.01000455 -0.2274144
0.021519031 0.010084599 -0.22741848
0.021522306 0.010164604 -0.22742058
0.021525385 0.010244522 -0.22741869
0.021528581 0.010322531 -0.22742084
0.021531856 0.010402536 -0.22742292
0.021534935 0.010482453 -0.22742103
0.021538207 0.01056246 -0.22742313
0.021541579 0.010642509 -0.22742721
0.021544579 0.010720429 -0.22742537
0.02154766 0.010800347 -0.22742347
0.021550369 0.010878136 -0.22741564
0.021552784 0.010955795 -0.22740181
0.021555766 0.011035669 -0.22739792
0.021559235 0.011115763 -0.227404
0.021562703 0.011195855 -0.22741011
0.021566367 0.011276035 -0.22742018
0.021569639 0.011356041 -0.2274223
0.021571958 0.011433655 -0.22740646
0.021574473 0.011511358 -0.22739461
0.021577844 0.011591407 -0.22739872
0.021581313 0.0116715 -0.2274048
0.021584 0.011751243 -0.22739492
0.021586711 0.011829032 -0.22738709
0.02158979 0.01190895 -0.22738519
0.021593161 0.011989 -0.22738928
0.021596629 0.012069093 -0.22739537
0.021599904 0.012149098 -0.22739747
0.021602904 0.012227018 -0.22739562
0.021605788 0.01230685 -0.22738972
0.021608595 0.012384683 -0.22738388
0.021611379 0.012464469 -0.22737601
0.02161409 0.01254226 -0.22736816
0.021617362 0.012622265 -0.22737026
0.021620538 0.012702227 -0.22737035
0.021623716 0.012782189 -0.22737047
0.021626892 0.012862151 -0.22737056
0.021629989 0.012940114 -0.22737071
0.021633167 0.013020076 -0.22737081
0.021636147 0.013099952 -0.22736692
0.021638855 0.01317774 -0.22735909
0.021641448 0.01325744 -0.2273472
0.021644253 0.013335275 -0.22734135
0.021647722 0.013415366 -0.22734745
0.021651387 0.013495547 -0.22735754
0.021654759 0.013575595 -0.22736162
0.021657642 0.013655427 -0.22735575
0.021660253 0.013733172 -0.2273459
0.021663429 0.013813133 -0.227346
0.021666801 0.013893183 -0.22735009
0.021670073 0.01397319 -0.2273522
0.021673249 0.014053151 -0.22735229
0.021676719 0.014133243 -0.2273584
0.021679524 0.014211076 -0.22735254
0.021681942 0.014288736 -0.22733872
0.021684727 0.014368522 -0.22733083
0.021687437 0.014446313 -0.227323
0.021690613 0.014526274 -0.22732309
0.021693885 0.014606278 -0.22732519
0.021696769 0.014686109 -0.2273193
0.021700336 0.014766246 -0.22732738
0.021703806 0.01484634 -0.22733347
0.021706318 0.014924041 -0.22732164
0.021709105 0.015003828 -0.22731376
0.021712106 0.01508175 -0.22731191
0.021714989 0.01516158 -0.22730601
0.021717872 0.015241411 -0.22730014
0.021721439 0.015321547 -0.22730821
0.021725103 0.015401728 -0.2273183
0.021727715 0.015479473 -0.22730847
0.021730402 0.015559217 -0.22729859
0.021733481 0.015639136 -0.22729668
0.021736581 0.015717098 -0.22729683
0.021739757 0.015797062 -0.22729693
0.021742543 0.015876848 -0.22728905
0.021745447 0.015954725 -0.22728519
0.02174872 0.01603473 -0.22728729
0.021751799 0.016114648 -0.2272854
0.021754779 0.016194522 -0.22728151
0.021757489 0.016272314 -0.22727367
0.021760665 0.016352274 -0.22727376
0.021764133 0.016432367 -0.22727987
0.021767212 0.016512286 -0.22727796
0.021769727 0.016589988 -0.22726613
0.021772239 0.01666769 -0.2272543
0.021775318 0.016747609 -0.22725239
0.02177869 0.016827658 -0.22725651
0.021782257 0.016907794 -0.22726458
0.021785704 0.01698984 -0.22726864
0.021788608 0.017067717 -0.22726479
0.021791298 0.017147463 -0.2272549
0.021794202 0.017225338 -0.22725105
0.021797571 0.017305387 -0.22725515
0.021800846 0.017385393 -0.22725725
0.021803632 0.01746518 -0.22724935
0.021806145 0.017542882 -0.22723752
0.021809321 0.017622843 -0.22723764
0.021812692 0.017702892 -0.22724172
0.02181587 0.017782854 -0.22724181
0.021818774 0.017860731 -0.22723798
0.021821754 0.017940605 -0.2272341
0.021824442 0.01802035 -0.2272242
0.021827152 0.01809814 -0.22721636
0.021830132 0.018178016 -0.22721246
0.021833308 0.018257976 -0.22721256
0.021836875 0.018338112 -0.22722065
0.02184015 0.018418118 -0.22722276
0.021843053 0.018495996 -0.2272189
0.021846306 0.018577954 -0.22721896
