# .PCD v0.7 - Point Cloud Data file format
VERSION 0.7
FIELDS x y z
SIZE 4 4 4
TYPE F F F
COUNT 1 1 1
WIDTH 1304
HEIGHT 1
VIEWPOINT 0 0 0 1 0 0 0
POINTS 1304
DATA ascii
-0.1305021 -0.025789192 -0.25338218
-0.1304996 -0.02570758 -0.25336629
-0.13050261 -0.025622528 -0.25323239
-0.13051619 -0.025530379 -0.25287253
-0.13051613 -0.025447894 -0.25280467
-0.13052043 -0.025361449 -0.25264275
-0.130521 -0.025277272 -0.25256085
-0.13052379 -0.025194086 -0.252433
-0.13052513 -0.025110252 -0.25233513
-0.13052467 -0.025029548 -0.25227726
-0.13052404 -0.024946805 -0.25222138
-0.1305231 -0.024865884 -0.25217351
-0.13052234 -0.024785053 -0.25212163
-0.13052279 -0.024702784 -0.25204378
-0.13052244 -0.024620168 -0.25198185
-0.1305221 -0.024537554 -0.25191998
-0.13052146 -0.024456764 -0.25186613
-0.13052061 -0.024375888 -0.25181627
-0.13051976 -0.024295012 -0.25176638
-0.13051882 -0.024214093 -0.25171852
-0.13051778 -0.024133127 -0.25167269
-0.13051605 -0.024051862 -0.2516408
-0.13051412 -0.023972463 -0.25161493
-0.13051258 -0.023891285 -0.25157905
-0.13051133 -0.02381219 -0.25153923
-0.13050951 -0.023730882 -0.25150934
-0.13050736 -0.023651395 -0.25148749
-0.13050523 -0.023571912 -0.25146562
-0.13050292 -0.023490386 -0.25144571
-0.13050079 -0.023410901 -0.25142387
-0.13049808 -0.023331158 -0.25141397
-0.13049486 -0.023251196 -0.25141412
-0.13049224 -0.023171496 -0.25140223
-0.13048983 -0.023091881 -0.25138637
-0.1304868 -0.023012009 -0.25138247
-0.13048328 -0.022933871 -0.25139064
-0.13048027 -0.022853997 -0.25138676
-0.13047746 -0.02277421 -0.25137889
-0.13047357 -0.022693947 -0.25139296
-0.13046937 -0.022615507 -0.2514151
-0.13046597 -0.02253546 -0.25141922
-0.13046254 -0.022457369 -0.25142536
-0.13045855 -0.022379015 -0.25144351
-0.13045485 -0.022298839 -0.25145358
-0.13045153 -0.022220789 -0.25145775
-0.13044831 -0.022140827 -0.25145787
-0.1304456 -0.022061083 -0.25144798
-0.1304422 -0.021981036 -0.25145209
-0.13043809 -0.021902641 -0.25147223
-0.13043399 -0.021824244 -0.25149235
-0.1304298 -0.021743853 -0.25151244
-0.1304263 -0.021663761 -0.25151855
-0.13042308 -0.021585755 -0.25152069
-0.13041939 -0.021505579 -0.25153083
-0.13041568 -0.021427356 -0.25154296
-0.13041198 -0.021347178 -0.25155306
-0.13040818 -0.021266958 -0.25156516
-0.13040477 -0.021188866 -0.2515713
-0.13040127 -0.021108776 -0.25157741
-0.13039796 -0.021028772 -0.25157952
-0.13039525 -0.020949027 -0.25156963
-0.13039221 -0.020871108 -0.25156781
-0.13038832 -0.020790845 -0.25158191
-0.13038424 -0.020710494 -0.25159997
-0.13038072 -0.020632358 -0.25160813
-0.13037771 -0.020552484 -0.25160426
-0.13037461 -0.020472568 -0.25160235
-0.1303708 -0.020394301 -0.25161651
-0.13036691 -0.020314038 -0.2516306
-0.1303633 -0.020233903 -0.25163871
-0.13036059 -0.02015416 -0.25162882
-0.13035826 -0.020074589 -0.25161096
-0.13035522 -0.019996669 -0.25160915
-0.13035133 -0.019916404 -0.25162321
-0.13034745 -0.019836143 -0.25163734
-0.13034444 -0.019756267 -0.25163344
-0.13034132 -0.01967635 -0.25163156
-0.1303378 -0.019598214 -0.25163969
-0.13033451 -0.01951821 -0.25164181
-0.13033129 -0.01943825 -0.25164193
-0.13032839 -0.019358419 -0.25163606
-0.13032576 -0.019278718 -0.25162417
-0.13032283 -0.019200841 -0.25162035
-0.13032043 -0.019119272 -0.25160244
-0.13031788 -0.01904157 -0.25159061
-0.13031457 -0.018961566 -0.25159273
-0.13031176 -0.018881779 -0.25158483
-0.13030845 -0.018801775 -0.25158697
-0.13030516 -0.01872177 -0.25158906
-0.13030261 -0.018644068 -0.25157726
-0.1303004 -0.018562585 -0.25155535
-0.13029775 -0.018484838 -0.25154552
-0.13029416 -0.018404705 -0.25155362
-0.13029134 -0.018324917 -0.25154576
-0.13028872 -0.018245216 -0.25153387
-0.13028552 -0.018165255 -0.25153399
-0.13028181 -0.018087033 -0.25154614
-0.1302785 -0.018007029 -0.25154823
-0.13027558 -0.0179272 -0.25154236
-0.13027225 -0.017849149 -0.2515465
-0.13026935 -0.017769318 -0.25154066
-0.13026741 -0.017689921 -0.25151479
-0.13026546 -0.017610522 -0.25148895
-0.13026324 -0.017530994 -0.25146908
-0.13026023 -0.017451121 -0.2514652
-0.13025682 -0.017371073 -0.25146931
-0.13025428 -0.017293371 -0.25145751
-0.13025233 -0.017213972 -0.25143164
-0.13024992 -0.017134359 -0.25141579
-0.1302468 -0.01705444 -0.25141388
-0.13024418 -0.01697474 -0.25140202
-0.13024144 -0.01689695 -0.25139421
-0.13023813 -0.016816946 -0.2513963
-0.13023522 -0.016737117 -0.25139043
-0.13023241 -0.016657328 -0.25138256
-0.13022949 -0.016577497 -0.25137669
-0.13022666 -0.016499665 -0.25137085
-0.13022365 -0.016419791 -0.25136697
-0.13022025 -0.016339744 -0.25137109
-0.13021731 -0.016261868 -0.25136721
-0.13021488 -0.016182253 -0.25135136
-0.13021265 -0.016102726 -0.25133151
-0.13020954 -0.016022807 -0.25132963
-0.13020594 -0.015942674 -0.25133774
-0.13020243 -0.015864538 -0.25134587
-0.13019884 -0.015784403 -0.25135398
-0.13019504 -0.015704185 -0.25136608
-0.13019125 -0.015623963 -0.25137818
-0.13018775 -0.015543872 -0.25138429
-0.13018452 -0.015465867 -0.25138643
-0.13018161 -0.015386036 -0.25138056
-0.13017899 -0.015306335 -0.2513687
-0.13017537 -0.015228156 -0.25137883
-0.13017091 -0.015145678 -0.25140285
-0.13016701 -0.015067369 -0.25141901
-0.13016303 -0.014987063 -0.2514351
-0.13015884 -0.014906669 -0.25145519
-0.13015504 -0.014826449 -0.25146729
-0.13015077 -0.014746011 -0.25148934
-0.1301458 -0.014665272 -0.25152543
-0.13014114 -0.014584661 -0.2515555
-0.13013647 -0.014504052 -0.25158557
-0.1301322 -0.014423615 -0.25160766
-0.13012733 -0.014342919 -0.25164169
-0.13012178 -0.014261919 -0.25168976
-0.13011712 -0.014181309 -0.25171983
-0.13011283 -0.014100872 -0.25174192
-0.13010778 -0.014020089 -0.25177997
-0.13010167 -0.013936875 -0.25183797
-0.13009572 -0.013855703 -0.251894
-0.13009021 -0.013772748 -0.25193998
-0.13008475 -0.013691792 -0.25198603
-0.13007911 -0.01361075 -0.25203606
-0.13007289 -0.013527492 -0.25209606
-0.13006735 -0.013446493 -0.2521441
-0.13006115 -0.013363236 -0.25220409
-0.13005356 -0.013279373 -0.25229204
-0.13004734 -0.01319807 -0.25235406
-0.13004152 -0.013114987 -0.25240603
-0.13003346 -0.013030907 -0.25250396
-0.13002725 -0.01294765 -0.25256395
-0.13002171 -0.01286665 -0.25261199
-0.13000852 -0.012776367 -0.25281167
-0.13000299 -0.012693413 -0.25285769
-0.12999171 -0.012607905 -0.25302151
-0.12998484 -0.01252239 -0.25309342
-0.12997727 -0.012438527 -0.25318137
-0.1299663 -0.012351194 -0.25333717
-0.12995757 -0.012264857 -0.25344703
-0.13025762 -0.026679717 -0.2592057
-0.13025494 -0.026596062 -0.25919175
-0.130266 -0.026500836 -0.25888178
-0.13044253 -0.026253279 -0.25499347
-0.1304405 -0.026171885 -0.25496757
-0.1304383 -0.026090402 -0.2549457
-0.13043709 -0.026005443 -0.25489971
-0.13048367 -0.025882795 -0.25382581
-0.1305012 -0.025786515 -0.25337994
-0.1304986 -0.025704859 -0.25336602
-0.13050152 -0.025619764 -0.25323415
-0.13051519 -0.025527658 -0.25287229
-0.13051504 -0.02544513 -0.25280643
-0.13051943 -0.025358729 -0.25264251
-0.13051999 -0.025274549 -0.25256062
-0.13052259 -0.025191279 -0.25243676
-0.13052413 -0.025107531 -0.25233489
-0.13052367 -0.025026828 -0.25227702
-0.13052294 -0.024944041 -0.25222313
-0.1305221 -0.024863165 -0.25217324
-0.13052134 -0.02478233 -0.25212139
-0.13052179 -0.024700062 -0.25204355
-0.13052155 -0.024617491 -0.25197965
-0.1305211 -0.024534833 -0.25191975
-0.13052046 -0.024454042 -0.25186589
-0.13051961 -0.024373166 -0.25181603
-0.13051876 -0.02429229 -0.25176615
-0.13051781 -0.024211369 -0.25171828
-0.13051677 -0.024130408 -0.25167245
-0.13051505 -0.024049141 -0.25164053
-0.13051312 -0.023969743 -0.25161469
-0.13051167 -0.023888607 -0.25157681
-0.13051033 -0.02380947 -0.25153899
-0.1305085 -0.02372816 -0.25150907
-0.13050637 -0.023648676 -0.25148723
-0.13050424 -0.023569191 -0.25146538
-0.13050193 -0.023487665 -0.25144547
-0.1304998 -0.02340818 -0.2514236
-0.13049717 -0.023328479 -0.25141174
-0.13049386 -0.023248475 -0.25141385
-0.13049124 -0.023168774 -0.25140199
-0.13048892 -0.023089204 -0.25138414
-0.13048591 -0.02300933 -0.25138023
-0.13048239 -0.022931194 -0.2513884
-0.13047928 -0.022851277 -0.25138652
-0.13047646 -0.022771489 -0.25137866
-0.13047266 -0.022691268 -0.25139073
-0.13046846 -0.022612829 -0.25141287
-0.13046506 -0.022532783 -0.25141698
-0.13046154 -0.022454647 -0.25142512
-0.13045764 -0.022376338 -0.25144124
-0.13045394 -0.02229616 -0.25145137
-0.13045062 -0.022218112 -0.25145549
-0.13044742 -0.02213815 -0.25145561
-0.1304446 -0.022058364 -0.25144774
-0.13044119 -0.021978315 -0.25145185
-0.13043718 -0.021899965 -0.25146997
-0.13043301 -0.021819569 -0.25149006
-0.13042881 -0.021741131 -0.2515122
-0.13042541 -0.021661084 -0.25151631
-0.13042217 -0.021583078 -0.25151849
-0.13041848 -0.021502901 -0.25152856
-0.13041466 -0.021424636 -0.25154269
-0.13041097 -0.021344459 -0.25155282
-0.13040729 -0.021264281 -0.25156289
-0.13040386 -0.021186188 -0.25156906
-0.13040027 -0.021106055 -0.25157714
-0.13039705 -0.021026094 -0.25157726
-0.13039434 -0.02094635 -0.25156739
-0.13039121 -0.020868387 -0.25156754
-0.13038741 -0.020788167 -0.25157964
-0.13038333 -0.020707816 -0.25159773
-0.13037981 -0.020629682 -0.2516059
-0.1303768 -0.020549806 -0.25160202
-0.13037369 -0.020469889 -0.25160015
-0.13036989 -0.020391624 -0.25161427
-0.13036589 -0.020311316 -0.25163037
-0.13036239 -0.020231226 -0.25163648
-0.13035958 -0.020151438 -0.25162858
-0.13035725 -0.020071868 -0.25161073
-0.13035424 -0.019991994 -0.25160685
-0.13035043 -0.019913727 -0.25162098
-0.13034645 -0.019833421 -0.25163707
-0.13034344 -0.019753547 -0.2516332
-0.13034032 -0.019673629 -0.25163132
-0.13033681 -0.019595493 -0.25163946
-0.1303335 -0.01951549 -0.25164157
-0.13033029 -0.019435529 -0.25164169
-0.13032737 -0.019355698 -0.25163579
-0.13032475 -0.019275997 -0.25162393
-0.13032182 -0.019198122 -0.25162011
-0.13031951 -0.019116595 -0.25160021
-0.13031687 -0.019038849 -0.25159037
-0.13031366 -0.018958889 -0.25159049
-0.13031074 -0.018879058 -0.25158459
-0.13030754 -0.018799096 -0.25158471
-0.13030423 -0.018719094 -0.25158685
-0.13030159 -0.018641347 -0.25157702
-0.13029948 -0.018559908 -0.25155312
-0.13029675 -0.018482119 -0.25154528
-0.13029325 -0.018402027 -0.25155139
-0.13029033 -0.018322196 -0.25154552
-0.13028781 -0.01824254 -0.25153163
-0.13028461 -0.018162578 -0.25153175
-0.13028088 -0.018084357 -0.25154388
-0.13027759 -0.018004352 -0.25154603
-0.13027467 -0.017924521 -0.25154012
-0.13027135 -0.017846473 -0.2515443
-0.13026834 -0.017766599 -0.25154039
-0.1302664 -0.0176872 -0.25151455
-0.13026455 -0.017607845 -0.25148672
-0.13026223 -0.017528275 -0.25146884
-0.13025931 -0.017448444 -0.25146297
-0.1302558 -0.017368354 -0.25146908
-0.13025327 -0.01729065 -0.25145724
-0.13025142 -0.017211296 -0.25142941
-0.1302489 -0.017131638 -0.25141555
-0.13024579 -0.017051721 -0.25141364
-0.13024317 -0.01697202 -0.25140178
-0.13024053 -0.016894273 -0.25139195
-0.13023713 -0.016814226 -0.25139606
-0.13023421 -0.016734395 -0.25139019
-0.1302315 -0.016654652 -0.25138032
-0.13022847 -0.016574778 -0.25137642
-0.13022564 -0.016496943 -0.25137061
-0.13022263 -0.016417069 -0.25136673
-0.13021924 -0.016337022 -0.25137082
-0.13021639 -0.01625919 -0.25136501
-0.13021398 -0.016179577 -0.25134915
-0.13021164 -0.016100004 -0.25133127
-0.13020863 -0.01602013 -0.2513274
-0.13020493 -0.015939953 -0.2513375
-0.13020141 -0.015861817 -0.25134563
-0.13019782 -0.015781684 -0.25135374
-0.13019402 -0.015701463 -0.25136584
-0.13019024 -0.015621243 -0.25137794
-0.13018674 -0.015541153 -0.25138402
-0.13018361 -0.01546319 -0.2513842
-0.13018069 -0.015383359 -0.2513783
-0.13017797 -0.015303615 -0.25136846
-0.13017435 -0.015225436 -0.2513786
-0.1301699 -0.015142958 -0.25140262
-0.1301661 -0.015064692 -0.25141677
-0.1301621 -0.014984385 -0.25143284
-0.13015783 -0.014903948 -0.25145495
-0.13015403 -0.014823727 -0.25146705
-0.13014975 -0.014743291 -0.2514891
-0.13014479 -0.014662551 -0.25152516
-0.13014013 -0.014581941 -0.25155526
-0.13013546 -0.014501331 -0.2515853
-0.13013117 -0.014420895 -0.25160739
-0.13012642 -0.014340241 -0.25163949
-0.13012077 -0.014259199 -0.25168949
-0.13011609 -0.014178589 -0.25171959
-0.13011181 -0.014098153 -0.25174165
-0.13010676 -0.01401737 -0.25177974
-0.13010065 -0.013934155 -0.2518377
-0.13009481 -0.013853026 -0.25189173
-0.13008918 -0.013770028 -0.25193974
-0.13008374 -0.013689072 -0.25198579
-0.13007829 -0.013608116 -0.25203183
-0.13007198 -0.013524815 -0.25209382
-0.13006634 -0.013443773 -0.25214386
-0.13006012 -0.013360515 -0.25220382
-0.13005266 -0.013276696 -0.25228977
-0.13004643 -0.013195394 -0.25235182
-0.1300406 -0.013112309 -0.2524038
-0.13003254 -0.01302823 -0.25250173
-0.13002633 -0.012944972 -0.25256169
-0.13002069 -0.01286393 -0.25261176
-0.13000759 -0.01277369 -0.25280944
-0.13000198 -0.012690692 -0.25285745
-0.12999089 -0.012605271 -0.25301728
-0.12998381 -0.01251967 -0.25309318
-0.12997635 -0.01243585 -0.25317913
-0.12996538 -0.012348518 -0.25333494
-0.12995665 -0.01226218 -0.25344479
-0.13025865 -0.026678333 -0.25920606
-0.13025597 -0.02659468 -0.25919211
-0.13026683 -0.026499365 -0.25888613
-0.13044345 -0.02625186 -0.25499585
-0.13044153 -0.026170507 -0.25496796
-0.13043922 -0.026088983 -0.25494805
-0.13048692 -0.025962902 -0.25384808
-0.13048479 -0.025883418 -0.25382623
-0.13050213 -0.025785096 -0.25338233
-0.13049963 -0.025703484 -0.25336641
-0.13050264 -0.025618432 -0.25323254
-0.1305162 -0.025526285 -0.25287268
-0.13051616 -0.0254438 -0.25280479
-0.13052046 -0.025357354 -0.2526429
-0.13052109 -0.025275173 -0.25256103
-0.13052373 -0.025189947 -0.25243515
-0.13052516 -0.025106158 -0.25233525
-0.13052461 -0.025025412 -0.2522794
-0.13052396 -0.024942666 -0.25222349
-0.13052312 -0.02486179 -0.25217363
-0.13052237 -0.024780957 -0.25212178
-0.13052282 -0.02469869 -0.2520439
-0.13052256 -0.024616119 -0.25198001
-0.13052213 -0.02453346 -0.2519201
-0.13052148 -0.024452671 -0.25186628
-0.13052063 -0.024371795 -0.25181639
-0.13051979 -0.024290919 -0.25176653
-0.13051884 -0.024209999 -0.25171867
-0.13051771 -0.024128992 -0.2516748
-0.13051608 -0.02404777 -0.25164092
-0.13051413 -0.023968371 -0.25161508
-0.13051261 -0.023887191 -0.25157917
-0.13051134 -0.023808097 -0.25153935
-0.13050953 -0.023726787 -0.25150946
-0.13050739 -0.023647305 -0.25148761
-0.13050526 -0.023567818 -0.25146574
-0.13050295 -0.023486294 -0.25144583
-0.13050082 -0.023406807 -0.25142398
-0.1304981 -0.023327064 -0.25141412
-0.13049489 -0.023247104 -0.25141424
-0.13049227 -0.023167403 -0.25140238
-0.13048984 -0.023087788 -0.25138649
-0.13048683 -0.023007914 -0.25138262
-0.13048331 -0.02292978 -0.25139076
-0.1304803 -0.022849904 -0.25138688
-0.13047749 -0.022770118 -0.25137901
-0.1304736 -0.022689853 -0.25139308
-0.1304694 -0.022611415 -0.25141522
-0.13046598 -0.022531368 -0.25141934
-0.13046257 -0.022453275 -0.25142547
-0.13045856 -0.022374922 -0.25144362
-0.13045497 -0.02229479 -0.25145173
-0.13045165 -0.022216739 -0.25145587
-0.13044843 -0.022136778 -0.25145599
-0.13044561 -0.022056991 -0.25144812
-0.13044222 -0.021976944 -0.25145224
-0.13043821 -0.021898592 -0.25147036
-0.13043401 -0.021820154 -0.2514925
-0.13042983 -0.021739759 -0.25151259
-0.13042633 -0.021659669 -0.25151867
-0.1304231 -0.021581663 -0.25152084
-0.1304194 -0.021501485 -0.25153095
-0.13041569 -0.021423263 -0.25154307
-0.130412 -0.021343086 -0.25155318
-0.13040821 -0.021262866 -0.25156528
-0.13040479 -0.021184774 -0.25157142
-0.13040128 -0.021104682 -0.25157753
-0.13039799 -0.021024678 -0.25157964
-0.13039526 -0.020944934 -0.25156975
-0.13039224 -0.020867016 -0.25156793
-0.13038835 -0.020786751 -0.25158203
-0.13038436 -0.020706445 -0.25159812
-0.13038075 -0.020628266 -0.25160825
-0.13037774 -0.020548392 -0.25160438
-0.13037463 -0.020468473 -0.2516025
-0.13037091 -0.020390252 -0.25161463
-0.13036692 -0.020309944 -0.25163072
-0.13036342 -0.020229854 -0.25163683
-0.1303606 -0.020150067 -0.25162897
-0.13035828 -0.020070497 -0.25161111
-0.13035527 -0.019990621 -0.25160721
-0.13035136 -0.019912312 -0.25162333
-0.13034748 -0.019832049 -0.25163746
-0.13034445 -0.019752175 -0.25163358
-0.13034135 -0.019672258 -0.25163168
-0.13033783 -0.019594122 -0.25163984
-0.13033453 -0.019514117 -0.25164193
-0.13033122 -0.019434113 -0.25164405
-0.1303284 -0.019354327 -0.25163618
-0.13032578 -0.019274626 -0.25162432
-0.13032284 -0.019196749 -0.25162047
-0.13032044 -0.01911518 -0.25160256
-0.1303179 -0.019037478 -0.25159073
-0.13031459 -0.018957473 -0.25159284
-0.13031177 -0.018877687 -0.25158498
-0.13030848 -0.018797683 -0.25158709
-0.13030517 -0.018717678 -0.25158918
-0.13030262 -0.018639974 -0.25157738
-0.13030042 -0.018558493 -0.25155547
-0.13029777 -0.018480746 -0.25154564
-0.13029417 -0.018400613 -0.25155374
-0.13029136 -0.018320825 -0.25154588
-0.13028884 -0.018241167 -0.25153202
-0.13028562 -0.018161207 -0.25153211
-0.13028191 -0.018082984 -0.25154427
-0.13027851 -0.018002937 -0.25154838
-0.13027559 -0.017923106 -0.25154248
-0.13027227 -0.017845057 -0.25154665
-0.13026936 -0.017765226 -0.25154078
-0.13026743 -0.017685829 -0.25151491
-0.13026549 -0.01760643 -0.25148907
-0.13026325 -0.017526902 -0.25146919
-0.13026033 -0.017447071 -0.25146332
-0.13025683 -0.017366981 -0.25146943
-0.1302543 -0.017289279 -0.25145763
-0.13025245 -0.017209925 -0.25142977
-0.13024993 -0.017130267 -0.25141591
-0.13024682 -0.017050348 -0.251414
-0.1302442 -0.016970647 -0.25140214
-0.13024145 -0.016892858 -0.25139433
-0.13023816 -0.016812854 -0.25139642
-0.13023524 -0.016733024 -0.25139055
-0.13023253 -0.016653279 -0.25138068
-0.1302295 -0.016573405 -0.25137681
-0.13022667 -0.016495572 -0.25137097
-0.13022366 -0.016415698 -0.25136709
-0.13022026 -0.016335651 -0.2513712
-0.13021733 -0.016257776 -0.25136736
-0.1302149 -0.016178161 -0.25135148
-0.13021266 -0.016098633 -0.25133163
-0.13020957 -0.016018717 -0.25132975
-0.13020596 -0.015938582 -0.25133786
-0.13020244 -0.015860446 -0.25134599
-0.13019885 -0.015780313 -0.2513541
-0.13019505 -0.015700093 -0.2513662
-0.13019127 -0.015619872 -0.2513783
-0.13018776 -0.015539781 -0.25138441
-0.13018453 -0.015461775 -0.25138655
-0.13018163 -0.015381944 -0.25138068
-0.130179 -0.015302243 -0.25136882
-0.13017538 -0.015224064 -0.25137895
-0.13017093 -0.015141586 -0.25140297
-0.13016702 -0.015063277 -0.25141913
-0.13016304 -0.01498297 -0.25143522
-0.13015886 -0.014902577 -0.25145531
-0.13015506 -0.014822356 -0.25146741
-0.13015078 -0.01474192 -0.25148946
-0.13014582 -0.01466118 -0.25152552
-0.13014115 -0.01458057 -0.25155562
-0.13013649 -0.01449996 -0.25158569
-0.1301322 -0.014419523 -0.25160778
-0.13012734 -0.014338827 -0.25164181
-0.1301218 -0.014257827 -0.25168988
-0.13011713 -0.014177217 -0.25171995
-0.13011284 -0.01409678 -0.25174201
-0.13010779 -0.014015997 -0.25178009
-0.13010168 -0.013932783 -0.25183806
-0.13009574 -0.01385161 -0.25189412
-0.13009012 -0.013768613 -0.2519421
-0.13008477 -0.0136877 -0.25198615
-0.13007922 -0.0136067 -0.25203419
-0.13007291 -0.0135234 -0.25209618
-0.13006727 -0.013442357 -0.25214621
-0.13006106 -0.0133591 -0.25220621
-0.13005358 -0.01327528 -0.25229213
-0.13004735 -0.013193977 -0.25235415
-0.13004154 -0.013110893 -0.25240615
-0.13003357 -0.013026857 -0.25250208
-0.13002726 -0.012943557 -0.25256407
-0.13002172 -0.012862557 -0.25261211
-0.13000862 -0.012772316 -0.25280979
-0.13000301 -0.012689319 -0.2528578
-0.12999192 -0.012603898 -0.25301763
-0.12998486 -0.012518296 -0.25309354
-0.12997727 -0.012434433 -0.25318149
-0.1299663 -0.012347099 -0.25333726
-0.12995769 -0.012260806 -0.25344515
-0.13026018 -0.026679168 -0.25920427
-0.13025741 -0.02659547 -0.25919232
-0.13026856 -0.026500287 -0.25888038
-0.13044508 -0.026252735 -0.25499207
-0.13044307 -0.026171338 -0.25496617
-0.13044085 -0.026089858 -0.25494426
-0.13048844 -0.025963731 -0.25384629
-0.13048631 -0.025884248 -0.25382444
-0.13050376 -0.02578597 -0.25337851
-0.13050115 -0.025704313 -0.25336462
-0.13050416 -0.025619261 -0.25323072
-0.13051774 -0.025527114 -0.25287089
-0.13051759 -0.025444586 -0.25280499
-0.13052198 -0.025358183 -0.25264111
-0.13052253 -0.025274005 -0.25255919
-0.13052534 -0.025190821 -0.25243136
-0.13052668 -0.025106989 -0.25233346
-0.13052621 -0.025026284 -0.25227562
-0.13052559 -0.02494354 -0.25221971
-0.13052474 -0.024862664 -0.25216985
-0.13052389 -0.024781786 -0.25211999
-0.13052432 -0.024699518 -0.25204211
-0.13052399 -0.024616905 -0.25198022
-0.13052365 -0.024534289 -0.25191832
-0.130523 -0.024453498 -0.25186446
-0.13052215 -0.024372622 -0.2518146
-0.1305213 -0.024291746 -0.25176474
-0.13052036 -0.024210827 -0.25171688
-0.13051932 -0.024129864 -0.25167102
-0.13051759 -0.024048597 -0.25163913
-0.13051565 -0.0239692 -0.25161326
-0.13051412 -0.023888022 -0.25157738
-0.13051286 -0.023808926 -0.25153756
-0.13051105 -0.023727618 -0.25150767
-0.1305089 -0.023648132 -0.25148582
-0.13050677 -0.023568649 -0.25146395
-0.13050446 -0.023487121 -0.25144404
-0.13050233 -0.023407638 -0.2514222
-0.13049971 -0.023327935 -0.25141034
-0.1304964 -0.023247933 -0.25141245
-0.13049378 -0.023168232 -0.25140059
-0.13049145 -0.02308866 -0.25138271
-0.13048844 -0.023008786 -0.25137883
-0.13048491 -0.022930652 -0.25138697
-0.13048181 -0.022850733 -0.25138509
-0.13047899 -0.022770945 -0.25137722
-0.1304751 -0.022690684 -0.25139129
-0.1304709 -0.022612244 -0.25141343
-0.13046749 -0.022532197 -0.25141755
-0.13046408 -0.022454103 -0.25142369
-0.13046016 -0.022375794 -0.25143984
-0.13045646 -0.022295617 -0.25144994
-0.13045314 -0.022217568 -0.25145409
-0.13044994 -0.022137608 -0.2514542
-0.13044712 -0.02205782 -0.25144631
-0.13044372 -0.021977773 -0.25145045
-0.13043971 -0.021899421 -0.25146857
-0.13043553 -0.021819027 -0.25148866
-0.13043132 -0.021740587 -0.2515108
-0.13042782 -0.021660499 -0.25151688
-0.13042469 -0.021582536 -0.25151706
-0.130421 -0.021502357 -0.25152713
-0.1304172 -0.021424092 -0.25154129
-0.1304135 -0.021343915 -0.25155139
-0.13040981 -0.021263737 -0.25156146
-0.13040638 -0.021185646 -0.25156763
-0.13040279 -0.021105513 -0.25157574
-0.13039957 -0.021025551 -0.25157586
-0.13039686 -0.020945808 -0.25156599
-0.13039373 -0.020867845 -0.25156614
-0.13038993 -0.020787625 -0.25157824
-0.13038585 -0.020707274 -0.25159633
-0.13038224 -0.020629095 -0.25160646
-0.13037923 -0.020549221 -0.25160259
-0.13037612 -0.020469304 -0.25160068
-0.1303723 -0.020391038 -0.25161484
-0.13036841 -0.020310774 -0.25162894
-0.13036491 -0.020230684 -0.25163504
-0.13036209 -0.020150896 -0.25162715
-0.13035977 -0.020071326 -0.2516093
-0.13035676 -0.019991452 -0.25160542
-0.13035294 -0.019913185 -0.25161958
-0.13034895 -0.019832879 -0.25163567
-0.13034594 -0.019753005 -0.25163177
-0.13034283 -0.019673087 -0.25162989
-0.13033931 -0.019594951 -0.25163805
-0.130336 -0.019514948 -0.25164014
-0.1303328 -0.019434987 -0.25164026
-0.13032989 -0.019355156 -0.25163439
-0.13032736 -0.019275498 -0.25162053
-0.13032433 -0.019197579 -0.25161868
-0.13032202 -0.019116053 -0.25159878
-0.13031948 -0.019038349 -0.25158694
-0.13031617 -0.018958347 -0.25158906
-0.13031326 -0.018878516 -0.25158319
-0.13030995 -0.018798511 -0.2515853
-0.13030665 -0.018718507 -0.25158739
-0.1303041 -0.018640805 -0.25157559
-0.13030189 -0.018559322 -0.25155368
-0.13029926 -0.018481577 -0.25154385
-0.13029575 -0.018401485 -0.25154996
-0.13029283 -0.018321656 -0.25154409
-0.13029031 -0.018241998 -0.25153023
-0.1302871 -0.018162036 -0.25153032
-0.13028339 -0.018083815 -0.25154248
-0.13028008 -0.01800381 -0.25154459
-0.13027707 -0.017923936 -0.25154069
-0.13027374 -0.017845888 -0.25154483
-0.13027084 -0.017766057 -0.25153899
-0.13026889 -0.017686658 -0.25151312
-0.13026705 -0.017607303 -0.25148529
-0.13026471 -0.017527733 -0.25146741
-0.1302617 -0.017447859 -0.25146353
-0.13025831 -0.017367812 -0.25146765
-0.13025576 -0.017290108 -0.25145584
-0.13025393 -0.017210754 -0.25142798
-0.13025139 -0.017131096 -0.25141412
-0.13024828 -0.017051179 -0.25141221
-0.13024567 -0.016971478 -0.25140035
-0.13024302 -0.016893731 -0.25139052
-0.13023962 -0.016813684 -0.25139463
-0.1302367 -0.016733853 -0.25138876
-0.13023399 -0.01665411 -0.25137889
-0.13023098 -0.016574236 -0.25137502
-0.13022813 -0.016496403 -0.25136918
-0.13022512 -0.016416529 -0.2513653
-0.13022181 -0.016336525 -0.25136739
-0.13021879 -0.016258605 -0.25136557
-0.13021646 -0.016179034 -0.25134772
-0.13021412 -0.016099464 -0.25132984
-0.13021111 -0.016019588 -0.25132596
-0.13020742 -0.015939413 -0.25133607
-0.1302039 -0.015861277 -0.2513442
-0.13020031 -0.015781142 -0.25135231
-0.13019651 -0.015700921 -0.25136441
-0.13019273 -0.015620702 -0.25137651
-0.13018923 -0.015540611 -0.25138262
-0.13018599 -0.015462605 -0.25138476
-0.13018318 -0.015382818 -0.2513769
-0.13018046 -0.015303073 -0.25136703
-0.13017684 -0.015224895 -0.25137717
-0.13017249 -0.015142459 -0.25139922
-0.13016857 -0.015064151 -0.25141534
-0.13016459 -0.014983844 -0.25143144
-0.1301603 -0.014903408 -0.25145352
-0.13015652 -0.014823187 -0.25146562
-0.13015224 -0.01474275 -0.25148767
-0.13014728 -0.014662011 -0.25152373
-0.1301426 -0.014581401 -0.25155383
-0.13013794 -0.01450079 -0.2515839
-0.13013366 -0.014420354 -0.25160599
-0.13012889 -0.0143397 -0.25163805
-0.13012324 -0.014258658 -0.25168809
-0.13011858 -0.014178048 -0.25171816
-0.1301143 -0.01409761 -0.25174022
-0.13010924 -0.014016828 -0.2517783
-0.13010313 -0.013933614 -0.25183627
-0.13009718 -0.013852442 -0.25189233
-0.13009167 -0.013769487 -0.25193831
-0.1300863 -0.013688575 -0.25198236
-0.13008076 -0.013607575 -0.2520304
-0.13007435 -0.013524231 -0.25209439
-0.13006881 -0.013443232 -0.25214243
-0.1300626 -0.013359974 -0.25220239
-0.13005503 -0.013276111 -0.25229034
-0.1300488 -0.013194809 -0.25235236
-0.13004297 -0.013111725 -0.25240436
-0.13003491 -0.013027645 -0.25250229
-0.13002871 -0.012944388 -0.25256228
-0.13002306 -0.012863345 -0.25261232
-0.13000996 -0.012773105 -0.25281
-0.13000444 -0.012690151 -0.25285602
-0.12999316 -0.012604643 -0.25301984
-0.12998629 -0.012519129 -0.25309175
-0.12997881 -0.012435308 -0.2531777
-0.12996775 -0.012347932 -0.25333551
-0.12995912 -0.012261638 -0.25344336
-0.13025923 -0.026680047 -0.25920257
-0.13025646 -0.026596349 -0.25919062
-0.13026761 -0.026501164 -0.25887865
-0.13044412 -0.026253603 -0.25499037
-0.13044211 -0.026172206 -0.25496447
-0.1304398 -0.026090682 -0.25494456
-0.13043879 -0.026005808 -0.25489461
-0.13048536 -0.025885113 -0.25382274
-0.13050281 -0.025786834 -0.25337684
-0.1305002 -0.025705177 -0.25336292
-0.13050312 -0.025620082 -0.25323102
-0.13051678 -0.025527976 -0.25286919
-0.13051663 -0.025445448 -0.2528033
-0.13052103 -0.025359046 -0.25263941
-0.13052167 -0.025276866 -0.25255755
-0.13052429 -0.025191639 -0.25243166
-0.13052572 -0.025107849 -0.25233176
-0.13052526 -0.025027145 -0.25227392
-0.13052464 -0.0249444 -0.25221801
-0.13052379 -0.024863524 -0.25216815
-0.13052294 -0.024782646 -0.25211829
-0.13052337 -0.024700379 -0.25204045
-0.13052313 -0.024617808 -0.25197655
-0.1305227 -0.024535149 -0.25191665
-0.13052204 -0.024454359 -0.25186276
-0.13052119 -0.024373483 -0.25181293
-0.13052034 -0.024292607 -0.25176305
-0.13051939 -0.024211688 -0.25171518
-0.13051835 -0.024130724 -0.25166932
-0.13051663 -0.024049457 -0.25163743
-0.13051468 -0.02397006 -0.25161159
-0.13051316 -0.02388888 -0.25157571
-0.13051189 -0.023809785 -0.25153586
-0.13051008 -0.023728475 -0.25150597
-0.13050795 -0.023648992 -0.25148413
-0.1305058 -0.023569508 -0.25146228
-0.13050349 -0.023487981 -0.25144237
-0.13050136 -0.023408497 -0.2514205
-0.13049865 -0.023328753 -0.25141063
-0.13049543 -0.023248792 -0.25141075
-0.13049281 -0.023169091 -0.25139889
-0.13049048 -0.023089521 -0.25138104
-0.13048747 -0.023009647 -0.25137714
-0.13048396 -0.022931509 -0.25138527
-0.13048084 -0.022851594 -0.25138342
-0.13047802 -0.022771806 -0.25137553
-0.13047422 -0.022691585 -0.25138763
-0.13047002 -0.022613145 -0.25140977
-0.13046663 -0.0225331 -0.25141388
-0.13046311 -0.022454964 -0.25142202
-0.1304591 -0.022376612 -0.25144014
-0.13045549 -0.022296477 -0.25144824
-0.13045217 -0.022218429 -0.25145239
-0.13044897 -0.022138467 -0.25145251
-0.13044615 -0.022058681 -0.25144464
-0.13044274 -0.021978633 -0.25144875
-0.13043875 -0.021900281 -0.25146687
-0.13043456 -0.021819888 -0.25148696
-0.13043036 -0.021741448 -0.2515091
-0.13042685 -0.021661358 -0.25151521
-0.13042372 -0.021583395 -0.25151536
-0.13042003 -0.021503218 -0.25152546
-0.13041621 -0.021424953 -0.25153959
-0.13041252 -0.021344775 -0.25154972
-0.13040873 -0.021264555 -0.25156179
-0.13040531 -0.021186464 -0.25156796
-0.13040181 -0.021106374 -0.25157404
-0.1303986 -0.021026412 -0.25157416
-0.13039587 -0.020946667 -0.25156429
-0.13039275 -0.020868706 -0.25156444
-0.13038896 -0.020788485 -0.25157654
-0.13038488 -0.020708134 -0.25159463
-0.13038126 -0.020629955 -0.2516048
-0.13037825 -0.020550082 -0.25160092
-0.13037522 -0.020470208 -0.25159705
-0.13037142 -0.020391941 -0.25161117
-0.13036743 -0.020311635 -0.25162727
-0.13036393 -0.020231545 -0.25163338
-0.13036111 -0.020151757 -0.25162548
-0.13035879 -0.020072186 -0.25160763
-0.13035578 -0.019992312 -0.25160375
-0.13035196 -0.019914046 -0.25161788
-0.13034807 -0.019833783 -0.25163198
-0.13034496 -0.019753866 -0.2516301
-0.13034184 -0.019673947 -0.25162822
-0.13033833 -0.019595813 -0.25163636
-0.13033502 -0.019515809 -0.25163847
-0.13033181 -0.019435847 -0.25163859
-0.13032889 -0.019356016 -0.25163269
-0.13032627 -0.019276315 -0.25162083
-0.13032334 -0.01919844 -0.25161701
-0.13032094 -0.019116871 -0.2515991
-0.13031849 -0.019039212 -0.25158527
-0.13031518 -0.018959207 -0.25158739
-0.13031226 -0.018879376 -0.25158149
-0.13030896 -0.018799372 -0.25158364
-0.13030565 -0.01871937 -0.25158572
-0.13030311 -0.018641666 -0.25157392
-0.13030089 -0.018560182 -0.25155202
-0.13029826 -0.018482437 -0.25154218
-0.13029476 -0.018402345 -0.25154829
-0.13029183 -0.018322516 -0.25154239
-0.13028932 -0.018242858 -0.25152853
-0.13028611 -0.018162897 -0.25152865
-0.13028239 -0.018084675 -0.25154081
-0.13027899 -0.018004628 -0.25154489
-0.13027607 -0.017924797 -0.25153902
-0.13027275 -0.017846748 -0.25154316
-0.13026984 -0.017766917 -0.25153732
-0.13026799 -0.017687563 -0.25150946
-0.13026606 -0.017608164 -0.25148362
-0.13026372 -0.017528594 -0.25146574
-0.13026081 -0.017448762 -0.25145987
-0.13025731 -0.017368672 -0.25146598
-0.13025476 -0.017290968 -0.25145414
-0.13025291 -0.017211614 -0.25142631
-0.13025039 -0.017131956 -0.25141245
-0.13024728 -0.01705204 -0.25141054
-0.13024466 -0.016972339 -0.25139868
-0.13024202 -0.016894592 -0.25138885
-0.13023862 -0.016814545 -0.25139296
-0.1302357 -0.016734716 -0.25138709
-0.13023297 -0.01665497 -0.25137722
-0.13022996 -0.016575096 -0.25137335
-0.13022713 -0.016497264 -0.25136751
-0.13022412 -0.01641739 -0.25136364
-0.13022071 -0.016337343 -0.25136775
-0.13021778 -0.016259465 -0.25136387
-0.13021545 -0.016179895 -0.25134605
-0.13021313 -0.016100325 -0.25132817
-0.1302101 -0.016020451 -0.2513243
-0.13020641 -0.015940273 -0.2513344
-0.13020289 -0.015862137 -0.25134254
-0.1301993 -0.015782004 -0.25135064
-0.1301955 -0.015701784 -0.25136274
-0.13019171 -0.015621563 -0.25137484
-0.13018821 -0.015541472 -0.25138095
-0.13018508 -0.01546351 -0.2513811
-0.13018216 -0.015383679 -0.25137523
-0.13017945 -0.015303935 -0.25136536
-0.13017583 -0.015225756 -0.2513755
-0.13017137 -0.015143278 -0.25139952
-0.13016745 -0.015064969 -0.25141567
-0.13016348 -0.014984662 -0.25143176
-0.13015929 -0.014904268 -0.25145185
-0.1301555 -0.014824049 -0.25146395
-0.13015121 -0.014743611 -0.25148603
-0.13014625 -0.014662872 -0.25152209
-0.13014159 -0.014582261 -0.25155216
-0.13013692 -0.014501652 -0.25158224
-0.13013263 -0.014421215 -0.25160432
-0.13012786 -0.014340563 -0.25163639
-0.13012223 -0.01425952 -0.25168642
-0.13011755 -0.014178909 -0.25171649
-0.13011327 -0.014098473 -0.25173858
-0.13010821 -0.01401769 -0.25177664
-0.1301021 -0.013934476 -0.25183463
-0.13009617 -0.013853304 -0.25189066
-0.13009064 -0.01377035 -0.25193664
-0.13008519 -0.013689394 -0.25198269
-0.13007973 -0.013608438 -0.25202873
-0.13007334 -0.013525095 -0.25209272
-0.13006778 -0.013444095 -0.25214076
-0.13006157 -0.013360837 -0.25220075
-0.130054 -0.013276976 -0.2522887
-0.13004786 -0.013195716 -0.25234872
-0.13004194 -0.013112589 -0.25240269
-0.13003398 -0.013028553 -0.25249863
-0.13002777 -0.012945296 -0.25255862
-0.13002212 -0.012864253 -0.25260866
-0.13000904 -0.012774014 -0.25280637
-0.13000341 -0.012691017 -0.25285435
-0.12999232 -0.012605596 -0.25301418
-0.12998526 -0.012519995 -0.25309008
-0.12997778 -0.012436175 -0.25317603
-0.12996671 -0.012348799 -0.25333384
-0.12995799 -0.012262463 -0.25344369
-0.13025635 -0.026679635 -0.25920385
-0.13025357 -0.026595937 -0.2591919
-0.13026452 -0.026500665 -0.25888392
-0.13044116 -0.026253141 -0.25499365
-0.13043915 -0.026171746 -0.25496775
-0.13043684 -0.02609022 -0.25494784
-0.13043593 -0.026005391 -0.2548959
-0.13048241 -0.025884651 -0.25382602
-0.13049975 -0.025786327 -0.25338212
-0.13049734 -0.025704756 -0.25336421
-0.13050033 -0.02562166 -0.25323236
-0.13051373 -0.025527468 -0.25287446
-0.13051377 -0.025445025 -0.25280458
-0.13051808 -0.02535858 -0.25264269
-0.13051872 -0.0252764 -0.25256085
-0.13052134 -0.025191173 -0.25243494
-0.13052277 -0.025107384 -0.25233504
-0.13052231 -0.025026679 -0.2522772
-0.13052168 -0.024943937 -0.25222129
-0.13052084 -0.024863059 -0.25217143
-0.13052009 -0.024782225 -0.25211957
-0.13052052 -0.024699956 -0.2520417
-0.13052018 -0.024617342 -0.25197983
-0.13051985 -0.024534727 -0.25191793
-0.1305192 -0.024453936 -0.25186408
-0.13051835 -0.02437306 -0.25181422
-0.13051739 -0.024292141 -0.25176632
-0.13051645 -0.02421122 -0.25171846
-0.13051541 -0.024130257 -0.2516726
-0.13051368 -0.024048992 -0.25164071
-0.13051175 -0.023969594 -0.25161487
-0.13051021 -0.023888413 -0.25157899
-0.13050896 -0.023809319 -0.25153917
-0.13050714 -0.023728009 -0.25150925
-0.1305051 -0.023648567 -0.25148541
-0.13050297 -0.023569085 -0.25146356
-0.13050056 -0.023487514 -0.25144565
-0.13049842 -0.023408029 -0.25142381
-0.1304958 -0.02332833 -0.25141191
-0.13049249 -0.023248326 -0.25141403
-0.13048987 -0.023168623 -0.25140217
-0.13048755 -0.023089053 -0.25138432
-0.13048443 -0.023009136 -0.25138241
-0.13048102 -0.022931043 -0.25138858
-0.13047801 -0.022851169 -0.25138471
-0.13047518 -0.022771381 -0.25137681
-0.13047129 -0.022691118 -0.2513909
-0.13046709 -0.02261268 -0.25141305
-0.13046369 -0.022532633 -0.25141716
-0.13046026 -0.022454539 -0.2514233
-0.13045616 -0.022376144 -0.25144345
-0.13045247 -0.022295967 -0.25145352
-0.13044924 -0.022217961 -0.25145569
-0.13044603 -0.022138 -0.25145581
-0.13044332 -0.022058256 -0.25144592
-0.13043991 -0.021978209 -0.25145003
-0.13043581 -0.021899814 -0.25147018
-0.13043161 -0.021821374 -0.25149229
-0.13042742 -0.02174098 -0.25151238
-0.13042402 -0.021660935 -0.25151649
-0.13042079 -0.021582928 -0.25151867
-0.130417 -0.021502707 -0.25153077
-0.13041338 -0.021424528 -0.2515409
-0.1304096 -0.021344308 -0.251553
-0.1304058 -0.021264087 -0.2515651
-0.13040239 -0.021185996 -0.25157124
-0.13039888 -0.021105906 -0.25157735
-0.13039558 -0.021025902 -0.25157946
-0.13039285 -0.020946156 -0.25156957
-0.13038982 -0.020868238 -0.25156775
-0.13038602 -0.020788018 -0.25157985
-0.13038194 -0.020707667 -0.25159794
-0.13037834 -0.020629488 -0.25160807
-0.13037542 -0.020549659 -0.2516022
-0.13037221 -0.020469697 -0.25160232
-0.1303685 -0.020391475 -0.25161445
-0.13036461 -0.02031121 -0.25162855
-0.13036101 -0.020231077 -0.25163665
-0.13035819 -0.020151289 -0.25162879
-0.13035595 -0.020071762 -0.25160891
-0.13035293 -0.019993842 -0.25160709
-0.13034894 -0.019913536 -0.25162318
-0.13034515 -0.019833315 -0.25163525
-0.13034204 -0.019753398 -0.25163338
-0.13033903 -0.019673524 -0.25162953
-0.13033551 -0.019595388 -0.25163767
-0.1303321 -0.019515341 -0.25164175
-0.13032889 -0.01943538 -0.25164187
-0.13032608 -0.019355593 -0.251634
-0.13032337 -0.019275848 -0.25162414
-0.13032043 -0.019197972 -0.25162029
-0.13031802 -0.019116404 -0.25160238
-0.13031547 -0.0190387 -0.25159055
-0.13031226 -0.01895874 -0.25159067
-0.13030934 -0.018878909 -0.2515848
-0.13030605 -0.018798904 -0.25158691
-0.13030285 -0.018718945 -0.25158703
-0.1303003 -0.018641241 -0.2515752
-0.13029808 -0.018559759 -0.2515533
-0.13029544 -0.018482013 -0.25154346
-0.13029185 -0.01840188 -0.25155157
-0.13028902 -0.018322092 -0.2515437
-0.13028641 -0.018242391 -0.25153184
-0.13028319 -0.018162429 -0.25153196
-0.13027948 -0.018084208 -0.25154409
-0.13027608 -0.01800416 -0.2515482
-0.13027316 -0.017924329 -0.25154233
-0.13026994 -0.017846324 -0.25154448
-0.13026702 -0.017766492 -0.2515386
-0.13026498 -0.017687052 -0.25151476
-0.13026315 -0.017607696 -0.2514869
-0.13026081 -0.017528126 -0.25146905
-0.1302579 -0.017448295 -0.25146317
-0.13025449 -0.017368248 -0.25146726
-0.13025196 -0.017290546 -0.25145546
-0.13025001 -0.017211147 -0.25142962
-0.13024759 -0.017131532 -0.25141373
-0.13024437 -0.017051572 -0.25141385
-0.13024175 -0.016971871 -0.25140199
-0.13023911 -0.016894124 -0.25139216
-0.13023572 -0.016814077 -0.25139624
-0.1302328 -0.016734246 -0.2513904
-0.13023008 -0.016654503 -0.2513805
-0.13022706 -0.016574629 -0.25137663
-0.13022423 -0.016496796 -0.25137079
-0.13022122 -0.016416922 -0.25136691
-0.13021791 -0.016336918 -0.25136903
-0.13021497 -0.016259041 -0.25136518
-0.13021255 -0.016179428 -0.25134933
-0.13021022 -0.016099855 -0.25133148
-0.13020721 -0.016019981 -0.25132757
-0.1302036 -0.015939848 -0.25133568
-0.13020009 -0.015861712 -0.25134385
-0.1301965 -0.015781578 -0.25135195
-0.1301927 -0.015701359 -0.25136405
-0.13018891 -0.015621138 -0.25137615
-0.13018541 -0.015541048 -0.25138223
-0.13018209 -0.015462998 -0.2513864
-0.13017917 -0.015383167 -0.2513805
-0.13017654 -0.015303466 -0.25136864
-0.13017303 -0.01522533 -0.25137681
-0.13016848 -0.01514281 -0.25140283
-0.13016467 -0.015064544 -0.25141698
-0.13016067 -0.014984237 -0.25143307
-0.1301565 -0.014903843 -0.25145316
-0.13015261 -0.01482358 -0.25146723
-0.13014823 -0.0147431 -0.25149131
-0.13014346 -0.014662447 -0.25152338
-0.13013878 -0.014581837 -0.25155345
-0.13013412 -0.014501227 -0.25158352
-0.13012984 -0.014420791 -0.2516056
-0.13012497 -0.014340094 -0.25163966
-0.13011934 -0.014259052 -0.25168973
-0.13011466 -0.014178442 -0.25171977
-0.13011038 -0.014098005 -0.25174189
-0.13010542 -0.014017265 -0.25177795
-0.13009931 -0.013934052 -0.25183591
-0.13009337 -0.013852879 -0.25189194
-0.13008775 -0.013769883 -0.25193995
-0.1300824 -0.013688969 -0.251984
-0.13007675 -0.013607928 -0.25203404
-0.13007045 -0.013524627 -0.25209603
-0.1300648 -0.013443585 -0.25214607
-0.13005869 -0.013360371 -0.25220406
-0.13005121 -0.013276551 -0.25228998
-0.13004488 -0.013195205 -0.25235403
-0.13003916 -0.013112165 -0.252404
-0.13003109 -0.013028086 -0.25250193
-0.13002488 -0.012944829 -0.25256193
-0.13001934 -0.01286383 -0.25260997
-0.13000615 -0.012773547 -0.25280964
-0.13000062 -0.012690593 -0.25285566
-0.12998927 -0.012603088 -0.25301945
-0.12998247 -0.012519572 -0.25309139
-0.12997489 -0.012435709 -0.25317934
-0.12996383 -0.012348333 -0.25333714
-0.1299552 -0.01226204 -0.253445
-0.13025419 -0.02667952 -0.2592054
-0.13025142 -0.026595823 -0.25919342
-0.13026237 -0.026500551 -0.25888544
-0.13043912 -0.026253069 -0.2549932
-0.13043711 -0.026171673 -0.25496727
-0.1304348 -0.026090147 -0.25494739
-0.13048249 -0.025964063 -0.25384742
-0.13048036 -0.025884576 -0.25382555
-0.13049771 -0.025786253 -0.25338167
-0.13049521 -0.025704641 -0.25336576
-0.13049822 -0.025619589 -0.25323185
-0.13051179 -0.02552744 -0.25287202
-0.13051175 -0.025444953 -0.25280413
-0.13051604 -0.025358509 -0.25264224
-0.1305166 -0.025274329 -0.25256032
-0.13051941 -0.025191143 -0.25243247
-0.13052073 -0.025107309 -0.25233459
-0.13052018 -0.025026564 -0.25227875
-0.13051955 -0.024943817 -0.25222284
-0.1305187 -0.024862941 -0.25217298
-0.13051796 -0.024782108 -0.25212112
-0.13051839 -0.024699841 -0.25204325
-0.13051815 -0.024617268 -0.25197935
-0.13051772 -0.024534609 -0.25191945
-0.13051707 -0.024453819 -0.2518656
-0.13051622 -0.024372943 -0.25181574
-0.13051528 -0.024292022 -0.25176787
-0.13051443 -0.024211146 -0.25171801
-0.13051338 -0.024130184 -0.25167215
-0.13051166 -0.024048917 -0.25164026
-0.13050972 -0.02396952 -0.25161439
-0.13050818 -0.02388834 -0.25157851
-0.13050693 -0.023809245 -0.25153869
-0.13050511 -0.023727935 -0.2515088
-0.13050298 -0.02364845 -0.25148696
-0.13050084 -0.023568965 -0.25146508
-0.13049853 -0.023487441 -0.25144517
-0.1304964 -0.023407955 -0.25142333
-0.13049369 -0.023328211 -0.25141346
-0.13049047 -0.023248252 -0.25141358
-0.13048786 -0.023168549 -0.25140172
-0.13048552 -0.023088979 -0.25138384
-0.13048251 -0.023009105 -0.25137997
-0.13047899 -0.022930969 -0.2513881
-0.13047588 -0.02285105 -0.25138623
-0.13047306 -0.022771265 -0.25137836
-0.13046917 -0.022691 -0.25139245
-0.13046497 -0.022612561 -0.2514146
-0.13046157 -0.022532515 -0.25141868
-0.13045815 -0.022454422 -0.25142485
-0.13045424 -0.022376113 -0.25144097
-0.13045055 -0.022295935 -0.25145108
-0.13044712 -0.022217844 -0.25145721
-0.13044392 -0.022137884 -0.25145733
-0.1304412 -0.022058139 -0.25144747
-0.13043779 -0.021978091 -0.25145158
-0.1304338 -0.021899739 -0.25146973
-0.1304296 -0.0218213 -0.25149184
-0.13042541 -0.021740906 -0.25151193
-0.13042191 -0.021660816 -0.25151801
-0.13041869 -0.02158281 -0.25152019
-0.13041508 -0.021502677 -0.25152829
-0.13041137 -0.021424454 -0.25154042
-0.13040759 -0.021344233 -0.25155252
-0.13040379 -0.021264013 -0.25156462
-0.13040036 -0.021185922 -0.25157076
-0.13039687 -0.021105831 -0.2515769
-0.13039356 -0.021025827 -0.25157899
-0.13039084 -0.020946082 -0.25156912
-0.13038781 -0.020868164 -0.25156727
-0.13038392 -0.020787898 -0.25158137
-0.13037993 -0.020707592 -0.25159746
-0.13037632 -0.020629413 -0.25160763
-0.1303733 -0.020549539 -0.25160372
-0.1303702 -0.020469623 -0.25160185
-0.13036638 -0.020391356 -0.251616
-0.1303625 -0.020311093 -0.2516301
-0.1303589 -0.020230958 -0.25163817
-0.13035618 -0.020151215 -0.25162831
-0.13035385 -0.020071644 -0.25161046
-0.13035084 -0.01999177 -0.25160658
-0.13034692 -0.019913461 -0.25162271
-0.13034303 -0.019833198 -0.2516368
-0.13033994 -0.019753279 -0.25163493
-0.13033693 -0.019673405 -0.25163105
-0.13033339 -0.019595269 -0.25163919
-0.1303301 -0.019515267 -0.2516413
-0.13032679 -0.019435262 -0.25164342
-0.13032398 -0.019355474 -0.25163555
-0.13032135 -0.019275773 -0.25162369
-0.13031842 -0.019197898 -0.25161985
-0.13031602 -0.019116329 -0.25160193
-0.13031347 -0.019038625 -0.2515901
-0.13031016 -0.018958621 -0.25159222
-0.13030735 -0.018878834 -0.25158435
-0.13030404 -0.01879883 -0.25158644
-0.13030075 -0.018718826 -0.25158855
-0.1302982 -0.018641124 -0.25157675
-0.13029598 -0.01855964 -0.25155485
-0.13029334 -0.018481893 -0.25154501
-0.13028975 -0.018401761 -0.25155312
-0.13028693 -0.018321972 -0.25154525
-0.13028431 -0.018242272 -0.25153339
-0.1302812 -0.018162355 -0.25153148
-0.13027748 -0.018084133 -0.25154364
-0.13027409 -0.018004086 -0.25154775
-0.13027117 -0.017924255 -0.25154185
-0.13026784 -0.017846204 -0.25154603
-0.13026492 -0.017766375 -0.25154012
-0.13026299 -0.017686976 -0.25151429
-0.13026105 -0.017607577 -0.25148845
-0.13025881 -0.01752805 -0.25146857
-0.1302558 -0.017448176 -0.25146469
-0.13025241 -0.017368129 -0.25146881
-0.13024986 -0.017290426 -0.25145698
-0.13024801 -0.017211072 -0.25142914
-0.13024549 -0.017131414 -0.25141528
-0.13024238 -0.017051496 -0.2514134
-0.13023975 -0.016971795 -0.25140151
-0.13023703 -0.016894005 -0.25139368
-0.13023362 -0.016813958 -0.25139779
-0.13023071 -0.016734127 -0.25139192
-0.13022798 -0.016654383 -0.25138205
-0.13022508 -0.016574552 -0.25137618
-0.13022223 -0.01649672 -0.25137034
-0.13021913 -0.016416803 -0.25136846
-0.13021582 -0.016336799 -0.25137058
-0.13021289 -0.016258921 -0.25136673
-0.13021046 -0.016179308 -0.25135088
-0.13020822 -0.016099781 -0.251331
-0.13020521 -0.016019907 -0.25132713
-0.13020152 -0.015939729 -0.25133723
-0.130198 -0.015861593 -0.2513454
-0.13019441 -0.015781458 -0.25135347
-0.13019061 -0.015701238 -0.25136557
-0.13018683 -0.015621019 -0.25137767
-0.13018332 -0.015540929 -0.25138378
-0.13018009 -0.015462922 -0.25138593
-0.13017729 -0.015383135 -0.25137806
-0.13017456 -0.01530339 -0.25136819
-0.13017094 -0.015225211 -0.25137833
-0.13016649 -0.015142733 -0.25140238
-0.13016258 -0.015064424 -0.2514185
-0.13015859 -0.014984118 -0.25143459
-0.13015442 -0.014903724 -0.25145468
-0.13015062 -0.014823504 -0.25146678
-0.13014625 -0.014743024 -0.25149086
-0.13014138 -0.014662327 -0.25152493
-0.13013671 -0.014581718 -0.251555
-0.13013203 -0.014501108 -0.25158507
-0.13012776 -0.014420671 -0.25160715
-0.13012299 -0.014340018 -0.25163922
-0.13011736 -0.014258975 -0.25168926
-0.13011268 -0.014178365 -0.25171933
-0.1301084 -0.014097929 -0.25174141
-0.13010335 -0.014017146 -0.25177947
-0.13009723 -0.013933932 -0.25183746
-0.13009129 -0.01385276 -0.25189349
-0.13008566 -0.013769763 -0.25194147
-0.13008031 -0.01368885 -0.25198555
-0.13007477 -0.013607851 -0.25203359
-0.13006847 -0.013524551 -0.25209555
-0.13006291 -0.013443552 -0.25214362
-0.13005671 -0.013360295 -0.25220358
-0.13004912 -0.013276432 -0.25229153
-0.1300429 -0.013195129 -0.25235355
-0.13003708 -0.013112046 -0.25240555
-0.13002902 -0.013027966 -0.25250348
-0.13002281 -0.01294471 -0.25256345
-0.13001727 -0.012863711 -0.25261152
-0.13000408 -0.012773428 -0.25281119
-0.12999855 -0.012690473 -0.25285721
-0.12998736 -0.01260501 -0.25301903
-0.12998039 -0.012519453 -0.25309294
-0.12997292 -0.012435633 -0.25317889
-0.12996185 -0.012348257 -0.25333667
-0.12995313 -0.012261921 -0.25344652
-0.13025637 -0.026680466 -0.2592057
-0.13025358 -0.02659677 -0.25919375
-0.13026454 -0.026501497 -0.2588858
-0.13044128 -0.026254032 -0.2549935
-0.13043916 -0.026172591 -0.2549696
-0.13043694 -0.02609111 -0.25494769
-0.13043575 -0.026006151 -0.25490174
-0.13048242 -0.0258855 -0.25382787
-0.13049987 -0.025787223 -0.25338197
-0.13049735 -0.025705609 -0.25336605
-0.13050027 -0.025620515 -0.25323415
-0.13051385 -0.025528368 -0.25287431
-0.13051379 -0.025445882 -0.25280643
-0.13051809 -0.025359437 -0.25264454
-0.13051875 -0.025275301 -0.25256065
-0.13052146 -0.025192074 -0.25243479
-0.13052279 -0.025108241 -0.25233689
-0.13052234 -0.025027536 -0.25227904
-0.1305217 -0.024944792 -0.25222313
-0.13052085 -0.024863916 -0.25217327
-0.13052011 -0.024783082 -0.25212142
-0.13052045 -0.02470077 -0.25204557
-0.13052021 -0.024618199 -0.25198165
-0.13051987 -0.024535585 -0.25191978
-0.13051912 -0.02445475 -0.25186789
-0.13051827 -0.024373874 -0.25181806
-0.13051742 -0.024292998 -0.25176817
-0.13051648 -0.024212079 -0.25172031
-0.13051544 -0.024131116 -0.25167444
-0.13051371 -0.024049848 -0.25164255
-0.13051188 -0.023970496 -0.25161472
-0.13051035 -0.023889316 -0.25157884
-0.13050909 -0.023810223 -0.25153899
-0.13050717 -0.02372887 -0.2515111
-0.13050513 -0.023649428 -0.25148726
-0.13050289 -0.023569901 -0.25146741
-0.13050058 -0.023488374 -0.2514475
-0.13049845 -0.02340889 -0.25142562
-0.13049583 -0.023329189 -0.25141376
-0.13049263 -0.023249228 -0.25141388
-0.13048992 -0.023169484 -0.25140399
-0.13048758 -0.023089912 -0.25138614
-0.13048457 -0.023010038 -0.25138226
-0.13048105 -0.022931904 -0.2513904
-0.13047794 -0.022851985 -0.25138852
-0.13047512 -0.022772197 -0.25138065
-0.13047133 -0.022691976 -0.25139275
-0.13046713 -0.022613538 -0.2514149
-0.13046363 -0.022533448 -0.25142097
-0.13046031 -0.022455398 -0.25142515
-0.1304563 -0.022377046 -0.25144327
-0.1304526 -0.022296868 -0.25145337
-0.13044928 -0.02221882 -0.25145751
-0.13044608 -0.02213886 -0.25145763
-0.13044326 -0.022059072 -0.25144976
-0.13043986 -0.021979025 -0.25145388
-0.13043594 -0.021900715 -0.25147
-0.13043167 -0.021820279 -0.25149208
-0.13042746 -0.021741839 -0.25151423
-0.13042407 -0.021661792 -0.25151831
-0.13042085 -0.021583786 -0.25152048
-0.13041715 -0.021503609 -0.25153059
-0.13041343 -0.021425387 -0.25154272
-0.13040975 -0.021345209 -0.25155282
-0.13040595 -0.021264989 -0.25156492
-0.13040254 -0.021186898 -0.25157106
-0.13039893 -0.021106765 -0.25157917
-0.13039573 -0.021026803 -0.25157928
-0.130393 -0.020947058 -0.25156942
-0.13038987 -0.020869097 -0.25156957
-0.13038608 -0.020788874 -0.25158167
-0.130382 -0.020708526 -0.25159976
-0.13037848 -0.020630389 -0.25160789
