# .PCD v0.7 - Point Cloud Data file format
VERSION 0.7
FIELDS x y z
SIZE 4 4 4
TYPE F F F
COUNT 1 1 1
WIDTH 1284
HEIGHT 1
VIEWPOINT 0 0 0 1 0 0 0
POINTS 1284
DATA ascii
-0.10982449 0.0051806346 -0.22944978
-0.10982109 0.0052587278 -0.22945592
-0.10981674 0.0053392146 -0.22948
-0.10981241 0.0054216515 -0.22950202
-0.10980844 0.0055019632 -0.2295181
-0.10980534 0.0055799261 -0.22951825
-0.10980224 0.0056578908 -0.2295184
-0.10979884 0.0057359841 -0.22952455
-0.10979583 0.0058139041 -0.22952271
-0.10979339 0.0058896076 -0.2295109
-0.10979122 0.0059632286 -0.22949517
-0.10978831 0.006041104 -0.22949132
-0.10978511 0.0061191116 -0.22949347
-0.10978182 0.006197162 -0.22949761
-0.109777 0.0062798206 -0.22952963
-0.1097718 0.0063646063 -0.22956759
-0.10976814 0.0064447839 -0.22957768
-0.10976511 0.0065207519 -0.22957787
-0.1097623 0.0065985844 -0.22957203
-0.1097592 0.0066765491 -0.22957218
-0.10975543 0.0067567714 -0.22958428
-0.10975184 0.0068349522 -0.22959441
-0.10974874 0.0069129169 -0.22959456
-0.1097461 0.0069887079 -0.22958677
-0.10974375 0.0070643667 -0.22957298
-0.10974151 0.0071399845 -0.22955719
-0.10973755 0.0072202962 -0.22957328
-0.10973272 0.0073029529 -0.22960529
-0.10972811 0.0073855221 -0.2296333
-0.10972434 0.0074657463 -0.2296454
-0.10972113 0.0075437538 -0.22964755
-0.10971852 0.0076215006 -0.2296377
-0.10971615 0.0076952055 -0.22962597
-0.10971373 0.0077728629 -0.22961214
-0.1097111 0.0078486539 -0.22960433
-0.10970865 0.0079243593 -0.22959256
-0.10970631 0.0080000218 -0.22957876
-0.10970358 0.0080758557 -0.22957298
-0.10970028 0.0081539061 -0.22957712
-0.10969661 0.0082340837 -0.2295872
-0.10969304 0.0083142221 -0.2295953
-0.10968907 0.0083945319 -0.22961138
-0.10968548 0.0084727146 -0.22962153
-0.10968267 0.0085505489 -0.22961567
-0.10968013 0.0086262953 -0.22960588
-0.10967779 0.0087019559 -0.22959211
-0.10967554 0.0087775718 -0.22957632
-0.1096729 0.0088533629 -0.22956854
-0.10966934 0.0089335013 -0.22957662
-0.10966594 0.0090115946 -0.22958277
-0.10966294 0.0090895146 -0.22958092
-0.10965944 0.0091676526 -0.22958906
-0.10981386 -0.009326227 -0.24171793
-0.10981111 -0.00924253 -0.24170597
-0.10980766 -0.0091604833 -0.24171002
-0.10993148 -0.0092295557 -0.23918596
-0.10992852 -0.0091477279 -0.23918003
-0.11012506 -0.0093082041 -0.23521546
-0.11023574 -0.0093694394 -0.23295896
-0.11024927 -0.0093126521 -0.23262991
-0.11025432 -0.009242258 -0.2324664
-0.11026079 -0.0091764266 -0.23227701
-0.110263 -0.0091047687 -0.23217139
-0.11026379 -0.0090305023 -0.23209369
-0.11026532 -0.008958539 -0.23200208
-0.11026435 -0.0088834884 -0.23196033
-0.11026385 -0.0088086566 -0.23190862
-0.11026473 -0.0087344339 -0.23182893
-0.11026394 -0.0086594699 -0.23178318
-0.11026316 -0.0085845068 -0.23173745
-0.11026238 -0.0085095437 -0.2316917
-0.1102612 -0.0084344056 -0.23165396
-0.11026149 -0.0083599212 -0.23158625
-0.11026166 -0.0082873479 -0.23152259
-0.11026127 -0.0082125599 -0.23146886
-0.1102632 -0.0081407707 -0.23136926
-0.11026481 -0.0080708051 -0.23127767
-0.11026471 -0.0079961475 -0.23121797
-0.11026566 -0.0079239225 -0.23113832
-0.11026661 -0.0078516984 -0.23105867
-0.11026707 -0.0077792555 -0.23098901
-0.11026705 -0.0077065956 -0.23092934
-0.11026646 -0.0076317191 -0.23087962
-0.11026683 -0.0075592333 -0.23081195
-0.11026749 -0.007486878 -0.23073831
-0.11026727 -0.0074141305 -0.23068264
-0.11026648 -0.0073391665 -0.23063689
-0.1102658 -0.0072642462 -0.23058917
-0.11026394 -0.0071888044 -0.2305654
-0.11026169 -0.0071131866 -0.23054962
-0.11026101 -0.0070382664 -0.23050189
-0.1102604 -0.0069653457 -0.23045421
-0.11025769 -0.0068875551 -0.23044635
-0.11025447 -0.0068115033 -0.23045054
-0.11025107 -0.0067334082 -0.23045669
-0.11024701 -0.0066530555 -0.23047477
-0.11024293 -0.006574655 -0.23049489
-0.11023904 -0.0064963419 -0.23051101
-0.11023431 -0.0064156838 -0.23054308
-0.11023042 -0.0063373717 -0.2305592
-0.11022712 -0.0062593203 -0.23056334
-0.11022199 -0.0061784871 -0.2306034
-0.110216 -0.0060953079 -0.23065937
-0.11021231 -0.0060170814 -0.2306715
-0.11021036 -0.0059415959 -0.23064972
-0.11020686 -0.0058634579 -0.23065788
-0.11020356 -0.0057854066 -0.23066202
-0.11020193 -0.0057080965 -0.2306322
-0.11019987 -0.0056325672 -0.23061243
-0.11019887 -0.0055594705 -0.23057273
-0.1101976 -0.0054842895 -0.23053697
-0.11019469 -0.0054064114 -0.23053312
-0.11019303 -0.0053310571 -0.23050538
-0.11019252 -0.0052581783 -0.2304557
-0.11019113 -0.0051849084 -0.23042397
-0.11018939 -0.0051075537 -0.23039617
-0.1101879 -0.0050342409 -0.23036645
-0.11018529 -0.004956495 -0.23035662
-0.11018236 -0.0048805717 -0.23035482
-0.11017955 -0.0048027392 -0.23034897
-0.11017683 -0.0047249496 -0.23034114
-0.11017459 -0.0046493327 -0.23032536
-0.11017178 -0.0045715002 -0.23031951
-0.11016808 -0.0044932738 -0.23033166
-0.1101644 -0.0044150501 -0.23034379
-0.1101611 -0.0043369988 -0.23034793
-0.1101576 -0.0042588608 -0.23035607
-0.11015411 -0.0041807219 -0.2303642
-0.1101514 -0.0041029332 -0.23035637
-0.11014925 -0.0040273601 -0.23033859
-0.11014759 -0.0039520031 -0.23031083
-0.11014735 -0.0038812105 -0.2302572
-0.11014703 -0.0038084202 -0.23020351
-0.11014613 -0.0037353672 -0.23016182
-0.11014515 -0.0036603175 -0.23012008
-0.11014444 -0.0035873512 -0.23007439
-0.11014345 -0.0035142545 -0.23003468
-0.11014205 -0.0034409845 -0.23000298
-0.11014039 -0.0033656284 -0.22997522
-0.11013979 -0.0032927077 -0.22992754
-0.11013859 -0.0032195235 -0.22989184
-0.11013605 -0.0031437753 -0.22988205
-0.11013314 -0.003065899 -0.22987819
-0.1101307 -0.0029901946 -0.22986642
-0.11012845 -0.0029145777 -0.22985063
-0.11012623 -0.002837006 -0.22983281
-0.11012464 -0.0027636476 -0.2298051
-0.11012288 -0.0026882496 -0.22977933
-0.11011986 -0.0026122825 -0.22977951
-0.1101157 -0.0025318861 -0.2297996
-0.11011211 -0.0024537034 -0.22980973
-0.11011025 -0.0023782616 -0.22978598
-0.11010916 -0.0023051221 -0.22974825
-0.11010855 -0.0022321995 -0.22970057
-0.11010936 -0.0021638405 -0.22962701
-0.11010836 -0.0020907447 -0.22958732
-0.11010707 -0.0020175166 -0.22955361
-0.11010685 -0.0019447692 -0.22949794
-0.11010632 -0.0018738452 -0.2294503
-0.11010542 -0.0018007932 -0.22940861
-0.11010402 -0.0017275224 -0.2293769
-0.11010207 -0.0016520368 -0.22935513
-0.11010078 -0.0015788097 -0.22932142
-0.11009998 -0.0015057996 -0.22927773
-0.11009849 -0.0014324859 -0.22924802
-0.11009671 -0.0013590418 -0.22922429
-0.11009456 -0.0012834687 -0.22920652
-0.11009185 -0.001205679 -0.22919868
-0.11008853 -0.0011295825 -0.22920486
-0.11008437 -0.0010491852 -0.22922494
-0.11008021 -0.00096878782 -0.22924501
-0.11007585 -0.00089025684 -0.22927113
-0.11007132 -0.00080773048 -0.22929713
-0.1100679 -0.00073159114 -0.22930533
-0.11006509 -0.00065375678 -0.22929949
-0.1100613 -0.00057548843 -0.22931361
-0.11005666 -0.00049487315 -0.22934368
-0.11005279 -0.00041460618 -0.22935776
-0.11004996 -0.00033872761 -0.22935396
-0.11004696 -0.00026080757 -0.22935212
-0.11004385 -0.0001828447 -0.22935227
-0.11004053 -0.00010674819 -0.22935845
-0.11003706 -2.6654452e-05 -0.22936454
-0.11003423 4.9224123e-05 -0.22936076
-0.11003142 0.00012705661 -0.22935492
-0.11002888 0.0002028048 -0.22934511
-0.11002634 0.00027855299 -0.22933534
-0.11002294 0.00035664625 -0.22934148
-0.11001888 0.00043700077 -0.22935955
-0.11001492 0.00051731057 -0.22937563
-0.11001094 0.00059566647 -0.22939375
-0.11000754 0.00067376159 -0.22939989
-0.11000473 0.00075159408 -0.22939406
-0.11000266 0.00082517043 -0.22937633
-0.10999985 0.00090300292 -0.22937047
-0.10999606 0.00098127127 -0.22938462
-0.10999247 0.0010594539 -0.22939475
-0.1099888 0.0011396334 -0.22940484
-0.10998493 0.0012199003 -0.22941892
-0.10998144 0.0012980383 -0.22942707
-0.10997824 0.0013760459 -0.22942922
-0.10997445 0.0014543142 -0.22944334
-0.10997069 0.0015345365 -0.22945541
-0.10996757 0.0016105454 -0.22945762
-0.10996495 0.0016882904 -0.22944778
-0.10996175 0.0017662998 -0.22944993
-0.10995835 0.001844395 -0.22945607
-0.10995476 0.0019225758 -0.2294662
-0.10995127 0.0020007137 -0.22947434
-0.10994826 0.0020786338 -0.22947249
-0.10994582 0.0021543372 -0.22946072
-0.10994271 0.0022323001 -0.22946087
-0.10993885 0.0023125671 -0.22947493
-0.10993535 0.0023907088 -0.22948308
-0.10993291 0.0024664104 -0.2294713
-0.10993037 0.0025421586 -0.22946151
-0.10992688 0.0026202966 -0.22946966
-0.10992397 0.0026981719 -0.22946581
-0.10992192 0.0027737021 -0.22944602
-0.10991928 0.002849495 -0.22943825
-0.10991637 0.0029273704 -0.2294344
-0.10991345 0.0030032936 -0.2294326
-0.10991063 0.0030811261 -0.22942676
-0.1099078 0.0031570047 -0.22942296
-0.10990413 0.0032371841 -0.22943304
-0.10990007 0.0033175386 -0.22945112
-0.10989601 0.0033978932 -0.22946921
-0.1098909 0.0034806803 -0.22950719
-0.10988731 0.003558863 -0.22951734
-0.10988479 0.0036365651 -0.22950551
-0.10988215 0.0037123561 -0.2294977
-0.10987961 0.0037881024 -0.22948793
-0.10987661 0.0038660225 -0.22948608
-0.10987331 0.0039440729 -0.22949022
-0.10987011 0.0040220823 -0.22949237
-0.1098671 0.0041000023 -0.22949052
-0.10986398 0.0041760113 -0.22949272
-0.10986041 0.0042561479 -0.2295008
-0.10985691 0.0043342859 -0.22950894
-0.10985371 0.0044122934 -0.22951108
-0.10985117 0.0044880398 -0.22950131
-0.10984816 0.0045659617 -0.22949946
-0.1098446 0.0046460982 -0.22950754
-0.109841 0.004724279 -0.22951768
-0.10983885 0.0047998521 -0.22949991
-0.10983678 0.0048734266 -0.22948217
-0.10983358 0.0049514342 -0.22948432
-0.10983077 0.0050292686 -0.22947848
-0.1098287 0.005102843 -0.22946075
-0.10982627 0.0051805004 -0.22944692
-0.10982288 0.0052585956 -0.22945306
-0.10981833 0.005339168 -0.22948113
-0.109814 0.0054216068 -0.22950315
-0.10981014 0.0055018738 -0.22951722
-0.10980704 0.0055798367 -0.22951737
-0.109804 0.0056558028 -0.22951758
-0.10980063 0.0057358518 -0.22952166
-0.10979763 0.0058137737 -0.22951981
-0.10979526 0.0058874786 -0.22950809
-0.10979301 0.0059630945 -0.22949231
-0.10979 0.0060410146 -0.22949046
-0.10978681 0.0061190221 -0.2294926
-0.10978351 0.0061970744 -0.22949675
-0.10977878 0.0062796883 -0.22952676
-0.1097736 0.0063644722 -0.22956473
-0.10977001 0.0064426549 -0.22957486
-0.10976709 0.0065205321 -0.22957101
-0.10976409 0.006598454 -0.22956917
-0.10976098 0.0066764168 -0.22956932
-0.10975712 0.0067566819 -0.2295834
-0.10975353 0.0068348646 -0.22959355
-0.10975052 0.0069127828 -0.2295917
-0.10974798 0.006988531 -0.22958189
-0.10974544 0.0070642792 -0.22957212
-0.1097432 0.0071398988 -0.22955632
-0.10973914 0.0072202496 -0.22957441
-0.10973451 0.0073028207 -0.22960243
-0.10972989 0.0073853899 -0.22963044
-0.10972612 0.007465614 -0.22964251
-0.10972302 0.0075435787 -0.22964267
-0.10972039 0.0076193698 -0.22963488
-0.10971804 0.0076950286 -0.2296211
-0.1097156 0.0077707339 -0.22960931
-0.10971297 0.0078465249 -0.2296015
-0.10971044 0.007924227 -0.22958969
-0.10970818 0.0079978891 -0.22957596
-0.10970537 0.0080757234 -0.22957011
-0.10970197 0.0081538167 -0.22957626
-0.1096983 0.0082339961 -0.22958633
-0.10969473 0.0083141346 -0.22959444
-0.10969087 0.0083944015 -0.22960852
-0.10968728 0.0084725823 -0.22961864
-0.10968456 0.008550372 -0.2296108
-0.10968202 0.0086261183 -0.22960103
-0.10967948 0.0087018665 -0.22959125
-0.10967723 0.0087774824 -0.22957546
-0.1096746 0.0088532753 -0.22956765
-0.10967093 0.0089334548 -0.22957775
-0.10966763 0.0090115052 -0.22958189
-0.10966472 0.0090893824 -0.22957805
-0.10966133 0.0091674775 -0.22958419
-0.10980801 -0.0093287798 -0.24170536
-0.10980487 -0.0092449086 -0.24170139
-0.10980132 -0.0091628181 -0.24170741
-0.10992514 -0.0092318878 -0.23918337
-0.10992217 -0.009150059 -0.23917744
-0.11011871 -0.0093105296 -0.23521285
-0.11023334 -0.0093774572 -0.23287857
-0.11024254 -0.0093128448 -0.23263326
-0.11024825 -0.0092447102 -0.2324578
-0.11025482 -0.0091789216 -0.23226643
-0.11025664 -0.0091070887 -0.23216879
-0.11025762 -0.0090329098 -0.23208711
-0.11025906 -0.0089609027 -0.23199749
-0.11025818 -0.0088858958 -0.23195374
-0.11025769 -0.0088110641 -0.23190202
-0.11025846 -0.0087367967 -0.23182434
-0.11025768 -0.0086618336 -0.23177859
-0.1102568 -0.0085868258 -0.23173486
-0.11025602 -0.0085118636 -0.23168911
-0.11025484 -0.0084367255 -0.23165137
-0.11025513 -0.0083622411 -0.23158365
-0.1102553 -0.0082896678 -0.23152
-0.11025491 -0.0082148788 -0.23146626
-0.11025693 -0.0081431335 -0.23136467
-0.11025845 -0.008073125 -0.23127508
-0.11025845 -0.0079985093 -0.23121336
-0.1102595 -0.0079263281 -0.23113173
-0.11026035 -0.0078540603 -0.23105408
-0.11026081 -0.0077816173 -0.23098443
-0.1102606 -0.0077088699 -0.23092875
-0.1102602 -0.0076340809 -0.23087503
-0.11026058 -0.0075615952 -0.23080736
-0.11026123 -0.0074892398 -0.23073372
-0.11026102 -0.0074164914 -0.23067805
-0.11026023 -0.0073415283 -0.23063231
-0.11025944 -0.0072665643 -0.23058659
-0.11025759 -0.0071911216 -0.23056281
-0.11025535 -0.0071155038 -0.23054703
-0.11025483 -0.0070426269 -0.23049733
-0.11025405 -0.0069676628 -0.23045161
-0.11025134 -0.0068898723 -0.23044378
-0.11024822 -0.0068138642 -0.23044595
-0.11024482 -0.0067357691 -0.23045209
-0.11024066 -0.0066553717 -0.23047218
-0.11023668 -0.0065770159 -0.2304903
-0.1102327 -0.00649866 -0.23050843
-0.11022796 -0.0064180018 -0.23054048
-0.11022417 -0.0063397326 -0.23055461
-0.11022087 -0.0062616812 -0.23055875
-0.11021575 -0.006180848 -0.23059881
-0.11020976 -0.0060976679 -0.23065478
-0.11020616 -0.006019487 -0.23066491
-0.11020412 -0.0059439568 -0.23064515
-0.11020072 -0.0058658626 -0.23065129
-0.11019732 -0.0057877675 -0.23065743
-0.11019576 -0.0057124551 -0.23062767
-0.11019363 -0.0056349281 -0.23060785
-0.11019263 -0.0055618314 -0.23056814
-0.11019136 -0.0054866495 -0.23053239
-0.11018845 -0.0054087732 -0.23052856
-0.11018679 -0.0053334171 -0.23050079
-0.11018628 -0.0052605383 -0.23045111
-0.1101848 -0.0051872246 -0.23042139
-0.11018306 -0.0051098708 -0.23039359
-0.11018157 -0.005036558 -0.23036388
-0.11017895 -0.0049588112 -0.23035404
-0.11017612 -0.0048829326 -0.23035024
-0.11017322 -0.0048050564 -0.2303464
-0.1101705 -0.0047272667 -0.23033856
-0.11016826 -0.0046516489 -0.23032278
-0.11016554 -0.0045738602 -0.23031494
-0.11016176 -0.0044955909 -0.23032907
-0.11015807 -0.0044173663 -0.2303412
-0.11015487 -0.0043393588 -0.23034334
-0.11015137 -0.0042612199 -0.23035148
-0.11014778 -0.0041830391 -0.23036163
-0.11014517 -0.0041052932 -0.23035179
-0.11014302 -0.0040297192 -0.23033401
-0.11014126 -0.0039543202 -0.23030823
-0.11014102 -0.0038835267 -0.23025462
-0.1101407 -0.0038107354 -0.23020093
-0.1101399 -0.0037377272 -0.23015724
-0.110139 -0.0036646733 -0.23011555
-0.11013822 -0.0035897112 -0.23006982
-0.11013712 -0.0035165707 -0.23003212
-0.11013573 -0.0034432998 -0.23000041
-0.11013407 -0.0033679446 -0.22997263
-0.11013346 -0.0032950221 -0.22992495
-0.11013227 -0.0032218387 -0.22988924
-0.11012973 -0.0031460915 -0.22987947
-0.11012682 -0.0030682152 -0.22987561
-0.11012438 -0.0029925099 -0.22986382
-0.11012214 -0.002916893 -0.22984806
-0.11012009 -0.0028413627 -0.22982827
-0.11011833 -0.0027659638 -0.22980252
-0.11011657 -0.0026905648 -0.22977674
-0.11011364 -0.0026146416 -0.22977495
-0.11010949 -0.0025342451 -0.22979501
-0.11010589 -0.0024560625 -0.22980516
-0.11010394 -0.0023805769 -0.22978339
-0.11010294 -0.0023074802 -0.22974369
-0.11010224 -0.0022345139 -0.229698
-0.11010305 -0.0021661548 -0.22962444
-0.11010215 -0.0020931028 -0.22958276
-0.11010076 -0.0020198319 -0.22955105
-0.11010063 -0.0019471273 -0.22949338
-0.11010001 -0.0018761596 -0.22944772
-0.11009911 -0.0018031076 -0.22940603
-0.11009772 -0.0017298367 -0.22937432
-0.11009576 -0.0016543511 -0.22935255
-0.11009447 -0.0015811231 -0.22931884
-0.11009367 -0.001508113 -0.22927514
-0.11009209 -0.0014347564 -0.22924742
-0.1100904 -0.0013613552 -0.22922172
-0.11008826 -0.0012857821 -0.22920394
-0.11008555 -0.0012079924 -0.2291961
-0.11008222 -0.0011318959 -0.2292023
-0.11007816 -0.0010515414 -0.22922036
-0.11007392 -0.00097110122 -0.22924244
-0.11006954 -0.00089257024 -0.22926855
-0.11006501 -0.00081004389 -0.22929457
-0.1100616 -0.00073390454 -0.22930276
-0.11005879 -0.00065607019 -0.22929692
-0.11005501 -0.00057780184 -0.22931105
-0.11005036 -0.00049718656 -0.22934109
-0.1100465 -0.00041691959 -0.22935519
-0.11004367 -0.00034104101 -0.22935139
-0.11004066 -0.00026312098 -0.22934954
-0.11003756 -0.0001851581 -0.2293497
-0.11003423 -0.0001090616 -0.22935587
-0.11003076 -2.8967857e-05 -0.22936198
-0.11002793 4.6910718e-05 -0.22935817
-0.11002512 0.00012474321 -0.22935234
-0.11002258 0.0002004914 -0.22934255
-0.11002005 0.00027623773 -0.22933275
-0.11001665 0.00035433285 -0.22933891
-0.11001259 0.00043468736 -0.22935697
-0.11000863 0.00051499717 -0.22937305
-0.11000465 0.00059335306 -0.22939119
-0.11000125 0.00067144819 -0.22939733
-0.10999844 0.00074928068 -0.22939149
-0.10999637 0.00082285702 -0.22937375
-0.10999356 0.00090068951 -0.22936791
-0.10998978 0.00097895786 -0.22938204
-0.10998619 0.0010571405 -0.22939217
-0.10998251 0.00113732 -0.22940227
-0.10997865 0.0012175869 -0.22941634
-0.10997516 0.0012957249 -0.22942449
-0.10997196 0.0013737325 -0.22942662
-0.10996817 0.0014520008 -0.22944076
-0.10996441 0.0015322231 -0.22945285
-0.10996138 0.0016081873 -0.22945304
-0.10995867 0.0016859788 -0.2294452
-0.10995547 0.0017639864 -0.22944736
-0.10995207 0.0018420815 -0.2294535
-0.10994848 0.0019202624 -0.22946364
-0.10994498 0.0019984003 -0.22947177
-0.10994198 0.0020763204 -0.22946993
-0.10993954 0.0021520257 -0.22945814
-0.10993644 0.0022299886 -0.22945829
-0.10993257 0.0023102555 -0.22947237
-0.10992908 0.0023883935 -0.2294805
-0.10992654 0.0024641417 -0.22947073
-0.1099241 0.0025398452 -0.22945894
-0.10992061 0.002617985 -0.22946708
-0.1099178 0.0026958175 -0.22946124
-0.10991564 0.0027713906 -0.22944346
-0.10991301 0.0028471816 -0.22943567
-0.10991028 0.0029230174 -0.22942987
-0.10990717 0.0030009821 -0.22943002
-0.10990436 0.0030788146 -0.22942418
-0.10990153 0.0031546932 -0.22942038
-0.10989787 0.0032348707 -0.22943047
-0.10989381 0.0033152252 -0.22944856
-0.10988975 0.0033955798 -0.22946663
-0.10988454 0.0034784116 -0.22950663
-0.10988104 0.0035565495 -0.22951476
-0.10987853 0.0036342517 -0.22950293
-0.1098759 0.0037100427 -0.22949514
-0.10987335 0.0037857909 -0.22948536
-0.10987034 0.0038637109 -0.22948352
-0.10986705 0.0039417613 -0.22948766
-0.10986385 0.0040197689 -0.2294898
-0.10986092 0.0040956903 -0.229488
-0.10985772 0.0041736998 -0.22949015
-0.10985415 0.0042538363 -0.22949824
-0.10985056 0.0043320172 -0.22950837
-0.10984746 0.00440998 -0.22950852
-0.10984492 0.0044857282 -0.22949873
-0.10984201 0.0045636036 -0.2294949
-0.10983834 0.0046437848 -0.22950497
-0.10983475 0.0047219656 -0.22951511
-0.1098326 0.0047975406 -0.22949734
-0.10983053 0.0048711151 -0.22947961
-0.10982732 0.0049491227 -0.22948176
-0.10982452 0.0050269552 -0.22947592
-0.10982244 0.0051005315 -0.22945818
-0.10982002 0.0051781889 -0.22944435
-0.10981663 0.005256284 -0.22945049
-0.10981208 0.0053368565 -0.22947855
-0.10980775 0.0054192953 -0.22950059
-0.10980389 0.0054995622 -0.22951467
-0.10980088 0.0055774823 -0.22951283
-0.10979776 0.0056534912 -0.22951502
-0.10979439 0.0057335403 -0.22951911
-0.10979138 0.0058114622 -0.22951727
-0.10978901 0.005885167 -0.22950554
-0.10978677 0.005960783 -0.22948974
-0.10978376 0.006038703 -0.2294879
-0.10978056 0.0061167106 -0.22949004
-0.10977726 0.0061947629 -0.22949418
-0.10977254 0.0062773768 -0.2295242
-0.10976736 0.0063621607 -0.22956216
-0.10976386 0.0064403005 -0.2295703
-0.10976086 0.0065182205 -0.22956845
-0.10975785 0.0065961406 -0.2295666
-0.10975475 0.0066741053 -0.22956675
-0.10975088 0.0067543704 -0.22958083
-0.10974739 0.0068325084 -0.22958897
-0.10974438 0.0069104284 -0.22958712
-0.10974175 0.0069862213 -0.22957933
-0.1097393 0.0070619248 -0.22956756
-0.10973696 0.0071375854 -0.22955377
-0.1097329 0.0072179381 -0.22957185
-0.10972828 0.0073005091 -0.22959986
-0.10972366 0.0073830783 -0.22962788
-0.10971999 0.0074632578 -0.22963797
-0.10971679 0.0075412653 -0.22964011
-0.10971416 0.0076170564 -0.22963232
-0.10971181 0.0076927189 -0.22961855
-0.10970937 0.0077684224 -0.22960675
-0.10970683 0.0078441687 -0.22959697
-0.10970422 0.0079219155 -0.22958714
-0.10970205 0.0079955366 -0.2295714
-0.10969914 0.0080734119 -0.22956756
-0.10969574 0.008151507 -0.2295737
-0.10969207 0.0082316846 -0.22958377
-0.10968851 0.0083118211 -0.22959188
-0.10968464 0.0083920881 -0.22960596
-0.10968114 0.0084702261 -0.22961409
-0.10967834 0.0085480604 -0.22960825
-0.1096758 0.0086238086 -0.22959846
-0.10967326 0.0086995549 -0.22958869
-0.10967101 0.0087751728 -0.22957291
-0.10966838 0.0088509619 -0.22956511
-0.10966481 0.0089311004 -0.22957319
-0.10966142 0.0090091936 -0.22957933
-0.1096585 0.0090870727 -0.2295755
-0.1096551 0.0091651659 -0.22958164
-0.1098084 -0.0093242126 -0.24172907
-0.10980631 -0.0092427749 -0.24170515
-0.10980286 -0.0091607291 -0.2417092
-0.10992668 -0.0092297997 -0.23918515
-0.10992381 -0.0091480147 -0.23917721
-0.11012036 -0.009308489 -0.23521262
-0.11023083 -0.009369636 -0.23296013
-0.11024465 -0.0093129789 -0.2326251
-0.11024901 -0.0092422795 -0.23247555
-0.11025549 -0.009176448 -0.23228616
-0.11025809 -0.0091049643 -0.23217258
-0.11025888 -0.0090306979 -0.23209488
-0.11026041 -0.0089587346 -0.23200326
-0.11025923 -0.0088835973 -0.23196551
-0.11025874 -0.0088087646 -0.23191378
-0.11025943 -0.0087344553 -0.23183808
-0.11025894 -0.0086596217 -0.23178637
-0.11025825 -0.0085847024 -0.23173863
-0.11025747 -0.0085097384 -0.23169288
-0.11025639 -0.008434644 -0.23165315
-0.11025668 -0.0083601605 -0.23158544
-0.11025666 -0.0082874997 -0.23152578
-0.11025617 -0.008212667 -0.23147404
-0.110258 -0.008140835 -0.23137642
-0.11025961 -0.0080708694 -0.23128484
-0.11025961 -0.0079962546 -0.23122314
-0.11026066 -0.0079240734 -0.23114149
-0.1102616 -0.0078518493 -0.23106185
-0.11026217 -0.0077794502 -0.2309902
-0.11026224 -0.0077068331 -0.23092854
-0.11026146 -0.00763187 -0.23088279
-0.11026183 -0.0075593842 -0.23081514
-0.11026259 -0.0074870726 -0.23073949
-0.11026246 -0.007414368 -0.23068182
-0.11026168 -0.007339404 -0.23063609
-0.1102609 -0.0072644409 -0.23059034
-0.11025904 -0.0071889982 -0.23056658
-0.11025679 -0.0071133804 -0.2305508
-0.11025601 -0.0070384173 -0.23050506
-0.1102555 -0.0069655394 -0.23045537
-0.11025289 -0.0068877926 -0.23044553
-0.11024956 -0.006811697 -0.23045173
-0.11024617 -0.0067336028 -0.23045787
-0.11024211 -0.0066532483 -0.23047595
-0.11023803 -0.0065748487 -0.23049608
-0.11023415 -0.0064965365 -0.2305122
-0.11022951 -0.0064159222 -0.23054226
-0.11022562 -0.0063376091 -0.2305584
-0.11022213 -0.0062594702 -0.23056653
-0.1102169 -0.0061785942 -0.23060857
-0.11021081 -0.0060953703 -0.23066655
-0.11020713 -0.0060171448 -0.23067868
-0.11020527 -0.005941703 -0.23065491
-0.1102019 -0.005861653 -0.23065899
-0.11019857 -0.0057855565 -0.23066519
-0.11019703 -0.0057082903 -0.23063338
-0.11019479 -0.0056326734 -0.2306176
-0.11019379 -0.0055595776 -0.23057792
-0.11019261 -0.0054844394 -0.23054016
-0.1101898 -0.005406606 -0.23053432
-0.11018795 -0.0053311633 -0.23051055
-0.11018724 -0.0052581979 -0.23046486
-0.11018597 -0.0051830169 -0.23042911
-0.1101843 -0.0051076608 -0.23040134
-0.11018302 -0.0050344346 -0.23036763
-0.1101805 -0.0049567325 -0.2303558
-0.11017757 -0.0048808092 -0.23035401
-0.11017456 -0.0048028892 -0.23035216
-0.11017185 -0.0047251005 -0.23034433
-0.1101696 -0.0046494827 -0.23032854
-0.11016699 -0.0045717368 -0.23031871
-0.1101633 -0.0044935113 -0.23033084
-0.11015951 -0.0044152429 -0.23034497
-0.11015601 -0.004337105 -0.2303531
-0.11015242 -0.0042589232 -0.23036325
-0.11014885 -0.0041787876 -0.23037133
-0.11014642 -0.0041030822 -0.23035955
-0.11014417 -0.0040274663 -0.23034376
-0.11014251 -0.0039521093 -0.230316
-0.11014239 -0.0038794056 -0.23025833
-0.11014225 -0.0038086567 -0.2302027
-0.11014117 -0.0037335623 -0.23016296
-0.11014007 -0.0036604227 -0.23012525
-0.11013947 -0.0035875011 -0.23007756
-0.11013857 -0.0035144472 -0.23003587
-0.1101371 -0.0034391796 -0.23000412
-0.11013541 -0.0033657784 -0.22997841
-0.11013471 -0.003292813 -0.22993271
-0.11013361 -0.0032196734 -0.22989501
-0.11013108 -0.0031439252 -0.22988522
-0.11012816 -0.003066048 -0.22988138
-0.11012582 -0.0029903874 -0.22986761
-0.11012348 -0.0029147267 -0.22985381
-0.11012125 -0.002837155 -0.22983599
-0.11011967 -0.0027637966 -0.22980827
-0.11011782 -0.0026883557 -0.22978452
-0.11011471 -0.002610391 -0.22978467
-0.11011063 -0.0025319913 -0.22980478
-0.11010706 -0.0024518557 -0.22981286
-0.11010528 -0.0023784097 -0.22978914
-0.11010418 -0.0023052711 -0.22975144
-0.11010367 -0.0022323923 -0.22970176
-0.11010449 -0.0021640323 -0.22962821
-0.11010349 -0.0020909365 -0.22958851
-0.1101022 -0.0020177094 -0.2295548
-0.11010198 -0.001944962 -0.22949913
-0.11010145 -0.001874038 -0.22945149
-0.11010054 -0.0018009851 -0.22940978
-0.11009926 -0.001727758 -0.22937609
-0.1100973 -0.0016522724 -0.22935432
-0.11009601 -0.0015790453 -0.22932062
-0.11009511 -0.0015059933 -0.22927892
-0.11009353 -0.0014326349 -0.22925119
-0.11009177 -0.001357235 -0.22922543
-0.11008969 -0.0012836605 -0.22920771
-0.11008707 -0.0012059137 -0.22919786
-0.11008376 -0.0011298172 -0.22920406
-0.1100796 -0.0010494199 -0.22922413
-0.11007544 -0.00096902251 -0.2292442
-0.11007108 -0.00089049153 -0.22927031
-0.11006655 -0.00080796517 -0.22929633
-0.11006314 -0.00073182583 -0.22930452
-0.11006032 -0.00065399334 -0.22929868
-0.11005663 -0.00057576783 -0.22931081
-0.11005199 -0.00049515255 -0.22934088
-0.11004803 -0.00041484088 -0.22935694
-0.11004519 -0.0003389623 -0.22935316
-0.1100421 -0.00026099943 -0.22935331
-0.11003899 -0.00018303469 -0.22935346
-0.1100356 -0.00010494143 -0.2293596
-0.11003239 -2.6933849e-05 -0.22936174
-0.11002956 4.8944727e-05 -0.22935794
-0.11002675 0.00012677722 -0.2293521
-0.11002421 0.00020252541 -0.22934231
-0.11002167 0.00027827173 -0.22933254
-0.11001818 0.00035641156 -0.22934067
-0.11001422 0.00043672323 -0.22935674
-0.11001033 0.00051503442 -0.22937287
-0.11000628 0.00059538707 -0.22939095
-0.11000288 0.00067348219 -0.22939709
-0.10999997 0.00075135939 -0.22939324
-0.1099979 0.00082493573 -0.22937551
-0.10999528 0.00090268068 -0.22936568
-0.1099913 0.00098103657 -0.22938381
-0.10998781 0.0010591745 -0.22939195
-0.10998405 0.0011393987 -0.22940403
-0.10998008 0.0012197085 -0.22942013
-0.10997669 0.0012978036 -0.22942626
-0.10997339 0.001375854 -0.22943041
-0.1099697 0.0014540795 -0.22944254
-0.10996584 0.0015343446 -0.2294566
-0.10996273 0.0016123094 -0.22945677
-0.1099602 0.0016880576 -0.22944698
-0.10995709 0.0017660204 -0.22944713
-0.10995369 0.0018441156 -0.22945327
-0.1099501 0.0019222964 -0.2294634
-0.10994661 0.0020004343 -0.22947153
-0.10994351 0.0020783991 -0.2294717
-0.10994097 0.0021541454 -0.22946191
-0.10993776 0.0022321548 -0.22946405
-0.109934 0.002312379 -0.22947614
-0.1099307 0.0023904294 -0.22948028
-0.10992827 0.0024661329 -0.22946849
-0.10992563 0.0025419239 -0.22946072
-0.10992213 0.0026200619 -0.22946885
-0.10991932 0.0026978962 -0.22946301
-0.10991717 0.0027734693 -0.22944522
-0.10991463 0.0028492156 -0.22943544
-0.1099118 0.0029250961 -0.22943163
-0.1099088 0.0030030161 -0.22942978
-0.10990588 0.0030808914 -0.22942594
-0.10990296 0.0031568147 -0.22942415
-0.10989939 0.0032369494 -0.22943224
-0.10989533 0.003317304 -0.22945032
-0.10989127 0.0033976585 -0.22946841
-0.10988616 0.0034804456 -0.22950639
-0.10988257 0.0035586283 -0.22951654
-0.10988005 0.0036363304 -0.2295047
-0.10987742 0.0037121195 -0.2294969
-0.10987487 0.0037878696 -0.22948712
-0.10987187 0.0038657896 -0.22948527
-0.10986857 0.00394384 -0.22948942
-0.10986547 0.0040218029 -0.22948956
-0.10986263 0.0040976815 -0.22948577
-0.10985924 0.0041757748 -0.22949192
-0.10985576 0.0042558685 -0.229498
-0.10985218 0.0043340512 -0.22950813
-0.10984907 0.0044120159 -0.22950828
-0.10984644 0.0044878069 -0.2295005
-0.10984353 0.0045656823 -0.22949666
-0.10983996 0.0046458188 -0.22950473
-0.10983636 0.0047240015 -0.22951488
-0.10983412 0.0047996175 -0.2294991
-0.10983215 0.0048731491 -0.22947937
-0.10982904 0.0049511138 -0.22947952
-0.10982613 0.0050289892 -0.22947568
-0.10982389 0.0051046051 -0.2294599
-0.10982145 0.0051803105 -0.22944811
-0.10981815 0.0052583627 -0.22945225
-0.1098137 0.0053388905 -0.22947833
-0.10980937 0.0054213293 -0.22950035
-0.1098055 0.0055015963 -0.22951443
-0.1098024 0.005579561 -0.22951458
-0.10979928 0.0056555681 -0.22951677
-0.10979598 0.0057336204 -0.22952092
-0.10979297 0.0058115404 -0.22951907
-0.10979053 0.0058872458 -0.2295073
-0.10978828 0.0059628617 -0.2294915
-0.10978547 0.0060406942 -0.22948566
-0.10978227 0.0061187018 -0.22948781
-0.10977888 0.0061967969 -0.22949396
-0.10977406 0.0062794536 -0.22952595
-0.10976887 0.0063642394 -0.22956392
-0.10976528 0.0064424202 -0.22957405
-0.10976218 0.0065203849 -0.2295742
-0.10975937 0.0065982174 -0.22956836
-0.10975626 0.0066761822 -0.22956851
-0.1097525 0.0067564044 -0.2295806
-0.10974881 0.0068346299 -0.22959274
-0.1097458 0.00691255 -0.22959089
-0.10974326 0.0069882981 -0.2295811
-0.10974073 0.0070640445 -0.22957131
-0.10973857 0.0071396213 -0.22955352
-0.10973462 0.0072199292 -0.22956961
-0.1097298 0.0073025879 -0.22960162
-0.10972518 0.007385157 -0.22962964
-0.10972141 0.0074653812 -0.22964172
-0.10971831 0.0075433441 -0.22964187
-0.10971567 0.0076191351 -0.22963408
-0.10971323 0.0076948386 -0.2296223
-0.10971089 0.0077704992 -0.22960851
-0.10970825 0.0078462902 -0.22960071
-0.10970573 0.0079239924 -0.2295889
-0.10970346 0.0079976562 -0.22957516
-0.10970065 0.0080754887 -0.22956932
-0.10969725 0.0081535839 -0.22957546
-0.10969368 0.0082337186 -0.22958355
-0.10969011 0.008313857 -0.22959164
-0.10968615 0.0083941668 -0.22960772
-0.10968256 0.0084723495 -0.22961785
-0.10967975 0.008550182 -0.22961202
-0.10967721 0.0086259283 -0.22960222
-0.10967477 0.0087016318 -0.22959045
-0.10967252 0.0087772515 -0.22957465
-0.10966998 0.0088529978 -0.22956488
-0.10966649 0.0089311358 -0.22957301
-0.10966302 0.0090112295 -0.22957909
-0.10966001 0.0090891495 -0.22957726
-0.10965652 0.0091672875 -0.22958539
-0.10980891 -0.0093220528 -0.24173951
-0.10980731 -0.009240834 -0.24170561
-0.10980405 -0.0091588739 -0.24170567
-0.10992758 -0.0092278142 -0.2391876
-0.10992461 -0.0091459863 -0.23918167
-0.11012136 -0.0093065482 -0.23521309
-0.11023156 -0.0093675628 -0.23296659
-0.11022845 -0.0092896 -0.23296672
-0.11024915 -0.0092399456 -0.232494
-0.11025526 -0.009171986 -0.23231053
-0.11025845 -0.0091007631 -0.23218498
-0.1102595 -0.0090285819 -0.23210333
-0.11026094 -0.0089565758 -0.2320137
-0.11025997 -0.0088815242 -0.23197196
-0.11025967 -0.00880678 -0.23191623
-0.11026025 -0.008732426 -0.23184255
-0.11025985 -0.0086576361 -0.23178881
-0.11025897 -0.0085826293 -0.23174506
-0.11025829 -0.00850771 -0.23169735
-0.11025702 -0.0084325289 -0.23166159
-0.11025721 -0.0083580017 -0.23159587
-0.11025768 -0.0082855579 -0.23152623
-0.11025699 -0.0082106385 -0.2314785
-0.11025853 -0.0081386752 -0.23138687
-0.11026035 -0.0080668433 -0.23128925
-0.11026033 -0.0079941824 -0.23122957
-0.11026128 -0.0079219583 -0.23114994
-0.11026243 -0.0078498209 -0.23106632
-0.11026299 -0.0077774217 -0.23099464
-0.11026297 -0.0077047609 -0.23093499
-0.11026219 -0.0076297978 -0.23088925
-0.11026226 -0.0075571816 -0.23082758
-0.11026312 -0.0074849129 -0.23074993
-0.11026311 -0.0074102981 -0.23068823
-0.1102626 -0.0073374193 -0.23063853
-0.11026201 -0.0072625428 -0.23058881
-0.11026016 -0.0071871001 -0.23056504
-0.11025752 -0.0071113091 -0.23055725
-0.11025664 -0.0070363022 -0.23051351
-0.11025632 -0.006963511 -0.23045982
-0.1102539 -0.0068858517 -0.230446
-0.11025058 -0.0068097562 -0.23045218
-0.11024719 -0.006731662 -0.23045833
-0.11024313 -0.0066513084 -0.23047641
-0.11023915 -0.0065729516 -0.23049453
-0.11023526 -0.0064946394 -0.23051065
-0.11023071 -0.0064140679 -0.23053873
-0.11022674 -0.006335712 -0.23055685
-0.11022314 -0.0062575294 -0.23056698
-0.11021791 -0.0061766524 -0.23060903
-0.11021192 -0.0060934732 -0.230665
-0.11020814 -0.0060152039 -0.23067912
-0.11020628 -0.0059397621 -0.23065536
-0.11020301 -0.0058597559 -0.23065746
-0.11019959 -0.0057836156 -0.23066565
-0.11019785 -0.0057062628 -0.23063785
-0.11019561 -0.005630645 -0.23062205
-0.11019433 -0.005555464 -0.23058631
-0.11019363 -0.0054824976 -0.2305406
-0.11019101 -0.0054047517 -0.23053078
-0.11018877 -0.0053291358 -0.230515
-0.11018796 -0.0052561266 -0.23047131
-0.11018679 -0.0051809885 -0.23043355
-0.11018512 -0.0051056324 -0.23040579
-0.11018384 -0.0050324062 -0.23037209
-0.11018151 -0.0049547907 -0.23035626
-0.11017858 -0.0048788693 -0.23035446
-0.11017557 -0.0048009474 -0.23035261
-0.11017257 -0.0047230292 -0.23035076
-0.11017032 -0.0046474114 -0.230335
-0.11016791 -0.0045697521 -0.23032115
-0.11016441 -0.0044916142 -0.2303293
-0.11016062 -0.0044133458 -0.23034343
-0.11015693 -0.0043351213 -0.23035556
-0.11015324 -0.0042568948 -0.23036769
-0.11014987 -0.0041768467 -0.23037179
-0.11014733 -0.0041010985 -0.230362
-0.11014508 -0.0040254816 -0.23034622
-0.11014342 -0.0039501255 -0.23031846
-0.1101432 -0.0038773771 -0.23026279
-0.11014298 -0.0038046306 -0.2302071
-0.11014189 -0.003731491 -0.2301694
-0.11014089 -0.0036583953 -0.23012972
-0.11014028 -0.0035854727 -0.23008202
-0.11013947 -0.0035124635 -0.23003834
-0.11013811 -0.0034372387 -0.23000458
-0.11013623 -0.0033637509 -0.22998285
-0.11013523 -0.0032906542 -0.22994316
-0.11013443 -0.003217645 -0.22989947
-0.11013201 -0.0031399857 -0.22988564
-0.1101289 -0.0030620228 -0.22988579
-0.11012673 -0.0029884027 -0.22987005
-0.11012431 -0.0029107444 -0.22985622
-0.11012217 -0.0028351704 -0.22983845
-0.11012021 -0.0027596848 -0.22981668
-0.11011853 -0.0026862836 -0.22979096
-0.11011582 -0.0026084939 -0.22978312
-0.11011183 -0.002530138 -0.22980124
-0.11010807 -0.0024499157 -0.22981334
-0.1101061 -0.0023763832 -0.22979361
-0.11010502 -0.0023012888 -0.22975385
-0.11010449 -0.0022303648 -0.2297062
-0.1101053 -0.0021620058 -0.22963266
-0.11010432 -0.0020869551 -0.22959092
-0.11010283 -0.0020136414 -0.22956121
-0.11010259 -0.0019428469 -0.22950757
-0.11010199 -0.0018699262 -0.22945988
-0.11010136 -0.0017989576 -0.22941424
-0.11010017 -0.0017257743 -0.22937854
-0.11009821 -0.0016502887 -0.22935677
-0.11009692 -0.0015770607 -0.22932306
-0.11009622 -0.0015040953 -0.22927737
-0.11009453 -0.001430694 -0.22925165
-0.11009258 -0.0013552085 -0.22922988
-0.1100907 -0.0012817197 -0.22920817
-0.11008799 -0.00120393 -0.22920032
-0.11008467 -0.0011278335 -0.2292065
-0.11008061 -0.001047479 -0.22922458
-0.11007646 -0.00096708164 -0.22924465
-0.11007208 -0.00088855252 -0.22927077
-0.11006755 -0.00080602616 -0.22929679
-0.11006396 -0.00072784349 -0.22930694
-0.11006123 -0.00065200962 -0.22930112
-0.11005774 -0.00057387166 -0.22930926
-0.110053 -0.00049321167 -0.22934133
-0.11004903 -0.00041290186 -0.22935742
-0.1100462 -0.00033702329 -0.22935361
-0.1100431 -0.00025905855 -0.22935376
-0.1100399 -0.00018105283 -0.2293559
-0.1100366 -0.00010300055 -0.22936004
-0.1100334 -2.4992973e-05 -0.22936219
-0.11003047 5.0928444e-05 -0.2293604
-0.11002766 0.0001287628 -0.22935456
-0.11002512 0.00020450912 -0.22934477
-0.11002268 0.00028021261 -0.22933298
-0.11001928 0.00035830773 -0.22933912
-0.11001532 0.00043861941 -0.22935522
-0.11001107 0.0005190596 -0.22937727
-0.11000708 0.00059741549 -0.22939539
-0.11000378 0.00067546591 -0.22939953
-0.11000107 0.00075325556 -0.22939171
-0.1099991 0.0008267872 -0.22937198
-0.10999648 0.00090453401 -0.22936215
-0.1099926 0.0009828452 -0.22937827
-0.10998882 0.0010611154 -0.22939241
-0.10998505 0.0011413377 -0.22940448
-0.10998126 0.0012196079 -0.22941861
-0.10997779 0.0012996998 -0.22942472
-0.10997449 0.0013777502 -0.22942886
-0.1099707 0.0014560185 -0.22944298
-0.10996674 0.0015363283 -0.22945908
-0.10996344 0.0016143788 -0.22946322
-0.109961 0.0016900823 -0.22945142
-0.10995799 0.0017680041 -0.22944957
-0.1099546 0.0018460993 -0.22945572
-0.1099511 0.0019242372 -0.22946386
-0.10994761 0.0020023752 -0.229472
-0.10994441 0.0020803828 -0.22947414
-0.10994187 0.0021561291 -0.22946435
-0.10993867 0.0022341367 -0.2294665
-0.109935 0.002314318 -0.2294766
-0.1099316 0.0023924131 -0.22948273
-0.10992906 0.0024681594 -0.22947295
-0.10992653 0.0025439076 -0.22946316
-0.10992295 0.0026240423 -0.22947124
-0.10992002 0.0026999637 -0.22946945
-0.10991788 0.0027755387 -0.22945167
-0.10991553 0.0028511994 -0.22943789
-0.10991263 0.0029290766 -0.22943404
-0.1099098 0.0030049551 -0.22943026
-0.10990688 0.0030828305 -0.22942641
-0.10990395 0.0031587556 -0.2294246
-0.10990039 0.0032388903 -0.2294327
-0.10989632 0.0033192448 -0.22945076
-0.10989235 0.0033976007 -0.2294689
-0.10988726 0.0034823418 -0.22950485
-0.10988356 0.0035605673 -0.22951698
-0.10988095 0.0036383122 -0.22950715
-0.10987821 0.003714148 -0.22950135
-0.10987578 0.0037898514 -0.22948956
-0.10987286 0.0038677268 -0.22948572
-0.10986957 0.0039457791 -0.22948986
-0.10986637 0.0040237866 -0.22949201
-0.10986326 0.0041017514 -0.22949216
-0.10986006 0.0041797571 -0.2294943
-0.10985676 0.0042578094 -0.22949846
-0.10985317 0.0043359902 -0.22950858
-0.10985006 0.0044139549 -0.22950874
-0.10984726 0.0044917893 -0.2295029
-0.10984442 0.004567666 -0.2294991
-0.10984095 0.0046477597 -0.22950521
-0.10983746 0.0047258977 -0.22951335
-0.10983501 0.0048016012 -0.22950155
-0.10983287 0.0048771743 -0.22948378
-0.10982994 0.0049530976 -0.22948198
-0.10982693 0.0050310176 -0.22948013
-0.10982478 0.0051065907 -0.22946236
-0.10982234 0.0051822923 -0.22945057
-0.10981914 0.0052602999 -0.22945271
-0.10981469 0.0053408295 -0.22947878
-0.10981046 0.0054232236 -0.2294988
-0.1098064 0.0055035781 -0.22951689
-0.1098032 0.0055815876 -0.22951904
-0.10980009 0.0056595504 -0.22951917
-0.1097969 0.005737558 -0.22952133
-0.10979389 0.005815478 -0.22951949
-0.10979125 0.0058912691 -0.22951169
-0.10978881 0.0059669726 -0.22949991
-0.10978608 0.0060428083 -0.22949411
-0.10978297 0.006120773 -0.22949426
-0.10977986 0.0061987359 -0.22949442
-0.10977534 0.0062812641 -0.22952043
-0.10977006 0.0063660927 -0.22956038
-0.10976627 0.0064443611 -0.2295745
-0.10976317 0.0065223239 -0.22957465
-0.10976036 0.0066001583 -0.22956881
-0.10975742 0.0066760797 -0.22956702
-0.10975339 0.0067583863 -0.22958305
-0.10974979 0.0068365689 -0.22959319
-0.10974669 0.0069145337 -0.22959334
-0.10974388 0.0069923662 -0.2295875
-0.10974152 0.007066071 -0.22957575
-0.10973937 0.007141646 -0.22955798
-0.1097356 0.0072218683 -0.22957006
-0.10973078 0.0073045269 -0.22960207
-0.10972616 0.0073870942 -0.22963008
-0.1097224 0.0074673183 -0.22964218
-0.10971929 0.0075452831 -0.22964233
-0.10971665 0.007621076 -0.22963452
-0.10971421 0.0076967776 -0.22962275
-0.10971197 0.0077723954 -0.22960696
-0.10970933 0.0078481864 -0.22959918
-0.10970662 0.0079259742 -0.22959134
-0.10970427 0.0080016386 -0.22957756
-0.10970163 0.0080774296 -0.22956976
-0.10969824 0.0081555247 -0.2295759
-0.10969457 0.0082357023 -0.22958599
-0.1096911 0.0083157942 -0.22959208
-0.10968704 0.0083961487 -0.22961016
-0.10968345 0.0084743313 -0.22962031
-0.10968064 0.0085521638 -0.22961447
-0.10967819 0.0086278692 -0.22960266
-0.10967576 0.0087035727 -0.22959089
-0.10967341 0.0087792333 -0.22957709
-0.10967068 0.0088550672 -0.22957131
-0.1096672 0.0089351591 -0.22957741
-0.109664 0.0090131667 -0.22957957
-0.109661 0.0090910885 -0.22957772
-0.1096577 0.009169139 -0.22958185
-0.10980837 -0.0093223099 -0.24172717
-0.10980618 -0.0092408303 -0.24170525
-0.10980273 -0.0091587827 -0.24170929
-0.10992655 -0.0092278533 -0.23918524
-0.10992359 -0.0091460245 -0.23917931
-0.11012024 -0.0093065407 -0.23521274
-0.11023073 -0.0093676858 -0.23296025
-0.11024398 -0.0093088131 -0.23263514
-0.11024872 -0.0092402417 -0.23247966
-0.11025519 -0.0091744103 -0.23229027
-0.1102578 -0.0091029275 -0.23217666
-0.11025877 -0.0090287477 -0.23209499
-0.11026021 -0.0089567406 -0.23200536
-0.11025914 -0.0088816462 -0.2319656
-0.11025865 -0.0088068135 -0.23191389
-0.11025932 -0.0087325051 -0.2318382
-0.11025894 -0.0086577153 -0.23178446
-0.11025805 -0.0085827084 -0.23174073
-0.11025736 -0.0085077882 -0.231693
-0.1102562 -0.0084326509 -0.23165524
-0.11025639 -0.0083581228 -0.23158953
-0.11025666 -0.0082855932 -0.23152387
-0.11025617 -0.0082107605 -0.23147213
-0.11025799 -0.0081389276 -0.23137453
-0.11025961 -0.008068962 -0.23128295
-0.1102595 -0.0079943044 -0.23122324
-0.11026046 -0.0079220794 -0.23114359
-0.11026151 -0.0078498982 -0.23106197
-0.11026197 -0.0077774562 -0.2309923
-0.11026204 -0.0077048391 -0.23093063
-0.11026136 -0.0076299189 -0.2308829
-0.11026163 -0.0075573903 -0.23081723
-0.11026239 -0.0074850777 -0.23074159
-0.11026227 -0.007412374 -0.23068392
-0.11026148 -0.00733741 -0.23063818
-0.1102609 -0.0072625335 -0.23058847
-0.11025904 -0.0071870917 -0.23056468
-0.11025669 -0.0071114302 -0.23055092
-0.11025591 -0.0070364671 -0.23050517
-0.1102554 -0.0069635883 -0.23045549
-0.11025278 -0.0068858424 -0.23044565
-0.11024956 -0.0068097897 -0.23044984
-0.11024607 -0.0067316517 -0.23045798
-0.11024201 -0.0066512981 -0.23047605
-0.11023803 -0.0065729422 -0.23049417
-0.11023414 -0.0064946292 -0.23051029
-0.1102295 -0.0064140139 -0.23054036
-0.11022562 -0.0063357018 -0.23055649
-0.11022222 -0.0062576076 -0.23056263
-0.11021699 -0.0061767306 -0.23060468
-0.11021081 -0.0060934639 -0.23066464
-0.11020712 -0.0060152384 -0.23067677
-0.11020526 -0.0059397956 -0.23065302
-0.11020179 -0.0058597028 -0.2306591
-0.11019856 -0.0057836501 -0.2306633
-0.11019693 -0.0057063401 -0.23063348
-0.11019468 -0.0056307232 -0.2306177
-0.11019368 -0.0055576265 -0.23057801
-0.1101926 -0.0054825321 -0.23053828
-0.11018989 -0.0054047424 -0.23053044
-0.11018784 -0.0053292122 -0.23051065
-0.11018714 -0.0052562468 -0.23046497
-0.11018586 -0.0051810667 -0.23042922
-0.1101842 -0.0051057097 -0.23040146
-0.11018281 -0.0050324406 -0.23036975
-0.11018039 -0.0049547814 -0.23035592
-0.11017756 -0.0048789028 -0.2303521
-0.11017455 -0.0048009828 -0.23035026
-0.11017174 -0.0047231494 -0.23034443
-0.1101694 -0.0046474887 -0.23033065
-0.11016678 -0.0045697428 -0.23032081
-0.11016319 -0.0044915602 -0.23033094
-0.1101594 -0.0044132927 -0.23034507
-0.11015601 -0.0043351986 -0.23035121
-0.11015242 -0.0042570168 -0.23036134
-0.11014894 -0.004176924 -0.23036744
-0.1101464 -0.0041011758 -0.23035766
-0.11014406 -0.0040255152 -0.23034388
-0.1101424 -0.0039501591 -0.2303161
-0.11014228 -0.0038774544 -0.23025844
-0.11014213 -0.0038067065 -0.23020279
-0.11014106 -0.0037316121 -0.23016307
-0.11013997 -0.0036584716 -0.23012537
-0.11013936 -0.00358555 -0.23007768
-0.11013845 -0.0035124971 -0.23003599
-0.11013716 -0.00343927 -0.23000228
-0.11013531 -0.0033638272 -0.2299785
-0.1101345 -0.0032908181 -0.22993481
-0.1101336 -0.0032177661 -0.22989312
-0.11013106 -0.0031420179 -0.22988333
-0.11012806 -0.0030640978 -0.22988148
-0.11012571 -0.0029884363 -0.2298677
-0.11012337 -0.0029127765 -0.22985393
-0.11012124 -0.0028352486 -0.22983411
-0.11011956 -0.0027618464 -0.22980838
-0.1101178 -0.0026864484 -0.22978261
-0.11011479 -0.0026085274 -0.22978076
-0.11011081 -0.0025301715 -0.22979888
-0.11010712 -0.002451946 -0.22981101
-0.11010517 -0.0023764595 -0.22978926
-0.11010407 -0.0023033209 -0.22975156
-0.11010347 -0.0022303984 -0.22970387
-0.11010428 -0.0021620383 -0.22963032
-0.11010338 -0.0020889854 -0.22958861
-0.11010181 -0.002013674 -0.22955886
-0.11010177 -0.001942968 -0.22950122
-0.11010124 -0.0018720441 -0.22945359
-0.11010034 -0.0017989911 -0.2294119
-0.11009914 -0.0017258078 -0.2293762
-0.11009718 -0.0016503213 -0.22935441
-0.1100959 -0.0015770942 -0.2293207
-0.11009509 -0.001504086 -0.22927701
-0.11009341 -0.0014306828 -0.2292513
-0.11009155 -0.001355242 -0.22922754
-0.11008958 -0.0012817085 -0.22920781
-0.11008696 -0.0012039635 -0.22919798
-0.11008365 -0.001127867 -0.22920418
-0.11007949 -0.0010474697 -0.22922423
-0.11007524 -0.00096702762 -0.22924632
-0.11007096 -0.00088854134 -0.22927043
-0.11006644 -0.00080601498 -0.22929643
-0.11006302 -0.00072987378 -0.22930464
-0.11006021 -0.00065204129 -0.22929879
-0.11005652 -0.00057381764 -0.22931093
-0.11005178 -0.00049315766 -0.22934297
-0.11004791 -0.00041289069 -0.22935706
-0.11004508 -0.00033701211 -0.22935325
-0.11004207 -0.00025909208 -0.2293514
-0.11003888 -0.0001810845 -0.22935356
-0.11003565 -0.0001050327 -0.22935775
-0.11003228 -2.4983659e-05 -0.22936185
-0.11002935 5.093962e-05 -0.22936004
-0.11002654 0.00012877211 -0.2293542
-0.110024 0.0002045203 -0.22934443
-0.11002155 0.00028022379 -0.22933264
-0.11001816 0.00035831891 -0.22933878
-0.1100141 0.00043867342 -0.22935686
-0.11001004 0.00051902607 -0.22937492
-0.11000606 0.00059738196 -0.22939306
-0.11000267 0.00067547522 -0.22939919
-0.10999985 0.00075330958 -0.22939336
-0.10999778 0.00082688592 -0.22937563
-0.10999516 0.00090463273 -0.22936578
-0.10999138 0.00098290108 -0.22937992
-0.10998769 0.0010611247 -0.22939205
-0.10998393 0.001141347 -0.22940414
-0.10998006 0.0012216158 -0.22941822
-0.10997657 0.0012997538 -0.22942635
-0.10997336 0.0013777614 -0.2294285
-0.10996968 0.0014559869 -0.22944063
-0.10996572 0.0015362967 -0.22945672
-0.10996252 0.0016143043 -0.22945887
-0.10996007 0.0016900077 -0.22944708
-0.10995688 0.0017680135 -0.22944923
-0.10995348 0.0018461086 -0.22945538
-0.10994998 0.0019242465 -0.22946352
-0.10994649 0.0020023864 -0.22947165
-0.10994338 0.0020803493 -0.2294718
-0.10994074 0.0021561403 -0.22946399
-0.10993774 0.0022340603 -0.22946216
-0.10993388 0.0023143273 -0.22947624
-0.10993049 0.0023924224 -0.22948238
-0.10992804 0.0024681259 -0.2294706
-0.1099255 0.0025438741 -0.22946081
-0.10992201 0.002622012 -0.22946894
-0.109919 0.0026999321 -0.22946709
-0.10991695 0.0027754623 -0.22944734
-0.10991441 0.0028512087 -0.22943753
-0.1099115 0.0029290877 -0.22943369
-0.10990857 0.003005011 -0.2294319
-0.10990576 0.0030828416 -0.22942606
-0.10990284 0.0031587649 -0.22942425
-0.10989926 0.0032388996 -0.22943234
-0.1098952 0.0033192541 -0.22945042
-0.10989122 0.00339761 -0.22946855
-0.10988613 0.0034823529 -0.2295045
-0.10988244 0.0035605766 -0.22951663
-0.10987993 0.0036382787 -0.22950479
-0.10987719 0.0037141144 -0.22949901
-0.10987475 0.0037898198 -0.22948723
-0.10987175 0.0038677379 -0.22948538
-0.10986844 0.0039457902 -0.22948952
-0.10986524 0.0040237978 -0.22949167
-0.10986224 0.0041017197 -0.22948982
-0.10985901 0.0041777715 -0.22949401
-0.10985564 0.0042578205 -0.22949812
-0.10985205 0.0043360014 -0.22950825
-0.10984884 0.0044140089 -0.2295104
-0.10984613 0.0044917986 -0.22950256
-0.1098433 0.0045676753 -0.22949874
-0.10983973 0.0046478119 -0.22950685
-0.10983624 0.0047259517 -0.22951499
-0.10983399 0.0048015695 -0.22949921
-0.10983191 0.0048751421 -0.22948147
-0.10982881 0.0049531069 -0.22948164
-0.10982591 0.0050309822 -0.22947778
-0.10982376 0.0051065572 -0.22946
-0.10982131 0.0051822606 -0.22944821
-0.10981802 0.0052603111 -0.22945237
-0.10981357 0.0053408407 -0.22947843
-0.10980923 0.0054232795 -0.22950046
-0.10980538 0.0055035464 -0.22951454
-0.10980217 0.005581554 -0.22951669
-0.10979906 0.0056595169 -0.22951683
-0.10979577 0.0057375673 -0.22952098
-0.10979276 0.0058154892 -0.22951913
-0.10979022 0.0058912374 -0.22950934
-0.10978798 0.0059668534 -0.22949356
-0.10978515 0.0060427319 -0.22948977
-0.10978204 0.0061206948 -0.22948992
-0.10977875 0.0061987471 -0.22949407
-0.10977402 0.006281361 -0.22952408
-0.10976873 0.0063661896 -0.22956403
-0.10976514 0.0064443704 -0.22957416
-0.10976204 0.006522337 -0.22957432
-0.10975923 0.0066001695 -0.22956848
-0.10975613 0.0066781323 -0.22956862
-0.10975226 0.0067583974 -0.2295827
-0.10974867 0.0068365801 -0.22959284
-0.10974567 0.0069145001 -0.229591
-0.10974303 0.0069902912 -0.2295832
-0.10974059 0.0070659965 -0.22957142
-0.10973844 0.0071415715 -0.22955364
-0.10973448 0.0072218794 -0.22956972
-0.10972966 0.007304538 -0.22960173
-0.10972504 0.0073871072 -0.22962974
-0.10972127 0.0074673295 -0.22964182
-0.10971817 0.0075452942 -0.22964197
-0.10971543 0.0076211281 -0.22963619
-0.10971308 0.0076967888 -0.22962239
-0.10971075 0.0077724494 -0.22960863
-0.1097082 0.0078481976 -0.22959882
-0.10970559 0.0079259425 -0.22958899
-0.10970332 0.0079996064 -0.22957526
-0.10970051 0.0080774408 -0.22956942
-0.10969712 0.0081555359 -0.22957556
