# .PCD v0.7 - Point Cloud Data file format
VERSION 0.7
FIELDS x y z
SIZE 4 4 4
TYPE F F F
COUNT 1 1 1
WIDTH 1305
HEIGHT 1
VIEWPOINT 0 0 0 1 0 0 0
POINTS 1305
DATA ascii
-0.11116563 -0.030021489 -0.23040704
-0.1111611 -0.029938962 -0.23043308
-0.11115663 -0.02986039 -0.23046118
-0.11115259 -0.029778082 -0.2304772
-0.11114844 -0.029697685 -0.23049727
-0.11114409 -0.0296172 -0.23052135
-0.11113964 -0.029536672 -0.23054741
-0.11113518 -0.029456144 -0.23057348
-0.11113016 -0.029375356 -0.23061153
-0.1111249 -0.029296432 -0.23065561
-0.11111917 -0.029217292 -0.23070969
-0.11111392 -0.029138369 -0.23075378
-0.11110877 -0.02905949 -0.23079586
-0.11110176 -0.028979784 -0.23087591
-0.11109462 -0.028903943 -0.23096202
-0.1110855 -0.028829183 -0.23109014
-0.11107709 -0.028752776 -0.23120221
-0.11106768 -0.028677886 -0.23133633
-0.11104785 -0.028616013 -0.23169851
-0.11103704 -0.028544422 -0.23186468
-0.11102952 -0.028466452 -0.23195674
-0.11101764 -0.028394382 -0.23214486
-0.11100774 -0.028319275 -0.23228894
-0.11100003 -0.028241217 -0.23238501
-0.11164156 -0.041768827 -0.23026009
-0.11163829 -0.04168687 -0.23026013
-0.11163484 -0.041604821 -0.23026419
-0.11163159 -0.041522861 -0.23026425
-0.11162843 -0.041440949 -0.23026231
-0.11162497 -0.041358899 -0.23026636
-0.11162162 -0.041276895 -0.23026842
-0.11161806 -0.041194804 -0.23027447
-0.1116144 -0.041114628 -0.23028454
-0.11161055 -0.041032404 -0.23029658
-0.1116072 -0.040950403 -0.23029864
-0.11160395 -0.040868439 -0.2302987
-0.11160039 -0.040786352 -0.23030475
-0.11159714 -0.040704392 -0.23030479
-0.11159398 -0.040622476 -0.23030286
-0.11159083 -0.040538605 -0.23029888
-0.11158777 -0.040456735 -0.23029493
-0.11158461 -0.040374815 -0.23029299
-0.11158138 -0.040290903 -0.23029101
-0.1115778 -0.040210769 -0.2302991
-0.11157396 -0.040128544 -0.23031113
-0.11157029 -0.040048368 -0.23032123
-0.11156665 -0.039966233 -0.23032926
-0.11156339 -0.039884269 -0.23032933
-0.11156044 -0.039800487 -0.23032135
-0.11155789 -0.039716877 -0.23030537
-0.11155453 -0.039634876 -0.23030743
-0.11155067 -0.039554611 -0.23032151
-0.11154722 -0.039472565 -0.23032555
-0.11154357 -0.03939043 -0.2303336
-0.1115392 -0.039311901 -0.2303597
-0.11153565 -0.03922981 -0.23036575
-0.1115322 -0.039147761 -0.23036981
-0.11152814 -0.03906741 -0.2303879
-0.11152449 -0.038985275 -0.23039594
-0.11152063 -0.03890501 -0.23041001
-0.11151616 -0.038826436 -0.23043813
-0.11151251 -0.038744301 -0.23044616
-0.11150957 -0.038660515 -0.23043819
-0.11150663 -0.038576733 -0.23043022
-0.11150376 -0.038494952 -0.23042229
-0.1115002 -0.038412858 -0.23042832
-0.11149634 -0.038332593 -0.2304424
-0.11149269 -0.038250457 -0.23045045
-0.11148903 -0.038170278 -0.23046054
-0.11148528 -0.038088098 -0.23047058
-0.11148193 -0.038006097 -0.23047264
-0.11147847 -0.037924051 -0.23047668
-0.1114751 -0.037844002 -0.23048078
-0.11147126 -0.037761781 -0.23049283
-0.11146758 -0.037681602 -0.2305029
-0.11146425 -0.037597641 -0.2305029
-0.11146039 -0.037517376 -0.230517
-0.11145611 -0.037438892 -0.23054111
-0.11145268 -0.03735489 -0.23054311
-0.11144902 -0.037274711 -0.23055321
-0.11144496 -0.037194356 -0.23057128
-0.11144121 -0.037112176 -0.23058133
-0.11143854 -0.037030481 -0.23056941
-0.1114361 -0.036944959 -0.2305494
-0.11143306 -0.036861129 -0.2305434
-0.1114293 -0.036780909 -0.23055549
-0.11142584 -0.036698863 -0.23055954
-0.11142319 -0.036615208 -0.23054558
-0.11141945 -0.036533035 -0.23055561
-0.11141577 -0.036452852 -0.2305657
-0.11141235 -0.036368854 -0.23056771
-0.11140887 -0.036288761 -0.2305738
-0.11140561 -0.0362068 -0.23057386
-0.11140298 -0.036121193 -0.23055784
-0.11140033 -0.036037542 -0.23054387
-0.11139748 -0.035953801 -0.2305339
-0.11139483 -0.035870146 -0.23051992
-0.11139257 -0.035786666 -0.23049796
-0.11138994 -0.035701063 -0.23048195
-0.11138678 -0.035619147 -0.23048
-0.11138412 -0.035535492 -0.23046604
-0.11138108 -0.035451666 -0.23046005
-0.11137732 -0.035371445 -0.23047213
-0.11137345 -0.035291176 -0.23048621
-0.1113698 -0.035209045 -0.23049426
-0.11136635 -0.035126995 -0.23049831
-0.11136259 -0.035046771 -0.2305104
-0.11135884 -0.034964595 -0.23052044
-0.111356 -0.034880854 -0.23051046
-0.11135313 -0.034799069 -0.23050253
-0.11134979 -0.034715112 -0.23050255
-0.11134673 -0.034633242 -0.2304986
-0.11134387 -0.034551457 -0.23049065
-0.11134022 -0.034469321 -0.23049872
-0.11133625 -0.034389012 -0.23051479
-0.11133292 -0.034305055 -0.23051479
-0.11133076 -0.034221619 -0.23049083
-0.1113283 -0.034138054 -0.23047288
-0.11132535 -0.034054272 -0.23046489
-0.11132249 -0.033972487 -0.23045695
-0.11131954 -0.033888698 -0.23044898
-0.11131638 -0.033806786 -0.23044704
-0.11131344 -0.033723004 -0.23043907
-0.11131038 -0.03364113 -0.23043512
-0.11130732 -0.033559255 -0.23043118
-0.11130398 -0.033475302 -0.2304312
-0.11130072 -0.033393338 -0.23043126
-0.11129785 -0.033311553 -0.23042332
-0.11129513 -0.033225901 -0.23040929
-0.11129206 -0.033144031 -0.23040536
-0.11128841 -0.033061896 -0.23041341
-0.11128535 -0.032980025 -0.23040947
-0.11128229 -0.03289815 -0.23040551
-0.11127984 -0.032814585 -0.23038755
-0.11127679 -0.032730758 -0.23038158
-0.11127363 -0.032648847 -0.23037964
-0.11127088 -0.032565147 -0.23036766
-0.11126763 -0.032483187 -0.23036772
-0.11126388 -0.03240101 -0.23037775
-0.11126031 -0.032320872 -0.23038584
-0.11125717 -0.032237004 -0.23038186
-0.1112543 -0.032155219 -0.23037392
-0.11125146 -0.032071479 -0.23036395
-0.11124861 -0.031987738 -0.23035398
-0.11124523 -0.031907689 -0.23035806
-0.11124168 -0.031825598 -0.23036411
-0.11123864 -0.031741776 -0.23035812
-0.11123587 -0.031660032 -0.2303482
-0.11123262 -0.031578071 -0.23034826
-0.11122935 -0.031496111 -0.23034832
-0.11122602 -0.031412154 -0.23034832
-0.11122274 -0.03133215 -0.23035043
-0.11121919 -0.03125006 -0.23035647
-0.11121584 -0.031168055 -0.23035851
-0.11121278 -0.031086184 -0.23035458
-0.11120974 -0.031002356 -0.23034862
-0.11120687 -0.030920569 -0.23034067
-0.11120402 -0.03083683 -0.23033069
-0.11120127 -0.030753134 -0.23031873
-0.11119811 -0.030671218 -0.23031677
-0.11119415 -0.030590907 -0.23033285
-0.11119021 -0.030508645 -0.23034689
-0.11118674 -0.030428551 -0.23035298
-0.1111827 -0.030346243 -0.23036903
-0.11117893 -0.03026602 -0.2303811
-0.11117519 -0.030183841 -0.23039114
-0.11117134 -0.03010162 -0.23040318
-0.11116768 -0.03002144 -0.23041327
-0.11116342 -0.029941 -0.23043534
-0.11115888 -0.029860429 -0.23046342
-0.11115474 -0.029778078 -0.23048145
-0.11115059 -0.029697679 -0.2305015
-0.11114633 -0.029617239 -0.23052359
-0.11114179 -0.029536668 -0.23055166
-0.11113734 -0.029456139 -0.23057771
-0.1111323 -0.02937535 -0.23061576
-0.11112706 -0.029296426 -0.23065984
-0.11112139 -0.029219285 -0.23071396
-0.11111607 -0.029138364 -0.23075801
-0.11111082 -0.029059442 -0.2308021
-0.11110399 -0.028981777 -0.23088017
-0.11109677 -0.028903937 -0.23096627
-0.11108766 -0.02882918 -0.23109438
-0.11107904 -0.028752685 -0.23121044
-0.11106962 -0.028679749 -0.23134659
-0.1110501 -0.02861605 -0.23170075
-0.11103919 -0.028544417 -0.23186891
-0.11103168 -0.028466448 -0.23196098
-0.11101969 -0.028394334 -0.23215109
-0.1110098 -0.028319225 -0.23229519
-0.11100229 -0.028241256 -0.23238724
-0.11164187 -0.041770417 -0.2302632
-0.11163871 -0.041688502 -0.23026125
-0.11163526 -0.041606452 -0.2302653
-0.111632 -0.041524492 -0.23026535
-0.11162874 -0.041442536 -0.23026542
-0.11162529 -0.041360486 -0.23026946
-0.11162193 -0.041278485 -0.23027152
-0.11161848 -0.041196436 -0.23027557
-0.11161481 -0.04111626 -0.23028566
-0.11161097 -0.041034035 -0.2302977
-0.11160751 -0.04095199 -0.23030174
-0.11160426 -0.040870029 -0.2303018
-0.1116008 -0.040787984 -0.23030585
-0.11159752 -0.040707976 -0.23030795
-0.11159429 -0.040624063 -0.23030597
-0.11159135 -0.040540282 -0.23029798
-0.11158818 -0.040458366 -0.23029605
-0.11158492 -0.040376406 -0.23029611
-0.11158169 -0.04029249 -0.23029411
-0.11157821 -0.0402124 -0.2303002
-0.11157437 -0.040130176 -0.23031224
-0.1115707 -0.04005 -0.23032233
-0.11156706 -0.039967865 -0.23033038
-0.11156379 -0.039885905 -0.23033044
-0.11156085 -0.039802119 -0.23032245
-0.1115583 -0.039718509 -0.23030648
-0.11155485 -0.039636463 -0.23031053
-0.11155098 -0.039556198 -0.23032461
-0.11154763 -0.039474197 -0.23032667
-0.11154398 -0.039392062 -0.2303347
-0.11153971 -0.039313573 -0.23035882
-0.11153606 -0.039231442 -0.23036686
-0.1115326 -0.039149392 -0.23037091
-0.11152855 -0.039069042 -0.230389
-0.11152489 -0.038986906 -0.23039705
-0.11152093 -0.038906597 -0.23041312
-0.11151657 -0.038828067 -0.23043925
-0.11151291 -0.038745932 -0.23044728
-0.11151005 -0.038664147 -0.23043935
-0.1115071 -0.038580365 -0.23043138
-0.11150415 -0.038496584 -0.23042339
-0.11150061 -0.038414489 -0.23042944
-0.11149674 -0.038334224 -0.23044351
-0.1114931 -0.038252089 -0.23045155
-0.11148942 -0.03817191 -0.23046164
-0.11148559 -0.038089689 -0.2304737
-0.11148232 -0.038007729 -0.23047374
-0.11147887 -0.037925683 -0.23047778
-0.1114755 -0.037845634 -0.23048189
-0.11147165 -0.037763413 -0.23049393
-0.11146799 -0.037683234 -0.23050401
-0.11146465 -0.037599273 -0.23050401
-0.11146078 -0.037519008 -0.2305181
-0.11145651 -0.037440524 -0.23054221
-0.11145306 -0.037358474 -0.23054627
-0.11144941 -0.037276343 -0.23055431
-0.11144535 -0.037195988 -0.2305724
-0.11144151 -0.037113767 -0.23058443
-0.11143883 -0.037032068 -0.23057251
-0.11143649 -0.036946591 -0.2305505
-0.11143345 -0.036862765 -0.23054451
-0.11142979 -0.036782585 -0.23055461
-0.11142623 -0.036700495 -0.23056066
-0.11142348 -0.036616798 -0.23054868
-0.11141974 -0.036534622 -0.23055872
-0.11141617 -0.036454484 -0.2305668
-0.11141273 -0.036370486 -0.23056881
-0.11140926 -0.036290392 -0.23057491
-0.11140601 -0.036208432 -0.23057497
-0.11140338 -0.036122825 -0.23055895
-0.11140072 -0.036039174 -0.23054498
-0.11139797 -0.035955474 -0.230533
-0.11139522 -0.035871781 -0.23052102
-0.11139296 -0.035788301 -0.23049906
-0.11139033 -0.035702694 -0.23048306
-0.11138716 -0.035620779 -0.23048112
-0.11138451 -0.035537124 -0.23046714
-0.11138147 -0.035453297 -0.23046115
-0.11137771 -0.035373077 -0.23047324
-0.11137386 -0.035290856 -0.23048529
-0.11137019 -0.035210676 -0.23049536
-0.11136674 -0.035128631 -0.23049942
-0.11136297 -0.035048403 -0.23051149
-0.11135923 -0.03496623 -0.23052154
-0.11135629 -0.034882445 -0.23051357
-0.11135352 -0.034800705 -0.23050363
-0.11135016 -0.0347187 -0.23050569
-0.11134712 -0.034634873 -0.23049971
-0.11134415 -0.034553044 -0.23049377
-0.1113406 -0.034470953 -0.23049982
-0.11133664 -0.034390643 -0.2305159
-0.1113333 -0.034306686 -0.2305159
-0.11133124 -0.034223296 -0.23048995
-0.11132868 -0.034139685 -0.230474
-0.11132574 -0.034055904 -0.23046601
-0.11132287 -0.033974119 -0.23045807
-0.11131992 -0.033890333 -0.23045009
-0.11131676 -0.033808418 -0.23044814
-0.11131382 -0.033724636 -0.23044017
-0.11131076 -0.033642761 -0.23043624
-0.1113077 -0.033560887 -0.23043229
-0.11130436 -0.033476934 -0.2304323
-0.111301 -0.033394933 -0.23043436
-0.11129823 -0.033313185 -0.2304244
-0.1112956 -0.033227578 -0.2304084
-0.11129244 -0.033145666 -0.23040646
-0.1112887 -0.033063486 -0.23041651
-0.11128573 -0.032981656 -0.23041056
-0.11128267 -0.032899786 -0.23040663
-0.11128021 -0.032816216 -0.23038867
-0.11127716 -0.03273239 -0.23038268
-0.111274 -0.032650478 -0.23038074
-0.11127125 -0.032566782 -0.23036876
-0.1112679 -0.032484777 -0.23037082
-0.11126425 -0.032402642 -0.23037887
-0.11126068 -0.032322507 -0.23038694
-0.11125754 -0.032238636 -0.23038296
-0.11125457 -0.03215681 -0.23037702
-0.11125173 -0.032073066 -0.23036705
-0.11124898 -0.031989373 -0.23035508
-0.11124551 -0.03190928 -0.23036116
-0.11124195 -0.031827189 -0.23036721
-0.11123901 -0.031743407 -0.23035924
-0.11123624 -0.031661667 -0.2303493
-0.11123298 -0.031579703 -0.23034936
-0.11122973 -0.031497747 -0.23034942
-0.11122648 -0.031413831 -0.23034742
-0.11122313 -0.03133183 -0.23034948
-0.11121956 -0.031251691 -0.23035757
-0.1112162 -0.031169688 -0.23035961
-0.11121314 -0.031087816 -0.23035568
-0.1112101 -0.031003989 -0.2303497
-0.11120723 -0.030922204 -0.23034176
-0.11120448 -0.030838508 -0.23032978
-0.11120164 -0.030754767 -0.23031983
-0.11119847 -0.030672852 -0.23031789
-0.11119451 -0.030592542 -0.23033395
-0.11119057 -0.030510277 -0.23034799
-0.1111871 -0.030430185 -0.2303541
-0.11118306 -0.030347876 -0.23037012
-0.11117929 -0.030267652 -0.2303822
-0.11117555 -0.030185476 -0.23039225
-0.11117171 -0.030103255 -0.23040429
-0.11116803 -0.030023076 -0.23041438
-0.11116378 -0.029942634 -0.23043644
-0.11115924 -0.029862061 -0.23046452
-0.1111551 -0.02977971 -0.23048255
-0.11115104 -0.029699355 -0.23050061
-0.11114669 -0.029618872 -0.23052469
-0.11114214 -0.0295383 -0.23055276
-0.1111377 -0.029457772 -0.23057881
-0.11113267 -0.029376984 -0.23061685
-0.11112732 -0.029298017 -0.23066294
-0.11112165 -0.029220875 -0.23071706
-0.11111633 -0.029139955 -0.23076111
-0.11111108 -0.029061031 -0.23080519
-0.11110425 -0.028983366 -0.23088329
-0.11109713 -0.028905571 -0.23096736
-0.11108792 -0.028830769 -0.23109746
-0.11107951 -0.028754361 -0.23120955
-0.11106988 -0.028681338 -0.23134969
-0.11105066 -0.028617771 -0.23169786
-0.11103955 -0.02854605 -0.23187
-0.11103185 -0.028467992 -0.23196608
-0.11102005 -0.028395968 -0.23215219
-0.11101036 -0.028320946 -0.23229228
-0.11100255 -0.028242845 -0.23239034
-0.11163977 -0.041770589 -0.23026212
-0.11163661 -0.041688673 -0.23026018
-0.11163326 -0.041606668 -0.23026222
-0.11163 -0.041524708 -0.23026228
-0.11162676 -0.041440796 -0.2302603
-0.11162319 -0.041360661 -0.23026839
-0.11161986 -0.041276701 -0.23026839
-0.11161648 -0.041196652 -0.23027249
-0.11161271 -0.041116431 -0.23028457
-0.11160897 -0.041034251 -0.23029462
-0.11160561 -0.04095225 -0.23029667
-0.11160226 -0.040870246 -0.23029873
-0.11159881 -0.0407882 -0.23030278
-0.11159545 -0.040706199 -0.23030484
-0.11159229 -0.040624283 -0.23030289
-0.11158925 -0.040540453 -0.23029691
-0.11158612 -0.040456586 -0.23029292
-0.11158286 -0.040374622 -0.23029298
-0.1115796 -0.040292665 -0.23029302
-0.11157605 -0.040210575 -0.23029907
-0.11157238 -0.040130392 -0.23030916
-0.11156854 -0.040048175 -0.2303212
-0.11156497 -0.039968036 -0.23032929
-0.11156181 -0.039886117 -0.23032734
-0.11155887 -0.039802335 -0.23031937
-0.11155622 -0.039718684 -0.2303054
-0.11155276 -0.039636638 -0.23030944
-0.1115489 -0.039556369 -0.23032352
-0.11154564 -0.039474413 -0.23032358
-0.1115419 -0.039392233 -0.23033363
-0.11153752 -0.039313704 -0.23035973
-0.111534 -0.039229661 -0.23036373
-0.11153062 -0.039149608 -0.23036784
-0.11152656 -0.039069258 -0.23038591
-0.11152291 -0.038987122 -0.23039395
-0.11151896 -0.038906813 -0.23041004
-0.11151451 -0.038826283 -0.2304361
-0.11151084 -0.038746104 -0.23044619
-0.111508 -0.038662363 -0.23043622
-0.11150505 -0.038578581 -0.23042825
-0.11150219 -0.038496796 -0.23042029
-0.11149873 -0.038414747 -0.23042434
-0.11149476 -0.03833444 -0.23044044
-0.11149112 -0.038252305 -0.23044847
-0.11148728 -0.038170084 -0.23046052
-0.11148361 -0.038089901 -0.2304706
-0.11148026 -0.0380079 -0.23047265
-0.1114768 -0.037925854 -0.23047671
-0.11147335 -0.037843809 -0.23048076
-0.11146969 -0.037763625 -0.23049083
-0.11146584 -0.037681408 -0.23050287
-0.11146268 -0.037599489 -0.23050094
-0.11145882 -0.037519224 -0.23051502
-0.11145445 -0.037440695 -0.23054114
-0.11145101 -0.037356693 -0.23054314
-0.11144745 -0.037276555 -0.23055123
-0.11144339 -0.0371962 -0.2305693
-0.11143955 -0.037113979 -0.23058134
-0.11143678 -0.037032239 -0.23057142
-0.11143444 -0.036946759 -0.2305494
-0.11143149 -0.036862977 -0.23054142
-0.11142765 -0.03678076 -0.23055345
-0.11142418 -0.036700666 -0.23055956
-0.11142153 -0.036617011 -0.23054558
-0.11141778 -0.036534838 -0.23055562
-0.11141411 -0.036454655 -0.23056573
-0.11141078 -0.036370698 -0.23056573
-0.11140723 -0.036288608 -0.23057178
-0.11140397 -0.036206648 -0.23057182
-0.11140132 -0.036122996 -0.23055786
-0.11139867 -0.036039345 -0.23054388
-0.11139592 -0.035955645 -0.2305319
-0.11139327 -0.035871994 -0.23051792
-0.11139101 -0.035788514 -0.23049597
-0.11138818 -0.035702821 -0.23048395
-0.11138502 -0.035620905 -0.23048201
-0.11138246 -0.035537295 -0.23046604
-0.11137952 -0.035453513 -0.23045805
-0.11137576 -0.035373293 -0.23047015
-0.11137182 -0.035291027 -0.23048419
-0.11136815 -0.035210848 -0.23049426
-0.1113648 -0.035128839 -0.23049632
-0.11136095 -0.035046622 -0.23050836
-0.11135729 -0.034966439 -0.23051845
-0.11135434 -0.034882657 -0.23051047
-0.11135157 -0.034800917 -0.23050055
-0.11134823 -0.03471696 -0.23050055
-0.11134517 -0.034635086 -0.23049662
-0.11134221 -0.03455326 -0.23049067
-0.11133866 -0.034471169 -0.23049672
-0.1113347 -0.034390859 -0.2305128
-0.11133137 -0.034306899 -0.2305128
-0.1113292 -0.034223463 -0.23048884
-0.11132664 -0.034139857 -0.23047288
-0.1113238 -0.034056116 -0.23046291
-0.11132085 -0.03397233 -0.23045492
-0.11131789 -0.033890501 -0.23044898
-0.11131475 -0.033806633 -0.230445
-0.11131188 -0.033724848 -0.23043707
-0.11130875 -0.033640981 -0.23043308
-0.11130568 -0.033559106 -0.23042914
-0.11130242 -0.033477146 -0.23042919
-0.11129907 -0.033395141 -0.23043126
-0.1112962 -0.033313356 -0.23042332
-0.11129357 -0.033227749 -0.2304073
-0.11129051 -0.033145878 -0.23040336
-0.11128677 -0.033063699 -0.23041339
-0.1112837 -0.032981828 -0.23040946
-0.11128074 -0.032899998 -0.23040353
-0.1112781 -0.032814391 -0.23038751
-0.11127514 -0.032732561 -0.23038158
-0.11127198 -0.03265065 -0.23037964
-0.11126913 -0.032566909 -0.23036966
-0.11126588 -0.032484949 -0.2303697
-0.11126223 -0.032402813 -0.23037775
-0.11125876 -0.03232272 -0.23038384
-0.11125562 -0.032238849 -0.23037985
-0.11125265 -0.032157023 -0.23037392
-0.1112498 -0.032073282 -0.23036394
-0.11124696 -0.031989541 -0.23035398
-0.11124351 -0.031907495 -0.23035802
-0.11123995 -0.031825405 -0.23036405
-0.11123699 -0.031743579 -0.23035812
-0.11123423 -0.031661835 -0.2303482
-0.11123097 -0.031579874 -0.23034824
-0.1112278 -0.031497959 -0.23034631
-0.11122447 -0.031414002 -0.23034632
-0.11122112 -0.031331997 -0.23034838
-0.11121765 -0.031251907 -0.23035446
-0.11121421 -0.031167902 -0.23035647
-0.11121105 -0.031085987 -0.23035452
-0.11120809 -0.031004159 -0.23034859
-0.11120515 -0.030920375 -0.23034061
-0.11120247 -0.030838676 -0.23032868
-0.11119972 -0.03075498 -0.2303167
-0.11119647 -0.030673021 -0.23031676
-0.1111925 -0.03059271 -0.23033285
-0.11118867 -0.030510489 -0.23034489
-0.11118519 -0.030430397 -0.23035097
-0.11118115 -0.030348089 -0.230367
-0.11117738 -0.030267866 -0.2303791
-0.11117364 -0.030185688 -0.23038913
-0.1111698 -0.030103467 -0.23040117
-0.11116613 -0.030023288 -0.23041126
-0.11116178 -0.029942803 -0.23043534
-0.11115724 -0.029862231 -0.23046339
-0.1111531 -0.029779879 -0.23048142
-0.11114904 -0.029699525 -0.23049951
-0.11114469 -0.029619042 -0.23052357
-0.11114015 -0.029538469 -0.23055163
-0.1111358 -0.029457984 -0.23057571
-0.11113076 -0.029377196 -0.23061375
-0.11112551 -0.029298272 -0.23065785
-0.11111968 -0.029219087 -0.2307139
-0.11111443 -0.029140165 -0.230758
-0.11110928 -0.029061286 -0.23080009
-0.11110237 -0.028981622 -0.23087811
-0.11109523 -0.028905781 -0.23096424
-0.11108612 -0.028831022 -0.23109236
-0.11107771 -0.028754614 -0.23120445
-0.1110683 -0.028679725 -0.23133853
-0.11104857 -0.028617892 -0.23169875
-0.11103766 -0.028546255 -0.2318669
-0.11102995 -0.028468199 -0.23196295
-0.11101826 -0.028396215 -0.23214707
-0.11100827 -0.028321065 -0.23229316
-0.11100057 -0.028243007 -0.23238921
-0.11164086 -0.041769363 -0.23026326
-0.1116377 -0.041687444 -0.23026133
-0.11163435 -0.041605443 -0.23026338
-0.111631 -0.041523438 -0.23026544
-0.11162774 -0.041441478 -0.2302655
-0.11162429 -0.041359432 -0.23026955
-0.11162093 -0.041277431 -0.23027161
-0.11161748 -0.041195381 -0.23027565
-0.11161371 -0.041115157 -0.23028773
-0.11160997 -0.041032981 -0.23029777
-0.11160652 -0.040950932 -0.23030183
-0.11160326 -0.040868975 -0.23030189
-0.11159981 -0.040786929 -0.23030594
-0.11159655 -0.040704966 -0.23030597
-0.11159329 -0.040623009 -0.23030604
-0.11159025 -0.040539183 -0.23030007
-0.11158719 -0.040457308 -0.23029611
-0.11158393 -0.040375352 -0.23029618
-0.1115807 -0.040291436 -0.2302942
-0.11157712 -0.040211298 -0.23030227
-0.11157338 -0.040129121 -0.23031232
-0.11156971 -0.040048942 -0.23032239
-0.11156607 -0.039966807 -0.23033044
-0.11156281 -0.03988485 -0.2303305
-0.11155987 -0.039801065 -0.23032251
-0.11155731 -0.039717458 -0.23030655
-0.11155386 -0.039635409 -0.23031062
-0.11155 -0.03955514 -0.23032469
-0.11154664 -0.039473139 -0.23032674
-0.1115429 -0.039390959 -0.23033679
-0.11153863 -0.039312474 -0.2303609
-0.11153507 -0.039230384 -0.23036695
-0.11153153 -0.039148293 -0.230373
-0.11152756 -0.039067984 -0.23038907
-0.11152392 -0.038985848 -0.23039711
-0.11151996 -0.038905539 -0.2304132
-0.11151558 -0.038827009 -0.23043931
-0.11151184 -0.03874483 -0.23044935
-0.11150907 -0.038663089 -0.23043942
-0.11150613 -0.038579307 -0.23043144
-0.11150309 -0.038495481 -0.23042545
-0.11149963 -0.038413431 -0.2304295
-0.11149577 -0.038333166 -0.23044358
-0.11149212 -0.038251031 -0.23045163
-0.11148845 -0.038170852 -0.23046172
-0.11148469 -0.038090631 -0.2304738
-0.11148126 -0.03800663 -0.23047581
-0.1114779 -0.037924625 -0.23047787
-0.11147453 -0.037844576 -0.23048195
-0.11147068 -0.037762355 -0.23049399
-0.11146702 -0.037682176 -0.2305041
-0.11146368 -0.037598219 -0.2305041
-0.11145972 -0.037517909 -0.23052017
-0.11145554 -0.037439466 -0.2305423
-0.1114521 -0.03735742 -0.23054634
-0.11144844 -0.037275285 -0.23055439
-0.11144439 -0.03719493 -0.23057246
-0.11144055 -0.037112709 -0.2305845
-0.11143787 -0.03703101 -0.23057258
-0.11143544 -0.036945492 -0.23055255
-0.11143249 -0.036861707 -0.23054458
-0.11142873 -0.036781482 -0.23055667
-0.11142528 -0.036699437 -0.23056072
-0.11142252 -0.036615741 -0.23054874
-0.11141878 -0.036533564 -0.23055878
-0.11141512 -0.036453381 -0.23056887
-0.11141168 -0.036369383 -0.23057088
-0.11140831 -0.036289334 -0.23057498
-0.11140505 -0.036207374 -0.23057503
-0.11140242 -0.036121771 -0.23055902
-0.11139977 -0.036038116 -0.23054504
-0.11139692 -0.035954375 -0.23053506
-0.11139427 -0.035870723 -0.23052108
-0.11139201 -0.035787243 -0.23049913
-0.11138928 -0.035701592 -0.23048511
-0.11138622 -0.035619721 -0.23048118
-0.11138347 -0.035536028 -0.2304692
-0.11138052 -0.035452243 -0.23046121
-0.11137676 -0.035372019 -0.23047331
-0.1113729 -0.035291754 -0.23048738
-0.11136915 -0.035209574 -0.23049742
-0.1113658 -0.035127573 -0.23049948
-0.11136203 -0.035047349 -0.23051156
-0.11135828 -0.034965169 -0.2305216
-0.11135534 -0.034881387 -0.23051363
-0.11135247 -0.034799602 -0.23050569
-0.11134922 -0.034717642 -0.23050575
-0.11134608 -0.034633771 -0.23050176
-0.11134321 -0.034551986 -0.23049383
-0.11133966 -0.034469895 -0.23049988
-0.11133561 -0.034389541 -0.23051795
-0.11133236 -0.034305628 -0.23051596
-0.1113302 -0.034222193 -0.230492
-0.11132765 -0.034138583 -0.23047604
-0.11132471 -0.034054801 -0.23046806
-0.11132193 -0.033973061 -0.23045813
-0.11131889 -0.03388923 -0.23045214
-0.11131583 -0.03380736 -0.23044822
-0.11131279 -0.033723533 -0.23044223
-0.11130983 -0.033641703 -0.23043628
-0.11130676 -0.033559829 -0.23043235
-0.11130343 -0.033475872 -0.23043235
-0.11130007 -0.033393871 -0.23043442
-0.11129721 -0.033312082 -0.23042648
-0.11129458 -0.033226475 -0.23041046
-0.11129142 -0.033144563 -0.23040852
-0.11128777 -0.033062428 -0.23041657
-0.1112847 -0.032980554 -0.23041262
-0.11128175 -0.032898728 -0.23040667
-0.11127919 -0.032815117 -0.2303907
-0.11127625 -0.032731332 -0.23038273
-0.11127308 -0.032649416 -0.23038079
-0.11127034 -0.03256572 -0.23036882
-0.11126698 -0.032483719 -0.23037088
-0.11126333 -0.032401584 -0.23037893
-0.11125976 -0.032321446 -0.230387
-0.11125662 -0.032237578 -0.23038301
-0.11125366 -0.032155752 -0.23037708
-0.11125081 -0.032072008 -0.23036709
-0.11124796 -0.031988271 -0.23035713
-0.11124459 -0.031908222 -0.23036122
-0.11124104 -0.031826131 -0.23036727
-0.111238 -0.031742305 -0.23036128
-0.11123533 -0.031660605 -0.23034936
-0.11123197 -0.0315786 -0.23035142
-0.11122871 -0.031496644 -0.23035148
-0.11122548 -0.031412728 -0.23034948
-0.1112222 -0.031332724 -0.23035158
-0.11121865 -0.031250633 -0.23035762
-0.11121529 -0.031168628 -0.23035967
-0.11121213 -0.031086715 -0.23035774
-0.11120919 -0.031002931 -0.23034975
-0.11120632 -0.030921144 -0.23034182
-0.11120348 -0.030837405 -0.23033184
-0.11120073 -0.030753709 -0.23031987
-0.11119757 -0.030671792 -0.23031794
-0.11119351 -0.030591439 -0.23033601
-0.11118967 -0.030509219 -0.23034805
-0.1111862 -0.030429125 -0.23035415
-0.11118216 -0.030346816 -0.23037016
-0.11117829 -0.030266549 -0.23038426
-0.11117455 -0.030184373 -0.2303943
-0.11117081 -0.030102193 -0.23040432
-0.11116714 -0.030022014 -0.23041442
-0.11116279 -0.029941531 -0.2304385
-0.11115834 -0.029861003 -0.23046456
-0.11115411 -0.029778607 -0.23048459
-0.11115005 -0.029698253 -0.23050267
-0.11114579 -0.029617812 -0.23052473
-0.11114125 -0.029537242 -0.23055279
-0.1111368 -0.029456712 -0.23057887
-0.11113177 -0.029375922 -0.2306169
-0.11112642 -0.029296957 -0.230663
-0.11112077 -0.029219814 -0.23071711
-0.11111544 -0.029138893 -0.23076116
-0.11111019 -0.029059969 -0.23080525
-0.11110346 -0.028982349 -0.23088133
-0.11109624 -0.028904509 -0.2309674
-0.11108713 -0.02882975 -0.23109552
-0.11107852 -0.028753255 -0.23121159
-0.11106899 -0.028680276 -0.23134974
-0.11104977 -0.028616708 -0.23169792
-0.11103867 -0.028544985 -0.23187006
-0.11103106 -0.02846697 -0.23196411
-0.11101917 -0.0283949 -0.23215222
-0.11100928 -0.028319791 -0.23229632
-0.11100177 -0.028241822 -0.23238838
-0.11164182 -0.041769885 -0.23025931
-0.11163856 -0.041687928 -0.23025936
-0.11163511 -0.041605879 -0.23026341
-0.11163186 -0.041523919 -0.23026347
-0.1116286 -0.041441962 -0.23026353
-0.11162514 -0.041359913 -0.23026758
-0.11162179 -0.041277908 -0.23026964
-0.11161834 -0.041195862 -0.23027368
-0.11161457 -0.041115642 -0.23028576
-0.11161083 -0.041033462 -0.23029581
-0.11160737 -0.040951416 -0.23029986
-0.11160412 -0.040869452 -0.23029992
-0.11160067 -0.040787406 -0.23030397
-0.11159739 -0.040707402 -0.23030606
-0.11159415 -0.040623486 -0.23030408
-0.11159121 -0.040539704 -0.23029609
-0.11158814 -0.040457837 -0.23029216
-0.11158479 -0.040375829 -0.23029421
-0.11158153 -0.040293872 -0.23029426
-0.11157798 -0.040211782 -0.23030031
-0.11157433 -0.040129647 -0.23030835
-0.11157057 -0.040049423 -0.23032044
-0.11156692 -0.039967291 -0.23032849
-0.11156366 -0.039885327 -0.23032854
-0.11156072 -0.039801545 -0.23032056
-0.11155816 -0.039717935 -0.2303046
-0.11155471 -0.039635889 -0.23030865
-0.11155085 -0.039555624 -0.23032272
-0.11154749 -0.039473623 -0.23032477
-0.11154374 -0.039391443 -0.23033482
-0.11153948 -0.039312955 -0.23035893
-0.11153592 -0.039230868 -0.23036498
-0.11153247 -0.039148819 -0.23036903
-0.11152841 -0.039068464 -0.23038712
-0.11152477 -0.038986329 -0.23039515
-0.1115208 -0.038906023 -0.23041123
-0.11151643 -0.03882749 -0.23043734
-0.11151269 -0.038745314 -0.23044738
-0.11150992 -0.038663574 -0.23043746
-0.11150689 -0.038577788 -0.23042944
-0.11150403 -0.038496003 -0.2304215
-0.11150048 -0.038413912 -0.23042753
-0.11149662 -0.038333647 -0.23044163
-0.11149297 -0.038251512 -0.23044968
-0.1114893 -0.038171332 -0.23045975
-0.11148546 -0.038089111 -0.23047179
-0.11148211 -0.03800711 -0.23047385
-0.11147875 -0.037925109 -0.2304759
-0.11147537 -0.03784506 -0.23048
-0.11147153 -0.037762836 -0.23049204
-0.11146786 -0.037682656 -0.23050213
-0.11146453 -0.037598699 -0.23050213
-0.11146057 -0.03751839 -0.23051822
-0.11145639 -0.037439946 -0.23054034
-0.11145294 -0.0373579 -0.23054439
-0.11144929 -0.037275765 -0.23055243
-0.11144523 -0.037195414 -0.2305705
-0.11144139 -0.03711319 -0.23058254
-0.11143872 -0.037031494 -0.23057061
-0.11143629 -0.036945969 -0.2305506
-0.11143333 -0.036862187 -0.23054263
-0.11142957 -0.036781967 -0.2305547
-0.11142603 -0.036699876 -0.23056076
-0.11142337 -0.036616221 -0.23054679
-0.11141963 -0.036534045 -0.23055683
-0.11141596 -0.036453865 -0.23056692
-0.11141262 -0.036369909 -0.23056692
-0.11140915 -0.036289815 -0.23057303
-0.11140589 -0.036207855 -0.23057307
-0.11140317 -0.036122207 -0.23055905
-0.11140061 -0.0360386 -0.23054308
-0.11139786 -0.0359549 -0.23053111
-0.11139511 -0.035871204 -0.23051915
-0.11139295 -0.035787769 -0.23049518
-0.11139022 -0.035702117 -0.23048118
-0.11138706 -0.035620201 -0.23047923
-0.11138441 -0.03553655 -0.23046525
-0.11138137 -0.035452724 -0.23045927
-0.1113776 -0.035372503 -0.23047134
-0.11137374 -0.035292234 -0.23048544
-0.11136999 -0.035210058 -0.23049548
-0.11136664 -0.03512805 -0.23049754
-0.11136287 -0.035047829 -0.23050961
-0.11135913 -0.034965649 -0.23051965
-0.11135618 -0.034881867 -0.23051168
-0.11135332 -0.034800082 -0.23050374
-0.11135005 -0.034718122 -0.2305038
-0.11134701 -0.034634296 -0.23049782
-0.11134405 -0.03455247 -0.23049188
-0.1113405 -0.034470376 -0.23049793
-0.11133654 -0.03439007 -0.230514
-0.11133321 -0.034306109 -0.23051402
-0.11133104 -0.034222674 -0.23049006
-0.11132858 -0.034139112 -0.23047209
-0.11132564 -0.034055326 -0.2304641
-0.11132277 -0.033973541 -0.23045617
-0.11131983 -0.033889756 -0.2304482
-0.11131667 -0.03380784 -0.23044625
-0.11131363 -0.033724014 -0.23044026
-0.11131066 -0.033642188 -0.23043433
-0.11130752 -0.033558313 -0.23043036
-0.11130426 -0.033476353 -0.23043039
-0.11130081 -0.033394307 -0.23043445
-0.11129804 -0.033312567 -0.23042452
-0.11129551 -0.033227004 -0.23040652
-0.11129235 -0.033145085 -0.23040457
-0.11128868 -0.033064909 -0.23041466
-0.11128554 -0.032981038 -0.23041067
-0.11128257 -0.032899208 -0.23040473
-0.11128002 -0.032815598 -0.23038876
-0.11127707 -0.032731816 -0.23038079
-0.11127391 -0.032649897 -0.23037884
-0.11127117 -0.032566205 -0.23036687
-0.11126781 -0.032484196 -0.23036891
-0.11126416 -0.032402068 -0.23037697
-0.11126059 -0.03232193 -0.23038507
-0.11125746 -0.032238059 -0.23038107
-0.11125449 -0.032156233 -0.23037514
-0.11125164 -0.032072492 -0.23036516
-0.11124879 -0.031988751 -0.23035517
-0.11124542 -0.031908702 -0.23035929
-0.11124187 -0.031826612 -0.23036532
-0.11123883 -0.031742785 -0.23035935
-0.11123616 -0.031661086 -0.23034742
-0.1112328 -0.031579085 -0.23034947
-0.11122964 -0.031497166 -0.23034753
-0.11122631 -0.031413209 -0.23034754
-0.11122303 -0.031333204 -0.23034963
-0.11121948 -0.031251114 -0.23035568
-0.11121612 -0.031169109 -0.23035774
-0.11121306 -0.03108724 -0.2303538
-0.11121002 -0.031003412 -0.23034781
-0.11120715 -0.030921627 -0.23033988
-0.1112044 -0.030837931 -0.2303279
-0.11120155 -0.03075419 -0.23031792
-0.1111984 -0.030672275 -0.23031598
-0.11119433 -0.03059192 -0.23033407
-0.11119049 -0.030509699 -0.23034611
-0.11118702 -0.030429605 -0.23035219
-0.11118298 -0.030347299 -0.23036823
-0.11117922 -0.030267075 -0.23038033
-0.11117537 -0.030184854 -0.23039237
-0.11117163 -0.030102676 -0.23040238
-0.11116796 -0.030022496 -0.23041248
-0.11116361 -0.029942013 -0.23043656
-0.11115916 -0.029861484 -0.23046263
-0.11115493 -0.02977909 -0.23048264
-0.11115088 -0.029698735 -0.23050073
-0.11114652 -0.02961825 -0.23052481
-0.11114198 -0.02953768 -0.23055285
-0.11113763 -0.029457193 -0.23057693
-0.11113259 -0.029376404 -0.23061496
-0.11112724 -0.029297438 -0.23066106
-0.11112149 -0.029220253 -0.23071718
-0.11111616 -0.029139332 -0.23076122
-0.11111102 -0.029060453 -0.23080331
-0.11110409 -0.028982744 -0.23088339
-0.11109706 -0.028904993 -0.23096547
-0.11108785 -0.028830189 -0.23109558
-0.11107934 -0.028753739 -0.23120965
-0.11106962 -0.028680673 -0.23135179
-0.11105069 -0.028617235 -0.23169398
-0.11103949 -0.028545469 -0.23186812
-0.11103178 -0.028467413 -0.23196417
-0.11101999 -0.028395386 -0.23215029
-0.1110101 -0.028320279 -0.23229438
-0.11100249 -0.028242266 -0.23238845
-0.11163948 -0.041772347 -0.23025757
-0.11163632 -0.041690432 -0.23025562
-0.11163287 -0.041608386 -0.23025967
-0.11162971 -0.041526467 -0.23025772
-0.11162637 -0.041442513 -0.23025773
-0.111623 -0.041362461 -0.23026183
-0.11161947 -0.041278414 -0.23026583
-0.11161609 -0.041198365 -0.23026994
-0.11161242 -0.04111819 -0.23028001
-0.11160858 -0.041035965 -0.23029205
-0.11160523 -0.040953964 -0.23029411
-0.11160187 -0.040871959 -0.23029616
-0.11159842 -0.040789913 -0.23030022
-0.11159516 -0.040707953 -0.23030026
-0.11159193 -0.040624041 -0.23029828
-0.11158887 -0.04054217 -0.23029435
-0.11158572 -0.040458299 -0.23029035
-0.11158247 -0.040376335 -0.23029041
-0.11157931 -0.040294424 -0.23028848
-0.11157576 -0.040212333 -0.23029453
-0.11157209 -0.04013215 -0.2303046
-0.11156825 -0.040049933 -0.23031664
-0.11156458 -0.03996975 -0.23032674
-0.11156142 -0.039887834 -0.2303248
-0.11155847 -0.039804049 -0.23031682
-0.11155602 -0.039720487 -0.23029885
-0.11155239 -0.039636396 -0.23030484
-0.11154853 -0.039556131 -0.23031892
-0.11154525 -0.039476126 -0.23032102
-0.1115416 -0.039393991 -0.23032907
-0.11153715 -0.039313465 -0.23035514
-0.1115336 -0.039231375 -0.23036119
-0.11153023 -0.039151326 -0.23036529
-0.11152617 -0.039070971 -0.23038337
-0.11152253 -0.038988836 -0.23039141
-0.11151866 -0.038908571 -0.23040548
-0.11151421 -0.038828041 -0.23043156
-0.11151055 -0.038747862 -0.23044163
-0.1115076 -0.03866408 -0.23043366
-0.11150476 -0.038580339 -0.23042369
-0.11150179 -0.03849851 -0.23041774
-0.11149826 -0.038414467 -0.23042175
-0.11149438 -0.038336154 -0.23043787
-0.11149073 -0.038254019 -0.23044592
-0.11148699 -0.038171843 -0.23045596
-0.11148331 -0.03809166 -0.23046604
-0.11147996 -0.038009658 -0.23046811
-0.11147651 -0.037927613 -0.23047215
-0.11147305 -0.037845567 -0.2304762
-0.11146929 -0.037765343 -0.2304883
-0.11146554 -0.037683167 -0.23049833
-0.11146238 -0.037601247 -0.23049638
-0.11145853 -0.037520982 -0.23051047
-0.11145408 -0.037440456 -0.23053655
-0.11145072 -0.037358452 -0.23053859
-0.11144705 -0.037278272 -0.23054868
-0.11144299 -0.037197918 -0.23056677
-0.11143915 -0.037115697 -0.2305788
-0.1114364 -0.037032001 -0.23056681
-0.11143414 -0.036948521 -0.23054487
-0.1114312 -0.036864735 -0.23053688
-0.11142735 -0.036782518 -0.23054892
-0.11142388 -0.036702424 -0.23055501
-0.11142113 -0.036618728 -0.23054303
-0.11141749 -0.036536597 -0.23055109
-0.11141381 -0.036456414 -0.23056117
-0.11141048 -0.036372457 -0.23056118
-0.11140693 -0.036290366 -0.23056722
-0.11140358 -0.036208361 -0.23056927
-0.11140102 -0.036124758 -0.2305533
-0.11139837 -0.036041103 -0.23053934
-0.11139562 -0.035957407 -0.23052736
-0.11139287 -0.035873711 -0.23051539
-0.11139061 -0.035790231 -0.23049343
-0.11138778 -0.035704538 -0.23048142
-0.11138462 -0.035622619 -0.23047948
-0.11138207 -0.035539012 -0.2304635
-0.11137912 -0.035455231 -0.23045552
-0.11137546 -0.035375051 -0.23046561
-0.11137152 -0.035292786 -0.23047963
-0.11136785 -0.035212606 -0.23048973
-0.11136439 -0.03513056 -0.23049378
-0.11136065 -0.03504838 -0.23050381
-0.11135699 -0.034968201 -0.2305139
-0.11135404 -0.034884416 -0.23050591
-0.11135118 -0.034802631 -0.23049799
-0.11134784 -0.034718677 -0.230498
-0.11134478 -0.034636803 -0.23049405
-0.11134181 -0.034554973 -0.23048812
-0.11133827 -0.034472883 -0.23049417
-0.11133423 -0.034390576 -0.23051021
-0.11133097 -0.034308616 -0.23051026
-0.1113288 -0.034225181 -0.2304863
-0.11132634 -0.034141615 -0.23046833
-0.1113234 -0.034057833 -0.23046036
-0.11132056 -0.033974092 -0.23045039
-0.11131759 -0.033892263 -0.23044443
-0.11131445 -0.033808392 -0.23044047
-0.11131149 -0.033726566 -0.23043454
-0.11130854 -0.03364278 -0.23042655
-0.11130528 -0.03356082 -0.23042659
-0.11130203 -0.03347886 -0.23042665
-0.11129877 -0.0333969 -0.23042671
-0.1112959 -0.033315115 -0.23041877
-0.11129327 -0.033229508 -0.23040275
-0.11129011 -0.033147596 -0.23040082
-0.11128646 -0.033065461 -0.23040886
-0.1112834 -0.032983586 -0.23040491
-0.11128034 -0.032901715 -0.23040098
-0.1112778 -0.032816149 -0.23038298
-0.11127484 -0.03273432 -0.23037703
-0.11127158 -0.032652363 -0.23037709
-0.11126883 -0.032568663 -0.23036513
-0.11126548 -0.032486662 -0.23036717
-0.11126183 -0.032404527 -0.23037522
-0.11125836 -0.032324433 -0.23038131
-0.11125522 -0.032240566 -0.23037732
-0.11125226 -0.03215874 -0.23037139
-0.11124941 -0.032074995 -0.2303614
-0.11124666 -0.031991299 -0.23034944
-0.1112432 -0.031909253 -0.23035347
-0.11123956 -0.031827118 -0.23036152
-0.11123669 -0.031745333 -0.23035359
-0.11123392 -0.031663593 -0.23034367
-0.11123059 -0.031579636 -0.23034367
-0.11122741 -0.031499673 -0.23034377
-0.11122417 -0.031415761 -0.23034179
-0.11122081 -0.031333756 -0.23034383
-0.11121734 -0.031253666 -0.23034993
-0.11121391 -0.031169662 -0.23035194
-0.11121085 -0.03108779 -0.23034799
-0.11120778 -0.031005919 -0.23034406
-0.11120484 -0.030922133 -0.23033608
-0.11120217 -0.030840436 -0.23032415
-0.11119932 -0.030756697 -0.23031418
-0.11119616 -0.03067478 -0.23031223
-0.11119212 -0.030592471 -0.23032826
-0.11118826 -0.030512206 -0.23034236
-0.11118479 -0.030432113 -0.23034844
-0.11118095 -0.030349892 -0.23036048
-0.111177 -0.030267626 -0.23037452
-0.11117334 -0.030187447 -0.2303846
-0.11116949 -0.030105226 -0.23039664
-0.11116583 -0.030025046 -0.23040673
-0.11116131 -0.02994252 -0.23043275
-0.11115693 -0.029863991 -0.23045886
-0.11115289 -0.029781682 -0.2304749
-0.11114874 -0.029701285 -0.23049498
-0.11114439 -0.0296208 -0.23051904
-0.11113984 -0.02954023 -0.2305471
-0.11113539 -0.0294597 -0.23057318
-0.11113036 -0.02937891 -0.23061122
-0.11112511 -0.029299987 -0.23065531
-0.11111937 -0.029220847 -0.23070937
-0.11111413 -0.029141925 -0.23075348
-0.11110898 -0.029063046 -0.23079556
-0.11110197 -0.02898334 -0.23087558
-0.11109483 -0.028907498 -0.23096171
-0.11108572 -0.028832739 -0.23108983
-0.11107731 -0.028756332 -0.23120192
-0.1110679 -0.028681442 -0.23133601
-0.11104807 -0.028619567 -0.23169822
-0.11103726 -0.028547976 -0.23186436
-0.11102974 -0.028470006 -0.23195642
-0.11101776 -0.028397892 -0.23214655
-0.11100787 -0.028322784 -0.23229063
-0.11100026 -0.028244771 -0.2323847
-0.11163847 -0.041772448 -0.23026259
-0.11163522 -0.041690491 -0.23026264
-0.11163186 -0.041608483 -0.23026469
-0.11162861 -0.041526526 -0.23026475
-0.11162527 -0.041442566 -0.23026477
-0.11162189 -0.041362517 -0.23026885
-0.11161844 -0.041280471 -0.23027292
-0.11161499 -0.041198425 -0.23027696
-0.11161132 -0.041118246 -0.23028705
-0.11160748 -0.041036025 -0.23029909
-0.11160422 -0.040954065 -0.23029914
-0.11160087 -0.04087206 -0.2303012
-0.11159731 -0.040789973 -0.23030724
-0.11159406 -0.040708013 -0.2303073
-0.1115909 -0.040626094 -0.23030534
-0.11158776 -0.040542226 -0.23030137
-0.1115847 -0.040460356 -0.23029743
-0.11158144 -0.040378392 -0.23029748
-0.1115782 -0.04029448 -0.23029549
-0.11157465 -0.040212389 -0.23030154
-0.11157098 -0.04013221 -0.23031163
-0.11156722 -0.040051986 -0.23032372
-0.11156357 -0.039969854 -0.23033175
-0.11156031 -0.03988789 -0.23033181
-0.11155737 -0.039804108 -0.23032382
-0.11155482 -0.039720498 -0.23030785
-0.11155146 -0.039638497 -0.23030992
-0.1115475 -0.039558187 -0.230326
-0.11154415 -0.039476182 -0.23032805
-0.1115405 -0.039394051 -0.2303361
-0.11153623 -0.039315559 -0.23036021
-0.11153258 -0.039233427 -0.23036826
-0.11152922 -0.039151423 -0.23037031
-0.11152507 -0.039071027 -0.23039038
-0.11152142 -0.038988892 -0.23039842
-0.11151756 -0.038908627 -0.23041251
-0.11151309 -0.038830053 -0.23044062
-0.11150944 -0.038747918 -0.23044866
-0.1115065 -0.038664132 -0.23044068
-0.11150356 -0.038580351 -0.23043269
-0.11150069 -0.038498566 -0.23042476
-0.11149724 -0.03841652 -0.23042881
-0.11149327 -0.03833621 -0.23044489
-0.11148962 -0.038254075 -0.23045294
-0.11148596 -0.038173895 -0.23046303
-0.11148231 -0.038091764 -0.23047107
-0.11147886 -0.038009718 -0.23047513
-0.11147541 -0.037927669 -0.23047917
-0.11147203 -0.037847623 -0.23048326
-0.11146829 -0.037765443 -0.23049331
-0.11146462 -0.03768526 -0.23050341
-0.11146118 -0.037601262 -0.23050541
-0.11145742 -0.037521038 -0.23051748
-0.11145315 -0.03744255 -0.2305416
-0.11144962 -0.037358508 -0.23054561
-0.11144595 -0.037278328 -0.2305557
-0.1114419 -0.037197974 -0.23057377
-0.11143805 -0.037115753 -0.23058581
-0.11143547 -0.037034094 -0.2305719
-0.11143304 -0.036948577 -0.23055187
-0.11143009 -0.036864795 -0.2305439
-0.11142633 -0.036784571 -0.23055598
-0.11142278 -0.03670248 -0.23056203
-0.11142012 -0.036618829 -0.23054805
-0.11141638 -0.036536653 -0.2305581
-0.11141272 -0.036456469 -0.23056819
-0.11140938 -0.036372513 -0.23056819
-0.11140591 -0.036292419 -0.23057428
-0.11140256 -0.036210418 -0.23057634
-0.11139992 -0.036124811 -0.23056033
-0.11139727 -0.036041159 -0.23054636
-0.11139452 -0.035957463 -0.23053437
-0.11139178 -0.035873763 -0.23052239
-0.11138951 -0.035790287 -0.23050044
-0.11138688 -0.03570468 -0.23048443
-0.11138372 -0.035622764 -0.23048249
-0.11138107 -0.035539113 -0.23046851
-0.11137803 -0.035455287 -0.23046252
-0.11137426 -0.035375062 -0.23047461
-0.1113704 -0.035294794 -0.23048869
-0.11136675 -0.035212662 -0.23049673
-0.1113633 -0.035130613 -0.23050079
-0.11135955 -0.035048436 -0.23051083
-0.11135589 -0.034968257 -0.2305209
-0.11135294 -0.034884475 -0.23051293
-0.11135007 -0.03480269 -0.23050499
-0.11134674 -0.03471873 -0.230505
-0.11134367 -0.034636855 -0.23050107
-0.11134081 -0.034555074 -0.23049313
-0.11133716 -0.034472939 -0.23050119
-0.1113332 -0.034392629 -0.23051727
-0.11132987 -0.034308672 -0.23051727
-0.11132771 -0.034225237 -0.23049331
-0.11132525 -0.034141671 -0.23047534
-0.11132231 -0.034057885 -0.23046735
-0.11131944 -0.0339761 -0.23045942
-0.11131649 -0.033892319 -0.23045145
-0.11131333 -0.033810399 -0.2304495
-0.11131039 -0.033726621 -0.23044154
-0.11130742 -0.033644792 -0.23043558
-0.11130419 -0.033560876 -0.2304336
-0.11130103 -0.03347896 -0.23043166
-0.11129767 -0.033396959 -0.23043372
-0.11129481 -0.033315174 -0.23042578
-0.11129218 -0.033229563 -0.23040976
-0.11128902 -0.033147648 -0.23040782
-0.11128527 -0.033065468 -0.23041786
-0.1112823 -0.032983642 -0.23041192
-0.11127934 -0.032901812 -0.23040599
-0.11127678 -0.032818206 -0.23039001
-0.11127374 -0.032734379 -0.23038404
-0.11127058 -0.03265246 -0.23038208
-0.11126783 -0.032568768 -0.23037012
-0.11126448 -0.032486763 -0.23037216
-0.11126083 -0.032404628 -0.23038021
-0.11125726 -0.032324493 -0.23038831
-0.11125413 -0.032240622 -0.23038432
-0.11125126 -0.032158837 -0.23037639
-0.11124841 -0.032075096 -0.23036641
-0.11124557 -0.031991355 -0.23035643
-0.11124219 -0.031911306 -0.23036054
-0.11123864 -0.031829216 -0.23036657
-0.1112356 -0.031745389 -0.2303606
-0.11123282 -0.031663649 -0.23035066
-0.11122957 -0.031581689 -0.23035072
-0.11122631 -0.031499729 -0.23035076
-0.11122297 -0.031415772 -0.23035078
-0.11121972 -0.031333812 -0.23035084
-0.11121625 -0.031253722 -0.23035693
-0.11121289 -0.031171717 -0.23035899
-0.11120974 -0.031089801 -0.23035705
-0.11120669 -0.031005975 -0.23035106
-0.11120382 -0.030924188 -0.23034313
-0.11120097 -0.030840449 -0.23033315
-0.11119822 -0.030756753 -0.23032117
-0.11119507 -0.030674838 -0.23031923
-0.11119111 -0.030594526 -0.23033533
-0.11118726 -0.030512305 -0.23034735
-0.1111837 -0.030432168 -0.23035544
-0.11117975 -0.030349903 -0.23036948
-0.11117589 -0.030269638 -0.23038356
-0.11117215 -0.03018746 -0.23039359
-0.1111683 -0.030105237 -0.23040563
-0.11116473 -0.030025102 -0.23041373
-0.11116038 -0.029944617 -0.23043779
-0.11115584 -0.029864047 -0.23046586
-0.1111518 -0.029781738 -0.23048189
-0.11114764 -0.029701341 -0.23050196
-0.11114329 -0.029620856 -0.23052603
-0.11113875 -0.029540285 -0.2305541
-0.1111343 -0.029459756 -0.23058017
-0.11112927 -0.029378965 -0.23061821
-0.11112402 -0.029300043 -0.2306623
-0.11111836 -0.029222902 -0.23071641
-0.11111303 -0.029141981 -0.23076046
-0.11110788 -0.0290631 -0.23080254
-0.11110096 -0.028985392 -0.23088261
-0.11109374 -0.028907552 -0.23096871
-0.11108462 -0.028832793 -0.23109682
-0.11107611 -0.028756341 -0.23121089
-0.11106668 -0.028683405 -0.23134704
-0.11104707 -0.028619662 -0.23170319
-0.11103616 -0.028548026 -0.23187135
-0.11102865 -0.028470058 -0.23196343
-0.11101666 -0.028397944 -0.23215353
-0.11100677 -0.028322835 -0.23229763
-0.11099926 -0.028244864 -0.23238969
-0.11164227 -0.041768938 -0.23026118
-0.11163911 -0.041687023 -0.23025922
-0.11163566 -0.041604973 -0.23026329
-0.1116323 -0.041522972 -0.23026535
-0.11162905 -0.041441016 -0.23026539
-0.11162559 -0.041358966 -0.23026943
-0.11162233 -0.041277006 -0.23026951
-0.11161888 -0.04119496 -0.23027354
-0.11161511 -0.041114736 -0.23028564
-0.11161137 -0.04103256 -0.23029569
-0.11160792 -0.040950514 -0.23029973
-0.11160466 -0.040868554 -0.23029977
-0.1116012 -0.040786505 -0.23030382
-0.11159793 -0.0407065 -0.23030594
-0.11159469 -0.040622585 -0.23030394
-0.11159175 -0.040538803 -0.23029596
-0.11158859 -0.040456891 -0.23029402
-0.11158533 -0.040374927 -0.23029408
-0.11158207 -0.040292971 -0.23029412
-0.11157852 -0.040210877 -0.23030019
-0.11157478 -0.0401287 -0.23031023
-0.11157111 -0.040048521 -0.2303203
-0.11156746 -0.03996639 -0.23032835
-0.1115642 -0.039884426 -0.23032841
-0.11156125 -0.039800644 -0.23032042
-0.1115586 -0.039716993 -0.23030645
-0.11155515 -0.039634947 -0.2303105
-0.11155129 -0.039554678 -0.2303246
-0.11154803 -0.039472722 -0.23032466
-0.11154429 -0.039390542 -0.2303347
-0.11154001 -0.039312057 -0.23035881
-0.11153646 -0.039229967 -0.23036484
-0.11153291 -0.039147872 -0.23037091
-0.11152895 -0.039067566 -0.23038697
-0.11152521 -0.038985386 -0.23039702
-0.11152124 -0.038905077 -0.23041309
-0.11151697 -0.038826592 -0.23043722
-0.11151323 -0.038744412 -0.23044726
-0.11151036 -0.038662627 -0.23043932
-0.11150751 -0.038578887 -0.23042935
-0.11150457 -0.038495105 -0.23042136
-0.11150102 -0.038413011 -0.23042741
-0.11149715 -0.038332745 -0.23044148
-0.11149351 -0.03825061 -0.23044954
-0.11148984 -0.038170431 -0.23045963
-0.111486 -0.03808821 -0.23047167
-0.11148264 -0.038006209 -0.23047373
-0.11147928 -0.037924204 -0.23047578
-0.11147581 -0.037844114 -0.23048186
-0.11147206 -0.037761934 -0.23049191
-0.1114684 -0.037681755 -0.23050199
-0.11146506 -0.037597798 -0.23050201
-0.1114611 -0.037517488 -0.23051807
-0.11145692 -0.037439045 -0.2305402
-0.11145347 -0.037356995 -0.23054425
-0.11144973 -0.037274823 -0.23055428
-0.11144567 -0.037194468 -0.23057237
-0.111442 -0.037114285 -0.23058246
-0.11143925 -0.037030589 -0.2305705
-0.11143681 -0.036945067 -0.23055047
-0.11143387 -0.036861286 -0.2305425
-0.1114301 -0.036781065 -0.23055458
-0.11142655 -0.036698975 -0.23056063
-0.1114239 -0.03661532 -0.23054665
-0.11142015 -0.036533147 -0.2305567
-0.11141649 -0.036452964 -0.23056678
-0.11141315 -0.036369007 -0.2305668
-0.11140968 -0.036288913 -0.23057289
-0.11140642 -0.036206953 -0.23057294
-0.11140369 -0.036121301 -0.23055893
-0.11140104 -0.036037654 -0.23054495
-0.11139829 -0.035953958 -0.23053297
-0.11139564 -0.035870302 -0.230519
-0.11139338 -0.035786822 -0.23049705
-0.11139065 -0.035701171 -0.23048303
-0.11138758 -0.035619304 -0.23047909
-0.11138494 -0.035535648 -0.23046511
-0.11138189 -0.035451822 -0.23045912
-0.11137813 -0.035371598 -0.23047122
-0.11137426 -0.035291329 -0.23048531
-0.11137052 -0.035209157 -0.23049533
-0.11136716 -0.035127148 -0.23049739
-0.1113634 -0.035046928 -0.23050947
-0.11135965 -0.034964748 -0.23051953
-0.11135671 -0.034880966 -0.23051155
-0.11135384 -0.034799181 -0.2305036
-0.11135058 -0.034717225 -0.23050368
-0.11134744 -0.034633353 -0.23049968
-0.11134447 -0.034551524 -0.23049374
-0.11134093 -0.034469433 -0.2304998
-0.11133696 -0.034389123 -0.23051587
-0.11133373 -0.034305207 -0.23051387
-0.11133156 -0.034221772 -0.23048992
-0.111329 -0.034138165 -0.23047397
-0.11132606 -0.034054384 -0.23046598
-0.11132329 -0.03397264 -0.23045605
-0.11132025 -0.033888809 -0.23045006
-0.11131719 -0.033806942 -0.23044613
-0.11131415 -0.033723112 -0.23044014
-0.11131118 -0.033641286 -0.23043421
-0.11130812 -0.033559412 -0.23043028
-0.11130478 -0.033475451 -0.23043028
-0.11130133 -0.033393405 -0.23043433
-0.11129846 -0.03331162 -0.23042639
-0.11129593 -0.033226058 -0.23040837
-0.11129276 -0.033144142 -0.23040643
-0.1112892 -0.033064008 -0.23041454
-0.11128606 -0.032980137 -0.23041055
-0.11128309 -0.032898307 -0.23040462
-0.11128054 -0.032814696 -0.23038864
-0.1112776 -0.032730915 -0.23038065
-0.11127444 -0.032648999 -0.23037872
