# .PCD v0.7 - Point Cloud Data file format
VERSION 0.7
FIELDS x y z
SIZE 4 4 4
TYPE F F F
COUNT 1 1 1
WIDTH 1269
HEIGHT 1
VIEWPOINT 0 0 0 1 0 0 0
POINTS 1269
DATA ascii
-0.09626592 -0.035036568 -0.26812088
-0.096262924 -0.034956694 -0.26811698
-0.096260011 -0.03487882 -0.26811314
-0.096256718 -0.034798812 -0.26811525
-0.096253611 -0.034720849 -0.2681154
-0.096250519 -0.034640931 -0.26811352
-0.09624733 -0.034560971 -0.26811361
-0.09624441 -0.034483094 -0.26810977
-0.09624169 -0.034405306 -0.26810193
-0.096238501 -0.034325343 -0.26810205
-0.096235313 -0.034245379 -0.26810217
-0.096232206 -0.034167416 -0.26810232
-0.096228816 -0.034087367 -0.26810643
-0.096225627 -0.034007408 -0.26810652
-0.096222714 -0.033929531 -0.26810268
-0.096219815 -0.033849701 -0.2680968
-0.096216999 -0.033771865 -0.26809096
-0.09621428 -0.033694077 -0.26808313
-0.096211456 -0.033616245 -0.26807728
-0.096208073 -0.033536196 -0.2680814
-0.096204519 -0.033454109 -0.26808745
-0.096201405 -0.033376142 -0.2680876
-0.096198313 -0.033296227 -0.26808572
-0.096195124 -0.033216268 -0.26808581
-0.096191913 -0.03313826 -0.26808795
-0.096188724 -0.033058297 -0.26808807
-0.096185811 -0.03298042 -0.26808423
-0.096182816 -0.032900546 -0.26808035
-0.096179999 -0.032822713 -0.26807451
-0.096177176 -0.032744877 -0.26806867
-0.096174188 -0.032665007 -0.26806477
-0.096170999 -0.032585043 -0.26806489
-0.096167713 -0.032505035 -0.268067
-0.096164227 -0.032424949 -0.26807308
-0.096161015 -0.032346942 -0.26807523
-0.096158028 -0.032267064 -0.26807135
-0.096154839 -0.032187104 -0.26807147
-0.096151747 -0.032107186 -0.26806957
-0.096148826 -0.032029308 -0.26806572
-0.09614554 -0.031949304 -0.26806784
-0.096142352 -0.031869344 -0.26806796
-0.096139632 -0.031791557 -0.26806009
-0.096136816 -0.031713724 -0.26805425
-0.09613353 -0.03163372 -0.26805636
-0.096130513 -0.031555798 -0.26805452
-0.096127719 -0.03147601 -0.26804665
-0.096124507 -0.031398002 -0.26804879
-0.096120656 -0.031315781 -0.26806083
-0.096117072 -0.031235646 -0.26806894
-0.096114255 -0.031157814 -0.2680631
-0.096111454 -0.031078028 -0.2680552
-0.096108168 -0.030998021 -0.26805732
-0.096105352 -0.030920189 -0.26805148
-0.09610226 -0.03084027 -0.2680496
-0.096099347 -0.030762395 -0.26804572
-0.096096352 -0.030682519 -0.26804185
-0.096093141 -0.030604513 -0.26804399
-0.096090145 -0.030524638 -0.26804012
-0.096087232 -0.03044676 -0.26803628
-0.096084513 -0.030368971 -0.26802844
-0.096081421 -0.030289054 -0.26802656
-0.096077569 -0.030206833 -0.2680386
-0.096073888 -0.030126657 -0.2680487
-0.096070699 -0.030046696 -0.26804879
-0.09606798 -0.029968906 -0.26804096
-0.096065082 -0.029889073 -0.26803508
-0.096061975 -0.02981111 -0.26803523
-0.096058689 -0.029731106 -0.26803732
-0.096055597 -0.029651187 -0.26803544
-0.09605258 -0.029573267 -0.26803359
-0.096049026 -0.029491179 -0.26803964
-0.096045636 -0.02941113 -0.26804376
-0.096042544 -0.029331211 -0.26804185
-0.0960401 -0.029255508 -0.26803008
-0.096036814 -0.029175503 -0.26803219
-0.096033916 -0.029095672 -0.26802629
-0.096031465 -0.029019967 -0.26801452
-0.096027911 -0.028937876 -0.26802057
-0.09602423 -0.028857699 -0.26803064
-0.096021317 -0.028779821 -0.26802683
-0.096018612 -0.028700078 -0.26801693
-0.096015796 -0.028622244 -0.26801109
-0.09601298 -0.028544411 -0.26800528
-0.096009985 -0.028464535 -0.26800138
-0.096007168 -0.028386705 -0.26799554
-0.096004248 -0.028308827 -0.26799169
-0.096001156 -0.028228909 -0.26798981
-0.095998064 -0.02814899 -0.26798791
-0.095994681 -0.028068945 -0.26799202
-0.095991395 -0.02798894 -0.26799411
-0.095988378 -0.02791102 -0.26799229
-0.095985293 -0.027831102 -0.26799038
-0.095981903 -0.027751055 -0.26799449
-0.095979087 -0.02767322 -0.26798865
-0.095976658 -0.027595561 -0.26797482
-0.095973566 -0.027515642 -0.26797295
-0.095970362 -0.027437637 -0.26797509
-0.095966995 -0.027355634 -0.26797715
-0.095963515 -0.027275542 -0.26798326
-0.097322419 -0.062113389 -0.26860851
-0.097322673 -0.062032994 -0.26853666
-0.097323939 -0.061949123 -0.26844075
-0.09732309 -0.061870206 -0.26839292
-0.097320803 -0.061788682 -0.26837301
-0.097317979 -0.061710849 -0.26836717
-0.097314581 -0.061632752 -0.26837334
-0.097311467 -0.06155479 -0.26837349
-0.097308651 -0.061476957 -0.26836765
-0.097305357 -0.061396953 -0.26836973
-0.097301953 -0.061318859 -0.2683759
-0.097298652 -0.061240807 -0.26838005
-0.097296044 -0.061161108 -0.26836818
-0.097293422 -0.061083362 -0.26835832
-0.097290426 -0.061003488 -0.26835445
-0.097287707 -0.0609257 -0.26834661
-0.097284593 -0.060847733 -0.26834679
-0.097280897 -0.060769513 -0.26835892
-0.097277686 -0.060691506 -0.26836106
-0.097274795 -0.060611673 -0.26835516
-0.097271778 -0.060533755 -0.26835334
-0.097268663 -0.060455792 -0.26835349
-0.097265474 -0.060375828 -0.26835358
-0.097262174 -0.060297776 -0.26835775
-0.097258963 -0.060219772 -0.2683599
-0.097256437 -0.06014207 -0.26834807
-0.097253539 -0.060062237 -0.26834217
-0.097250134 -0.059984144 -0.26834834
-0.097246438 -0.05990592 -0.26836047
-0.097242936 -0.059827782 -0.2683686
-0.097239919 -0.059749864 -0.26836675
-0.097237028 -0.059670031 -0.26836088
-0.097234108 -0.059592154 -0.26835704
-0.097231291 -0.059514321 -0.2683512
-0.097228199 -0.059434403 -0.26834929
-0.097225085 -0.05935644 -0.26834947
-0.097222172 -0.059278563 -0.26834562
-0.097218983 -0.059198603 -0.26834571
-0.097215965 -0.059120681 -0.26834387
-0.097213268 -0.059040938 -0.268334
-0.097209468 -0.058962673 -0.26834813
-0.097205751 -0.058886401 -0.26836231
-0.097203054 -0.058806658 -0.26835245
-0.097200744 -0.058727086 -0.26833457
-0.097197823 -0.058649212 -0.26833072
-0.097194418 -0.058571115 -0.26833689
-0.09719111 -0.058493067 -0.26834103
-0.097187825 -0.058413062 -0.26834312
-0.097184815 -0.05833514 -0.2683413
-0.097181894 -0.058257263 -0.26833743
-0.097179271 -0.05817952 -0.26832762
-0.097176671 -0.058099817 -0.26831573
-0.097173266 -0.058021724 -0.26832187
-0.097169474 -0.057943456 -0.268336
-0.097166359 -0.057865493 -0.26833618
-0.097163461 -0.057785664 -0.26833028
-0.097160645 -0.057707831 -0.26832443
-0.09715753 -0.057629865 -0.26832461
-0.097154126 -0.057551771 -0.26833075
-0.097151235 -0.057471942 -0.26832485
-0.097148314 -0.057394065 -0.26832104
-0.097145006 -0.057316013 -0.26832518
-0.097141698 -0.057237964 -0.26832932
-0.097138703 -0.05715809 -0.26832545
-0.097135983 -0.057080299 -0.26831758
-0.09713307 -0.057002425 -0.26831377
-0.097129762 -0.056924373 -0.26831791
-0.09712667 -0.056844454 -0.26831603
-0.097124048 -0.056766711 -0.2683062
-0.097120762 -0.056686703 -0.26830828
-0.09711726 -0.056608565 -0.26831642
-0.097114049 -0.056530561 -0.26831859
-0.097110741 -0.056452509 -0.26832274
-0.097107634 -0.056374546 -0.26832289
-0.097104542 -0.056294627 -0.26832098
-0.097101524 -0.056216709 -0.26831916
-0.097098313 -0.056138702 -0.26832131
-0.097095303 -0.056060784 -0.26831946
-0.097092405 -0.055980951 -0.26831359
-0.097089685 -0.055903159 -0.26830575
-0.097086765 -0.055825286 -0.2683019
-0.097083777 -0.055745412 -0.26829803
-0.097080566 -0.055667404 -0.26830018
-0.097077452 -0.055589441 -0.26830032
-0.097074166 -0.055509433 -0.26830241
-0.097070664 -0.055431299 -0.26831055
-0.097067259 -0.055353206 -0.26831672
-0.097064145 -0.055275239 -0.26831686
-0.097061135 -0.055197321 -0.26831502
-0.097058237 -0.055117488 -0.26830915
-0.09705542 -0.055039655 -0.2683033
-0.097052209 -0.054961652 -0.26830545
-0.097048804 -0.054883555 -0.26831159
-0.097045712 -0.05480364 -0.26830971
-0.097042993 -0.054725848 -0.26830187
-0.097039975 -0.05464793 -0.26830003
-0.097036868 -0.054569967 -0.26830018
-0.097033679 -0.054490004 -0.26830029
-0.097030468 -0.054411996 -0.26830244
-0.097027354 -0.054334033 -0.26830259
-0.097023949 -0.05425594 -0.26830873
-0.097020663 -0.054175936 -0.26831084
-0.097018041 -0.054098189 -0.26830101
-0.097015418 -0.054020442 -0.26829118
-0.097012036 -0.053940393 -0.26829529
-0.097008534 -0.053862259 -0.26830342
-0.097005226 -0.053784207 -0.26830757
-0.097002111 -0.053706244 -0.26830772
-0.096999213 -0.053626411 -0.26830184
-0.096996397 -0.053548578 -0.268296
-0.096993387 -0.05347066 -0.26829416
-0.096990466 -0.053392783 -0.26829031
-0.096987471 -0.053312909 -0.26828644
-0.096984364 -0.053234946 -0.26828659
-0.096980974 -0.053154897 -0.2682907
-0.096977666 -0.053076848 -0.26829484
-0.096974656 -0.052998926 -0.26829299
-0.096971445 -0.052920919 -0.26829514
-0.096968532 -0.052843042 -0.26829129
-0.09696573 -0.052763257 -0.26828343
-0.096962914 -0.052685425 -0.26827759
-0.096959606 -0.052607372 -0.26828173
-0.096956223 -0.052527323 -0.26828584
-0.096953109 -0.05244936 -0.26828599
-0.096950293 -0.052371528 -0.26828015
-0.096947573 -0.052293736 -0.26827231
-0.096944183 -0.052213691 -0.26827642
-0.096940875 -0.052135639 -0.26828057
-0.096937478 -0.052057546 -0.26828671
-0.096934184 -0.051977541 -0.26828879
-0.096931078 -0.051899578 -0.26828897
-0.09692806 -0.051821657 -0.26828712
-0.096924968 -0.051741738 -0.26828524
-0.096921958 -0.05166382 -0.2682834
-0.096919134 -0.051585987 -0.26827756
-0.096916512 -0.05150824 -0.26826772
-0.096913129 -0.051428191 -0.2682718
-0.096909434 -0.051349968 -0.26828396
-0.096906513 -0.051272091 -0.26828012
-0.096903816 -0.051192347 -0.26827022
-0.096900702 -0.051114384 -0.2682704
-0.096897885 -0.051036552 -0.26826456
-0.096895359 -0.050958849 -0.26825273
-0.096892171 -0.050878886 -0.26825282
-0.096888669 -0.050800748 -0.26826096
-0.09688507 -0.050722569 -0.26827112
-0.096881881 -0.05064261 -0.26827121
-0.096879348 -0.050564904 -0.26825941
-0.096876338 -0.050486986 -0.26825756
-0.096872658 -0.050406806 -0.26826763
-0.096869454 -0.050328799 -0.26826981
-0.096866436 -0.05025088 -0.26826796
-0.096863538 -0.050171047 -0.26826206
-0.096860722 -0.050093215 -0.26825622
-0.096857414 -0.050015166 -0.26826036
-0.096854404 -0.049937245 -0.26825854
-0.096851602 -0.049857456 -0.26825064
-0.096848689 -0.049779583 -0.26824683
-0.096845575 -0.049701616 -0.26824695
-0.096842095 -0.049621526 -0.26825306
-0.096838392 -0.049543303 -0.26826519
-0.096835479 -0.049465425 -0.26826137
-0.096832775 -0.049385682 -0.26825148
-0.096829765 -0.04930776 -0.26824963
-0.096826456 -0.049229711 -0.2682538
-0.096823074 -0.049149662 -0.26825789
-0.09682025 -0.04907183 -0.26825204
-0.096817046 -0.048993822 -0.26825422
-0.096813761 -0.048913818 -0.26825631
-0.096810937 -0.048835985 -0.26825047
-0.096807927 -0.048758067 -0.26824862
-0.096804813 -0.048680101 -0.2682488
-0.096801527 -0.048600096 -0.26825088
-0.096798413 -0.048522133 -0.26825103
-0.096795425 -0.048442259 -0.26824713
-0.096792601 -0.048364427 -0.26824132
-0.096789494 -0.048286464 -0.26824147
-0.09678591 -0.048206329 -0.26824957
-0.096782796 -0.048128363 -0.26824972
-0.096779808 -0.048048489 -0.26824582
-0.0967765 -0.04797044 -0.26824999
-0.096773386 -0.047892474 -0.26825014
-0.096770294 -0.047812559 -0.26824823
-0.096767083 -0.047734551 -0.26825041
-0.096763581 -0.047656413 -0.26825854
-0.096760392 -0.047576454 -0.26825863
-0.096757673 -0.047498662 -0.26825079
-0.096754856 -0.04742083 -0.26824498
-0.096751839 -0.047342911 -0.26824313
-0.09674865 -0.047262948 -0.26824325
-0.096744776 -0.047182683 -0.26825732
-0.096741572 -0.047104675 -0.26825947
-0.096738748 -0.047026843 -0.26825362
-0.096736319 -0.046949185 -0.2682398
-0.096733719 -0.046869483 -0.26822793
-0.096730709 -0.046791565 -0.26822609
-0.096727006 -0.046713337 -0.26823822
-0.096723527 -0.046633247 -0.26824433
-0.096721001 -0.046555545 -0.26823249
-0.096717715 -0.046475541 -0.26823461
-0.096714109 -0.046397358 -0.26824474
-0.096710905 -0.046319351 -0.26824689
-0.096707717 -0.046239391 -0.26824701
-0.096704699 -0.046161473 -0.26824516
-0.096701905 -0.046081685 -0.26823726
-0.096698888 -0.046003763 -0.26823542
-0.09669558 -0.045925714 -0.26823956
-0.096692197 -0.045845665 -0.26824367
-0.096682295 -0.04560956 -0.26825407
-0.096679673 -0.045531813 -0.26824424
-0.096676871 -0.045452025 -0.26823637
-0.096673861 -0.045374107 -0.26823452
-0.096670866 -0.045294233 -0.26823062
-0.096668147 -0.045216441 -0.26822281
-0.096664935 -0.045138434 -0.26822495
-0.096661747 -0.045058474 -0.26822504
-0.096658833 -0.044980597 -0.26822123
-0.096655719 -0.044902634 -0.26822138
-0.096652433 -0.04482263 -0.26822346
-0.096649319 -0.044744667 -0.26822361
-0.096646324 -0.044664793 -0.26821974
-0.096643314 -0.044586871 -0.26821789
-0.096640103 -0.044508863 -0.26822007
-0.096636817 -0.044428859 -0.26822215
-0.096633703 -0.044350896 -0.2682223
-0.096630611 -0.044270977 -0.26822042
-0.096627697 -0.0441931 -0.26821658
-0.09662468 -0.044115182 -0.26821473
-0.096621491 -0.044035219 -0.26821482
-0.096618287 -0.043957211 -0.268217
-0.096615195 -0.043877296 -0.26821509
-0.096612573 -0.043799549 -0.26820526
-0.096609555 -0.043721631 -0.26820341
-0.096606366 -0.043641668 -0.26820353
-0.096603252 -0.043563705 -0.26820368
-0.096599966 -0.043483701 -0.26820579
-0.096596956 -0.043405779 -0.26820394
-0.096594036 -0.043327905 -0.2682001
-0.096590944 -0.043247987 -0.26819822
-0.096587837 -0.043170024 -0.26819837
-0.096584648 -0.04309006 -0.26819846
-0.096581437 -0.043012053 -0.26820064
-0.096577957 -0.042931963 -0.26820672
-0.096574649 -0.042853914 -0.26821089
-0.096571654 -0.042774037 -0.26820698
-0.096568838 -0.042696204 -0.26820114
-0.096565917 -0.042618327 -0.2681973
-0.096562728 -0.042538367 -0.26819742
-0.096559718 -0.042460449 -0.26819557
-0.096556425 -0.042380441 -0.26819766
-0.096553512 -0.042302564 -0.26819384
-0.09655042 -0.042222649 -0.26819193
-0.096547306 -0.042144682 -0.26819211
-0.096544117 -0.042064723 -0.2681922
-0.09654101 -0.04198676 -0.26819235
-0.096537918 -0.041906841 -0.26819047
-0.096534707 -0.041828834 -0.26819262
-0.096531227 -0.041748744 -0.26819873
-0.09652821 -0.041670822 -0.26819688
-0.09652549 -0.041593034 -0.26818904
-0.096522398 -0.041513115 -0.26818714
-0.096519187 -0.041435108 -0.26818931
-0.096516095 -0.041355189 -0.2681874
-0.096513085 -0.041277271 -0.26818556
-0.096509896 -0.041197307 -0.26818568
-0.096506782 -0.041119345 -0.26818582
-0.096503593 -0.041039385 -0.26818594
-0.09650021 -0.040959336 -0.26819003
-0.096496806 -0.040881243 -0.26819617
-0.096493714 -0.040801324 -0.26819429
-0.096490994 -0.040723536 -0.26818645
-0.096487977 -0.040645614 -0.2681846
-0.096484788 -0.040565655 -0.26818472
-0.096482068 -0.040487863 -0.26817688
-0.096479058 -0.040409945 -0.26817504
-0.096475571 -0.040329851 -0.26818115
-0.096472479 -0.040249933 -0.26817924
-0.096469954 -0.04017223 -0.26816744
-0.096466944 -0.040094312 -0.26816559
-0.096464023 -0.040016435 -0.26816174
-0.096461028 -0.039936561 -0.26815784
-0.096457921 -0.039858595 -0.26815802
-0.096454337 -0.039778464 -0.2681661
-0.096451245 -0.039698545 -0.26816422
-0.096448235 -0.039620623 -0.26816237
-0.09644495 -0.039540619 -0.26816446
-0.096441738 -0.039462611 -0.2681666
-0.096438743 -0.039382737 -0.26816273
-0.096435264 -0.039302647 -0.26816884
-0.096431859 -0.039224554 -0.26817498
-0.096428961 -0.039144721 -0.26816911
-0.096426144 -0.039066888 -0.26816326
-0.096423246 -0.038987055 -0.26815736
-0.096420333 -0.038909182 -0.26815352
-0.09641695 -0.038829133 -0.26815763
-0.096413739 -0.038751125 -0.26815978
-0.096410647 -0.03867121 -0.2681579
-0.096407726 -0.038593329 -0.26815405
-0.096404247 -0.038513239 -0.26816016
-0.09640123 -0.038435321 -0.26815832
-0.096398629 -0.038355619 -0.26814643
-0.096395321 -0.03827757 -0.26815057
-0.096391842 -0.038197476 -0.26815668
-0.096389122 -0.038119689 -0.26814884
-0.096386597 -0.038041987 -0.26813701
-0.096383505 -0.037962068 -0.26813513
-0.096380219 -0.03788206 -0.26813722
-0.096377201 -0.037804142 -0.26813537
-0.096354835 -0.037248321 -0.26814023
-0.096351825 -0.037170403 -0.26813838
-0.09634871 -0.03709244 -0.26813853
-0.096345425 -0.037012435 -0.26814064
-0.096340887 -0.036929909 -0.26816666
-0.096337602 -0.036849905 -0.26816875
-0.096334785 -0.036772072 -0.26816291
-0.096331693 -0.036692154 -0.26816103
-0.096328974 -0.036614366 -0.26815319
-0.096326448 -0.03653666 -0.26814139
-0.096323453 -0.036456786 -0.26813748
-0.096320339 -0.036378823 -0.26813763
-0.096317425 -0.03630095 -0.26813379
-0.09631367 -0.03621877 -0.26814383
-0.096312098 -0.036143459 -0.26811409
-0.096309185 -0.036065578 -0.26811025
-0.096304744 -0.035983101 -0.26813427
-0.096301064 -0.035902921 -0.26814437
-0.096297413 -0.03582079 -0.26815242
-0.096294492 -0.035742912 -0.26814857
-0.096291207 -0.035662904 -0.26815069
-0.096273556 -0.035191651 -0.26812753
-0.096270464 -0.035111733 -0.26812565
-0.096267648 -0.0350339 -0.26811981
-0.096264824 -0.034956068 -0.26811397
-0.096261732 -0.034876149 -0.26811209
-0.096258447 -0.034796145 -0.26811418
-0.096255332 -0.034718178 -0.26811433
-0.096252248 -0.034638263 -0.26811245
-0.096249059 -0.034558304 -0.26811254
-0.096246138 -0.034480426 -0.26810873
-0.096243419 -0.034402639 -0.26810089
-0.096240327 -0.034322716 -0.26809901
-0.096237041 -0.034242716 -0.2681011
-0.096233927 -0.034164749 -0.26810125
-0.096230641 -0.034084745 -0.26810336
-0.096227452 -0.034004785 -0.26810345
-0.096224539 -0.033926908 -0.26809961
-0.096221544 -0.033847034 -0.26809573
-0.09621872 -0.033769201 -0.26808989
-0.096216097 -0.033691455 -0.26808006
-0.096213281 -0.033613622 -0.26807421
-0.096209802 -0.033533528 -0.26808032
-0.09620624 -0.033451438 -0.26808637
-0.096203223 -0.03337352 -0.26808453
-0.096200138 -0.033293601 -0.26808265
-0.096196927 -0.033215594 -0.26808479
-0.096193738 -0.033135634 -0.26808488
-0.096190549 -0.033055671 -0.268085
-0.096187629 -0.032977797 -0.26808116
-0.096184537 -0.032897875 -0.26807928
-0.09618172 -0.032820042 -0.26807344
-0.096179001 -0.032742254 -0.2680656
-0.096175909 -0.032662336 -0.26806372
-0.09617272 -0.032582372 -0.26806381
-0.096169531 -0.032502413 -0.26806393
-0.096166052 -0.032422323 -0.26807001
-0.096162744 -0.032344274 -0.26807418
-0.096159749 -0.032264397 -0.26807028
-0.09615656 -0.032184437 -0.2680704
-0.096153565 -0.032104563 -0.2680665
-0.096150547 -0.032026641 -0.26806465
-0.09614744 -0.031948678 -0.26806483
-0.096144073 -0.031866677 -0.26806688
-0.096141532 -0.031790927 -0.26805708
-0.096138634 -0.031711098 -0.26805121
-0.096135348 -0.03163109 -0.26805329
-0.096132234 -0.031553127 -0.26805347
-0.096129537 -0.031473383 -0.26804358
-0.096126229 -0.031395331 -0.26804772
-0.096122377 -0.031313114 -0.26805979
-0.096118793 -0.031232977 -0.26806787
-0.096115977 -0.031155145 -0.26806203
-0.096113279 -0.031075401 -0.26805216
-0.096109986 -0.030995395 -0.26805425
-0.096107073 -0.03091752 -0.26805043
-0.096104078 -0.030837644 -0.26804653
-0.096101165 -0.03075977 -0.26804268
-0.096098073 -0.030679852 -0.26804078
-0.096094958 -0.030601887 -0.26804096
-0.096091866 -0.03052197 -0.26803905
-0.096088953 -0.030444093 -0.26803523
-0.096086234 -0.030366302 -0.2680274
-0.096083142 -0.030286387 -0.26802549
-0.09607929 -0.030204166 -0.26803753
-0.096075609 -0.030123988 -0.26804763
-0.096072517 -0.03004407 -0.26804572
-0.096069701 -0.029966237 -0.26803988
-0.096066803 -0.029886404 -0.26803401
-0.096063688 -0.029808441 -0.26803416
-0.0960605 -0.029728482 -0.26803428
-0.096057311 -0.02964852 -0.2680344
-0.096054301 -0.029570598 -0.26803255
-0.096050836 -0.029488552 -0.2680366
-0.096047357 -0.02940846 -0.26804268
-0.096044436 -0.029330583 -0.26803887
-0.096041813 -0.029252838 -0.26802903
-0.096038625 -0.029172879 -0.26802912
-0.096035808 -0.029095044 -0.26802328
-0.096033186 -0.029017298 -0.26801348
-0.096029721 -0.02893525 -0.2680175
-0.096026048 -0.028855074 -0.2680276
-0.096023127 -0.028777199 -0.26802376
-0.096020333 -0.028697411 -0.26801589
-0.09601751 -0.028619576 -0.26801005
-0.096014693 -0.028541744 -0.26800421
-0.096011698 -0.028461868 -0.2680003
-0.096008882 -0.028384037 -0.26799449
-0.096005961 -0.02830616 -0.26799065
-0.096002877 -0.028226241 -0.26798874
-0.095999785 -0.028146323 -0.26798686
-0.095996499 -0.02806632 -0.26798895
-0.095993109 -0.027986271 -0.26799306
-0.095990196 -0.027908394 -0.26798922
-0.095987007 -0.027828433 -0.26798934
-0.095983624 -0.027748385 -0.26799345
-0.095980898 -0.027670596 -0.26798558
-0.095978372 -0.027592894 -0.26797378
-0.095975384 -0.027513018 -0.26796988
-0.095972173 -0.02743501 -0.26797205
-0.095968887 -0.027355004 -0.26797414
-0.095965326 -0.027272915 -0.26798019
-0.097320765 -0.062112741 -0.26860884
-0.097320922 -0.062032305 -0.26853901
-0.097322285 -0.061948478 -0.26844111
-0.097321443 -0.061869562 -0.26839328
-0.097319148 -0.061788037 -0.26837337
-0.097316332 -0.061710205 -0.26836753
-0.09731283 -0.061632067 -0.26837566
-0.097309813 -0.061554145 -0.26837385
-0.0973069 -0.061476268 -0.26836997
-0.097303711 -0.061396308 -0.26837009
-0.097300306 -0.061318215 -0.26837623
-0.097296998 -0.061240166 -0.2683804
-0.097294398 -0.061160464 -0.26836851
-0.097291775 -0.061082717 -0.26835868
-0.097288683 -0.061002798 -0.2683568
-0.09728606 -0.060925052 -0.26834697
-0.097282946 -0.060847089 -0.26834711
-0.097279251 -0.060768865 -0.26835924
-0.097276039 -0.060690857 -0.26836139
-0.097273149 -0.060611028 -0.26835552
-0.097270131 -0.060533106 -0.26835367
-0.097267017 -0.060455143 -0.26835382
-0.097263828 -0.060375184 -0.26835394
-0.097260527 -0.060297132 -0.26835808
-0.097257316 -0.060219128 -0.26836023
-0.09725479 -0.060141422 -0.2683484
-0.097251892 -0.060061593 -0.26834252
-0.097248487 -0.059983499 -0.26834866
-0.097244792 -0.059905276 -0.26836079
-0.09724129 -0.059827138 -0.26836896
-0.097238272 -0.059749216 -0.26836711
-0.097235285 -0.059669342 -0.26836321
-0.097232461 -0.059591509 -0.2683574
-0.097229645 -0.059513677 -0.26835155
-0.097226553 -0.059433758 -0.26834965
-0.097223446 -0.059355795 -0.2683498
-0.097220525 -0.059277918 -0.26834595
-0.097217239 -0.059197914 -0.26834807
-0.097214326 -0.059120037 -0.26834422
-0.097211622 -0.059040293 -0.26833436
-0.097207829 -0.058962025 -0.26834849
-0.097204112 -0.058885757 -0.26836267
-0.097201407 -0.058806013 -0.26835278
-0.097199097 -0.058726441 -0.26833493
-0.097196184 -0.058648564 -0.26833108
-0.097192779 -0.058570471 -0.26833722
-0.097189471 -0.058492422 -0.26834136
-0.097186185 -0.058412418 -0.26834348
-0.097183175 -0.058334496 -0.26834163
-0.097180255 -0.058256619 -0.26833779
-0.097177632 -0.058178872 -0.26832795
-0.097175032 -0.058099173 -0.26831609
-0.097171627 -0.05802108 -0.26832223
-0.097167827 -0.057942811 -0.26833636
-0.09716472 -0.057864849 -0.26833653
-0.097161822 -0.057785019 -0.26833063
-0.097159006 -0.057707183 -0.26832479
-0.097155891 -0.05762922 -0.26832494
-0.097152486 -0.057551127 -0.26833111
-0.097149596 -0.057471298 -0.26832521
-0.097146675 -0.05739342 -0.26832137
-0.097143367 -0.057315368 -0.26832551
-0.097140066 -0.05723732 -0.26832968
-0.097137071 -0.057157446 -0.26832578
-0.097134352 -0.057079654 -0.26831794
-0.097131431 -0.057001777 -0.26831412
-0.097128026 -0.056923684 -0.26832026
-0.097125031 -0.05684381 -0.26831636
-0.097122408 -0.056766063 -0.26830652
-0.097119026 -0.056686018 -0.26831064
-0.097115621 -0.056607921 -0.26831678
-0.097112417 -0.056529917 -0.26831892
-0.097109012 -0.05645182 -0.26832509
-0.097105995 -0.056373902 -0.26832324
-0.097102903 -0.056293983 -0.26832134
-0.097099796 -0.05621602 -0.26832151
-0.097096682 -0.056138057 -0.26832163
-0.097093567 -0.056060094 -0.26832181
-0.097090773 -0.055980306 -0.26831391
-0.097088054 -0.055902515 -0.26830608
-0.09708523 -0.055824682 -0.26830024
-0.097082138 -0.055744767 -0.26829836
-0.097078934 -0.05566676 -0.2683005
-0.097075723 -0.055588752 -0.26830268
-0.097072437 -0.055508748 -0.26830477
-0.097069032 -0.055430654 -0.2683109
-0.097065628 -0.055352557 -0.26831704
-0.097062513 -0.055274595 -0.26831722
-0.097059503 -0.055196676 -0.26831537
-0.097056605 -0.055116843 -0.26830947
-0.097053789 -0.055039011 -0.26830366
-0.097050577 -0.054961003 -0.26830581
-0.097047172 -0.05488291 -0.26831195
-0.09704408 -0.054802991 -0.26831004
-0.097041361 -0.054725204 -0.26830223
-0.097038351 -0.054647285 -0.26830038
-0.097035334 -0.054569364 -0.26829854
-0.097032048 -0.054489359 -0.26830065
-0.097028837 -0.054411352 -0.2683028
-0.097025633 -0.054333344 -0.26830494
-0.097022325 -0.054255296 -0.26830909
-0.097019039 -0.054175291 -0.2683112
-0.097016409 -0.054097544 -0.26830137
-0.097013786 -0.054019798 -0.26829153
-0.097010404 -0.053939749 -0.26829565
-0.097006902 -0.053861611 -0.26830378
-0.097003594 -0.053783562 -0.26830792
-0.097000487 -0.053705599 -0.26830807
-0.096997589 -0.053625766 -0.2683022
-0.096994773 -0.053547934 -0.26829636
-0.096991852 -0.053470057 -0.26829252
-0.096988842 -0.053392138 -0.26829067
-0.096985847 -0.053312264 -0.26828676
-0.096982732 -0.053234302 -0.26828694
-0.09697935 -0.053154252 -0.26829106
-0.096976042 -0.0530762 -0.2682952
-0.096973032 -0.052998282 -0.26829335
-0.096969821 -0.052920274 -0.2682955
-0.096966811 -0.052842356 -0.26829365
-0.096964106 -0.052762609 -0.26828378
-0.09696129 -0.052684776 -0.26827794
-0.096957982 -0.052606728 -0.26828209
-0.096954599 -0.052526679 -0.26828617
-0.096951485 -0.052448716 -0.26828635
-0.096948668 -0.052370884 -0.26828051
-0.096945852 -0.052293051 -0.26827466
-0.096942559 -0.052213043 -0.26827675
-0.096939161 -0.05213495 -0.26828292
-0.096935757 -0.052056856 -0.26828906
-0.096932568 -0.051976897 -0.26828915
-0.096929453 -0.051898934 -0.26828933
-0.096926436 -0.051821012 -0.26828748
-0.096923351 -0.051741093 -0.26828557
-0.096920334 -0.051663175 -0.26828372
-0.096917517 -0.051585343 -0.26827791
-0.096914895 -0.051507596 -0.26826808
-0.096911408 -0.051427502 -0.26827419
-0.096907809 -0.051349323 -0.26828432
-0.096904896 -0.051271446 -0.26828048
-0.096902192 -0.051191702 -0.26827058
-0.096899085 -0.05111374 -0.26827073
-0.096896261 -0.051035907 -0.26826489
-0.096893638 -0.05095816 -0.26825508
-0.096890554 -0.050878242 -0.26825318
-0.096887045 -0.050800104 -0.26826131
-0.096883446 -0.050721925 -0.26827148
-0.096880257 -0.050641961 -0.26827157
-0.096877731 -0.050564259 -0.26825976
-0.096874818 -0.050486382 -0.26825589
-0.096871041 -0.050406162 -0.26826799
-0.09686783 -0.050328154 -0.26827013
-0.09686482 -0.050250236 -0.26826832
-0.096861921 -0.050170403 -0.26826242
-0.096859105 -0.05009257 -0.26825657
-0.096855797 -0.050014518 -0.26826072
-0.09685269 -0.049936555 -0.2682609
-0.096849985 -0.049856812 -0.268251
-0.096846975 -0.049778894 -0.26824915
-0.096843958 -0.049700972 -0.26824731
-0.096840478 -0.049620882 -0.26825342
-0.096836776 -0.049542658 -0.26826555
-0.096833862 -0.049464781 -0.26826173
-0.096831262 -0.049385078 -0.26824984
-0.096828148 -0.049307115 -0.26824999
-0.09682484 -0.049229067 -0.26825413
-0.096821457 -0.049149018 -0.26825824
-0.096818544 -0.049071141 -0.2682544
-0.09681543 -0.048993178 -0.26825455
-0.096812144 -0.048913173 -0.26825666
-0.096809328 -0.048835341 -0.26825082
-0.09680631 -0.048757419 -0.26824898
-0.096803203 -0.048679456 -0.26824912
-0.09679991 -0.048599452 -0.26825124
-0.096796803 -0.048521489 -0.26825139
-0.096793808 -0.048441615 -0.26824749
-0.096790992 -0.048363782 -0.26824167
-0.096787781 -0.048285775 -0.26824382
-0.096784301 -0.048205681 -0.26824993
-0.096781187 -0.048127718 -0.26825008
-0.096778192 -0.048047844 -0.26824617
-0.096774891 -0.047969796 -0.26825032
-0.096771777 -0.047891829 -0.2682505
-0.096768685 -0.047811911 -0.26824859
-0.096765473 -0.047733907 -0.26825076
-0.0967618 -0.047653727 -0.26826084
-0.096758783 -0.047575809 -0.26825899
-0.096756063 -0.047498018 -0.26825115
-0.096753247 -0.047420185 -0.26824531
-0.09675023 -0.047342263 -0.26824349
-0.096746944 -0.047262259 -0.26824558
-0.096743166 -0.047182038 -0.26825768
-0.096739866 -0.047103986 -0.26826182
-0.096737139 -0.047026198 -0.26825398
-0.096734717 -0.046948537 -0.26824015
-0.09673211 -0.046868838 -0.26822829
-0.0967291 -0.046790916 -0.26822644
-0.096725404 -0.046712693 -0.26823857
-0.096721917 -0.046632603 -0.26824468
-0.096719392 -0.046554901 -0.26823285
-0.096716106 -0.046474896 -0.26823497
-0.096712507 -0.046396714 -0.2682451
-0.096709296 -0.046318706 -0.26824725
-0.096706107 -0.046238746 -0.26824737
-0.096703097 -0.046160825 -0.26824552
-0.096700296 -0.046081036 -0.26823762
-0.096697286 -0.046003118 -0.26823577
-0.096693978 -0.045925066 -0.26823992
-0.096690692 -0.045845062 -0.26824203
-0.096680693 -0.045608915 -0.26825443
-0.096678071 -0.045531169 -0.26824459
-0.096675172 -0.045451336 -0.26823872
-0.096672259 -0.045373462 -0.26823488
-0.096669264 -0.045293584 -0.26823097
-0.096666448 -0.045215756 -0.26822513
-0.096663333 -0.045137789 -0.26822531
-0.096660145 -0.045057826 -0.2682254
-0.096657231 -0.044979952 -0.26822156
-0.096654117 -0.044901989 -0.26822174
-0.096650831 -0.044821985 -0.26822382
-0.096647717 -0.044744022 -0.26822397
-0.096644722 -0.044664145 -0.2682201
-0.096641712 -0.044586226 -0.26821825
-0.096638501 -0.044508219 -0.26822039
-0.096635215 -0.044428214 -0.26822251
-0.096632101 -0.044350252 -0.26822266
-0.096629016 -0.044270333 -0.26822078
-0.096625999 -0.044192411 -0.26821893
-0.096623085 -0.044114538 -0.26821509
-0.096619897 -0.044034574 -0.26821518
-0.096616685 -0.04395657 -0.26821736
-0.096613593 -0.043876648 -0.26821545
-0.096610971 -0.043798905 -0.26820561
-0.096607953 -0.043720983 -0.26820379
-0.096604764 -0.043641023 -0.26820388
-0.096601561 -0.043563016 -0.26820603
-0.096598372 -0.043483056 -0.26820615
-0.096595354 -0.043405134 -0.2682043
-0.096592441 -0.043327257 -0.26820046
-0.096589349 -0.043247338 -0.26819858
-0.096586235 -0.043169379 -0.26819873
-0.096583046 -0.043089416 -0.26819885
-0.096579842 -0.043011408 -0.26820099
-0.096576355 -0.042931318 -0.26820707
-0.096573152 -0.042853311 -0.26820922
-0.096569963 -0.042773347 -0.26820934
-0.096567139 -0.042695515 -0.2682035
-0.096564323 -0.042617682 -0.26819766
-0.096561134 -0.042537719 -0.26819777
-0.096558124 -0.042459801 -0.26819593
-0.096554831 -0.042379797 -0.26819804
-0.096551821 -0.042301878 -0.2681962
-0.096548826 -0.042222001 -0.26819229
-0.096545614 -0.042143993 -0.26819444
-0.096542522 -0.042064078 -0.26819256
-0.096539415 -0.041986115 -0.26819271
-0.096536323 -0.041906197 -0.26819083
-0.096533112 -0.041828189 -0.26819298
-0.096529633 -0.041748099 -0.26819909
-0.096526518 -0.041670136 -0.26819924
-0.096523896 -0.041592389 -0.2681894
-0.096520901 -0.041512512 -0.2681855
-0.0965176 -0.041434463 -0.26818967
-0.096514411 -0.0413545 -0.26818976
-0.096511394 -0.041276582 -0.26818794
-0.096508205 -0.041196622 -0.26818803
-0.096505091 -0.041118655 -0.26818818
-0.096502006 -0.041038737 -0.2681863
-0.096498519 -0.040958647 -0.26819238
-0.096495211 -0.040880598 -0.26819652
-0.096492127 -0.040800676 -0.26819465
-0.096489303 -0.040722847 -0.2681888
-0.09648639 -0.04064497 -0.26818496
-0.096483201 -0.040565006 -0.26818508
-0.096480481 -0.040487215 -0.26817724
-0.096477464 -0.040409297 -0.26817539
-0.096473984 -0.040329207 -0.2681815
-0.096470892 -0.040249288 -0.2681796
-0.096468367 -0.040171586 -0.26816779
-0.096465349 -0.040093668 -0.26816595
-0.096462436 -0.040015791 -0.2681621
-0.096459441 -0.039935917 -0.2681582
-0.096456237 -0.039857909 -0.26816034
-0.09645275 -0.039777815 -0.26816645
-0.096449561 -0.039697856 -0.26816657
-0.096446648 -0.039619979 -0.26816273
-0.096443363 -0.039539974 -0.26816481
-0.096440151 -0.039461967 -0.26816696
-0.096437156 -0.039382093 -0.26816308
-0.096433677 -0.039301999 -0.26816919
-0.096430175 -0.039223865 -0.26817733
-0.096427277 -0.039144032 -0.26817146
-0.096424557 -0.039066244 -0.26816362
-0.096421562 -0.03898637 -0.26815972
-0.096418649 -0.038908489 -0.26815587
-0.096415363 -0.038828488 -0.26815799
-0.096412152 -0.038750477 -0.26816013
-0.09640906 -0.038670562 -0.26815826
-0.096406147 -0.038592685 -0.26815441
-0.09640266 -0.038512595 -0.26816052
-0.09639965 -0.038434677 -0.26815867
-0.09639705 -0.038354974 -0.26814678
-0.096393742 -0.038276926 -0.26815093
-0.096390255 -0.038196832 -0.26815704
-0.096387535 -0.03811904 -0.2681492
-0.09638501 -0.038041338 -0.26813737
-0.096381918 -0.037961423 -0.26813549
-0.096378632 -0.037881419 -0.26813757
-0.096375622 -0.037803497 -0.26813573
-0.096369512 -0.03764566 -0.268132
-0.096353352 -0.037247717 -0.26813859
-0.096350342 -0.037169799 -0.26813674
-0.096347131 -0.037091792 -0.26813889
-0.096343845 -0.037011787 -0.268141
-0.096339308 -0.036929265 -0.26816702
-0.096336022 -0.03684926 -0.26816911
-0.096333206 -0.036771424 -0.26816326
-0.096330211 -0.03669155 -0.26815939
-0.096327394 -0.036613718 -0.26815355
-0.096324869 -0.036536016 -0.26814175
-0.096321873 -0.036456138 -0.26813784
-0.096318759 -0.036378179 -0.26813799
-0.09631604 -0.036300391 -0.26813015
-0.096312463 -0.036220253 -0.26813826
-0.096310623 -0.036142856 -0.26811245
-0.096307606 -0.036064934 -0.2681106
-0.096303165 -0.035982452 -0.26813462
-0.096299492 -0.035902273 -0.26814473
-0.096295834 -0.035820141 -0.26815277
-0.09629292 -0.035742268 -0.26814893
-0.096289635 -0.035662264 -0.26815104
-0.096271977 -0.035191007 -0.26812789
-0.096268892 -0.035111088 -0.26812601
-0.096266069 -0.035033256 -0.26812017
-0.096263252 -0.03495542 -0.26811433
-0.09626016 -0.034875505 -0.26811245
-0.096256875 -0.0347955 -0.26811454
-0.09625376 -0.034717537 -0.26811469
-0.096250668 -0.034637615 -0.26811281
-0.096247479 -0.034557655 -0.2681129
-0.096244566 -0.034479782 -0.26810908
-0.096241847 -0.03440199 -0.26810125
-0.096238658 -0.034322031 -0.26810133
-0.096235469 -0.034242067 -0.26810145
-0.096232355 -0.034164105 -0.2681016
-0.096228972 -0.034084056 -0.26810572
-0.096225783 -0.034004092 -0.2681058
-0.09622287 -0.033926219 -0.26810199
-0.096219972 -0.033846386 -0.26809609
-0.096217155 -0.033768553 -0.26809025
-0.096214533 -0.03369081 -0.26808041
-0.096211709 -0.033612974 -0.26807457
-0.096208327 -0.033532925 -0.26807868
-0.096204668 -0.033450793 -0.26808673
-0.096201658 -0.033372872 -0.26808488
-0.096198469 -0.033292912 -0.268085
-0.096195355 -0.033214949 -0.26808515
-0.096192069 -0.033134945 -0.26808727
-0.096188977 -0.033055026 -0.26808536
-0.096185967 -0.032977104 -0.26808351
-0.096182972 -0.032897234 -0.26807964
-0.096180156 -0.032819398 -0.2680738
-0.096177429 -0.032741606 -0.26806596
-0.096174344 -0.032661691 -0.26806408
-0.096171156 -0.032581732 -0.26806417
-0.096167862 -0.032501724 -0.26806629
-0.09616448 -0.032421678 -0.2680704
-0.096161172 -0.032343626 -0.26807454
-0.096158184 -0.032263752 -0.26807064
-0.096154995 -0.032183789 -0.26807076
-0.096152 -0.032103918 -0.26806685
-0.096148983 -0.032025997 -0.26806504
-0.096145697 -0.031945989 -0.26806712
-0.096142508 -0.031866029 -0.26806724
-0.096139967 -0.031790279 -0.26805744
-0.096136972 -0.031710409 -0.26805356
-0.096133687 -0.031630404 -0.26805568
-0.096130669 -0.031552482 -0.26805383
-0.096127875 -0.031472694 -0.26804593
-0.096124664 -0.031394687 -0.26804808
-0.096120812 -0.031312466 -0.26806015
-0.096117228 -0.031232333 -0.26806822
-0.096114412 -0.0311545 -0.26806238
-0.096111715 -0.031074757 -0.26805252
-0.096108429 -0.030994751 -0.2680546
-0.096105509 -0.030916873 -0.26805079
-0.096102513 -0.030836999 -0.26804689
-0.0960996 -0.030759124 -0.26804304
-0.096096508 -0.030679205 -0.26804116
-0.096093401 -0.030601243 -0.26804131
-0.096090309 -0.030521324 -0.26803941
-0.096087389 -0.030443447 -0.26803559
-0.096084669 -0.030365657 -0.26802775
-0.096081577 -0.03028574 -0.26802588
-0.096077725 -0.030203519 -0.26803792
-0.096074052 -0.030123342 -0.26804799
-0.09607096 -0.030043423 -0.26804608
-0.096068136 -0.029965591 -0.26804024
-0.096065246 -0.029885758 -0.26803437
-0.096062131 -0.029807795 -0.26803452
-0.096058942 -0.029727835 -0.26803464
-0.096055754 -0.029647872 -0.26803476
-0.096052743 -0.029569952 -0.26803291
-0.096049279 -0.029487908 -0.26803696
-0.0960458 -0.029407816 -0.26804304
-0.096042879 -0.029329939 -0.26803923
-0.096040256 -0.029252194 -0.26802939
-0.096037067 -0.029172232 -0.26802948
-0.096034251 -0.0290944 -0.26802367
-0.096031629 -0.029016653 -0.26801383
-0.096028164 -0.028934605 -0.26801789
-0.096024394 -0.028854385 -0.26802996
-0.096021473 -0.028776508 -0.26802611
-0.096018776 -0.028696764 -0.26801625
-0.09601596 -0.02861893 -0.26801041
-0.096013136 -0.028541097 -0.26800457
-0.096010141 -0.028461222 -0.26800069
-0.096007325 -0.028383391 -0.26799485
-0.096004412 -0.028305514 -0.26799101
-0.09600132 -0.028225595 -0.2679891
-0.095998228 -0.028145676 -0.26798722
-0.095994845 -0.028065629 -0.26799133
-0.095991559 -0.027985625 -0.26799342
-0.095988542 -0.027907705 -0.26799157
-0.09598545 -0.027827786 -0.2679897
-0.095982067 -0.027747739 -0.26799381
-0.095979251 -0.027669905 -0.26798797
-0.095976822 -0.027592245 -0.26797414
-0.095973827 -0.027512372 -0.26797026
-0.095970616 -0.027434364 -0.26797241
-0.095967159 -0.027352318 -0.26797646
-0.095963672 -0.027272224 -0.26798254
-0.097318739 -0.062112309 -0.26860943
-0.097318888 -0.062031873 -0.26853961
-0.097320259 -0.061948046 -0.26844171
-0.097319409 -0.06186913 -0.26839387
-0.097317122 -0.061787605 -0.26837397
-0.097314306 -0.061709769 -0.26836812
-0.097310804 -0.061631635 -0.26837626
-0.097307786 -0.061553713 -0.26837441
-0.097304873 -0.061475836 -0.26837057
-0.097301684 -0.061395876 -0.26837069
-0.097298279 -0.061317783 -0.26837683
-0.097294971 -0.061239731 -0.26838097
-0.097292274 -0.061159987 -0.26837111
-0.097289748 -0.061082285 -0.26835927
-0.097286656 -0.061002366 -0.2683574
-0.097284034 -0.060924619 -0.26834756
-0.09728092 -0.060846657 -0.26834771
-0.097277224 -0.060768433 -0.26835984
-0.097274013 -0.060690425 -0.26836199
-0.097271122 -0.060610596 -0.26835611
-0.097268008 -0.060532629 -0.26835626
-0.097264998 -0.060454711 -0.26835442
-0.097261809 -0.060374752 -0.26835454
-0.097258501 -0.060296699 -0.26835868
-0.09725529 -0.060218692 -0.26836082
-0.097252764 -0.06014099 -0.26834899
-0.097249873 -0.06006116 -0.26834312
-0.097246468 -0.059983067 -0.26834926
-0.097242773 -0.059904844 -0.26836139
-0.097239271 -0.059826702 -0.26836956
-0.097236253 -0.059748784 -0.26836771
-0.097233355 -0.059668951 -0.26836181
-0.097230442 -0.059591077 -0.26835796
-0.097227626 -0.059513245 -0.26835215
-0.097224437 -0.059433281 -0.26835224
-0.097221419 -0.059355363 -0.26835039
-0.097218506 -0.059277486 -0.26834655
-0.097215317 -0.059197523 -0.26834667
-0.0972123 -0.059119605 -0.26834482
-0.097209603 -0.059039861 -0.26833495
-0.09720581 -0.058961593 -0.26834908
-0.097202092 -0.058885321 -0.26836327
-0.097199388 -0.058805577 -0.26835337
-0.097197078 -0.058726009 -0.26833552
-0.097194165 -0.058648132 -0.26833168
-0.09719076 -0.058570039 -0.26833782
-0.097187452 -0.058491986 -0.26834196
-0.097184069 -0.058411941 -0.26834607
-0.097181156 -0.058334064 -0.26834223
-0.097178139 -0.058256142 -0.26834038
-0.097175613 -0.05817844 -0.26832855
-0.097173013 -0.058098741 -0.26831669
-0.097169608 -0.058020648 -0.26832283
-0.097165816 -0.057942379 -0.26833695
-0.097162701 -0.057864416 -0.2683371
-0.09715981 -0.057784583 -0.26833123
-0.097156987 -0.057706751 -0.26832539
-0.097153783 -0.057628743 -0.26832753
-0.097150475 -0.057550695 -0.26833171
-0.097147577 -0.057470862 -0.26832581
-0.097144566 -0.057392944 -0.26832396
-0.097141355 -0.057314936 -0.2683261
-0.097138047 -0.057236884 -0.26833028
-0.097135052 -0.05715701 -0.26832637
-0.097132333 -0.057079222 -0.26831853
-0.097129419 -0.057001345 -0.26831472
-0.097126015 -0.056923252 -0.26832086
-0.097123019 -0.056843378 -0.26831695
-0.0971203 -0.056765586 -0.26830912
-0.097117014 -0.056685582 -0.26831123
-0.097113609 -0.056607489 -0.26831737
-0.097110398 -0.056529481 -0.26831952
-0.097107001 -0.056451388 -0.26832569
-0.097103983 -0.056373466 -0.26832384
-0.097100891 -0.056293551 -0.26832193
-0.097097881 -0.056215629 -0.26832008
-0.09709467 -0.056137621 -0.26832223
-0.097091556 -0.056059659 -0.26832241
-0.097088762 -0.05597987 -0.26831451
-0.097086042 -0.055902082 -0.26830667
-0.097083122 -0.055824205 -0.26830286
-0.097080134 -0.055744331 -0.26829895
-0.097076826 -0.055666283 -0.2683031
-0.097073711 -0.055588316 -0.26830328
-0.097070426 -0.055508312 -0.26830536
-0.097067021 -0.055430219 -0.2683115
-0.097063616 -0.055352125 -0.26831764
-0.097060509 -0.055274162 -0.26831782
-0.097057492 -0.055196241 -0.26831597
-0.097054601 -0.055116411 -0.26831007
-0.097051777 -0.055038579 -0.26830423
-0.097048476 -0.054960527 -0.2683084
-0.097045168 -0.054882478 -0.26831254
-0.097042076 -0.054802559 -0.26831064
-0.097039357 -0.054724768 -0.2683028
-0.097036339 -0.05464685 -0.26830098
-0.097033232 -0.054568887 -0.26830113
-0.097029947 -0.054488882 -0.26830322
-0.097026832 -0.05441092 -0.26830339
-0.097023621 -0.054332912 -0.26830554
-0.097020321 -0.05425486 -0.26830968
-0.097017035 -0.054174855 -0.2683118
-0.097014412 -0.054097109 -0.26830196
-0.097011782 -0.054019365 -0.26829213
-0.0970084 -0.053939316 -0.26829624
-0.097004898 -0.053861178 -0.26830435
-0.09700159 -0.053783126 -0.26830852
-0.096998483 -0.053705163 -0.26830867
-0.096995585 -0.053625334 -0.2683028
-0.096992768 -0.053547502 -0.26829696
-0.096989751 -0.05346958 -0.26829511
-0.096986838 -0.053391702 -0.26829126
-0.096983843 -0.053311829 -0.26828736
-0.096980736 -0.053233866 -0.26828754
-0.096977353 -0.053153817 -0.26829165
-0.096974142 -0.053075813 -0.2682938
-0.096971028 -0.052997846 -0.26829395
-0.096967824 -0.052919839 -0.26829609
-0.096964903 -0.052841965 -0.26829225
-0.096962109 -0.052762177 -0.26828438
-0.096959285 -0.052684344 -0.26827854
-0.096955985 -0.052606292 -0.26828268
-0.096952602 -0.052526243 -0.26828676
-0.096949488 -0.05244828 -0.26828694
-0.096946672 -0.052370448 -0.2682811
-0.096943848 -0.052292615 -0.26827526
-0.096940562 -0.052212611 -0.26827735
-0.096937254 -0.052134559 -0.26828152
-0.096933752 -0.052056424 -0.26828966
-0.096930571 -0.051976461 -0.26828974
-0.096927457 -0.051898498 -0.26828992
-0.096924342 -0.051820535 -0.26829007
-0.096921355 -0.051740661 -0.26828617
-0.096918337 -0.051662739 -0.26828432
-0.096915521 -0.051584907 -0.26827851
-0.096912898 -0.05150716 -0.26826867
-0.096909419 -0.05142707 -0.26827478
-0.096905813 -0.051348887 -0.26828492
-0.096902803 -0.051270969 -0.26828307
-0.096900202 -0.051191267 -0.26827118
-0.096897088 -0.051113304 -0.26827133
-0.096894272 -0.051035471 -0.26826552
-0.096891746 -0.050957769 -0.26825368
-0.096888557 -0.050877806 -0.26825377
-0.096885055 -0.050799672 -0.26826191
-0.09688136 -0.050721444 -0.26827407
-0.096878171 -0.050641485 -0.26827419
-0.096875742 -0.050563827 -0.26826036
-0.096872725 -0.050485905 -0.26825851
-0.096869051 -0.050405726 -0.26826859
-0.096865743 -0.050327677 -0.26827273
-0.09686283 -0.0502498 -0.26826891
-0.096859932 -0.050169967 -0.26826301
-0.096857116 -0.050092135 -0.26825717
-0.096853808 -0.050014086 -0.26826131
-0.096850693 -0.049936123 -0.26826149
-0.096847996 -0.04985638 -0.2682516
-0.096844986 -0.049778458 -0.26824975
-0.096841969 -0.049700536 -0.2682479
-0.096838489 -0.049620446 -0.26825401
-0.096834794 -0.049542222 -0.26826614
-0.096831776 -0.0494643 -0.26826429
-0.096829176 -0.049384601 -0.26825243
-0.096826158 -0.049306683 -0.26825058
-0.096822754 -0.049228586 -0.26825672
-0.096819468 -0.049148582 -0.26825884
-0.096816555 -0.049070708 -0.268255
-0.09681344 -0.048992742 -0.26825514
-0.096810058 -0.048912697 -0.26825926
-0.096807338 -0.048834905 -0.26825142
-0.096804328 -0.048756987 -0.26824957
-0.096801214 -0.04867902 -0.26824972
-0.096797928 -0.048599016 -0.26825184
-0.096794814 -0.048521053 -0.26825199
-0.096791826 -0.048441179 -0.26824811
-0.096789002 -0.048363347 -0.26824227
-0.096785799 -0.048285339 -0.26824442
-0.096782312 -0.048205249 -0.26825052
-0.096779205 -0.048127282 -0.26825067
-0.09677621 -0.048047408 -0.26824677
-0.096772902 -0.04796936 -0.26825094
-0.096769795 -0.047891397 -0.26825109
-0.096766606 -0.047811434 -0.26825118
-0.096763395 -0.047733426 -0.26825333
-0.09675999 -0.047655333 -0.2682595
-0.096756801 -0.047575373 -0.26825958
-0.096754082 -0.047497582 -0.26825178
-0.096751168 -0.047419704 -0.2682479
-0.096748248 -0.047341831 -0.26824409
-0.096744962 -0.047261827 -0.26824617
-0.096741185 -0.047181603 -0.26825827
-0.096737884 -0.047103554 -0.26826242
-0.096735165 -0.047025762 -0.26825458
-0.096732736 -0.046948105 -0.26824075
-0.096730128 -0.046868403 -0.26822889
-0.096727118 -0.046790484 -0.26822704
-0.096723422 -0.046712257 -0.26823917
-0.096719936 -0.046632167 -0.26824528
-0.096717417 -0.046554465 -0.26823345
-0.096714124 -0.046474461 -0.26823556
-0.096710525 -0.046396278 -0.2682457
-0.096707322 -0.04631827 -0.26824784
-0.096704133 -0.046238311 -0.26824796
-0.096701019 -0.046160348 -0.26824808
-0.096698321 -0.046080604 -0.26823822
-0.096695304 -0.046002682 -0.26823637
-0.096691996 -0.045924634 -0.26824054
-0.096688613 -0.045844585 -0.26824462
-0.096678719 -0.04560848 -0.26825503
-0.096675992 -0.045530692 -0.26824719
-0.096673198 -0.045450903 -0.26823932
-0.096670285 -0.045373026 -0.26823547
-0.09666729 -0.045293152 -0.26823157
-0.096664473 -0.045215316 -0.26822573
-0.096661359 -0.045137353 -0.26822591
-0.09665817 -0.045057394 -0.268226
-0.096655257 -0.044979516 -0.26822218
-0.096652046 -0.044901509 -0.2682243
-0.096648857 -0.044821549 -0.26822442
-0.096645743 -0.044743583 -0.26822457
-0.096642755 -0.044663712 -0.26822069
-0.096639737 -0.04458579 -0.26821885
-0.096636526 -0.044507783 -0.26822102
-0.096633241 -0.044427779 -0.26822311
-0.096630134 -0.044349816 -0.26822326
-0.096626945 -0.044269852 -0.26822338
-0.096624024 -0.044191979 -0.26821953
-0.096621111 -0.044114102 -0.26821569
-0.096617922 -0.044034138 -0.26821581
-0.096614711 -0.043956131 -0.26821795
-0.096611626 -0.043876216 -0.26821604
-0.096608996 -0.043798469 -0.26820624
-0.096605986 -0.043720551 -0.26820439
-0.096602798 -0.043640587 -0.26820448
-0.096599586 -0.04356258 -0.26820666
-0.096596397 -0.043482617 -0.26820675
-0.096593387 -0.043404698 -0.2682049
-0.096590474 -0.043326825 -0.26820105
-0.096587382 -0.043246903 -0.26819918
-0.096584268 -0.04316894 -0.26819932
-0.096581079 -0.04308898 -0.26819944
-0.096577771 -0.043010928 -0.26820359
-0.096574292 -0.042930838 -0.26820967
-0.09657108 -0.04285283 -0.26821184
-0.096567996 -0.042772911 -0.26820993
-0.096565172 -0.042695079 -0.26820409
-0.096562356 -0.042617247 -0.26819825
-0.096559167 -0.042537287 -0.26819837
-0.096556157 -0.042459365 -0.26819652
-0.096552864 -0.042379361 -0.26819864
-0.096549854 -0.042301439 -0.26819679
-0.096546859 -0.042221565 -0.26819289
-0.096543655 -0.042143561 -0.26819503
-0.096540563 -0.042063639 -0.26819316
-0.096537448 -0.041985676 -0.2681933
-0.09653426 -0.041905716 -0.26819342
-0.096531056 -0.041827708 -0.26819557
-0.096527666 -0.041747663 -0.26819968
-0.096524559 -0.041669697 -0.26819983
-0.096521936 -0.04159195 -0.26819
-0.096518844 -0.041512035 -0.26818812
-0.096515633 -0.041434027 -0.26819026
-0.096512444 -0.041354068 -0.26819038
-0.096509531 -0.04127619 -0.26818651
-0.096506245 -0.041196182 -0.26818863
-0.096503131 -0.041118219 -0.26818877
-0.096499942 -0.04103826 -0.26818889
-0.09649656 -0.040958211 -0.26819301
-0.096493252 -0.040880162 -0.26819712
-0.09649016 -0.040800244 -0.26819524
-0.096487343 -0.040722411 -0.2681894
-0.09648443 -0.040644534 -0.26818556
-0.096481241 -0.040564571 -0.26818568
-0.096478522 -0.040486783 -0.26817784
-0.096475504 -0.040408865 -0.26817602
-0.096472025 -0.040328771 -0.2681821
-0.096468933 -0.040248852 -0.26818019
-0.09646631 -0.040171105 -0.26817039
-0.096463397 -0.040093228 -0.26816654
-0.096460477 -0.040015355 -0.2681627
-0.096457489 -0.039935477 -0.26815879
-0.096454278 -0.039857473 -0.26816097
-0.096450798 -0.039777379 -0.26816705
-0.096447609 -0.039697416 -0.26816717
-0.096444689 -0.039619543 -0.26816332
-0.096441306 -0.039539494 -0.26816744
-0.096438199 -0.039461531 -0.26816759
-0.096435204 -0.039381657 -0.26816368
-0.09643162 -0.039301522 -0.26817179
-0.096428216 -0.039223429 -0.26817793
-0.096425325 -0.039143596 -0.26817206
-0.096422605 -0.039065808 -0.26816422
-0.09641961 -0.03898593 -0.26816034
-0.096416697 -0.038908057 -0.2681565
-0.096413404 -0.038828053 -0.26815858
-0.0964102 -0.038750045 -0.26816073
-0.096407108 -0.038670126 -0.26815885
-0.096404091 -0.038592204 -0.26815701
-0.096400708 -0.038512159 -0.26816112
-0.096397698 -0.038434237 -0.26815927
-0.09639509 -0.038354538 -0.26814738
-0.09639179 -0.038276486 -0.26815155
-0.096388303 -0.038196392 -0.26815763
-0.096385583 -0.038118605 -0.26814979
-0.096383058 -0.038040902 -0.26813799
-0.096379966 -0.037960984 -0.26813608
-0.09637668 -0.037880979 -0.2681382
-0.09637367 -0.037803061 -0.26813635
-0.096351214 -0.037247196 -0.26814318
