# .PCD v0.7 - Point Cloud Data file format
VERSION 0.7
FIELDS x y z
SIZE 4 4 4
TYPE F F F
COUNT 1 1 1
WIDTH 1269
HEIGHT 1
VIEWPOINT 0 0 0 1 0 0 0
POINTS 1269
DATA ascii
-0.034388848 -0.076331958 -0.23868585
-0.034386035 -0.076254129 -0.23868001
-0.034383148 -0.076174296 -0.23867413
-0.034380313 -0.07609842 -0.23867033
-0.034377307 -0.076020494 -0.23866849
-0.034374394 -0.075942621 -0.23866466
-0.034371581 -0.075864784 -0.23865882
-0.034368984 -0.075785086 -0.23864692
-0.034366172 -0.075707257 -0.2386411
-0.03436324 -0.075631335 -0.2386393
-0.034360547 -0.075551584 -0.23862942
-0.034357615 -0.075475663 -0.23862761
-0.034353632 -0.075397313 -0.23864575
-0.034350019 -0.075321086 -0.23865792
-0.034347106 -0.075243205 -0.23865408
-0.034344099 -0.075165287 -0.23865224
-0.034340389 -0.075089015 -0.23866642
-0.034336697 -0.075010791 -0.23867856
-0.034334078 -0.074933045 -0.23866872
-0.034331657 -0.074855387 -0.2386549
-0.034328964 -0.074775644 -0.23864502
-0.034325935 -0.074699678 -0.23864523
-0.034323022 -0.074621797 -0.23864138
-0.034320209 -0.074543968 -0.23863554
-0.034317106 -0.074466005 -0.23863569
-0.034313999 -0.074388042 -0.23863584
-0.034311187 -0.074310206 -0.23863001
-0.034308568 -0.074232459 -0.23862016
-0.034306049 -0.074154757 -0.23860835
-0.034303237 -0.074076921 -0.2386025
-0.034300327 -0.073999047 -0.23859866
-0.034297999 -0.073921435 -0.23858283
-0.034295872 -0.073843904 -0.23856302
-0.034293056 -0.073766068 -0.23855719
-0.034290537 -0.073688366 -0.23854536
-0.034288429 -0.073608883 -0.23852348
-0.03428708 -0.073531702 -0.23848769
-0.03428575 -0.07345257 -0.23844984
-0.034283932 -0.073373213 -0.23842199
-0.034282193 -0.073295861 -0.23839419
-0.034280453 -0.07321851 -0.23836638
-0.034278538 -0.073139109 -0.23834053
-0.034276895 -0.073061801 -0.23831072
-0.034275372 -0.072982579 -0.23827687
-0.034273341 -0.072905093 -0.23825505
-0.034270916 -0.072827436 -0.23824123
-0.034268398 -0.072749734 -0.23822939
-0.034266364 -0.072672248 -0.23820758
-0.034264136 -0.072594672 -0.23818976
-0.034261815 -0.07251706 -0.23817393
-0.034259509 -0.072437488 -0.23815608
-0.034257259 -0.072361872 -0.2381403
-0.034254566 -0.072282128 -0.23813042
-0.034251831 -0.072206289 -0.23812462
-0.034249894 -0.072128847 -0.23810081
-0.034247592 -0.072049282 -0.23808295
-0.034244269 -0.071973182 -0.23808914
-0.03424136 -0.071895309 -0.23808528
-0.034238644 -0.071817517 -0.23807746
-0.034235418 -0.071741462 -0.23808165
-0.034232218 -0.071663454 -0.23808379
-0.034229405 -0.071585625 -0.23807797
-0.034227081 -0.071508005 -0.23806214
-0.034225047 -0.071430527 -0.23804033
-0.034222603 -0.071354821 -0.23802854
-0.034218814 -0.071276553 -0.23804267
-0.034215298 -0.071200371 -0.23805286
-0.034212194 -0.071122408 -0.23805301
-0.034208581 -0.071046174 -0.23806518
-0.034204792 -0.070967913 -0.23807932
-0.034201078 -0.070891641 -0.2380935
-0.034197584 -0.070813499 -0.23810166
-0.034194753 -0.070737623 -0.23809785
-0.034191255 -0.070659488 -0.238106
-0.03418725 -0.070583083 -0.23812616
-0.034183562 -0.070504859 -0.2381383
-0.034180239 -0.070428766 -0.23814449
-0.034177035 -0.070350759 -0.23814663
-0.034173131 -0.070274398 -0.23816481
-0.034167953 -0.070197478 -0.23820895
-0.034162879 -0.070120595 -0.23825109
-0.034158386 -0.070043981 -0.23828125
-0.034154207 -0.069965534 -0.23830338
-0.034149617 -0.069888875 -0.23833552
-0.034144539 -0.069811992 -0.23837768
-0.034139559 -0.069735162 -0.23841782
-0.034134384 -0.069658235 -0.23846194
-0.034128256 -0.069578923 -0.23852402
-0.034122474 -0.069503695 -0.23858218
-0.034116618 -0.06942647 -0.23864029
-0.034110196 -0.069347024 -0.23870835
-0.034103341 -0.069271319 -0.23878849
-0.034096897 -0.069193825 -0.23885858
-0.03409116 -0.069114693 -0.23891267
-0.034085497 -0.069037549 -0.23896679
-0.034079343 -0.06896019 -0.2390309
-0.034073096 -0.068882793 -0.239097
-0.034066752 -0.068805344 -0.2391651
-0.034060817 -0.068726122 -0.23922318
-0.034055348 -0.068649068 -0.23927331
-0.034049198 -0.068571709 -0.23933741
-0.034042679 -0.068492226 -0.23940745
-0.034036431 -0.068414822 -0.23947357
-0.034029402 -0.068337075 -0.23955566
-0.034022179 -0.068259239 -0.23964173
-0.034015171 -0.068179533 -0.23972176
-0.034007851 -0.068101652 -0.23980984
-0.034000255 -0.068021685 -0.23990187
-0.033993911 -0.067944244 -0.23996997
-0.033988561 -0.067865275 -0.24001606
-0.033984479 -0.06778688 -0.24003617
-0.03397952 -0.06770809 -0.24007428
-0.03397103 -0.067629687 -0.24018632
-0.03396412 -0.067550026 -0.24026436
-0.033958357 -0.067472845 -0.24032047
-0.033951838 -0.067393355 -0.24039054
-0.033944245 -0.067313388 -0.24048255
-0.033935577 -0.067232952 -0.24059653
-0.033927575 -0.067154765 -0.24069859
-0.033918809 -0.067074277 -0.2408146
-0.03391102 -0.066994227 -0.24091059
-0.033904012 -0.066914521 -0.24099064
-0.033897299 -0.066834949 -0.2410647
-0.033890292 -0.066755243 -0.24114472
-0.033882406 -0.066675149 -0.24124274
-0.033875298 -0.066595398 -0.24132478
-0.033867996 -0.066515565 -0.24141081
-0.033862278 -0.066434473 -0.24146284
-0.033860147 -0.066356942 -0.24144301
-0.033856772 -0.066276893 -0.24144712
-0.033847813 -0.066196322 -0.24156711
-0.03383534 -0.06611418 -0.24175897
-0.03382796 -0.06603235 -0.24184495
-0.033820368 -0.065952383 -0.24193698
-0.033810824 -0.065871552 -0.24206895
-0.033803739 -0.065789849 -0.24214894
-0.03379675 -0.06570819 -0.24222693
-0.033785373 -0.065624572 -0.2423948
-0.033774756 -0.065543264 -0.24254873
-0.033764157 -0.065459989 -0.24270061
-0.03375034 -0.065375291 -0.2429184
-0.033741012 -0.065292589 -0.24304435
-0.033735391 -0.065211535 -0.24309437
-0.0337325 -0.065131709 -0.24308848
-0.033730078 -0.065054044 -0.24307466
-0.033727109 -0.064972222 -0.24306872
-0.033724297 -0.064894386 -0.24306288
-0.033722308 -0.064812988 -0.24303699
-0.033721153 -0.064735897 -0.2429972
-0.033719726 -0.06465672 -0.24296135
-0.033718202 -0.064577498 -0.24292749
-0.033715606 -0.064497799 -0.24291563
-0.033711445 -0.064417399 -0.2429357
-0.033705238 -0.064336091 -0.24299772
-0.033699032 -0.064254776 -0.24305974
-0.033695068 -0.064174466 -0.24307582
-0.033692569 -0.064094812 -0.24306194
-0.033689775 -0.064015023 -0.24305406
-0.033686791 -0.063935153 -0.24305017
-0.033683997 -0.063855365 -0.24304229
-0.033680715 -0.063775361 -0.24304439
-0.033676654 -0.063695006 -0.24306247
-0.033673376 -0.063615002 -0.24306458
-0.033670679 -0.063535258 -0.24305469
-0.03366828 -0.063455641 -0.24303882
-0.033665877 -0.063376024 -0.24302295
-0.033662889 -0.063296154 -0.24301907
-0.033659119 -0.063215934 -0.24303114
-0.03365545 -0.063135751 -0.24304125
-0.033651683 -0.06305553 -0.24305333
-0.033648595 -0.062975608 -0.24305144
-0.033646196 -0.062895998 -0.24303557
-0.03364389 -0.062816426 -0.2430177
-0.033640806 -0.062736511 -0.2430158
-0.033637308 -0.06265837 -0.24302395
-0.033633951 -0.062576368 -0.243026
-0.033630475 -0.062496275 -0.2430321
-0.0336271 -0.062416226 -0.24303621
-0.033624016 -0.062336311 -0.2430343
-0.033621788 -0.062258735 -0.2430165
-0.033618916 -0.06217695 -0.24300855
-0.033615615 -0.062098902 -0.24301271
-0.033611868 -0.062016726 -0.24302274
-0.033608295 -0.061936587 -0.24303085
-0.033605017 -0.061856583 -0.24303295
-0.033601932 -0.061776664 -0.24303105
-0.033598945 -0.06169679 -0.24302717
-0.033596247 -0.061617047 -0.24301729
-0.033593729 -0.061539344 -0.24300545
-0.033590641 -0.061459426 -0.24300358
-0.033587657 -0.061379552 -0.24299967
-0.033584472 -0.061299589 -0.24299979
-0.033580627 -0.061217368 -0.24301183
-0.033577055 -0.061137233 -0.24301991
-0.033573676 -0.061057184 -0.24302402
-0.033570297 -0.060977135 -0.24302812
-0.033567213 -0.060897216 -0.24302623
-0.033564813 -0.060817603 -0.24301034
-0.033562485 -0.06073999 -0.24299453
-0.033559207 -0.060659982 -0.24299663
-0.033555653 -0.060577892 -0.24300268
-0.033552375 -0.060497887 -0.24300478
-0.033549093 -0.060417883 -0.24300689
-0.033546008 -0.060337964 -0.24300499
-0.033543099 -0.060260087 -0.24300116
-0.03354013 -0.060178258 -0.24299522
-0.033537026 -0.060100295 -0.24299538
-0.033533178 -0.060018077 -0.24300741
-0.033529803 -0.059938028 -0.2430115
-0.033526912 -0.059858195 -0.24300563
-0.033524022 -0.059778363 -0.24299975
-0.03352084 -0.059698403 -0.24299985
-0.033517756 -0.059618484 -0.24299794
-0.033514671 -0.059538566 -0.24299607
-0.033511877 -0.059458777 -0.24298817
-0.033508889 -0.059378903 -0.24298429
-0.033505317 -0.059298769 -0.24299239
-0.033502135 -0.059218809 -0.24299249
-0.033499245 -0.059138976 -0.2429866
-0.033496354 -0.059059143 -0.24298072
-0.033493172 -0.058979183 -0.24298084
-0.033489306 -0.058898918 -0.2429949
-0.03348583 -0.058818825 -0.24300101
-0.033482648 -0.058738865 -0.24300112
-0.03347927 -0.058658816 -0.24300522
-0.033476401 -0.058577031 -0.24299729
-0.033474077 -0.058499414 -0.24298145
-0.033471186 -0.058419582 -0.24297558
-0.033467807 -0.058339536 -0.24297968
-0.033464819 -0.058259659 -0.24297577
-0.033461928 -0.058179829 -0.2429699
-0.033458456 -0.058099736 -0.24297599
-0.033454806 -0.058017604 -0.24298406
-0.03345162 -0.057937641 -0.24298415
-0.033449005 -0.057859894 -0.24297431
-0.033446308 -0.05778015 -0.24296442
-0.033443224 -0.057700232 -0.24296254
-0.033439964 -0.057618275 -0.2429626
-0.033436585 -0.057538226 -0.2429667
-0.033433307 -0.057458218 -0.2429688
-0.033430222 -0.0573783 -0.24296692
-0.033426844 -0.05729825 -0.242971
-0.033423662 -0.057218291 -0.24297112
-0.033420578 -0.057138372 -0.24296923
-0.033417296 -0.057058368 -0.24297133
-0.033414211 -0.056978449 -0.24296944
-0.033411127 -0.056898531 -0.24296755
-0.033407867 -0.05681657 -0.24296761
-0.033404682 -0.056736611 -0.24296771
-0.0334015 -0.056656651 -0.24296781
-0.033398416 -0.056576729 -0.24296592
-0.033395622 -0.056496944 -0.24295804
-0.033392537 -0.056417026 -0.24295616
-0.033389159 -0.056336977 -0.24296024
-0.033385683 -0.056256883 -0.24296635
-0.033382501 -0.056176923 -0.24296644
-0.033379611 -0.05609709 -0.24296057
-0.033376526 -0.056017175 -0.24295866
-0.033373538 -0.055937298 -0.24295479
-0.033370454 -0.055857379 -0.2429529
-0.033367172 -0.055777375 -0.242955
-0.033364087 -0.055697456 -0.24295311
-0.033361122 -0.055615626 -0.24294716
-0.033357743 -0.055535577 -0.24295127
-0.033354368 -0.055455532 -0.24295537
-0.03335128 -0.055375613 -0.24295348
-0.033348389 -0.05529578 -0.24294759
-0.033345405 -0.055215906 -0.2429437
-0.033342026 -0.055135861 -0.2429478
-0.033338454 -0.055055723 -0.24295589
-0.033334803 -0.054973591 -0.24296394
-0.033331133 -0.054893412 -0.24297403
-0.033756852 -0.055340473 -0.23447239
-0.033756435 -0.055267636 -0.23442072
-0.033760037 -0.055204444 -0.23429333
-0.033765689 -0.055142164 -0.23412402
-0.033768605 -0.05507867 -0.23401061
-0.033771075 -0.055011049 -0.23390311
-0.033772651 -0.054944988 -0.23381561
-0.033773288 -0.054874584 -0.23374403
-0.033775445 -0.054808788 -0.23364455
-0.033777799 -0.054743074 -0.2335411
-0.033777267 -0.054672148 -0.23349345
-0.033776928 -0.054601308 -0.23344183
-0.033776496 -0.054530427 -0.23339218
-0.03377606 -0.054459546 -0.23334256
-0.033775993 -0.054390792 -0.23328698
-0.033774897 -0.054317653 -0.23324928
-0.033773683 -0.054246418 -0.23321563
-0.033773538 -0.054175667 -0.23315999
-0.033774059 -0.054107174 -0.23309243
-0.033773039 -0.054036032 -0.23305479
-0.033770964 -0.053962458 -0.23303705
-0.033768795 -0.053888835 -0.23302132
-0.033766057 -0.053813003 -0.23301554
-0.033763204 -0.053739078 -0.23301378
-0.033761133 -0.0536655 -0.23299605
-0.033760503 -0.05359453 -0.23295042
-0.033761214 -0.053526126 -0.23287886
-0.033760976 -0.05345533 -0.23282523
-0.03375937 -0.053383924 -0.23279957
-0.03375759 -0.05331048 -0.23277585
-0.033756375 -0.053239249 -0.23274219
-0.033755645 -0.053168237 -0.23269856
-0.033755485 -0.053099442 -0.23264498
-0.0337562 -0.053031035 -0.2325734
-0.033756524 -0.052962456 -0.23250985
-0.033756655 -0.052893788 -0.23245028
-0.033756196 -0.052824862 -0.23240268
-0.033754908 -0.052751631 -0.23236898
-0.033753768 -0.0526824 -0.23233537
-0.033752277 -0.052609086 -0.23230566
-0.033750478 -0.052537594 -0.23228399
-0.033748601 -0.052464105 -0.23226228
-0.033746898 -0.052392658 -0.23223859
-0.033745311 -0.052319299 -0.23221087
-0.033743609 -0.052247852 -0.23218721
-0.033741631 -0.052174319 -0.23216748
-0.033740126 -0.052102957 -0.23213983
-0.033738147 -0.052029423 -0.2321201
-0.033735391 -0.051955543 -0.23211634
-0.033733495 -0.05188401 -0.23209667
-0.033732474 -0.051812865 -0.23205903
-0.033731356 -0.051741678 -0.23202336
-0.033730041 -0.051670406 -0.23199171
-0.033729684 -0.051601522 -0.23194212
-0.033730574 -0.051535159 -0.23186862
-0.03373041 -0.051466361 -0.23181504
-0.033729099 -0.051395088 -0.23178339
-0.033726536 -0.05132129 -0.23177564
-0.033723507 -0.051245328 -0.23177584
-0.033721142 -0.051171619 -0.23176411
-0.033718485 -0.05109778 -0.23175836
-0.033715531 -0.051023815 -0.23175861
-0.033712506 -0.050947849 -0.2317588
-0.033709358 -0.050873794 -0.23176305
-0.033706136 -0.050797742 -0.23176724
-0.033702988 -0.050723687 -0.2317715
-0.033699472 -0.050647505 -0.23178166
-0.033695877 -0.050569322 -0.23179181
-0.033692636 -0.050495222 -0.23179805
-0.033689607 -0.05041926 -0.23179825
-0.033686385 -0.050343204 -0.23180243
-0.03368314 -0.050269108 -0.23180869
-0.033680305 -0.050193228 -0.23180489
-0.033677746 -0.050119434 -0.23179714
-0.03367538 -0.050045729 -0.23178542
-0.033673011 -0.04997202 -0.23177367
-0.033670746 -0.049898356 -0.23175994
-0.033668652 -0.049826737 -0.23174426
-0.033665992 -0.049752899 -0.23173851
-0.033663254 -0.049677067 -0.23173273
-0.033660792 -0.049603313 -0.23172298
-0.033658233 -0.049529523 -0.23171525
-0.033654813 -0.049453378 -0.23172343
-0.033651005 -0.049377069 -0.23173961
-0.033647411 -0.049298886 -0.23174974
-0.033644926 -0.049227092 -0.23174205
-0.033642951 -0.049153559 -0.23172233
-0.03364078 -0.04907994 -0.2317066
-0.033638686 -0.049008317 -0.23169091
-0.033636712 -0.04893478 -0.2316712
-0.033635106 -0.048863381 -0.23164552
-0.033633206 -0.048791844 -0.23162585
-0.033631504 -0.048720397 -0.23160218
-0.033630092 -0.04864908 -0.23157251
-0.03362868 -0.048577763 -0.23154286
-0.033626024 -0.048503928 -0.2315371
-0.033623267 -0.04843004 -0.23153336
-0.033621192 -0.048356466 -0.23151565
-0.03361949 -0.048285022 -0.23149195
-0.033617884 -0.048213616 -0.23146629
-0.033616181 -0.048142165 -0.23144263
-0.033614848 -0.048072848 -0.23141301
-0.033613067 -0.047999404 -0.23138928
-0.033611927 -0.04793017 -0.23135568
-0.033610418 -0.047858812 -0.23132801
-0.033608228 -0.047787145 -0.23131433
-0.033605669 -0.047713351 -0.23130658
-0.03360264 -0.047637384 -0.23130679
-0.03359969 -0.047563419 -0.23130703
-0.033596464 -0.047487363 -0.23131123
-0.033593144 -0.04741127 -0.23131743
-0.033589922 -0.047335215 -0.23132162
-0.033586696 -0.047259163 -0.23132581
-0.033582889 -0.047182851 -0.23134199
-0.033579197 -0.047104627 -0.23135412
-0.033575486 -0.047028355 -0.2313683
-0.03357121 -0.046949871 -0.23139241
-0.033566933 -0.046871386 -0.23141654
-0.033562753 -0.046792943 -0.23143867
-0.033558674 -0.046714541 -0.23145878
-0.033554886 -0.046636276 -0.23147292
-0.033550706 -0.046557829 -0.23149505
-0.033546723 -0.046479478 -0.23151317
-0.033543773 -0.046405509 -0.23151343
-0.033541601 -0.04633189 -0.23149769
-0.033539895 -0.046260439 -0.23147401
-0.033538289 -0.04618904 -0.23144835
-0.033536296 -0.046117458 -0.23143066
-0.033534028 -0.046043798 -0.23141694
-0.033531662 -0.04597009 -0.2314052
-0.033529274 -0.045898333 -0.23139551
-0.033526711 -0.045824543 -0.23138776
-0.033523686 -0.045748577 -0.23138797
-0.03352017 -0.045672394 -0.23139815
-0.033515912 -0.045591954 -0.23142023
-0.033511907 -0.045515552 -0.2314404
-0.033508684 -0.045439504 -0.2314446
-0.033505462 -0.045363449 -0.23144878
-0.033502236 -0.045287393 -0.23145297
-0.033499308 -0.045211472 -0.23145118
-0.033496551 -0.045137592 -0.23144744
-0.033493891 -0.045063756 -0.23144169
-0.033490963 -0.044987835 -0.23143989
-0.0334884 -0.044914037 -0.23143215
-0.033485547 -0.044840112 -0.23143041
-0.033481956 -0.044761933 -0.23144054
-0.033478439 -0.044685751 -0.23145074
-0.033474922 -0.044609569 -0.23146093
-0.03347123 -0.044531345 -0.23147306
-0.033467539 -0.044453118 -0.23148519
-0.033463925 -0.044376891 -0.23149738
-0.033460312 -0.04430066 -0.23150957
-0.033457283 -0.044224698 -0.23150975
-0.033454724 -0.044150904 -0.23150203
-0.033451986 -0.044075072 -0.23149621
-0.033448569 -0.043998927 -0.23150441
-0.033444487 -0.043920532 -0.23152453
-0.033441164 -0.043844435 -0.23153073
-0.033438038 -0.043768425 -0.23153293
-0.033434153 -0.043690115 -0.23154905
-0.033429604 -0.043609545 -0.23157713
-0.03342599 -0.043533318 -0.2315893
-0.033422962 -0.043457352 -0.2315895
-0.033419643 -0.043381255 -0.2315957
-0.033416517 -0.043305244 -0.2315979
-0.03341376 -0.043231364 -0.23159415
-0.033410732 -0.043155398 -0.23159434
-0.033408072 -0.043081559 -0.2315886
-0.0334059 -0.04300794 -0.23157287
-0.033403907 -0.042936362 -0.23155519
-0.033401344 -0.042862568 -0.23154745
-0.03339861 -0.042786732 -0.23154166
-0.03339671 -0.042715199 -0.23152199
-0.03339491 -0.042643707 -0.2315003
-0.033392642 -0.042570047 -0.23148657
-0.033390082 -0.042496253 -0.23147884
-0.033386856 -0.042420197 -0.23148303
-0.0333841 -0.042346317 -0.23147929
-0.033381637 -0.042272568 -0.23146954
-0.033378415 -0.042196512 -0.23147374
-0.033374917 -0.042118378 -0.23148188
-0.033372063 -0.042044453 -0.23148012
-0.033369131 -0.041968532 -0.23147833
-0.033365618 -0.04189235 -0.23148853
-0.03336212 -0.041814208 -0.23149666
-0.033359267 -0.041740283 -0.2314949
-0.034738485 -0.090924636 -0.24345316
-0.034735322 -0.090842724 -0.24345121
-0.034732237 -0.090762801 -0.24344933
-0.034728959 -0.090682797 -0.24345142
-0.034725171 -0.090604529 -0.24346556
-0.034722105 -0.090522662 -0.24346164
-0.034719627 -0.090441048 -0.24344569
-0.034716543 -0.090361126 -0.2434438
-0.034713067 -0.090281039 -0.2434499
-0.034709789 -0.090201035 -0.24345201
-0.034706704 -0.090121113 -0.24345012
-0.034703638 -0.090039238 -0.24344617
-0.034700163 -0.089959145 -0.24345228
-0.034696765 -0.089881055 -0.24345842
-0.034693703 -0.089799181 -0.24345449
-0.034690715 -0.08971931 -0.2434506
-0.034687355 -0.089637309 -0.24345264
-0.034683958 -0.089559212 -0.24345881
-0.034680799 -0.089477293 -0.24345687
-0.034677617 -0.089397334 -0.24345696
-0.03467463 -0.089317456 -0.24345309
-0.034671858 -0.089235716 -0.24344313
-0.034668889 -0.089153886 -0.2434372
-0.034665491 -0.089075789 -0.24344337
-0.034661822 -0.088995613 -0.24345344
-0.034658857 -0.088913783 -0.24344751
-0.034656473 -0.088832214 -0.2434296
-0.034653507 -0.088750385 -0.24342367
-0.034650132 -0.088670343 -0.24342777
-0.034646753 -0.088590294 -0.24343187
-0.034643572 -0.088510327 -0.24343196
-0.0346407 -0.088428542 -0.24342403
-0.034638025 -0.088346839 -0.24341211
-0.034634531 -0.088268712 -0.24342024
-0.034631059 -0.088188618 -0.24342635
-0.034627993 -0.088106737 -0.24342242
-0.034624908 -0.088026822 -0.24342051
-0.03462204 -0.087945037 -0.24341258
-0.034619167 -0.087863252 -0.24340466
-0.034615792 -0.087783203 -0.24340875
-0.034612101 -0.087704979 -0.2434209
-0.034608625 -0.087624885 -0.24342699
-0.034605443 -0.087544926 -0.2434271
-0.034602769 -0.08746323 -0.24341518
-0.034600291 -0.087381616 -0.24339925
-0.034597009 -0.087301612 -0.24340135
-0.034593828 -0.087221652 -0.24340145
-0.034590743 -0.08714173 -0.24339956
-0.034587681 -0.087059855 -0.24339563
-0.03458479 -0.08698003 -0.24338974
-0.034581412 -0.086899981 -0.24339384
-0.03457794 -0.086819887 -0.24339995
-0.034574952 -0.086740009 -0.24339606
-0.034571767 -0.08666005 -0.24339616
-0.034567881 -0.086581737 -0.24341229
-0.034667414 -0.086231448 -0.24104816
-0.034667749 -0.08614324 -0.24096814
-0.034671307 -0.086046651 -0.24081399
-0.034672443 -0.085956834 -0.24071595
-0.034673169 -0.085868791 -0.24062794
-0.034673288 -0.085782453 -0.24055396
-0.03467292 -0.085695893 -0.24048997
-0.034672312 -0.085613146 -0.24043405
-0.034671728 -0.085528456 -0.24037611
-0.034670364 -0.085443415 -0.24033412
-0.034669153 -0.085362375 -0.24029225
-0.034668081 -0.085277461 -0.24024427
-0.034667086 -0.085194543 -0.24019635
-0.034666091 -0.085111633 -0.24014843
-0.034664802 -0.085028589 -0.24010651
-0.03466383 -0.084943719 -0.24005654
-0.034662444 -0.08486063 -0.24001661
-0.034662131 -0.084778026 -0.23995471
-0.034661863 -0.08469151 -0.23988871
-0.034660574 -0.084608465 -0.2398468
-0.034659579 -0.084525548 -0.23979887
-0.034659483 -0.084441073 -0.23973092
-0.034658782 -0.08435829 -0.23967701
-0.034657687 -0.084275335 -0.23963109
-0.034656107 -0.084192157 -0.23959514
-0.034653902 -0.084112637 -0.2395753
-0.03465201 -0.084031284 -0.23954739
-0.034650698 -0.083950192 -0.2395075
-0.034649704 -0.083867282 -0.23945957
-0.034648106 -0.083786063 -0.23942569
-0.034646112 -0.083704665 -0.23939979
-0.034644414 -0.083623402 -0.23936787
-0.034642696 -0.08354409 -0.23933804
-0.034640998 -0.083462834 -0.23930614
-0.034639299 -0.083381563 -0.23927423
-0.034637503 -0.083300263 -0.23924434
-0.034635514 -0.083218873 -0.23921843
-0.034633793 -0.083139554 -0.23918858
-0.0346319 -0.083058208 -0.23916069
-0.034629889 -0.08297877 -0.23913682
-0.034628093 -0.082897462 -0.23910692
-0.034626491 -0.082816243 -0.23907304
-0.034624286 -0.082736716 -0.23905316
-0.034621473 -0.082658879 -0.23904732
-0.034618776 -0.082579136 -0.23903744
-0.034616474 -0.082499564 -0.23901957
-0.034614656 -0.082420215 -0.23899171
-0.034613349 -0.082339123 -0.23895183
-0.03461124 -0.08225964 -0.23892997
-0.034608234 -0.082181722 -0.23892814
-0.03460544 -0.082101934 -0.23892024
-0.034602821 -0.082024187 -0.23891041
-0.034600325 -0.081944533 -0.23889653
-0.034598116 -0.081865005 -0.23887667
-0.034595519 -0.081785306 -0.23886479
-0.034592513 -0.081707388 -0.23886296
-0.034589604 -0.081629507 -0.2388591
-0.034587085 -0.081551805 -0.23884729
-0.034584582 -0.081472151 -0.2388334
-0.034581576 -0.081394225 -0.23883155
-0.034578569 -0.081316307 -0.2388297
-0.03457607 -0.081236653 -0.23881584
-0.03457386 -0.081157126 -0.23879597
-0.034571052 -0.081079289 -0.23879012
-0.034567751 -0.081001244 -0.23879427
-0.034564838 -0.080923364 -0.23879044
-0.034562223 -0.080845617 -0.23878059
-0.034559507 -0.080767825 -0.23877278
-0.034556501 -0.080689907 -0.23877093
-0.0345532 -0.080611862 -0.23877507
-0.034550093 -0.080533892 -0.23877522
-0.034547087 -0.080455974 -0.23877338
-0.034544274 -0.080378145 -0.23876753
-0.034541268 -0.080300219 -0.23876569
-0.034538064 -0.080222212 -0.23876785
-0.034535058 -0.080144294 -0.238766
-0.034532048 -0.080066375 -0.23876415
-0.034529041 -0.07998845 -0.23876232
-0.03452611 -0.079912528 -0.23876052
-0.034523122 -0.079832658 -0.23875663
-0.03452041 -0.079754867 -0.23874879
-0.034517497 -0.079676993 -0.23874494
-0.034514003 -0.079598852 -0.23875308
-0.034510292 -0.07952258 -0.23876727
-0.034506992 -0.079444535 -0.23877141
-0.03450457 -0.07936687 -0.23875758
-0.034501854 -0.079289079 -0.23874974
-0.034498751 -0.079211116 -0.23874989
-0.034495741 -0.079133198 -0.23874806
-0.034492441 -0.079055145 -0.2387522
-0.034489337 -0.078977183 -0.23875237
-0.034486428 -0.078899309 -0.23874852
-0.034483302 -0.078823298 -0.23875071
-0.034480195 -0.078745335 -0.23875087
-0.034477286 -0.078667462 -0.23874703
-0.034474276 -0.078589536 -0.23874518
-0.034471583 -0.078509793 -0.23873529
-0.034469355 -0.078432225 -0.23871748
-0.034466758 -0.078352518 -0.23870561
-0.034463655 -0.078274556 -0.23870575
-0.03446053 -0.078198552 -0.23870794
-0.03445752 -0.078120627 -0.2387061
-0.034454513 -0.078042708 -0.23870426
-0.03445141 -0.077964745 -0.23870441
-0.034448303 -0.077886783 -0.23870456
-0.034445394 -0.077808902 -0.23870072
-0.034442287 -0.077730939 -0.23870087
-0.034439087 -0.077652931 -0.23870303
-0.034436058 -0.077576965 -0.23870322
-0.034433071 -0.077497095 -0.23869935
-0.034429848 -0.077421039 -0.23870352
-0.034427036 -0.077343211 -0.23869768
-0.034424223 -0.077265374 -0.23869184
-0.034421019 -0.077187367 -0.238694
-0.034417816 -0.077109359 -0.23869616
-0.034414787 -0.077033393 -0.23869635
-0.034411389 -0.076955304 -0.23870249
-0.034407895 -0.076877162 -0.23871064
-0.034404986 -0.076799288 -0.2387068
-0.034402367 -0.076721542 -0.23869696
-0.034399264 -0.076643579 -0.23869711
-0.034396037 -0.076567523 -0.23870131
-0.034393031 -0.076489605 -0.23869947
-0.034390315 -0.076411813 -0.23869163
-0.034387525 -0.076332025 -0.23868375
-0.03438469 -0.076256149 -0.23867995
-0.034381706 -0.076176271 -0.23867607
-0.034378871 -0.076100394 -0.23867226
-0.034375865 -0.076022476 -0.23867042
-0.034372956 -0.075944595 -0.23866658
-0.03437024 -0.075866804 -0.23865874
-0.034367643 -0.075787105 -0.23864686
-0.034364831 -0.075709276 -0.23864102
-0.034361899 -0.075633354 -0.23863924
-0.034359206 -0.075553611 -0.23862934
-0.034356199 -0.075475685 -0.23862749
-0.034352388 -0.075399369 -0.23864368
-0.034348678 -0.075323105 -0.23865786
-0.034345672 -0.075245187 -0.23865601
-0.034342758 -0.075167306 -0.23865217
-0.034339048 -0.075091034 -0.23866636
-0.03433536 -0.075012811 -0.23867849
-0.034332644 -0.074935019 -0.23867065
-0.034330223 -0.074857362 -0.23865682
-0.034327526 -0.074777618 -0.23864695
-0.034324497 -0.074701652 -0.23864715
-0.034321588 -0.074623778 -0.2386433
-0.034318876 -0.074545987 -0.23863547
-0.034315769 -0.074468024 -0.23863563
-0.034312665 -0.074390061 -0.23863578
-0.034309853 -0.074312225 -0.23862994
-0.034307234 -0.074234478 -0.2386201
-0.034304615 -0.074156731 -0.23861027
-0.034301803 -0.074078903 -0.23860443
-0.034298994 -0.074001066 -0.23859859
-0.034296665 -0.073923454 -0.23858276
-0.034294441 -0.073845878 -0.23856494
-0.034291625 -0.073768049 -0.23855911
-0.034289107 -0.073690347 -0.23854727
-0.034286998 -0.073610865 -0.23852542
-0.03428565 -0.073533684 -0.23848963
-0.03428442 -0.073454589 -0.23844978
-0.034282602 -0.07337524 -0.23842192
-0.034280766 -0.073297836 -0.23839611
-0.034279026 -0.073220484 -0.2383683
-0.034277208 -0.073141135 -0.23834045
-0.034275472 -0.073063776 -0.23831263
-0.034273949 -0.072984554 -0.23827881
-0.034272011 -0.072907113 -0.23825499
-0.034269493 -0.07282941 -0.23824316
-0.034266971 -0.072751708 -0.23823132
-0.034264941 -0.072674222 -0.23820952
-0.034262814 -0.072596699 -0.23818968
-0.034260388 -0.072519034 -0.23817587
-0.034258086 -0.072439469 -0.23815799
-0.034255859 -0.072361894 -0.23814017
-0.03425324 -0.072284147 -0.23813033
-0.034250505 -0.072208315 -0.23812455
-0.034248572 -0.072130874 -0.23810074
-0.034246169 -0.072051257 -0.23808485
-0.034242947 -0.071975201 -0.23808905
-0.03423994 -0.071897283 -0.23808721
-0.034237225 -0.071819492 -0.23807937
-0.034234196 -0.071743533 -0.23807958
-0.034230895 -0.071665481 -0.23808372
-0.034228083 -0.071587645 -0.23807788
-0.034225661 -0.071509987 -0.23806405
-0.034223728 -0.071432546 -0.23804024
-0.034221187 -0.071356796 -0.23803046
-0.034217495 -0.071278572 -0.23804259
-0.034213979 -0.07120239 -0.23805277
-0.034210779 -0.071124382 -0.23805492
-0.034207165 -0.071048155 -0.23806711
-0.034203473 -0.070969932 -0.23807923
-0.034199763 -0.07089366 -0.23809342
-0.034196265 -0.070815518 -0.23810157
-0.034193259 -0.0707376 -0.23809972
-0.034189839 -0.070661463 -0.2381079
-0.034185935 -0.070585102 -0.23812608
-0.034182146 -0.070506833 -0.23814021
-0.034178924 -0.070430785 -0.2381444
-0.034175623 -0.070352733 -0.23814856
-0.034171812 -0.070276417 -0.23816474
-0.034166738 -0.070199542 -0.23820686
-0.034161661 -0.070122659 -0.238249
-0.034156974 -0.070045955 -0.23828316
-0.034152891 -0.069967553 -0.23830329
-0.034148205 -0.069890849 -0.23833743
-0.034143228 -0.069814011 -0.23837757
-0.034138266 -0.069735222 -0.23841569
-0.034132995 -0.069658257 -0.23846182
-0.034126945 -0.069580942 -0.23852393
-0.034121085 -0.069503717 -0.23858204
-0.034115303 -0.069428489 -0.23864022
-0.034108885 -0.069349043 -0.23870826
-0.03410203 -0.069273338 -0.2387884
-0.034095585 -0.069195844 -0.23885849
-0.034089848 -0.069116704 -0.23891258
-0.034084186 -0.069039568 -0.2389667
-0.034078036 -0.068962209 -0.23903081
-0.034071788 -0.068884805 -0.23909691
-0.034065343 -0.068807319 -0.239167
-0.034059409 -0.068728089 -0.23922507
-0.03405394 -0.068651035 -0.2392752
-0.03404779 -0.068573684 -0.23933932
-0.034041468 -0.068494283 -0.23940536
-0.034035221 -0.068416879 -0.23947148
-0.034028191 -0.068339132 -0.23955356
-0.034020871 -0.068261251 -0.23964164
-0.03401386 -0.068181545 -0.23972167
-0.03400654 -0.068103664 -0.23980975
-0.033998948 -0.068023697 -0.23990177
-0.0339927 -0.0679463 -0.23996788
-0.033987254 -0.067867294 -0.24001595
-0.033983074 -0.067788847 -0.24003808
-0.033978309 -0.067710146 -0.24007219
-0.03396982 -0.067631744 -0.24018422
-0.033962909 -0.067552082 -0.24026227
-0.033957053 -0.067474857 -0.24032038
-0.03395053 -0.067395367 -0.24039045
-0.033942938 -0.0673154 -0.24048245
-0.03393437 -0.067235 -0.24059445
-0.033926368 -0.067156814 -0.24069649
-0.033917602 -0.067076333 -0.24081248
-0.033909813 -0.066996276 -0.2409085
-0.033902708 -0.066916533 -0.24099053
-0.033895992 -0.066836953 -0.24106458
-0.033889081 -0.066757299 -0.24114263
-0.033881098 -0.066677153 -0.24124265
-0.033873994 -0.06659741 -0.24132466
-0.033866789 -0.066517614 -0.24140871
-0.033860974 -0.066436484 -0.24146274
-0.033858746 -0.066358909 -0.24144492
-0.033855371 -0.06627886 -0.24144901
-0.033846606 -0.066198371 -0.241565
-0.033834133 -0.066116229 -0.24175689
-0.033826657 -0.066034354 -0.24184486
-0.033819064 -0.065954387 -0.24193688
-0.033809617 -0.065873601 -0.24206685
-0.033802435 -0.065791853 -0.24214883
-0.033795547 -0.065710239 -0.24222483
-0.033784267 -0.065626666 -0.24239069
-0.033773452 -0.065545261 -0.24254861
-0.033762954 -0.065462038 -0.24269852
-0.033749137 -0.065377332 -0.24291632
-0.033739809 -0.065294631 -0.24304223
-0.033734187 -0.065213583 -0.24309227
-0.0337312 -0.065133706 -0.24308838
-0.033728678 -0.065056004 -0.24307655
-0.033725712 -0.064974174 -0.24307062
-0.0337229 -0.064896345 -0.24306476
-0.033721007 -0.064814992 -0.24303687
-0.033719756 -0.064737856 -0.24299908
-0.033718232 -0.064658634 -0.24296524
-0.033716902 -0.064579494 -0.2429274
-0.033714306 -0.064499795 -0.24291551
-0.033710148 -0.064419404 -0.2429356
-0.033703942 -0.064338088 -0.24299762
-0.033697736 -0.06425678 -0.24305962
-0.033693772 -0.06417647 -0.2430757
-0.033691272 -0.064096816 -0.24306184
-0.033688381 -0.064016983 -0.24305594
-0.033685494 -0.06393715 -0.24305007
-0.0336827 -0.063857362 -0.24304217
-0.033679422 -0.063777357 -0.24304429
-0.033675361 -0.063697003 -0.24306236
-0.033671983 -0.063616954 -0.24306646
-0.033669386 -0.063537255 -0.24305458
-0.033666886 -0.063457601 -0.24304071
-0.033664584 -0.063378029 -0.24302284
-0.0336615 -0.063298114 -0.24302095
-0.033657826 -0.06321793 -0.24303104
-0.03365406 -0.06313771 -0.24304312
-0.033650391 -0.063057527 -0.24305321
-0.033647306 -0.062977612 -0.24305132
-0.033644807 -0.06289795 -0.24303746
-0.033642501 -0.062818386 -0.24301958
-0.033639416 -0.062738463 -0.24301769
-0.033635922 -0.062660329 -0.24302584
-0.033632565 -0.062578328 -0.2430279
-0.033629186 -0.062498275 -0.24303198
-0.033625711 -0.062418185 -0.24303809
-0.033622727 -0.062338307 -0.2430342
-0.033620402 -0.062260695 -0.24301836
-0.033617705 -0.062180951 -0.24300849
-0.033614229 -0.062100857 -0.24301457
-0.033610485 -0.062018681 -0.24302462
-0.033606909 -0.061938547 -0.24303272
-0.033603728 -0.061858583 -0.24303283
-0.033600546 -0.06177862 -0.24303293
-0.033597656 -0.061698791 -0.24302705
-0.033594962 -0.061619047 -0.24301717
-0.033592343 -0.0615413 -0.24300733
-0.033589359 -0.061461426 -0.24300346
-0.033586372 -0.061381552 -0.24299955
-0.033583187 -0.061301589 -0.24299967
-0.033579342 -0.061219368 -0.24301171
-0.033575673 -0.061139189 -0.24302179
-0.033572298 -0.06105914 -0.2430259
-0.033569016 -0.060979135 -0.24302799
-0.033565931 -0.060899217 -0.24302611
-0.033563431 -0.060819559 -0.24301222
-0.033561107 -0.060741946 -0.24299641
-0.033557829 -0.060661942 -0.24299851
-0.033554275 -0.060579851 -0.24300455
-0.033551171 -0.060501888 -0.24300471
-0.033547815 -0.060419884 -0.24300677
-0.03354473 -0.060339965 -0.24300487
-0.033541821 -0.060262088 -0.24300103
-0.033538852 -0.060180258 -0.24299508
-0.033535749 -0.060102295 -0.24299525
-0.033531804 -0.060020033 -0.24300928
-0.033528429 -0.059939984 -0.24301338
-0.033525538 -0.059860151 -0.24300751
-0.033522647 -0.059780322 -0.24300161
-0.033519562 -0.059700403 -0.24299972
-0.033516381 -0.05962044 -0.24299982
-0.033513393 -0.059540566 -0.24299593
-0.033510506 -0.059460737 -0.24299005
-0.033507518 -0.059380859 -0.24298616
-0.033504043 -0.059300769 -0.24299225
-0.033500761 -0.059220765 -0.24299437
-0.033497874 -0.059140932 -0.24298847
-0.03349508 -0.059061144 -0.2429806
-0.033491898 -0.058981184 -0.24298069
-0.033488035 -0.058900915 -0.24299479
-0.03348456 -0.058820825 -0.24300088
-0.033481278 -0.058740821 -0.24300298
-0.033477999 -0.058660813 -0.24300508
-0.03347503 -0.058578987 -0.24299915
-0.033472709 -0.05850137 -0.24298331
-0.033469819 -0.058421537 -0.24297744
-0.033466537 -0.058341533 -0.24297953
-0.033463553 -0.058261659 -0.24297565
-0.033460565 -0.058181785 -0.24297178
-0.033457089 -0.058101691 -0.24297786
-0.033453535 -0.058019601 -0.24298391
-0.033450257 -0.057939596 -0.24298601
-0.033447638 -0.05786185 -0.24297617
-0.033445042 -0.057782151 -0.2429643
-0.033441957 -0.057702232 -0.24296241
-0.033438601 -0.057620227 -0.24296448
-0.033435222 -0.057540178 -0.24296856
-0.03343204 -0.057460219 -0.24296868
-0.033428859 -0.057380259 -0.24296877
-0.033425577 -0.057300255 -0.24297088
-0.033422396 -0.057220291 -0.24297097
-0.033419214 -0.057140328 -0.24297109
-0.033416033 -0.057060368 -0.24297118
-0.033412851 -0.056980405 -0.2429713
-0.033409767 -0.056900486 -0.24296939
-0.033406604 -0.056818571 -0.24296746
-0.033403419 -0.056738608 -0.24296758
-0.033400141 -0.056658603 -0.24296966
-0.033397056 -0.056578688 -0.24296778
-0.033394262 -0.0564989 -0.24295989
-0.033391178 -0.056418981 -0.24295801
-0.033387803 -0.056338932 -0.24296209
-0.033384424 -0.056258883 -0.2429662
-0.033381242 -0.056178924 -0.24296632
-0.033378255 -0.05609905 -0.24296242
-0.03337517 -0.056019127 -0.24296053
-0.033372279 -0.055939298 -0.24295464
-0.033369195 -0.055859379 -0.24295275
-0.03336582 -0.05577933 -0.24295685
-0.033362735 -0.055699416 -0.24295497
-0.033359844 -0.055619583 -0.24294907
-0.033356488 -0.055537581 -0.24295112
-0.033353012 -0.055457488 -0.24295722
-0.033349928 -0.055377569 -0.24295533
-0.033347137 -0.055297781 -0.24294744
-0.03334415 -0.055217907 -0.24294356
-0.033340771 -0.055137858 -0.24294767
-0.033337198 -0.055057723 -0.24295574
-0.033333547 -0.054975592 -0.24296379
-0.033329878 -0.054895408 -0.24297389
-0.033755615 -0.055342507 -0.23447224
-0.033754908 -0.055269539 -0.23442656
-0.033758529 -0.055204391 -0.23429714
-0.033764355 -0.055144157 -0.23412587
-0.033767097 -0.055078618 -0.23401442
-0.033769745 -0.055013038 -0.23390496
-0.033771317 -0.054946981 -0.23381747
-0.033771958 -0.054876577 -0.23374587
-0.033774018 -0.054810736 -0.2336484
-0.033776373 -0.054745022 -0.23354495
-0.033775937 -0.054674141 -0.23349531
-0.033775602 -0.054603301 -0.23344368
-0.033775263 -0.054532465 -0.23339204
-0.03377473 -0.054461539 -0.23334441
-0.033774666 -0.054392785 -0.23328882
-0.033773668 -0.054319687 -0.23324913
-0.033772353 -0.054248415 -0.23321748
-0.033772212 -0.054177664 -0.23316184
-0.03377283 -0.054109216 -0.23309229
-0.033771712 -0.054038025 -0.23305663
-0.033769738 -0.053964496 -0.23303691
-0.033767469 -0.053890832 -0.23302317
-0.033764735 -0.053814996 -0.23301739
-0.033761881 -0.053741071 -0.23301563
-0.033759806 -0.053667497 -0.23299789
-0.033759177 -0.053596526 -0.23295227
-0.033759892 -0.053528123 -0.23288071
-0.033759654 -0.053457327 -0.23282708
-0.033758145 -0.053385966 -0.23279943
-0.033756267 -0.053312477 -0.2327777
-0.033755053 -0.053241245 -0.23274404
-0.033754326 -0.053170234 -0.23270041
-0.033754259 -0.05310148 -0.23264481
-0.033754878 -0.053033032 -0.23257525
-0.033755302 -0.052964494 -0.2325097
-0.033755433 -0.052895829 -0.23245013
-0.033754878 -0.052826859 -0.23240453
-0.033753589 -0.052753627 -0.23237082
-0.033752449 -0.052684397 -0.23233721
-0.033750962 -0.052611083 -0.23230751
-0.033749163 -0.052539591 -0.23228583
-0.033747282 -0.052466102 -0.2322641
-0.033745676 -0.052394699 -0.23223844
-0.033744093 -0.052321341 -0.23221073
-0.033742391 -0.052249894 -0.23218706
-0.033740416 -0.05217636 -0.23216733
-0.033738811 -0.052104957 -0.23214167
-0.033736832 -0.05203142 -0.23212194
-0.033734176 -0.051957585 -0.23211619
-0.03373218 -0.051886007 -0.23209852
-0.033731159 -0.051814862 -0.23206086
-0.033730041 -0.051743679 -0.23202521
-0.03372873 -0.051672406 -0.23199356
-0.033728275 -0.051603477 -0.23194596
-0.033729263 -0.051537156 -0.23187047
-0.033729099 -0.051468357 -0.23181689
-0.033727787 -0.051397085 -0.23178521
-0.033725325 -0.051323336 -0.23177548
-0.033722375 -0.05124937 -0.23177573
-0.033719931 -0.051173665 -0.23176393
-0.033717271 -0.051099826 -0.23175819
-0.033714224 -0.051025815 -0.23176044
-0.033711195 -0.050949849 -0.23176065
-0.033708051 -0.050875794 -0.23176488
-0.033704925 -0.050799783 -0.23176709
-0.033701777 -0.050725728 -0.23177132
-0.033698261 -0.050649546 -0.23178151
-0.03369467 -0.050571367 -0.23179165
-0.033691425 -0.050497267 -0.23179789
-0.033688299 -0.05042126 -0.23180008
-0.033685174 -0.050345249 -0.23180228
-0.033681929 -0.050271153 -0.23180851
-0.033679001 -0.050195228 -0.23180673
-0.033676539 -0.050121479 -0.23179698
-0.033674173 -0.05004777 -0.23178524
-0.033671707 -0.049974021 -0.23177551
-0.033669516 -0.049902357 -0.23176181
-0.033667445 -0.049828779 -0.2317441
-0.033664785 -0.04975494 -0.23173836
-0.033661954 -0.049679063 -0.23173456
-0.033659589 -0.049605355 -0.23172282
-0.033656929 -0.049531519 -0.23171708
-0.033653609 -0.049455423 -0.23172326
-0.033649802 -0.04937911 -0.23173945
-0.033646189 -0.049302883 -0.23175162
-0.033643626 -0.049229089 -0.23174389
-0.033641651 -0.049155556 -0.23172417
-0.033639479 -0.049081936 -0.23170844
-0.033637386 -0.049010314 -0.23169275
-0.033635411 -0.048936784 -0.23167303
-0.033633806 -0.048865378 -0.23164736
-0.033632006 -0.04879389 -0.23162568
-0.033630207 -0.048722394 -0.23160401
-0.033628892 -0.048651122 -0.23157236
-0.033627383 -0.04857976 -0.23154469
-0.033624824 -0.048505969 -0.23153695
-0.033622067 -0.048432089 -0.2315332
-0.033619899 -0.048358466 -0.23151746
-0.033618197 -0.048287019 -0.23149379
-0.033616588 -0.048215616 -0.23146813
-0.033615083 -0.048144255 -0.23144045
-0.033613652 -0.048074894 -0.23141284
-0.033611774 -0.048001401 -0.23139112
-0.033610635 -0.04793217 -0.23135751
-0.033609226 -0.047860853 -0.23132785
-0.033607032 -0.04778919 -0.23131415
-0.033604473 -0.047715396 -0.2313064
-0.033601347 -0.047639385 -0.23130861
-0.033598397 -0.047565419 -0.23130886
-0.033595271 -0.047489408 -0.23131107
-0.033591948 -0.047413312 -0.23131725
-0.033588726 -0.04733726 -0.23132145
-0.033585504 -0.047261208 -0.23132564
-0.033581696 -0.047184892 -0.23134181
-0.033577908 -0.047106624 -0.23135594
-0.033574197 -0.047030352 -0.23137012
-0.033569921 -0.046951868 -0.23139425
-0.033565644 -0.046873383 -0.23141837
-0.033561565 -0.046794984 -0.23143849
-0.033557482 -0.046716586 -0.23145862
-0.033553597 -0.046638273 -0.23147474
-0.033549517 -0.046559878 -0.23149487
-0.033545434 -0.046481475 -0.23151499
-0.033542581 -0.046407551 -0.23151323
-0.033540312 -0.046333887 -0.23149951
-0.03353861 -0.046262439 -0.23147583
-0.033537004 -0.046191037 -0.23145017
-0.033535108 -0.046119504 -0.2314305
-0.033532839 -0.04604584 -0.23141676
-0.033530474 -0.045972131 -0.23140502
-0.03352809 -0.045900378 -0.23139533
-0.033525527 -0.045826584 -0.23138759
-0.033522498 -0.045750622 -0.23138779
-0.033518884 -0.045674395 -0.23139997
-0.03351463 -0.045593955 -0.23142205
-0.033510722 -0.045517594 -0.23144022
-0.033507403 -0.045441501 -0.23144642
-0.033504277 -0.04536549 -0.23144862
-0.033500955 -0.045289397 -0.23145479
-0.033498026 -0.045213472 -0.231453
-0.033495367 -0.045139637 -0.23144725
-0.033492614 -0.045065753 -0.23144351
-0.033489779 -0.044989876 -0.23143972
-0.033487119 -0.044916037 -0.23143397
-0.033484269 -0.044842117 -0.23143223
-0.033480849 -0.044765975 -0.23144041
-0.033477157 -0.044687748 -0.23145255
-0.033473741 -0.04461161 -0.23146074
-0.033469953 -0.044533342 -0.23147488
-0.033466436 -0.04445716 -0.23148504
-0.033462647 -0.044378892 -0.2314992
-0.033459034 -0.044302661 -0.23151138
-0.033456106 -0.04422674 -0.23150957
-0.033453446 -0.044152904 -0.23150381
-0.033450712 -0.044077069 -0.23149803
-0.033447292 -0.044000927 -0.23150623
-0.033443213 -0.043922529 -0.23152635
-0.03343999 -0.043846477 -0.23153055
-0.033436764 -0.043770425 -0.23153475
-0.033432975 -0.043692157 -0.23154888
-0.033428602 -0.043613628 -0.23157498
-0.033424817 -0.043535359 -0.23158911
-0.033421692 -0.043459348 -0.23159131
-0.033418369 -0.043383256 -0.23159751
-0.033415146 -0.0433072 -0.23160169
-0.033412486 -0.043233361 -0.23159596
-0.033409558 -0.04315744 -0.23159416
-0.033406898 -0.043083604 -0.23158841
-0.03340473 -0.043009982 -0.23157269
-0.033402734 -0.042938408 -0.231555
-0.033400171 -0.042864613 -0.23154727
-0.033397514 -0.042790774 -0.23154151
-0.033395439 -0.042717196 -0.23152378
-0.03339364 -0.042645708 -0.23150212
-0.033391468 -0.042572089 -0.23148638
-0.033388812 -0.042498253 -0.23148063
-0.033385687 -0.042422242 -0.23148283
-0.033382833 -0.042348318 -0.23148109
-0.033380371 -0.042274568 -0.23147134
-0.033377148 -0.042198516 -0.23147555
-0.03337365 -0.042120375 -0.23148368
-0.033370797 -0.04204645 -0.23148194
-0.033367965 -0.041970573 -0.23147812
-0.033364449 -0.041894391 -0.23148832
-0.033360954 -0.041816253 -0.23149645
-0.033358101 -0.041742325 -0.23149471
-0.034740739 -0.090921558 -0.24344879
-0.034737557 -0.090841591 -0.2434489
-0.034734569 -0.090761721 -0.24344501
-0.034731194 -0.090681672 -0.24344911
-0.034727328 -0.090601407 -0.24346319
-0.034724243 -0.090521485 -0.24346131
-0.034721766 -0.090439878 -0.24344538
-0.034718603 -0.090357959 -0.24344344
-0.034715205 -0.090279862 -0.24344958
-0.034711923 -0.090199858 -0.24345168
-0.034708858 -0.090117991 -0.24344775
-0.034705773 -0.090038069 -0.24344587
-0.034702398 -0.08995802 -0.24344996
-0.034699 -0.08987993 -0.24345611
-0.034695935 -0.089798056 -0.24345216
-0.03469285 -0.089718133 -0.24345028
-0.034689393 -0.089636087 -0.24345434
-0.034686096 -0.089558043 -0.24345848
-0.034682933 -0.089476123 -0.24345654
-0.034679845 -0.089396209 -0.24345465
-0.034676861 -0.089316331 -0.24345076
-0.034674011 -0.089232594 -0.24344078
-0.03467112 -0.089152761 -0.24343491
-0.034667548 -0.08907263 -0.24344298
-0.034663957 -0.088994443 -0.24345313
-0.034660988 -0.088912614 -0.2434472
-0.034658626 -0.088829093 -0.24342725
-0.034655638 -0.088749215 -0.24342334
-0.034652263 -0.088669166 -0.24342746
-0.034648981 -0.088589162 -0.24342954
-0.034645703 -0.088509157 -0.24343164
-0.034642834 -0.088427372 -0.24342373
-0.034640256 -0.088345714 -0.24340981
-0.034636661 -0.088267535 -0.24341995
-0.034633189 -0.088187441 -0.24342604
-0.034630124 -0.088105574 -0.24342209
-0.034627039 -0.088025652 -0.2434202
-0.034624267 -0.087943912 -0.24341029
-0.034621399 -0.087862127 -0.24340235
-0.034617923 -0.087782033 -0.24340844
-0.034614328 -0.087703854 -0.24341857
-0.034610853 -0.08762376 -0.24342468
-0.034607671 -0.0875438 -0.24342479
-0.034604996 -0.087462097 -0.24341285
-0.034602616 -0.087380528 -0.24339494
-0.034599237 -0.087300487 -0.24339905
-0.034595959 -0.087220475 -0.24340114
-0.03459299 -0.087138653 -0.24339521
-0.034589905 -0.08705873 -0.24339333
-0.034586918 -0.086978853 -0.24338943
-0.034583542 -0.086898804 -0.24339353
-0.034580067 -0.086818717 -0.24339963
-0.034577079 -0.08673884 -0.24339575
-0.034573898 -0.08665888 -0.24339585
-0.034570031 -0.086578615 -0.24340993
-0.034669738 -0.08623036 -0.24104384
-0.03467017 -0.086142197 -0.24096182
-0.034673732 -0.0860456 -0.24080768
-0.034674868 -0.085955784 -0.24070963
-0.034675591 -0.085867748 -0.24062164
-0.034675613 -0.085781358 -0.24054965
-0.034675147 -0.08569476 -0.24048766
-0.034674466 -0.085610017 -0.24043171
-0.034673959 -0.085527323 -0.24037379
-0.034672689 -0.08544232 -0.24032983
-0.034671284 -0.08536119 -0.24029194
-0.034670308 -0.085276321 -0.24024197
-0.034669314 -0.085193411 -0.24019405
-0.034668222 -0.085110456 -0.24014813
-0.034666955 -0.085025452 -0.24010415
-0.034666155 -0.084942624 -0.24005224
-0.034664672 -0.084859498 -0.24001431
-0.034664281 -0.084774889 -0.23995236
-0.034664087 -0.08469037 -0.23988642
-0.034662802 -0.084607325 -0.2398445
-0.034661904 -0.084524453 -0.23979457
-0.034661807 -0.084439978 -0.23972663
-0.034660909 -0.084357113 -0.23967671
-0.034659818 -0.084274158 -0.23963079
-0.034658235 -0.08419098 -0.23959486
-0.034656029 -0.084111452 -0.239575
-0.034654234 -0.084030144 -0.23954508
-0.034653045 -0.083947144 -0.23950116
-0.034652028 -0.083866186 -0.23945528
-0.03465033 -0.083784923 -0.23942339
-0.03464824 -0.083703488 -0.23939949
-0.034646541 -0.083622225 -0.23936759
-0.034644842 -0.083540961 -0.23933569
-0.034643222 -0.083461694 -0.23930384
-0.034641523 -0.083380431 -0.23927194
-0.03463963 -0.083299078 -0.23924404
-0.034637738 -0.083217725 -0.23921615
-0.03463592 -0.083138376 -0.23918828
-0.034634124 -0.083057068 -0.23915839
-0.03463221 -0.082977675 -0.23913252
-0.034630317 -0.082896322 -0.23910463
-0.034628715 -0.082815103 -0.23907073
-0.034626506 -0.082735576 -0.23905087
-0.034623697 -0.08265774 -0.23904502
-0.034620903 -0.082577959 -0.23903714
-0.034618795 -0.082498476 -0.23901528
-0.03461688 -0.082419075 -0.23898943
-0.034615573 -0.08233799 -0.23894954
-0.034613464 -0.082258508 -0.23892768
-0.034610376 -0.082178585 -0.23892578
-0.034607664 -0.082100794 -0.23891795
-0.034604967 -0.08202105 -0.23890808
-0.034602545 -0.081943393 -0.23889424
-0.034600243 -0.081863821 -0.23887637
-0.034597643 -0.081784122 -0.23886451
-0.034594636 -0.081706204 -0.23886266
-0.034591727 -0.081628323 -0.2388588
-0.034589306 -0.081550665 -0.23884499
-0.034586705 -0.081470966 -0.2388331
-0.034583699 -0.081393048 -0.23883125
-0.034580693 -0.081315123 -0.23882942
-0.03457829 -0.081235513 -0.23881355
-0.034576081 -0.081155986 -0.23879369
-0.034573171 -0.081078112 -0.23878984
-0.034569871 -0.08100006 -0.23879398
-0.034567058 -0.080922224 -0.23878816
-0.03456454 -0.080844522 -0.23877631
-0.034561746 -0.080764733 -0.23876843
-0.03455862 -0.080688722 -0.23877063
-0.03455542 -0.080610722 -0.23877278
-0.034552313 -0.080532752 -0.23877293
-0.034549307 -0.080454834 -0.23877108
-0.034546494 -0.080376998 -0.23876524
-0.034543388 -0.080299035 -0.2387654
-0.034540184 -0.080221027 -0.23876756
-0.034537077 -0.080143064 -0.23876771
-0.034534167 -0.080065191 -0.23876387
-0.034531161 -0.079987273 -0.23876202
-0.034528151 -0.079909347 -0.23876017
-0.034525342 -0.079831518 -0.23875433
-0.034522526 -0.079753682 -0.23874849
-0.034519717 -0.079675853 -0.23874266
-0.034516122 -0.079597667 -0.2387528
-0.034512412 -0.079521403 -0.23876697
-0.034509111 -0.07944335 -0.23877113
-0.034506686 -0.079365686 -0.2387573
-0.034504071 -0.079287946 -0.23874746
-0.034500964 -0.079209983 -0.23874763
-0.034497861 -0.079132013 -0.23874778
-0.03449456 -0.079053968 -0.23875192
-0.034491453 -0.078975998 -0.23875207
-0.034488641 -0.078898169 -0.23874623
-0.034485437 -0.078820162 -0.23874839
-0.034482509 -0.07874424 -0.23874658
-0.034479424 -0.078664318 -0.23874471
-0.034476493 -0.078588396 -0.2387429
-0.034473699 -0.078508608 -0.23873502
-0.034471475 -0.07843104 -0.2387172
-0.034468874 -0.078351334 -0.23870531
-0.034465868 -0.078273416 -0.23870347
-0.034462743 -0.078197412 -0.23870566
-0.034459561 -0.078117445 -0.23870578
-0.034456726 -0.078041568 -0.23870198
-0.034453623 -0.077963606 -0.23870213
-0.034450516 -0.077885643 -0.23870228
-0.034447506 -0.077807724 -0.23870045
-0.0344445 -0.077729799 -0.2386986
-0.034441296 -0.077651791 -0.23870075
-0.034438267 -0.077575825 -0.23870096
-0.034435183 -0.07749591 -0.23869905
-0.034432057 -0.077419899 -0.23870125
-0.034429245 -0.077342063 -0.23869541
-0.034426335 -0.07726419 -0.23869157
-0.034423131 -0.077186182 -0.23869371
-0.034419928 -0.077108175 -0.23869586
-0.034416903 -0.077032208 -0.23869607
-0.034413602 -0.076954156 -0.23870021
-0.034410104 -0.076876022 -0.23870835
-0.034407195 -0.076798141 -0.23870452
