# .PCD v0.7 - Point Cloud Data file format
VERSION 0.7
FIELDS x y z
SIZE 4 4 4
TYPE F F F
COUNT 1 1 1
WIDTH 1304
HEIGHT 1
VIEWPOINT 0 0 0 1 0 0 0
POINTS 1304
DATA ascii
0.046807323 -0.058169473 -0.23877198
0.046810113 -0.058089688 -0.23876409
0.046812709 -0.058009986 -0.23875222
0.046815403 -0.057930242 -0.23874234
0.04681839 -0.057850368 -0.23873845
0.04682206 -0.057770189 -0.23874854
0.046825554 -0.057692051 -0.23875669
0.046829008 -0.057610005 -0.23876074
0.046832208 -0.057531998 -0.23876289
0.04683451 -0.057452425 -0.23874502
0.046837498 -0.057372551 -0.23874113
0.046841457 -0.057292242 -0.23875721
0.046844933 -0.057212152 -0.2387633
0.046847627 -0.057132404 -0.23875342
0.046850711 -0.057052486 -0.23875153
0.046853989 -0.056972481 -0.23875365
0.046856973 -0.056892607 -0.23874974
0.046860058 -0.056812689 -0.23874786
0.046863064 -0.056734771 -0.23874602
0.046866126 -0.056652896 -0.23874208
0.046869524 -0.056574803 -0.23874822
0.046873584 -0.056494448 -0.2387663
0.046876941 -0.056412444 -0.23876834
0.046878971 -0.056334961 -0.23874654
0.046881665 -0.056255218 -0.23873666
0.046885233 -0.056175079 -0.23874475
0.046888515 -0.056095075 -0.23874685
0.046891302 -0.056015287 -0.23873897
0.046894193 -0.055935457 -0.23873308
0.046897471 -0.055855453 -0.23873518
0.046900652 -0.05577549 -0.23873529
0.046903834 -0.055695526 -0.23873541
0.046907112 -0.055615522 -0.23873749
0.046910197 -0.055535607 -0.23873562
0.046913378 -0.055455644 -0.23873571
0.046916384 -0.055377722 -0.23873386
0.046919368 -0.055297848 -0.23872998
0.046922747 -0.055217799 -0.23873408
0.046926025 -0.055137794 -0.23873618
0.046929382 -0.05505579 -0.23873824
0.046932388 -0.054977871 -0.23873639
0.046935178 -0.054898083 -0.23872851
0.046937872 -0.05481834 -0.23871863
0.046940856 -0.054738466 -0.23871474
0.046943747 -0.054658633 -0.23870885
0.046946827 -0.054578714 -0.23870696
0.0469504 -0.054498579 -0.23871505
0.046953775 -0.05441853 -0.23871917
0.046956763 -0.054338656 -0.23871526
0.046960041 -0.054258652 -0.23871736
0.046963319 -0.054178648 -0.23871948
0.046966501 -0.054098684 -0.23871958
0.046969585 -0.054018766 -0.23871768
0.04697267 -0.053938847 -0.2387158
0.04697575 -0.053858928 -0.23871389
0.046978932 -0.053778969 -0.23871401
0.046981938 -0.053701047 -0.23871216
0.046985295 -0.053619046 -0.23871422
0.046988498 -0.053541038 -0.23871636
0.046991561 -0.053459164 -0.23871243
0.046994369 -0.053381331 -0.23870659
0.046997357 -0.053301457 -0.23870271
0.047000539 -0.053221494 -0.2387028
0.04700372 -0.053141534 -0.23870292
0.047006901 -0.053061571 -0.23870301
0.047009788 -0.052981742 -0.23869714
0.047012776 -0.052901864 -0.23869324
0.047015954 -0.052821904 -0.23869336
0.047019333 -0.052741855 -0.23869745
0.046580639 -0.053235803 -0.22997114
0.046573222 -0.053174309 -0.22976586
0.046565905 -0.053112768 -0.2295626
0.046562452 -0.053045582 -0.22943512
0.046556402 -0.052983478 -0.22925782
0.046554394 -0.052913684 -0.22915825
0.046553262 -0.052843496 -0.22907665
0.046552934 -0.052774917 -0.2290131
0.046553738 -0.052701905 -0.22896941
0.046555322 -0.052628547 -0.22894169
0.04655749 -0.052554928 -0.22892597
0.046558876 -0.052481659 -0.22889426
0.046559211 -0.052410819 -0.22884263
0.046559155 -0.052340154 -0.22878301
0.046559196 -0.052269444 -0.22872539
0.046560582 -0.052196175 -0.22869368
0.046563435 -0.05212225 -0.22869194
0.046566851 -0.052046109 -0.22870012
0.046569586 -0.051970273 -0.22869432
0.046572439 -0.051896349 -0.22869259
0.046575956 -0.051820166 -0.22870275
0.046579391 -0.051745981 -0.22871301
0.046582617 -0.051669929 -0.22871718
0.046585642 -0.051593963 -0.22871739
0.046588592 -0.051519997 -0.22871763
0.046591911 -0.051443901 -0.22872382
0.046596013 -0.051367454 -0.228746
0.046600699 -0.051290751 -0.22878015
0.046605073 -0.051212221 -0.22880626
0.046608314 -0.051138122 -0.2288125
0.046610951 -0.051062331 -0.22880471
0.046613414 -0.050988577 -0.22879498
0.046615485 -0.050915003 -0.22877724
0.046616212 -0.050843991 -0.2287336
0.046616644 -0.050773107 -0.22868396
0.046617541 -0.050700054 -0.22864228
0.046619341 -0.050628565 -0.2286206
0.046621215 -0.050555073 -0.22859889
0.046622798 -0.050481714 -0.22857118
0.046624206 -0.050410397 -0.22854151
0.046625108 -0.050337344 -0.22849983
0.046625461 -0.05026846 -0.22845024
0.046626087 -0.05019749 -0.22840458
0.046627965 -0.050124001 -0.22838286
0.046630133 -0.050050382 -0.22836713
0.046631716 -0.049977023 -0.22833942
0.046633027 -0.049905747 -0.22830775
0.046634238 -0.04983452 -0.22827411
0.046635237 -0.049761422 -0.22823441
0.046636645 -0.049690105 -0.22820476
0.046637859 -0.049618874 -0.2281711
0.046638582 -0.049547862 -0.22812745
0.046639211 -0.049476892 -0.22808181
0.046639934 -0.04940588 -0.22803816
0.046642102 -0.049332261 -0.22802244
0.046644662 -0.049258463 -0.22801469
0.046646364 -0.049187019 -0.22799103
0.04664785 -0.049113702 -0.22796132
0.046649158 -0.04904243 -0.22792965
0.046649981 -0.048971374 -0.22788802
0.04664975 -0.04890275 -0.22782645
0.046649326 -0.048834212 -0.22776088
0.046650071 -0.048765153 -0.22771928
0.046651751 -0.048691753 -0.22769356
0.04665355 -0.048620261 -0.22767189
0.046655033 -0.048546948 -0.22764218
0.046656638 -0.048475541 -0.22761652
0.046659295 -0.048401706 -0.22761077
0.046661951 -0.048327867 -0.22760502
0.046664413 -0.048254117 -0.22759528
0.04666746 -0.048180103 -0.22759753
0.046670292 -0.048104227 -0.22759373
0.046673439 -0.048030172 -0.22759798
0.04667744 -0.04795377 -0.22761816
0.046681248 -0.047877457 -0.22763434
0.046684179 -0.047801536 -0.22763252
0.046686932 -0.047727656 -0.22762878
0.046689786 -0.047653731 -0.22762704
0.046692912 -0.04757772 -0.22762921
0.046695761 -0.047503795 -0.22762749
0.04669803 -0.047430135 -0.22761375
0.046700317 -0.047358423 -0.22760205
0.046702974 -0.047284588 -0.22759631
0.046705805 -0.047208708 -0.22759253
0.046708364 -0.047134914 -0.22758478
0.046711314 -0.047060944 -0.22758502
0.046714243 -0.046985023 -0.22758323
0.046716336 -0.0469134 -0.22756755
0.046718992 -0.046839565 -0.2275618
0.046722606 -0.046763338 -0.22757399
0.046726391 -0.04668507 -0.22758812
0.046729539 -0.046611015 -0.22759235
0.046732292 -0.046537135 -0.22758861
0.046734851 -0.046463341 -0.22758086
0.04673741 -0.046389546 -0.22757313
0.046739873 -0.046315797 -0.22756338
0.046742138 -0.046242133 -0.22754966
0.046744231 -0.04617051 -0.22753397
0.046746597 -0.046096805 -0.22752222
0.046749253 -0.046022967 -0.2275165
0.046751518 -0.045949303 -0.22750276
0.046753686 -0.045875683 -0.22748703
0.046756245 -0.045801893 -0.22747929
0.046759393 -0.045727834 -0.22748354
0.046762224 -0.045651957 -0.22747973
0.046764217 -0.04558038 -0.22746205
0.046766482 -0.045506716 -0.22744831
0.046769042 -0.045432921 -0.2274406
0.046771038 -0.045361344 -0.22742291
0.046772737 -0.045289896 -0.22739923
0.046774909 -0.045216277 -0.22738351
0.046776801 -0.04514474 -0.22736382
0.046778776 -0.045071207 -0.2273441
0.046781823 -0.0449972 -0.22734636
0.04678458 -0.044923317 -0.22734261
0.046786454 -0.044849828 -0.22732088
0.046788547 -0.044778205 -0.2273052
0.046790227 -0.044704802 -0.22727948
0.04679146 -0.044635527 -0.22724786
0.046793729 -0.044561863 -0.22723413
0.046795722 -0.044490285 -0.22721645
0.046796467 -0.044421226 -0.22717485
0.04679729 -0.04435017 -0.22713321
0.046798326 -0.044280984 -0.2270976
0.046799071 -0.044211924 -0.22705601
0.046800092 -0.044140782 -0.22701836
0.046801616 -0.044071376 -0.22699273
0.046803884 -0.043997712 -0.226979
0.046805877 -0.043926135 -0.22696131
0.046807751 -0.043852642 -0.2269396
0.046809651 -0.043781109 -0.22691992
0.046811644 -0.043709531 -0.22690225
0.046813443 -0.043638039 -0.22688057
0.046815902 -0.04356429 -0.22687083
0.046819419 -0.043488108 -0.22688101
0.046822447 -0.043412142 -0.22688122
0.046824731 -0.04334043 -0.22686952
0.046827391 -0.043266594 -0.2268638
0.046830241 -0.04319267 -0.22686204
0.04683366 -0.043116529 -0.22687024
0.04683698 -0.043040432 -0.22687641
0.046839733 -0.042966552 -0.22687267
0.046841729 -0.042894974 -0.22685499
0.046843994 -0.04282131 -0.22684126
0.046847239 -0.042747214 -0.2268475
0.046851121 -0.042668901 -0.22686362
0.046854168 -0.042594891 -0.22686586
0.046857197 -0.042518925 -0.22686607
0.046860341 -0.04244487 -0.22687031
0.046863467 -0.042368859 -0.2268725
0.046866123 -0.042295024 -0.22686677
0.046869367 -0.042220924 -0.22687301
0.046873055 -0.042142697 -0.22688514
0.046876103 -0.04206869 -0.22688738
0.046878956 -0.041994765 -0.22688565
0.046882179 -0.04191871 -0.22688982
0.046885792 -0.041842483 -0.22690201
0.046889015 -0.041766435 -0.22690621
0.046891574 -0.041692637 -0.22689846
0.046893764 -0.041620973 -0.22688478
0.046896398 -0.041545182 -0.22687697
0.04689974 -0.041471038 -0.22688523
0.046904385 -0.041390426 -0.22691528
0.046908192 -0.04131411 -0.22693145
0.046912275 -0.041235715 -0.22695158
0.046917018 -0.041155055 -0.22698365
0.04692129 -0.041076571 -0.22700776
0.046924613 -0.041000471 -0.22701395
0.046927564 -0.040926505 -0.2270142
0.046930883 -0.040850408 -0.22702038
0.046934962 -0.040772013 -0.22704053
0.046938576 -0.040695783 -0.2270527
0.046941992 -0.040619642 -0.22706088
0.046945781 -0.040541373 -0.22707504
0.04694996 -0.040462933 -0.22709715
0.046954039 -0.040384531 -0.22711727
0.04695775 -0.040308259 -0.22713146
0.046960972 -0.040232211 -0.22713564
0.046964291 -0.040156115 -0.22714183
0.046968862 -0.0400775 -0.22717194
0.04697407 -0.039994672 -0.22721195
0.046978075 -0.039918266 -0.22723213
0.046981473 -0.039840173 -0.22723827
0.046985183 -0.039763901 -0.22725244
0.046989165 -0.039685547 -0.22727057
0.046992779 -0.03960932 -0.22728275
0.046996098 -0.039533224 -0.22728893
0.046999224 -0.039457217 -0.22729114
0.047001977 -0.039383333 -0.2272874
0.047005199 -0.039307281 -0.22729158
0.047008522 -0.039231185 -0.22729778
0.047011741 -0.039155133 -0.22730197
0.047015432 -0.039076909 -0.22731411
0.04701924 -0.039000593 -0.2273303
0.047022931 -0.038922369 -0.22734243
0.047026154 -0.038846318 -0.22734663
0.047029864 -0.038770046 -0.2273608
0.047034215 -0.038689561 -0.22738487
0.047038294 -0.038611162 -0.22740498
0.047041714 -0.038535021 -0.22741318
0.04704636 -0.03845441 -0.22744325
0.047050439 -0.038376011 -0.22746336
0.047054227 -0.038297743 -0.22747749
0.047058776 -0.038217172 -0.22750556
0.04706315 -0.038138643 -0.22753167
0.047066934 -0.038060375 -0.22754581
0.047069691 -0.037986495 -0.22754207
0.047072913 -0.037910439 -0.22754626
0.047077265 -0.037829958 -0.22757033
0.047082204 -0.037749212 -0.22760639
0.04708761 -0.037666295 -0.22765037
0.047095004 -0.037576601 -0.22773018
0.047101077 -0.037491426 -0.22778611
0.047107436 -0.037406117 -0.22784802
0.047116451 -0.037311777 -0.2279577
0.047128312 -0.037208311 -0.22811911
0.047135904 -0.037118532 -0.22820288
0.047141112 -0.0370357 -0.22824289
0.047149953 -0.036943398 -0.22835061
0.047156956 -0.03685388 -0.22842242
0.047164742 -0.036764011 -0.22851022
0.047172997 -0.036671974 -0.22860594
0.04718665 -0.036561817 -0.22879916
0.04720052 -0.03645353 -0.22899842
0.04720924 -0.036359318 -0.22910208
0.047216907 -0.036267541 -0.22918583
0.047225922 -0.036173195 -0.22929549
0.047243945 -0.036049314 -0.2295683
0.0472521 -0.035957314 -0.22966205
0.047257606 -0.035874359 -0.22970805
0.047259577 -0.035800822 -0.22968832
0.047259465 -0.03573411 -0.22963078
0.04725945 -0.035667356 -0.22957525
0.047260098 -0.035598341 -0.22953165
0.045314282 -0.084382221 -0.23416972
0.045317098 -0.084304385 -0.23416388
0.045319796 -0.084224641 -0.234154
0.045322414 -0.084146895 -0.23414418
0.045325406 -0.084067017 -0.23414028
0.045327637 -0.083989449 -0.23412246
0.045330118 -0.083907835 -0.23410654
0.045332134 -0.083828397 -0.23408267
0.045334224 -0.083746962 -0.23405877
0.045336843 -0.083669215 -0.23404893
0.045338955 -0.083589733 -0.23402709
0.045340929 -0.083506383 -0.23399913
0.045343138 -0.083426856 -0.23397925
0.045346074 -0.083350934 -0.23397747
0.045349061 -0.083271056 -0.23397358
0.045351174 -0.083191574 -0.23395172
0.045353286 -0.083112091 -0.23392986
0.045355693 -0.083032474 -0.23391399
0.045356885 -0.082949474 -0.23387006
0.045357861 -0.082864612 -0.23382008
0.045359876 -0.082785174 -0.23379622
0.045362279 -0.082705557 -0.23378035
0.045364276 -0.08262416 -0.23375446
0.045365781 -0.082542986 -0.23371857
0.045368399 -0.082465239 -0.23370874
0.045371216 -0.082387403 -0.2337029
0.045373015 -0.082306102 -0.23367301
0.045374814 -0.082224794 -0.2336431
0.04537724 -0.082147136 -0.23362927
0.045379546 -0.082067564 -0.2336114
0.045382243 -0.081987821 -0.23360153
0.045384765 -0.081910118 -0.23358969
0.045386858 -0.081828684 -0.23356578
0.045388874 -0.081749238 -0.23354194
0.045391276 -0.081669629 -0.23352605
0.045393799 -0.081591919 -0.23351422
0.045396205 -0.08151231 -0.23349836
0.045398433 -0.081434742 -0.23348053
0.045400839 -0.081355125 -0.23346466
0.045403458 -0.081277378 -0.23345482
0.045406569 -0.081199415 -0.23345499
0.045409694 -0.081123404 -0.23345718
0.045412805 -0.081045441 -0.23345733
0.045415521 -0.08096765 -0.2334495
0.045418024 -0.080887996 -0.23343563
0.045420762 -0.080812156 -0.23342985
0.045424066 -0.080734111 -0.23343399
0.045427486 -0.080657974 -0.23344217
0.045430519 -0.080582008 -0.23344237
0.045432825 -0.080502436 -0.2334245
0.04543525 -0.080424771 -0.23341067
0.045438457 -0.080346771 -0.23341283
0.045441367 -0.08026889 -0.23340899
0.045444302 -0.080192968 -0.23340718
0.045447409 -0.080115005 -0.23340735
0.045450538 -0.080038995 -0.23340954
0.045453958 -0.079962857 -0.23341772
0.045457285 -0.079886764 -0.23342392
0.045460097 -0.079808928 -0.23341808
0.045462698 -0.079729229 -0.2334062
0.04546522 -0.07965152 -0.23339437
0.045468133 -0.079573646 -0.23339054
0.045471046 -0.079495773 -0.2333867
0.045473784 -0.079419941 -0.2333809
0.045476679 -0.079340108 -0.23337501
0.04547932 -0.079264313 -0.23336723
0.045482017 -0.079184569 -0.23335734
0.045484833 -0.079106733 -0.2333515
0.045487765 -0.079030812 -0.23334971
0.045491185 -0.078954674 -0.23335791
0.045494802 -0.078878447 -0.23337008
0.045498006 -0.07880044 -0.23337224
0.045500629 -0.078722693 -0.23336241
0.045503758 -0.07864669 -0.2333646
0.045506671 -0.078568809 -0.23336077
0.045509484 -0.078490973 -0.23335493
0.04551281 -0.07841488 -0.23336111
0.045515623 -0.078337044 -0.23335528
0.045518342 -0.078259259 -0.23334745
0.045521762 -0.078183115 -0.23335563
0.045525186 -0.078106977 -0.23336381
0.045528412 -0.078030929 -0.23336801
0.045531422 -0.077953011 -0.23336616
0.045534041 -0.077875257 -0.23335634
0.045537345 -0.077797212 -0.23336047
0.045540571 -0.077721156 -0.23336467
0.045543388 -0.07764332 -0.23335883
0.045546126 -0.077567488 -0.23335305
0.045549545 -0.07749135 -0.23336124
0.045552947 -0.077413261 -0.23336738
0.045555685 -0.077337421 -0.2333616
0.045558598 -0.077259541 -0.23335774
0.045561902 -0.077181496 -0.2333619
0.045565322 -0.077105351 -0.2333701
0.045568842 -0.077029169 -0.23338026
0.045571968 -0.076953158 -0.23338246
0.045574881 -0.076875284 -0.23337863
0.045577601 -0.076797493 -0.23337078
0.045580123 -0.076719791 -0.23335896
0.045582842 -0.076642007 -0.23335113
0.045585949 -0.076564036 -0.23335129
0.045588981 -0.07648807 -0.23335148
0.045591697 -0.076410286 -0.23334365
0.045594707 -0.076332361 -0.23334181
0.045597933 -0.076256312 -0.23334599
0.045601141 -0.076178305 -0.23334815
0.045604561 -0.076102167 -0.23335633
0.045608081 -0.076025985 -0.23336652
0.045611307 -0.07594993 -0.23337072
0.045614317 -0.075872011 -0.23336887
0.045617133 -0.075794175 -0.23336303
0.04561995 -0.075716347 -0.23335719
0.045622882 -0.075640425 -0.2333554
0.045626085 -0.075562418 -0.23335755
0.045629214 -0.075486407 -0.23335975
0.045632325 -0.075408444 -0.2333599
0.045635354 -0.075332478 -0.23336011
0.045638461 -0.075254515 -0.23336026
0.04564159 -0.075178504 -0.23336245
0.045644894 -0.075100452 -0.23336659
0.045648023 -0.075024441 -0.23336878
0.04565113 -0.074946478 -0.23336896
0.045654066 -0.074870557 -0.23336716
0.045656975 -0.074792683 -0.2333633
0.045659889 -0.074714802 -0.23335949
0.045662608 -0.074637018 -0.23335163
0.045665324 -0.074559227 -0.23334381
0.04566855 -0.074483171 -0.23334798
0.045671582 -0.074407205 -0.23334819
0.045674399 -0.074329376 -0.23334235
0.045677505 -0.074251413 -0.2333425
0.045680441 -0.074175492 -0.23334071
0.045683354 -0.074097611 -0.23333687
0.045686167 -0.074019782 -0.23333102
0.045689296 -0.073943771 -0.23333323
0.04569272 -0.073867634 -0.23334143
0.045695923 -0.073789626 -0.23334357
0.045698643 -0.073711835 -0.23333573
0.045701381 -0.073635995 -0.23332995
0.045704879 -0.073557861 -0.23333809
0.045708202 -0.073481768 -0.23334429
0.045711115 -0.073403887 -0.23334044
0.045714244 -0.073327877 -0.23334263
0.045717664 -0.073251739 -0.23335081
0.045721162 -0.073173605 -0.23335898
0.045724291 -0.073097594 -0.23336115
0.045727614 -0.073021501 -0.23336735
0.045731038 -0.072945356 -0.23337553
0.04573385 -0.072867528 -0.23336971
0.04573657 -0.072789736 -0.23336187
0.045739796 -0.072713681 -0.23336606
0.045743488 -0.072635457 -0.2333782
0.045746911 -0.072559319 -0.2333864
0.045750137 -0.072483264 -0.23339057
0.045753438 -0.072405219 -0.23339473
0.045757055 -0.072328985 -0.23340692
0.045760673 -0.072252765 -0.23341909
0.045763802 -0.072176754 -0.2334213
0.045766614 -0.072098918 -0.23341545
0.045769628 -0.072021 -0.23341361
0.045772266 -0.071945205 -0.23340583
0.045775183 -0.071867332 -0.23340198
0.045778289 -0.071789369 -0.23340213
0.045781318 -0.071713403 -0.23340234
0.045784622 -0.071635351 -0.23340648
0.045788258 -0.071561076 -0.23342071
0.045791857 -0.071482897 -0.23343085
0.045794886 -0.071406931 -0.23343104
0.045798015 -0.071330927 -0.23343325
0.045801319 -0.071252875 -0.2334374
0.045803938 -0.071175128 -0.23342755
0.045806266 -0.071097508 -0.23341174
0.0458083 -0.071020022 -0.23338991
0.045810726 -0.070942372 -0.2333761
0.045813151 -0.070864707 -0.23336227
0.045815166 -0.070785269 -0.23333842
0.045817297 -0.070707738 -0.2333186
0.045819625 -0.070630126 -0.23330277
0.04582205 -0.070552468 -0.23328894
0.045824964 -0.070474587 -0.2332851
0.045827605 -0.0703988 -0.23327732
0.045829911 -0.070319228 -0.23325944
0.045832142 -0.070241652 -0.23324162
0.04583488 -0.07016582 -0.23323584
0.045837499 -0.070088074 -0.233226
0.04583963 -0.070010543 -0.23320618
0.045841742 -0.06993106 -0.23318431
0.04584378 -0.069853574 -0.23316249
0.045845814 -0.069776088 -0.23314069
0.045848336 -0.069698386 -0.23312885
0.045851856 -0.069622204 -0.23313904
0.045855667 -0.069545895 -0.23315522
0.045859478 -0.069469579 -0.2331714
0.045863308 -0.069395222 -0.23318961
0.045867492 -0.069316775 -0.23321173
0.045871519 -0.069242328 -0.23323396
0.045875426 -0.069165975 -0.23325214
0.045879725 -0.069089442 -0.2332783
0.045884438 -0.069014691 -0.23331448
0.045889128 -0.068937987 -0.23334864
0.04589403 -0.068863153 -0.23338884
0.04589913 -0.06878823 -0.23343302
0.045904137 -0.068713345 -0.23347521
0.045909628 -0.06863825 -0.23352739
0.045915313 -0.068563059 -0.23358354
0.045921896 -0.06848944 -0.23365974
0.045928657 -0.068413779 -0.23373787
0.045934733 -0.068338417 -0.23380202
0.045940828 -0.068265013 -0.23386824
0.045947101 -0.068189561 -0.23393637
0.045952592 -0.068114467 -0.23398855
0.045957476 -0.068037674 -0.2340267
0.045962479 -0.067962795 -0.23406889
0.045969531 -0.067887001 -0.234153
0.045977578 -0.067812726 -0.23425916
0.04598514 -0.067738667 -0.23435533
0.045992505 -0.067664698 -0.23444748
0.046000846 -0.067590289 -0.23455963
0.046007507 -0.067514673 -0.23463576
0.046015263 -0.067440525 -0.23473591
0.046022803 -0.067364514 -0.23483002
0.046028487 -0.06728933 -0.2348862
0.046034351 -0.067212105 -0.23494431
0.046039041 -0.067135394 -0.23497847
0.046044119 -0.067058519 -0.23502059
0.046052754 -0.066983983 -0.23513871
0.04606 -0.066908099 -0.23522684
0.046066858 -0.066832393 -0.23530698
0.046073813 -0.066756643 -0.23538911
0.046082057 -0.066682279 -0.23549925
0.046089496 -0.066606313 -0.23559137
0.046096139 -0.066528738 -0.23566546
0.046103973 -0.066452593 -0.23576558
0.046111315 -0.066376671 -0.23585568
0.046116885 -0.066299573 -0.23590781
0.046118509 -0.066220306 -0.23587596
0.046117675 -0.066140175 -0.23579213
0.046119221 -0.066062905 -0.23576035
0.046122424 -0.065984897 -0.23576248
0.046126023 -0.065906718 -0.23577264
0.046131685 -0.065829583 -0.23582676
0.046144128 -0.065753348 -0.23602277
0.046158753 -0.065680064 -0.23626681
0.046176523 -0.065607354 -0.2365768
0.046183068 -0.065529823 -0.2366489
0.046190899 -0.065453678 -0.23674899
0.046198223 -0.065375797 -0.23683709
0.046205059 -0.065298133 -0.23691517
0.046211213 -0.065220781 -0.23697928
0.046215981 -0.065142073 -0.23701337
0.046221353 -0.065065064 -0.23706152
0.046229165 -0.064986967 -0.23715958
0.046236783 -0.064908959 -0.23725364
0.046242546 -0.064831778 -0.23730975
0.046249557 -0.064752072 -0.2373898
0.046257488 -0.06467589 -0.23749191
0.046265397 -0.064597748 -0.23759195
0.046272818 -0.064519823 -0.23768203
0.046278857 -0.064440556 -0.2377421
0.04628735 -0.064362153 -0.23785415
0.046296354 -0.064285487 -0.23797821
0.046306118 -0.064206526 -0.23811622
0.046318147 -0.064128511 -0.2383022
0.046337143 -0.064051323 -0.23863406
0.046346128 -0.063972704 -0.23875609
0.046354622 -0.063894302 -0.23886813
0.046359759 -0.06381347 -0.23890817
0.046362944 -0.063733503 -0.23890829
0.046365663 -0.063655719 -0.23890045
0.046368927 -0.063573755 -0.23890051
0.046367504 -0.063493885 -0.2388047
0.046365205 -0.063414402 -0.23869093
0.046366926 -0.063335098 -0.23866108
0.046367966 -0.063256092 -0.23861724
0.046366252 -0.063176349 -0.23851544
0.046364244 -0.063096739 -0.23840767
0.046363994 -0.063016348 -0.23833582
0.046364933 -0.062937386 -0.23828998
0.04636734 -0.062857769 -0.23827413
0.04637111 -0.062777549 -0.2382862
0.046376269 -0.06269867 -0.23832831
0.046382107 -0.062619492 -0.23838437
0.046392925 -0.062538087 -0.2385423
0.046403177 -0.062458906 -0.2386903
0.046412043 -0.062378377 -0.23880827
0.046418078 -0.06229911 -0.23886836
0.046422042 -0.0622188 -0.23888442
0.046425328 -0.062138796 -0.23888654
0.046428628 -0.062060744 -0.23889068
0.046431795 -0.061978828 -0.23888874
0.046434902 -0.061900865 -0.23888889
0.046437677 -0.061819121 -0.23887897
0.046440102 -0.061741464 -0.23886514
0.04644319 -0.061661545 -0.23886324
0.046446864 -0.061581366 -0.23887333
0.046450146 -0.061501361 -0.23887545
0.04645304 -0.061421528 -0.23886955
0.046455931 -0.061341699 -0.23886368
0.046459213 -0.061261695 -0.23886576
0.046462204 -0.061181821 -0.23886189
0.046465117 -0.061103944 -0.23885804
0.046468478 -0.061021939 -0.2388601
0.046471488 -0.060944021 -0.23885825
0.04647477 -0.060864016 -0.23886037
0.04647854 -0.060783792 -0.23887244
0.046482019 -0.060703702 -0.23887855
0.046484523 -0.060624044 -0.23886468
0.046487123 -0.060544342 -0.2388528
0.046490598 -0.060464252 -0.23885889
0.046494175 -0.060384117 -0.23886698
0.046497285 -0.06030615 -0.23886713
0.046500646 -0.060224149 -0.23886919
0.046503656 -0.060146227 -0.23886734
0.046506546 -0.060066398 -0.23886147
0.046509441 -0.059986565 -0.23885557
0.046512138 -0.059906822 -0.23884571
0.046515126 -0.059826948 -0.2388418
0.046518408 -0.059746943 -0.23884392
0.046521496 -0.059667025 -0.23884203
0.046524782 -0.05958702 -0.23884413
0.046528161 -0.059506971 -0.23884822
0.046531249 -0.059427053 -0.23884633
0.04653424 -0.059347179 -0.23884246
0.046536859 -0.059269432 -0.23883262
0.046539556 -0.059189688 -0.23882273
0.046542838 -0.059109684 -0.23882483
0.046546221 -0.059029635 -0.23882894
0.046549112 -0.058949806 -0.23882306
0.0465522 -0.058869887 -0.23882116
0.046555482 -0.058789883 -0.23882326
0.046558864 -0.058709834 -0.23882736
0.046562344 -0.05862974 -0.23883346
0.046565138 -0.058549955 -0.23882559
0.046567954 -0.058472119 -0.23881975
0.046571214 -0.058390163 -0.23881981
0.046574421 -0.058312155 -0.23882195
0.046577409 -0.058232281 -0.23881805
0.046580695 -0.058152273 -0.23882017
0.046584073 -0.058072228 -0.23882426
0.046587355 -0.05799222 -0.23882636
0.046590347 -0.057912346 -0.23882249
0.046593532 -0.057832386 -0.23882258
0.046596717 -0.057752423 -0.2388227
0.046599612 -0.057672594 -0.23881681
0.046602894 -0.057592586 -0.23881891
0.046606369 -0.057512496 -0.23882501
0.046609458 -0.057432577 -0.23882312
0.046612449 -0.057352703 -0.23881923
0.046615168 -0.057274915 -0.2388114
0.046618059 -0.057195082 -0.2388055
0.046621051 -0.057115208 -0.23880161
0.046624236 -0.057035245 -0.23880172
0.046627715 -0.056955155 -0.23880783
0.0466308 -0.056875236 -0.23880592
0.046633791 -0.056795362 -0.23880205
0.046637267 -0.056715269 -0.23880814
0.046640649 -0.056635223 -0.23881224
0.046643738 -0.056555305 -0.23881035
0.046646729 -0.056475431 -0.23880646
0.046649717 -0.056395553 -0.23880255
0.046652805 -0.056315638 -0.23880067
0.04665599 -0.056235675 -0.23880079
0.046659175 -0.056155711 -0.23880088
0.04666248 -0.056077663 -0.23880504
0.046665449 -0.055995833 -0.2387991
0.046668068 -0.055918086 -0.23878928
0.04667145 -0.055838041 -0.23879337
0.046674635 -0.055758078 -0.23879348
0.04667782 -0.055678114 -0.23879358
0.046681006 -0.055598155 -0.2387937
0.046683997 -0.055518281 -0.2387898
0.046687279 -0.055438276 -0.23879191
0.046690658 -0.055358227 -0.238796
0.04669404 -0.055278178 -0.23880011
0.046697028 -0.055198304 -0.2387962
0.046699923 -0.055118471 -0.23879033
0.046703011 -0.055038556 -0.23878843
0.046706587 -0.054958418 -0.23879653
0.04671026 -0.054878242 -0.23880664
0.046713248 -0.054798365 -0.23880273
0.046716142 -0.054718535 -0.23879686
0.046719231 -0.054638617 -0.23879495
0.046722416 -0.054558657 -0.23879507
0.046725307 -0.054478824 -0.23878917
0.046728004 -0.054399081 -0.23877931
0.046730917 -0.054321203 -0.23877546
0.046733983 -0.054239333 -0.23877153
0.046737287 -0.05416128 -0.23877567
0.04674067 -0.054081231 -0.23877977
0.046743833 -0.053999316 -0.23877782
0.046747137 -0.053921267 -0.23878199
0.046750497 -0.053839263 -0.23878404
0.046753019 -0.05376156 -0.2387722
0.046756011 -0.053681687 -0.23876831
0.046759486 -0.053601593 -0.23877442
0.046762675 -0.053521633 -0.23877452
0.046765469 -0.053441845 -0.23876664
0.046768751 -0.053361841 -0.23876874
0.046772327 -0.053281702 -0.23877683
0.046775609 -0.053201698 -0.23877893
0.046778698 -0.053121783 -0.23877704
0.046781298 -0.05304208 -0.23876518
0.046784092 -0.052962292 -0.23875728
0.046787474 -0.052882247 -0.2387614
0.046791341 -0.052801978 -0.23877546
0.046795189 -0.052719757 -0.23878752
0.046350092 -0.053224459 -0.22993156
0.046341807 -0.053163357 -0.22970831
0.046339042 -0.053095862 -0.22959483
0.046337139 -0.053026024 -0.22949725
0.046330124 -0.052964352 -0.22929998
0.04632543 -0.052899685 -0.2291486
0.046325184 -0.052829109 -0.22908497
0.046325404 -0.052756358 -0.2290293
0.046326332 -0.052685257 -0.22898966
0.046328016 -0.052611858 -0.22896394
0.046329506 -0.05253854 -0.22893423
0.04633119 -0.052465137 -0.22890851
0.046332877 -0.052391738 -0.22888279
0.046333976 -0.052318595 -0.22884509
0.046334706 -0.052247584 -0.22880146
0.0463361 -0.052174311 -0.22876975
0.046337608 -0.052102949 -0.22874209
0.046340346 -0.052027114 -0.22873628
0.046343692 -0.051952973 -0.22874452
0.04634643 -0.051877137 -0.22873874
0.046348896 -0.051803388 -0.22872901
0.046352021 -0.051727377 -0.2287312
0.046355758 -0.051653061 -0.22874743
0.046359081 -0.051576965 -0.22875361
0.046362501 -0.051500827 -0.22876179
0.046366412 -0.05142447 -0.22877997
0.046370614 -0.051347982 -0.22880414
0.046374913 -0.05127145 -0.22883031
0.046379484 -0.051192835 -0.22886042
0.046383295 -0.051116522 -0.22887659
0.046386328 -0.051040556 -0.2288768
0.046388425 -0.050968934 -0.22886112
0.046389718 -0.050895706 -0.22882742
0.046390817 -0.050822563 -0.22878972
0.046392035 -0.050751336 -0.22875606
0.046393331 -0.050678104 -0.22872236
0.046394646 -0.050606832 -0.2286907
0.04639633 -0.050533429 -0.22866496
0.046397548 -0.050462201 -0.22863132
0.046398472 -0.0503911 -0.22859168
0.046399474 -0.050318003 -0.22855198
0.046400011 -0.050247077 -0.22850434
0.046400934 -0.050175976 -0.22846469
0.046402719 -0.050102532 -0.22844097
0.046404988 -0.050028868 -0.22842725
0.046406206 -0.049957637 -0.22839358
0.046407133 -0.04988654 -0.22835395
0.04640872 -0.049813181 -0.22832623
0.046410598 -0.049739689 -0.22830451
0.046411917 -0.049668416 -0.22827286
0.046412643 -0.049597401 -0.22822921
0.046412982 -0.049526565 -0.22817758
0.046413049 -0.049457811 -0.228122
0.046413977 -0.04938671 -0.22808236
0.046416245 -0.049313046 -0.22806862
0.046419006 -0.049239166 -0.22806486
0.046420984 -0.049165633 -0.22804514
0.046422299 -0.049094357 -0.22801349
0.046423789 -0.049021043 -0.22798377
0.046424441 -0.048952028 -0.22794019
0.046423532 -0.04888371 -0.22786462
0.046423111 -0.048815176 -0.22779909
0.046424232 -0.048743986 -0.22776341
0.046425842 -0.048672583 -0.22773775
0.046427917 -0.048599005 -0.22772002
0.046429913 -0.048527427 -0.22770235
0.046431988 -0.048453853 -0.22768462
0.046434455 -0.048380103 -0.22767487
0.046436727 -0.048306439 -0.22766115
0.046439018 -0.048234731 -0.22764945
0.046441659 -0.048158936 -0.22764167
0.046444707 -0.04808493 -0.22764391
0.046448912 -0.048008438 -0.22766808
0.046453092 -0.047929998 -0.22769019
0.046456534 -0.047855813 -0.22770044
0.046459857 -0.047779717 -0.22770664
0.046462324 -0.047705967 -0.2276969
0.046464495 -0.047632348 -0.22768116
0.046467546 -0.047558337 -0.2276834
0.046470404 -0.047484413 -0.22768167
0.046472948 -0.047408663 -0.22767188
0.046475336 -0.04733691 -0.22766218
0.046477996 -0.047263071 -0.22765642
0.046481125 -0.047187064 -0.22765863
0.046484448 -0.047110967 -0.22766483
0.046487011 -0.047037177 -0.22765708
0.04648938 -0.046963468 -0.22764535
0.046492334 -0.046889499 -0.22764561
0.046495561 -0.046813447 -0.22764978
0.046498708 -0.046739392 -0.22765404
0.046502132 -0.046663254 -0.22766222
0.046505552 -0.046587113 -0.2276704
0.046508506 -0.046513148 -0.22767065
0.046510875 -0.046439439 -0.22765893
0.046513241 -0.04636573 -0.22764719
0.046515416 -0.046292111 -0.22763145
0.046517879 -0.046218362 -0.22762172
0.046520445 -0.046144567 -0.22761399
0.046522811 -0.046070863 -0.22760224
0.046525203 -0.04599911 -0.22759256
0.046527669 -0.04592536 -0.22758281
0.046530135 -0.045851611 -0.22757308
0.04653221 -0.045778032 -0.22755535
0.046534773 -0.045704238 -0.22754762
0.046538193 -0.045628101 -0.22755581
0.046541341 -0.045554046 -0.22756004
0.046543125 -0.045480601 -0.22753632
0.046544168 -0.045411412 -0.22750071
0.046545971 -0.04533992 -0.22747904
0.046548143 -0.0452663 -0.22746332
0.046550121 -0.045192767 -0.22744359
0.046552122 -0.045121189 -0.2274259
0.046554022 -0.045049652 -0.22740623
0.046556681 -0.044975817 -0.22740048
0.046559907 -0.044899762 -0.22740468
0.04656218 -0.044826102 -0.22739094
0.046563886 -0.044754654 -0.22736728
0.046565689 -0.044683162 -0.22734562
0.046568055 -0.044609457 -0.22733387
0.046570152 -0.044537835 -0.2273182
0.046571933 -0.044464387 -0.22729447
0.046573173 -0.044395112 -0.22726285
0.04657324 -0.044326358 -0.22720729
0.046573423 -0.044259515 -0.22715575
0.046574175 -0.044190459 -0.22711414
0.046575297 -0.044119269 -0.2270785
0.046577197 -0.044047736 -0.22705883
0.046579272 -0.043974161 -0.2270411
0.046581738 -0.043900408 -0.22703135
0.046583835 -0.043828785 -0.22701567
0.046585638 -0.043757297 -0.22699401
0.046587907 -0.043683633 -0.22698027
0.046589904 -0.043612055 -0.2269626
0.046591513 -0.043540649 -0.22693692
0.04659351 -0.043469071 -0.22691923
0.046596739 -0.04339302 -0.22692344
0.046600159 -0.043316878 -0.22693163
0.046603113 -0.043242909 -0.22693187
0.046605773 -0.043169074 -0.22692612
0.046608631 -0.043095149 -0.22692437
0.046611659 -0.043019187 -0.22692458
0.04661442 -0.042945303 -0.22692083
0.04661718 -0.042871423 -0.22691709
0.046620131 -0.042797454 -0.22691733
0.046622891 -0.042723574 -0.2269136
0.046626117 -0.042647522 -0.22691777
0.046629734 -0.042571299 -0.22692996
0.04663296 -0.042495243 -0.22693416
0.04663562 -0.042421408 -0.22692841
0.046638377 -0.042347528 -0.22692466
0.046641704 -0.042271428 -0.22693086
0.046644948 -0.042197332 -0.22693712
0.046648543 -0.042119153 -0.22694723
0.046652257 -0.042042881 -0.22696142
0.046655312 -0.041968867 -0.22696367
0.046658438 -0.04189286 -0.22696587
0.046661489 -0.04181885 -0.22696811
0.046664327 -0.041742973 -0.22696432
0.046667084 -0.041669089 -0.22696057
0.046670135 -0.041595079 -0.2269628
0.04667297 -0.041519199 -0.22695902
0.046675924 -0.041445233 -0.22695926
0.046680108 -0.041366793 -0.2269814
0.046684854 -0.041286133 -0.22701344
0.046688762 -0.041209772 -0.22703162
0.04669312 -0.041129291 -0.2270557
0.046697125 -0.041052893 -0.22707587
0.04670082 -0.040974669 -0.227088
0.046703674 -0.040900744 -0.22708625
0.046706725 -0.040826734 -0.22708851
0.046710517 -0.040748462 -0.22710262
0.046714038 -0.04067228 -0.22711281
0.046717826 -0.040594012 -0.22712696
0.046721913 -0.040515617 -0.22714707
0.046726014 -0.04043917 -0.22716925
0.04672971 -0.040360946 -0.22718138
0.046733521 -0.040284634 -0.22719756
0.046737116 -0.040206451 -0.22720769
0.046740443 -0.040130354 -0.22721389
0.046745479 -0.040049568 -0.22725195
0.046750911 -0.039968606 -0.22729798
0.046754993 -0.039890207 -0.22731811
0.046758588 -0.039812028 -0.22732824
0.046761639 -0.039738014 -0.22733048
0.046764866 -0.039661963 -0.22733468
0.046768464 -0.03958378 -0.22734483
0.046771612 -0.039509729 -0.22734907
0.046774447 -0.039433848 -0.22734527
0.046777576 -0.039357841 -0.22734746
0.046780996 -0.0392817 -0.22735566
0.046784125 -0.039205693 -0.22735786
0.046787176 -0.039131679 -0.2273601
0.046790674 -0.039053544 -0.22736824
0.046794489 -0.038977228 -0.22738442
0.046798669 -0.038898788 -0.22740653
0.046802655 -0.038820431 -0.22742467
0.046806075 -0.038744293 -0.22743286
0.04680977 -0.03866607 -0.22744499
0.046813563 -0.038587801 -0.22745913
0.046816982 -0.038511656 -0.2274673
0.046820402 -0.038435519 -0.22747549
0.046824954 -0.038354948 -0.22750357
0.046829507 -0.038274378 -0.22753164
0.046833687 -0.038195938 -0.22755376
0.046838064 -0.038117409 -0.22757988
0.046842322 -0.038036965 -0.22760195
0.046845842 -0.037960783 -0.22761214
0.046849068 -0.037884735 -0.22761633
0.046853054 -0.037806377 -0.22763446
0.046857703 -0.037725762 -0.22766452
0.046862353 -0.037645154 -0.22769457
0.046867371 -0.037562408 -0.2277306
0.046873737 -0.037477102 -0.22779252
0.046888933 -0.037364297 -0.22801563
0.046895199 -0.037279036 -0.22807556
0.046903726 -0.037184913 -0.22817524
0.046912566 -0.037092611 -0.22828296
0.046918813 -0.037005395 -0.22834083
0.046925645 -0.036917917 -0.22841069
0.046933997 -0.036825836 -0.22850843
0.046940636 -0.036738444 -0.22857431
0.046945944 -0.036655571 -0.2286163
0.046968158 -0.036520004 -0.22896677
0.04697926 -0.036418844 -0.22911423
0.046986092 -0.036331363 -0.22918409
0.046990719 -0.036248796 -0.22921211
0.046995468 -0.036168139 -0.22924417
0.047021266 -0.036019191 -0.22965828
0.047027823 -0.0359338 -0.2297242
0.047037113 -0.035837375 -0.22983781
0.047041077 -0.035757065 -0.22985388
0.047044206 -0.035681054 -0.22985607
0.047046848 -0.035605267 -0.2298483
0.045070596 -0.084398217 -0.23435321
0.045072183 -0.084315047 -0.23431727
0.045073476 -0.084232002 -0.23427534
0.045075085 -0.084150784 -0.23424146
0.045076456 -0.084065735 -0.23419948
0.045077968 -0.083984561 -0.23416358
0.045079965 -0.083903171 -0.23413768
0.045082081 -0.083823688 -0.23411582
0.045083884 -0.08374238 -0.23408593
0.045086075 -0.083660901 -0.23406401
0.0450886 -0.083583191 -0.23405218
0.045090891 -0.083501667 -0.23403227
0.045092911 -0.083422229 -0.23400842
0.04509522 -0.083342656 -0.23399055
0.045097608 -0.083261088 -0.23397264
0.045099627 -0.083181649 -0.23394877
0.045101818 -0.08310017 -0.23392686
0.045103837 -0.083020732 -0.23390299
0.04510564 -0.082939424 -0.2338731
0.04510754 -0.082858071 -0.2338452
0.045109343 -0.08277677 -0.23381531
0.045110755 -0.082695633 -0.23377743
0.045113165 -0.082616016 -0.23376155
0.045115884 -0.082538232 -0.23375371
0.045118097 -0.082458705 -0.23373386
0.045120411 -0.082379133 -0.23371598
0.045123227 -0.082301304 -0.23371014
0.045125421 -0.082219824 -0.23368824
0.04512734 -0.082140423 -0.2336624
0.04512975 -0.082060814 -0.23364651
0.045132469 -0.081983022 -0.23363867
0.045134995 -0.08190532 -0.23362684
0.045136798 -0.081824012 -0.23359695
0.045138717 -0.081744611 -0.23357108
0.045142122 -0.081666522 -0.23357724
0.045145664 -0.081592292 -0.23358947
0.045148578 -0.081514418 -0.23358563
0.045151301 -0.081436627 -0.23357779
0.045153923 -0.08135888 -0.23356795
0.045156721 -0.081279092 -0.23356009
0.045159053 -0.081201479 -0.23354426
0.045162357 -0.081123427 -0.2335484
0.045165878 -0.081047244 -0.2335586
0.045168813 -0.080971316 -0.23355679
0.045171537 -0.080893531 -0.23354897
0.045174137 -0.080813833 -0.23353708
0.04517686 -0.080736041 -0.23352925
0.045179676 -0.080658212 -0.2335234
0.045182399 -0.080580421 -0.23351559
0.045185022 -0.080502674 -0.23350574
0.045187935 -0.080424801 -0.2335019
0.045190852 -0.08034692 -0.23349807
0.045193885 -0.080270953 -0.23349826
0.045197211 -0.080194861 -0.23350446
0.045200109 -0.080115028 -0.23349857
0.045202438 -0.080037415 -0.23348275
0.045204435 -0.079956017 -0.23345685
0.04520696 -0.079878315 -0.23344502
0.045210384 -0.07980217 -0.23345321
0.045214102 -0.079725906 -0.2334674
0.04521694 -0.07965003 -0.23346359
0.045219641 -0.079570279 -0.23345372
0.045222457 -0.07949245 -0.23344788
0.045225102 -0.079416662 -0.23344009
0.045228019 -0.079338782 -0.23343626
0.04523113 -0.079260819 -0.23343641
0.045234241 -0.079182856 -0.23343655
0.04523778 -0.079108626 -0.23344879
0.045241401 -0.079032399 -0.23346096
0.045244217 -0.07895457 -0.23345514
0.045246743 -0.078876868 -0.23344332
0.045249563 -0.078799032 -0.23343746
0.04525277 -0.078721024 -0.23343962
0.045255512 -0.078645192 -0.23343383
0.045257919 -0.078565575 -0.23341796
0.045261029 -0.078487612 -0.23341811
0.045264959 -0.078413211 -0.23343834
0.045268189 -0.078337163 -0.23344252
0.045271009 -0.078259327 -0.23343667
0.045274507 -0.078181185 -0.23344484
0.045277953 -0.078106999 -0.23345506
0.045280866 -0.078029126 -0.23345122
0.045283686 -0.077951297 -0.23344538
0.045286603 -0.077873416 -0.23344153
0.045289323 -0.077795625 -0.23343371
0.04529224 -0.077717751 -0.23342988
0.045295566 -0.077641658 -0.23343605
0.045299184 -0.077565432 -0.23344825
0.045302704 -0.077489242 -0.23345843
0.04530552 -0.077411413 -0.23345259
0.045308243 -0.077333622 -0.23344475
0.045311257 -0.077255704 -0.23344292
0.045314603 -0.077181563 -0.23345116
0.045317907 -0.07710351 -0.2334553
0.045320943 -0.077027544 -0.23345551
0.045324247 -0.076949492 -0.23345965
0.045327261 -0.076871574 -0.2334578
0.0453301 -0.076795697 -0.23345402
0.045332916 -0.076717868 -0.23344818
0.045335639 -0.076640077 -0.23344034
0.045339063 -0.076563939 -0.23344854
0.04534268 -0.076487713 -0.23346072
0.045345791 -0.07640975 -0.23346087
0.04534851 -0.076331958 -0.23345304
0.04535133 -0.076254122 -0.23344719
0.045353662 -0.076176509 -0.23343137
0.045356382 -0.076098718 -0.23342355
0.045359708 -0.076022625 -0.23342973
0.045363326 -0.075946398 -0.23344192
0.045367043 -0.075870126 -0.2334561
0.04537027 -0.075794071 -0.23346028
0.045373186 -0.075716197 -0.23345646
0.045376394 -0.07563819 -0.23345861
0.04537943 -0.075562224 -0.2334588
0.045382541 -0.075484261 -0.23345897
0.04538567 -0.07540825 -0.23346116
0.045388877 -0.075330243 -0.2334633
0.045391697 -0.075252414 -0.23345748
0.045394614 -0.075174533 -0.23345363
0.045397744 -0.075098529 -0.23345584
0.045401361 -0.075022303 -0.23346801
0.045404881 -0.07494612 -0.23347819
0.045407798 -0.074868239 -0.23347436
0.045410227 -0.074790582 -0.23346053
0.045412537 -0.07471101 -0.23344266
0.045415159 -0.074633263 -0.23343283
0.045417998 -0.074557386 -0.23342904
0.045421403 -0.074479297 -0.23343518
0.04542473 -0.074403197 -0.23344138
0.045427762 -0.07432723 -0.23344158
0.045430679 -0.074249357 -0.23343773
0.045433398 -0.074171565 -0.23342991
0.045436315 -0.074093692 -0.23342606
0.045439932 -0.074017465 -0.23343825
0.04544355 -0.073941238 -0.23345043
0.045446683 -0.073865227 -0.23345262
0.045449987 -0.073787175 -0.23345678
0.045453314 -0.073711082 -0.23346297
0.045456544 -0.073635027 -0.23346716
0.045459557 -0.073557109 -0.23346531
0.045462783 -0.073481053 -0.23346952
0.045466285 -0.073402919 -0.23347765
0.045469221 -0.073326997 -0.23347586
0.045472331 -0.073249035 -0.23347601
0.045475561 -0.073172979 -0.23348022
0.04547869 -0.073096976 -0.23348241
0.045481801 -0.073019005 -0.23348257
0.045485109 -0.072940961 -0.23348671
0.045488648 -0.07286673 -0.23349895
0.045492541 -0.072788417 -0.23351507
0.04549608 -0.072714187 -0.2335273
0.045499485 -0.072636098 -0.23353344
0.045502715 -0.072560042 -0.23353764
0.045506116 -0.072481953 -0.23354378
0.045509148 -0.072405986 -0.23354399
0.045511968 -0.07232815 -0.23353815
0.045514982 -0.072250232 -0.2335363
0.045518208 -0.072174177 -0.23354051
0.045521416 -0.072096169 -0.23354265
0.045524433 -0.072018251 -0.2335408
0.045527369 -0.071942329 -0.23353902
0.045530282 -0.071864456 -0.23353517
0.045532614 -0.071786836 -0.23351935
0.045534946 -0.071709223 -0.23350354
0.045537371 -0.071631566 -0.23348969
0.045539998 -0.071553819 -0.23347987
0.045542523 -0.071476117 -0.23346803
0.045544755 -0.071398541 -0.23345022
0.045547474 -0.07132075 -0.2334424
0.045550488 -0.071242832 -0.23344055
0.04555323 -0.071167 -0.23343475
0.045555852 -0.071089253 -0.23342493
0.045558963 -0.07101129 -0.23342508
0.045561686 -0.070933498 -0.23341724
0.045563821 -0.070855968 -0.23339742
0.045566153 -0.070778355 -0.2333816
0.045568578 -0.070700698 -0.23336777
0.045571495 -0.070622817 -0.23336393
0.045574628 -0.070546806 -0.23336613
0.045577154 -0.070469104 -0.2333543
0.045579288 -0.07039158 -0.23333448
0.045581598 -0.070312008 -0.23331662
0.045584146 -0.070236258 -0.23330683
0.045586769 -0.070158511 -0.23329699
0.045588687 -0.070079118 -0.23327115
0.045590729 -0.070001632 -0.23324934
0.045592666 -0.069924191 -0.23322552
0.045594804 -0.06984666 -0.23320569
0.045597717 -0.069768786 -0.23320186
0.045600656 -0.069692865 -0.23320007
0.045603961 -0.069614813 -0.23320422
0.045607679 -0.069538541 -0.23321839
0.04561149 -0.069462232 -0.23323457
0.045615304 -0.069385916 -0.23325075
0.045619119 -0.069309607 -0.23326692
0.045623146 -0.069235161 -0.23328915
0.045627035 -0.069156848 -0.23330528
0.045630772 -0.069082528 -0.2333215
0.04563478 -0.06900613 -0.23334166
0.045639277 -0.068929516 -0.23337182
0.045643773 -0.068852894 -0.23340198
0.045648873 -0.068777971 -0.23344617
0.045654971 -0.068704568 -0.23351237
0.045660757 -0.068629339 -0.23357055
0.045667242 -0.068555757 -0.23364472
0.045673903 -0.068480141 -0.23372087
0.045680486 -0.068406522 -0.23379707
0.045686759 -0.068331078 -0.2338652
0.045692444 -0.068255886 -0.23392138
0.045697741 -0.068180874 -0.23396955
0.045702744 -0.068105996 -0.23401174
0.045709502 -0.068030335 -0.23408988
0.045716476 -0.067956537 -0.23417406
0.045722749 -0.067881092 -0.2342422
0.0457297 -0.067805342 -0.23432434
0.045736775 -0.067731507 -0.23441052
0.045744117 -0.067655578 -0.23450063
0.045751382 -0.067581654 -0.2345908
0.045758825 -0.067505687 -0.23468292
0.04576619 -0.067431718 -0.2347751
0.045772754 -0.067356139 -0.23484921
0.045777343 -0.06727948 -0.23488139
0.045781627 -0.067200996 -0.23490551
0.045787994 -0.067125507 -0.23497565
0.045796137 -0.067051187 -0.23508379
0.045802701 -0.066975608 -0.23515794
0.045809247 -0.066898078 -0.23523003
0.045814231 -0.066821247 -0.23527017
0.045819331 -0.066746324 -0.23531437
0.045831297 -0.066672266 -0.23550244
0.045838133 -0.066594601 -0.23558053
0.045846354 -0.066518284 -0.23568863
0.045853697 -0.066442363 -0.23577875
0.04586301 -0.066367522 -0.23591085
0.045870062 -0.066291727 -0.23599498
0.045875341 -0.066214763 -0.23604111
0.045878626 -0.066134758 -0.23604321
0.045879472 -0.066055842 -0.23599538
0.045881316 -0.065978445 -0.23596957
0.045884307 -0.065898567 -0.2359657
0.045898147 -0.065825641 -0.23619376
0.045901552 -0.065747544 -0.2361999
0.04592333 -0.065675005 -0.23659383
0.045928214 -0.065598212 -0.23663197
0.045934856 -0.065520637 -0.23670608
0.045942396 -0.065444626 -0.23680018
0.045950402 -0.065366447 -0.23690224
0.045956749 -0.065288998 -0.23697034
0.045963392 -0.065211423 -0.23704444
0.045969252 -0.065134197 -0.23710257
0.045975287 -0.065054931 -0.23716262
0.045981538 -0.064977534 -0.23722874
0.04598701 -0.06490048 -0.23727888
0.045992654 -0.064821385 -0.23733094
0.045999199 -0.064743854 -0.23740304
0.046007302 -0.06466563 -0.2375071
0.046015695 -0.064587273 -0.23761714
0.046023507 -0.064509176 -0.2377152
0.046030831 -0.064431295 -0.23780328
0.046038836 -0.064353116 -0.23790532
0.046048034 -0.064276367 -0.23803338
0.046057988 -0.064197309 -0.23817539
0.046071574 -0.064118609 -0.23839334
0.046091065 -0.064043157 -0.23873723
0.046103168 -0.063963145 -0.23892316
0.04610784 -0.063884489 -0.23895527
0.04611161 -0.063804261 -0.23896736
0.046115287 -0.063724086 -0.23897746
0.046118692 -0.063645989 -0.2389836
0.046121761 -0.063564122 -0.23897967
0.046124384 -0.063486375 -0.23896983
0.046125796 -0.063405238 -0.23893195
0.046123896 -0.063325584 -0.23882616
0.046123553 -0.063245237 -0.23875232
0.046125766 -0.063165709 -0.23873246
0.046126321 -0.063086919 -0.23867865
0.046122447 -0.063006178 -0.23853086
0.046119474 -0.062927 -0.23840311
0.046120517 -0.062847994 -0.23835927
0.046122633 -0.062768511 -0.23833741
0.046125624 -0.062688641 -0.23833352
0.04613018 -0.062608071 -0.2383616
0.046135921 -0.062528931 -0.23841567
0.04614342 -0.062449012 -0.23850569
0.046151504 -0.062368833 -0.2386077
0.04615793 -0.062289391 -0.23867576
0.046164453 -0.062209904 -0.23874581
0.046171658 -0.062130116 -0.23882985
0.046178669 -0.062050413 -0.2389099
0.04618293 -0.061969973 -0.23893197
0.046186019 -0.061890054 -0.23893008
0.046189111 -0.06181014 -0.23892818
0.046192102 -0.061730262 -0.23892429
0.04619617 -0.061649911 -0.23894238
0.046200234 -0.061569557 -0.23896046
0.046203051 -0.061491724 -0.2389546
0.04620583 -0.061409984 -0.23894469
0.046208747 -0.061332107 -0.23894085
0.046212032 -0.061252102 -0.23894295
0.046215221 -0.061172143 -0.23894306
0.046217918 -0.061092395 -0.23893319
0.046220522 -0.061012696 -0.23892131
0.046223711 -0.060932733 -0.2389214
0.0462269 -0.060852773 -0.23892152
0.046229698 -0.060772985 -0.23891364
0.046232399 -0.060693242 -0.23890376
0.046235684 -0.060613237 -0.23890586
0.04623897 -0.060533233 -0.23890796
0.046242177 -0.060455225 -0.23891011
0.046245541 -0.060373221 -0.23891218
0.046248749 -0.060295217 -0.23891433
0.046252109 -0.060213212 -0.23891638
0.046254832 -0.060135424 -0.23890854
0.046257436 -0.060055722 -0.23889667
0.046260819 -0.059975673 -0.23890077
0.046264395 -0.059895538 -0.23890887
0.046267096 -0.059815794 -0.23889899
0.046269991 -0.059735965 -0.23889309
0.046273571 -0.05965583 -0.2389012
0.046277344 -0.059575606 -0.2389133
0.046280533 -0.059495643 -0.23891339
0.046283428 -0.059415814 -0.23890752
0.046286322 -0.059335984 -0.23890162
0.046289042 -0.059258193 -0.23889379
0.046292111 -0.059176322 -0.23888984
0.046295516 -0.059098229 -0.238896
0.046299387 -0.05901796 -0.23891008
0.046302281 -0.058938131 -0.23890421
0.046304692 -0.058858518 -0.23888832
0.046307489 -0.058778729 -0.23888044
0.046310872 -0.05869868 -0.23888454
0.046314158 -0.058618676 -0.23888665
0.04631725 -0.058538757 -0.23888475
0.046320826 -0.058458623 -0.23889285
0.046324112 -0.058378618 -0.23889497
0.046327103 -0.058298744 -0.23889107
0.046330001 -0.058218911 -0.23888519
0.046333186 -0.058138952 -0.2388853
0.046336006 -0.058061119 -0.23887946
0.046338901 -0.057981286 -0.23887357
0.046341993 -0.057901368 -0.23887168
0.046345472 -0.057821278 -0.23887779
0.046348758 -0.057741273 -0.23887989
0.04635185 -0.057661355 -0.23887798
0.046354745 -0.057581525 -0.23887211
0.046357933 -0.057501562 -0.23887222
0.046361219 -0.057421558 -0.23887432
0.046364404 -0.057341598 -0.23887442
0.046367791 -0.057261549 -0.23887852
0.046370879 -0.05718163 -0.23887664
0.046373773 -0.057101797 -0.23887075
0.046377059 -0.057021793 -0.23887286
0.046380248 -0.056941833 -0.23887295
0.046382971 -0.056864042 -0.23886514
0.046386041 -0.056782171 -0.23886119
0.046389248 -0.056704164 -0.23886333
0.046392709 -0.056622118 -0.23886739
0.046395916 -0.05654411 -0.23886955
0.046399005 -0.056464192 -0.23886764
0.046402194 -0.056384232 -0.23886776
0.046405382 -0.056304269 -0.23886788
0.046408571 -0.056224309 -0.23886797
