# .PCD v0.7 - Point Cloud Data file format
VERSION 0.7
FIELDS x y z
SIZE 4 4 4
TYPE F F F
COUNT 1 1 1
WIDTH 1287
HEIGHT 1
VIEWPOINT 0 0 0 1 0 0 0
POINTS 1287
DATA ascii
-0.19512925 -0.0075380849 -0.10876643
-0.1951388 -0.0074667009 -0.10876735
-0.19514912 -0.0073935515 -0.10875826
-0.19515936 -0.0073224697 -0.1087452
-0.19516852 -0.0072488016 -0.10876007
-0.1951768 -0.0071747438 -0.10879293
-0.19518633 -0.0071012485 -0.10879981
-0.19519657 -0.0070301672 -0.10878676
-0.1952064 -0.0069568013 -0.10878765
-0.19521597 -0.0068854173 -0.10878858
-0.19522551 -0.006811922 -0.10879545
-0.19523476 -0.0067382967 -0.10880833
-0.1952443 -0.0066648014 -0.10881522
-0.19525395 -0.0065934607 -0.10881414
-0.19526418 -0.0065202676 -0.10880705
-0.19527385 -0.0064489269 -0.10880598
-0.19528349 -0.0063754749 -0.10881086
-0.19529331 -0.006302109 -0.10881177
-0.19530345 -0.0062309843 -0.1088007
-0.19531378 -0.006157835 -0.10879161
-0.19532382 -0.0060866671 -0.10878255
-0.19533435 -0.0060136039 -0.10876945
-0.19534469 -0.0059425659 -0.1087544
-0.19535442 -0.0058691571 -0.10875729
-0.19536367 -0.0057955319 -0.10877017
-0.19537324 -0.0057241479 -0.1087711
-0.19538385 -0.005651128 -0.10875602
-0.19539458 -0.0055802632 -0.10873298
-0.19540451 -0.0055069402 -0.10873187
-0.19541307 -0.0054330127 -0.10875873
-0.19542174 -0.0053591281 -0.10878359
-0.19543059 -0.0052853297 -0.10880445
-0.19543974 -0.0052116611 -0.10881932
-0.19544941 -0.0051403199 -0.10881825
-0.19545983 -0.0050672144 -0.10880716
-0.19546998 -0.0049960897 -0.1087961
-0.1954799 -0.0049227672 -0.10879499
-0.19548973 -0.0048494013 -0.1087959
-0.1954993 -0.0047780173 -0.10879681
-0.19550894 -0.0047045648 -0.10880171
-0.19551829 -0.0046309829 -0.10881259
-0.19552743 -0.0045573143 -0.10882746
-0.19553678 -0.0044837324 -0.10883833
-0.19554643 -0.0044123917 -0.10883725
-0.19555588 -0.0043388535 -0.10884614
-0.19556445 -0.0042649251 -0.108873
-0.19557311 -0.0041910405 -0.10889786
-0.19558263 -0.0041154334 -0.10891071
-0.19559248 -0.0040441798 -0.10890564
-0.19560282 -0.0039731413 -0.10889059
-0.19561285 -0.0038998621 -0.10888749
-0.195622 -0.0038261935 -0.10890236
-0.19563073 -0.0037502404 -0.10893119
-0.1956393 -0.003676313 -0.10895804
-0.19564855 -0.0036026882 -0.10897092
-0.19565867 -0.0035294518 -0.10896581
-0.19566911 -0.0034584561 -0.10894877
-0.19567946 -0.0033874186 -0.10893372
-0.19568948 -0.0033141393 -0.10893061
-0.19569902 -0.003240644 -0.1089375
-0.19570817 -0.0031669755 -0.10895237
-0.19571732 -0.0030933069 -0.10896725
-0.19572677 -0.0030197687 -0.10897613
-0.19573621 -0.0029462297 -0.10898501
-0.19574584 -0.0028727772 -0.1089899
-0.19575551 -0.002801436 -0.10898883
-0.19576563 -0.0027282005 -0.10898373
-0.19577546 -0.0026548347 -0.10898462
-0.195785 -0.0025813393 -0.10899151
-0.19579445 -0.0025078002 -0.10900039
-0.19580418 -0.0024343915 -0.10900328
-0.19581394 -0.0023630941 -0.10900021
-0.19582416 -0.0022899015 -0.10899312
-0.19583361 -0.0022163633 -0.109002
-0.19584246 -0.0021425644 -0.10902286
-0.19585171 -0.0020689396 -0.10903574
-0.19586155 -0.0019955738 -0.10903663
-0.19587156 -0.0019222945 -0.10903353
-0.19588131 -0.0018488858 -0.10903642
-0.19589067 -0.0017774142 -0.10904134
-0.1959006 -0.0017040931 -0.10904024
-0.19591092 -0.0016309433 -0.10903115
-0.19592085 -0.0015576212 -0.10903005
-0.19593012 -0.0014861058 -0.10903696
-0.19594054 -0.0014129998 -0.10902587
-0.19595127 -0.0013421355 -0.10900283
-0.19596152 -0.0012710541 -0.10898977
-0.19597125 -0.0011976454 -0.10899267
-0.1959805 -0.0011240197 -0.10900554
-0.19598973 -0.0010482827 -0.10902438
-0.19599839 -0.00097439904 -0.10904924
-0.19600771 -0.00089870486 -0.10906608
-0.19601767 -0.00082749408 -0.10905901
-0.19602817 -0.00075443182 -0.10904593
-0.19603793 -0.00068313256 -0.10904285
-0.19604774 -0.00060765538 -0.10904972
-0.19605702 -0.00053614285 -0.10905663
-0.19606692 -0.00046070758 -0.10906148
-0.19607678 -0.00038945395 -0.10905641
-0.19608651 -0.00031604525 -0.1090593
-0.19609582 -0.000240352 -0.10907615
-0.19610518 -0.00016677007 -0.10908704
-0.19611461 -9.3230978e-05 -0.10909592
-0.19612367 -1.951959e-05 -0.10911278
-0.19613311 5.4019503e-05 -0.10912167
-0.19614285 0.00012742914 -0.10912456
-0.19615288 0.00020070747 -0.10912146
-0.1961631 0.00027390104 -0.10911436
-0.19617264 0.00034739636 -0.10912125
-0.19618218 0.00042089075 -0.10912813
-0.19619229 0.00049412623 -0.10912304
-0.19620225 0.00056533795 -0.10911597
-0.19621228 0.00063861813 -0.10911287
-0.19622242 0.00070974138 -0.10910181
-0.19623294 0.00078280549 -0.10908873
-0.19624279 0.00085405912 -0.10908365
-0.19625242 0.00092962384 -0.10909451
-0.19626117 0.0010034647 -0.10911737
-0.19627072 0.0010769609 -0.10912426
-0.19628075 0.0011502383 -0.10912114
-0.19629076 0.0012235185 -0.10911805
-0.19630072 0.0012947293 -0.10911099
-0.19631085 0.0013679657 -0.10910589
-0.19632058 0.0014413744 -0.10910878
-0.19632992 0.0015149564 -0.10911965
-0.19633895 0.0015907791 -0.1091425
-0.19634829 0.0016643619 -0.10915338
-0.19635832 0.0017376412 -0.10915028
-0.19636846 0.0018108767 -0.10914518
-0.19637877 0.0018840255 -0.10913607
-0.19638872 0.0019552372 -0.10912901
-0.19639824 0.0020308439 -0.10914186
-0.19640756 0.002106538 -0.1091587
-0.19641703 0.002177964 -0.10916163
-0.19642666 0.0022514174 -0.10916651
-0.19643627 0.0023269802 -0.10917737
-0.1964463 0.0024002595 -0.10917427
-0.19645664 0.0024712989 -0.10915921
-0.19646648 0.0025446629 -0.10916011
-0.19647582 0.0026182458 -0.10917099
-0.19648603 0.0026935497 -0.10916985
-0.19649617 0.0027646748 -0.10915878
-0.19650629 0.0028379103 -0.10915369
-0.19651584 0.0029114066 -0.10916058
-0.19652519 0.0029849876 -0.10917145
-0.19653518 0.0030603781 -0.10917432
-0.19654484 0.0031317193 -0.10917325
-0.19655466 0.0032071965 -0.1091801
-0.19656371 0.0032809088 -0.10919698
-0.19657335 0.0033543603 -0.10920186
-0.19658385 0.0034274235 -0.10918878
-0.19659369 0.0035007894 -0.10918966
-0.19660333 0.003574241 -0.10919455
-0.19661336 0.0036475202 -0.10919145
-0.19662331 0.0037187319 -0.10918439
-0.19663362 0.0037918817 -0.10917529
-0.19664407 0.0038628755 -0.10915824
-0.19665429 0.0039360691 -0.10915115
-0.19666283 0.0040121069 -0.10918397
-0.19667132 0.0040923711 -0.10922872
-0.19668047 0.0041660387 -0.10924359
-0.19669041 0.0042393599 -0.10924248
-0.19670102 0.0043123811 -0.1092274
-0.19671097 0.0043835919 -0.10922033
-0.196721 0.0044568703 -0.10921723
-0.19673122 0.0045300648 -0.10921014
-0.19674046 0.0046036877 -0.10922302
-0.19674949 0.0046795122 -0.10924584
-0.19675972 0.0047527049 -0.10923875
-0.19677033 0.0048257243 -0.10922367
-0.19678 0.0048970655 -0.1092226
-0.19678919 0.0049749147 -0.1092474
-0.19679853 0.0050484948 -0.10925827
-0.19680837 0.0051218625 -0.10925917
-0.19681837 0.0051972512 -0.10926203
-0.19682831 0.0052705742 -0.10926092
-0.19683832 0.0053438526 -0.10925782
-0.19684815 0.0054172203 -0.10925872
-0.19685829 0.0054904558 -0.10925362
-0.19686802 0.0055638645 -0.10925651
-0.19687724 0.0056396015 -0.10927536
-0.19688636 0.0057153814 -0.1092962
-0.19689618 0.0057908595 -0.10930304
-0.196906 0.0058642235 -0.10930394
-0.19691584 0.0059375912 -0.10930482
-0.19692548 0.0060110409 -0.10930971
-0.19693509 0.0060866047 -0.10932057
-0.19694482 0.0061600134 -0.10932346
-0.19695476 0.0062333345 -0.10932235
-0.19696476 0.006308727 -0.10932522
-0.19697449 0.0063821357 -0.10932811
-0.19698384 0.0064557176 -0.10933898
-0.19699343 0.0065333936 -0.1093558
-0.19700296 0.0066068899 -0.10936268
-0.19701299 0.0066801682 -0.10935958
-0.19702272 0.0067535788 -0.10936247
-0.19703244 0.0068290979 -0.10937133
-0.19704185 0.0069047492 -0.10938617
-0.19705108 0.0069804844 -0.109405
-0.19706099 0.0070559196 -0.10940987
-0.19707063 0.0071293712 -0.10941476
-0.19708017 0.0072028656 -0.10942164
-0.19709048 0.0072760154 -0.10941255
-0.19710083 0.0073470529 -0.1093975
-0.19711073 0.0074224882 -0.10940235
-0.19712028 0.0074959826 -0.10940924
-0.19713008 0.0075714607 -0.10941609
-0.1971397 0.0076470226 -0.10942694
-0.19714984 0.0077181477 -0.10941588
-0.19716084 0.0077909958 -0.10939281
-0.1971707 0.0078622475 -0.10938775
-0.19718032 0.0079378132 -0.1093986
-0.19719024 0.0080111362 -0.10939749
-0.19720037 0.0080843698 -0.1093924
-0.19721068 0.0081575215 -0.10938331
-0.19722082 0.008230757 -0.1093782
-0.19723074 0.00830408 -0.1093771
-0.19724086 0.0083773136 -0.109372
-0.19724968 0.0084553361 -0.10940479
-0.19725898 0.0085331425 -0.10942759
-0.19726868 0.0086086616 -0.10943645
-0.19727829 0.0086842235 -0.10944729
-0.19728793 0.0087576788 -0.10945219
-0.19729847 0.0088286307 -0.10943314
-0.1973093 0.0088994503 -0.1094081
-0.19732013 0.0089702737 -0.10938306
-0.19733077 0.0090411827 -0.10936201
-0.1973408 0.0091144592 -0.10935891
-0.19735022 0.0091901105 -0.10937376
-0.19735953 0.0092658047 -0.10939059
-0.19736946 0.0093391258 -0.10938949
-0.19738202 0.0094028786 -0.10931262
-0.19739278 0.0094716325 -0.10928361
-0.19740292 0.0095427558 -0.10927255
-0.19741273 0.009618232 -0.10927942
-0.19742325 0.009691298 -0.10926633
-0.19743413 0.009757895 -0.10922936
-0.19744526 0.0098285899 -0.10919833
-0.19745469 0.0099021271 -0.10920721
-0.19746377 0.0099821314 -0.10923997
-0.19747391 0.010053257 -0.10922891
-0.19748694 0.010110499 -0.10912617
-0.19749953 0.01017214 -0.10904332
-0.19263664 -0.025456347 -0.11033107
-0.19265965 -0.025365723 -0.11012194
-0.19267492 -0.025284266 -0.1100388
-0.19268925 -0.025206599 -0.10996372
-0.19270281 -0.025128586 -0.1099046
-0.19271818 -0.025047172 -0.10981947
-0.19273308 -0.024967652 -0.10973836
-0.19274817 -0.024888219 -0.10965326
-0.1927603 -0.02481167 -0.10961814
-0.19277121 -0.024738777 -0.10959706
-0.19278362 -0.024662357 -0.10955596
-0.19279574 -0.024585806 -0.10952085
-0.19280683 -0.024510892 -0.10950174
-0.19281752 -0.024437916 -0.10948467
-0.19282974 -0.024361409 -0.10944755
-0.19416884 -0.014792076 -0.10846847
-0.19417723 -0.014720174 -0.10849335
-0.19418706 -0.014646808 -0.10849424
-0.19419672 -0.014575467 -0.10849317
-0.1942057 -0.014503824 -0.10850608
-0.19421543 -0.014430414 -0.10850897
-0.19422549 -0.014359247 -0.10849991
-0.194236 -0.014286184 -0.10848682
-0.19424661 -0.014213163 -0.10847174
-0.19425608 -0.014141737 -0.10847466
-0.1942659 -0.014068371 -0.10847556
-0.19427547 -0.013996987 -0.10847647
-0.19428472 -0.013923362 -0.10848936
-0.1942935 -0.013851631 -0.10850625
-0.19430259 -0.01378003 -0.10851716
-0.19431202 -0.013706492 -0.10852604
-0.1943211 -0.013634892 -0.10853696
-0.19433074 -0.01356144 -0.10854184
-0.19434069 -0.013490228 -0.10853478
-0.19435149 -0.013417295 -0.1085157
-0.19436249 -0.013344449 -0.10849263
-0.19437197 -0.013273021 -0.10849555
-0.19438101 -0.01319931 -0.10851242
-0.19439 -0.013127666 -0.10852532
-0.19439924 -0.013054041 -0.1085382
-0.19440833 -0.01298244 -0.1085491
-0.19441757 -0.012908815 -0.10856199
-0.19442655 -0.012837172 -0.10857489
-0.19443658 -0.012763892 -0.10857179
-0.19444701 -0.012692898 -0.10855474
-0.19445762 -0.012619878 -0.10853966
-0.19446757 -0.012548667 -0.10853259
-0.19447683 -0.012475042 -0.10854547
-0.19448601 -0.012403484 -0.10855439
-0.19449544 -0.012329945 -0.10856327
-0.19450451 -0.012258345 -0.10857417
-0.19451484 -0.012185196 -0.10856508
-0.19452545 -0.012112176 -0.10855
-0.19453482 -0.012040705 -0.10855492
-0.19454379 -0.011969062 -0.10856783
-0.19455294 -0.011895394 -0.1085827
-0.19456251 -0.01182401 -0.10858362
-0.19457303 -0.011750947 -0.10857054
-0.19458315 -0.01167771 -0.10856544
-0.19459203 -0.011606024 -0.10858034
-0.19460051 -0.011532052 -0.10860919
-0.19460899 -0.011460193 -0.10863208
-0.19461758 -0.011388376 -0.10865298
-0.19462682 -0.011314752 -0.10866585
-0.1946362 -0.01124328 -0.10867078
-0.19464612 -0.011169958 -0.10866968
-0.19465588 -0.011098661 -0.10866661
-0.19466621 -0.011025511 -0.10865751
-0.19467652 -0.010952362 -0.10864843
-0.19468677 -0.010881281 -0.10863537
-0.19469777 -0.010808433 -0.10861229
-0.19470821 -0.010737439 -0.10859524
-0.19471736 -0.01066377 -0.10861011
-0.19472593 -0.010589843 -0.10863697
-0.19473462 -0.010518068 -0.10865587
-0.19474338 -0.010444228 -0.10867873
-0.19475254 -0.01037267 -0.10868764
-0.19476248 -0.010299347 -0.10868654
-0.19477214 -0.010228007 -0.10868546
-0.19478187 -0.010154598 -0.10868836
-0.194792 -0.010081362 -0.10868326
-0.19480224 -0.010010281 -0.1086702
-0.19481276 -0.0099372175 -0.10865711
-0.19482213 -0.0098657478 -0.10866203
-0.19483137 -0.0097921221 -0.10867491
-0.19484055 -0.0097205648 -0.10868382
-0.19485028 -0.0096471561 -0.10868672
-0.19485953 -0.0095735304 -0.10869959
-0.1948687 -0.0095019741 -0.1087085
-0.19487864 -0.0094286511 -0.1087074
-0.1948882 -0.0093572671 -0.10870833
-0.19489716 -0.0092835119 -0.10872719
-0.19490591 -0.0092096711 -0.10875005
-0.19491519 -0.0091381567 -0.10875697
-0.19492531 -0.0090649212 -0.10875186
-0.19493526 -0.0089937095 -0.10874481
-0.19494559 -0.0089205606 -0.10873571
-0.19495581 -0.0088473679 -0.10872862
-0.19496527 -0.0087759402 -0.10873154
-0.19497412 -0.0087021422 -0.10875241
-0.19498311 -0.0086304983 -0.10876532
-0.19499362 -0.0085574351 -0.10875223
-0.19500433 -0.0084844586 -0.10873515
-0.19501467 -0.008413421 -0.10872009
-0.19502443 -0.0083421236 -0.10871702
-0.19503416 -0.008268714 -0.10871991
-0.1950435 -0.008195132 -0.10873079
-0.19505276 -0.0081215072 -0.10874367
-0.19506203 -0.0080499938 -0.10875058
-0.19507186 -0.0079766279 -0.10875148
-0.19508182 -0.0079054162 -0.10874442
-0.19509165 -0.0078320503 -0.10874531
-0.19510089 -0.0077584255 -0.10875818
-0.19510987 -0.0076867822 -0.10877109
-0.19511971 -0.0076134163 -0.10877197
-0.19512983 -0.0075401803 -0.10876688
-0.1951395 -0.0074688396 -0.10876581
-0.19514981 -0.0073956903 -0.10875672
-0.19516006 -0.007324609 -0.10874366
-0.19516921 -0.0072509404 -0.10875854
-0.19517748 -0.0071768826 -0.10879138
-0.19518702 -0.0071033873 -0.10879827
-0.19519717 -0.0070322626 -0.10878722
-0.1952071 -0.0069589401 -0.10878611
-0.19521666 -0.0068875561 -0.10878703
-0.19522621 -0.0068140607 -0.10879391
-0.19523545 -0.006740435 -0.10880679
-0.19524489 -0.0066668969 -0.10881567
-0.19525465 -0.006595599 -0.10881261
-0.19526488 -0.0065224064 -0.10880551
-0.19527464 -0.0064511085 -0.10880244
-0.19528407 -0.0063775699 -0.10881132
-0.1952939 -0.0063042045 -0.10881222
-0.19530405 -0.0062330798 -0.10880116
-0.19531438 -0.00615993 -0.10879207
-0.19532442 -0.0060887625 -0.10878301
-0.19533503 -0.0060157427 -0.10876792
-0.19534537 -0.0059447046 -0.10875286
-0.19535501 -0.0058712522 -0.10875775
-0.19536436 -0.0057976702 -0.10876863
-0.19537383 -0.0057262434 -0.10877156
-0.19538444 -0.005653223 -0.10875648
-0.19539517 -0.0055823582 -0.10873343
-0.1954051 -0.0055090357 -0.10873233
-0.19541366 -0.0054351082 -0.10875919
-0.19542232 -0.0053612231 -0.10878405
-0.19543128 -0.0052874684 -0.10880291
-0.19544044 -0.0052137999 -0.10881778
-0.1954501 -0.0051424587 -0.10881671
-0.19546051 -0.0050693527 -0.10880562
-0.19547066 -0.0049982285 -0.10879456
-0.19548059 -0.0049249055 -0.10879346
-0.19549033 -0.0048514968 -0.10879635
-0.19549999 -0.0047801556 -0.10879528
-0.19550963 -0.0047067036 -0.10880017
-0.19551897 -0.0046331217 -0.10881104
-0.19552802 -0.0045594098 -0.10882792
-0.19553736 -0.0044858279 -0.10883879
-0.19554712 -0.0044145305 -0.10883572
-0.19555657 -0.0043409918 -0.1088446
-0.19556503 -0.0042670206 -0.10887346
-0.19557379 -0.0041931788 -0.10889632
-0.19558331 -0.0041175717 -0.10890917
-0.19559316 -0.0040463177 -0.1089041
-0.1956035 -0.0039752796 -0.10888905
-0.19561353 -0.0039020004 -0.10888595
-0.19562268 -0.0038283318 -0.10890082
-0.19563133 -0.0037523354 -0.10893165
-0.19563989 -0.0036784075 -0.10895849
-0.19564913 -0.0036047827 -0.10897137
-0.19565909 -0.003533572 -0.10896431
-0.1956697 -0.0034605516 -0.10894923
-0.19567995 -0.0033894703 -0.10893617
-0.19569017 -0.0033162776 -0.10892908
-0.19569971 -0.0032427823 -0.10893597
-0.19570877 -0.0031690709 -0.10895283
-0.19571801 -0.0030954452 -0.10896571
-0.19572745 -0.0030219061 -0.10897459
-0.1957368 -0.0029483251 -0.10898547
-0.19574626 -0.0028768973 -0.10898838
-0.1957562 -0.0028035752 -0.10898728
-0.19576623 -0.0027302951 -0.10898419
-0.19577605 -0.0026569292 -0.10898507
-0.19578569 -0.0025834776 -0.10898997
-0.19579513 -0.0025099386 -0.10899885
-0.19580477 -0.0024364861 -0.10900374
-0.19581462 -0.0023652324 -0.10899867
-0.19582474 -0.002291996 -0.10899357
-0.19583419 -0.0022184579 -0.10900246
-0.19584315 -0.0021447027 -0.10902133
-0.1958524 -0.002071077 -0.1090342
-0.19586223 -0.0019977111 -0.10903509
-0.19587216 -0.001924389 -0.10903399
-0.19588189 -0.0018509803 -0.10903688
-0.19589126 -0.0017795088 -0.1090418
-0.19590129 -0.0017062314 -0.1090387
-0.1959116 -0.0016330807 -0.10902961
-0.19592127 -0.0015617395 -0.10902853
-0.19593081 -0.0014882442 -0.10903542
-0.19594122 -0.0014151381 -0.10902433
-0.19595186 -0.00134423 -0.10900328
-0.1959621 -0.0012731487 -0.10899022
-0.19597183 -0.00119974 -0.10899312
-0.19598109 -0.0011261143 -0.109006
-0.19599041 -0.0010504201 -0.10902284
-0.19599907 -0.00097653642 -0.1090477
-0.19600838 -0.00090084225 -0.10906453
-0.19601825 -0.00082958862 -0.10905947
-0.19602875 -0.00075652543 -0.10904638
-0.19603851 -0.0006852271 -0.10904332
-0.19604833 -0.00060974993 -0.10905017
-0.1960576 -0.00053823739 -0.10905708
-0.19606751 -0.00046280213 -0.10906193
-0.19607736 -0.0003915485 -0.10905687
-0.19608709 -0.00031813979 -0.10905976
-0.19609642 -0.00024244748 -0.1090766
-0.19610576 -0.00016886462 -0.10908749
-0.19611521 -9.5326453e-05 -0.10909637
-0.19612426 -2.1614134e-05 -0.10911324
-0.19613379 5.1881187e-05 -0.10912013
-0.19614354 0.00012529083 -0.10912301
-0.19615346 0.00019861292 -0.10912191
-0.19616358 0.00027184933 -0.10911682
-0.19617322 0.00034530275 -0.1091217
-0.19618286 0.00041875336 -0.10912659
-0.19619289 0.00049203262 -0.10912349
-0.19620284 0.00056324434 -0.10911642
-0.19621287 0.00063652359 -0.10911332
-0.19622302 0.00070764683 -0.10910226
-0.19623363 0.00078066718 -0.10908718
-0.19624358 0.00085187797 -0.10908011
-0.196253 0.00092752837 -0.10909496
-0.19626185 0.0010013273 -0.10911583
-0.19627149 0.0010747798 -0.10912071
-0.19628142 0.0011481019 -0.10911961
-0.19629136 0.001221424 -0.10911851
-0.19630158 0.0012946166 -0.10911141
-0.19631143 0.0013658721 -0.10910635
-0.19632126 0.001439237 -0.10910723
-0.19633061 0.001512818 -0.10911812
-0.19633964 0.0015886426 -0.10914095
-0.19634898 0.0016622245 -0.10915183
-0.19635901 0.0017355038 -0.10914873
-0.19636913 0.0018087383 -0.10914362
-0.19637935 0.0018819319 -0.10913653
-0.1963893 0.0019531436 -0.10912947
-0.19639882 0.0020287503 -0.10914232
-0.19640814 0.0021044444 -0.10915916
-0.19641778 0.002177895 -0.10916404
-0.19642724 0.0022493238 -0.10916697
-0.19643696 0.0023248428 -0.10917582
-0.19644699 0.0023981221 -0.10917272
-0.19645724 0.0024692044 -0.10915966
-0.19646706 0.0025425693 -0.10916056
-0.19647641 0.0026161512 -0.10917144
-0.19648634 0.0026894743 -0.10917033
-0.19649684 0.0027625365 -0.10915725
-0.19650698 0.0028357729 -0.10915215
-0.19651642 0.002909312 -0.10916103
-0.19652577 0.002982894 -0.10917191
-0.19653577 0.0030582845 -0.10917477
-0.19654553 0.0031295829 -0.1091717
-0.19655533 0.0032050591 -0.10917857
-0.19656439 0.0032787705 -0.10919543
-0.19657402 0.0033522239 -0.10920032
-0.19658443 0.0034253299 -0.10918923
-0.19659427 0.0034986958 -0.10919012
-0.19660391 0.0035721464 -0.109195
-0.19661394 0.0036454266 -0.10919191
-0.19662379 0.0037166812 -0.10918684
-0.1966342 0.0037897881 -0.10917575
-0.19664465 0.0038607819 -0.1091587
-0.19665498 0.0039339308 -0.10914961
-0.19666351 0.0040099705 -0.10918243
-0.19667201 0.0040902337 -0.10922717
-0.19668105 0.0041639451 -0.10924403
-0.19669108 0.0042372234 -0.10924094
-0.19670133 0.0043083057 -0.10922788
-0.19671164 0.0043814555 -0.10921879
-0.19672158 0.0044547785 -0.10921769
-0.19673154 0.0045259874 -0.10921063
-0.19674115 0.0046015512 -0.10922147
-0.19675007 0.0046774186 -0.1092463
-0.1967603 0.0047506113 -0.10923921
-0.19677074 0.004821606 -0.10922216
-0.19678056 0.0048949718 -0.10922305
-0.19678977 0.0049728192 -0.10924785
-0.19679911 0.005046403 -0.10925873
-0.19680895 0.005119767 -0.10925963
-0.19681905 0.0051951148 -0.10926048
-0.19682898 0.0052684378 -0.10925938
-0.1968389 0.0053417608 -0.10925828
-0.19684874 0.0054151267 -0.10925917
-0.19685876 0.005488405 -0.10925607
-0.1968686 0.0055617709 -0.10925697
-0.19687782 0.0056375079 -0.10927581
-0.19688694 0.0057132877 -0.10929665
-0.19689676 0.0057887658 -0.10930349
-0.19690658 0.0058621299 -0.10930439
-0.19691642 0.0059354976 -0.10930528
-0.19692586 0.0060090348 -0.10931417
-0.19693567 0.0060845111 -0.10932102
-0.1969455 0.0061578769 -0.10932192
-0.19695543 0.0062311999 -0.10932082
-0.19696543 0.0063065905 -0.10932367
-0.19697507 0.0063800439 -0.10932857
-0.19698441 0.006453624 -0.10933945
-0.1969939 0.0065313429 -0.10935825
-0.19700345 0.0066048391 -0.10936513
-0.19701368 0.0066780318 -0.10935804
-0.19702341 0.0067514423 -0.10936093
-0.19703302 0.0068270043 -0.10937178
-0.19704244 0.0069026556 -0.10938662
-0.19705166 0.0069783907 -0.10940546
-0.19706157 0.007053826 -0.10941032
-0.1970713 0.0071272347 -0.10941322
-0.19708075 0.0072007719 -0.1094221
-0.19709106 0.0072739217 -0.10941301
-0.1971014 0.0073449593 -0.10939795
-0.19711131 0.0074203946 -0.10940281
-0.19712085 0.007493889 -0.10940969
-0.19713056 0.0075694099 -0.10941854
-0.19714028 0.007644929 -0.10942739
-0.19715042 0.0077160541 -0.10941634
-0.19716132 0.007788945 -0.10939527
-0.19717118 0.0078601986 -0.1093902
-0.1971809 0.0079357196 -0.10939905
-0.19719082 0.0080090426 -0.10939795
-0.19720094 0.0080822762 -0.10939284
-0.19721127 0.0081554279 -0.10938375
-0.19722138 0.0082286634 -0.10937866
-0.19723132 0.0083019864 -0.10937756
-0.19724154 0.008375179 -0.10937046
-0.19725055 0.008453114 -0.10939925
-0.19725993 0.0085308757 -0.10942006
-0.19726926 0.008606568 -0.10943691
-0.19727887 0.0086821318 -0.10944775
-0.19728868 0.0087576099 -0.10945461
-0.19729912 0.0088286046 -0.10943756
-0.19730988 0.0088973567 -0.10940854
-0.19732071 0.00896818 -0.10938351
-0.19733125 0.0090391319 -0.10936446
-0.19734128 0.0091124102 -0.10936137
-0.19735089 0.009187974 -0.10937221
-0.19736011 0.0092637111 -0.10939106
-0.19737014 0.0093369912 -0.10938795
-0.19738242 0.0093987621 -0.1093111
-0.19739336 0.0094695389 -0.10928407
-0.19740348 0.0095427744 -0.10927897
-0.19741319 0.0096182954 -0.10928782
-0.19742353 0.0096893348 -0.10927276
-0.1974348 0.0097557604 -0.10922781
-0.19744575 0.0098244268 -0.10919482
-0.19745535 0.009902101 -0.10921163
-0.19746464 0.0099799074 -0.10923443
-0.19748791 0.010108232 -0.10911863
-0.19263658 -0.025456253 -0.1103261
-0.19265912 -0.025367524 -0.110121
-0.1926744 -0.025286067 -0.11003786
-0.19268873 -0.025208402 -0.10996278
-0.19270229 -0.025130387 -0.10990366
-0.19271757 -0.02504893 -0.10982053
-0.19273256 -0.024969455 -0.10973743
-0.19274765 -0.02489002 -0.10965233
-0.19275978 -0.024813469 -0.1096172
-0.19277069 -0.02474058 -0.10959613
-0.1927831 -0.02466416 -0.10955501
-0.19279522 -0.024587609 -0.10951991
-0.1928063 -0.024512695 -0.1095008
-0.192817 -0.024439719 -0.10948372
-0.19282922 -0.02436321 -0.10944661
-0.19416839 -0.01479389 -0.10846753
-0.19417678 -0.014721987 -0.10849241
-0.19418661 -0.014648621 -0.10849331
-0.19419628 -0.01457728 -0.10849223
-0.19420525 -0.014505636 -0.10850514
-0.194215 -0.014432227 -0.10850804
-0.19422495 -0.014361016 -0.10850097
-0.19423546 -0.014287954 -0.10848788
-0.19424607 -0.014214934 -0.1084728
-0.19425555 -0.014143506 -0.10847572
-0.19426547 -0.014070185 -0.10847461
-0.19427514 -0.013998844 -0.10847354
-0.19428429 -0.013925176 -0.10848841
-0.19429298 -0.013853402 -0.10850732
-0.19430205 -0.013781802 -0.10851822
-0.1943115 -0.013708263 -0.1085271
-0.19432057 -0.013636663 -0.10853802
-0.1943303 -0.013563254 -0.10854091
-0.19434026 -0.013492043 -0.10853384
-0.19435106 -0.013419109 -0.10851477
-0.19436197 -0.01334622 -0.10849369
-0.19437154 -0.013274836 -0.10849461
-0.19438058 -0.013201124 -0.10851149
-0.19438957 -0.013129481 -0.10852439
-0.19439882 -0.013055855 -0.10853727
-0.1944079 -0.012984255 -0.10854817
-0.19441713 -0.012910631 -0.10856105
-0.19442603 -0.012838944 -0.10857596
-0.19443615 -0.012765707 -0.10857086
-0.19444649 -0.01269467 -0.10855581
-0.1944571 -0.01262165 -0.10854073
-0.19446705 -0.012550439 -0.10853367
-0.19447631 -0.012476814 -0.10854653
-0.19448549 -0.012405257 -0.10855544
-0.19449502 -0.012331761 -0.10856234
-0.19450401 -0.012260118 -0.10857524
-0.19451432 -0.012186969 -0.10856614
-0.19452493 -0.012113949 -0.10855106
-0.19453441 -0.012042521 -0.10855398
-0.19454338 -0.011970879 -0.1085669
-0.19455253 -0.01189721 -0.10858177
-0.19456209 -0.011825826 -0.10858269
-0.19457251 -0.01175272 -0.1085716
-0.19458264 -0.011679484 -0.10856651
-0.19459152 -0.011607798 -0.1085814
-0.19460009 -0.011533869 -0.10860826
-0.19460858 -0.01146201 -0.10863115
-0.19461717 -0.011390193 -0.10865205
-0.19462642 -0.011316569 -0.10866492
-0.19463578 -0.011245098 -0.10866985
-0.19464561 -0.011171732 -0.10867074
-0.19465537 -0.011100435 -0.10866767
-0.1946657 -0.011027285 -0.10865858
-0.19467612 -0.010954179 -0.10864749
-0.19468637 -0.010883098 -0.10863443
-0.19469737 -0.010810251 -0.10861135
-0.19470781 -0.010739257 -0.10859431
-0.19471686 -0.010665545 -0.10861118
-0.19472553 -0.010591661 -0.10863604
-0.19473411 -0.010519844 -0.10865693
-0.19474296 -0.010446046 -0.1086778
-0.19475205 -0.010374445 -0.10868871
-0.19476198 -0.010301122 -0.10868761
-0.19477163 -0.010229782 -0.10868654
-0.19478147 -0.010156416 -0.10868742
-0.1947916 -0.010083181 -0.10868233
-0.19480175 -0.010012056 -0.10867126
-0.19481225 -0.0099389935 -0.10865817
-0.19482163 -0.0098675229 -0.1086631
-0.19483097 -0.0097939409 -0.10867397
-0.19484015 -0.0097223837 -0.10868289
-0.19484979 -0.0096489321 -0.10868778
-0.19485913 -0.0095753502 -0.10869866
-0.19486821 -0.0095037501 -0.10870957
-0.19487824 -0.0094304709 -0.10870647
-0.1948877 -0.0093590431 -0.10870939
-0.19489665 -0.0092852879 -0.10872826
-0.19490552 -0.0092114899 -0.10874912
-0.19491479 -0.0091399765 -0.10875603
-0.19492482 -0.0090666972 -0.10875294
-0.19493487 -0.0089955293 -0.10874387
-0.1949451 -0.0089223366 -0.10873678
-0.19495541 -0.0088491878 -0.10872769
-0.19496489 -0.00877776 -0.10873061
-0.19497374 -0.008703962 -0.10875148
-0.19498272 -0.008632319 -0.10876438
-0.19499314 -0.0085592121 -0.10875329
-0.19500384 -0.0084862355 -0.10873621
-0.19501419 -0.008415198 -0.10872116
-0.19502395 -0.0083439006 -0.10871808
-0.19503377 -0.0082705356 -0.10871898
-0.19504313 -0.0081969537 -0.10872986
-0.19505228 -0.0081232842 -0.10874473
-0.19506155 -0.0080517717 -0.10875165
-0.19507147 -0.0079784486 -0.10875054
-0.19508134 -0.007907195 -0.10874548
-0.19509126 -0.007833872 -0.10874438
-0.19510052 -0.0077602467 -0.10875725
-0.1951094 -0.0076885605 -0.10877215
-0.19511932 -0.0076152375 -0.10877105
-0.19512945 -0.007542002 -0.10876596
-0.19513902 -0.007470618 -0.10876688
-0.19514933 -0.0073974687 -0.10875778
-0.19515958 -0.0073263873 -0.10874473
-0.19516873 -0.0072527188 -0.1087596
-0.195177 -0.0071786614 -0.10879245
-0.19518654 -0.0071051661 -0.10879933
-0.19519679 -0.0070340848 -0.10878628
-0.19520663 -0.0069607189 -0.10878717
-0.19521619 -0.0068893349 -0.1087881
-0.19522583 -0.0068158829 -0.10879299
-0.19523498 -0.0067422148 -0.10880786
-0.19524452 -0.0066687195 -0.10881474
-0.19525418 -0.0065973783 -0.10881367
-0.1952645 -0.006524229 -0.10880458
-0.19527426 -0.0064529316 -0.10880151
-0.1952837 -0.0063793929 -0.10881039
-0.19529364 -0.0063060708 -0.10880928
-0.19530368 -0.0062349029 -0.10880022
-0.19531401 -0.0061617531 -0.10879114
-0.19532396 -0.0060905428 -0.10878406
-0.19533457 -0.0060175229 -0.10876898
-0.19534501 -0.0059465277 -0.10875194
-0.19535466 -0.0058730757 -0.10875682
-0.19536389 -0.0057994509 -0.10876969
-0.19537346 -0.0057280669 -0.10877062
-0.19538407 -0.005655047 -0.10875554
-0.19539481 -0.0055841822 -0.1087325
-0.19540474 -0.0055108597 -0.1087314
-0.19541331 -0.0054369317 -0.10875825
-0.19542196 -0.0053630471 -0.10878311
-0.19543083 -0.0052892491 -0.10880397
-0.19544007 -0.0052156234 -0.10881685
-0.19544974 -0.0051442832 -0.10881578
-0.19546005 -0.0050711338 -0.10880669
-0.1954702 -0.0050000092 -0.10879562
-0.19548014 -0.0049266871 -0.10879452
-0.19548997 -0.0048533208 -0.10879542
-0.19549952 -0.0047819372 -0.10879634
-0.19550917 -0.0047084852 -0.10880123
-0.19551851 -0.0046349033 -0.10881211
-0.19552766 -0.0045612343 -0.10882699
-0.19553702 -0.0044876533 -0.10883786
-0.19554678 -0.0044163549 -0.1088348
-0.19555621 -0.0043428172 -0.10884368
-0.19556469 -0.0042688455 -0.10887253
-0.19557334 -0.0041949609 -0.10889738
-0.19558287 -0.0041193538 -0.10891023
-0.19559272 -0.0040481002 -0.10890516
-0.19560316 -0.0039771055 -0.10888811
-0.19561319 -0.0039038262 -0.10888502
-0.19562224 -0.0038301144 -0.10890188
-0.19563098 -0.0037541618 -0.10893071
-0.19563954 -0.0036802338 -0.10895757
-0.19564879 -0.0036066091 -0.10897045
-0.19565874 -0.0035353974 -0.10896339
-0.19566935 -0.0034623779 -0.1089483
-0.19567961 -0.0033912966 -0.10893524
-0.19568972 -0.0033180611 -0.10893013
-0.19569927 -0.0032445658 -0.10893703
-0.19570842 -0.0031708973 -0.1089519
-0.19571766 -0.0030972715 -0.10896478
-0.19572702 -0.0030236896 -0.10897566
-0.19573645 -0.0029501515 -0.10898454
-0.19574609 -0.002876699 -0.10898943
-0.19575585 -0.0028054016 -0.10898636
-0.19576588 -0.0027321223 -0.10898326
-0.19577572 -0.0026587564 -0.10898415
-0.19578525 -0.0025852621 -0.10899104
-0.19579479 -0.0025117658 -0.10899792
-0.19580454 -0.0024383571 -0.10900081
-0.19581439 -0.0023671035 -0.10899574
-0.19582452 -0.0022938671 -0.10899065
-0.19583386 -0.0022202851 -0.10900152
-0.19584271 -0.0021464871 -0.10902239
-0.19585197 -0.0020728614 -0.10903527
-0.1958618 -0.0019994956 -0.10903616
-0.19587183 -0.0019262172 -0.10903306
-0.19588156 -0.0018528085 -0.10903595
-0.19589093 -0.001781337 -0.10904087
-0.19590086 -0.0017080158 -0.10903976
-0.19591118 -0.001634866 -0.10903067
-0.19592094 -0.0015635686 -0.1090276
-0.19593048 -0.0014900723 -0.10903449
-0.19594079 -0.0014169235 -0.1090254
-0.19595154 -0.0013460591 -0.10900235
-0.19596177 -0.0012749778 -0.1089893
-0.19597152 -0.0012015682 -0.1089922
-0.19598076 -0.0011279434 -0.10900507
-0.19598998 -0.0010522064 -0.10902391
-0.19599865 -0.0009783227 -0.10904877
-0.19600797 -0.00090262853 -0.10906561
-0.19601792 -0.00083141867 -0.10905854
-0.19602834 -0.00075831171 -0.10904745
-0.1960382 -0.00068705715 -0.10904238
-0.19604801 -0.00061157998 -0.10904924
-0.19605727 -0.00054006651 -0.10905615
-0.19606729 -0.00046467502 -0.10905902
-0.19607694 -0.00039333478 -0.10905795
-0.19608678 -0.00031996984 -0.10905883
-0.19609609 -0.0002442766 -0.10907568
-0.19610545 -0.00017069466 -0.10908657
-0.19611488 -9.7155571e-05 -0.10909544
-0.19612403 -2.3487955e-05 -0.10911031
-0.19613348 5.0051138e-05 -0.1091192
-0.19614321 0.00012345985 -0.10912208
-0.19615324 0.0001967391 -0.10911898
-0.19616337 0.00026997551 -0.10911389
-0.19617301 0.00034342706 -0.10911877
-0.19618244 0.00041696616 -0.10912766
-0.19619247 0.00049024448 -0.10912456
-0.19620253 0.00056141242 -0.1091155
-0.19621256 0.00063469261 -0.1091124
-0.19622271 0.00070581678 -0.10910134
-0.19623323 0.00077887904 -0.10908825
-0.19624308 0.00085013267 -0.10908318
-0.19625269 0.00092569739 -0.10909403
-0.19626145 0.00099953916 -0.10911689
-0.19627109 0.0010729907 -0.10912178
-0.19628112 0.001146269 -0.10911869
-0.19629104 0.0012195921 -0.10911758
-0.196301 0.0012908038 -0.10911052
-0.19631113 0.0013640393 -0.10910542
-0.19632086 0.0014374489 -0.10910831
-0.1963302 0.001511029 -0.10911918
-0.19633923 0.0015868535 -0.10914202
-0.19634868 0.0016603926 -0.1091509
-0.19635861 0.0017337147 -0.1091498
-0.19636874 0.0018069493 -0.1091447
-0.19637905 0.0018800991 -0.10913561
-0.196389 0.0019513108 -0.10912854
-0.19639853 0.0020269174 -0.10914139
-0.19640785 0.0021026107 -0.10915823
-0.19641732 0.0021740384 -0.10916116
-0.19642696 0.00224749 -0.10916604
-0.19643657 0.0023230538 -0.1091769
-0.1964466 0.0023963321 -0.10917379
-0.19645694 0.0024673706 -0.10915873
-0.19646677 0.0025407365 -0.10915963
-0.19647612 0.0026143175 -0.10917051
-0.19648631 0.0026896223 -0.10916938
-0.19649646 0.0027607465 -0.10915831
-0.19650659 0.0028339829 -0.10915322
-0.19651613 0.0029074783 -0.10916011
-0.19652557 0.0029810164 -0.10916899
-0.19653548 0.0030564498 -0.10917385
-0.19654514 0.003127791 -0.10917278
-0.19655494 0.0032032682 -0.10917962
-0.1965639 0.0032770224 -0.10919849
-0.19657364 0.003350432 -0.10920139
-0.19658425 0.0034234514 -0.1091863
-0.19659398 0.0034968611 -0.10918919
-0.19660363 0.0035703117 -0.10919408
-0.19661374 0.003643549 -0.10918899
-0.19662361 0.0037148036 -0.10918392
-0.19663392 0.0037879525 -0.10917483
-0.19664437 0.0038589463 -0.10915777
-0.19665459 0.0039321398 -0.10915069
-0.19666323 0.0040081358 -0.1091815
-0.19667172 0.0040883981 -0.10922624
-0.19668087 0.0041620657 -0.10924112
-0.19669071 0.0042354316 -0.10924201
-0.19670132 0.004308451 -0.10922693
-0.19671138 0.0043796189 -0.10921786
-0.1967213 0.0044529419 -0.10921676
-0.19673125 0.0045241527 -0.1092097
-0.19674087 0.0045997165 -0.10922055
-0.19674981 0.0046755821 -0.10924537
-0.19676003 0.0047487766 -0.10923828
-0.19677064 0.004821796 -0.1092232
-0.19678029 0.0048931353 -0.10922212
-0.19678932 0.004968958 -0.10924496
-0.19679885 0.0050445665 -0.1092578
-0.19680868 0.0051179305 -0.1092587
-0.19681868 0.005193321 -0.10926156
-0.1968286 0.0052666441 -0.10926045
-0.19683854 0.0053399671 -0.10925935
-0.19684847 0.0054132883 -0.10925825
-0.1968586 0.0054865256 -0.10925315
-0.19686843 0.0055598915 -0.10925405
-0.19687755 0.0056356713 -0.10927489
-0.19688669 0.0057114493 -0.10929572
-0.19689649 0.0057869274 -0.10930257
-0.19690633 0.0058602933 -0.10930347
-0.19691616 0.0059336592 -0.10930435
-0.19692579 0.0060071107 -0.10930924
-0.1969354 0.0060826726 -0.1093201
-0.19694515 0.0061560851 -0.10932299
-0.19695507 0.0062294062 -0.10932188
-0.19696508 0.0063047949 -0.10932475
-0.19697481 0.0063782055 -0.10932764
-0.19698416 0.0064517874 -0.10933851
-0.19699375 0.0065294616 -0.10935532
-0.19700329 0.0066029578 -0.10936221
-0.19701332 0.006676238 -0.10935912
-0.19702305 0.0067496467 -0.109362
-0.19703276 0.0068251658 -0.10937086
-0.19704218 0.0069008172 -0.1093857
-0.19705141 0.0069765523 -0.10940453
-0.19706132 0.0070519857 -0.1094094
-0.19707096 0.0071254391 -0.10941429
-0.19708058 0.0071988907 -0.10941917
-0.19709091 0.0072720405 -0.10941008
-0.19710115 0.0073431209 -0.10939702
-0.19711116 0.0074185114 -0.10939988
-0.1971207 0.0074920077 -0.10940677
-0.19713041 0.0075675268 -0.10941562
-0.19714002 0.0076430887 -0.10942647
-0.19715017 0.0077142157 -0.10941541
-0.1971609 0.0077850819 -0.10939237
-0.19717103 0.0078583173 -0.10938728
-0.19718075 0.0079338364 -0.10939613
-0.19719057 0.0080072023 -0.10939702
-0.1972007 0.0080804378 -0.10939193
-0.19721101 0.0081535894 -0.10938283
-0.19722115 0.0082268231 -0.10937773
-0.19723107 0.0083001461 -0.10937663
-0.1972412 0.0083733816 -0.10937154
-0.19725011 0.0084513593 -0.10940232
-0.1972595 0.0085291229 -0.10942313
-0.19726902 0.0086047277 -0.10943598
-0.19727863 0.0086802896 -0.10944682
-0.19728827 0.0087537449 -0.10945172
-0.19729871 0.0088247396 -0.10943466
-0.19730964 0.0088955164 -0.10940763
-0.19732048 0.0089663398 -0.10938259
-0.1973311 0.0090372488 -0.10936154
-0.19734113 0.0091105253 -0.10935844
-0.19735065 0.0091861319 -0.10937128
-0.19735987 0.0092618708 -0.10939012
-0.1973698 0.0093351919 -0.10938902
-0.19738236 0.0093989447 -0.10931215
-0.19739312 0.0094676968 -0.10928314
-0.19740345 0.0095408484 -0.10927405
-0.19741325 0.0096163247 -0.10928091
-0.1974235 0.0096874051 -0.10926786
-0.19743457 0.0097539183 -0.1092269
-0.1974456 0.0098246541 -0.10919786
-0.19745503 0.0098981913 -0.10920674
-0.19746432 0.0099781081 -0.1092355
-0.19748729 0.010106565 -0.1091257
-0.19750017 0.010168076 -0.10903686
-0.19750951 0.010241656 -0.10904774
-0.19756912 0.010687882 -0.10905701
-0.19263555 -0.025456857 -0.11032847
-0.19265781 -0.025367998 -0.11012935
-0.19267301 -0.025288612 -0.11004226
-0.19268762 -0.025208961 -0.10996713
-0.19270109 -0.025130905 -0.10991002
-0.19271664 -0.025049577 -0.10982089
-0.19273154 -0.024970058 -0.1097398
-0.19274653 -0.024890581 -0.10965668
-0.19275829 -0.024815969 -0.1096236
-0.19276966 -0.024741184 -0.1095985
-0.19278207 -0.024664763 -0.10955739
-0.1927941 -0.024588168 -0.10952427
-0.19280508 -0.024513211 -0.10950716
-0.1928158 -0.024440235 -0.10949008
-0.19282801 -0.024363726 -0.10945297
-0.19416736 -0.01479449 -0.10846989
-0.19417575 -0.014722588 -0.10849478
-0.19418548 -0.014649179 -0.10849767
-0.19419515 -0.014577838 -0.1084966
-0.19420423 -0.014506238 -0.10850751
-0.19421396 -0.014432829 -0.1085104
-0.19422401 -0.014361662 -0.10850134
-0.19423443 -0.014288556 -0.10849025
-0.19424495 -0.014215492 -0.10847717
-0.1942545 -0.014144109 -0.10847808
-0.19426434 -0.014070743 -0.10847898
-0.19427401 -0.013999402 -0.10847791
-0.19428325 -0.013925777 -0.10849078
-0.19429193 -0.013854004 -0.10850968
-0.19430101 -0.013782403 -0.10852059
-0.19431056 -0.013708908 -0.10852747
-0.19431944 -0.01363722 -0.10854238
-0.19432928 -0.013563856 -0.10854327
-0.19433923 -0.013492645 -0.10853621
-0.19435003 -0.013419711 -0.10851713
-0.19436103 -0.013346865 -0.10849406
-0.19437051 -0.013275437 -0.10849697
-0.19437955 -0.013201726 -0.10851385
-0.19438854 -0.013130083 -0.10852675
-0.19439769 -0.013056414 -0.10854163
-0.19440676 -0.012984814 -0.10855254
-0.19441611 -0.012911232 -0.10856342
-0.19442509 -0.012839588 -0.10857633
-0.19443512 -0.012766309 -0.10857322
-0.19444546 -0.012695272 -0.10855817
-0.19445607 -0.012622251 -0.10854309
-0.19446602 -0.01255104 -0.10853603
-0.19447537 -0.012477458 -0.10854691
-0.19448444 -0.012405858 -0.10855781
-0.19449398 -0.012332363 -0.1085647
-0.19450307 -0.012260763 -0.1085756
-0.19451338 -0.012187613 -0.10856652
-0.1945239 -0.012114551 -0.10855342
-0.19453336 -0.012043123 -0.10855635
-0.19454224 -0.011971436 -0.10857125
-0.19455139 -0.011897768 -0.10858613
-0.19456096 -0.011826385 -0.10858706
-0.19457148 -0.011753322 -0.10857397
-0.1945817 -0.011680128 -0.10856687
-0.19459058 -0.011608442 -0.10858177
-0.19459905 -0.011534471 -0.10861063
-0.19460754 -0.011462611 -0.10863352
-0.19461614 -0.011390794 -0.10865442
-0.19462538 -0.011317169 -0.10866729
-0.19463475 -0.011245699 -0.10867221
-0.19464459 -0.011172334 -0.1086731
-0.19465435 -0.011101035 -0.10867003
-0.19466466 -0.011027887 -0.10866094
-0.19467518 -0.010954823 -0.10864786
-0.19468533 -0.010883699 -0.1086368
-0.19469632 -0.010810852 -0.10861372
-0.19470677 -0.010739857 -0.10859667
-0.19471592 -0.010666189 -0.10861155
-0.19472449 -0.010592261 -0.10863841
-0.19473307 -0.010520445 -0.1086593
-0.19474193 -0.010446647 -0.10868016
-0.19475111 -0.01037509 -0.10868908
-0.19476104 -0.010301767 -0.10868797
-0.1947706 -0.010230383 -0.1086889
-0.19478053 -0.010157061 -0.1086878
-0.19479066 -0.010083825 -0.1086827
-0.19480081 -0.0100127 -0.10867164
-0.19481122 -0.0099395942 -0.10866054
-0.19482069 -0.0098681673 -0.10866347
-0.19482994 -0.0097945416 -0.10867634
-0.19483911 -0.0097229853 -0.10868526
-0.19484875 -0.0096495328 -0.10869014
-0.19485809 -0.0095759509 -0.10870103
-0.19486727 -0.0095043946 -0.10870994
-0.1948771 -0.0094310287 -0.10871083
-0.19488667 -0.0093596447 -0.10871176
-0.19489552 -0.0092858467 -0.10873263
-0.19490439 -0.0092120478 -0.10875349
-0.19491374 -0.0091405772 -0.1087584
-0.19492388 -0.0090673417 -0.1087533
-0.19493394 -0.0089961737 -0.10874424
-0.19494416 -0.0089229811 -0.10873715
-0.19495428 -0.0088497456 -0.10873205
-0.19496384 -0.0087783616 -0.10873297
-0.19497269 -0.0087045636 -0.10875384
-0.19498178 -0.0086329635 -0.10876475
-0.1949922 -0.0085598566 -0.10875367
-0.19500281 -0.0084868371 -0.10873857
-0.19501315 -0.0084157996 -0.10872352
-0.195023 -0.008344545 -0.10871845
-0.19503264 -0.0082710925 -0.10872334
-0.19504209 -0.0081975535 -0.10873222
-0.19505134 -0.0081239287 -0.1087451
-0.19506051 -0.0080523724 -0.10875401
-0.19507045 -0.0079790503 -0.10875291
-0.1950804 -0.0079078386 -0.10874584
-0.19509022 -0.0078344736 -0.10874674
-0.19509947 -0.0077608479 -0.10875961
-0.19510835 -0.0076891612 -0.10877452
-0.19511828 -0.0076158387 -0.10877342
-0.19512841 -0.0075426027 -0.10876831
-0.19513807 -0.007471262 -0.10876724
-0.19514829 -0.0073980694 -0.10876015
-0.19515865 -0.0073270313 -0.1087451
-0.19516779 -0.0072533628 -0.10875997
-0.19517606 -0.0071793054 -0.10879282
-0.1951856 -0.0071058101 -0.1087997
-0.19519575 -0.0070346855 -0.10878865
-0.19520558 -0.0069613196 -0.10878954
-0.19521524 -0.0068899789 -0.10878847
-0.19522479 -0.006816484 -0.10879535
-0.19523403 -0.0067428583 -0.10880823
-0.19524348 -0.0066693202 -0.10881711
-0.19525324 -0.0065980223 -0.10881404
-0.19526346 -0.0065248297 -0.10880695
-0.19527312 -0.006453489 -0.10880587
-0.19528267 -0.0063799936 -0.10881276
-0.19529259 -0.0063066711 -0.10881165
-0.19530274 -0.0062355469 -0.10880059
-0.19531307 -0.0061623971 -0.10879151
-0.19532311 -0.0060912296 -0.10878244
-0.19533363 -0.0060181664 -0.10876935
-0.19534397 -0.0059471289 -0.1087543
-0.19535361 -0.0058736764 -0.10875919
-0.19536296 -0.0058000945 -0.10877007
-0.19537242 -0.0057286676 -0.10877299
-0.19538313 -0.005655691 -0.10875591
-0.19539386 -0.0055848258 -0.10873286
-0.1954037 -0.0055114604 -0.10873376
-0.19541235 -0.0054375757 -0.10875862
-0.19542103 -0.0053636911 -0.10878348
-0.19542988 -0.0052898927 -0.10880435
-0.19543903 -0.0052162241 -0.10881922
-0.1954487 -0.0051448834 -0.10881815
-0.19545911 -0.0050717779 -0.10880706
-0.19546926 -0.0050006532 -0.10879599
-0.19547909 -0.0049272873 -0.10879689
-0.19548893 -0.0048539219 -0.10879778
-0.19549859 -0.0047825808 -0.10879671
-0.19550812 -0.0047090859 -0.10880359
-0.19551747 -0.0046355035 -0.10881448
-0.19552663 -0.004561835 -0.10882935
-0.19553606 -0.0044882963 -0.10883823
-0.19554573 -0.0044169556 -0.10883716
-0.19555517 -0.0043434175 -0.10884604
-0.19556364 -0.0042694462 -0.10887489
-0.19557241 -0.0041956045 -0.10889775
-0.19558191 -0.0041199978 -0.1089106
-0.19559178 -0.0040487442 -0.10890553
-0.19560212 -0.0039777057 -0.10889047
-0.19561215 -0.0039044265 -0.10888738
-0.1956213 -0.0038307584 -0.10890225
-0.19562994 -0.003754762 -0.10893308
-0.1956386 -0.0036808774 -0.10895794
-0.19564775 -0.0036072088 -0.10897282
-0.19565797 -0.0035340162 -0.10896572
-0.19566841 -0.0034630215 -0.10894867
-0.19567865 -0.0033919401 -0.1089356
-0.19568878 -0.0033187047 -0.10893051
-0.19569832 -0.0032452093 -0.10893739
-0.19570738 -0.003171497 -0.10895427
-0.19571662 -0.0030978722 -0.10896714
-0.19572607 -0.0030243332 -0.10897602
-0.19573551 -0.002950795 -0.1089849
-0.19574514 -0.0028773434 -0.1089898
-0.1957549 -0.0028060451 -0.10898673
-0.19576493 -0.0027327659 -0.10898363
-0.19577467 -0.0026593572 -0.10898652
-0.19578421 -0.0025858618 -0.1089934
-0.19579375 -0.0025123665 -0.10900028
-0.19580339 -0.002438914 -0.10900517
-0.19581324 -0.0023676604 -0.10900011
-0.19582346 -0.0022944678 -0.10899301
-0.19583282 -0.0022208858 -0.10900389
-0.19584177 -0.0021471307 -0.10902276
-0.19585101 -0.0020735059 -0.10903563
-0.19586085 -0.0020001391 -0.10903654
-0.19587077 -0.001926817 -0.10903543
-0.19588041 -0.0018533655 -0.10904032
-0.19588989 -0.0017819377 -0.10904323
-0.1958999 -0.0017086593 -0.10904013
-0.19591023 -0.0016355095 -0.10903104
-0.19591999 -0.0015642121 -0.10902797
-0.19592953 -0.0014907159 -0.10903486
-0.19593985 -0.001417567 -0.10902576
-0.19595048 -0.0013466589 -0.10900472
-0.19596073 -0.0012755785 -0.10899166
-0.19597057 -0.0012022117 -0.10899256
-0.19597971 -0.0011285441 -0.10900743
-0.19598904 -0.0010528499 -0.10902427
-0.1959977 -0.00097896531 -0.10904914
-0.19600703 -0.00090327207 -0.10906597
-0.19601698 -0.00083206221 -0.1090589
-0.1960274 -0.00075895526 -0.10904782
-0.19603716 -0.00068765692 -0.10904475
-0.19604696 -0.00061218068 -0.10905161
-0.1960565 -0.00053868536 -0.10905848
-0.19606623 -0.00046527572 -0.10906138
-0.19607599 -0.00039397832 -0.10905831
-0.19608583 -0.00032061338 -0.10905921
-0.19609505 -0.00024487637 -0.10907805
-0.1961045 -0.00017133821 -0.10908693
-0.19611384 -9.7756274e-05 -0.1090978
-0.19612299 -2.4087727e-05 -0.10911268
-0.19613244 4.9451366e-05 -0.10912156
-0.19614208 0.00012290291 -0.10912645
-0.19615211 0.0001961831 -0.10912335
-0.19616222 0.00026941858 -0.10911825
-0.19617195 0.00034282822 -0.10912114
-0.1961816 0.00041627884 -0.10912603
-0.19619162 0.00048955902 -0.10912293
-0.19620149 0.00056081358 -0.10911787
-0.19621161 0.00063404907 -0.10911277
-0.19622175 0.00070517324 -0.10910171
-0.19623236 0.00077819359 -0.10908662
-0.19624212 0.00084949005 -0.10908355
-0.19625165 0.00092509761 -0.10909639
-0.1962605 0.00099889562 -0.10911726
-0.19627005 0.0010723909 -0.10912415
-0.19628006 0.0011456693 -0.10912105
-0.19629 0.0012189914 -0.10911994
-0.19630022 0.0012921849 -0.10911285
-0.19631007 0.0013634395 -0.10910778
-0.19631991 0.0014368054 -0.10910868
-0.19632916 0.0015104301 -0.10912155
-0.19633828 0.0015862109 -0.10914239
-0.19634762 0.0016597919 -0.10915326
-0.19635765 0.0017330712 -0.10915016
-0.19636779 0.0018063067 -0.10914507
-0.1963781 0.0018794555 -0.10913598
-0.19638805 0.0019506672 -0.10912891
-0.19639757 0.0020262739 -0.10914176
-0.1964069 0.002101968 -0.10915861
-0.19641653 0.0021754187 -0.10916349
-0.19642617 0.0022488711 -0.10916837
-0.19643562 0.0023224102 -0.10917726
-0.19644564 0.0023956895 -0.10917415
-0.19645588 0.0024667718 -0.1091611
-0.19646572 0.0025401358 -0.109162
-0.19647506 0.0026137186 -0.10917288
-0.19648527 0.0026890235 -0.10917175
-0.1964955 0.0027601039 -0.10915869
-0.19650564 0.0028333394 -0.10915359
-0.19651508 0.0029068785 -0.10916247
-0.19652443 0.0029804604 -0.10917335
-0.19653443 0.003055851 -0.10917622
-0.19654419 0.0031271484 -0.10917314
-0.19655409 0.0032025827 -0.109178
-0.19656305 0.0032763369 -0.10919686
-0.19657278 0.0033497466 -0.10919975
-0.19658311 0.0034228954 -0.10919067
-0.19659284 0.0034963042 -0.10919356
-0.19660257 0.0035697129 -0.10919645
-0.1966126 0.0036429912 -0.10919335
-0.19662255 0.0037142029 -0.10918628
-0.19663297 0.0037873099 -0.1091752
-0.19664341 0.0038583037 -0.10915814
-0.19665363 0.0039314963 -0.10915105
-0.19666228 0.0040074922 -0.10918187
-0.19667067 0.0040877992 -0.10922861
-0.19667973 0.0041615106 -0.10924547
-0.19668975 0.0042347889 -0.10924238
-0.1967001 0.0043058284 -0.10922732
-0.19671032 0.0043790191 -0.10922023
-0.19672035 0.0044522993 -0.10921713
-0.19673057 0.004525492 -0.10921004
-0.19673991 0.0045990739 -0.10922092
-0.19674885 0.0046749394 -0.10924575
-0.19675907 0.0047481321 -0.10923865
-0.19676968 0.0048211515 -0.10922357
-0.19677952 0.0048945192 -0.10922445
-0.19678855 0.0049703401 -0.1092473
-0.19679806 0.0050459467 -0.10926014
-0.19680773 0.0051172879 -0.10925907
-0.19681773 0.0051926784 -0.10926192
-0.19682765 0.0052660014 -0.10926082
-0.19683759 0.0053393245 -0.10925972
-0.19684751 0.0054126456 -0.10925861
-0.19685754 0.0054859258 -0.10925552
-0.19686738 0.0055592917 -0.10925641
-0.1968766 0.0056350268 -0.10927524
-0.19688572 0.0057108067 -0.10929608
-0.19689554 0.0057862848 -0.10930294
-0.19690527 0.0058596935 -0.10930583
-0.1969151 0.0059330594 -0.10930672
-0.19692464 0.0060065538 -0.10931361
-0.19693445 0.00608203 -0.10932046
-0.19694428 0.0061553977 -0.10932136
-0.19695422 0.0062287189 -0.10932026
-0.19696422 0.0063041095 -0.10932311
-0.19697386 0.0063775629 -0.10932801
-0.1969832 0.0064511448 -0.10933888
-0.19699278 0.006528819 -0.10935569
-0.19700234 0.0066023152 -0.10936258
-0.19701236 0.0066755936 -0.10935948
-0.19702199 0.006749047 -0.10936437
-0.19703171 0.0068245661 -0.10937322
-0.19704123 0.0069001745 -0.10938607
-0.19705045 0.0069759097 -0.10940491
-0.19706035 0.0070513431 -0.10940977
-0.19706999 0.0071247965 -0.10941465
-0.19707954 0.0071982909 -0.10942154
-0.19708985 0.0072714407 -0.10941244
-0.1971001 0.0073425211 -0.10939939
-0.19711 0.0074179582 -0.10940425
-0.19711982 0.0074934326 -0.1094111
-0.19712935 0.007566927 -0.10941798
-0.19713897 0.0076424927 -0.10942884
-0.19714922 0.0077135731 -0.10941578
-0.19716005 0.0077843964 -0.10939074
-0.19717017 0.00785763 -0.10938565
-0.19717978 0.0079331938 -0.1093965
-0.19718961 0.0080065615 -0.10939739
-0.19719975 0.0080797952 -0.10939229
