# .PCD v0.7 - Point Cloud Data file format
VERSION 0.7
FIELDS x y z
SIZE 4 4 4
TYPE F F F
COUNT 1 1 1
WIDTH 1287
HEIGHT 1
VIEWPOINT 0 0 0 1 0 0 0
POINTS 1287
DATA ascii
-0.19468653 -0.010885497 -0.10863654
-0.19469753 -0.01081265 -0.10861346
-0.19470787 -0.010741612 -0.10859841
-0.19471702 -0.010667942 -0.10861329
-0.19472559 -0.010594015 -0.10864014
-0.19473417 -0.010522198 -0.10866104
-0.19474304 -0.0104484 -0.1086819
-0.1947522 -0.010376843 -0.10869082
-0.19476214 -0.01030352 -0.10868972
-0.19477169 -0.010232136 -0.10869064
-0.19478163 -0.010158814 -0.10868954
-0.19479175 -0.010085577 -0.10868444
-0.1948019 -0.010014453 -0.10867338
-0.19481231 -0.0099413469 -0.10866228
-0.19482177 -0.0098699192 -0.10866521
-0.19483103 -0.0097962935 -0.10867809
-0.19484021 -0.0097247371 -0.108687
-0.19484994 -0.0096513275 -0.10868989
-0.19485918 -0.0095777027 -0.10870276
-0.19486836 -0.0095061455 -0.10871167
-0.19487828 -0.0094328225 -0.10871057
-0.19488785 -0.0093614385 -0.1087115
-0.1948968 -0.0092876833 -0.10873037
-0.19490556 -0.0092138425 -0.10875323
-0.19491483 -0.0091423281 -0.10876014
-0.19492495 -0.0090690926 -0.10875504
-0.1949349 -0.0089978809 -0.10874797
-0.19494523 -0.0089247311 -0.10873889
-0.19495535 -0.0088514956 -0.10873379
-0.19496492 -0.0087801106 -0.10873471
-0.19497377 -0.0087063126 -0.10875558
-0.19498312 -0.0086327307 -0.10876646
-0.19499327 -0.0085616056 -0.1087554
-0.19500397 -0.008488629 -0.10873832
-0.19501422 -0.0084175486 -0.10872526
-0.19502407 -0.0083462941 -0.1087202
-0.1950338 -0.0082728844 -0.10872308
-0.19504315 -0.0081993025 -0.10873396
-0.1950523 -0.0081256339 -0.10874884
-0.19506158 -0.0080541205 -0.10875575
-0.1950715 -0.0079807974 -0.10875465
-0.19508146 -0.0079095867 -0.10874759
-0.19509138 -0.0078362636 -0.10874648
-0.19510053 -0.0077625955 -0.10876136
-0.19510952 -0.0076909522 -0.10877426
-0.19511935 -0.0076175863 -0.10877516
-0.19512956 -0.0075443932 -0.10876806
-0.19513912 -0.0074730092 -0.10876898
-0.19514945 -0.0073998598 -0.10875989
-0.19515969 -0.0073287785 -0.10874683
-0.19516884 -0.0072551095 -0.10876171
-0.19517711 -0.0071810521 -0.10879456
-0.19518666 -0.0071075563 -0.10880144
-0.19519681 -0.0070364317 -0.10879038
-0.19520663 -0.0069630658 -0.10879128
-0.1952163 -0.0068917251 -0.10879021
-0.19522583 -0.0068182298 -0.10879709
-0.19523507 -0.0067446041 -0.10880996
-0.19524452 -0.0066710655 -0.10881885
-0.19525428 -0.0065997681 -0.10881577
-0.1952645 -0.006526575 -0.10880868
-0.19527416 -0.0064552343 -0.10880761
-0.1952837 -0.0063817385 -0.1088145
-0.19529364 -0.0063084159 -0.1088134
-0.19530378 -0.0062372913 -0.10880233
-0.19531409 -0.0061641419 -0.10879324
-0.19532415 -0.006092974 -0.10878418
-0.19533466 -0.0060199108 -0.10877109
-0.195345 -0.0059488728 -0.10875604
-0.19535464 -0.0058754203 -0.10876093
-0.19536398 -0.0058018384 -0.1087718
-0.19537345 -0.005730411 -0.10877473
-0.19538416 -0.0056574345 -0.10875765
-0.19539489 -0.0055865692 -0.10873461
-0.19540483 -0.0055132462 -0.10873351
-0.19541338 -0.0054393187 -0.10876036
-0.19542205 -0.0053654341 -0.10878523
-0.1954309 -0.0052916361 -0.10880608
-0.19544005 -0.0052179671 -0.10882096
-0.19544971 -0.0051466259 -0.10881989
-0.19546013 -0.0050735204 -0.10880879
-0.19547018 -0.0050023519 -0.10879973
-0.19548011 -0.0049290294 -0.10879863
-0.19548994 -0.0048556635 -0.10879952
-0.1954996 -0.0047843223 -0.10879844
-0.19550924 -0.0047108708 -0.10880334
-0.19551848 -0.0046372451 -0.10881621
-0.19552763 -0.0045635765 -0.10883109
-0.19553708 -0.0044900379 -0.10883997
-0.19554673 -0.0044186967 -0.1088389
-0.19555618 -0.0043451586 -0.10884778
-0.19556464 -0.0042711869 -0.10887663
-0.1955734 -0.0041973451 -0.10889949
-0.19558282 -0.0041216947 -0.10891434
-0.19559278 -0.0040504844 -0.10890727
-0.19560312 -0.0039794459 -0.10889222
-0.19561315 -0.0039061662 -0.10888912
-0.1956223 -0.0038324981 -0.10890399
-0.19563094 -0.0037565017 -0.10893481
-0.1956396 -0.0036826171 -0.10895967
-0.19564885 -0.0036089923 -0.10897256
-0.19565897 -0.0035357559 -0.10896745
-0.19566931 -0.0034647174 -0.1089524
-0.19567965 -0.0033936789 -0.10893735
-0.19568968 -0.0033203997 -0.10893425
-0.19569932 -0.0032469481 -0.10893913
-0.19570836 -0.0031732358 -0.10895601
-0.19571762 -0.003099611 -0.10896888
-0.19572705 -0.0030260719 -0.10897776
-0.1957365 -0.0029525328 -0.10898665
-0.19574614 -0.0028790804 -0.10899154
-0.1957559 -0.002807783 -0.10898846
-0.19576591 -0.0027345037 -0.10898537
-0.19577575 -0.0026611378 -0.10898625
-0.19578528 -0.0025876425 -0.10899314
-0.19579482 -0.0025141472 -0.10900003
-0.19580457 -0.0024407376 -0.10900293
-0.19581433 -0.0023694402 -0.10899985
-0.19582444 -0.0022962037 -0.10899475
-0.19583389 -0.0022226656 -0.10900363
-0.19584274 -0.0021488667 -0.1090245
-0.19585189 -0.0020751981 -0.10903937
-0.19586182 -0.002001876 -0.10903827
-0.19587184 -0.0019285968 -0.10903517
-0.19588149 -0.0018551443 -0.10904006
-0.19589086 -0.0017836727 -0.10904498
-0.19590078 -0.0017103516 -0.10904387
-0.1959112 -0.0016372455 -0.10903278
-0.19592096 -0.0015659472 -0.10902971
-0.1959305 -0.0014924509 -0.10903659
-0.19594081 -0.0014193011 -0.1090275
-0.19595145 -0.001348393 -0.10900646
-0.1959617 -0.0012773126 -0.1089934
-0.19597152 -0.0012039468 -0.10899431
-0.19598077 -0.001130322 -0.10900718
-0.19599 -0.001054584 -0.10902601
-0.19599865 -0.00098069943 -0.10905087
-0.19600798 -0.00090500619 -0.10906772
-0.19601794 -0.00083379541 -0.10906065
-0.19602835 -0.00076068845 -0.10904956
-0.19603811 -0.00068939105 -0.10904649
-0.19604792 -0.00061391387 -0.10905335
-0.19605745 -0.00054041762 -0.10906023
-0.19606718 -0.00046700891 -0.10906312
-0.19607705 -0.00039575528 -0.10905805
-0.19608678 -0.00032234564 -0.10906094
-0.19609609 -0.0002466524 -0.10907779
-0.19610544 -0.00017306954 -0.10908867
-0.19611488 -9.9531375e-05 -0.10909755
-0.19612403 -2.5862828e-05 -0.10911242
-0.19613348 4.7675334e-05 -0.10912131
-0.19614311 0.00012112875 -0.1091262
-0.19615313 0.000194408 -0.10912309
-0.19616327 0.00026764348 -0.109118
-0.196173 0.00034105312 -0.10912088
-0.19618253 0.00041454751 -0.10912777
-0.19619256 0.00048782676 -0.10912468
-0.19620252 0.00055903848 -0.1091176
-0.19621255 0.00063231867 -0.1091145
-0.19622278 0.00070339907 -0.10910144
-0.1962333 0.00077646226 -0.10908836
-0.19624315 0.00084771682 -0.10908329
-0.19625267 0.00092332438 -0.10909614
-0.19626144 0.00099716615 -0.109119
-0.19627106 0.0010706177 -0.10912389
-0.196281 0.0011439398 -0.10912278
-0.19629093 0.0012172619 -0.10912168
-0.19630124 0.0012904126 -0.1091126
-0.196311 0.00136171 -0.10910952
-0.19632083 0.0014350768 -0.10911041
-0.19633017 0.0015086569 -0.10912129
-0.1963392 0.0015844814 -0.10914413
-0.19634865 0.0016580205 -0.10915301
-0.19635858 0.0017313436 -0.10915191
-0.19636869 0.0018045781 -0.10914681
-0.19637892 0.0018777717 -0.10913972
-0.19638897 0.0019489396 -0.10913065
-0.19639859 0.0020245025 -0.1091415
-0.19640781 0.0021002404 -0.10916034
-0.19641744 0.002173692 -0.10916523
-0.19642708 0.0022471435 -0.10917011
-0.19643652 0.0023206836 -0.109179
-0.19644655 0.0023939619 -0.1091759
-0.19645689 0.0024650013 -0.10916084
-0.19646662 0.0025384091 -0.10916373
-0.19647607 0.0026119482 -0.10917262
-0.19648616 0.0026872968 -0.10917348
-0.19649641 0.0027583772 -0.10916042
-0.19650653 0.0028316136 -0.10915533
-0.19651608 0.002905109 -0.10916222
-0.19652542 0.0029786909 -0.10917309
-0.19653532 0.0030541252 -0.10917795
-0.19654508 0.0031254226 -0.10917488
-0.19655499 0.003200857 -0.10917974
-0.19656394 0.0032746121 -0.10919861
-0.19657367 0.0033480208 -0.1092015
-0.19658409 0.0034211278 -0.10919041
-0.19659382 0.0034945365 -0.1091933
-0.19660357 0.0035679443 -0.10919619
-0.19661358 0.0036412245 -0.10919309
-0.19662353 0.0037124362 -0.10918603
-0.19663386 0.0037855851 -0.10917693
-0.19664431 0.0038565798 -0.10915987
-0.19665462 0.0039297296 -0.10915079
-0.19666316 0.0040057683 -0.1091836
-0.19667165 0.0040860316 -0.10922835
-0.19668071 0.004159743 -0.10924522
-0.19669063 0.004233066 -0.10924412
-0.19670098 0.0043041036 -0.10922907
-0.19671129 0.0043772534 -0.10921997
-0.19672123 0.0044505764 -0.10921887
-0.19673134 0.0045238119 -0.10921377
-0.19674069 0.0045973938 -0.10922465
-0.19674972 0.0046732184 -0.10924748
-0.19675994 0.004746411 -0.10924038
-0.19677055 0.0048194304 -0.1092253
-0.1967802 0.0048907697 -0.10922423
-0.19678923 0.0049665943 -0.10924707
-0.19679876 0.0050422009 -0.10925991
-0.19680868 0.0051155239 -0.10925881
-0.19681868 0.0051909145 -0.10926167
-0.19682851 0.0052642804 -0.10926256
-0.19683845 0.0053376034 -0.10926146
-0.19684838 0.0054109246 -0.10926036
-0.1968585 0.0054841619 -0.10925526
-0.19686833 0.0055575278 -0.10925615
-0.19687755 0.0056332648 -0.10927498
-0.19688658 0.0057090856 -0.10929783
-0.19689639 0.0057845637 -0.10930467
-0.19690622 0.0058579315 -0.10930558
-0.19691606 0.0059312973 -0.10930646
-0.19692549 0.0060048345 -0.10931535
-0.1969353 0.0060803108 -0.10932221
-0.19694504 0.0061537214 -0.1093251
-0.19695497 0.0062270444 -0.10932399
-0.19696507 0.0063023902 -0.10932485
-0.19697469 0.0063758437 -0.10932975
-0.19698414 0.0064493828 -0.10933863
-0.19699363 0.0065270998 -0.10935743
-0.19700328 0.006600555 -0.10936233
-0.1970133 0.0066738315 -0.10935922
-0.19702312 0.0067471974 -0.10936012
-0.19703273 0.006822763 -0.10937097
-0.19704206 0.0068984553 -0.10938781
-0.19705129 0.0069741923 -0.10940664
-0.1970612 0.0070496257 -0.10941151
-0.19707093 0.0071230344 -0.10941439
-0.19708046 0.0071965307 -0.10942128
-0.19709069 0.0072697233 -0.10941418
-0.19710103 0.0073407609 -0.10939913
-0.19711103 0.0074161533 -0.10940199
-0.19712056 0.0074896477 -0.10940888
-0.19713038 0.007565124 -0.10941573
-0.19713999 0.0076406877 -0.10942659
-0.19715014 0.0077118129 -0.10941552
-0.19716077 0.0077827219 -0.10939448
-0.1971709 0.0078559592 -0.10938939
-0.1971806 0.0079314783 -0.10939823
-0.19719043 0.0080048442 -0.10939912
-0.19720057 0.0080780797 -0.10939403
-0.19721088 0.0081512313 -0.10938494
-0.19722101 0.008224465 -0.10937984
-0.19723094 0.008297788 -0.10937874
-0.19724105 0.0083710253 -0.10937364
-0.19724977 0.0084490888 -0.10940843
-0.19725935 0.0085267648 -0.10942524
-0.1972689 0.0086002573 -0.10943212
-0.19727841 0.0086758677 -0.10944497
-0.19728832 0.0087513011 -0.10944983
-0.19729885 0.008822253 -0.10943078
-0.19730997 0.0088929441 -0.10939974
-0.19732033 0.0089639835 -0.10938469
-0.19733056 0.0090350658 -0.10937164
-0.19734049 0.0091083869 -0.10937054
-0.1973501 0.0091839507 -0.10938139
-0.19735973 0.0092595145 -0.10939223
-0.19736981 0.0093348622 -0.1093931
-0.1973816 0.0093989596 -0.1093322
-0.19739284 0.0094674975 -0.10929321
-0.19740312 0.0095364675 -0.10927419
-0.19741301 0.0096119009 -0.10927904
-0.19742334 0.0096850507 -0.10926996
-0.1974346 0.0097514782 -0.109225
-0.19744505 0.0098224729 -0.10920795
-0.19745478 0.0098958798 -0.10921084
-0.19746397 0.009973729 -0.10923564
-0.19748761 0.010103993 -0.10911781
-0.19749971 0.010165852 -0.10904496
-0.19755045 0.010529876 -0.10901152
-0.192636 -0.025460433 -0.11033177
-0.19265872 -0.02536968 -0.11012863
-0.19267371 -0.025290204 -0.11004552
-0.19268842 -0.025210598 -0.1099684
-0.19270189 -0.025132542 -0.10991129
-0.19271745 -0.025051214 -0.10982216
-0.19273198 -0.024973633 -0.10974307
-0.19274734 -0.024892218 -0.10965795
-0.1927591 -0.024817606 -0.10962486
-0.19277057 -0.024742864 -0.10959776
-0.19278288 -0.024666401 -0.10955866
-0.19279481 -0.024589762 -0.10952754
-0.19280578 -0.024514806 -0.10951043
-0.1928166 -0.024441872 -0.10949135
-0.19282901 -0.024365451 -0.10945024
-0.19416803 -0.01479611 -0.10847116
-0.19417644 -0.014724207 -0.10849605
-0.19418617 -0.014650797 -0.10849895
-0.19419582 -0.014579456 -0.10849787
-0.1942049 -0.014507856 -0.10850877
-0.19421464 -0.014434448 -0.10851166
-0.1942246 -0.014363237 -0.10850461
-0.1942351 -0.014290174 -0.10849152
-0.19424562 -0.01421711 -0.10847843
-0.19425519 -0.014145726 -0.10847935
-0.19426501 -0.01407236 -0.10848024
-0.19427468 -0.014001019 -0.10847917
-0.19428392 -0.013927395 -0.10849205
-0.1942926 -0.01385562 -0.10851095
-0.19430168 -0.01378402 -0.10852186
-0.19431122 -0.013710525 -0.10852874
-0.1943201 -0.013638837 -0.10854365
-0.19432993 -0.013565472 -0.10854454
-0.19433989 -0.013494261 -0.10853748
-0.19435069 -0.013421328 -0.1085184
-0.1943617 -0.013348481 -0.10849532
-0.19437116 -0.013277054 -0.10849825
-0.19438021 -0.013203342 -0.10851511
-0.19438919 -0.013131699 -0.10852803
-0.19439834 -0.013058029 -0.1085429
-0.19440742 -0.012986429 -0.1085538
-0.19441676 -0.012912847 -0.10856469
-0.19442575 -0.012841203 -0.10857759
-0.19443576 -0.012767924 -0.10857449
-0.19444612 -0.012696886 -0.10855944
-0.19445662 -0.012623822 -0.10854636
-0.19446658 -0.012552612 -0.10853929
-0.19447592 -0.01247903 -0.10855016
-0.1944851 -0.012407473 -0.10855908
-0.19449453 -0.012333934 -0.10856796
-0.19450371 -0.012262377 -0.10857688
-0.19451404 -0.012189227 -0.10856778
-0.19452465 -0.012116208 -0.1085527
-0.19453391 -0.012044693 -0.10855962
-0.19454288 -0.01197305 -0.10857253
-0.19455203 -0.011899382 -0.1085874
-0.1945616 -0.011827997 -0.10858832
-0.19457212 -0.011754935 -0.10857524
-0.19458224 -0.011681698 -0.10857013
-0.19459122 -0.011610055 -0.10858304
-0.19459932 -0.011538021 -0.10861392
-0.19460818 -0.011464223 -0.10863478
-0.19461676 -0.011392407 -0.10865568
-0.19462602 -0.011318781 -0.10866857
-0.19463538 -0.011247311 -0.10867348
-0.19464532 -0.011173989 -0.10867237
-0.19465497 -0.011102648 -0.1086713
-0.19466519 -0.011029455 -0.10866421
-0.19467571 -0.010956392 -0.10865112
-0.19468606 -0.010885354 -0.10863607
-0.19469705 -0.010812507 -0.10861299
-0.19470739 -0.010741469 -0.10859793
-0.19471654 -0.0106678 -0.10861281
-0.19472511 -0.010593873 -0.10863967
-0.19473369 -0.010522055 -0.10866057
-0.19474256 -0.010448257 -0.10868143
-0.19475172 -0.0103767 -0.10869035
-0.19476165 -0.010303378 -0.10868925
-0.19477122 -0.010231994 -0.10869016
-0.19478115 -0.010158671 -0.10868906
-0.19479127 -0.010085435 -0.10868397
-0.19480142 -0.01001431 -0.1086729
-0.19481184 -0.0099412035 -0.10866182
-0.1948213 -0.0098697767 -0.10866474
-0.19483055 -0.009796151 -0.10867761
-0.19483972 -0.0097245947 -0.10868653
-0.19484936 -0.0096511422 -0.10869141
-0.1948587 -0.0095775602 -0.10870229
-0.19486788 -0.009506003 -0.10871121
-0.19487771 -0.0094326371 -0.1087121
-0.19488727 -0.0093612531 -0.10871302
-0.19489622 -0.009287498 -0.1087319
-0.19490498 -0.0092136562 -0.10875475
-0.19491436 -0.0091421856 -0.10875967
-0.19492438 -0.0090689063 -0.10875656
-0.19493453 -0.0089977821 -0.10874551
-0.19494484 -0.0089246323 -0.10873642
-0.19495498 -0.0088513959 -0.10873131
-0.19496444 -0.0087799691 -0.10873424
-0.19497329 -0.0087061711 -0.1087551
-0.19498236 -0.0086345701 -0.10876602
-0.19499278 -0.008561464 -0.10875493
-0.19500341 -0.0084884446 -0.10873985
-0.19501375 -0.0084174061 -0.10872479
-0.1950236 -0.0083461516 -0.10871973
-0.19503324 -0.0082727 -0.10872461
-0.19504267 -0.0081991609 -0.10873349
-0.19505182 -0.0081254914 -0.10874837
-0.1950611 -0.008053978 -0.10875528
-0.19507103 -0.0079806559 -0.10875418
-0.19508098 -0.0079094451 -0.10874712
-0.19509082 -0.0078360792 -0.108748
-0.19510005 -0.0077624535 -0.10876089
-0.19510894 -0.0076907668 -0.10877579
-0.19511887 -0.0076174438 -0.10877469
-0.19512899 -0.0075442079 -0.10876959
-0.19513865 -0.0074728671 -0.10876851
-0.19514887 -0.0073996745 -0.10876142
-0.19515921 -0.007328636 -0.10874636
-0.19516836 -0.0072549675 -0.10876124
-0.19517654 -0.0071808668 -0.10879608
-0.19518608 -0.007107371 -0.10880297
-0.19519633 -0.0070362901 -0.10878991
-0.19520625 -0.0069629671 -0.10878881
-0.19521582 -0.0068915831 -0.10878974
-0.19522536 -0.0068180878 -0.10879662
-0.19523451 -0.0067444192 -0.1088115
-0.19524404 -0.0066709234 -0.10881839
-0.1952538 -0.0065996256 -0.1088153
-0.19526403 -0.0065264329 -0.10880821
-0.19527368 -0.0064550922 -0.10880714
-0.19528322 -0.0063815964 -0.10881403
-0.19529316 -0.0063082739 -0.10881293
-0.19530331 -0.0062371492 -0.10880186
-0.19531372 -0.0061640432 -0.10879077
-0.19532368 -0.006092832 -0.10878371
-0.19533418 -0.0060197688 -0.10877062
-0.19534452 -0.0059487307 -0.10875557
-0.19535416 -0.0058752783 -0.10876046
-0.19536351 -0.0058016963 -0.10877133
-0.19537297 -0.0057302695 -0.10877425
-0.19538368 -0.0056572924 -0.10875718
-0.19539441 -0.0055864276 -0.10873414
-0.19540435 -0.0055131046 -0.10873304
-0.1954129 -0.0054391772 -0.10875989
-0.19542167 -0.0053653354 -0.10878275
-0.19543043 -0.0052914936 -0.10880561
-0.19543958 -0.0052178251 -0.10882049
-0.19544925 -0.0051464839 -0.10881942
-0.19545956 -0.005073335 -0.10881032
-0.19546971 -0.0050022099 -0.10879926
-0.19547963 -0.0049288874 -0.10879815
-0.19548947 -0.004855522 -0.10879905
-0.19549912 -0.0047841808 -0.10879797
-0.19550867 -0.0047106855 -0.10880486
-0.19551802 -0.0046371035 -0.10881574
-0.19552717 -0.004563435 -0.10883062
-0.1955366 -0.0044898959 -0.1088395
-0.19554627 -0.0044185547 -0.10883842
-0.1955557 -0.0043450166 -0.10884731
-0.19556418 -0.0042710453 -0.10887617
-0.19557293 -0.0041972036 -0.10889903
-0.19558245 -0.0041215965 -0.10891186
-0.1955923 -0.0040503424 -0.1089068
-0.19560255 -0.003979261 -0.10889374
-0.19561267 -0.0039060251 -0.10888865
-0.19562182 -0.0038323565 -0.10890352
-0.19563046 -0.0037563602 -0.10893434
-0.19563903 -0.0036824318 -0.1089612
-0.19564837 -0.0036088498 -0.10897208
-0.19565849 -0.0035356143 -0.10896698
-0.19566894 -0.0034646187 -0.10894994
-0.19567919 -0.0033935374 -0.10893688
-0.19568931 -0.0033203019 -0.10893178
-0.19569884 -0.0032468066 -0.10893866
-0.1957079 -0.0031730942 -0.10895553
-0.19571714 -0.0030994685 -0.10896841
-0.19572659 -0.0030259304 -0.1089773
-0.19573602 -0.0029523913 -0.10898618
-0.19574566 -0.0028789397 -0.10899107
-0.19575542 -0.0028076414 -0.10898799
-0.19576545 -0.0027343621 -0.1089849
-0.19577529 -0.0026609963 -0.10898579
-0.19578482 -0.002587501 -0.10899268
-0.19579436 -0.0025140056 -0.10899957
-0.195804 -0.0024405532 -0.10900445
-0.19581385 -0.0023692986 -0.10899938
-0.19582397 -0.0022960622 -0.10899428
-0.19583341 -0.002222524 -0.10900316
-0.19584227 -0.0021487251 -0.10902403
-0.19585143 -0.0020750565 -0.1090389
-0.19586135 -0.0020017345 -0.1090378
-0.19587128 -0.0019284114 -0.1090367
-0.19588101 -0.0018550027 -0.10903959
-0.19589038 -0.0017835321 -0.10904451
-0.19590031 -0.00171021 -0.1090434
-0.19591072 -0.001637104 -0.10903232
-0.19592048 -0.0015658066 -0.10902924
-0.19593003 -0.0014923103 -0.10903613
-0.19594035 -0.0014191605 -0.10902704
-0.19595107 -0.0013482952 -0.10900399
-0.19596133 -0.0012772148 -0.10899094
-0.19597106 -0.0012038052 -0.10899383
-0.19598021 -0.0011301376 -0.1090087
-0.19598953 -0.0010544434 -0.10902555
-0.19599819 -0.00098055881 -0.10905041
-0.19600751 -0.00090486463 -0.10906725
-0.19601746 -0.00083365384 -0.10906018
-0.19602787 -0.00076054689 -0.10904908
-0.19603764 -0.00068924949 -0.10904602
-0.19604744 -0.00061377231 -0.10905287
-0.19605699 -0.00054027699 -0.10905976
-0.19606672 -0.00046686828 -0.10906265
-0.19607657 -0.00039561372 -0.10905758
-0.1960863 -0.00032220408 -0.10906047
-0.19609563 -0.00024651177 -0.10907732
-0.19610497 -0.00017292984 -0.1090882
-0.19611442 -9.9390745e-05 -0.10909708
-0.19612347 -2.5678426e-05 -0.10911395
-0.19613291 4.7860667e-05 -0.10912284
-0.19614264 0.00012126938 -0.10912572
-0.19615267 0.00019454863 -0.10912262
-0.19616279 0.00026778504 -0.10911752
-0.19617243 0.00034123659 -0.10912241
-0.19618197 0.00041473191 -0.1091293
-0.196192 0.0004880121 -0.1091262
-0.19620205 0.00055918004 -0.10911714
-0.19621207 0.0006324593 -0.10911404
-0.19622232 0.00070354063 -0.10910098
-0.19623283 0.00077660289 -0.1090879
-0.19624259 0.00084790122 -0.10908482
-0.19625211 0.00092350878 -0.10909766
-0.19626096 0.00099730678 -0.10911853
-0.19627051 0.0010708021 -0.10912542
-0.19628052 0.0011440804 -0.10912231
-0.19629055 0.0012173597 -0.10911921
-0.19630077 0.0012905532 -0.10911213
-0.19631064 0.0013618078 -0.10910705
-0.19632037 0.0014352165 -0.10910995
-0.19632961 0.0015088413 -0.10912283
-0.19633874 0.0015846221 -0.10914367
-0.19634809 0.001658204 -0.10915454
-0.19635811 0.0017314833 -0.10915145
-0.19636823 0.0018047187 -0.10914634
-0.19637856 0.0018778685 -0.10913724
-0.19638851 0.0019490803 -0.10913018
-0.19639812 0.0020246431 -0.10914103
-0.19640735 0.0021003801 -0.10915987
-0.19641697 0.0021738326 -0.10916476
-0.19642662 0.0022472851 -0.10916965
-0.19643606 0.0023208233 -0.10917854
-0.19644609 0.0023941034 -0.10917543
-0.19645633 0.0024651848 -0.10916238
-0.19646616 0.0025385506 -0.10916327
-0.19647551 0.0026121316 -0.10917415
-0.1964857 0.0026874365 -0.10917301
-0.19649595 0.0027585179 -0.10915995
-0.19650607 0.0028317543 -0.10915486
-0.19651552 0.0029052934 -0.10916374
-0.19652486 0.0029788744 -0.10917462
-0.19653486 0.0030542649 -0.10917749
-0.19654462 0.0031255633 -0.10917441
-0.19655453 0.0032009967 -0.10917927
-0.19656348 0.0032747528 -0.10919814
-0.19657321 0.0033481605 -0.10920104
-0.19658354 0.0034213113 -0.10919194
-0.19659327 0.0034947209 -0.10919482
-0.196603 0.0035681278 -0.10919772
-0.19661303 0.0036414079 -0.10919461
-0.19662298 0.0037126197 -0.10918755
-0.1966334 0.0037857266 -0.10917646
-0.19664384 0.0038567204 -0.10915941
-0.19665405 0.003929914 -0.10915232
-0.19666269 0.004005909 -0.10918314
-0.19667119 0.0040861722 -0.10922788
-0.19668025 0.0041598845 -0.10924476
-0.19669017 0.0042332057 -0.10924365
-0.19670051 0.0043042451 -0.1092286
-0.19671074 0.0043774378 -0.1092215
-0.19672066 0.0044507608 -0.1092204
-0.19673088 0.0045239516 -0.1092133
-0.19674022 0.0045975335 -0.10922419
-0.19674926 0.0046733581 -0.10924701
-0.19675948 0.0047465507 -0.10923992
-0.19677009 0.0048195701 -0.10922484
-0.19677976 0.0048909113 -0.10922377
-0.19678877 0.004966734 -0.1092466
-0.19679829 0.0050423406 -0.10925945
-0.19680813 0.0051157083 -0.10926034
-0.19681823 0.0051910542 -0.1092612
-0.19682805 0.0052644201 -0.10926209
-0.19683799 0.0053377431 -0.10926098
-0.19684792 0.0054110661 -0.10925988
-0.19685803 0.0054843016 -0.10925479
-0.19686787 0.0055576675 -0.10925569
-0.196877 0.0056334473 -0.10927653
-0.19688612 0.0057092272 -0.10929736
-0.19689593 0.0057847053 -0.10930421
-0.19690576 0.0058580711 -0.10930511
-0.19691549 0.0059314799 -0.109308
-0.19692503 0.0060049742 -0.10931487
-0.19693485 0.0060804524 -0.10932174
-0.19694458 0.0061538611 -0.10932463
-0.1969545 0.0062271841 -0.10932352
-0.1969645 0.0063025728 -0.10932638
-0.19697425 0.0063759834 -0.10932928
-0.19698368 0.0064495225 -0.10933816
-0.19699317 0.0065272395 -0.10935697
-0.19700271 0.0066007376 -0.10936385
-0.19701284 0.0066739731 -0.10935876
-0.19702257 0.0067473818 -0.10936165
-0.19703229 0.0068229027 -0.10937049
-0.1970416 0.006898595 -0.10938734
-0.19705082 0.006974332 -0.10940617
-0.19706073 0.0070497654 -0.10941104
-0.19707046 0.0071231741 -0.10941393
-0.19707991 0.0071967132 -0.10942281
-0.19709022 0.0072698649 -0.10941372
-0.19710056 0.0073409006 -0.10939866
-0.19711058 0.007416293 -0.10940153
-0.19712012 0.0074897874 -0.10940842
-0.19712982 0.0075653065 -0.10941727
-0.19713953 0.0076408274 -0.10942612
-0.19714968 0.0077119526 -0.10941505
-0.19716059 0.0077848434 -0.10939398
-0.19717044 0.0078560971 -0.10938892
-0.19718015 0.007931618 -0.10939777
-0.19718999 0.0080049839 -0.10939866
-0.1972001 0.0080782194 -0.10939356
-0.19721043 0.008151371 -0.10938448
-0.19722055 0.0082246047 -0.10937938
-0.19723047 0.0082979277 -0.10937828
-0.19724061 0.008371165 -0.10937317
-0.19724931 0.0084492285 -0.10940796
-0.1972589 0.0085269045 -0.10942477
-0.19726844 0.0086003989 -0.10943165
-0.19727796 0.0086760074 -0.1094445
-0.19728786 0.0087514408 -0.10944936
-0.19729839 0.0088223927 -0.10943031
-0.19730952 0.0088930838 -0.10939928
-0.19731995 0.0089640804 -0.10938223
-0.19733012 0.0090352055 -0.10937118
-0.19734013 0.0091084838 -0.10936807
-0.19734974 0.0091840457 -0.10937893
-0.19735926 0.0092596542 -0.10939177
-0.19736937 0.0093350019 -0.10939263
-0.19738095 0.0093991868 -0.10933572
-0.1973922 0.0094677228 -0.10929674
-0.19740266 0.0095366072 -0.10927372
-0.19741257 0.0096120406 -0.10927858
-0.19742298 0.0096851476 -0.1092675
-0.19743405 0.0097516589 -0.10922653
-0.19744459 0.0098226126 -0.10920749
-0.19745442 0.0098959766 -0.10920838
-0.19746362 0.009973824 -0.10923319
-0.19747457 0.010042492 -0.10920019
-0.19748725 0.01010409 -0.10911535
-0.19749913 0.010168144 -0.10905245
-0.19754992 0.010527946 -0.10900708
-0.19263519 -0.025459521 -0.11032917
-0.19265792 -0.025368767 -0.11012603
-0.19267301 -0.025289334 -0.11004093
-0.19268762 -0.025209688 -0.1099658
-0.19270098 -0.025131587 -0.10991069
-0.19271664 -0.025050301 -0.10981956
-0.19273165 -0.024970826 -0.10973646
-0.19274655 -0.024891306 -0.10965535
-0.19275829 -0.024816692 -0.10962226
-0.19276977 -0.024741951 -0.10959516
-0.19278207 -0.024665486 -0.10955606
-0.19279401 -0.024588849 -0.10952493
-0.19280472 -0.024515873 -0.10950785
-0.1928158 -0.024440959 -0.10948875
-0.19282812 -0.024364494 -0.10944964
-0.1941673 -0.014795206 -0.10846855
-0.19417571 -0.014723304 -0.10849345
-0.19418544 -0.014649895 -0.10849634
-0.19419509 -0.014578555 -0.10849527
-0.19420418 -0.014506955 -0.10850617
-0.19421391 -0.014433545 -0.10850906
-0.19422387 -0.014362334 -0.108502
-0.19423428 -0.014289228 -0.10849091
-0.19424489 -0.014216208 -0.10847583
-0.19425446 -0.014144824 -0.10847676
-0.19426429 -0.014071458 -0.10847764
-0.19427395 -0.014000117 -0.10847657
-0.1942831 -0.013926448 -0.10849144
-0.19429189 -0.013854719 -0.10850835
-0.19430096 -0.013783119 -0.10851926
-0.1943104 -0.01370958 -0.10852814
-0.19431938 -0.013637936 -0.10854105
-0.19432922 -0.013564571 -0.10854194
-0.19433917 -0.013493359 -0.10853488
-0.19434997 -0.013420426 -0.1085158
-0.19436097 -0.01334758 -0.10849272
-0.19437045 -0.013276152 -0.10849565
-0.19437949 -0.013202441 -0.10851251
-0.19438837 -0.013130754 -0.10852742
-0.19439763 -0.013057129 -0.1085403
-0.1944067 -0.012985528 -0.1085512
-0.19441594 -0.012911904 -0.10856408
-0.19442502 -0.012840303 -0.10857499
-0.19443496 -0.012766981 -0.10857389
-0.1944453 -0.012695942 -0.10855884
-0.19445591 -0.012622923 -0.10854375
-0.19446586 -0.012551712 -0.10853669
-0.1944752 -0.01247813 -0.10854757
-0.19448438 -0.012406573 -0.10855647
-0.19449383 -0.012333034 -0.10856535
-0.19450299 -0.012261476 -0.10857428
-0.19451332 -0.012188327 -0.10856518
-0.19452393 -0.012115307 -0.1085501
-0.1945333 -0.012043837 -0.10855502
-0.19454218 -0.01197215 -0.10856993
-0.19455133 -0.011898481 -0.1085848
-0.1945609 -0.011827098 -0.10858572
-0.19457132 -0.011753991 -0.10857463
-0.19458154 -0.011680799 -0.10856754
-0.19459042 -0.011609112 -0.10858244
-0.19459862 -0.011537123 -0.10861132
-0.19460738 -0.011463281 -0.10863418
-0.19461606 -0.011391507 -0.10865308
-0.1946253 -0.011317883 -0.10866596
-0.19463468 -0.011246412 -0.10867088
-0.1946446 -0.01117309 -0.10866977
-0.19465417 -0.011101706 -0.1086707
-0.19466449 -0.011028556 -0.10866161
-0.194675 -0.010955493 -0.10864852
-0.19468535 -0.010884454 -0.10863347
-0.19469635 -0.010811608 -0.10861039
-0.1947068 -0.010740614 -0.10859334
-0.19471584 -0.010666902 -0.10861021
-0.19472441 -0.010592974 -0.10863707
-0.19473299 -0.010521158 -0.10865797
-0.19474186 -0.010447359 -0.10867883
-0.19475102 -0.010375802 -0.10868774
-0.19476096 -0.010302479 -0.10868664
-0.19477053 -0.010231095 -0.10868756
-0.19478045 -0.010157773 -0.10868646
-0.19479057 -0.010084537 -0.10868137
-0.19480072 -0.010013413 -0.10867031
-0.19481114 -0.0099403067 -0.10865922
-0.1948207 -0.0098689226 -0.10866013
-0.19482985 -0.0097952541 -0.10867501
-0.19483903 -0.0097236969 -0.10868392
-0.19484867 -0.0096502444 -0.10868881
-0.19485801 -0.0095766624 -0.10869969
-0.19486709 -0.0095050624 -0.1087106
-0.19487701 -0.0094317403 -0.1087095
-0.19488658 -0.0093603563 -0.10871042
-0.19489545 -0.0092865573 -0.10873129
-0.1949043 -0.0092127593 -0.10875215
-0.19491367 -0.0091412887 -0.10875707
-0.1949237 -0.0090680094 -0.10875396
-0.19493385 -0.0089968853 -0.10874291
-0.19494407 -0.0089236926 -0.10873581
-0.19495419 -0.0088504562 -0.10873072
-0.19496365 -0.0087790284 -0.10873364
-0.1949726 -0.0087052742 -0.1087525
-0.19498169 -0.0086336732 -0.10876342
-0.19499211 -0.0085605681 -0.10875233
-0.19500272 -0.0084875477 -0.10873725
-0.19501306 -0.0084165102 -0.10872219
-0.19502282 -0.0083452128 -0.10871912
-0.19503255 -0.0082718031 -0.10872201
-0.195042 -0.008198265 -0.10873089
-0.19505115 -0.0081245955 -0.10874577
-0.19506042 -0.008053083 -0.10875268
-0.19507045 -0.0079798028 -0.10874958
-0.1950803 -0.0079085492 -0.10874452
-0.19509013 -0.0078351833 -0.1087454
-0.19509938 -0.0077615581 -0.10875828
-0.19510816 -0.0076898281 -0.10877518
-0.19511819 -0.0076165483 -0.10877208
-0.19512832 -0.0075433129 -0.10876698
-0.19513798 -0.0074719721 -0.10876591
-0.1951482 -0.007398779 -0.10875881
-0.19515854 -0.007327741 -0.10874376
-0.1951676 -0.0072540296 -0.10876064
-0.19517587 -0.0071799718 -0.10879348
-0.19518541 -0.0071064765 -0.10880037
-0.19519566 -0.0070353951 -0.10878731
-0.19520548 -0.0069620293 -0.10878821
-0.19521515 -0.0068906881 -0.10878713
-0.19522458 -0.0068171499 -0.10879602
-0.19523384 -0.0067435242 -0.1088089
-0.19524337 -0.0066700289 -0.10881577
-0.19525313 -0.0065987315 -0.1088127
-0.19526327 -0.0065254956 -0.10880761
-0.19527319 -0.006452173 -0.10880651
-0.19528256 -0.0063807024 -0.10881142
-0.19529249 -0.0063073803 -0.10881032
-0.19530264 -0.0062362556 -0.10879926
-0.19531296 -0.0061631058 -0.10879017
-0.19532301 -0.0060919384 -0.10878111
-0.19533353 -0.0060188752 -0.10876802
-0.19534387 -0.0059478371 -0.10875297
-0.19535351 -0.0058743851 -0.10875785
-0.19536275 -0.0058007594 -0.10877073
-0.19537231 -0.0057293759 -0.10877165
-0.19538303 -0.0056563993 -0.10875458
-0.19539376 -0.005585534 -0.10873153
-0.19540368 -0.0055122115 -0.10873043
-0.19541225 -0.005438284 -0.10875729
-0.19542092 -0.0053643989 -0.10878215
-0.19542977 -0.0052906005 -0.10880301
-0.19543892 -0.0052169319 -0.10881789
-0.19544858 -0.0051455912 -0.10881682
-0.1954589 -0.0050724423 -0.10880771
-0.19546905 -0.0050013177 -0.10879666
-0.19547898 -0.0049279951 -0.10879555
-0.19548881 -0.0048546288 -0.10879645
-0.19549848 -0.0047832886 -0.10879537
-0.19550802 -0.0047097933 -0.10880226
-0.19551736 -0.0046362113 -0.10881314
-0.19552651 -0.0045625428 -0.10882802
-0.19553596 -0.0044890037 -0.1088369
-0.19554561 -0.0044176634 -0.10883582
-0.19555506 -0.0043441248 -0.1088447
-0.19556352 -0.0042701536 -0.10887356
-0.19557229 -0.0041963118 -0.10889642
-0.1955817 -0.0041206614 -0.10891127
-0.19559166 -0.0040494511 -0.1089042
-0.1956019 -0.0039783693 -0.10889114
-0.19561192 -0.00390509 -0.10888804
-0.19562107 -0.0038314215 -0.10890292
-0.19562982 -0.0037554684 -0.10893174
-0.19563848 -0.0036815843 -0.10895661
-0.19564773 -0.0036079586 -0.10896948
-0.19565785 -0.0035347231 -0.10896438
-0.1956683 -0.0034637284 -0.10894734
-0.19567853 -0.003392647 -0.10893427
-0.19568856 -0.0033193678 -0.10893118
-0.1956982 -0.0032459153 -0.10893606
-0.19570735 -0.0031722467 -0.10895093
-0.1957165 -0.0030985782 -0.10896581
-0.19572595 -0.00302504 -0.1089747
-0.19573538 -0.0029515009 -0.10898358
-0.19574486 -0.0028800741 -0.1089865
-0.19575478 -0.0028067511 -0.10898539
-0.19576481 -0.0027334718 -0.10898229
-0.19577454 -0.0026600622 -0.10898519
-0.19578418 -0.0025866106 -0.10899007
-0.19579363 -0.0025130725 -0.10899895
-0.19580336 -0.0024396628 -0.10900185
-0.19581312 -0.0023683654 -0.10899878
-0.19582334 -0.0022951728 -0.10899168
-0.19583268 -0.0022215908 -0.10900256
-0.19584164 -0.0021478366 -0.10902143
-0.19585089 -0.0020742109 -0.1090343
-0.19586071 -0.002000845 -0.1090352
-0.19587065 -0.001927522 -0.1090341
-0.19588029 -0.0018540705 -0.10903899
-0.19588976 -0.0017826427 -0.1090419
-0.19589968 -0.0017093206 -0.1090408
-0.1959102 -0.0016362583 -0.10902771
-0.19591996 -0.0015649591 -0.10902464
-0.19592939 -0.0014914209 -0.10903352
-0.19593972 -0.0014182711 -0.10902443
-0.19595036 -0.001347363 -0.10900339
-0.1959606 -0.0012762826 -0.10899033
-0.19597043 -0.0012029158 -0.10899123
-0.19597958 -0.0011292482 -0.1090061
-0.19598891 -0.001053554 -0.10902295
-0.19599757 -0.00097967032 -0.1090478
-0.19600688 -0.00090397615 -0.10906464
-0.19601683 -0.00083276629 -0.10905757
-0.19602725 -0.00075965934 -0.10904648
-0.19603701 -0.000688361 -0.10904342
-0.19604683 -0.00061288476 -0.10905027
-0.19605637 -0.00053938944 -0.10905716
-0.1960661 -0.0004659798 -0.10906005
-0.19607586 -0.0003946824 -0.10905698
-0.19608559 -0.00032127276 -0.10905987
-0.19609492 -0.00024557952 -0.10907672
-0.19610435 -0.00017204136 -0.1090856
-0.1961138 -9.8502263e-05 -0.10909447
-0.19612285 -2.4790876e-05 -0.10911135
-0.19613229 4.8748218e-05 -0.10912023
-0.19614203 0.00012215693 -0.10912312
-0.19615196 0.00019547995 -0.10912202
-0.19616207 0.00026871543 -0.10911692
-0.19617182 0.00034212507 -0.10911981
-0.19618136 0.00041561946 -0.1091267
-0.19619147 0.00048885588 -0.1091216
-0.19620143 0.00056006666 -0.10911454
-0.19621146 0.00063334592 -0.10911144
-0.19622171 0.00070442632 -0.10909837
-0.19623221 0.00077749044 -0.10908528
-0.19624197 0.00084878691 -0.10908221
-0.1962515 0.00092439447 -0.10909506
-0.19626062 0.0010001743 -0.1091159
-0.1962699 0.0010716887 -0.10912281
-0.19627993 0.001144967 -0.10911971
-0.19628985 0.0012182891 -0.10911861
-0.19630016 0.0012914399 -0.10910952
-0.19631003 0.0013626944 -0.10910445
-0.19631976 0.0014361031 -0.10910735
-0.19632901 0.0015097279 -0.10912022
-0.19633804 0.0015855515 -0.10914305
-0.19634748 0.0016590897 -0.10915193
-0.19635777 0.0017343508 -0.10914881
-0.19636764 0.0018056044 -0.10914373
-0.19637795 0.0018787542 -0.10913464
-0.1963879 0.001949966 -0.10912758
-0.19639751 0.0020255297 -0.10913843
-0.19640674 0.0021012668 -0.10915727
-0.19641638 0.0021747174 -0.10916216
-0.19642602 0.0022481699 -0.10916705
-0.19643545 0.0023217089 -0.10917593
-0.19644548 0.0023949882 -0.10917282
-0.19645573 0.0024660705 -0.10915977
-0.19646557 0.0025394345 -0.10916066
-0.19647491 0.0026130173 -0.10917155
-0.1964851 0.0026883222 -0.10917041
-0.19649535 0.0027594026 -0.10915735
-0.19650538 0.0028326819 -0.10915425
-0.19651492 0.0029061772 -0.10916114
-0.19652426 0.0029797591 -0.10917202
-0.19653426 0.0030551497 -0.10917488
-0.19654402 0.0031264471 -0.1091718
-0.19655393 0.0032018814 -0.10917667
-0.19656299 0.0032755937 -0.10919354
-0.19657262 0.0033490453 -0.10919842
-0.19658303 0.0034221523 -0.10918733
-0.19659267 0.0034956038 -0.10919222
-0.19660231 0.0035690553 -0.10919711
-0.19661243 0.0036422908 -0.10919201
-0.19662239 0.0037135025 -0.10918495
-0.1966328 0.0037866095 -0.10917386
-0.19664325 0.0038576033 -0.10915681
-0.19665347 0.0039307969 -0.10914971
-0.19666211 0.0040067928 -0.10918053
-0.19667061 0.0040870551 -0.10922527
-0.19667965 0.0041607674 -0.10924215
-0.19668959 0.0042340886 -0.10924105
-0.19669993 0.004305128 -0.10922599
-0.19671015 0.0043783206 -0.1092189
-0.19672008 0.0044516437 -0.1092178
-0.1967303 0.0045248363 -0.1092107
-0.19673964 0.0045984164 -0.10922158
-0.19674867 0.0046742409 -0.10924441
-0.1967589 0.0047474336 -0.10923732
-0.19676951 0.004820453 -0.10922223
-0.19677918 0.0048917942 -0.10922116
-0.19678821 0.0049676169 -0.10924399
-0.19679771 0.0050432235 -0.10925683
-0.19680755 0.0051165894 -0.10925774
-0.19681765 0.0051919371 -0.1092586
-0.19682749 0.005265303 -0.10925949
-0.19683741 0.0053386241 -0.10925838
-0.19684733 0.0054119471 -0.10925728
-0.19685747 0.0054851845 -0.10925219
-0.1968673 0.0055585504 -0.10925309
-0.19687642 0.0056343302 -0.10927391
-0.19688556 0.0057101101 -0.10929475
-0.19689536 0.0057855863 -0.1093016
-0.19690509 0.005858995 -0.1093045
-0.19691493 0.0059323628 -0.1093054
-0.19692446 0.0060058553 -0.10931227
-0.19693427 0.0060813315 -0.10931914
-0.19694401 0.006154744 -0.10932203
-0.19695394 0.0062280651 -0.10932092
-0.19696394 0.0063034538 -0.10932378
-0.19697368 0.0063768663 -0.10932668
-0.19698302 0.0064504463 -0.10933755
-0.19699261 0.0065281224 -0.10935436
-0.19700214 0.0066016186 -0.10936125
-0.19701228 0.0066748522 -0.10935615
-0.19702201 0.0067482628 -0.10935904
-0.19703172 0.0068237837 -0.10936789
-0.19704103 0.0068994761 -0.10938474
-0.19705026 0.0069752131 -0.10940357
-0.19706017 0.0070506465 -0.10940844
-0.1970699 0.0071240552 -0.10941133
-0.19707935 0.0071975943 -0.10942021
-0.19708967 0.0072707441 -0.10941111
-0.19710001 0.0073417816 -0.10939606
-0.19711001 0.0074171722 -0.10939892
-0.19711955 0.0074906684 -0.10940581
-0.19712926 0.0075661875 -0.10941466
-0.19713898 0.0076417066 -0.10942351
-0.19714902 0.0077128746 -0.10941445
-0.19716002 0.0077857245 -0.10939138
-0.19716978 0.0078570209 -0.10938831
-0.1971795 0.00793254 -0.10939716
-0.19718942 0.0080058631 -0.10939606
-0.19719955 0.0080790985 -0.10939095
-0.19720986 0.0081522502 -0.10938187
-0.19722 0.0082254838 -0.10937677
-0.19722992 0.0082988087 -0.10937566
-0.19724005 0.0083720442 -0.10937057
-0.19724876 0.0084501076 -0.10940535
-0.19725825 0.0085278265 -0.10942416
-0.19726816 0.0086032599 -0.10942902
-0.19727741 0.0086768866 -0.1094419
-0.19728722 0.0087523628 -0.10944875
-0.19729786 0.0088232718 -0.10942771
-0.19730897 0.0088939611 -0.10939667
-0.19731931 0.0089650005 -0.10938162
-0.19732957 0.0090360828 -0.10936857
-0.19733949 0.0091094058 -0.10936747
-0.1973491 0.0091849677 -0.10937831
-0.19735871 0.0092605334 -0.10938916
-0.19736865 0.0093338545 -0.10938806
-0.1973805 0.0094000213 -0.10933113
-0.19739164 0.0094686002 -0.10929414
-0.19740212 0.0095374845 -0.10927112
-0.19741201 0.0096129179 -0.10927598
-0.19742234 0.0096860696 -0.10926688
-0.1974335 0.0097525381 -0.10922392
-0.19744395 0.0098235328 -0.10920688
-0.19745378 0.0098968968 -0.10920777
-0.19746317 0.0099746604 -0.10922858
-0.19747412 0.010043327 -0.10919558
-0.19748671 0.010104967 -0.10911274
-0.1974984 0.010169109 -0.10905384
-0.19754948 0.010528781 -0.10900248
-0.19263555 -0.025460329 -0.11033139
-0.19265828 -0.025369577 -0.11012824
-0.19267328 -0.025290102 -0.11004513
-0.19268808 -0.025210539 -0.10996602
-0.19270155 -0.025132481 -0.1099089
-0.192717 -0.025051109 -0.10982177
-0.19273163 -0.024973571 -0.1097407
-0.19274691 -0.024892114 -0.10965756
-0.19275875 -0.024817545 -0.10962247
-0.19277012 -0.02474276 -0.10959738
-0.19278245 -0.024666296 -0.10955827
-0.19279437 -0.024589658 -0.10952715
-0.19280535 -0.024514701 -0.10951004
-0.19281615 -0.024441767 -0.10949096
-0.19282857 -0.024365347 -0.10944985
-0.19416752 -0.014795965 -0.10847278
-0.194176 -0.014724105 -0.10849567
-0.19418575 -0.014650695 -0.10849857
-0.1941954 -0.014579355 -0.10849749
-0.19420448 -0.014507754 -0.10850839
-0.19421421 -0.014434345 -0.10851128
-0.19422416 -0.014363134 -0.10850422
-0.19423468 -0.014290071 -0.10849113
-0.19424519 -0.014217008 -0.10847805
-0.19425476 -0.014145624 -0.10847897
-0.19426459 -0.014072258 -0.10847987
-0.19427425 -0.014000917 -0.1084788
-0.1942835 -0.013927292 -0.10849167
-0.19429219 -0.013855519 -0.10851057
-0.19430126 -0.013783919 -0.10852148
-0.19431071 -0.01371038 -0.10853036
-0.19431968 -0.013638736 -0.10854326
-0.19432952 -0.013565371 -0.10854416
-0.19433947 -0.013494159 -0.10853709
-0.19435027 -0.013421226 -0.10851801
-0.19436127 -0.013348379 -0.10849494
-0.19437075 -0.013276951 -0.10849787
-0.19437979 -0.01320324 -0.10851473
-0.19438878 -0.013131596 -0.10852765
-0.19439793 -0.013057928 -0.10854252
-0.194407 -0.012986328 -0.10855342
-0.19441624 -0.012912702 -0.10856631
-0.19442523 -0.012841059 -0.10857921
-0.19443525 -0.012767779 -0.10857611
-0.1944456 -0.012696741 -0.10856105
-0.1944562 -0.012623721 -0.10854597
-0.19446616 -0.01255251 -0.1085389
-0.19447559 -0.012478972 -0.10854779
-0.19448468 -0.012407372 -0.1085587
-0.19449411 -0.012333833 -0.10856758
-0.19450329 -0.012262275 -0.1085765
-0.1945136 -0.012189126 -0.1085674
-0.19452412 -0.012116062 -0.10855432
-0.1945335 -0.012044592 -0.10855924
-0.19454247 -0.011972949 -0.10857215
-0.19455162 -0.011899279 -0.10858702
-0.19456118 -0.011827895 -0.10858794
-0.1945717 -0.011754833 -0.10857485
-0.19458182 -0.011681597 -0.10856976
-0.1945907 -0.01160991 -0.10858466
-0.1945989 -0.011537921 -0.10861354
-0.19460776 -0.011464122 -0.10863441
-0.19461635 -0.011392306 -0.1086553
-0.1946256 -0.01131868 -0.10866819
-0.19463496 -0.011247209 -0.1086731
-0.19464479 -0.011173844 -0.10867399
-0.19465445 -0.011102503 -0.10867292
-0.19466478 -0.011029353 -0.10866383
-0.19467528 -0.01095629 -0.10865074
-0.19468564 -0.010885253 -0.10863569
-0.19469664 -0.010812405 -0.10861261
-0.19470698 -0.010741367 -0.10859756
-0.19471613 -0.010667698 -0.10861243
-0.19472469 -0.010593771 -0.10863929
-0.19473328 -0.010521954 -0.10866019
-0.19474214 -0.010448156 -0.10868105
-0.19475131 -0.010376599 -0.10868997
-0.19476123 -0.010303277 -0.10868887
-0.1947708 -0.010231893 -0.10868979
-0.19478074 -0.01015857 -0.10868868
-0.19479086 -0.010085333 -0.10868359
-0.194801 -0.010014209 -0.10867252
-0.19481142 -0.0099411029 -0.10866144
-0.19482088 -0.0098696752 -0.10866436
-0.19483013 -0.0097960504 -0.10867724
-0.1948393 -0.0097244931 -0.10868615
-0.19484894 -0.0096510407 -0.10869104
-0.19485819 -0.0095774159 -0.10870391
-0.19486736 -0.0095058586 -0.10871282
-0.1948773 -0.0094325356 -0.10871172
-0.19488686 -0.0093611516 -0.10871265
-0.19489571 -0.0092873536 -0.10873351
-0.19490457 -0.0092135556 -0.10875437
-0.19491394 -0.009142084 -0.10875929
-0.19492397 -0.0090688057 -0.10875618
-0.19493411 -0.0089976806 -0.10874513
-0.19494434 -0.008924488 -0.10873803
-0.19495445 -0.0088512516 -0.10873294
-0.19496402 -0.0087798676 -0.10873386
-0.19497287 -0.0087060696 -0.10875473
-0.19498196 -0.0086344685 -0.10876564
-0.19499238 -0.0085613634 -0.10875455
-0.19500299 -0.0084883431 -0.10873947
-0.19501333 -0.0084173046 -0.10872442
-0.19502309 -0.0083460072 -0.10872135
-0.19503282 -0.0082725985 -0.10872424
-0.19504227 -0.0081990594 -0.10873311
-0.19505142 -0.0081253909 -0.10874799
-0.19506069 -0.0080538774 -0.1087549
-0.19507061 -0.0079805553 -0.1087538
-0.19508056 -0.0079093436 -0.10874674
-0.1950904 -0.0078359777 -0.10874763
-0.19509964 -0.0077623525 -0.10876051
-0.19510852 -0.0076906658 -0.10877541
-0.19511846 -0.0076173432 -0.10877431
-0.19512857 -0.0075441073 -0.10876922
-0.19513823 -0.0074727661 -0.10876814
-0.19514845 -0.0073995739 -0.10876105
-0.19515881 -0.0073285354 -0.10874598
-0.19516785 -0.0072548231 -0.10876286
-0.19517612 -0.0071807657 -0.1087957
-0.19518577 -0.0071073137 -0.10880059
-0.19519591 -0.0070361891 -0.10878953
-0.19520575 -0.0069628228 -0.10879043
-0.1952154 -0.006891482 -0.10878936
-0.19522485 -0.0068179434 -0.10879824
-0.19523409 -0.0067443182 -0.10881112
-0.19524363 -0.0066708224 -0.10881801
-0.19525339 -0.006599525 -0.10881493
-0.19526352 -0.006526289 -0.10880984
-0.19527344 -0.0064529665 -0.10880873
-0.19528282 -0.0063814959 -0.10881365
-0.19529274 -0.0063081738 -0.10881255
-0.19530289 -0.0062370491 -0.10880148
-0.19531322 -0.0061638989 -0.10879239
-0.19532326 -0.0060927314 -0.10878333
-0.19533378 -0.0060196687 -0.10877024
-0.19534412 -0.0059486302 -0.10875519
-0.19535375 -0.0058751781 -0.10876009
-0.195363 -0.0058015524 -0.10877296
-0.19537257 -0.0057301689 -0.10877388
-0.19538327 -0.0056571923 -0.10875681
-0.19539401 -0.0055863271 -0.10873377
-0.19540393 -0.005513004 -0.10873266
-0.1954125 -0.0054390766 -0.10875951
-0.19542116 -0.005365192 -0.10878437
-0.19543003 -0.005291393 -0.10880523
-0.19543917 -0.0052177245 -0.10882011
-0.19544883 -0.0051463838 -0.10881904
-0.19545914 -0.0050732349 -0.10880995
-0.19546929 -0.0050021098 -0.10879889
-0.19547923 -0.0049287872 -0.10879779
-0.19548906 -0.0048554214 -0.10879868
-0.19549872 -0.0047840802 -0.1087976
-0.19550826 -0.0047105853 -0.10880449
-0.1955176 -0.0046370029 -0.10881536
-0.19552675 -0.0045633344 -0.10883024
-0.1955362 -0.0044897958 -0.10883912
-0.19554585 -0.0044184546 -0.10883804
-0.1955553 -0.0043449164 -0.10884693
-0.19556376 -0.0042709447 -0.10887579
-0.19557253 -0.0041971034 -0.10889865
-0.19558194 -0.004121453 -0.1089135
-0.19559179 -0.0040501989 -0.10890843
-0.19560213 -0.0039791609 -0.10889338
-0.19561216 -0.0039058817 -0.10889027
-0.19562131 -0.0038322126 -0.10890515
-0.19563006 -0.0037562596 -0.10893397
-0.19563861 -0.0036823321 -0.10896082
-0.19564787 -0.0036087073 -0.1089737
-0.19565809 -0.0035355138 -0.1089666
-0.19566843 -0.0034644753 -0.10895155
-0.19567877 -0.0033934377 -0.1089365
-0.1956888 -0.0033201585 -0.1089334
-0.19569844 -0.003246706 -0.10893829
-0.19570759 -0.0031730374 -0.10895316
-0.19571674 -0.0030993689 -0.10896804
-0.19572617 -0.0030258298 -0.10897692
-0.19573562 -0.0029522916 -0.1089858
-0.19574508 -0.0028808638 -0.10898872
-0.195755 -0.0028075418 -0.10898761
-0.19576503 -0.0027342625 -0.10898452
-0.19577487 -0.0026608966 -0.10898541
-0.1957844 -0.0025874013 -0.1089923
-0.19579396 -0.0025139051 -0.10899919
-0.19580358 -0.0024404526 -0.10900407
-0.19581345 -0.0023691989 -0.10899901
-0.19582357 -0.0022959625 -0.10899391
-0.19583301 -0.0022224244 -0.10900279
-0.19584186 -0.0021486254 -0.10902365
-0.19585112 -0.0020750007 -0.10903654
-0.19586094 -0.0020016348 -0.10903743
-0.19587088 -0.0019283118 -0.10903632
-0.1958805 -0.0018548602 -0.10904121
-0.19588998 -0.0017834324 -0.10904413
-0.1958999 -0.0017101103 -0.10904302
-0.19591032 -0.0016370034 -0.10903194
-0.19592008 -0.001565706 -0.10902887
-0.19592962 -0.0014922107 -0.10903575
-0.19593994 -0.0014190609 -0.10902666
-0.19595057 -0.0013481528 -0.10900562
-0.19596082 -0.0012770714 -0.10899256
-0.19597065 -0.0012037056 -0.10899346
-0.1959798 -0.001130037 -0.10900833
-0.19598912 -0.0010543428 -0.10902517
-0.19599779 -0.00098045915 -0.10905003
-0.1960071 -0.00090476498 -0.10906687
-0.19601706 -0.00083355419 -0.1090598
-0.19602747 -0.00076044817 -0.10904872
-0.19603723 -0.00068914983 -0.10904565
-0.19604704 -0.00061367266 -0.1090525
-0.19605657 -0.00054017734 -0.10905939
-0.19606641 -0.00046681147 -0.10906029
-0.19607617 -0.000395515 -0.10905721
-0.1960859 -0.00032210536 -0.1090601
-0.19609512 -0.00024636835 -0.10907894
-0.19610457 -0.00017282926 -0.10908782
-0.196114 -9.9291094e-05 -0.10909671
-0.19612306 -2.5578775e-05 -0.10911357
-0.1961325 4.7959387e-05 -0.10912246
-0.19614224 0.00012136903 -0.10912535
-0.19615217 0.00019469112 -0.10912424
-0.19616239 0.00026788469 -0.10911716
-0.19617203 0.00034133717 -0.10912204
-0.19618165 0.00041478779 -0.10912693
-0.19619168 0.00048806798 -0.10912383
-0.19620164 0.0005592797 -0.10911676
-0.19621167 0.00063255895 -0.10911366
-0.19622181 0.00070368312 -0.10910261
-0.19623242 0.00077670254 -0.10908752
-0.19624218 0.00084800087 -0.10908444
-0.19625171 0.0009236075 -0.10909729
-0.19626082 0.00099938642 -0.10911813
-0.19627009 0.0010709018 -0.10912505
-0.19628012 0.0011441801 -0.10912194
-0.19629005 0.0012175031 -0.10912084
-0.19630037 0.001290652 -0.10911176
-0.19631022 0.0013619075 -0.10910668
-0.19631997 0.0014353162 -0.10910958
-0.19632921 0.0015089409 -0.10912246
-0.19633834 0.0015847217 -0.10914329
-0.19634768 0.0016583037 -0.10915416
-0.19635771 0.0017315829 -0.10915107
-0.19636783 0.0018048175 -0.10914597
-0.19637814 0.0018779673 -0.10913687
-0.1963881 0.001949179 -0.10912981
-0.19639772 0.0020247428 -0.10914066
-0.19640693 0.0021004798 -0.1091595
-0.19641657 0.0021739313 -0.10916439
-0.19642621 0.0022473838 -0.10916927
-0.19643566 0.0023209229 -0.10917816
-0.19644567 0.0023942012 -0.10917506
-0.19645593 0.0024652844 -0.10916201
-0.19646576 0.0025386484 -0.1091629
-0.1964751 0.0026122313 -0.10917377
-0.1964853 0.0026875362 -0.10917264
-0.19649555 0.0027586166 -0.10915958
-0.19650558 0.0028318968 -0.10915649
-0.19651511 0.0029053921 -0.10916337
-0.19652446 0.002978974 -0.10917425
-0.19653445 0.0030543646 -0.10917711
-0.19654422 0.0031256629 -0.10917404
-0.19655412 0.0032010963 -0.1091789
-0.19656308 0.0032748505 -0.10919777
-0.19657281 0.0033482602 -0.10920066
-0.19658323 0.0034213671 -0.10918958
-0.19659287 0.0034948187 -0.10919446
-0.1966026 0.0035682274 -0.10919735
-0.19661263 0.0036415067 -0.10919424
-0.19662258 0.0037127193 -0.10918718
-0.196633 0.0037858244 -0.10917609
-0.19664344 0.0038568191 -0.10915904
-0.19665366 0.0039300118 -0.10915194
-0.19666229 0.0040060077 -0.10918277
-0.19667079 0.0040862709 -0.10922752
-0.19667985 0.0041599832 -0.10924438
-0.19668977 0.0042333044 -0.10924328
-0.19670011 0.0043043438 -0.10922823
-0.19671033 0.0043775365 -0.10922113
-0.19672026 0.0044508595 -0.10922003
