# .PCD v0.7 - Point Cloud Data file format
VERSION 0.7
FIELDS x y z
SIZE 4 4 4
TYPE F F F
COUNT 1 1 1
WIDTH 1258
HEIGHT 1
VIEWPOINT 0 0 0 1 0 0 0
POINTS 1258
DATA ascii
-0.015479503 -0.0032132752 -0.10069737
-0.015488942 -0.003139738 -0.10070626
-0.015498551 -0.0030641723 -0.10071711
-0.015508575 -0.002990894 -0.10071401
-0.015518574 -0.0029155035 -0.10071687
-0.015527891 -0.0028398093 -0.10073372
-0.015537208 -0.0027641151 -0.10075057
-0.015547232 -0.0026908368 -0.10074746
-0.015557572 -0.0026197955 -0.10073242
-0.015567693 -0.0025465619 -0.10072733
-0.015577229 -0.0024730638 -0.1007342
-0.015587034 -0.0023975875 -0.10074107
-0.015596667 -0.002324136 -0.10074596
-0.015606983 -0.0022509843 -0.10073687
-0.015617421 -0.0021799896 -0.10071982
-0.015627835 -0.0021068826 -0.10070874
-0.015637273 -0.0020333435 -0.10071762
-0.01564737 -0.0019579958 -0.1007185
-0.015657417 -0.001886826 -0.10070943
-0.015667832 -0.001813719 -0.10069834
-0.01567805 -0.0017405264 -0.10069125
-0.015688073 -0.0016672462 -0.10068816
-0.015697999 -0.0015939232 -0.10068706
-0.015716195 -0.0014381409 -0.10074066
-0.015725901 -0.0013626199 -0.10074951
-0.015735535 -0.0012891702 -0.10075441
-0.01574534 -0.0012136903 -0.10076126
-0.015755363 -0.0011404119 -0.10075817
-0.015766216 -0.001071699 -0.10072717
-0.015777165 -0.0010030307 -0.10069417
-0.015787676 -0.00092996657 -0.10068109
-0.015797699 -0.00085668638 -0.10067799
-0.015807504 -0.00078120828 -0.10068485
-0.015817113 -0.00070564635 -0.10069571
-0.015826624 -0.00063003972 -0.10070856
-0.015870107 -0.00035312213 -0.10058852
-0.015879838 -0.00027971342 -0.10059141
-0.015890056 -0.00020651892 -0.10058433
-0.015900396 -0.00013547949 -0.10056928
-0.015911322 -6.4700842e-05 -0.10054224
-0.015922368 3.9245933e-06 -0.10050726
-0.015932489 7.7161938e-05 -0.10050216
-0.015941514 0.00015298463 -0.10052499
-0.015949663 0.00023759902 -0.10058766
-0.016047403 0.00085807592 -0.10031263
-0.016434422 -0.00057776831 -0.089094535
-0.0099311313 -0.043342456 -0.1035549
-0.0099414224 -0.043267198 -0.10355178
-0.0099510569 -0.043193743 -0.10355667
-0.0099610556 -0.04311835 -0.10355953
-0.0099709816 -0.043045029 -0.10355844
-0.0099809812 -0.042969637 -0.1035613
-0.0099899564 -0.042897996 -0.10357421
-0.0099993953 -0.042824455 -0.1035831
-0.010009686 -0.042749196 -0.10357997
-0.010020076 -0.042673975 -0.10357484
-0.010030002 -0.042600654 -0.10357375
-0.010039343 -0.042527072 -0.10358463
-0.010048782 -0.042453535 -0.10359351
-0.010059269 -0.042378359 -0.10358639
-0.010070414 -0.042301372 -0.10357125
-0.010080609 -0.042226069 -0.10357012
-0.010089584 -0.042154424 -0.10358303
-0.010098364 -0.042082697 -0.10359994
-0.010107802 -0.042009152 -0.10360882
-0.010117996 -0.041933849 -0.1036077
-0.010128386 -0.041858636 -0.10360257
-0.010139434 -0.041781604 -0.10358942
-0.010149457 -0.041708328 -0.10358633
-0.010158603 -0.041634656 -0.1036012
-0.010167846 -0.04156103 -0.10361408
-0.010177676 -0.041487664 -0.10361499
-0.010187309 -0.041414216 -0.10361987
-0.010197503 -0.041338909 -0.10361874
-0.01020743 -0.041265585 -0.10361765
-0.010217331 -0.041190151 -0.1036225
-0.010226769 -0.041116614 -0.10363138
-0.010236208 -0.041043073 -0.10364028
-0.01024594 -0.040969662 -0.10364316
-0.010256232 -0.040894404 -0.10364003
-0.010265865 -0.040820949 -0.10364493
-0.010275401 -0.040747456 -0.10365182
-0.010285595 -0.04067215 -0.10365069
-0.010295326 -0.040598743 -0.10365359
-0.010305521 -0.04052344 -0.10365245
-0.010315715 -0.040448133 -0.10365132
-0.010325641 -0.040374808 -0.10365023
-0.010335543 -0.040299375 -0.10365508
-0.010344324 -0.040227644 -0.10367198
-0.010353957 -0.040154193 -0.10367688
-0.010363957 -0.040078804 -0.10367975
-0.010373687 -0.040005393 -0.10368264
-0.010384077 -0.039930172 -0.10367752
-0.010393711 -0.039856717 -0.10368241
-0.010402856 -0.039783053 -0.10369728
-0.010412198 -0.039709471 -0.10370817
-0.010421831 -0.039636016 -0.10371306
-0.010432416 -0.039560884 -0.10370393
-0.010442805 -0.039485667 -0.10369881
-0.010452438 -0.039412215 -0.10370371
-0.010461585 -0.039338544 -0.10371858
-0.010471316 -0.039265137 -0.10372148
-0.01048151 -0.03918983 -0.10372034
-0.010491607 -0.039114483 -0.10372122
-0.010501631 -0.039041206 -0.10371812
-0.010512386 -0.038964048 -0.10371096
-0.010522117 -0.038890637 -0.10371386
-0.010532409 -0.038815379 -0.10371073
-0.010542335 -0.038742054 -0.10370963
-0.010552334 -0.038666662 -0.10371249
-0.010562431 -0.038591318 -0.10371337
-0.010571308 -0.038519628 -0.10372827
-0.010580454 -0.038445961 -0.10374315
-0.010590844 -0.038370743 -0.10373802
-0.010600575 -0.038297333 -0.10374092
-0.010610013 -0.038223796 -0.1037498
-0.010619452 -0.038150255 -0.10375869
-0.010628793 -0.038076673 -0.10376957
-0.010639085 -0.038001411 -0.10376644
-0.010650231 -0.037924428 -0.10375131
-0.010660912 -0.037849337 -0.10374019
-0.010671204 -0.037774079 -0.10373706
-0.010680935 -0.037700668 -0.10373995
-0.010690935 -0.037625276 -0.10374282
-0.010700569 -0.037551824 -0.1037477
-0.010709714 -0.037478156 -0.10376259
-0.010718592 -0.037406467 -0.10377749
-0.010728493 -0.037331033 -0.10378236
-0.010738225 -0.037257627 -0.10378525
-0.010748224 -0.037182234 -0.10378811
-0.010758053 -0.037108868 -0.10378901
-0.01076815 -0.037033521 -0.10378988
-0.010778246 -0.036958173 -0.10379075
-0.010787222 -0.036886528 -0.10380366
-0.010796465 -0.036812901 -0.10381654
-0.010806368 -0.036737472 -0.1038214
-0.010816488 -0.036664233 -0.1038163
-0.01082678 -0.036588971 -0.10381318
-0.010836779 -0.036513582 -0.10381604
-0.010847267 -0.036438406 -0.10380891
-0.0108569 -0.03636495 -0.10381381
-0.010865948 -0.036291242 -0.10383069
-0.010875948 -0.036215849 -0.10383354
-0.01088663 -0.036140762 -0.10382243
-0.010896653 -0.036067482 -0.10381933
-0.010906262 -0.035991915 -0.10383018
-0.010915896 -0.035918467 -0.10383508
-0.010925627 -0.035845056 -0.10383797
-0.010934675 -0.035771344 -0.10385485
-0.011135897 -0.035072755 -0.10178263
-0.011150405 -0.034993056 -0.10170951
-0.011165109 -0.03491345 -0.1016324
-0.011178863 -0.034835517 -0.1015693
-0.011190886 -0.034758922 -0.10153619
-0.011203859 -0.03468065 -0.10148906
-0.01121732 -0.03460259 -0.10143195
-0.01123022 -0.034526382 -0.10138086
-0.011242243 -0.034449786 -0.10134774
-0.011252753 -0.034376722 -0.10133467
-0.011263728 -0.034301762 -0.10131755
-0.011276043 -0.034225296 -0.10127845
-0.011364162 -0.033873621 -0.10049003
-0.011376111 -0.033799093 -0.10045296
-0.011388328 -0.033722583 -0.10041586
-0.011401984 -0.033644609 -0.10035475
-0.011413836 -0.03357004 -0.10031967
-0.011426638 -0.033493787 -0.10027058
-0.011438953 -0.033417322 -0.10023147
-0.01145022 -0.033342492 -0.10020838
-0.011462267 -0.033268008 -0.10016929
-0.011474777 -0.033191629 -0.10012619
-0.01148558 -0.033118695 -0.10010712
-0.011496091 -0.033045631 -0.10009404
-0.011506774 -0.03297054 -0.10008292
-0.01151748 -0.032897562 -0.10006585
-0.011528186 -0.032824583 -0.10004877
-0.011539062 -0.032749586 -0.10003366
-0.011548623 -0.032678198 -0.10003459
-0.011558549 -0.032604873 -0.10003348
-0.011569425 -0.032529872 -0.10001837
-0.011578986 -0.032458492 -0.1000193
-0.011587864 -0.032386802 -0.10003421
-0.01159779 -0.032313481 -0.1000331
-0.011608302 -0.032240413 -0.10002002
-0.011618812 -0.032167353 -0.10000695
-0.011628738 -0.032094028 -0.10000584
-0.011638664 -0.032020703 -0.10000475
-0.011648127 -0.031949278 -0.10000767
-0.011657566 -0.031875737 -0.10001655
-0.011667127 -0.031804353 -0.10001747
-0.011677442 -0.031731203 -0.10000838
-0.011687563 -0.031657968 -0.10000329
-0.011697197 -0.031584516 -0.10000818
-0.011706464 -0.031513002 -0.1000151
-0.011716196 -0.031439591 -0.10001799
-0.011725854 -0.031368248 -0.10001691
-0.01173578 -0.031294927 -0.10001582
-0.011746095 -0.031221777 -0.10000674
-0.011756411 -0.031148627 -0.099997647
-0.01176624 -0.031075262 -0.099998541
-0.01177541 -0.031003702 -0.10000746
-0.011784483 -0.030932102 -0.10001837
-0.011793946 -0.030860675 -0.1000213
-0.011804823 -0.030785672 -0.10000619
-0.011815237 -0.030712565 -0.099995099
-0.011824407 -0.030641008 -0.10000402
-0.011832895 -0.030569149 -0.10002691
-0.011841772 -0.030497462 -0.10004181
-0.011852186 -0.030424355 -0.10003074
-0.011863184 -0.030351508 -0.10000766
-0.01187416 -0.030276548 -0.099990547
-0.011883818 -0.030205207 -0.099989481
-0.011893548 -0.030131798 -0.09999238
-0.011903279 -0.030058388 -0.09999527
-0.011912255 -0.029986745 -0.10000818
-0.01192123 -0.029915102 -0.10002109
-0.011930401 -0.029843543 -0.10003
-0.011940716 -0.029770393 -0.10002092
-0.011951032 -0.029697243 -0.10001183
-0.011960958 -0.02962392 -0.10001073
-0.011970226 -0.029552406 -0.10001765
-0.011978908 -0.029480632 -0.10003655
-0.011988079 -0.029409077 -0.10004546
-0.01199742 -0.029335495 -0.10005635
-0.01200659 -0.029263936 -0.10006526
-0.012016419 -0.02919057 -0.10006616
-0.01202693 -0.029117506 -0.10005308
-0.012037636 -0.029044529 -0.100036
-0.012048147 -0.028971465 -0.10002291
-0.012058073 -0.028898142 -0.10002182
-0.012067731 -0.028826801 -0.10002074
-0.01207795 -0.028753608 -0.10001365
-0.012087973 -0.028680328 -0.10001055
-0.01209751 -0.028606832 -0.10001744
-0.012106875 -0.02853536 -0.10002236
-0.012115948 -0.02846376 -0.10003328
-0.012125386 -0.028390221 -0.10004216
-0.012135142 -0.028318925 -0.10003909
-0.012145165 -0.028245645 -0.100036
-0.012155286 -0.028172407 -0.10003091
-0.012165699 -0.028099298 -0.10001982
-0.012175918 -0.028026106 -0.10001272
-0.012185575 -0.027954765 -0.10001165
-0.012195599 -0.027881486 -0.10000855
-0.012206305 -0.027808506 -0.099991478
-0.012215963 -0.027737167 -0.099990413
-0.012224915 -0.027663413 -0.10000928
-0.01223428 -0.02759194 -0.10001419
-0.012244596 -0.02751879 -0.10000511
-0.012254717 -0.027445555 -0.10000002
-0.012264277 -0.027374169 -0.10000094
-0.012274106 -0.027300803 -0.10000184
-0.01228413 -0.027227523 -0.099998742
-0.012294445 -0.027154373 -0.099989653
-0.012304493 -0.027083203 -0.0999806
-0.012314225 -0.027009794 -0.099983484
-0.0123232 -0.026938152 -0.099996395
-0.012332078 -0.026866466 -0.10001131
-0.012341126 -0.026792753 -0.10002818
-0.012349053 -0.026722746 -0.10005709
-0.012357736 -0.026650973 -0.100076
-0.01236737 -0.026577521 -0.10008089
-0.012377686 -0.026504371 -0.1000718
-0.012388099 -0.026431262 -0.10006072
-0.01239861 -0.026358198 -0.10004763
-0.012408463 -0.026286945 -0.10004257
-0.012417122 -0.026213061 -0.10006743
-0.012424756 -0.026142923 -0.10010234
-0.012434585 -0.026069557 -0.10010324
-0.012444608 -0.025996279 -0.10010014
-0.012453193 -0.025924461 -0.10012104
-0.012462169 -0.025852818 -0.10013394
-0.012472095 -0.025779495 -0.10013284
-0.012482217 -0.025706258 -0.10012775
-0.012492532 -0.025633108 -0.10011866
-0.012501897 -0.025561638 -0.10012358
-0.012511238 -0.025488056 -0.10013446
-0.012520896 -0.025416713 -0.10013339
-0.0125317 -0.025343779 -0.10011432
-0.012542114 -0.025270673 -0.10010324
-0.012550796 -0.025198899 -0.10012214
-0.01255909 -0.025126953 -0.10014902
-0.01256804 -0.025053199 -0.1001679
-0.012577113 -0.024981599 -0.10017881
-0.012587331 -0.024908405 -0.10017171
-0.012597379 -0.024837237 -0.10016266
-0.012607013 -0.024763785 -0.10016755
-0.012615891 -0.024692098 -0.10018245
-0.012625817 -0.024618775 -0.10018136
-0.012636133 -0.024545625 -0.10017227
-0.012645986 -0.024474369 -0.1001672
-0.012656009 -0.024401089 -0.1001641
-0.012665935 -0.024327766 -0.100163
-0.012674813 -0.02425608 -0.10017791
-0.012683667 -0.024182282 -0.10019878
-0.012693033 -0.024110811 -0.1002037
-0.012703152 -0.024037573 -0.1001986
-0.012713371 -0.023964381 -0.10019152
-0.012723322 -0.02389317 -0.10018445
-0.012732955 -0.023819717 -0.10018934
-0.012741735 -0.023747988 -0.10020625
-0.012752149 -0.023674879 -0.10019515
-0.012763733 -0.02360229 -0.10016011
-0.01277444 -0.023529314 -0.10014304
-0.012783024 -0.023457497 -0.10016393
-0.01279122 -0.023385508 -0.10019282
-0.012800366 -0.023311839 -0.10020769
-0.012809804 -0.023238301 -0.10021658
-0.012819072 -0.023166787 -0.10022349
-0.012828706 -0.023093335 -0.10022839
-0.012838169 -0.023021907 -0.10023131
-0.012847997 -0.022948541 -0.10023221
-0.012857923 -0.022875218 -0.1002311
-0.012867581 -0.022803877 -0.10023004
-0.012877703 -0.022730639 -0.10022494
-0.012887629 -0.022657316 -0.10022384
-0.012896799 -0.022585759 -0.10023276
-0.012906821 -0.022512481 -0.10022966
-0.012917041 -0.022439286 -0.10022257
-0.012926796 -0.022367988 -0.1002195
-0.012936917 -0.022294752 -0.10021441
-0.012947233 -0.022221601 -0.10020531
-0.012956696 -0.022150174 -0.10020824
-0.012966329 -0.02207672 -0.10021313
-0.012975402 -0.02200512 -0.10022404
-0.012985231 -0.021931754 -0.10022495
-0.012996035 -0.021858821 -0.10020587
-0.013006082 -0.021787651 -0.10019681
-0.013015034 -0.021713898 -0.10021568
-0.013022838 -0.021641735 -0.10025256
-0.013031498 -0.021567851 -0.10027742
-0.013040571 -0.021496251 -0.10028833
-0.013050106 -0.021422755 -0.10029522
-0.013059448 -0.021349173 -0.10030609
-0.013069105 -0.021277832 -0.10030503
-0.013079714 -0.021204811 -0.10028995
-0.013089835 -0.021131575 -0.10028485
-0.013099785 -0.021060362 -0.1002778
-0.013110783 -0.020987514 -0.10025472
-0.013121197 -0.020914407 -0.10024364
-0.013130465 -0.020842893 -0.10025056
-0.013140099 -0.020769442 -0.10025545
-0.013149561 -0.020698013 -0.10025837
-0.013159292 -0.020624604 -0.10026127
-0.013169023 -0.020551194 -0.10026416
-0.013178389 -0.020479724 -0.10026908
-0.013187924 -0.020406228 -0.10027598
-0.013198046 -0.020332992 -0.10027087
-0.013207704 -0.020261651 -0.1002698
-0.013217533 -0.020188283 -0.1002707
-0.013227678 -0.020117158 -0.10025965
-0.013238287 -0.020044137 -0.10024457
-0.013248309 -0.019970858 -0.10024147
-0.013257554 -0.019897232 -0.10025435
-0.013266334 -0.019825503 -0.10027125
-0.01327548 -0.019751834 -0.10028613
-0.013284723 -0.019678209 -0.10029901
-0.013293602 -0.019606523 -0.10031392
-0.01330304 -0.019532984 -0.1003228
-0.013312893 -0.019461729 -0.10031774
-0.013322819 -0.019388406 -0.10031664
-0.013332354 -0.019314909 -0.10032352
-0.013341428 -0.019243309 -0.10033444
-0.013350964 -0.019169815 -0.10034133
-0.013361085 -0.019096578 -0.10033622
-0.013371035 -0.019025365 -0.10032917
-0.013380961 -0.018952042 -0.10032807
-0.013390692 -0.018878633 -0.10033096
-0.013399644 -0.018804878 -0.10034984
-0.013408619 -0.018733235 -0.10036274
-0.013418545 -0.018659912 -0.10036164
-0.01342869 -0.018588787 -0.10035059
-0.013439396 -0.018515809 -0.1003335
-0.013449712 -0.018442659 -0.10032442
-0.013459468 -0.01837136 -0.10032135
-0.013469491 -0.01829808 -0.10031825
-0.013478832 -0.018224498 -0.10032913
-0.013488002 -0.018152941 -0.10033806
-0.013497928 -0.018079618 -0.10033695
-0.013507952 -0.01800634 -0.10033385
-0.013518292 -0.0179353 -0.1003188
-0.013528218 -0.017861977 -0.1003177
-0.013536975 -0.017788136 -0.10034057
-0.01354612 -0.017714467 -0.10035545
-0.013556752 -0.017643558 -0.10033441
-0.013567264 -0.017570494 -0.10032132
-0.013576532 -0.017498979 -0.10032824
-0.013586557 -0.017425701 -0.10032514
-0.013596677 -0.017352464 -0.10032004
-0.013605652 -0.017280821 -0.10033296
-0.013614994 -0.017207239 -0.10034384
-0.013625016 -0.017133959 -0.10034075
-0.013634773 -0.01706266 -0.10033768
-0.013644211 -0.016989121 -0.10034656
-0.013653064 -0.016915323 -0.10036743
-0.013662405 -0.016841741 -0.10037832
-0.013672527 -0.016768504 -0.10037322
-0.013682379 -0.01669725 -0.10036815
-0.013692403 -0.01662397 -0.10036507
-0.013701939 -0.016550474 -0.10037194
-0.013710719 -0.016478743 -0.10038885
-0.013720645 -0.016405422 -0.10038775
-0.013731547 -0.016332529 -0.10036668
-0.013741886 -0.016261492 -0.10035162
-0.013751618 -0.016188081 -0.10035452
-0.01376186 -0.016116999 -0.10034147
-0.013772274 -0.016043892 -0.10033038
-0.013781712 -0.015970353 -0.10033926
-0.013791346 -0.015896901 -0.10034416
-0.013800711 -0.01582543 -0.10034908
-0.013810248 -0.015751936 -0.10035596
-0.013820758 -0.015678871 -0.10034288
-0.013831587 -0.015608047 -0.10031785
-0.013841513 -0.015534724 -0.10031675
-0.013850074 -0.015460797 -0.10034361
-0.013858343 -0.01538674 -0.10037646
-0.013867488 -0.015313072 -0.10039134
-0.013877804 -0.015239921 -0.10038225
-0.013887949 -0.015168795 -0.10037119
-0.013898168 -0.015095603 -0.10036409
-0.01390841 -0.01502452 -0.10035105
-0.01391902 -0.014951499 -0.10033596
-0.013929165 -0.014880374 -0.10032491
-0.013938799 -0.014806921 -0.1003298
-0.013947847 -0.01473321 -0.10034668
-0.013956506 -0.014659326 -0.10037153
-0.013965555 -0.014585614 -0.10038841
-0.013975188 -0.014512161 -0.1003933
-0.013985114 -0.014438838 -0.1003922
-0.01399504 -0.014365516 -0.1003911
-0.014004502 -0.014294088 -0.10039402
-0.014013357 -0.01422029 -0.10041489
-0.014022307 -0.014146535 -0.10043377
-0.014032624 -0.014073385 -0.10042468
-0.014043135 -0.014000321 -0.10041159
-0.014052499 -0.01392885 -0.10041652
-0.014061817 -0.013853157 -0.10043336
-0.014070183 -0.013779143 -0.10046421
-0.014078939 -0.013705302 -0.10048708
-0.014088573 -0.01363185 -0.10049197
-0.014098718 -0.013560724 -0.10048091
-0.014109717 -0.013487875 -0.10045785
-0.01412035 -0.013416966 -0.10043681
-0.014130373 -0.013343686 -0.1004337
-0.014139617 -0.013270061 -0.10044658
-0.014148762 -0.013196394 -0.10046146
-0.014158298 -0.013122898 -0.10046835
-0.01416803 -0.013049488 -0.10047124
-0.014177858 -0.012976122 -0.10047214
-0.014187395 -0.012902627 -0.10047903
-0.014196564 -0.01283107 -0.10048795
-0.014206296 -0.01275766 -0.10049085
-0.01421632 -0.01268438 -0.10048774
-0.014226148 -0.012611014 -0.10048865
-0.014236074 -0.012537691 -0.10048755
-0.01424583 -0.012466392 -0.10048447
-0.014255658 -0.012393027 -0.10048537
-0.014265584 -0.012319704 -0.10048427
-0.01427551 -0.012246381 -0.10048317
-0.014284754 -0.012172756 -0.10049605
-0.01429351 -0.012098915 -0.10051891
-0.014302948 -0.012025376 -0.10052779
-0.014312875 -0.011952052 -0.10052669
-0.01432319 -0.011878902 -0.10051761
-0.014333726 -0.01180795 -0.10049856
-0.014344066 -0.01173691 -0.10048351
-0.0143537 -0.011663457 -0.10048841
-0.014363138 -0.011589918 -0.10049729
-0.014373162 -0.01151664 -0.10049418
-0.014383381 -0.011443445 -0.10048711
-0.014393525 -0.011372319 -0.10047604
-0.014403647 -0.011299084 -0.10047095
-0.014413183 -0.011225589 -0.10047784
-0.014422622 -0.01115205 -0.10048673
-0.014432157 -0.011078553 -0.10049361
-0.014441693 -0.011005058 -0.1005005
-0.014451327 -0.010931605 -0.1005054
-0.014461351 -0.010858325 -0.10050229
-0.014471374 -0.010785046 -0.1004992
-0.01448074 -0.010713575 -0.10050412
-0.014490179 -0.010640036 -0.100513
-0.014499495 -0.010564343 -0.10052985
-0.014508934 -0.010490804 -0.10053873
-0.01451925 -0.010417653 -0.10052964
-0.014529688 -0.010346657 -0.10051259
-0.014539614 -0.010273335 -0.10051149
-0.014548467 -0.010199537 -0.10053236
-0.014558077 -0.010123973 -0.10054322
-0.014568003 -0.01005065 -0.10054212
-0.014577051 -0.0099769384 -0.100559
-0.014586294 -0.0099033136 -0.10057188
-0.014596708 -0.0098302066 -0.10056078
-0.014606464 -0.0097589083 -0.10055771
-0.014616366 -0.009683474 -0.10056258
-0.014625926 -0.009612089 -0.10056351
-0.014635755 -0.0095387241 -0.1005644
-0.014645876 -0.0094654877 -0.10055931
-0.014656192 -0.009392336 -0.10055023
-0.014666531 -0.0093212966 -0.10053517
-0.014676945 -0.0092481906 -0.10052408
-0.014686799 -0.0091769351 -0.10051902
-0.014696725 -0.009103612 -0.10051791
-0.014705967 -0.0090299863 -0.1005308
-0.01471548 -0.0089543797 -0.10054366
-0.014725016 -0.0088808844 -0.10055053
-0.014734552 -0.0088073881 -0.10055743
-0.01474438 -0.0087340223 -0.10055832
-0.014754429 -0.0086628534 -0.10054927
-0.014764452 -0.0085895741 -0.10054617
-0.014774062 -0.0085140113 -0.10055702
-0.014783524 -0.0084425826 -0.10055994
-0.014793742 -0.008369389 -0.10055285
-0.014803864 -0.0082961526 -0.10054776
-0.01481379 -0.0082228296 -0.10054666
-0.014823618 -0.0081494637 -0.10054756
-0.014833276 -0.0080781216 -0.10054649
-0.014843202 -0.0080047986 -0.10054538
-0.014853006 -0.0079293223 -0.10055224
-0.01486225 -0.0078556966 -0.10056512
-0.014871592 -0.0077821137 -0.100576
-0.014881322 -0.007708705 -0.10057889
-0.014891127 -0.0076332279 -0.10058576
-0.014901053 -0.0075599048 -0.10058466
-0.0149111 -0.0074887369 -0.10057559
-0.014921319 -0.0074155433 -0.1005685
-0.014930855 -0.0073420471 -0.10057539
-0.014940684 -0.0072686812 -0.10057628
-0.014950902 -0.0071954876 -0.1005692
-0.014960828 -0.0071221646 -0.1005681
-0.014970657 -0.0070487987 -0.10056899
-0.014980583 -0.0069754757 -0.10056789
-0.014990704 -0.0069022384 -0.1005628
-0.01500046 -0.006830941 -0.10055973
-0.015010167 -0.00675542 -0.10056859
-0.015019409 -0.0066817943 -0.10058147
-0.015029019 -0.0066062305 -0.10059232
-0.015038652 -0.006532778 -0.10059721
-0.015048287 -0.0064593256 -0.1006021
-0.015058212 -0.0063860035 -0.100601
-0.015068724 -0.0063129393 -0.10058793
-0.015078967 -0.0062418561 -0.10057487
-0.015089087 -0.0061686197 -0.10056977
-0.015098819 -0.006095212 -0.10057267
-0.01510855 -0.0060218023 -0.10057556
-0.015117964 -0.005946151 -0.10059041
-0.015126891 -0.0058702854 -0.10061524
-0.015136329 -0.0057967473 -0.10062412
-0.01514645 -0.0057235099 -0.10061903
-0.01515667 -0.0056503164 -0.10061194
-0.015166522 -0.0055790618 -0.10060687
-0.015176424 -0.0055036265 -0.10061174
-0.015186057 -0.0054301731 -0.10061663
-0.015195886 -0.0053568091 -0.10061752
-0.015205422 -0.0052833129 -0.10062441
-0.015215056 -0.0052098613 -0.1006293
-0.015225664 -0.00513684 -0.10061422
-0.015236199 -0.0050658863 -0.10059518
-0.015245931 -0.0049924776 -0.10059807
-0.015254857 -0.0049166121 -0.10062291
-0.01526437 -0.0048410054 -0.10063575
-0.01527449 -0.0047677681 -0.10063066
-0.015284612 -0.0046945307 -0.10062557
-0.015294342 -0.004621122 -0.10062846
-0.015304049 -0.0045456029 -0.10063732
-0.01531378 -0.0044721924 -0.10064021
-0.015323998 -0.0043989997 -0.10063311
-0.015333852 -0.0043277442 -0.10062806
-0.015343656 -0.0042522661 -0.10063492
-0.015353289 -0.0041788127 -0.1006398
-0.015363094 -0.0041033365 -0.10064667
-0.015372703 -0.0040277727 -0.10065752
-0.01538224 -0.0039542764 -0.1006644
-0.01539197 -0.0038808677 -0.1006673
-0.015401896 -0.0038075447 -0.1006662
-0.015411725 -0.0037341788 -0.1006671
-0.015421822 -0.0036588311 -0.10066797
-0.015431455 -0.0035853796 -0.10067285
-0.015441065 -0.0035098158 -0.1006837
-0.015450406 -0.003436232 -0.1006946
-0.01546021 -0.0033607539 -0.10070144
-0.015470136 -0.0032874327 -0.10070034
-0.01548016 -0.0032141507 -0.10069726
-0.015489696 -0.0031406581 -0.10070414
-0.015499208 -0.0030650496 -0.10071699
-0.015509134 -0.0029917285 -0.1007159
-0.015519134 -0.0029163361 -0.10071875
-0.015528451 -0.0028406437 -0.10073559
-0.015537865 -0.0027649906 -0.10075045
-0.015547791 -0.0026916694 -0.10074934
-0.015558229 -0.0026206728 -0.10073229
-0.01556835 -0.0025474373 -0.10072721
-0.015577886 -0.0024739392 -0.10073409
-0.01558769 -0.0023984648 -0.10074095
-0.015597324 -0.0023250114 -0.10074584
-0.01560764 -0.0022518616 -0.10073675
-0.015618077 -0.002180865 -0.1007197
-0.015628394 -0.0021077152 -0.10071062
-0.01563793 -0.002034219 -0.1007175
-0.015648026 -0.0019588713 -0.10071837
-0.015658073 -0.0018877033 -0.10070932
-0.015668487 -0.0018145964 -0.10069823
-0.015678708 -0.0017414019 -0.10069113
-0.01568873 -0.0016681217 -0.10068804
-0.015698656 -0.0015947986 -0.10068694
-0.015716754 -0.0014389735 -0.10074254
-0.01572646 -0.0013634525 -0.10075139
-0.015736192 -0.0012900457 -0.10075428
-0.015745996 -0.0012145657 -0.10076115
-0.01575602 -0.0011412874 -0.10075805
-0.015766773 -0.0010725316 -0.10072905
-0.015777992 -0.0010018814 -0.10069603
-0.015788332 -0.00093084387 -0.10068097
-0.015798258 -0.00085751899 -0.10067987
-0.015808159 -0.00078208372 -0.10068473
-0.015817769 -0.00070652179 -0.10069559
-0.015827185 -0.00063087232 -0.10071043
-0.015870763 -0.00035399757 -0.1005884
-0.015880592 -0.00028063171 -0.10058931
-0.015890712 -0.00020739436 -0.10058421
-0.015901223 -0.00013433397 -0.10057112
-0.015911978 -6.5576285e-05 -0.10054212
-0.015922928 3.0919909e-06 -0.10050912
-0.015933048 7.6329336e-05 -0.10050403
-0.015942268 0.00015206635 -0.10052288
-0.015950343 0.00023460947 -0.10058157
-0.016047766 0.000857329 -0.10031851
-0.016435184 -0.00057868659 -0.089092426
-0.0099294987 -0.043345258 -0.10355235
-0.0099396929 -0.043269955 -0.10355122
-0.0099493284 -0.043196499 -0.10355611
-0.009959328 -0.043121107 -0.10355897
-0.00996962 -0.043045849 -0.10355584
-0.0099792546 -0.042972393 -0.10356074
-0.0099882307 -0.042900752 -0.10357365
-0.0099976696 -0.042827211 -0.10358253
-0.010007963 -0.042751953 -0.10357941
-0.010018352 -0.042676732 -0.10357428
-0.010028548 -0.042601429 -0.10357315
-0.010037987 -0.042527888 -0.10358203
-0.01004706 -0.042456292 -0.10359295
-0.010057646 -0.042381156 -0.10358383
-0.010068694 -0.042304128 -0.10357068
-0.010078889 -0.042228825 -0.10356956
-0.010087865 -0.042157181 -0.10358246
-0.010096646 -0.042085454 -0.10359936
-0.010106184 -0.042011958 -0.10360625
-0.010116281 -0.041936606 -0.10360713
-0.010126769 -0.041861434 -0.1036
-0.010137719 -0.041784361 -0.10358886
-0.010147743 -0.041711085 -0.10358576
-0.01015689 -0.041637413 -0.10360064
-0.010166135 -0.04156379 -0.10361351
-0.010175964 -0.041490421 -0.10361441
-0.010185597 -0.041416973 -0.10361931
-0.010195793 -0.04134167 -0.10361817
-0.01020572 -0.041268345 -0.10361707
-0.01021572 -0.041192953 -0.10361993
-0.010225159 -0.041119415 -0.10362882
-0.010234403 -0.041045789 -0.1036417
-0.010244135 -0.040972382 -0.10364459
-0.010254428 -0.040897116 -0.10364147
-0.010264062 -0.040823665 -0.10364636
-0.010273697 -0.040750213 -0.10365125
-0.010283794 -0.040674865 -0.10365211
-0.010293623 -0.040601499 -0.10365301
-0.010303819 -0.040526196 -0.10365188
-0.010314014 -0.040450893 -0.10365075
-0.01032394 -0.040377565 -0.10364965
-0.010333844 -0.040302135 -0.10365451
-0.010342624 -0.040230401 -0.10367141
-0.010352161 -0.040156908 -0.1036783
-0.010362161 -0.040081516 -0.10368117
-0.010371893 -0.040008105 -0.10368406
-0.01038238 -0.039932933 -0.10367693
-0.010392015 -0.039859481 -0.10368183
-0.010401161 -0.03978581 -0.1036967
-0.010410503 -0.039712228 -0.10370759
-0.010420138 -0.03963878 -0.10371248
-0.010430723 -0.039563645 -0.10370336
-0.01044121 -0.039488472 -0.10369623
-0.010450747 -0.039414972 -0.10370313
-0.010459991 -0.039341349 -0.103716
-0.010469626 -0.039267898 -0.1037209
-0.010479821 -0.039192591 -0.10371976
-0.010489918 -0.039117247 -0.10372064
-0.010499943 -0.039043967 -0.10371753
-0.010510698 -0.038966808 -0.10371038
-0.01052043 -0.038893402 -0.10371328
-0.010530625 -0.038818095 -0.10371215
-0.010540649 -0.038744815 -0.10370905
-0.01055065 -0.038669422 -0.10371191
-0.010560747 -0.038594075 -0.10371278
-0.010569626 -0.038522389 -0.10372768
-0.010578773 -0.038448721 -0.10374257
-0.010589163 -0.038373504 -0.10373744
-0.010598894 -0.03830009 -0.10374033
-0.010608334 -0.038226556 -0.10374922
-0.010617773 -0.038153015 -0.1037581
-0.010627115 -0.038079433 -0.10376898
-0.010637408 -0.038004175 -0.10376585
-0.010648651 -0.037927233 -0.10374872
-0.010659236 -0.037852101 -0.1037396
-0.010669529 -0.037776839 -0.10373647
-0.010679163 -0.037703387 -0.10374136
-0.01068926 -0.03762804 -0.10374223
-0.010698993 -0.037554629 -0.10374513
-0.010708041 -0.037480917 -0.10376199
-0.010716921 -0.037409231 -0.1037769
-0.010726823 -0.037333794 -0.10378177
-0.010736554 -0.037260391 -0.10378466
-0.010746554 -0.037184998 -0.10378751
-0.010756384 -0.037111629 -0.10378842
-0.010766482 -0.037036285 -0.10378928
-0.010776579 -0.036960937 -0.10379015
-0.010785555 -0.036889292 -0.10380307
-0.010794702 -0.036815621 -0.10381794
-0.010804703 -0.036740232 -0.1038208
-0.010814824 -0.036666997 -0.1038157
-0.010825116 -0.036591735 -0.10381258
-0.010835117 -0.036516346 -0.10381544
-0.010845604 -0.03644117 -0.10380831
-0.010855336 -0.036367759 -0.10381121
-0.010864288 -0.036294002 -0.10383009
-0.010874288 -0.036218613 -0.10383295
-0.010885067 -0.036143567 -0.10381983
-0.010894994 -0.036070243 -0.10381874
-0.010904606 -0.035994679 -0.10382959
-0.010914239 -0.035921227 -0.10383448
-0.010924337 -0.035845883 -0.10383534
-0.010933118 -0.035774149 -0.10385225
-0.011134331 -0.035075571 -0.10178003
-0.011148938 -0.034995921 -0.10170492
-0.011163544 -0.034916267 -0.1016298
-0.011177201 -0.034838296 -0.10156869
-0.011189224 -0.034761697 -0.10153559
-0.011202198 -0.034683425 -0.10148846
-0.011215659 -0.034605365 -0.10143134
-0.01122856 -0.034529157 -0.10138026
-0.011240583 -0.034452565 -0.10134714
-0.011251094 -0.034379501 -0.10133406
-0.011262069 -0.034304541 -0.10131694
-0.011275043 -0.034226265 -0.10126983
-0.0113625 -0.033876404 -0.10048942
-0.01137445 -0.033801876 -0.10045235
-0.011386571 -0.033725325 -0.10041723
-0.011400324 -0.033647396 -0.10035414
-0.011412177 -0.033572823 -0.10031905
-0.011424979 -0.033496574 -0.10026996
-0.011437394 -0.033420153 -0.10022886
-0.011448661 -0.033345319 -0.10020576
-0.011460708 -0.033270836 -0.10016668
-0.011473121 -0.033194415 -0.10012558
-0.011484022 -0.033121523 -0.1001045
-0.011494436 -0.033048414 -0.10009342
-0.011505119 -0.032973327 -0.1000823
-0.011515826 -0.032900348 -0.10006522
-0.011526532 -0.03282737 -0.10004815
-0.011537409 -0.032752369 -0.10003304
-0.01154697 -0.032680985 -0.10003397
-0.011556897 -0.032607663 -0.10003287
-0.011567872 -0.032532703 -0.10001576
-0.011577336 -0.032461278 -0.10001867
-0.011586312 -0.032389633 -0.10003158
-0.011596141 -0.032316267 -0.10003249
-0.011606653 -0.032243203 -0.1000194
-0.011617165 -0.032170139 -0.10000631
-0.011627189 -0.032096859 -0.10000322
-0.011637116 -0.032023534 -0.10000212
-0.011646481 -0.031952064 -0.10000704
-0.011655921 -0.031878527 -0.10001593
-0.011665482 -0.031807143 -0.10001685
-0.011675799 -0.03173399 -0.10000776
-0.011685921 -0.031660754 -0.10000267
-0.011695554 -0.031587303 -0.10000756
-0.011704823 -0.031515788 -0.10001448
-0.011714555 -0.031442381 -0.10001736
-0.011724213 -0.031371038 -0.10001629
-0.011734043 -0.031297673 -0.1000172
-0.011744456 -0.031224566 -0.10000611
-0.011754774 -0.031151416 -0.099997014
-0.011764603 -0.031078048 -0.099997915
-0.011773773 -0.031006493 -0.10000683
-0.011782847 -0.030934893 -0.10001774
-0.011792311 -0.030863464 -0.10002066
-0.011803188 -0.030788463 -0.10000556
-0.011813506 -0.030715313 -0.099996462
-0.011822773 -0.030643798 -0.10000338
-0.011831262 -0.030571938 -0.10002627
-0.01184014 -0.030500252 -0.10004119
-0.011850555 -0.030427145 -0.1000301
-0.011861554 -0.030354299 -0.10000703
-0.01187253 -0.030279338 -0.099989921
-0.011882188 -0.030207997 -0.099988848
-0.01189192 -0.030134588 -0.099991739
-0.011901652 -0.030061178 -0.099994637
-0.011910628 -0.029989535 -0.10000755
-0.011919604 -0.029917892 -0.10002045
-0.011928872 -0.029846378 -0.10002737
-0.011939092 -0.029773183 -0.10002028
-0.011949408 -0.029700033 -0.10001119
-0.011959335 -0.02962671 -0.10001009
-0.011968603 -0.029555198 -0.10001701
-0.011977385 -0.029483467 -0.10003392
-0.011986459 -0.029411867 -0.10004482
-0.0119958 -0.029338285 -0.10005571
-0.012004972 -0.029266726 -0.10006462
-0.012014702 -0.029193319 -0.10006752
-0.012025312 -0.029120298 -0.10005244
-0.012036019 -0.029047322 -0.10003535
-0.01204653 -0.028974257 -0.10002227
-0.012056457 -0.028900933 -0.10002118
-0.012066115 -0.028829593 -0.1000201
-0.012076335 -0.028756399 -0.100013
-0.012086359 -0.028683119 -0.10000992
-0.012095896 -0.028609622 -0.1000168
-0.012105262 -0.028538153 -0.10002172
-0.012114434 -0.028466595 -0.10003063
-0.012123873 -0.028393056 -0.10003952
-0.012133531 -0.028321715 -0.10003845
-0.012143555 -0.028248437 -0.10003535
-0.012153774 -0.028175242 -0.10002826
-0.012164091 -0.028102092 -0.10001917
-0.01217431 -0.028028898 -0.10001208
-0.012183968 -0.027957559 -0.10001101
-0.012193993 -0.027884278 -0.10000791
-0.012204699 -0.0278113 -0.099990837
-0.012214626 -0.027737977 -0.099989735
-0.01222331 -0.027666204 -0.10000863
-0.012232676 -0.027594734 -0.10001355
-0.01224309 -0.027521627 -0.10000247
-0.012253114 -0.027448347 -0.099999368
-0.012262675 -0.027376963 -0.10000029
-0.012272505 -0.027303597 -0.10000119
-0.012282627 -0.02723036 -0.099996097
-0.012292846 -0.027157165 -0.099988997
-0.012302894 -0.027085997 -0.099979952
-0.012312626 -0.027012588 -0.099982835
-0.012321603 -0.026940946 -0.099995747
-0.01233048 -0.02686926 -0.10001065
-0.012339433 -0.026795505 -0.10002953
-0.012347458 -0.02672554 -0.10005644
-0.012356142 -0.026653767 -0.10007534
-0.012365776 -0.026580315 -0.10008023
-0.012376092 -0.026507165 -0.10007115
-0.012386506 -0.026434058 -0.10006006
-0.012397116 -0.026361037 -0.10004497
-0.012406872 -0.026289739 -0.10004191
-0.012415433 -0.02621581 -0.10006877
-0.012423167 -0.026145717 -0.10010168
-0.012432996 -0.026072353 -0.10010258
-0.012442922 -0.025999028 -0.10010149
-0.012451607 -0.025927257 -0.10012038
-0.012460582 -0.025855612 -0.10013328
-0.01247051 -0.025782289 -0.10013218
-0.012480728 -0.025709096 -0.1001251
-0.012490949 -0.025635904 -0.100118
-0.012500314 -0.025564432 -0.10012292
-0.012509656 -0.02549085 -0.1001338
-0.012519412 -0.025419552 -0.10013074
-0.012530118 -0.025346575 -0.10011365
-0.012540532 -0.025273468 -0.10010257
-0.012549216 -0.025201695 -0.10012148
-0.012557875 -0.025127809 -0.10014634
-0.012566462 -0.025055993 -0.10016723
-0.012575535 -0.024984393 -0.10017814
-0.012585755 -0.024911201 -0.10017105
-0.012595803 -0.024840033 -0.100162
-0.012605438 -0.024766579 -0.10016689
-0.012614315 -0.024694894 -0.10018179
-0.012624145 -0.024621528 -0.10018269
-0.012634559 -0.024548419 -0.1001716
-0.012644413 -0.024477165 -0.10016654
-0.012654437 -0.024403885 -0.10016344
-0.012664365 -0.024330562 -0.10016233
-0.012673242 -0.024258876 -0.10017724
-0.012682097 -0.024185078 -0.10019811
-0.012691462 -0.024113607 -0.10020304
-0.012701585 -0.024040371 -0.10019794
-0.012711707 -0.023967134 -0.10019284
-0.012721755 -0.023895966 -0.10018378
-0.012731291 -0.02382247 -0.10019067
-0.012740171 -0.023750784 -0.10020558
-0.012750585 -0.023677677 -0.10019448
-0.012762168 -0.023605088 -0.10015944
-0.012772875 -0.023532111 -0.10014237
-0.012781462 -0.023460293 -0.10016326
-0.012789657 -0.023388306 -0.10019214
-0.012798805 -0.023314636 -0.10020702
-0.012808244 -0.023241097 -0.10021591
-0.012817512 -0.023169585 -0.10022282
-0.012827147 -0.023096131 -0.10022771
-0.012836611 -0.023024704 -0.10023063
-0.01284644 -0.022951338 -0.10023154
-0.012856366 -0.022878015 -0.10023043
-0.012866025 -0.022806674 -0.10022937
-0.012876146 -0.022733437 -0.10022427
-0.012886073 -0.022660114 -0.10022317
-0.012895342 -0.022588599 -0.10023008
-0.012905367 -0.022515321 -0.10022699
-0.012915585 -0.022442127 -0.1002199
-0.012925244 -0.022370785 -0.10021883
-0.012935462 -0.022297593 -0.10021173
-0.012945682 -0.0222244 -0.10020464
-0.012955146 -0.022152971 -0.10020756
-0.01296478 -0.02207952 -0.10021245
-0.012973853 -0.02200792 -0.10022336
-0.01298378 -0.021934597 -0.10022227
-0.012994487 -0.021861618 -0.10020519
-0.013004633 -0.021790493 -0.10019413
-0.013013488 -0.021716695 -0.100215
-0.013021294 -0.021644535 -0.10025188
-0.013029953 -0.021570649 -0.10027673
-0.013039026 -0.021499049 -0.10028765
-0.013048563 -0.021425555 -0.10029455
-0.013057905 -0.021351973 -0.10030542
-0.013067564 -0.021280631 -0.10030434
-0.013078174 -0.02120761 -0.10028926
-0.013088295 -0.021134373 -0.10028417
-0.013098245 -0.021063162 -0.10027711
-0.013109244 -0.020990314 -0.10025404
-0.013119658 -0.020917207 -0.10024296
-0.013128927 -0.020845693 -0.10024987
-0.013138562 -0.020772241 -0.10025476
-0.013148025 -0.020700812 -0.10025769
-0.013157757 -0.020627404 -0.10026059
-0.013167586 -0.020554038 -0.10026147
-0.013176855 -0.020482523 -0.10026839
-0.013186489 -0.020409072 -0.10027328
-0.013196513 -0.020335792 -0.10027019
-0.013206172 -0.02026445 -0.10026912
-0.013216001 -0.020191085 -0.10027001
-0.013226148 -0.020119959 -0.10025896
-0.013236756 -0.020046938 -0.10024387
-0.01324678 -0.019973658 -0.10024078
-0.013256025 -0.019900033 -0.10025366
-0.013264806 -0.019828303 -0.10027057
-0.013273953 -0.019754635 -0.10028544
-0.013283197 -0.01968101 -0.10029832
-0.013292076 -0.019609323 -0.10031322
-0.013301515 -0.019535784 -0.10032211
-0.013311369 -0.01946453 -0.10031705
-0.013321295 -0.019391207 -0.10031594
-0.01333093 -0.019317754 -0.10032084
-0.013339906 -0.019246111 -0.10033374
-0.013349443 -0.019172616 -0.10034063
-0.013359564 -0.019099379 -0.10033553
-0.013369516 -0.019028168 -0.10032848
-0.013379442 -0.018954843 -0.10032737
-0.013389174 -0.018881435 -0.10033026
-0.013398126 -0.018807679 -0.10034914
-0.013407102 -0.018736036 -0.10036205
-0.013417029 -0.018662713 -0.10036094
-0.013427272 -0.018591631 -0.10034789
-0.013437882 -0.018518612 -0.10033281
-0.013448197 -0.018445462 -0.10032372
-0.013457954 -0.018374164 -0.10032065
-0.013467979 -0.018300883 -0.10031755
-0.013477223 -0.018227259 -0.10033044
-0.013486492 -0.018155744 -0.10033736
-0.013496418 -0.018082421 -0.10033625
-0.013506539 -0.018009184 -0.10033116
-0.013516784 -0.017938104 -0.1003181
-0.01352671 -0.017864781 -0.100317
-0.013535467 -0.01779094 -0.10033987
-0.013544613 -0.01771727 -0.10035475
-0.013555247 -0.017646361 -0.10033371
-0.013565758 -0.017573297 -0.10032062
-0.013575125 -0.017501827 -0.10032553
-0.013585052 -0.017428502 -0.10032444
-0.013595173 -0.017355267 -0.10031934
-0.013604246 -0.017283667 -0.10033026
-0.013613491 -0.017210042 -0.10034313
-0.013623515 -0.017136762 -0.10034005
-0.013633272 -0.017065464 -0.10033697
-0.013642712 -0.016991924 -0.10034585
-0.013651663 -0.016918171 -0.10036473
-0.013660907 -0.016844545 -0.10037761
-0.013671028 -0.016771309 -0.10037251
-0.013680883 -0.016700054 -0.10036744
-0.013690906 -0.016626773 -0.10036436
-0.013700443 -0.016553279 -0.10037123
-0.013709225 -0.016481549 -0.10038814
-0.013719151 -0.016408226 -0.10038704
-0.013730053 -0.016335335 -0.10036597
-0.013740394 -0.016264295 -0.10035092
-0.013750126 -0.016190886 -0.10035381
-0.013760271 -0.016119761 -0.10034276
-0.013770783 -0.016046697 -0.10032967
-0.013780222 -0.015973158 -0.10033856
-0.013789857 -0.015899707 -0.10034344
-0.013799222 -0.015828235 -0.10034837
-0.01380876 -0.015754741 -0.10035525
-0.013819272 -0.015681677 -0.10034217
-0.013830099 -0.015610852 -0.10031714
-0.013840026 -0.01553753 -0.10031604
-0.013848588 -0.015463602 -0.10034289
-0.013856858 -0.015389545 -0.10037574
-0.013866005 -0.015315877 -0.10039063
-0.013876322 -0.015242727 -0.10038153
-0.013886467 -0.015171601 -0.10037047
-0.013896687 -0.015098408 -0.10036337
-0.01390693 -0.015027326 -0.10035034
-0.013917539 -0.014954305 -0.10033525
-0.013927685 -0.01488318 -0.10032419
-0.01393732 -0.014809728 -0.10032908
-0.013946368 -0.014736016 -0.10034596
-0.013955029 -0.014662132 -0.10037082
-0.013964077 -0.01458842 -0.10038769
-0.01397381 -0.014515011 -0.10039058
-0.013983639 -0.014441645 -0.10039148
-0.013993565 -0.014368322 -0.10039038
-0.014003029 -0.014296895 -0.1003933
-0.014011884 -0.014223097 -0.10041417
-0.014020835 -0.014149342 -0.10043304
-0.01403125 -0.014076235 -0.10042195
-0.014041664 -0.014003128 -0.10041086
-0.014051029 -0.013931657 -0.1004158
-0.014060347 -0.013855964 -0.10043264
-0.014068714 -0.01378195 -0.10046348
-0.014077472 -0.013708109 -0.10048636
-0.014087106 -0.013634657 -0.10049125
-0.01409735 -0.013563575 -0.10047819
-0.014108251 -0.013490683 -0.10045712
-0.014118884 -0.013419773 -0.10043608
-0.014129005 -0.013346538 -0.10043098
-0.014138153 -0.013272869 -0.10044585
-0.0141473 -0.013199201 -0.10046073
-0.014156836 -0.013125706 -0.10046763
-0.014166568 -0.013052296 -0.10047051
-0.014176398 -0.01297893 -0.10047141
-0.014186032 -0.012905478 -0.1004763
-0.014195105 -0.012833877 -0.10048722
-0.014204837 -0.012760468 -0.10049011
-0.014214862 -0.012687189 -0.10048701
-0.01422469 -0.012613823 -0.10048791
-0.014234617 -0.0125405 -0.10048681
-0.014244374 -0.012469201 -0.10048374
-0.014254203 -0.012395835 -0.10048463
-0.014264129 -0.012322512 -0.10048354
-0.014274056 -0.012249189 -0.10048243
-0.0142833 -0.012175565 -0.10049532
-0.014292058 -0.012101723 -0.10051818
-0.014301497 -0.012028184 -0.10052706
-0.014311424 -0.011954861 -0.10052596
-0.014321741 -0.011881711 -0.10051687
-0.014332276 -0.011810759 -0.10049783
-0.014342617 -0.01173972 -0.10048278
-0.014352154 -0.011666224 -0.10048966
-0.014361594 -0.011592685 -0.10049854
-0.014371715 -0.011519449 -0.10049345
-0.014381934 -0.011446255 -0.10048636
-0.014391983 -0.011375086 -0.1004773
-0.014402201 -0.011301894 -0.10047022
-0.014411739 -0.011228398 -0.1004771
-0.014421178 -0.011154859 -0.10048599
-0.014430715 -0.011081364 -0.10049287
-0.014440252 -0.011007868 -0.10049976
-0.014449886 -0.010934415 -0.10050465
-0.014459911 -0.010861136 -0.10050155
-0.014469838 -0.010787813 -0.10050045
-0.014479301 -0.010716385 -0.10050338
-0.01448874 -0.010642846 -0.10051226
-0.014498058 -0.010567154 -0.1005291
-0.014507497 -0.010493615 -0.10053799
-0.014517814 -0.010420464 -0.1005289
-0.014528252 -0.010349467 -0.10051185
-0.014538179 -0.010276145 -0.10051075
-0.014547033 -0.010202347 -0.10053162
-0.014556643 -0.010126784 -0.10054248
-0.014566571 -0.01005346 -0.10054138
-0.014575619 -0.0099797491 -0.10055824
-0.014584864 -0.0099061243 -0.10057113
-0.014595279 -0.0098330174 -0.10056004
-0.014605034 -0.009761719 -0.10055697
-0.014614937 -0.0096862847 -0.10056183
-0.014624498 -0.0096149007 -0.10056276
-0.014634327 -0.0095415358 -0.10056365
-0.014644449 -0.0094682984 -0.10055856
-0.014654765 -0.0093951486 -0.10054947
-0.014665009 -0.0093240654 -0.10053642
-0.014675424 -0.0092509594 -0.10052533
-0.014685374 -0.0091797477 -0.10051826
-0.014695302 -0.0091064246 -0.10051717
-0.014704545 -0.0090327989 -0.10053005
-0.014714058 -0.0089571923 -0.1005429
-0.014723595 -0.008883696 -0.10054979
-0.014733132 -0.0088102007 -0.10055667
-0.014742961 -0.0087368349 -0.10055757
-0.014753107 -0.0086657098 -0.10054651
-0.014763033 -0.0085923867 -0.10054541
-0.014772643 -0.0085168229 -0.10055627
-0.014782107 -0.0084453952 -0.10055919
-0.014792424 -0.0083722454 -0.10055009
-0.014802448 -0.0082989652 -0.10054701
-0.014812374 -0.0082256421 -0.10054591
-0.014822204 -0.0081522772 -0.10054679
-0.014831863 -0.0080809351 -0.10054573
-0.014841789 -0.0080076121 -0.10054462
-0.014851497 -0.0079320921 -0.10055348
-0.014860839 -0.0078585101 -0.10056436
-0.014870279 -0.007784971 -0.10057325
-0.014879912 -0.0077115186 -0.10057814
-0.014889718 -0.0076360423 -0.100585
-0.014899546 -0.0075626755 -0.1005859
-0.014909693 -0.0074915504 -0.10057484
-0.014919912 -0.0074183568 -0.10056774
-0.014929449 -0.0073448615 -0.10057463
-0.014939278 -0.0072714947 -0.10057553
-0.014949497 -0.0071983011 -0.10056844
-0.014959424 -0.0071249781 -0.10056733
-0.014969156 -0.0070515694 -0.10057023
-0.01497918 -0.0069782892 -0.10056713
-0.014989302 -0.0069050528 -0.10056204
-0.014999058 -0.0068337554 -0.10055897
-0.015008766 -0.0067582345 -0.10056783
-0.015018011 -0.0066846097 -0.10058071
-0.01502762 -0.0066090459 -0.10059156
-0.015037254 -0.0065355934 -0.10059644
-0.015046889 -0.0064621409 -0.10060134
-0.015056913 -0.0063888617 -0.10059824
-0.015067425 -0.0063157976 -0.10058516
-0.01507757 -0.0062446715 -0.1005741
-0.015087692 -0.0061714351 -0.100569
-0.015097424 -0.0060980264 -0.1005719
-0.015107058 -0.0060245749 -0.1005768
-0.015116571 -0.0059489664 -0.10058965
-0.015125499 -0.0058731018 -0.10061447
-0.015134938 -0.0057995627 -0.10062335
-0.01514506 -0.0057263253 -0.10061827
-0.015155279 -0.0056531327 -0.10061117
-0.015165133 -0.0055818772 -0.10060611
-0.015175035 -0.0055064429 -0.10061096
-0.01518467 -0.0054329913 -0.10061585
-0.015194499 -0.0053596254 -0.10061675
-0.015204036 -0.0052861292 -0.10062364
-0.01521367 -0.0052126776 -0.10062853
-0.01522428 -0.0051396564 -0.10061345
-0.015234815 -0.0050687026 -0.10059441
-0.015244547 -0.0049952939 -0.1005973
-0.015253475 -0.0049194284 -0.10062213
-0.015262987 -0.0048438217 -0.10063498
-0.015273109 -0.0047705844 -0.10062989
-0.015283231 -0.0046973489 -0.10062479
-0.015292963 -0.0046239384 -0.10062769
-0.01530267 -0.0045484193 -0.10063654
-0.015312402 -0.0044750106 -0.10063943
-0.015322621 -0.0044018161 -0.10063234
-0.015332474 -0.0043305606 -0.10062728
-0.015342279 -0.0042550843 -0.10063414
-0.015351914 -0.0041816309 -0.10063902
-0.015361719 -0.0041061528 -0.10064588
-0.015371329 -0.0040305909 -0.10065675
-0.015380867 -0.0039570946 -0.10066362
-0.015390598 -0.0038836859 -0.10066652
-0.015400525 -0.0038103629 -0.10066542
-0.015410354 -0.003736997 -0.10066632
-0.015420452 -0.0036616474 -0.10066718
-0.015430085 -0.0035881959 -0.10067207
-0.015439696 -0.0035126321 -0.10068293
-0.015449038 -0.0034390502 -0.10069381
-0.015458843 -0.0033635739 -0.10070066
-0.01546877 -0.0032902528 -0.10069956
-0.015478794 -0.0032169707 -0.10069647
-0.01548833 -0.0031434763 -0.10070336
-0.015497844 -0.0030678678 -0.1007162
-0.015507771 -0.0029945448 -0.10071511
-0.015517771 -0.0029191542 -0.10071797
-0.015527088 -0.0028434619 -0.10073481
-0.015536406 -0.0027677659 -0.10075165
-0.01554643 -0.0026944876 -0.10074856
-0.015556869 -0.0026234929 -0.10073151
-0.01556699 -0.0025502555 -0.10072642
-0.015576527 -0.0024767593 -0.1007333
-0.015586332 -0.002401283 -0.10074016
-0.015596137 -0.0023258049 -0.10074702
-0.015606283 -0.0022546798 -0.10073596
-0.015616721 -0.0021836851 -0.10071892
-0.015627038 -0.0021105334 -0.10070983
-0.015636574 -0.002037039 -0.10071671
-0.015646672 -0.0019616913 -0.10071758
-0.015656721 -0.0018905234 -0.10070852
-0.015667135 -0.0018174145 -0.10069744
-0.015677355 -0.0017442219 -0.10069034
-0.015687378 -0.0016709417 -0.10068725
-0.015697306 -0.0015976205 -0.10068615
-0.015715502 -0.0014418364 -0.10073974
-0.015725113 -0.0013662744 -0.1007506
-0.015734844 -0.0012928657 -0.10075349
-0.015744651 -0.0012173858 -0.10076035
-0.015754674 -0.0011441074 -0.10075726
-0.015765429 -0.0010753535 -0.10072825
-0.015776647 -0.0010047015 -0.10069522
-0.015786989 -0.00093366392 -0.10068017
-0.015797012 -0.00086038373 -0.10067708
-0.015806817 -0.00078490749 -0.10068393
-0.015816428 -0.0007093437 -0.10069479
-0.015825843 -0.00063369423 -0.10070963
-0.015869228 -0.0003567338 -0.10059159
-0.015879156 -0.00028340891 -0.1005905
-0.015889375 -0.00021021813 -0.10058341
-0.015899885 -0.00013715401 -0.10057032
-0.01591064 -6.8400055e-05 -0.10054132
-0.015921591 2.7008355e-07 -0.10050832
-0.015931712 7.3505566e-05 -0.10050323
-0.015940933 0.00014924258 -0.10052207
-0.015949009 0.00023178756 -0.10058077
-0.016046828 0.000854332 -0.10030971
-0.016433666 -0.0005815234 -0.089093618
-0.0099285142 -0.043342922 -0.10355286
-0.0099390745 -0.043265678 -0.1035497
-0.009948709 -0.043192223 -0.10355459
-0.0099583426 -0.043118775 -0.10355949
-0.0099686347 -0.043043509 -0.10355636
-0.0099782683 -0.042970058 -0.10356124
-0.0099872444 -0.042898417 -0.10357416
-0.0099967811 -0.042824917 -0.10358105
-0.010007073 -0.042749658 -0.10357791
-0.010017462 -0.042674441 -0.1035728
-0.010027656 -0.042599134 -0.10357167
-0.010036998 -0.042525552 -0.10358255
-0.010046071 -0.042453952 -0.10359345
-0.010056657 -0.04237882 -0.10358434
-0.010067704 -0.042301793 -0.10357119
-0.010077899 -0.04222649 -0.10357006
-0.010086874 -0.042154849 -0.10358297
-0.010095923 -0.042081133 -0.10359985
-0.010105192 -0.042009622 -0.10360676
-0.010115386 -0.041934315 -0.10360564
-0.010125776 -0.041859098 -0.10360051
-0.010136726 -0.041782025 -0.10358936
-0.01014675 -0.041708745 -0.10358627
-0.010155897 -0.041635077 -0.10360114
-0.010165238 -0.041561499 -0.10361203
-0.010175067 -0.04148813 -0.10361292
-0.010184603 -0.041414633 -0.10361981
-0.010194797 -0.04133933 -0.10361868
-0.010204724 -0.041266009 -0.10361758
-0.010214724 -0.041190617 -0.10362045
-0.010224163 -0.04111708 -0.10362934
-0.010233504 -0.041043498 -0.10364021
-0.010243235 -0.040970087 -0.10364311
-0.010253528 -0.040894825 -0.10363998
-0.010263162 -0.040821373 -0.10364487
-0.010272795 -0.040747918 -0.10364977
-0.010282893 -0.04067257 -0.10365063
-0.010292722 -0.040599205 -0.10365153
-0.010302818 -0.040523857 -0.10365239
-0.01031311 -0.040448599 -0.10364927
-0.010323037 -0.040375274 -0.10364817
-0.010332939 -0.04029984 -0.10365303
-0.010341623 -0.040228069 -0.10367193
-0.010351256 -0.040154614 -0.10367682
-0.010361256 -0.040079221 -0.10367968
-0.010370987 -0.040005814 -0.10368258
-0.010381474 -0.039930638 -0.10367545
-0.010391011 -0.039857142 -0.10368235
-0.010400254 -0.039783515 -0.10369523
-0.010409499 -0.039709896 -0.1037081
