-0.0580715 0.0175019 0.998159 0
-0.0640108 0.0071377 0.997924 0.0105122
-0.0603821 0.00211489 0.998173 0.00834225
-0.0586404 -0.00784927 0.998248 0.00821133
-0.0594195 0.0038701 0.998226 0.0203895
-0.0579744 0.0263058 0.997971 0.00694129
-0.0575656 0.024039 0.998052 0
-0.0598849 0.0167287 0.998065 0.0191179
-0.0678952 -0.00473945 0.997681 0.0429174
0.118495 -0.0446138 0.991952 0.00090975
0.13127 -0.0557727 0.989776 0.0199141
0.137695 -0.0523077 0.989092 0.0110193
0.142876 -0.0550664 0.988208 0.0158037
0.158495 -0.0506819 0.986058 0.0182076
-0.0628518 -0.00697878 0.997999 0.025611
-0.0637913 0.00465493 0.997952 0.0183557
-0.0626371 0.00389903 0.998029 0.0187108
-0.0586351 0.0324977 0.99775 0.00466296
-0.058057 0.0214251 0.998083 0.0040625
-0.0628898 0.0115233 0.997954 0.0175871
-0.0614069 0.0060472 0.998094 0.00732445
-0.0611822 -0.00502416 0.998114 0
-0.0610599 -0.00397371 0.998126 0
-0.0644302 -0.00642462 0.997902 0.00994341
-0.0585024 -0.000529427 0.998287 0.00410337
-0.0576321 -0.00180662 0.998336 0.00512491
-0.0651696 -0.0157708 0.99775 0.030026
-0.0578126 0.0107164 0.99827 0.0044089
-0.0598606 -0.00215472 0.998204 0.0114926
-0.0618559 0.0131877 0.997998 0.0185483
-0.0618017 -0.00101768 0.998088 0.0219306
-0.0659857 0.00341574 0.997815 0.0274086
0.117281 -0.0536483 0.991649 0.0240012
0.117708 -0.0503889 0.991769 0.0117011
0.124142 -0.048529 0.991077 0.0116323
0.138269 -0.0591787 0.988625 0.0141655
0.145004 -0.0528922 0.988016 0.0162695
0.154452 -0.0558076 0.986423 0.0188205
0.155445 -0.0532494 0.986408 0.00729745
-0.0691637 -0.0308348 0.997129 0.0358708
-0.068086 -0.0107421 0.997622 0.0284226
-0.0629645 -0.00897207 0.997975 0.0209912
-0.0668756 -0.0153234 0.997644 0.029874
-0.0656039 -0.00310088 0.997841 0.0227738
-0.0615076 0.00665286 0.998084 0.00470597
-0.0628392 -0.00975122 0.997976 0.00813123
-0.0590921 -0.00869554 0.998215 0.000509738
-0.0602344 -0.0150251 0.998071 0
-0.0601086 -0.0167724 0.998051 0.00744651
-0.0588206 -0.0211082 0.998045 0
-0.0603961 -0.0086162 0.998137 0.00491931
-0.0576684 -0.005591 0.99832 0
-0.0580227 0.00141893 0.998314 0.000876805
-0.0628812 -0.0119544 0.997949 0.0177766
-0.063347 0.000261147 0.997992 0.0148577
-0.0621758 0.0023156 0.998063 0.006427
0.115701 -0.056288 0.991688 0.0112889
0.125306 -0.0541994 0.990637 0.0112527
0.137679 -0.0535678 0.989027 0.00886302
0.149866 -0.0580414 0.987001 0.0152126
0.162653 -0.0577276 0.984993 0.0121273
-0.0713613 -0.0364424 0.996785 0.0292115
-0.0694277 -0.02452 0.997286 0.0290659
-0.0703569 -0.0289261 0.997102 0.0298724
-0.0685543 -0.026118 0.997305 0.0320862
-0.065427 -0.0110867 0.997796 0.0164406
-0.0634572 -0.0254978 0.997659 0.00514094
-0.0584392 -0.0116894 0.998223 0
-0.0571918 -0.0213376 0.998135 0
-0.0593749 -0.0278749 0.997846 0
-0.0591118 -0.0317717 0.997746 0
-0.0588587 -0.0168995 0.998123 0
-0.0568824 -0.013475 0.99829 0
-0.0579286 -0.00477879 0.998309 0
-0.062844 -0.000644059 0.998023 0.00968574
-0.061264 0.00495905 0.998109 0.00316439
-0.0625787 -0.0117319 0.997971 0.0100726
0.122785 -0.056356 0.990832 0.0172982
0.138038 -0.0591275 0.988661 0.0155496
0.15109 -0.0661617 0.986303 0.0213884
0.161314 -0.0671729 0.984614 0.0212347
-0.0754486 -0.0616351 0.995243 0.0392083
-0.0776559 -0.0644539 0.994895 0.0430363
-0.0723475 -0.0446947 0.996378 0.0302008
-0.0675326 -0.0336091 0.997151 0.0224328
-0.0654878 -0.0240032 0.997565 0.0148898
-0.0629146 -0.0311231 0.997534 0
-0.0595713 -0.0271669 0.997854 0
-0.0586716 -0.0350074 0.997663 0
-0.059753 -0.0410838 0.997367 0
-0.0570543 -0.0418921 0.997492 0
-0.058583 -0.0280395 0.997889 0
-0.0579948 -0.0192147 0.998132 0
-0.0594929 -0.0158934 0.998102 0
-0.0613612 -0.00797633 0.998084 0.00197401
-0.0604701 -0.0121019 0.998097 0
-0.0606339 -0.0133493 0.998071 0.00574299
0.134717 -0.0486678 0.989688 0.0144974
0.143521 -0.061897 0.98771 0.0184306
0.154616 -0.0670462 0.985697 0.0186305
0.17075 -0.0679154 0.982971 0.0156309
-0.0719087 -0.0593664 0.995643 0.0261353
-0.0762351 -0.062061 0.995157 0.0323486
-0.071741 -0.0493723 0.996201 0.0279513
-0.0705658 -0.0441886 0.996528 0.0275206
-0.0683464 -0.0361624 0.997006 0.0103434
-0.0647641 -0.0428675 0.996979 0.0106479
-0.0625282 -0.0435361 0.997093 0
-0.0586992 -0.0409603 0.997435 0
-0.0575609 -0.032392 0.997816 0
-0.0578937 -0.0367118 0.997647 0
-0.0579782 -0.0184566 0.998147 0
-0.0580861 -0.0158784 0.998185 0
-0.0592809 -0.0104287 0.998187 0
-0.0593209 -0.0158617 0.998113 0
-0.0576713 -0.0158676 0.99821 0
-0.0625599 -0.0235603 0.997763 0
-0.0652464 -0.0338181 0.997296 0.013876
0.132793 -0.0504367 0.98986 0.0163038
0.145394 -0.0532112 0.987942 0.0246213
0.152421 -0.061172 0.986421 0.0165336
0.174917 -0.0805441 0.981283 0.0207751
-0.0682822 -0.0486887 0.996477 0.024057
-0.0752214 -0.0745494 0.994376 0.0305875
-0.0763852 -0.0659616 0.994894 0.0302998
-0.0740983 -0.0592225 0.995491 0.0280333
-0.0753187 -0.0598783 0.99536 0.0299658
-0.071147 -0.0490023 0.996261 0.0168077
-0.0662907 -0.0521951 0.996434 0.00961352
-0.061933 -0.0395358 0.997297 0
-0.0598499 -0.0454764 0.997171 0
-0.0594461 -0.049627 0.996997 0
-0.0596492 -0.0390892 0.997454 0
-0.0618936 -0.0250708 0.997768 0
-0.0604485 -0.0208716 0.997953 0
-0.059269 -0.0135234 0.99815 0
-0.0580928 -0.0115124 0.998245 0
0.137427 -0.0603487 0.988672 0.0238891
0.14187 -0.0628537 0.987888 0.0249425
0.159825 -0.0692405 0.984714 0.0285554
0.174165 -0.0806846 0.981405 0.025921
-0.0666263 -0.0602976 0.995954 0.00624608
-0.0734811 -0.0757006 0.994419 0.0309829
-0.0725874 -0.0686557 0.994996 0.0226011
-0.0724197 -0.0633094 0.995363 0.0245919
-0.079135 -0.0810298 0.993565 0.0390028
-0.0756614 -0.0544278 0.995647 0.0272668
-0.064789 -0.051158 0.996587 0.00909676
-0.0595822 -0.0445854 0.997227 0
-0.0625859 -0.0479974 0.996885 0
-0.0617987 -0.0520613 0.99673 0
-0.0589135 -0.0416306 0.997395 0
-0.0592942 -0.0373813 0.99754 0
-0.0636299 -0.0406104 0.997147 0
-0.062161 -0.0361656 0.997411 0
-0.061846 -0.0392764 0.997313 0
0.13854 -0.0704533 0.987848 0.0307366
0.141532 -0.0732655 0.987219 0.0306147
0.161107 -0.0771591 0.983916 0.0312672
0.177548 -0.0849112 0.980442 0.0270835
-0.0676657 -0.060534 0.99587 0.00274554
-0.0707402 -0.0696304 0.995062 0.0210736
-0.0716681 -0.0763574 0.994501 0.0262969
-0.074299 -0.0798085 0.994037 0.0344467
-0.0784068 -0.0799355 0.993712 0.0378878
-0.0763363 -0.0630999 0.995084 0.0348785
-0.0684679 -0.0456258 0.99661 0.0158695
-0.0637627 -0.0409586 0.997124 0.0120259
-0.0622542 -0.0423924 0.99716 0.00260535
-0.0614327 -0.0579059 0.99643 0.00398621
-0.0624855 -0.0616055 0.996143 0.00963079
-0.0589123 -0.0358992 0.997617 0
-0.0598148 -0.0344534 0.997615 0
-0.0609463 -0.0295075 0.997705 0
-0.0615266 -0.0414255 0.997245 0
0.137091 -0.0743422 0.987765 0.0250414
0.152066 -0.0778713 0.985298 0.0142086
0.170438 -0.0870518 0.981515 0.0274557
0.184859 -0.0981568 0.977851 0.0215467
-0.0663667 -0.0659703 0.995612 0.0123298
-0.0632927 -0.0614348 0.996102 0.00515852
-0.0657942 -0.0725327 0.995193 0.00597937
-0.0682046 -0.0702882 0.995192 0.0106285
-0.0652778 -0.0679819 0.995549 0.010009
-0.0734902 -0.0867072 0.993519 0.0251676
-0.0737965 -0.0685974 0.994911 0.0290962
-0.0722833 -0.069878 0.994933 0.0344171
-0.0730405 -0.0539236 0.99587 0.0358508
-0.0662987 -0.0476371 0.996662 0.0166167
-0.063267 -0.0451692 0.996974 0.00986653
-0.0599525 -0.0469726 0.997095 0
-0.0615698 -0.0504752 0.996826 0
-0.0608243 -0.0370304 0.997461 0
-0.0623914 -0.0354315 0.997423 0
-0.0632586 -0.0461127 0.996931 0
0.138378 -0.0819795 0.986981 0.0280849
0.156758 -0.0884765 0.983666 0.0232266
0.166796 -0.0931511 0.981581 0.0170059
0.175252 -0.0906302 0.980343 0.0113751
-0.069362 -0.0708212 0.995075 0.0207291
-0.0657213 -0.0748456 0.995027 0.0126845
-0.065267 -0.0776843 0.994839 0.0192097
-0.066068 -0.0596861 0.996028 0.0088293
-0.0669838 -0.0690391 0.995363 0.0118647
-0.0695414 -0.0755605 0.994713 0.0160177
-0.0711058 -0.0631884 0.995465 0.0216113
-0.0658673 -0.0601786 0.996012 0.0169902
-0.0683739 -0.057449 0.996004 0.033411
-0.0632089 -0.04771 0.996859 0.0167253
-0.0605478 -0.0373714 0.997465 0.0119233
-0.0610499 -0.0548717 0.996625 0.0157022
-0.0619478 -0.0448987 0.997069 0.00948332
-0.0603843 -0.0456323 0.997132 0
-0.0606859 -0.0375178 0.997452 0.00108374
0.134343 -0.0791511 0.987769 0.0302273
0.135352 -0.0797188 0.987585 0.0278351
0.149851 -0.0881703 0.984769 0.0190194
0.161681 -0.0932771 0.982425 0.00836315
0.168039 -0.0853941 0.982075 0.00850284
-0.0717289 -0.0911872 0.993247 0.0347076
-0.06772 -0.0902723 0.993612 0.0272876
-0.0693741 -0.0978864 0.992777 0.0370921
-0.0647032 -0.0701172 0.995438 0.0119222
-0.0630291 -0.0569399 0.996386 0.0123623
-0.0672045 -0.0638725 0.995693 0.0148953
-0.0678955 -0.0674404 0.995411 0.0175583
-0.0691909 -0.0678412 0.995294 0.0268121
-0.06529 -0.0635818 0.995839 0.0209546
-0.0629661 -0.0613712 0.996127 0.0197815
-0.0610441 -0.0578198 0.996459 0.0204875
-0.0606781 -0.0590116 0.996411 0.00979823
-0.0609997 -0.046082 0.997073 0.00661758
-0.0597092 -0.0429592 0.997291 0
0.132814 -0.079383 0.987957 0.0255373
0.128496 -0.0807086 0.98842 0.024526
0.14549 -0.0878001 0.985456 0.0110452
0.156469 -0.0873059 0.983817 0.00911436
0.16559 -0.0842471 0.98259 0.00824253
-0.0756542 -0.0946524 0.992632 0.0360202
-0.0687382 -0.0974817 0.992861 0.0348564
-0.0662339 -0.0877891 0.993935 0.0307294
-0.0664432 -0.0884686 0.99386 0.02903
-0.0674154 -0.0873721 0.993892 0.0268405
-0.0657791 -0.0785773 0.994735 0.020543
-0.0648358 -0.0722013 0.995281 0.0211368
-0.0652296 -0.0687533 0.995499 0.014122
-0.0635833 -0.0705018 0.995483 0.0102519
-0.0602783 -0.0592757 0.99642 0.00429319
-0.0578576 -0.0535545 0.996887 0.00104669
-0.0607525 -0.0562081 0.996569 0.0124866
-0.0583932 -0.0581759 0.996597 0.00399855
0.139433 -0.0866183 0.986436 0.00291149
0.152919 -0.0842559 0.98464 0.000615152
0.166914 -0.0870754 0.982119 0.000516947
-0.0655642 -0.0630648 0.995853 0
-0.0696639 -0.0860204 0.993855 0.0195519
-0.071606 -0.0942449 0.992971 0.0237504
-0.0706162 -0.0933231 0.993128 0.0301323
-0.0646197 -0.0767708 0.994953 0.0163964
-0.0641637 -0.07631 0.995018 0.0162323
-0.0629782 -0.0787528 0.994903 0.0165376
-0.0618124 -0.0666436 0.99586 0.00590116
-0.0630889 -0.0621464 0.996071 0.00933603
-0.0655575 -0.0774563 0.994838 0.0137426
-0.0667764 -0.0802545 0.994535 0.0115587
-0.0636246 -0.0815112 0.99464 0.0118509
-0.0604638 -0.0715272 0.995604 0.00530009
-0.0572441 -0.0604612 0.996528 0
-0.0585801 -0.0657888 0.996113 0
0.137814 -0.0870158 0.986628 1.82391e-05
0.150787 -0.0824751 0.98512 0.001511
0.166071 -0.0810888 0.982774 0.00747089
-0.0649167 -0.0683922 0.995544 0.00181717
-0.0680911 -0.0660261 0.995492 0.0147378
-0.0672085 -0.0718187 0.995151 0.00612554
-0.0693175 -0.0916974 0.993371 0.0281026
-0.0665517 -0.086551 0.994022 0.0152839
-0.0629437 -0.0718578 0.995427 0
-0.0657374 -0.0862682 0.994101 0.0170634
-0.0585701 -0.066271 0.996081 0
-0.063829 -0.0668861 0.995717 0.00827723
-0.0629879 -0.069756 0.995573 0
-0.0614779 -0.0825995 0.994685 0
-0.0587641 -0.0748392 0.995463 0
-0.0579704 -0.0622027 0.996379 0
-0.0552488 -0.06554 0.996319 0
0.150902 -0.0805347 0.985263 0
0.16018 -0.0696447 0.984628 0
-0.061932 -0.0683559 0.995737 0.0153031
-0.064592 -0.0801704 0.994686 0.0119239
-0.0716229 -0.0887084 0.993479 0.024268
-0.067979 -0.0843704 0.994113 0.0197354
-0.0644292 -0.076744 0.994967 0.00955397
-0.0598457 -0.0601788 0.996392 0
-0.0603319 -0.0637585 0.99614 0
-0.0573279 -0.0655358 0.996202 0
-0.06142 -0.0713408 0.995559 0.00165439
-0.0607662 -0.0813617 0.994831 0
-0.060849 -0.0838272 0.994621 0
-0.0598384 -0.0807147 0.994939 0
0.146726 -0.0735582 0.986438 0
0.159836 -0.0762776 0.984192 0.00435764
0.167429 -0.0789077 0.982721 0.0012976
-0.0573734 -0.0518158 0.997007 0
-0.0613365 -0.0629116 0.996132 0.00949238
-0.0656598 -0.0786685 0.994736 0.0264835
-0.0666992 -0.0751573 0.994938 0.0250955
-0.0663596 -0.0823705 0.99439 0.0132975
-0.0719575 -0.0917386 0.99318 0.0304127
-0.0601322 -0.0462829 0.997117 0
-0.0585744 -0.0547847 0.996779 0
-0.056852 -0.053983 0.996922 0
-0.0618085 -0.0679556 0.995772 0
-0.0598798 -0.0944847 0.993724 0
-0.0606525 -0.0967544 0.993459 0
-0.0625645 -0.0964068 0.993374 0
0.159642 -0.0757864 0.984262 0.00628838
0.173827 -0.0891645 0.980731 0.0140682
-0.0541115 -0.0453546 0.997504 0
-0.0573846 -0.061287 0.996469 0
-0.0591416 -0.0693454 0.995838 0.00272441
-0.0612044 -0.0718079 0.995539 0.0103019
-0.0658055 -0.0756697 0.994959 0.0234739
-0.0715937 -0.0863473 0.993689 0.0317305
-0.0703769 -0.0839806 0.993979 0.033944
-0.0693294 -0.0891485 0.993602 0.0273013
-0.0622425 -0.0606827 0.996215 0.000372798
-0.0596441 -0.0566847 0.996609 0
-0.059809 -0.0565347 0.996608 0
-0.0636455 -0.0833729 0.994484 0
-0.0592305 -0.0834045 0.994754 0
-0.0606016 -0.110605 0.992015 0
0.165775 -0.094661 0.98161 0.0074418
0.178525 -0.0945063 0.979386 0.0114993
-0.0559636 -0.0506539 0.997147 0
-0.0578174 -0.0693348 0.995917 0
-0.0610083 -0.0708361 0.995621 0.00252857
-0.0674365 -0.0741623 0.994963 0.0189397
-0.0693642 -0.0812526 0.994277 0.0301188
-0.0700013 -0.0806467 0.994282 0.0345687
-0.0692892 -0.0839799 0.994056 0.0322949
-0.0690668 -0.0781923 0.994543 0.028383
-0.0681084 -0.0604663 0.995844 0.0127792
-0.0657001 -0.0622281 0.995897 0.000231069
-0.0636229 -0.0680242 0.995653 0
-0.0608742 -0.0851033 0.994511 0
-0.0613575 -0.102775 0.99281 0
-0.0651065 -0.117286 0.990962 0
0.170857 -0.107059 0.979462 0.0179642
0.186965 -0.114791 0.975637 0.0192993
-0.0580785 -0.0611221 0.996439 0
-0.0608681 -0.0668138 0.995907 0
-0.0612337 -0.0790861 0.994985 0
-0.0623869 -0.0772371 0.995059 0.00408171
-0.0667787 -0.0810344 0.994472 0.0191148
-0.0641118 -0.0776087 0.99492 0.0103133
-0.0678496 -0.081594 0.994353 0.0215651
-0.0709468 -0.0886008 0.993537 0.036377
-0.0721443 -0.085319 0.993738 0.0342923
-0.0711334 -0.0755111 0.994605 0.0172562
-0.0696465 -0.0762264 0.994655 0.00794872
-0.0686913 -0.0870568 0.993832 0.00881338
-0.0667434 -0.104571 0.992275 0.00276119
-0.0646315 -0.107004 0.992156 0
-0.065228 -0.11863 0.990794 0
0.177339 -0.123717 0.976343 0.0187658
0.19432 -0.121226 0.973419 0.018617
0.212097 -0.122471 0.969544 0.0215574
-0.0611645 -0.0633399 0.996116 0
-0.062157 -0.0786824 0.99496 0
-0.0621549 -0.0827451 0.994631 0
-0.0630532 -0.0845627 0.994421 0.00170468
-0.0607349 -0.0772711 0.995158 0
-0.0626383 -0.0780034 0.994983 0
-0.0678571 -0.077902 0.994649 0.00917009
-0.0723002 -0.0877187 0.993518 0.032512
-0.0701312 -0.0781909 0.994469 0.0209484
-0.0724747 -0.0890473 0.993387 0.0216693
-0.0705506 -0.102677 0.99221 0.0103244
-0.0711144 -0.117656 0.990505 0.0155225
-0.0688593 -0.108266 0.991734 0.00592975
0.183149 -0.124875 0.975122 0.0207574
0.196495 -0.130133 0.971831 0.0282375
0.221266 -0.130769 0.966406 0.022241
-0.062719 -0.0591078 0.996279 0
-0.0621686 -0.0664373 0.995852 0
-0.0622536 -0.0736909 0.995336 0
-0.0632478 -0.0873168 0.994171 0
-0.0631191 -0.081516 0.994671 0
-0.0633535 -0.0798946 0.994788 0
-0.0641423 -0.081561 0.994602 0.000271294
-0.0660178 -0.0728324 0.995157 0
-0.0667334 -0.0784465 0.994682 0.00370941
-0.0689544 -0.0807077 0.99435 0.0132389
-0.0739741 -0.0881743 0.993354 0.0259671
-0.0726556 -0.0864175 0.993606 0.0194214
-0.070043 -0.107698 0.991713 0.0066381
-0.0689823 -0.116135 0.990835 0.00944358
0.196864 -0.132893 0.971382 0.0230851
0.212235 -0.130431 0.968475 0.0134766
-0.0613798 -0.0653181 0.995975 0
-0.0626864 -0.0722671 0.995413 0
-0.0644722 -0.0778595 0.994878 0
-0.0655672 -0.0834294 0.994354 0
-0.0673576 -0.100508 0.992653 0.00710018
-0.0635215 -0.101083 0.992848 0.00135107
-0.0687743 -0.0991672 0.992691 0.00324544
-0.0671072 -0.0882263 0.993837 0
-0.0654562 -0.087653 0.993998 0
-0.0654728 -0.0778658 0.994812 0.00241691
-0.067898 -0.0756335 0.994821 0.00652903
-0.068582 -0.0693901 0.995229 0.0111191
-0.0736072 -0.0853237 0.993631 0.0186614
-0.0706562 -0.110117 0.991404 0.00383948
0.196712 -0.130444 0.971745 0.0214303
0.218962 -0.134362 0.966438 0.0181097
-0.0612411 -0.0626692 0.996154 0
-0.0583078 -0.0590486 0.996551 0
-0.0573905 -0.0598771 0.996555 0
-0.0612745 -0.0618414 0.996203 0
-0.0662956 -0.0737357 0.995072 0
-0.0683454 -0.0877063 0.993799 0
-0.0684732 -0.0956885 0.993053 0
-0.0681679 -0.0959697 0.993047 0
-0.0665095 -0.108059 0.991917 0
-0.0670634 -0.104977 0.992211 0
-0.070606 -0.10252 0.992222 0.00169074
-0.0653047 -0.0812312 0.994554 0
-0.0673214 -0.08455 0.994142 0.00756915
-0.0696997 -0.0894994 0.993545 0.0108759
-0.0682561 -0.0856353 0.993986 0.00604679
-0.0719673 -0.0943877 0.992931 0.0117774
0.204464 -0.140573 0.968728 0.0222613
0.226296 -0.143569 0.96342 0.0238776
0.239167 -0.137817 0.961148 0.0133095
-0.0719145 -0.0948623 0.992889 0.00789062
-0.0616516 -0.0699479 0.995644 0
-0.0611627 -0.0686594 0.995764 0
-0.0635776 -0.0811129 0.994675 0
-0.0645545 -0.0888908 0.993947 0
-0.0675851 -0.0897098 0.993672 0
-0.067763 -0.0933353 0.993326 0
-0.0685238 -0.104704 0.99214 0
-0.0684137 -0.103056 0.99232 0
-0.0690713 -0.10851 0.991693 0
-0.0698165 -0.0974207 0.992791 0.000460583
-0.0701392 -0.0917263 0.993311 0
-0.0674866 -0.0749596 0.9949 0
-0.069694 -0.083498 0.994068 0.01083
-0.0705765 -0.091556 0.993296 0.0109139
0.219202 -0.140946 0.965445 0.0207378
0.257438 -0.145689 0.955249 0.0249631
-0.0672059 -0.092938 0.993401 0.00456098
-0.0689328 -0.0973692 0.992858 0.00940068
-0.068825 -0.0954896 0.993048 0
-0.062785 -0.0736914 0.995303 0
-0.067636 -0.0885007 0.993777 0
-0.0648387 -0.0923032 0.993618 0
-0.0658937 -0.105632 0.99222 0
-0.0680817 -0.0961513 0.993036 0
-0.0664539 -0.0916558 0.993571 0
-0.0682209 -0.10226 0.992416 0
-0.0697621 -0.105897 0.991927 0
-0.072373 -0.107447 0.991573 0.00370988
-0.0719537 -0.0945832 0.992913 0.00786434
-0.0694747 -0.0790758 0.994445 0
-0.0738972 -0.0868958 0.993473 0.00371478
-0.073315 -0.0845183 0.993721 0.00549412
0.213571 -0.139053 0.966981 0.0174484
0.243614 -0.139915 0.959727 0.0240404
-0.0670818 -0.106759 0.99202 0
-0.0715834 -0.102366 0.992168 0.00632194
-0.069332 -0.110102 0.991499 0.0023033
-0.0682242 -0.102418 0.992399 0
-0.0656526 -0.0856102 0.994163 0
-0.0650617 -0.108863 0.991925 0
-0.0679277 -0.108786 0.991742 0
-0.0682425 -0.103123 0.992325 0
-0.0670978 -0.097244 0.992996 0
-0.0673756 -0.108222 0.991841 0
-0.06996 -0.110436 0.991418 0
-0.0708839 -0.0972404 0.992733 0
-0.0702008 -0.0866829 0.99376 2.08697e-05
-0.0688424 -0.0827505 0.99419 0.00240324
0.204496 -0.143186 0.968338 0.00749421
0.22561 -0.139871 0.964125 0.0114325
0.246318 -0.137288 0.959416 0.0166198
-0.0657194 -0.107661 0.992013 0.00368007
-0.0692347 -0.112154 0.991276 0.00806978
-0.0664541 -0.0980019 0.992965 0.00247627
-0.0668502 -0.103857 0.992343 0
-0.0660146 -0.0927788 0.993496 0
-0.0675455 -0.114686 0.991103 0
-0.0667317 -0.107137 0.992002 0
-0.0665218 -0.105017 0.992243 0
-0.0688708 -0.104429 0.992145 0
-0.0697307 -0.111489 0.991316 0
-0.0719373 -0.100554 0.992328 0
-0.0690928 -0.085904 0.993905 0
0.214051 -0.136347 0.96726 0.00308236
0.23614 -0.142634 0.961194 0.00555814
-0.0712615 -0.11258 0.991084 0.01277
-0.0727321 -0.115018 0.990697 0.0145008
-0.0676342 -0.10902 0.991736 0
-0.069115 -0.109879 0.991539 0.00510281
-0.0669875 -0.0985673 0.992873 0.0023254
-0.0662706 -0.0999018 0.992788 0
-0.0685406 -0.106734 0.991922 0.00743654
-0.0658514 -0.1038 0.992416 0
-0.0655251 -0.110535 0.99171 0
-0.0664335 -0.110682 0.991633 0
-0.0696103 -0.11975 0.990361 0
-0.0678773 -0.114282 0.991127 0
0.228508 -0.143372 0.962927 0.00872605
0.238395 -0.142974 0.960586 0.00578261
-0.0787795 -0.117224 0.989976 0.00438151
-0.0808153 -0.126376 0.988685 0.00499452
-0.0697329 -0.117753 0.990592 0.0041185
-0.0691472 -0.1122 0.991277 0.00435659
-0.0695451 -0.103051 0.992242 0.00371707
-0.0717651 -0.131815 0.988673 0.0173927
-0.0695475 -0.12747 0.989401 0.0202031
-0.0667985 -0.114091 0.991222 0.00387195
-0.064129 -0.102323 0.992682 0
-0.0653291 -0.118446 0.990809 0
-0.0658934 -0.116058 0.991054 0
-0.0572707 -0.0998952 0.993348 0
-0.0620676 -0.0978053 0.993268 0
-0.0637918 -0.105238 0.992399 0
-0.0671082 -0.109076 0.991766 0
0.225332 -0.14686 0.96315 0.0100875
0.240386 -0.14001 0.960527 0.00919092
-0.0832932 -0.132791 0.987638 0.00811599
-0.0828855 -0.131164 0.98789 0.0101844
-0.076604 -0.133263 0.988116 0.0100565
-0.0759971 -0.132178 0.988308 0.00606454
-0.0752637 -0.131858 0.988407 0.00449935
-0.072277 -0.118996 0.990261 0.00825148
-0.0736592 -0.121348 0.989873 0.0123923
-0.0702082 -0.11898 0.990411 0.00649889
-0.0680315 -0.109862 0.991616 0.000615084
-0.0668065 -0.113037 0.991342 0
-0.0669848 -0.109211 0.991759 0
-0.0643714 -0.11435 0.991353 0
-0.0650921 -0.112249 0.991546 0
-0.0624639 -0.115687 0.99132 0
-0.0644644 -0.113325 0.991464 0
-0.0655455 -0.0996597 0.99286 0
-0.0663964 -0.118397 0.990744 0
0.231138 -0.140415 0.962735 0.00695173
-0.0819505 -0.123671 0.988934 0
-0.083221 -0.130855 0.987902 0
-0.0832684 -0.141666 0.986406 0.0026657
-0.0789596 -0.134047 0.987824 0.00030809
-0.0809091 -0.139809 0.986867 0.0135337
-0.076629 -0.134461 0.987952 0.0111345
-0.0749637 -0.146023 0.986437 0.0143017
-0.0779589 -0.152597 0.985209 0.0210956
-0.0700982 -0.12765 0.989339 0.0139298
-0.0717835 -0.131459 0.988719 0.00521118
-0.069678 -0.125707 0.989618 0.00834642
-0.0679429 -0.114729 0.991071 0.00512889
-0.0691953 -0.108973 0.991633 0
-0.0627593 -0.105002 0.99249 0
-0.0603547 -0.102005 0.992951 0
-0.065612 -0.119456 0.990669 0
-0.064715 -0.133087 0.988989 0
-0.0657844 -0.13293 0.98894 0.00205888
0.21777 -0.139739 0.965945 0
0.220951 -0.133247 0.96614 0
-0.0788317 -0.132547 0.988037 0
-0.0808507 -0.140852 0.986724 0.00014385
-0.0805132 -0.13875 0.987049 0
-0.0796587 -0.146881 0.985941 0.00864244
-0.0741888 -0.141869 0.987101 0.0105649
-0.0739543 -0.140081 0.987374 0.00761194
-0.0704726 -0.135447 0.988275 0.0074317
-0.0777367 -0.155911 0.984707 0.0232111
-0.0755748 -0.14729 0.986202 0.0150464
-0.0680377 -0.143466 0.987314 0.00598169
-0.0695208 -0.141116 0.987549 0
-0.0668106 -0.126005 0.989777 0.00094269
-0.0675692 -0.120713 0.990385 0
-0.0609433 -0.108685 0.992206 0
-0.0606158 -0.112721 0.991776 0
-0.0634098 -0.121128 0.990609 0
-0.0638769 -0.115841 0.991212 0
0.222528 -0.135894 0.965409 0
0.224999 -0.13799 0.964538 0
0.23046 -0.140725 0.962852 0
-0.0870943 -0.135066 0.987001 0
-0.0823281 -0.132997 0.987691 0
-0.0781026 -0.128298 0.988655 0
-0.0784218 -0.134807 0.987764 0
-0.0791951 -0.126219 0.988836 0
-0.077946 -0.13948 0.987152 0.00704084
-0.0761798 -0.1369 0.987651 0.00299792
-0.071189 -0.137171 0.987986 0.00222489
-0.0769596 -0.159179 0.984245 0.0228035
-0.0738571 -0.146345 0.986473 0.0147926
-0.0804892 -0.145806 0.986034 0.0234116
-0.0705286 -0.139434 0.987716 0.00337314
-0.0698696 -0.134133 0.988497 0
-0.0685243 -0.127356 0.989487 0
-0.0641788 -0.125338 0.990036 0
-0.0614084 -0.109001 0.992143 0
-0.061725 -0.118726 0.991007 0
-0.0633226 -0.125628 0.990054 0
0.240141 -0.135282 0.961265 0
0.236873 -0.135238 0.962082 0
-0.0903468 -0.109312 0.989893 0
-0.083828 -0.131103 0.987818 0
-0.0798403 -0.132031 0.988025 0
-0.0798453 -0.132497 0.987962 0
-0.0769055 -0.133312 0.988086 0
-0.074564 -0.13062 0.988625 0.00167045
-0.0720271 -0.132598 0.988549 0.00190338
-0.0728388 -0.132525 0.9885 0
-0.0714971 -0.138605 0.987763 0.00108393
-0.0774029 -0.157873 0.984421 0.027786
-0.0796087 -0.146814 0.985955 0.0189106
-0.0760054 -0.136199 0.987762 0.00584079
-0.0728379 -0.122186 0.989831 0
-0.0680657 -0.119807 0.990461 0
0.256093 -0.141788 0.956197 0
0.252634 -0.136605 0.95787 0
-0.102399 -0.100795 0.989624 0
-0.0934009 -0.108804 0.989666 0
-0.0789741 -0.117919 0.989878 0
-0.0774693 -0.128065 0.988735 0
-0.0777172 -0.124205 0.989208 0
-0.0755012 -0.125339 0.989237 0
-0.0750987 -0.123366 0.989516 0
-0.0702797 -0.126743 0.989443 0
-0.0656655 -0.114094 0.991297 0
-0.0719333 -0.129042 0.989027 0
-0.0721658 -0.13833 0.987753 0.00594677
-0.0716444 -0.130786 0.988819 0
-0.0770773 -0.13704 0.987562 0.00585337
-0.0755245 -0.14822 0.986066 0.00906928
-0.0755519 -0.139216 0.987376 0.000222619
-0.0669646 -0.114981 0.991108 0
0.248629 -0.144903 0.957698 0
0.248622 -0.141198 0.958254 0
-0.114574 -0.116785 0.986526 0.0124212
-0.108841 -0.118632 0.986955 0.00960345
-0.101555 -0.116696 0.987962 0.0036198
-0.0906516 -0.12246 0.988325 0
-0.0835979 -0.119014 0.989367 0
-0.0821335 -0.129135 0.98822 0
-0.0797057 -0.129478 0.988374 0
-0.0744108 -0.12883 0.988871 0
-0.0743474 -0.125852 0.989259 0
-0.075337 -0.127613 0.988959 0
-0.0742912 -0.123529 0.989556 0
-0.0711649 -0.118447 0.990407 0
-0.0708929 -0.117656 0.990521 0
-0.0720965 -0.12882 0.989044 0.00308827
-0.0695279 -0.127414 0.98941 0
-0.0735346 -0.125651 0.989345 0
0.258933 -0.158545 0.952794 0
0.257085 -0.157443 0.953477 0
-0.117453 -0.123777 0.985335 0.015866
-0.118173 -0.134061 0.983902 0.0204
-0.111298 -0.135879 0.984454 0.0134804
-0.0996442 -0.12265 0.987435 0.00640433
-0.0891878 -0.123267 0.988358 0
-0.0884227 -0.135103 0.986878 0.00816097
-0.0815655 -0.127535 0.988474 0
-0.0772846 -0.133009 0.988097 0
-0.0777922 -0.122487 0.989417 0
-0.0794077 -0.129641 0.988376 0
-0.0786345 -0.134152 0.987836 0
-0.0782419 -0.1235 0.989255 0
-0.0779254 -0.126472 0.988905 0
-0.0703053 -0.126051 0.989529 0.00172032
0.263269 -0.160977 0.951197 0
0.261934 -0.164504 0.950962 0
-0.132889 -0.126805 0.982986 0.0198499
-0.117838 -0.121776 0.985538 0.0159901
-0.114755 -0.127843 0.985133 0.0142804
-0.106306 -0.126854 0.986208 0.0162639
-0.0988763 -0.127934 0.986842 0.0103653
-0.095004 -0.122859 0.987866 0.00404435
-0.0911658 -0.123254 0.988179 0.0089511
-0.0829617 -0.128484 0.988235 0
-0.0779082 -0.133179 0.988025 0
-0.0789678 -0.13442 0.987773 0
-0.0788822 -0.129032 0.988498 0
-0.0807576 -0.142167 0.986543 0
-0.0792271 -0.13535 0.987625 0
0.26802 -0.157315 0.950483 0
-0.131663 -0.111543 0.984999 0.00725744
-0.124596 -0.121362 0.984757 0.0110361
-0.120827 -0.130794 0.984019 0.0198942
-0.117948 -0.130739 0.984376 0.0189775
-0.109733 -0.121643 0.98649 0.0212975
-0.106793 -0.125712 0.986302 0.0197236
-0.0951906 -0.125292 0.987543 0.0130191
-0.0967898 -0.137937 0.9857 0.0220808
-0.0948318 -0.153348 0.983611 0.0169016
-0.0882521 -0.14604 0.985334 0.0109928
-0.0838915 -0.14904 0.985266 0.0017079
-0.0818513 -0.137352 0.987135 0
0.271064 -0.148426 0.951049 0
-0.147803 -0.103203 0.983617 0
-0.142748 -0.110748 0.983544 0
-0.132529 -0.106441 0.985447 0
-0.125464 -0.117336 0.985135 0.00893389
-0.122477 -0.131199 0.983761 0.0236029
-0.123911 -0.13878 0.982541 0.028734
-0.112518 -0.132718 0.984747 0.0291042
-0.104431 -0.127754 0.986293 0.0194072
-0.102367 -0.145478 0.984051 0.0198876
-0.0968346 -0.148439 0.984169 0.0192261
-0.0974975 -0.156819 0.982803 0.0270317
-0.0897449 -0.151879 0.984316 0.0166608
-0.0845471 -0.159142 0.983629 0.0116723
0.278348 -0.148455 0.948938 0
-0.157787 -0.115416 0.980705 0
-0.156238 -0.102097 0.982429 0
-0.148766 -0.100084 0.983795 0
-0.144238 -0.110037 0.983406 0.00681848
-0.142766 -0.119907 0.982466 0.0139176
-0.133951 -0.125739 0.982978 0.00830893
-0.123632 -0.123918 0.984561 0.0139439
-0.116802 -0.140229 0.983206 0.0200772
-0.111375 -0.14347 0.983368 0.0279752
-0.10311 -0.13517 0.985443 0.0175267
-0.10109 -0.144653 0.984305 0.0226196
-0.102847 -0.156698 0.982277 0.029477
-0.0964646 -0.156652 0.982932 0.023848
0.273251 -0.151221 0.949982 3.43436e-05
-0.163304 -0.115442 0.979798 0
-0.161568 -0.108255 0.980906 0
-0.155977 -0.105359 0.982126 0
-0.151009 -0.109817 0.982414 0.00402715
-0.145949 -0.10659 0.983533 0.00654159
-0.138729 -0.118755 0.983184 0.0113543
-0.13398 -0.11412 0.984391 0.0105863
-0.124037 -0.122217 0.984722 0.0117148
-0.111307 -0.128651 0.985424 0.00345654
-0.104788 -0.139617 0.984645 0.0141851
-0.105635 -0.137662 0.98483 0.0175241
-0.0999213 -0.154522 0.982924 0.0146853
-0.166557 -0.118177 0.978924 0
-0.163696 -0.110831 0.980265 0
-0.158814 -0.101132 0.982115 0
-0.154408 -0.105398 0.982369 0
-0.147932 -0.100757 0.983852 0.00586099
-0.144471 -0.110883 0.983277 0.0140876
-0.135011 -0.121586 0.983356 0.0112819
-0.126024 -0.122057 0.98449 0.00803129
-0.175524 -0.122177 0.976865 0
-0.165354 -0.113946 0.97963 0
-0.164289 -0.114503 0.979744 0
-0.159438 -0.100835 0.982045 0
-0.154111 -0.0982418 0.983157 0
-0.146435 -0.0895369 0.98516 0
-0.138931 -0.102588 0.984974 0.00170003
-0.133923 -0.111503 0.984699 0.0030428
-0.122735 -0.110589 0.986259 0
-0.180065 -0.129344 0.975114 0
-0.169715 -0.122929 0.977796 2.55079e-06
-0.162296 -0.11438 0.98009 0
-0.160313 -0.100369 0.98195 0
-0.155753 -0.106009 0.982091 0
-0.146824 -0.0984846 0.984248 0
-0.146159 -0.120348 0.981913 0.00926737
-0.184216 -0.124406 0.974981 0
-0.169967 -0.116997 0.97848 0
-0.164767 -0.103774 0.980858 0
-0.160061 -0.114303 0.980467 0
-0.154235 -0.111003 0.981779 0
-0.150478 -0.103862 0.983142 0
-0.229576 -0.131671 0.964343 0
-0.225982 -0.137714 0.964348 0.00523446
-0.218587 -0.138202 0.965981 0.0140886
-0.189808 -0.127286 0.973535 0
-0.173806 -0.111827 0.97841 0
-0.161804 -0.105418 0.981176 0
-0.155123 -0.107937 0.981981 0
-0.150924 -0.112879 0.98208 0
-0.249335 -0.129192 0.959761 0.00445216
-0.235521 -0.125885 0.963682 0.00994406
-0.227644 -0.122012 0.96607 0.0103914
-0.217521 -0.129664 0.967405 0.00557953
-0.196137 -0.126829 0.97234 0.00264366
-0.177304 -0.118215 0.97703 0
-0.168586 -0.117514 0.978657 0
-0.265385 -0.134319 0.95474 0.00609193
-0.250745 -0.132817 0.958899 0.00357597
-0.239101 -0.127747 0.962555 0.0152471
-0.225079 -0.122605 0.966596 0.00677144
-0.212291 -0.122728 0.969469 0.00407683
-0.197324 -0.123694 0.972503 0.00516212
-0.293246 -0.127709 0.947469 0.0188882
-0.271953 -0.12515 0.954138 0.00824093
-0.2535 -0.131834 0.95831 0.00673373
-0.239843 -0.129304 0.962162 0.0126124
-0.229276 -0.125549 0.96523 0.0158835
-0.212635 -0.110132 0.970905 0.0054105
-0.299214 -0.108328 0.948017 0.0162784
-0.289013 -0.120916 0.949658 0.0149798
-0.280253 -0.125633 0.951669 0.0159832
-0.257221 -0.116857 0.959261 0.00664847
-0.242353 -0.124748 0.962135 0.0164841
-0.232693 -0.118149 0.965347 0.0171093
-0.212749 -0.113125 0.970536 0.00786237
-0.308161 -0.107958 0.945189 0.0194909
-0.27907 -0.104595 0.954557 0.00100673
-0.268973 -0.104922 0.957416 0
-0.255878 -0.111148 0.960298 0
-0.23703 -0.114239 0.964762 0
-0.233902 -0.116351 0.965273 0.00421401
-0.306339 -0.0974196 0.946925 0.0221087
-0.281863 -0.0993389 0.954298 0.00190578
-0.270276 -0.105991 0.956931 0
-0.257445 -0.100681 0.961034 0
-0.232442 -0.109112 0.966471 0
-0.311092 -0.0821277 0.946825 0.0101333
-0.305872 -0.0902284 0.947788 0.0128853
-0.296652 -0.0969716 0.950049 0.0122137
-0.273802 -0.0879389 0.957757 0
-0.259536 -0.0949283 0.961057 0
-0.33321 -0.0864538 0.938881 0.0321526
-0.316635 -0.0910095 0.944171 0.0240664
-0.288468 -0.0950521 0.95276 0.000117202
-0.271807 -0.090833 0.958055 0
-0.326698 -0.0761602 0.942055 0.0267649
-0.314402 -0.0820049 0.945741 0.0237632
-0.290383 -0.0945491 0.952228 0.00886518
-0.273381 -0.0928193 0.957417 0
-0.347507 -0.0695441 0.935095 0.0272659
-0.31897 -0.0700181 0.945175 0.0121479
-0.307493 -0.0710404 0.948895 0.0126945
-0.290843 -0.0847399 0.953011 0.00486749
-0.341351 -0.0664002 0.937588 0.0158643
-0.32306 -0.07218 0.943622 0.017415
-0.31283 -0.0807928 0.946366 0.0161674
-0.355703 -0.0672069 0.932179 0.0211033
-0.34648 -0.0708109 0.935381 0.0199106
-0.321156 -0.0754719 0.944014 0.0153903
-0.352146 -0.0728448 0.933106 0.0144348
-0.345986 -0.0731887 0.935381 0.0213904
-0.319466 -0.0703612 0.944982 0.0127125
-0.357355 -0.0590327 0.932101 0.0134409
-0.353832 -0.0658837 0.932986 0.0173954
-0.343473 -0.0629582 0.93705 0.0191769
-0.353248 -0.052638 0.934048 0.00762197
-0.354297 -0.053633 0.933594 0.0170402
-0.333452 -0.061322 0.940771 0.00815987
-0.354346 -0.0331668 0.934526 0.00425833
-0.334267 -0.036491 0.941772 0
-0.324228 -0.048592 0.94473 0
-0.346647 0.00034444 0.937996 0
-0.338281 -0.00665085 0.941022 0.001026
-0.355252 0.000985536 0.93477 0.0091592
-0.338202 0.00604761 0.941054 0.00555387
-0.360863 0.0137414 0.932518 0.00529932
-0.3424 0.0212405 0.939314 0
-0.335016 0.0224333 0.941945 0.00444394
-0.35381 0.0242472 0.935003 0
-0.347784 0.0267671 0.937192 0.00432422
-0.330253 0.041548 0.942978 0
-0.35582 0.0227219 0.934278 0.00100025
-0.341564 0.0383168 0.939077 0
-0.328017 0.0499317 0.943351 0
-0.349373 0.0501837 0.935639 0
-0.340037 0.051994 0.938974 0
-0.3289 0.0563132 0.942684 0
-0.342688 0.0793556 0.936092 0
-0.337536 0.06693 0.93893 0
-0.328292 0.0734144 0.941719 0
-0.337009 0.0908197 0.937111 0
-0.319764 0.0959139 0.94263 0
-0.335734 0.109061 0.935622 0
-0.326141 0.103404 0.939649 0.00208902
-0.335641 0.114063 0.935059 0
-0.319473 0.123506 0.939512 0
-0.331255 0.125186 0.9352 0
-0.318976 0.124312 0.939575 0
-0.313032 0.128839 0.940963 0
-0.330498 0.127807 0.935113 0.00342313
-0.321104 0.122122 0.939137 0
-0.31107 0.130892 0.94133 0
-0.335098 0.124935 0.933863 0.00776291
-0.322827 0.130074 0.937477 0.00319895
-0.320321 0.123974 0.939162 0.0175698
-0.342106 0.141808 0.928899 0.0215232
-0.330114 0.151747 0.931664 0.0129117
-0.31267 0.149105 0.938086 0.00784213
-0.316525 0.149453 0.936737 0.0233852
-0.337274 0.16032 0.927655 0.0163272
-0.336545 0.165211 0.927061 0.0208129
-0.322818 0.170325 0.931009 0.0215057
-0.299747 0.170989 0.93857 0.000774663
0.3444 0.212667 0.914419 0.0284784
0.325357 0.194922 0.925283 0
-0.327564 0.185635 0.926413 0.013939
-0.316652 0.184945 0.930337 0.0168161
-0.299888 0.191394 0.934578 0.00357499
-0.290273 0.200804 0.935638 0.0153493
0.3337 0.215485 0.91772 0.0223956
0.34062 0.209189 0.916634 0.0259353
-0.321326 0.193067 0.927079 0.00995839
-0.314842 0.172805 0.933281 0.0142691
-0.299933 0.193404 0.934149 0.00975576
-0.289135 0.200699 0.936013 0.0140665
-0.287834 0.198239 0.936938 0.019097
-0.275698 0.216267 0.9366 0.0213765
0.324543 0.239926 0.914936 0.0432721
0.335881 0.219216 0.916039 0.0309244
0.350513 0.222798 0.909671 0.0408329
-0.316042 0.203656 0.926629 0.0234191
-0.295071 0.212948 0.931443 0.000401863
-0.286718 0.217781 0.932933 0.0127532
-0.290144 0.191287 0.93767 0.0294464
-0.273502 0.219241 0.936552 0.0224028
-0.251746 0.229197 0.940262 0.0105277
-0.230646 0.264964 0.936267 0
-0.198461 0.214261 0.956402 0.00250495
0.285424 0.247979 0.925764 0.0275912
0.324834 0.258349 0.909801 0.0487115
0.34845 0.23584 0.907173 0.0470451
-0.290067 0.2282 0.929401 0.0220401
-0.282554 0.21792 0.93417 0.0243763
-0.27383 0.24266 0.930663 0.0296202
-0.249483 0.235469 0.939315 0.0109426
-0.234197 0.258583 0.93717 0.0132853
-0.211987 0.228012 0.950301 0.00437872
-0.200782 0.220362 0.95453 0.012849
-0.183797 0.238074 0.953698 0
0.257953 0.260083 0.930493 0.0250981
0.281601 0.257781 0.924256 0.0378192
0.313178 0.256175 0.914491 0.041431
-0.265518 0.264289 0.927174 0.0211121
-0.24657 0.260511 0.933454 0.0121718
-0.225675 0.280971 0.932805 0.00388053
-0.216596 0.247754 0.944301 0.0130267
-0.198944 0.240947 0.94993 0.00700474
-0.181593 0.257752 0.948993 0
-0.157472 0.264107 0.951551 0.0110756
-0.139785 0.261916 0.954914 0.0107772
-0.0890266 0.271971 0.958179 0
0.183136 0.310178 0.932872 0
-0.235074 0.270612 0.933547 0.0156922
-0.190872 0.277458 0.941586 0
-0.183051 0.298418 0.936717 0
-0.162721 0.28869 0.943493 0.030619
-0.144359 0.265968 0.953111 0.0198255
-0.130741 0.268793 0.954284 0.0121023
-0.12368 0.288018 0.949605 0.0187016
-0.10999 0.273348 0.955606 0.00120807
-0.103489 0.284058 0.953206 0
-0.0898971 0.320912 0.942833 0
-0.0867163 0.305434 0.948256 0
-0.0818588 0.286319 0.954631 0
-0.0849883 0.238875 0.967324 0.00573946
-0.0856706 0.230463 0.969303 0.0183423
0.161812 0.281966 0.945681 0
0.169091 0.265307 0.949221 0
-0.1707 0.289956 0.941694 0.0322515
-0.145198 0.281825 0.948416 0.0102621
-0.129103 0.295181 0.946679 0
-0.115493 0.314894 0.942074 0
-0.105777 0.312355 0.944058 0
-0.101968 0.30183 0.947893 0
-0.0934527 0.332947 0.938303 0
-0.089322 0.315306 0.944777 0
-0.0808667 0.322761 0.943019 0
-0.0818969 0.290707 0.953301 0
-0.0842901 0.239048 0.967342 0.0118894
-0.0871617 0.210151 0.973776 0.0359634
-0.0705176 0.24116 0.96792 0.0236576
-0.0698367 0.20405 0.976466 0.0395438
-0.0670982 0.205933 0.976263 0.0276258
-0.0631597 0.225782 0.972128 0.0329224
-0.058715 0.239789 0.969048 0.00763301
-0.058137 0.275039 0.959674 0.0170765
-0.058437 0.287608 0.955964 0.0117026
-0.0547823 0.265139 0.962653 0.0139401
-0.052313 0.270406 0.961324 0
-0.0537941 0.297363 0.953248 0.00416832
-0.0475825 0.300026 0.952743 0.0105861
-0.0477988 0.299045 0.953041 0.0063774
-0.0456401 0.292783 0.955089 0.00319379
-0.0418998 0.303677 0.951853 0.00306635
-0.0502792 0.299241 0.952852 0.0271775
-0.0490341 0.298259 0.953224 0.01931
-0.0466968 0.279691 0.958954 0.0116231
-0.0411292 0.315177 0.948141 0.0207467
-0.0409645 0.319079 0.946843 0.022446
-0.0380008 0.31237 0.9492 0.031065
-0.0397288 0.314029 0.948582 0.0262182
-0.0402623 0.268197 0.962523 0.0104661
-0.0378178 0.220234 0.974714 0.0407645
-0.0367356 0.226049 0.973423 0.0374072
-0.035865 0.276674 0.960294 0.0294302
-0.04149 0.297778 0.953733 0.016693
-0.0375328 0.284634 0.957901 0
-0.0357991 0.240334 0.97003 0
-0.0264016 0.296502 0.954667 0
-0.028643 0.275247 0.960947 0
-0.123069 0.327171 0.936917 0
-0.118274 0.314372 0.941903 0.00760418
-0.10688 0.329006 0.93826 0
-0.10263 0.298544 0.948862 0
-0.0942515 0.322574 0.94184 0
-0.086354 0.338251 0.937086 0
-0.0808571 0.334205 0.939026 0
-0.0779563 0.303769 0.949551 0
-0.0853928 0.254762 0.963226 0.0271681
-0.0797394 0.227221 0.970573 0.0282896
-0.0666726 0.233693 0.970022 0.000612683
-0.0649985 0.234191 0.970015 0.0169234
-0.0641351 0.214412 0.974635 0.0254759
-0.0619337 0.228535 0.971564 0.0225321
-0.0611207 0.258464 0.964085 0.029406
-0.0599502 0.292073 0.954515 0.0179432
-0.0551806 0.281019 0.958115 0.00321294
-0.0545764 0.266899 0.962178 0.00658992
-0.0511001 0.284772 0.957232 0
-0.0550799 0.298548 0.952804 0.0326414
-0.0479537 0.30528 0.951054 0.00601732
-0.0433395 0.308966 0.950085 0
-0.0436739 0.295755 0.954265 0
-0.036803 0.337987 0.940431 0
-0.0441518 0.317827 0.94712 0.0121023
-0.0516024 0.278259 0.959119 0.022458
-0.0468124 0.307144 0.950511 0.0279765
-0.0433995 0.320276 0.94633 0.0166163
-0.0459396 0.306609 0.950726 0.0169288
-0.0410679 0.321174 0.946129 0.0189717
-0.038493 0.329735 0.943288 0.0250655
-0.0322399 0.335276 0.941568 0.0285357
-0.0239938 0.352297 0.93558 0.0141541
-0.0343813 0.313483 0.948971 0.0100299
-0.0364761 0.305031 0.951644 0.0226231
-0.0402124 0.320433 0.946417 0.0374445
-0.0399805 0.288218 0.95673 0.0140109
-0.0425624 0.263851 0.963624 0.00899201
-0.0437198 0.264472 0.963402 0.022792
-0.0415721 0.259358 0.964886 0.00516768
-0.0357296 0.294146 0.955092 0.0463021
-0.037201 0.235551 0.97115 0.0425738
-0.0360067 0.25527 0.966199 0.030723
-0.0367346 0.183548 0.982324 0.02311
-0.0371993 0.189391 0.981197 0.0327462
-0.0365308 0.224493 0.973791 0.0384091
-0.0364605 0.243603 0.969189 0.0437598
-0.0360247 0.238149 0.97056 0.0270554
-0.0373554 0.26327 0.963999 0.0308077
-0.0375072 0.309028 0.950313 0.00193293
-0.0286625 0.280481 0.959432 0
-0.0324473 0.258721 0.965407 0
-0.0563231 0.290342 0.955264 0.0121897
-0.0552798 0.282686 0.957618 0.0109425
-0.0185237 -0.168276 0.985566 0
-0.0052379 -0.191281 0.981521 0.000783344
0.00495299 -0.201768 0.979421 0.00507701
0.0179143 -0.228482 0.973383 0.000371717
0.0307676 -0.241412 0.969935 0.00122493
0.09982 -0.249017 0.963341 0.0135117
-0.0282692 -0.172851 0.984542 0
-0.0246205 -0.154548 0.987678 0
-0.0130617 -0.166538 0.985949 0
-0.00397672 -0.188063 0.982149 0
0.00491413 -0.191499 0.98148 0.00645406
0.0198534 -0.198718 0.979856 0
0.0297231 -0.210557 0.97713 0
0.0326634 -0.235248 0.971386 0
0.04625 -0.233182 0.971333 0.000807901
0.0575795 -0.239516 0.969184 0.00395772
0.0700659 -0.240235 0.968183 0.0187657
0.0871566 -0.231092 0.96902 0.00641904
0.0989414 -0.229405 0.968289 0.004358
0.115946 -0.254136 0.960194 0.00687978
-0.0498839 -0.151904 0.987136 0
-0.0412985 -0.16803 0.984917 0
-0.0332838 -0.170284 0.984833 0
-0.0301347 -0.16768 0.985381 0
-0.0288186 -0.156735 0.98722 0
-0.0243801 -0.161528 0.986567 0
-0.0131538 -0.145711 0.98924 0
-0.00688661 -0.161561 0.986839 0
0.00310846 -0.183739 0.98297 0
0.0194279 -0.188646 0.981853 0
0.0297375 -0.193706 0.980609 0
0.0354958 -0.206729 0.977754 0
0.0476542 -0.215059 0.975438 0
0.0580474 -0.20239 0.977583 0
0.0710142 -0.21114 0.974873 0.000473928
0.0880699 -0.213319 0.973005 0
0.09698 -0.208852 0.973127 0.000719964
0.113256 -0.214346 0.970169 0
-0.0548533 -0.192859 0.979692 0.00325337
-0.0511598 -0.155388 0.986528 0
-0.0480662 -0.139674 0.98903 0
-0.0414594 -0.155914 0.9869 0
-0.0363976 -0.160066 0.986435 0
-0.0343677 -0.175101 0.98395 0
-0.0274803 -0.149843 0.988328 0
-0.0288962 -0.152315 0.987909 0
-0.0262152 -0.167177 0.985578 0
-0.0181823 -0.148404 0.98876 0.00295612
-0.00643999 -0.160177 0.987067 0
0.00536904 -0.160289 0.987055 0
0.0171019 -0.211709 0.977183 0.00891752
0.0276562 -0.177944 0.983652 0.00227602
0.0377722 -0.17304 0.98419 0
0.0457663 -0.196709 0.979393 0
0.0555425 -0.18174 0.981777 0
0.0701658 -0.17484 0.982094 0
0.0865047 -0.184444 0.979029 0
0.0975707 -0.21584 0.971542 0
0.113565 -0.20889 0.971323 0
-0.0515058 -0.148843 0.987519 0
-0.0533855 -0.181686 0.981906 0
-0.0521212 -0.163709 0.985131 0
-0.0515543 -0.162214 0.985408 0.001386
-0.0489485 -0.148351 0.987723 0
-0.0418116 -0.16187 0.985926 0
-0.0420865 -0.171901 0.984215 0.00738792
-0.0369366 -0.16617 0.985405 0
-0.0319198 -0.152918 0.987723 0
-0.0299527 -0.172396 0.984572 0.0095063
-0.025812 -0.158305 0.987053 0
-0.016936 -0.151641 0.988291 0
-0.0102759 -0.176482 0.98425 0.00348122
-0.00011078 -0.193187 0.981162 0.0097885
0.0169408 -0.19809 0.980037 0.0125385
0.0247733 -0.18093 0.983184 0.00595665
0.0419056 -0.148822 0.987976 0
0.0491607 -0.160001 0.985892 0
0.0569667 -0.167446 0.984234 0
0.0691885 -0.165972 0.9837 0
0.0841575 -0.17103 0.981665 0
0.0993849 -0.185937 0.977522 0
0.111582 -0.180791 0.977171 0
0.192858 -0.207725 0.958987 0
-0.0568664 -0.145817 0.987676 0
-0.0513719 -0.121965 0.991204 0
-0.050801 -0.134335 0.989633 0
-0.045954 -0.122004 0.991465 0
-0.0469696 -0.13234 0.990091 0
-0.0498518 -0.159506 0.985937 0
-0.048362 -0.147389 0.987896 0
-0.0505689 -0.154638 0.986676 0
-0.0480822 -0.151296 0.987318 0
-0.0427519 -0.152511 0.987377 0
-0.0403847 -0.160166 0.986264 0
-0.0398729 -0.165929 0.985331 0.0077796
-0.0353333 -0.165926 0.985505 0.00721196
-0.0288107 -0.165839 0.985732 0.0045021
-0.0245686 -0.161291 0.986601 0.00138395
-0.0187535 -0.16317 0.98642 0
0.0489623 -0.156233 0.986506 0
0.0563617 -0.154057 0.986453 0
0.082457 -0.163043 0.983167 0
0.190768 -0.205993 0.959778 0
0.19921 -0.197362 0.959877 0
0.206545 -0.202829 0.957183 0
-0.0596505 -0.14644 0.987419 0
-0.0586495 -0.145817 0.987572 0
-0.0590311 -0.153216 0.986428 0
-0.0569675 -0.150576 0.986956 0
-0.0518862 -0.124725 0.990834 0
-0.0486891 -0.117779 0.991845 0
-0.0463585 -0.129171 0.990538 0
-0.047368 -0.126339 0.990856 0
-0.0489356 -0.133723 0.98981 0
-0.0490319 -0.146918 0.987933 0
-0.0482079 -0.136924 0.989408 0
-0.0460687 -0.147747 0.987952 0
-0.0445666 -0.147943 0.987991 0
-0.0342532 -0.139776 0.989591 0
-0.030209 -0.155333 0.9874 0
-0.0213094 -0.146957 0.988913 0
0.190705 -0.194955 0.962094 0
0.197914 -0.189545 0.961719 0
0.204248 -0.18604 0.961078 0
0.214123 -0.193389 0.957472 0
-0.0587573 -0.0976499 0.993485 0
-0.0601755 -0.0925142 0.993891 0
-0.0594984 -0.102525 0.992949 0
-0.0554724 -0.120442 0.991169 0
-0.0603509 -0.142464 0.987958 0
-0.0574801 -0.155167 0.986215 0
-0.0592717 -0.156968 0.985823 0
-0.0595368 -0.146834 0.987368 0.0110688
-0.0540086 -0.135966 0.98924 0
-0.0517138 -0.126984 0.990556 0
-0.0475697 -0.125026 0.991012 0
-0.0483754 -0.125332 0.990935 0
-0.0478262 -0.122372 0.991331 0
-0.0479686 -0.119692 0.991652 0
-0.0482398 -0.128166 0.990579 0
-0.0481916 -0.126728 0.990766 0
0.189987 -0.167258 0.967435 0
0.19347 -0.175491 0.965283 0
0.202066 -0.170811 0.964361 0
0.213582 -0.187245 0.958813 0
-0.0642439 -0.106152 0.992272 0.00120128
-0.064183 -0.104234 0.99248 0.00232363
-0.0628601 -0.0990183 0.993098 0
-0.060113 -0.0868863 0.994403 0
-0.0637914 -0.108138 0.992087 0
-0.0602923 -0.107652 0.992359 0
-0.0556375 -0.135868 0.989163 0
-0.0585657 -0.150121 0.986932 0
-0.0606848 -0.162307 0.984873 0
-0.0600504 -0.15091 0.986722 0
-0.0617921 -0.148781 0.986938 0.0104771
-0.0538307 -0.139313 0.988784 0
-0.0524427 -0.118023 0.991625 0
-0.0478837 -0.106621 0.993146 0
-0.0475958 -0.109162 0.992884 0
-0.0496688 -0.108834 0.992818 0
-0.0483336 -0.114074 0.992296 0
0.185688 -0.163065 0.968984 0
0.189479 -0.145873 0.970989 0
0.198183 -0.145386 0.969323 0
0.214375 -0.170427 0.961768 0.00431683
-0.0664273 -0.152962 0.985997 0.0154154
-0.0632988 -0.108675 0.99206 0.00238292
-0.0632311 -0.101752 0.992798 0.0122729
-0.0656517 -0.11526 0.991163 0.0113564
-0.0648276 -0.0941594 0.993444 0
-0.0631079 -0.0933994 0.993627 0
-0.0597214 -0.107259 0.992436 0
-0.0583593 -0.10366 0.992899 0
-0.0591507 -0.128827 0.989901 0
-0.0578901 -0.141035 0.988311 0
-0.0596492 -0.15464 0.986169 0
-0.0610708 -0.150333 0.986747 0.00621146
-0.0614317 -0.145771 0.987409 0.00528197
-0.0558647 -0.130283 0.989902 0
-0.0545384 -0.112818 0.992118 0
-0.0489507 -0.094537 0.994317 0
-0.0505179 -0.0898491 0.994673 0
-0.048115 -0.0960678 0.994211 0
0.200147 -0.148806 0.9684 0.00154219
0.211944 -0.15096 0.965552 0
-0.0693912 -0.148496 0.986475 0.021145
-0.0643248 -0.123774 0.990223 0.0103992
-0.064987 -0.114216 0.991328 0.013403
-0.0657412 -0.0994703 0.992866 0.0159815
-0.0623666 -0.0840471 0.994508 0.000576296
-0.0610979 -0.0864924 0.994377 0
-0.0584441 -0.0755626 0.995427 0
-0.0555355 -0.0767054 0.995506 0
-0.0552136 -0.118568 0.99141 0
-0.0600319 -0.1416 0.988102 0
-0.05788 -0.129706 0.989862 0
-0.0584199 -0.140713 0.988325 0
-0.0576567 -0.132594 0.989492 0
-0.0585978 -0.130705 0.989688 0.00818608
-0.054735 -0.121539 0.991076 0
-0.04947 -0.0969919 0.994055 0
-0.0508958 -0.0884084 0.994783 0
0.202557 -0.135917 0.969792 0
0.211541 -0.152861 0.965341 0.000957413
0.240014 -0.167725 0.95617 0.0122403
-0.0673684 -0.156987 0.9853 0.0122271
-0.0626116 -0.153841 0.98611 0.00590559
-0.0605193 -0.158424 0.985515 0.00183444
-0.0616943 -0.14343 0.987736 0
-0.0633006 -0.121393 0.990584 0
-0.0648794 -0.106689 0.992173 0.00501465
-0.0635986 -0.0796269 0.994794 0.0075508
-0.0633735 -0.0852707 0.99434 0.00894379
-0.0620922 -0.0808562 0.99479 0.0037799
-0.0593617 -0.0743871 0.995461 0
-0.0597243 -0.0709099 0.995693 0
-0.0568749 -0.0760158 0.995483 0
-0.0572659 -0.122253 0.990845 8.77372e-05
-0.0591555 -0.119137 0.991114 0
-0.0582479 -0.129053 0.989926 0
-0.059614 -0.129283 0.989814 0
-0.0566762 -0.128322 0.990112 0
-0.0575187 -0.119962 0.991111 0.00598495
-0.0550232 -0.110396 0.992363 0.00361463
-0.0558839 -0.110769 0.992274 0.00347681
-0.0517512 -0.0945237 0.994177 0
0.211534 -0.137315 0.967677 0.00367677
0.233754 -0.146015 0.961269 0.00991515
0.25471 -0.151017 0.955153 0.00375249
-0.0678696 -0.109096 0.991711 0
-0.0655398 -0.0996643 0.99286 0
-0.0673669 -0.111743 0.991451 0.0014924
-0.067614 -0.130947 0.989081 0.00549428
-0.0682275 -0.143899 0.987238 0.00131621
-0.0636585 -0.140819 0.987987 0
-0.0608641 -0.135012 0.988973 0
-0.0615452 -0.141114 0.988078 0
-0.0630306 -0.103612 0.992619 0
-0.0655658 -0.0965625 0.993165 0.00870259
-0.0627841 -0.0892464 0.994029 0.00208317
-0.0613246 -0.068197 0.995785 0.00278744
-0.0583492 -0.0573964 0.996645 0
-0.0579645 -0.072613 0.995674 0
-0.0619553 -0.0924486 0.993788 0
-0.0588599 -0.104629 0.992768 0.000435521
-0.0586012 -0.111194 0.992069 0
-0.0582962 -0.125382 0.990394 0
-0.0558338 -0.130479 0.989878 0
-0.0560517 -0.112749 0.992041 0
-0.0541121 -0.091481 0.994335 0
0.237152 -0.147649 0.960187 0.0136008
0.241512 -0.139363 0.960338 0.00166054
0.249919 -0.144683 0.957396 0.00339981
-0.0668623 -0.0798321 0.994563 0
-0.065616 -0.102415 0.992575 0
-0.0665905 -0.125964 0.989797 0.00531058
-0.0651031 -0.130141 0.989356 0.00189909
-0.0625508 -0.118319 0.991004 0
-0.0627023 -0.120427 0.99074 0
-0.0631699 -0.112514 0.99164 0
-0.0638299 -0.078121 0.994898 0
-0.0627718 -0.0719234 0.995433 0
-0.0614851 -0.0586637 0.996383 0
-0.0628643 -0.0550352 0.996503 0.000538446
-0.0573417 -0.0456506 0.99731 0
-0.0578133 -0.0614893 0.996432 0
-0.059076 -0.0848242 0.994643 0
-0.0607642 -0.090851 0.994009 0.00703147
-0.0572512 -0.0999893 0.99334 0
-0.0573292 -0.118393 0.99131 0
-0.0535893 -0.088498 0.994634 0
