# .PCD v0.7 - Point Cloud Data file format
VERSION 0.7
FIELDS x y z
SIZE 4 4 4
TYPE F F F
COUNT 1 1 1
WIDTH 1333
HEIGHT 1
VIEWPOINT 0 0 0 1 0 0 0
POINTS 1333
DATA ascii
-0.062674001 -0.22729999 -0.39888668
-0.062495399 -0.2272888 -0.39888018
-0.062103003 -0.22728932 -0.39883152
-0.061910335 -0.22734968 -0.39881232
-0.061760999 -0.22734749 -0.398817
-0.061583001 -0.22739901 -0.39880601
-0.061356001 -0.22729599 -0.39880902
-0.04748325 -0.227305 -0.39884049
-0.047331836 -0.22730617 -0.39891115
-0.047171 -0.22727799 -0.39896798
-0.064430997 -0.227016 -0.398992
-0.064322665 -0.22704901 -0.39899001
-0.064111166 -0.2271055 -0.39898148
-0.063868336 -0.227125 -0.39894602
-0.063709669 -0.22710265 -0.3989343
-0.063556001 -0.22710851 -0.39890999
-0.063253164 -0.22707982 -0.39891016
-0.063091166 -0.22708964 -0.39890799
-0.062887669 -0.22709684 -0.39889029
-0.062665001 -0.22711499 -0.39886776
-0.062511995 -0.22710982 -0.3988542
-0.062123999 -0.22711533 -0.39881864
-0.047474328 -0.22711883 -0.39882669
-0.047322109 -0.22711945 -0.39890176
-0.047162 -0.227091 -0.39895701
-0.06565199 -0.22687566 -0.39899364
-0.065339997 -0.22685599 -0.39899749
-0.065039001 -0.226981 -0.39899701
-0.064759001 -0.226843 -0.39899999
-0.064470626 -0.22689977 -0.39898202
-0.064299226 -0.2268769 -0.39895433
-0.064101659 -0.22688466 -0.39893386
-0.06385833 -0.22690399 -0.39891067
-0.063699 -0.2269059 -0.39890108
-0.063548669 -0.226924 -0.3988643
-0.063244998 -0.22689551 -0.39888403
-0.063081995 -0.226904 -0.39889348
-0.062961996 -0.22690651 -0.39887398
-0.062696911 -0.22689444 -0.39885855
-0.062505141 -0.22689171 -0.39883873
-0.062175497 -0.226951 -0.39881
-0.047425669 -0.22689468 -0.39883468
-0.047311444 -0.22689554 -0.39888334
-0.047152668 -0.226905 -0.39894366
-0.065642506 -0.22668999 -0.398992
-0.065448329 -0.226687 -0.39899698
-0.065360501 -0.22670776 -0.39899302
-0.0650215 -0.226647 -0.39899302
-0.064752005 -0.226695 -0.39899066
-0.064511418 -0.22671001 -0.39897344
-0.064325668 -0.22670311 -0.39892566
-0.064093754 -0.22670075 -0.39890203
-0.063847996 -0.22668301 -0.39887667
-0.063688748 -0.2266845 -0.39887133
-0.063537329 -0.22670101 -0.39885736
-0.063276336 -0.22670768 -0.39887103
-0.063113779 -0.22671665 -0.39887309
-0.062952667 -0.226721 -0.39886165
-0.062708504 -0.22670083 -0.39883685
-0.062517002 -0.22667891 -0.39881566
-0.047416002 -0.22670799 -0.398826
-0.04729357 -0.22669314 -0.3988823
-0.047141999 -0.22668068 -0.39892468
-0.065633997 -0.226541 -0.39899951
-0.065325998 -0.226595 -0.39899901
-0.065014005 -0.22649699 -0.398992
-0.064742997 -0.226509 -0.39897549
-0.064501174 -0.22648792 -0.39894328
-0.064307749 -0.2265054 -0.39890492
-0.064084671 -0.22651398 -0.39888418
-0.063839003 -0.22649649 -0.39886701
-0.063679881 -0.22649911 -0.39884815
-0.063529499 -0.22651701 -0.398817
-0.063265659 -0.22648601 -0.39885136
-0.063102446 -0.22649322 -0.39886442
-0.062941007 -0.22649767 -0.39886102
-0.062699221 -0.22651546 -0.39882943
-0.062469251 -0.22649425 -0.39880776
-0.047405999 -0.22652034 -0.398821
-0.04729775 -0.22651112 -0.39887035
-0.047132 -0.226493 -0.39892799
-0.065995 -0.2263 -0.39899799
-0.065621331 -0.22628033 -0.398983
-0.065499336 -0.226283 -0.39899233
-0.065320395 -0.22625501 -0.39898318
-0.065004326 -0.22631265 -0.39897999
-0.064734004 -0.22632332 -0.39896631
-0.064492255 -0.22630225 -0.39892572
-0.064296253 -0.22628267 -0.39889756
-0.064088203 -0.2263066 -0.398875
-0.063872248 -0.22628899 -0.39885151
-0.063677639 -0.22632027 -0.3988342
-0.063544333 -0.226276 -0.39882001
-0.063256994 -0.22630051 -0.39883199
-0.063081853 -0.2262933 -0.39883211
-0.062929995 -0.226276 -0.39883634
-0.062695742 -0.22629173 -0.39881927
-0.047308918 -0.22629668 -0.39885485
-0.047122002 -0.22630699 -0.39891768
-0.065914556 -0.22611721 -0.39897999
-0.065612495 -0.226096 -0.39896202
-0.065447338 -0.226101 -0.39897764
-0.065301001 -0.22607677 -0.39895815
-0.064993672 -0.22608934 -0.39895603
-0.064723 -0.22610067 -0.398947
-0.06448283 -0.22611684 -0.39891648
-0.064287499 -0.22609749 -0.398875
-0.064135 -0.22610301 -0.39886802
-0.063889407 -0.22609739 -0.39883381
-0.063685715 -0.22610115 -0.39881387
-0.063571006 -0.22611675 -0.39881724
-0.063247673 -0.22611433 -0.39881968
-0.063084431 -0.22610258 -0.39881071
-0.062921003 -0.22608951 -0.39882499
-0.062662795 -0.2260994 -0.39881238
-0.047298379 -0.22610763 -0.39886737
-0.047110002 -0.22608167 -0.39892265
-0.066671997 -0.225887 -0.398994
-0.066441998 -0.22593801 -0.39899999
-0.066258006 -0.22584967 -0.39899766
-0.066105336 -0.22588867 -0.39898166
-0.065903999 -0.22589424 -0.39895758
-0.065605499 -0.22594649 -0.39894402
-0.065480858 -0.225904 -0.39893898
-0.065326892 -0.2259019 -0.39893785
-0.064985499 -0.225905 -0.3989315
-0.064711668 -0.225878 -0.39893365
-0.064486295 -0.22590072 -0.39890519
-0.064311005 -0.22590798 -0.39888796
-0.064154401 -0.2259016 -0.3988646
-0.063914403 -0.225916 -0.39883637
-0.063673504 -0.22590399 -0.39881381
-0.063581005 -0.22590899 -0.398821
-0.063234992 -0.22589032 -0.39883366
-0.063113667 -0.22589783 -0.39882448
-0.062952004 -0.22590333 -0.398819
-0.06269975 -0.22591752 -0.39881301
-0.047447 -0.22588199 -0.39880401
-0.047288582 -0.22592102 -0.39886847
-0.047099501 -0.22589299 -0.39894301
-0.046957999 -0.22592799 -0.39899901
-0.066427 -0.225641 -0.398992
-0.066306002 -0.22570679 -0.3989962
-0.066097006 -0.225704 -0.39895999
-0.065894507 -0.22570832 -0.39895535
-0.06549833 -0.22569142 -0.39891291
-0.065309085 -0.22570533 -0.39891085
-0.064975999 -0.22571902 -0.39891967
-0.064703003 -0.225693 -0.39891201
-0.064485662 -0.22570632 -0.39890364
-0.064316332 -0.22568358 -0.39888239
-0.064150669 -0.22569202 -0.39886734
-0.063929997 -0.22572249 -0.39884251
-0.063688092 -0.22571082 -0.39881706
-0.063571334 -0.22572298 -0.39881897
-0.0632255 -0.225704 -0.3988235
-0.063094802 -0.22569001 -0.39881819
-0.062940501 -0.22568049 -0.39881217
-0.062738001 -0.225765 -0.398803
-0.047437001 -0.22569501 -0.398808
-0.047291704 -0.22570109 -0.39888319
-0.047132 -0.225687 -0.39893839
-0.066493995 -0.22551233 -0.398996
-0.066266254 -0.22548099 -0.39899522
-0.066087 -0.22551733 -0.398965
-0.065884553 -0.22552246 -0.3989538
-0.065487832 -0.22550465 -0.3989265
-0.065296918 -0.22548115 -0.3989208
-0.064964332 -0.22549634 -0.39891699
-0.064693332 -0.22550666 -0.39890799
-0.064476334 -0.2255201 -0.39889708
-0.064307377 -0.22549811 -0.39886439
-0.064141504 -0.2255065 -0.39885026
-0.063960671 -0.225477 -0.39883733
-0.063704506 -0.22550161 -0.3988117
-0.063568503 -0.225481 -0.39880377
-0.063221 -0.225594 -0.39880201
-0.063097 -0.2255635 -0.39880252
-0.062943667 -0.22548133 -0.39880869
-0.047470748 -0.22550251 -0.398819
-0.047290832 -0.22550398 -0.3989017
-0.047132999 -0.22551224 -0.398947
-0.066433005 -0.225291 -0.39899835
-0.066278711 -0.22531798 -0.39899009
-0.066123798 -0.2252728 -0.3989726
-0.06588275 -0.22530776 -0.39894524
-0.065797001 -0.225228 -0.39892599
-0.065477997 -0.22531812 -0.39892477
-0.065287873 -0.22529526 -0.39890951
-0.064954504 -0.225309 -0.39891899
-0.064682662 -0.22528499 -0.39888334
-0.06446556 -0.22529759 -0.39887834
-0.064297915 -0.22531267 -0.39885774
-0.064132333 -0.22532082 -0.39884281
-0.063951001 -0.22529 -0.398837
-0.063706167 -0.22530667 -0.39880952
-0.063563995 -0.2252892 -0.39881298
-0.063074201 -0.2252882 -0.39880544
-0.062965997 -0.225382 -0.398803
-0.047459662 -0.22531401 -0.39883816
-0.047279444 -0.22531435 -0.39892742
-0.047133796 -0.22533801 -0.39896101
-0.066451669 -0.22516567 -0.39899334
-0.066353247 -0.22513975 -0.39899373
-0.066107005 -0.225115 -0.398976
-0.065899745 -0.2251105 -0.39894974
-0.065788664 -0.22507767 -0.39894137
-0.065486141 -0.22510341 -0.39893183
-0.065310992 -0.22510667 -0.39891875
-0.065194502 -0.225072 -0.39891899
-0.064945668 -0.22512366 -0.39889535
-0.064671993 -0.225097 -0.39890552
-0.064466797 -0.22511819 -0.39887804
-0.064302072 -0.22508171 -0.39886218
-0.064119838 -0.225097 -0.39885116
-0.063941002 -0.22510368 -0.39884165
-0.063696563 -0.22510956 -0.39881355
-0.063561797 -0.22510919 -0.39881521
-0.063099839 -0.22510183 -0.39880633
-0.062948003 -0.22504599 -0.398808
-0.047501501 -0.22509563 -0.3988485
-0.047286555 -0.22508642 -0.39895353
-0.047162998 -0.22509366 -0.39897534
-0.066458002 -0.224815 -0.39899999
-0.066054665 -0.22491933 -0.39897966
-0.06588883 -0.22492284 -0.39896703
-0.065777004 -0.224889 -0.39897352
-0.065489247 -0.22490375 -0.39895251
-0.065309279 -0.22488789 -0.39893553
-0.065183662 -0.22488402 -0.39894131
-0.064933993 -0.22490001 -0.39889833
-0.064662002 -0.22490966 -0.39891365
-0.064472333 -0.22492301 -0.39887902
-0.064308889 -0.22490147 -0.39888543
-0.064127594 -0.22490041 -0.39886501
-0.063928999 -0.22487999 -0.39884734
-0.06368389 -0.22489588 -0.39881977
-0.063547 -0.22490035 -0.3988153
-0.063130341 -0.22491251 -0.39881083
-0.062911995 -0.22488399 -0.39881232
-0.047649499 -0.224893 -0.39883298
-0.047522999 -0.22489549 -0.39886475
-0.0473314 -0.22490561 -0.39895779
-0.066377997 -0.224709 -0.398983
-0.066042334 -0.22469532 -0.39898765
-0.065876506 -0.22469884 -0.398983
-0.065766998 -0.22470234 -0.39897701
-0.065479167 -0.22471716 -0.39895821
-0.06531322 -0.22470491 -0.39895314
-0.065173 -0.224696 -0.398958
-0.064922005 -0.224711 -0.39893901
-0.064650662 -0.22468632 -0.39889964
-0.064459331 -0.22469766 -0.39890301
-0.064311333 -0.22470884 -0.39890155
-0.064129561 -0.22472011 -0.39888388
-0.063918501 -0.224692 -0.39885899
-0.063673675 -0.22470933 -0.39882699
-0.063494876 -0.2246905 -0.39882115
-0.063114859 -0.22469057 -0.39880756
-0.062910751 -0.22472925 -0.39880973
-0.062590003 -0.22468901 -0.39880499
-0.062312499 -0.22470799 -0.3988055
-0.047684167 -0.22470151 -0.39884734
-0.047510501 -0.22470333 -0.39891732
-0.047348402 -0.22472282 -0.39897439
-0.066371001 -0.22459599 -0.39899901
-0.066033006 -0.224509 -0.3989695
-0.0658665 -0.22451149 -0.39898801
-0.065755002 -0.22447765 -0.39898434
-0.065466501 -0.22449215 -0.39897299
-0.065293834 -0.22450508 -0.39897108
-0.065162994 -0.22450967 -0.39896432
-0.06491033 -0.22452168 -0.39896932
-0.064639494 -0.224498 -0.39893198
-0.064448252 -0.22451001 -0.39892697
-0.064293087 -0.22449118 -0.39891708
-0.064116552 -0.22449435 -0.39890793
-0.063907661 -0.22450368 -0.39888033
-0.063697331 -0.22452165 -0.39885151
-0.063527301 -0.2245121 -0.39883322
-0.063094668 -0.22450185 -0.39882085
-0.062906876 -0.22447576 -0.39882439
-0.062670328 -0.22449601 -0.39881435
-0.062579669 -0.22450133 -0.39881301
-0.062302668 -0.22452132 -0.39880732
-0.047908001 -0.224509 -0.39880499
-0.047672249 -0.22451074 -0.39888924
-0.047498748 -0.22451301 -0.398949
-0.047368001 -0.224556 -0.39899999
-0.066027001 -0.22439601 -0.39898601
-0.065850005 -0.2243396 -0.39899239
-0.065518998 -0.22434001 -0.39898601
-0.065293774 -0.22429016 -0.39898425
-0.065150328 -0.22428365 -0.39897898
-0.064898998 -0.22429766 -0.39896765
-0.06462767 -0.22430933 -0.39895901
-0.064437501 -0.22432135 -0.39894533
-0.064296104 -0.22430757 -0.39893782
-0.064105332 -0.22430564 -0.39893115
-0.063894667 -0.22427833 -0.39890298
-0.063684337 -0.22429568 -0.398875
-0.063504584 -0.22430275 -0.39886084
-0.063118599 -0.22430801 -0.3988454
-0.062906839 -0.2242965 -0.3988438
-0.062659502 -0.224308 -0.39884001
-0.062491704 -0.22428361 -0.39884052
-0.06228767 -0.22429268 -0.39887166
-0.062034998 -0.22430266 -0.39882335
-0.061855499 -0.224273 -0.39881799
-0.061691999 -0.22427166 -0.39880702
-0.061597999 -0.224252 -0.39882401
-0.061119497 -0.2242045 -0.39881
-0.060892999 -0.224217 -0.39880499
-0.060736999 -0.224224 -0.398808
-0.048135329 -0.22423601 -0.39881134
-0.047894999 -0.224317 -0.39886034
-0.047660332 -0.22432035 -0.39892533
-0.047504336 -0.22437334 -0.39898002
-0.065387502 -0.2241575 -0.39899001
-0.064888 -0.22411001 -0.39898902
-0.064613998 -0.22408266 -0.39899364
-0.064457506 -0.22413 -0.3989825
-0.064297087 -0.22413211 -0.3989729
-0.064104602 -0.22410929 -0.3989608
-0.063883007 -0.22409 -0.39893001
-0.06367375 -0.22410825 -0.39889449
-0.063506849 -0.22411729 -0.39889055
-0.063396499 -0.224051 -0.39888251
-0.063097499 -0.22409749 -0.39888415
-0.062895112 -0.22410753 -0.39887837
-0.062648334 -0.22411901 -0.39886269
-0.06249937 -0.22411026 -0.39888737
-0.062316 -0.224087 -0.39892432
-0.0620225 -0.224112 -0.39887452
-0.061844002 -0.22408433 -0.39885131
-0.061727166 -0.22409099 -0.39884031
-0.061513428 -0.22408614 -0.39882559
-0.061112247 -0.2240905 -0.39882499
-0.060889501 -0.22410266 -0.39881685
-0.060685001 -0.22411326 -0.3988395
-0.060029499 -0.22406501 -0.39881301
-0.059830002 -0.2240355 -0.39880949
-0.059760001 -0.224042 -0.398812
-0.048535001 -0.224061 -0.398828
-0.048285 -0.2241075 -0.39882499
-0.048118126 -0.22409038 -0.39887437
-0.047878999 -0.22408533 -0.39894101
-0.047664333 -0.22414166 -0.3989687
-0.064079255 -0.22394776 -0.39898977
-0.063872002 -0.22390001 -0.39896736
-0.063661493 -0.22391783 -0.39893833
-0.063512444 -0.22392066 -0.39893335
-0.063387007 -0.22389901 -0.39890802
-0.063086003 -0.2239085 -0.39891899
-0.062891744 -0.22389036 -0.39891851
-0.062674493 -0.22386976 -0.398918
-0.062491555 -0.22389977 -0.39895546
-0.062326331 -0.22390984 -0.39895263
-0.062011331 -0.22392166 -0.398913
-0.061832 -0.223894 -0.398893
-0.06171475 -0.22390026 -0.39889124
-0.061526597 -0.2238934 -0.39887077
-0.061395001 -0.22388566 -0.39887699
-0.061100334 -0.22390068 -0.39886549
-0.060877554 -0.22391322 -0.39885569
-0.060672164 -0.22392233 -0.39889351
-0.060019501 -0.22391349 -0.39885902
-0.059831254 -0.22390224 -0.39883903
-0.059729997 -0.22387463 -0.39883965
-0.059597 -0.223827 -0.39882499
-0.058819 -0.223855 -0.398803
-0.058768999 -0.22386099 -0.39880699
-0.048628252 -0.22388776 -0.39882898
-0.048525002 -0.223906 -0.39887604
-0.048271 -0.22391401 -0.39890632
-0.048119284 -0.22390285 -0.39894328
-0.063651502 -0.223766 -0.39897901
-0.063500166 -0.22373001 -0.39898565
-0.063373998 -0.22370768 -0.39897034
-0.063073836 -0.22371884 -0.39895999
-0.062909253 -0.22368975 -0.39896524
-0.062704995 -0.2236965 -0.39895999
-0.062457502 -0.2237515 -0.39898998
-0.0623165 -0.22375751 -0.3989915
-0.062001999 -0.22377101 -0.39894101
-0.061889797 -0.22368519 -0.39894658
-0.06170233 -0.22370951 -0.39893886
-0.061530598 -0.22370858 -0.39892858
-0.061382499 -0.223695 -0.39892301
-0.061072599 -0.22368941 -0.39890799
-0.060897499 -0.22368334 -0.39891371
-0.060703006 -0.22370026 -0.39894477
-0.060007002 -0.223722 -0.39890933
-0.059827499 -0.223691 -0.39889503
-0.0597375 -0.22370265 -0.39887968
-0.059589501 -0.223711 -0.39885902
-0.059101168 -0.22369218 -0.39884067
-0.058868997 -0.22370145 -0.39883631
-0.058689632 -0.22372235 -0.39883602
-0.058496252 -0.22369924 -0.39886448
-0.058042999 -0.223672 -0.39881
-0.057857666 -0.223629 -0.39881301
-0.057794999 -0.22361 -0.398819
-0.056460999 -0.223671 -0.39880201
-0.056207001 -0.22360501 -0.39881101
-0.056097001 -0.22360849 -0.39880601
-0.048729751 -0.22367749 -0.39883199
-0.048544601 -0.22369221 -0.3989076
-0.048255 -0.22368233 -0.39897999
-0.048103001 -0.22377165 -0.39897898
-0.062941998 -0.223575 -0.39899901
-0.062779501 -0.22354001 -0.39898449
-0.061867665 -0.22352301 -0.39898667
-0.061689999 -0.22351876 -0.39898551
-0.0614895 -0.22351724 -0.39897028
-0.0613725 -0.2235425 -0.398967
-0.061113253 -0.22351851 -0.39895874
-0.060906999 -0.2234834 -0.3989746
-0.06078 -0.2234945 -0.39898401
-0.059903502 -0.22349651 -0.39895687
-0.059724554 -0.22351111 -0.39893734
-0.059576999 -0.22352 -0.39891568
-0.059117664 -0.22351201 -0.39890066
-0.058908395 -0.2235008 -0.39889619
-0.058711458 -0.22348957 -0.39890745
-0.058517333 -0.22348851 -0.398929
-0.058032334 -0.22351801 -0.39886466
-0.057895575 -0.22350256 -0.39884973
-0.057713374 -0.22350037 -0.39883223
-0.057484999 -0.22350949 -0.39882702
-0.057265002 -0.22349279 -0.3988328
-0.057109199 -0.2234716 -0.39882717
-0.056944001 -0.22345926 -0.39882901
-0.056720663 -0.22345699 -0.39884129
-0.056450997 -0.223517 -0.39884734
-0.056201998 -0.223529 -0.39883101
-0.05609316 -0.22349501 -0.3988317
-0.055934597 -0.22346859 -0.39881939
-0.055723999 -0.22341099 -0.39882201
-0.055508003 -0.223416 -0.39880449
-0.055374 -0.223423 -0.39881599
-0.054499999 -0.22346701 -0.398803
-0.049073335 -0.22343934 -0.39882267
-0.048883252 -0.22349951 -0.39884374
-0.048707403 -0.22350581 -0.39891258
-0.04856075 -0.22352125 -0.39896452
-0.059804998 -0.22334801 -0.398981
-0.0597005 -0.22334176 -0.39897826
-0.059562337 -0.22329001 -0.39897132
-0.059160996 -0.22330333 -0.39897001
-0.058911338 -0.22331542 -0.39895913
-0.058703285 -0.22331786 -0.39895815
-0.0585065 -0.22333351 -0.398981
-0.058016669 -0.22328766 -0.39893436
-0.057872441 -0.22329368 -0.3989248
-0.057700414 -0.22330834 -0.39889407
-0.057472002 -0.22331834 -0.39889002
-0.057270996 -0.223308 -0.39888901
-0.057089251 -0.22329675 -0.39887851
-0.056933001 -0.223305 -0.39888752
-0.056740403 -0.22329339 -0.39889902
-0.056434665 -0.22328466 -0.39894
-0.056113005 -0.22330189 -0.39889356
-0.055925366 -0.22330865 -0.39886692
-0.055716 -0.223295 -0.39886099
-0.05550025 -0.22330174 -0.3988395
-0.055322502 -0.22331025 -0.39884299
-0.055103 -0.22328432 -0.39885402
-0.054886166 -0.2232995 -0.39885017
-0.054758165 -0.22330667 -0.39886215
-0.054511171 -0.22331226 -0.39886478
-0.054298751 -0.22328775 -0.39884248
-0.054168001 -0.22329475 -0.39882275
-0.053991001 -0.223272 -0.398808
-0.053757001 -0.22320649 -0.398817
-0.053514998 -0.22321901 -0.398801
-0.052689999 -0.22326501 -0.398803
-0.052492999 -0.223203 -0.39880201
-0.049323 -0.223276 -0.398826
-0.049077399 -0.22329691 -0.39889416
-0.048896331 -0.223285 -0.39892879
-0.048721332 -0.22333901 -0.39897767
-0.058006 -0.223133 -0.398987
-0.05786233 -0.22314034 -0.39897534
-0.057688501 -0.22312735 -0.39896703
-0.057505 -0.22310932 -0.39898232
-0.057264999 -0.22314167 -0.39896536
-0.057089504 -0.223114 -0.39896283
-0.056921504 -0.22314975 -0.39895499
-0.056717999 -0.22316 -0.39897048
-0.056099501 -0.22310801 -0.39896819
-0.055894502 -0.2231005 -0.39894992
-0.055702001 -0.22310133 -0.39894032
-0.055485997 -0.22310765 -0.39892602
-0.055307668 -0.22311568 -0.39893332
-0.055087999 -0.22308901 -0.39895099
-0.054871999 -0.22310475 -0.39893699
-0.054743249 -0.22311126 -0.39895949
-0.054511715 -0.22312286 -0.39893642
-0.054312874 -0.22308312 -0.39892572
-0.054153997 -0.2231005 -0.39890182
-0.053922165 -0.22311915 -0.39886466
-0.053719599 -0.2230978 -0.39886138
-0.053537 -0.22308767 -0.39885303
-0.053249668 -0.22308134 -0.39884934
-0.053049199 -0.22307582 -0.39884838
-0.052893624 -0.22309224 -0.39884764
-0.05267933 -0.22311199 -0.398857
-0.0524855 -0.223086 -0.39884299
-0.052237 -0.223058 -0.398828
-0.052062001 -0.22307201 -0.39880201
-0.051940665 -0.223006 -0.39881364
-0.050289746 -0.22311351 -0.39882448
-0.050111402 -0.22307019 -0.3988522
-0.049934004 -0.2230565 -0.39884901
-0.049310338 -0.22311735 -0.39890799
-0.049108248 -0.22311361 -0.3989614
-0.048975334 -0.22310333 -0.39898065
-0.055920999 -0.223 -0.39899799
-0.055520002 -0.22295099 -0.39899999
-0.05508 -0.222973 -0.398987
-0.054862998 -0.2229885 -0.39899451
-0.054548502 -0.22299901 -0.39899099
-0.054235 -0.222938 -0.39899001
-0.054142497 -0.2229445 -0.39897051
-0.053908002 -0.22292399 -0.3989515
-0.053733829 -0.22289534 -0.39895347
-0.053539168 -0.22290283 -0.39893797
-0.053234 -0.22288451 -0.39896101
-0.05303967 -0.22290732 -0.39894867
-0.052902002 -0.22289912 -0.39895144
-0.052665003 -0.2229155 -0.398949
-0.052224997 -0.22290234 -0.39890337
-0.052049998 -0.22291501 -0.39888
-0.051931668 -0.22288799 -0.39886734
-0.050274998 -0.22291799 -0.39891949
-0.050081503 -0.22288999 -0.3989605
-0.049920749 -0.22289799 -0.398947
-0.049298 -0.22296 -0.39899901
-0.052935999 -0.222785 -0.39899001
-0.052212 -0.222744 -0.39899999
-0.052037001 -0.222757 -0.398974
-0.051919002 -0.22272968 -0.39896366
-0.050310001 -0.222762 -0.39899799
-0.052441001 -0.231457 -0.398785
-0.052391998 -0.23149499 -0.3987835
-0.052175 -0.231462 -0.398792
-0.050432503 -0.231405 -0.39879298
-0.050347999 -0.231406 -0.39879599
-0.052668002 -0.23121201 -0.39879099
-0.05244875 -0.231287 -0.39877275
-0.052352834 -0.23130882 -0.39876732
-0.052168 -0.23131301 -0.39876699
-0.050698198 -0.23126599 -0.3987866
-0.050438333 -0.23130667 -0.39876735
-0.050361663 -0.23128134 -0.39876267
-0.050195001 -0.23126601 -0.39878201
-0.053323999 -0.231029 -0.39879701
-0.053102501 -0.23107949 -0.3987835
-0.052907001 -0.231052 -0.39879701
-0.052663498 -0.2311005 -0.39876097
-0.052455995 -0.23108067 -0.3987262
-0.052343998 -0.23108751 -0.39870402
-0.052159 -0.23109101 -0.39870563
-0.050697144 -0.23109801 -0.39875469
-0.0505086 -0.23108701 -0.39874202
-0.050362837 -0.23110799 -0.39874399
-0.050188333 -0.23111832 -0.39875865
-0.053423502 -0.23084149 -0.39878699
-0.053314224 -0.23088135 -0.39878488
-0.053094331 -0.23089401 -0.39875898
-0.052900333 -0.230905 -0.39877269
-0.052655 -0.23091532 -0.39872733
-0.052447751 -0.23089549 -0.39869574
-0.05233575 -0.23090149 -0.39867252
-0.052151501 -0.23090599 -0.39866799
-0.050704751 -0.23090124 -0.39871824
-0.050499398 -0.23089358 -0.3987146
-0.050353169 -0.23088598 -0.39869848
-0.050177336 -0.23089401 -0.39874163
-0.054148503 -0.23060849 -0.3987855
-0.0539525 -0.230616 -0.39878899
-0.053652503 -0.230674 -0.39879
-0.053454001 -0.230707 -0.3987864
-0.053305332 -0.23069532 -0.39876315
-0.053085998 -0.230708 -0.39872301
-0.05289067 -0.230682 -0.39873168
-0.052646 -0.23069267 -0.398682
-0.052439671 -0.23070949 -0.39865902
-0.052327167 -0.2307155 -0.39864433
-0.052142665 -0.23071967 -0.39863667
-0.050696835 -0.23071568 -0.39868334
-0.050522398 -0.23071241 -0.39867601
-0.050345499 -0.2307 -0.39865601
-0.050170001 -0.23071 -0.398693
-0.049715668 -0.23068868 -0.39877367
-0.049364999 -0.23065634 -0.39879599
-0.054522999 -0.230434 -0.39879799
-0.054327 -0.23050959 -0.39878121
-0.054143749 -0.23049751 -0.398756
-0.05394775 -0.23050424 -0.39876801
-0.053644001 -0.23048835 -0.39876103
-0.053438336 -0.23050034 -0.39875665
-0.053296998 -0.23050976 -0.39873388
-0.053076338 -0.23052199 -0.39871064
-0.052882001 -0.230496 -0.39871001
-0.052637503 -0.23050749 -0.398651
-0.052445754 -0.2305035 -0.39863175
-0.052322 -0.23050861 -0.39861161
-0.052136 -0.230572 -0.398617
-0.050686669 -0.23049283 -0.39865133
-0.050497502 -0.23050635 -0.39864752
-0.050336663 -0.23051417 -0.39863348
-0.050161999 -0.23052366 -0.39865637
-0.0497065 -0.23050249 -0.39875701
-0.049498145 -0.23047569 -0.39878601
-0.049365163 -0.23048265 -0.3987793
-0.054667749 -0.23024249 -0.39878848
-0.054538328 -0.23028551 -0.39877701
-0.054306831 -0.230303 -0.39873818
-0.054136168 -0.23031266 -0.39871785
-0.053940337 -0.2303195 -0.3987205
-0.053636499 -0.230304 -0.398716
-0.053441335 -0.230326 -0.39872333
-0.053307459 -0.23028064 -0.39869043
-0.053066999 -0.23030066 -0.398669
-0.052873999 -0.23031168 -0.39867234
-0.052629668 -0.23032267 -0.39861536
-0.052451998 -0.23029751 -0.39861149
-0.050678249 -0.23030749 -0.3986235
-0.050502799 -0.23029621 -0.398624
-0.050327498 -0.23032875 -0.39861676
-0.050152 -0.23030166 -0.3986223
-0.049698666 -0.23031665 -0.39871931
-0.049497146 -0.23030543 -0.39876643
-0.049309835 -0.23029818 -0.39875782
-0.049128 -0.230268 -0.39877999
-0.056207001 -0.23005199 -0.39878801
-0.055142 -0.23003599 -0.39879799
-0.054901663 -0.230042 -0.39878666
-0.054698672 -0.230092 -0.39877948
-0.054529503 -0.2300995 -0.39875773
-0.054296505 -0.23008066 -0.3987045
-0.054125499 -0.23008983 -0.39869651
-0.053930331 -0.230097 -0.39868236
-0.05362767 -0.23011833 -0.39869133
-0.053452671 -0.23012365 -0.39869931
-0.053307123 -0.23010126 -0.39865801
-0.053056329 -0.23007733 -0.39863697
-0.052864667 -0.23008899 -0.39862266
-0.050625999 -0.230194 -0.398617
-0.050144002 -0.23015299 -0.39861101
-0.049688 -0.23009533 -0.39869034
-0.049482003 -0.23010445 -0.39871231
-0.049301885 -0.23011214 -0.39872178
-0.049081802 -0.23010619 -0.39875278
-0.048932999 -0.230049 -0.39879999
-0.056201998 -0.229976 -0.39879999
-0.056109 -0.22985832 -0.39878932
-0.055849001 -0.2298795 -0.39879227
-0.055452 -0.229864 -0.39879701
-0.055280499 -0.2298395 -0.39877701
-0.055136442 -0.22988778 -0.39876178
-0.054895777 -0.22989358 -0.39875323
-0.054690778 -0.22990677 -0.39873701
-0.054521333 -0.22991419 -0.39872599
-0.054288499 -0.22989601 -0.39866823
-0.054116249 -0.22990325 -0.39868376
-0.053911798 -0.22989099 -0.39864677
-0.053618003 -0.22989465 -0.39865065
-0.053443 -0.22990067 -0.39865199
-0.053298909 -0.22991674 -0.39862466
-0.05305 -0.22993 -0.398608
-0.052857999 -0.22994199 -0.39860499
-0.0496815 -0.22990951 -0.39863253
-0.049470779 -0.22988099 -0.39870322
-0.049338665 -0.22988868 -0.39867949
-0.049107447 -0.22989567 -0.39872444
-0.04890525 -0.22988375 -0.39877075
-0.056233998 -0.22967733 -0.39878166
-0.056122672 -0.22968368 -0.39877117
-0.055886 -0.22969432 -0.39876637
-0.055716999 -0.22969025 -0.39877573
-0.055445999 -0.22971667 -0.39877
-0.055274501 -0.22969249 -0.39874899
-0.055127665 -0.22970234 -0.39874315
-0.054887667 -0.22970898 -0.39871585
-0.054681107 -0.22968501 -0.39869902
-0.054511994 -0.229693 -0.3986772
-0.054280002 -0.22970998 -0.39864251
-0.054108832 -0.22971933 -0.39863268
-0.053898666 -0.229729 -0.39861032
-0.053612001 -0.229748 -0.39861101
-0.053433329 -0.22967935 -0.39861599
-0.053320996 -0.22976649 -0.39861301
-0.049672663 -0.22972368 -0.39860931
-0.049462836 -0.2296965 -0.39866352
-0.049331252 -0.22970426 -0.3986305
-0.049084861 -0.22969458 -0.39869446
-0.048875332 -0.22967948 -0.39875066
-0.056462333 -0.22946031 -0.39878765
-0.056296222 -0.22949345 -0.39877763
-0.056114249 -0.22949851 -0.3987425
-0.055877499 -0.2295095 -0.39873052
-0.055686001 -0.22948802 -0.398736
-0.055436 -0.22949368 -0.39873233
-0.055265334 -0.22950633 -0.39872536
-0.055119332 -0.22951698 -0.39871144
-0.054879554 -0.22952345 -0.39868397
-0.054711252 -0.229498 -0.39866751
-0.054534663 -0.22950484 -0.39865267
-0.054252669 -0.22953899 -0.39861599
-0.054102499 -0.229572 -0.39860249
-0.049665 -0.22957499 -0.39861199
-0.049455114 -0.22951065 -0.39862236
-0.049317401 -0.22953239 -0.39862141
-0.049137335 -0.22952251 -0.39865732
-0.048909832 -0.22949332 -0.39870635
-0.056756999 -0.22927301 -0.39878899
-0.056468502 -0.22928816 -0.39875364
-0.056290586 -0.22929651 -0.39873421
-0.056106165 -0.22931366 -0.39870569
-0.055869669 -0.22932434 -0.3987
-0.055719506 -0.229316 -0.39869687
-0.055484999 -0.22929366 -0.39869437
-0.05525567 -0.22928433 -0.39868602
-0.05510978 -0.22929522 -0.39867321
-0.05486922 -0.22930169 -0.39865342
-0.054702669 -0.22931349 -0.39864114
-0.054526001 -0.22932066 -0.39862698
-0.0494725 -0.229361 -0.39860851
-0.0493435 -0.229369 -0.398608
-0.049126502 -0.22929901 -0.39863718
-0.048901889 -0.22930779 -0.39866513
-0.048522003 -0.22930124 -0.39878127
-0.048345 -0.229259 -0.398799
-0.057948004 -0.22909467 -0.39878535
-0.057613 -0.229004 -0.398794
-0.057477999 -0.229011 -0.39879799
-0.057322502 -0.229059 -0.39878201
-0.057135798 -0.229094 -0.3987838
-0.0569815 -0.229076 -0.39877898
-0.056750666 -0.22912399 -0.39875302
-0.0564605 -0.229103 -0.3987135
-0.056273561 -0.22910012 -0.39870179
-0.05609633 -0.229092 -0.398664
-0.055860337 -0.22910367 -0.39864835
-0.055724997 -0.22910583 -0.39866018
-0.055506166 -0.229119 -0.3986617
-0.055247001 -0.22909901 -0.3986645
-0.055092428 -0.22909413 -0.39864558
-0.054856248 -0.22908799 -0.39862496
-0.054700602 -0.2291048 -0.39861917
-0.054528005 -0.229141 -0.3986094
-0.049104001 -0.22912665 -0.39861301
-0.048867572 -0.22908556 -0.3986353
-0.048499171 -0.22909766 -0.39875969
-0.048367832 -0.229109 -0.39875782
-0.058231 -0.228827 -0.39879599
-0.058055401 -0.22888541 -0.39877421
-0.057951164 -0.22891982 -0.39875218
-0.057706397 -0.2289134 -0.39878097
-0.057473499 -0.22890025 -0.39877623
-0.057308 -0.22888939 -0.39875957
-0.057136998 -0.22888701 -0.39873484
-0.056973334 -0.22889133 -0.39874199
-0.056740999 -0.22890334 -0.398718
-0.05645217 -0.22891784 -0.39868882
-0.056298554 -0.22892278 -0.39867812
-0.056109715 -0.22888944 -0.39863774
-0.055850998 -0.22888167 -0.39860567
-0.055714667 -0.22888334 -0.39862534
-0.055496171 -0.22889751 -0.3986232
-0.055239335 -0.22891502 -0.39862168
-0.055108283 -0.22892356 -0.39862356
-0.054880999 -0.22893 -0.39860699
-0.048841998 -0.22893849 -0.398624
-0.048797999 -0.228864 -0.39863601
-0.048479199 -0.22889121 -0.39873236
-0.048356999 -0.22888517 -0.39873865
-0.048135001 -0.228816 -0.39879301
-0.058266331 -0.22867717 -0.39876935
-0.05808809 -0.22868867 -0.39875111
-0.057941001 -0.22869815 -0.39872363
-0.057723753 -0.22872475 -0.39872825
-0.057498753 -0.2287045 -0.3987304
-0.057313003 -0.2287102 -0.39873099
-0.05712875 -0.2287015 -0.39870599
-0.056965001 -0.228706 -0.39871049
-0.056731332 -0.22868101 -0.39867401
-0.056451201 -0.2287102 -0.39864761
-0.056300003 -0.22869289 -0.39863291
-0.056192502 -0.228753 -0.398615
-0.055663999 -0.228737 -0.39860299
-0.055489 -0.22874799 -0.39861199
-0.055313252 -0.2286855 -0.39860898
-0.048795 -0.22879 -0.39861399
-0.048492398 -0.22871141 -0.39869142
-0.0483495 -0.228701 -0.39869428
-0.048129499 -0.2287055 -0.39878899
-0.058873337 -0.228451 -0.39878333
-0.058713 -0.22842599 -0.39879999
-0.058258504 -0.2284925 -0.39872798
-0.058080375 -0.22850387 -0.3987124
-0.057925403 -0.2284914 -0.3986856
-0.057754334 -0.22848368 -0.39867869
-0.057500109 -0.2284911 -0.39870191
-0.057298001 -0.22850466 -0.39868215
-0.057119831 -0.22851701 -0.39868185
-0.056957003 -0.22852166 -0.39867702
-0.056722499 -0.228496 -0.39865202
-0.056474 -0.22850899 -0.398624
-0.056328166 -0.22852665 -0.39860967
-0.048471168 -0.22850333 -0.39868903
-0.048340332 -0.22851498 -0.39868233
-0.048121002 -0.22851934 -0.39875433
-0.047929998 -0.228449 -0.39879
-0.060070001 -0.22821499 -0.39879099
-0.059901398 -0.2282608 -0.39878157
-0.059429999 -0.22824401 -0.398794
-0.0592595 -0.2282905 -0.39878801
-0.059084002 -0.22826 -0.39878973
-0.0588945 -0.2282865 -0.39875549
-0.058706999 -0.22827868 -0.39876699
-0.058250833 -0.22830832 -0.39868966
-0.058072586 -0.22831948 -0.39867187
-0.057931203 -0.22831301 -0.3986406
-0.057745501 -0.2282985 -0.39866
-0.057492167 -0.22830601 -0.39866817
-0.057286996 -0.22828217 -0.39866337
-0.057110328 -0.22829467 -0.39863816
-0.056946333 -0.22829933 -0.39864865
-0.056716502 -0.228349 -0.39861548
-0.056466497 -0.22836 -0.39861149
-0.048461836 -0.22828083 -0.39863983
-0.04832967 -0.22829117 -0.39865366
-0.048112333 -0.22829866 -0.39869702
-0.047899999 -0.22828451 -0.39876148
-0.060243502 -0.2280965 -0.398779
-0.060045999 -0.22810401 -0.39877799
-0.059907224 -0.22808176 -0.39874834
-0.059423 -0.22809632 -0.39877
-0.059250999 -0.22810633 -0.39876232
-0.059105441 -0.2281111 -0.39875078
-0.058929197 -0.22811119 -0.39873368
-0.0586995 -0.228095 -0.398725
-0.058261998 -0.22810376 -0.39866376
-0.058105633 -0.22808728 -0.39864856
-0.057940427 -0.22811857 -0.39860702
-0.0577395 -0.22815201 -0.398615
-0.057527333 -0.22811915 -0.39863482
-0.057328861 -0.22810899 -0.39864883
-0.057117667 -0.22811998 -0.39863166
-0.056938499 -0.22811449 -0.398617
-0.048454501 -0.2281325 -0.398628
-0.048336796 -0.22809701 -0.39863658
-0.0481035 -0.228112 -0.39868098
-0.047866497 -0.22807884 -0.39875749
-0.060653999 -0.227819 -0.39879099
-0.060235333 -0.22791232 -0.39874998
-0.060037505 -0.22791983 -0.39874586
-0.059898838 -0.22789668 -0.39871967
-0.059414499 -0.22791 -0.3987495
-0.059241001 -0.22788465 -0.39872566
-0.059094556 -0.227888 -0.39872891
-0.058908999 -0.22790451 -0.39870575
-0.058690999 -0.22791 -0.398698
-0.058274001 -0.2279 -0.3986325
-0.058093622 -0.22790001 -0.39861888
-0.057982001 -0.227883 -0.39860234
-0.057494499 -0.22791599 -0.39861476
-0.057317622 -0.22791675 -0.39862615
-0.057141997 -0.227956 -0.398615
-0.048366498 -0.227916 -0.39861631
-0.048093665 -0.227925 -0.39867735
-0.047858 -0.22789349 -0.3987315
-0.0608325 -0.22770201 -0.39878148
-0.060648002 -0.227706 -0.39877501
-0.060224336 -0.22768898 -0.39873233
-0.060027335 -0.22769885 -0.3987132
-0.059890337 -0.22771232 -0.39869511
-0.059406001 -0.227726 -0.39871764
-0.059232499 -0.227699 -0.398698
-0.059086163 -0.22770351 -0.39870533
-0.058899 -0.22768246 -0.39867523
-0.058680002 -0.227687 -0.39868465
-0.058265001 -0.22771533 -0.39862132
-0.058072999 -0.227799 -0.398601
-0.048359498 -0.2277665 -0.3986055
-0.048083335 -0.22770268 -0.39864567
-0.047858603 -0.22772081 -0.39871782
-0.047743004 -0.22766 -0.39876768
-0.061685 -0.227468 -0.39879799
-0.061214 -0.22741599 -0.39879999
-0.0610964 -0.22748439 -0.3987878
-0.060866248 -0.22749424 -0.398781
-0.060638666 -0.22751999 -0.39877403
-0.060216002 -0.227505 -0.39870602
-0.060026001 -0.22752433 -0.39868498
-0.059924226 -0.22748624 -0.3986772
-0.059797 -0.22745651 -0.39864749
-0.059309334 -0.22750901 -0.39869049
-0.059077553 -0.22751856 -0.398678
-0.058889877 -0.227497 -0.39865902
-0.058672503 -0.22750351 -0.39864302
-0.048072997 -0.22747833 -0.39862534
-0.047884669 -0.22748232 -0.39867434
-0.047730286 -0.2274753 -0.39873928
-0.061885998 -0.22725166 -0.39879033
-0.061697502 -0.2272985 -0.39878276
-0.061577 -0.227286 -0.39879799
-0.061209999 -0.22730599 -0.39877301
-0.061086796 -0.22729039 -0.39877421
-0.060900331 -0.227286 -0.39876688
-0.060627669 -0.22729801 -0.398754
-0.060206998 -0.22731934 -0.39868832
-0.060030997 -0.22732668 -0.39864099
-0.059937835 -0.22730017 -0.39865032
-0.059789501 -0.22730801 -0.39863801
-0.059298839 -0.22728617 -0.39866552
-0.059067003 -0.22729625 -0.39865088
-0.058881585 -0.22731209 -0.39863038
-0.058665998 -0.227356 -0.39861202
-0.048062999 -0.22729251 -0.39862299
-0.047875501 -0.2272965 -0.39866102
-0.047697663 -0.22730051 -0.39873433
-0.062004 -0.227072 -0.39879999
-0.06188783 -0.22707917 -0.39877617
-0.061708 -0.22709233 -0.3987802
-0.061568335 -0.22710067 -0.39878833
-0.061312001 -0.2271325 -0.39877748
-0.061122715 -0.22710301 -0.39876637
-0.060891505 -0.22710066 -0.39874747
-0.060617339 -0.22707565 -0.39872968
-0.060107831 -0.22710049 -0.39865497
-0.059928112 -0.22711389 -0.39865059
-0.059780002 -0.227121 -0.39863634
-0.059290498 -0.2271015 -0.39864001
-0.059070598 -0.22711821 -0.39863119
-0.058940373 -0.22707425 -0.39861998
-0.048053999 -0.22710668 -0.39860702
-0.047866661 -0.22711134 -0.39863536
-0.047699373 -0.22712263 -0.39872152
-0.047598999 -0.22703999 -0.39875001
-0.062085502 -0.22692001 -0.39879352
-0.061917167 -0.22689016 -0.39877185
-0.061690997 -0.22688699 -0.39873523
-0.061558664 -0.22687869 -0.39874199
-0.061336998 -0.226889 -0.39875665
-0.061113555 -0.22690232 -0.3987402
-0.060926333 -0.22691067 -0.39874968
-0.060720801 -0.22691099 -0.39869902
-0.060079198 -0.22689259 -0.39864919
-0.059916887 -0.22689112 -0.39863908
-0.059774 -0.226974 -0.39860299
-0.059367001 -0.22691099 -0.398633
-0.059117895 -0.22692378 -0.39861447
-0.0589635 -0.22689399 -0.39861122
-0.047855332 -0.22688735 -0.39862701
-0.047719002 -0.22688967 -0.39870247
-0.047546331 -0.22689314 -0.39876533
-0.062162999 -0.22669166 -0.39878735
-0.061908219 -0.226706 -0.39875489
-0.061698802 -0.22670779 -0.39872259
-0.061549 -0.226694 -0.39873648
-0.061328501 -0.22670451 -0.39873898
-0.061103113 -0.22668044 -0.39871746
-0.0609155 -0.22668767 -0.39872718
-0.060739249 -0.22672151 -0.39868402
-0.060598001 -0.226668 -0.398684
-0.060177669 -0.22672565 -0.39865533
-0.059920773 -0.22669156 -0.39863375
-0.059356336 -0.22668801 -0.39861599
-0.059159335 -0.22674866 -0.39860535
-0.047846001 -0.22670099 -0.39862299
-0.047710001 -0.22670324 -0.39868876
-0.0475365 -0.22670501 -0.39876547
-0.063524 -0.22640701 -0.39879999
-0.062584996 -0.226491 -0.39878798
-0.062153999 -0.2265065 -0.39877
-0.061897226 -0.22648321 -0.39873779
-0.061679836 -0.22650035 -0.39871231
-0.061540335 -0.22650766 -0.39871898
-0.061319668 -0.22651799 -0.39871132
-0.061094001 -0.22649533 -0.39870301
-0.060905501 -0.226502 -0.39872801
-0.060773 -0.22647865 -0.39867902
-0.060588002 -0.22648132 -0.39868799
-0.060165334 -0.226502 -0.39866266
-0.059926555 -0.22650829 -0.39863491
-0.059748001 -0.22648999 -0.39860201
-0.059347 -0.226503 -0.39860398
-0.047835335 -0.22651298 -0.39863399
-0.047699999 -0.22651567 -0.3986952
-0.047527168 -0.22651868 -0.39876032
-0.062627003 -0.226299 -0.39879799
-0.062528573 -0.22631857 -0.39877686
-0.062396001 -0.226275 -0.39879298
-0.062144667 -0.22632067 -0.39875969
-0.061888337 -0.2262975 -0.3987228
-0.0616614 -0.2262934 -0.39869481
-0.061528999 -0.22628534 -0.39870766
-0.061308 -0.22629599 -0.39870933
-0.06108433 -0.22630876 -0.39869878
-0.060896665 -0.2263165 -0.398711
-0.060764499 -0.226294 -0.39865601
-0.060579501 -0.22629601 -0.39866799
-0.060154665 -0.22627901 -0.39864132
-0.059934225 -0.22629033 -0.39861745
-0.059337001 -0.22631668 -0.39860967
-0.047823668 -0.22628766 -0.39863467
-0.047687668 -0.22629035 -0.39869881
-0.047515001 -0.22629416 -0.39876047
-0.063676998 -0.226052 -0.39879799
-0.063507006 -0.22607 -0.39879102
-0.063170999 -0.22619499 -0.39879701
-0.062684499 -0.22606999 -0.39879602
-0.062538005 -0.22608267 -0.398774
-0.062386334 -0.22608869 -0.39878798
-0.062132999 -0.226098 -0.39875332
-0.061878666 -0.22611134 -0.39872232
-0.061668597 -0.2261132 -0.39869681
-0.0615195 -0.22609949 -0.39870301
-0.061299 -0.22611 -0.3987025
-0.061094854 -0.22609486 -0.39869627
-0.060913246 -0.22608425 -0.39868897
-0.060754001 -0.226107 -0.39865732
-0.060570002 -0.22611134 -0.39865968
-0.060144998 -0.22609401 -0.398635
-0.059925001 -0.22610468 -0.39861035
-0.047812998 -0.2261 -0.39864349
-0.047677748 -0.2261035 -0.39869699
-0.047505002 -0.226106 -0.3987655
-0.063496999 -0.22588433 -0.39879265
-0.062653244 -0.22590449 -0.39879078
-0.062528253 -0.22589624 -0.39877799
-0.062376998 -0.225904 -0.39877349
-0.062121999 -0.22587466 -0.39874867
-0.061887287 -0.22589815 -0.39871785
-0.061686002 -0.22589223 -0.39869976
-0.061510667 -0.22591434 -0.39868334
-0.06129 -0.22592366 -0.39869234
-0.06110125 -0.22589751 -0.39868274
-0.060913667 -0.22590633 -0.39868417
-0.060742334 -0.22588366 -0.39865899
-0.060559001 -0.22588867 -0.39864531
-0.060135666 -0.22590701 -0.39862898
-0.059909627 -0.22591862 -0.39860839
-0.047916196 -0.22592501 -0.39863178
-0.047686286 -0.22590457 -0.39869931
-0.047518 -0.22593525 -0.39877102
-0.063486993 -0.22569799 -0.39879698
-0.062666498 -0.22569734 -0.39878154
-0.062537879 -0.22569925 -0.39876926
-0.062368333 -0.22571768 -0.39875567
-0.062113501 -0.22569051 -0.398718
-0.061892748 -0.2257015 -0.39870352
-0.061702501 -0.22570133 -0.39869717
-0.061537601 -0.22567399 -0.3986772
-0.061278 -0.22570102 -0.39869165
-0.061091665 -0.22571184 -0.39867949
-0.060903888 -0.22572112 -0.39868009
-0.060732499 -0.2256965 -0.39866102
-0.060548499 -0.225701 -0.398655
-0.060123999 -0.22568434 -0.3986223
-0.059887998 -0.2257112 -0.39860541
-0.047977332 -0.22568233 -0.39863864
-0.047700111 -0.22568901 -0.39870331
-0.047526669 -0.22568865 -0.39878666
-0.063508004 -0.22550848 -0.39878649
-0.063215002 -0.225482 -0.39879698
-0.063107334 -0.22547667 -0.39878368
-0.062893003 -0.225532 -0.39879999
-0.062679999 -0.225509 -0.39877802
-0.062534116 -0.22548625 -0.39874899
-0.062356997 -0.22549534 -0.39874566
-0.062103998 -0.225504 -0.398711
-0.061883166 -0.22551532 -0.39869547
-0.061735999 -0.22550979 -0.39867941
-0.061538499 -0.22550276 -0.398673
-0.061266001 -0.22547667 -0.39868465
-0.06107983 -0.22548735 -0.39867851
-0.060892336 -0.22549711 -0.398684
-0.060722332 -0.22551034 -0.39867067
-0.060538996 -0.22551566 -0.3986423
-0.060114 -0.22549799 -0.3986195
-0.059869997 -0.22547249 -0.39861149
-0.047967002 -0.225494 -0.39865547
-0.047706999 -0.22550699 -0.39871779
-0.047600001 -0.225465 -0.398754
-0.06346599 -0.22528867 -0.39878333
-0.06320601 -0.22529668 -0.39879
-0.063129 -0.225374 -0.39877599
-0.062913395 -0.2252944 -0.3987906
-0.062670328 -0.22532283 -0.39877415
-0.062524669 -0.22529966 -0.39874434
-0.062347502 -0.22530949 -0.39873999
-0.062092002 -0.22528 -0.39871466
-0.061871499 -0.22529183 -0.39869598
-0.061713833 -0.22530101 -0.39868984
-0.061528999 -0.22531684 -0.39867082
-0.061256498 -0.225291 -0.39868501
-0.0610695 -0.225301 -0.39868677
-0.060898401 -0.225317 -0.39869681
-0.060744196 -0.2252676 -0.3986854
-0.060526002 -0.22529 -0.3986747
-0.060104001 -0.22531067 -0.39863333
-0.059888497 -0.22531088 -0.39862016
-0.048250001 -0.22522099 -0.398606
-0.047956001 -0.22530633 -0.39866567
-0.047722336 -0.2253108 -0.39871946
-0.047591332 -0.22531401 -0.39877799
-0.063694999 -0.225159 -0.398799
-0.063456997 -0.2251035 -0.39877498
-0.063111998 -0.225076 -0.39879999
-0.062891252 -0.22510375 -0.39878875
-0.062658168 -0.22509851 -0.39878067
-0.062514447 -0.22511268 -0.39874646
-0.062337 -0.22512233 -0.39874735
-0.062081501 -0.22509199 -0.39873099
-0.061859999 -0.22510275 -0.39871925
-0.061691202 -0.22509198 -0.39870438
-0.061516166 -0.2250915 -0.39868999
-0.061244667 -0.22510134 -0.39872566
-0.061057668 -0.2251115 -0.39872369
-0.060912002 -0.22511999 -0.39871237
-0.060743 -0.22509325 -0.39870548
-0.060515001 -0.22510301 -0.39868999
-0.060091332 -0.22508667 -0.39864668
-0.059870217 -0.22509567 -0.39863899
-0.059745498 -0.22509199 -0.39862299
-0.059271 -0.225049 -0.39860299
-0.048277333 -0.22509165 -0.39862767
-0.048156403 -0.22509059 -0.3986316
-0.047942668 -0.225078 -0.39869931
-0.047708664 -0.22508301 -0.39875433
-0.063446335 -0.22491533 -0.39878967
-0.063063502 -0.22492999 -0.3987985
-0.062862001 -0.22493599 -0.39879301
-0.062664337 -0.22492401 -0.39877465
-0.062519088 -0.22487909 -0.39877594
-0.062323663 -0.224896 -0.39877832
-0.062070336 -0.22490533 -0.39875436
-0.061849501 -0.22491585 -0.39873317
-0.061702002 -0.22491002 -0.39873022
-0.0615055 -0.22490299 -0.398709
-0.061232001 -0.22487567 -0.39874601
-0.061044995 -0.22488634 -0.39874449
-0.060899332 -0.22489499 -0.39872798
-0.060732335 -0.22490565 -0.3987262
-0.060504664 -0.22491467 -0.39870501
-0.060080498 -0.224898 -0.39866701
-0.059859503 -0.22490801 -0.39865732
-0.059710164 -0.224885 -0.39864051
-0.059261333 -0.22489767 -0.39863363
-0.059056003 -0.2248946 -0.39861423
-0.0588855 -0.22490713 -0.39861012
-0.058779001 -0.22485299 -0.39860401
-0.048666999 -0.224823 -0.39860201
-0.048586 -0.22482701 -0.39861599
-0.048283834 -0.22491334 -0.39865234
-0.048156802 -0.22490799 -0.39866477
-0.047930501 -0.22488749 -0.398745
-0.047742501 -0.2248915 -0.398785
-0.063013494 -0.224747 -0.3987945
-0.062848002 -0.224675 -0.39879799
-0.062683664 -0.22472201 -0.398785
-0.062490668 -0.22469966 -0.39878798
-0.062058002 -0.22468066 -0.39876601
-0.061880004 -0.22468734 -0.39876768
-0.061717886 -0.22469889 -0.39873812
-0.061494499 -0.22471599 -0.39872518
-0.061222002 -0.22468951 -0.39874801
-0.061072998 -0.22469699 -0.39875451
-0.060925003 -0.22470552 -0.39873818
-0.0607116 -0.22469619 -0.39874083
-0.060491998 -0.22469001 -0.39871967
-0.060069334 -0.22470967 -0.39869332
-0.05985475 -0.22472836 -0.3986825
-0.059718598 -0.22468798 -0.39867002
-0.059249498 -0.224709 -0.39866349
-0.059076667 -0.22468233 -0.39864099
-0.05890283 -0.22468901 -0.39864278
-0.058726501 -0.22468084 -0.39861298
-0.058522999 -0.22463401 -0.39860699
-0.048659999 -0.22471 -0.39861849
-0.048578501 -0.22471249 -0.39863652
-0.04826967 -0.22468533 -0.39869967
-0.048137665 -0.22469532 -0.39870998
-0.047919665 -0.22469901 -0.39876866
-0.062481225 -0.22451401 -0.39878157
-0.0620475 -0.22449151 -0.398781
-0.061870001 -0.224501 -0.398772
-0.061692573 -0.22449572 -0.39876816
-0.061481666 -0.22449082 -0.39874485
-0.061211333 -0.22450167 -0.39876166
-0.061062664 -0.22451 -0.39876667
-0.06091455 -0.22451878 -0.39874879
-0.060719002 -0.22451401 -0.3987608
-0.060480502 -0.224501 -0.398754
-0.060055662 -0.22448234 -0.39873204
-0.059858169 -0.22449 -0.39872113
-0.059721105 -0.22450465 -0.39870459
-0.059238669 -0.22452067 -0.39868602
-0.059064999 -0.224494 -0.39867401
-0.058891378 -0.22450075 -0.39867064
-0.058705773 -0.22447957 -0.39864239
-0.058513667 -0.22448266 -0.39862934
-0.056956001 -0.22441401 -0.39860201
-0.048669748 -0.22450227 -0.39863649
-0.048567336 -0.22452267 -0.398669
-0.048257999 -0.22449499 -0.39873651
-0.048125498 -0.22450501 -0.39875001
-0.062419999 -0.224365 -0.39879799
-0.061863001 -0.224388 -0.398783
-0.06174425 -0.22435601 -0.3987785
-0.061470252 -0.22430176 -0.39877775
-0.061202001 -0.224351 -0.398783
-0.061100334 -0.22430567 -0.39879432
-0.060901627 -0.22430125 -0.39878398
-0.060689796 -0.22432001 -0.3987802
-0.060472999 -0.224387 -0.39878401
-0.060043499 -0.22429401 -0.39876997
-0.059846502 -0.2243015 -0.39875698
-0.059699252 -0.22428814 -0.39874202
-0.059225004 -0.22429334 -0.39872399
-0.059053 -0.22430335 -0.39871266
-0.058896802 -0.22431771 -0.39870423
-0.05872 -0.22428787 -0.39868227
-0.058502499 -0.22429299 -0.39866602
-0.058063246 -0.22430301 -0.39863098
-0.057905998 -0.22428419 -0.39863193
-0.057728 -0.22425859 -0.39861399
-0.057534002 -0.22423699 -0.398606
-0.05737 -0.22423901 -0.39861301
-0.057116333 -0.22425367 -0.39860865
-0.056949999 -0.224301 -0.39861
-0.056736998 -0.22427399 -0.39860299
-0.056501001 -0.22427966 -0.39863899
-0.056251999 -0.22429234 -0.39862466
-0.056101996 -0.22424851 -0.39862332
-0.055955999 -0.22423901 -0.39860299
-0.054631501 -0.224264 -0.39861199
-0.054512002 -0.224233 -0.39861101
-0.048859999 -0.22421449 -0.398608
-0.048678666 -0.22429317 -0.3986702
-0.048551995 -0.22429268 -0.39873099
-0.048298001 -0.22430067 -0.398761
-0.048142999 -0.2243505 -0.39878216
-0.061463501 -0.22418749 -0.39879602
-0.060036 -0.224179 -0.398799
-0.059836999 -0.22414951 -0.3987855
-0.059697166 -0.22411335 -0.39877582
-0.0592135 -0.224105 -0.39875698
-0.059039 -0.224077 -0.39875868
-0.058893103 -0.22408189 -0.39874703
-0.058708001 -0.22409885 -0.3987186
-0.058490664 -0.224105 -0.3987
-0.058070499 -0.22409201 -0.398689
-0.057901625 -0.22409987 -0.39868501
-0.057719145 -0.22409685 -0.39866474
-0.057523336 -0.22408234 -0.39865801
-0.057313669 -0.22408849 -0.398664
-0.05710711 -0.22410209 -0.39864221
-0.0568996 -0.22410181 -0.3986268
-0.056727003 -0.22412133 -0.39863899
-0.056487501 -0.22408849 -0.398711
-0.056238499 -0.2241015 -0.39868402
-0.056100171 -0.2241075 -0.39866665
-0.055941749 -0.22409464 -0.39864063
-0.055769 -0.22409801 -0.39863697
-0.055506665 -0.22406965 -0.39861682
-0.054653399 -0.2240614 -0.39862782
-0.054502502 -0.22408152 -0.39864787
-0.0543584 -0.22407642 -0.39862281
-0.054195002 -0.224023 -0.39860699
-0.048852749 -0.22410075 -0.39863646
-0.048665751 -0.22410101 -0.39873502
-0.048540998 -0.22414 -0.39878801
-0.059655 -0.22397751 -0.39879298
-0.059204001 -0.22395401 -0.39878398
-0.059084337 -0.22387232 -0.39878699
-0.058894001 -0.2238996 -0.39878181
-0.058684427 -0.22391343 -0.3987754
-0.058476999 -0.22391251 -0.39876199
-0.058058005 -0.22390133 -0.39874133
-0.057889495 -0.22390918 -0.39873156
-0.057722747 -0.22391239 -0.39871329
-0.057510499 -0.22389251 -0.39871448
-0.057301749 -0.22389825 -0.39870977
-0.057083569 -0.22389628 -0.39868945
-0.056876 -0.22388966 -0.39868483
-0.056712333 -0.22389233 -0.39869332
-0.056475665 -0.22389765 -0.39874899
-0.056226 -0.22391033 -0.39874601
-0.056087665 -0.2239168 -0.3987169
-0.055942141 -0.22390829 -0.39869472
-0.055756502 -0.22390699 -0.39868599
-0.05549683 -0.22391714 -0.39865783
-0.055337999 -0.22386876 -0.39866576
-0.055145998 -0.22390001 -0.39862767
-0.054895777 -0.2239178 -0.39863321
-0.05465629 -0.22390142 -0.39867243
-0.054491002 -0.22389074 -0.39867926
-0.054304 -0.22390418 -0.39864549
-0.0541085 -0.22387774 -0.39863151
-0.053890333 -0.22384334 -0.39862001
-0.053755999 -0.223822 -0.39861
-0.052535001 -0.223818 -0.398601
-0.049258333 -0.223846 -0.39862403
-0.049101222 -0.22390434 -0.39862886
-0.048929401 -0.22389241 -0.3986676
-0.048756599 -0.223924 -0.39874643
-0.058047999 -0.223749 -0.39878601
-0.057880856 -0.22372314 -0.39878485
-0.057701223 -0.22369355 -0.39877236
-0.057497997 -0.22370033 -0.39876965
-0.057289001 -0.22370668 -0.39876583
-0.057090499 -0.22371024 -0.39874661
-0.056863252 -0.22369751 -0.39874452
-0.056699999 -0.223702 -0.39873999
-0.056465 -0.223745 -0.398799
-0.056213498 -0.22371951 -0.3987875
-0.056065571 -0.22370955 -0.39877772
-0.055921778 -0.22370198 -0.39875156
-0.055744004 -0.22371702 -0.39873698
-0.055528503 -0.22372349 -0.39871767
-0.055347998 -0.22369376 -0.39873198
-0.055133499 -0.22371 -0.39868599
-0.054880556 -0.22368802 -0.39870298
-0.054679666 -0.22372085 -0.39871183
-0.054516997 -0.223682 -0.39872932
-0.054291442 -0.22371289 -0.39869776
