# .PCD v0.7 - Point Cloud Data file format
VERSION 0.7
FIELDS x y z
SIZE 4 4 4
TYPE F F F
COUNT 1 1 1
WIDTH 1389
HEIGHT 1
VIEWPOINT 0 0 0 1 0 0 0
POINTS 1389
DATA ascii
-0.050798997 0.13075051 -0.22836301
-0.050523996 0.13070033 -0.22834599
-0.050317999 0.13068534 -0.2283349
-0.050049499 0.130702 -0.2283255
-0.049735401 0.13071141 -0.22831579
-0.049519222 0.13071591 -0.2283019
-0.049310002 0.13070484 -0.228285
-0.049017329 0.13069166 -0.22827566
-0.048884332 0.13068201 -0.22827534
-0.048704669 0.130674 -0.22827284
-0.048480999 0.13069965 -0.2282645
-0.048306663 0.13067667 -0.228269
-0.048198499 0.13075 -0.22824651
-0.047924832 0.13070033 -0.22824834
-0.047755331 0.13069151 -0.22825234
-0.047522664 0.130676 -0.22822933
-0.047310501 0.13070199 -0.228239
-0.046924997 0.13072067 -0.22821333
-0.046664 0.130704 -0.22822034
-0.046478875 0.13068688 -0.22821574
-0.046324 0.13068816 -0.22822601
-0.045952499 0.130706 -0.228209
-0.045779999 0.13065501 -0.22820801
-0.025926601 0.13069358 -0.22825119
-0.025784999 0.13069667 -0.228366
-0.051463 0.130927 -0.228392
-0.051282335 0.130905 -0.22837567
-0.051122002 0.13090549 -0.22836199
-0.050793998 0.130895 -0.22834951
-0.050516665 0.13091765 -0.22832668
-0.050310582 0.13090234 -0.22832167
-0.05004267 0.13088334 -0.228311
-0.049746599 0.13088658 -0.22830319
-0.049512833 0.130897 -0.22828765
-0.049288999 0.13090679 -0.22826621
-0.049009334 0.13090867 -0.22826634
-0.048876498 0.1308995 -0.22825567
-0.048696831 0.13089167 -0.22825682
-0.048474558 0.13088055 -0.22825533
-0.048352331 0.13087635 -0.22825967
-0.048193999 0.13089651 -0.228232
-0.0479175 0.13091834 -0.22822934
-0.047747836 0.1309095 -0.2282335
-0.047514331 0.13089265 -0.22822666
-0.047320399 0.13087019 -0.22822659
-0.046920002 0.13086499 -0.22820599
-0.046659 0.130849 -0.228205
-0.046552002 0.13088149 -0.2282095
-0.046345998 0.13083433 -0.22821002
-0.0259174 0.13090999 -0.22826782
-0.025775999 0.130914 -0.22837967
-0.051902998 0.13113099 -0.228392
-0.051727001 0.13119499 -0.22838201
-0.051456332 0.13110867 -0.22837599
-0.051292449 0.13110022 -0.22835667
-0.051116664 0.1310885 -0.22832616
-0.050788999 0.13107835 -0.22830868
-0.050511003 0.13110051 -0.22829899
-0.050297819 0.13111472 -0.22827354
-0.05003633 0.13110232 -0.22827666
-0.049732 0.13109116 -0.22825682
-0.049507774 0.13108002 -0.22824945
-0.049311798 0.1310842 -0.22824302
-0.049005002 0.13109151 -0.228212
-0.048870999 0.13108175 -0.22822499
-0.04868 0.1310958 -0.2282192
-0.048504252 0.13106501 -0.2282255
-0.048366599 0.13108161 -0.22822019
-0.047956001 0.13106599 -0.228205
-0.047782999 0.13105901 -0.22820701
-0.047378998 0.13103101 -0.228221
-0.026040001 0.131155 -0.22820701
-0.025928598 0.1310852 -0.228273
-0.05189833 0.13127567 -0.22838466
-0.051723003 0.131303 -0.22837999
-0.051450998 0.131291 -0.22833699
-0.051285997 0.13131911 -0.22831181
-0.051109497 0.13130616 -0.22829717
-0.050781336 0.13129734 -0.22828132
-0.050505668 0.131283 -0.22826199
-0.05030711 0.13129278 -0.22824179
-0.050030336 0.13132167 -0.22821867
-0.049725335 0.13130951 -0.22821967
-0.049510624 0.13128975 -0.22821251
-0.049362 0.13129266 -0.22822066
-0.026033333 0.131299 -0.22823198
-0.025911836 0.13128783 -0.22827433
-0.025762333 0.13127767 -0.22837667
-0.051890332 0.13149367 -0.22837567
-0.051716 0.131485 -0.22837268
-0.051443998 0.13147201 -0.22833733
-0.051279169 0.13149984 -0.22830933
-0.051088799 0.1315082 -0.22829202
-0.050773334 0.13151367 -0.22827466
-0.050497666 0.13149934 -0.22825199
-0.0503066 0.13147819 -0.22824058
-0.050024003 0.131502 -0.228209
-0.049708802 0.1315106 -0.22821701
-0.049507804 0.131532 -0.22820881
-0.049353663 0.13150901 -0.22822134
-0.026051998 0.13150461 -0.2282296
-0.025901498 0.13150434 -0.22831233
-0.025753001 0.131496 -0.22838734
-0.051881671 0.13170899 -0.22838034
-0.051708329 0.13170166 -0.22836399
-0.051436003 0.13168834 -0.22833067
-0.051272109 0.13167898 -0.22831379
-0.051108398 0.1316832 -0.22828579
-0.050766997 0.131695 -0.22825801
-0.050489333 0.13171567 -0.22825401
-0.050290085 0.13170825 -0.22823481
-0.050016999 0.13168199 -0.228212
-0.049719598 0.13168579 -0.22821502
-0.049486 0.131696 -0.22821276
-0.049345002 0.131725 -0.22822267
-0.026021 0.13166399 -0.228201
-0.0258858 0.13170859 -0.22828081
-0.025745666 0.13171467 -0.22836733
-0.052049 0.131935 -0.22838999
-0.051873337 0.13192634 -0.22837633
-0.051699996 0.131919 -0.22836368
-0.051427666 0.13190468 -0.228332
-0.051263224 0.13189532 -0.22831821
-0.051087335 0.13188434 -0.22829068
-0.050760001 0.13187432 -0.228266
-0.0504825 0.131897 -0.22824201
-0.050282087 0.13191138 -0.22823526
-0.050056003 0.13192025 -0.2282145
-0.04970317 0.13188699 -0.22821401
-0.049478337 0.13187465 -0.22821744
-0.049338497 0.131905 -0.228223
-0.04874 0.13195334 -0.22820733
-0.025891 0.131871 -0.228231
-0.025711665 0.131909 -0.22833234
-0.052046001 0.132007 -0.228398
-0.051866502 0.132107 -0.228379
-0.051692501 0.132099 -0.22836551
-0.051420003 0.13212167 -0.22831534
-0.051255554 0.13211234 -0.22830288
-0.051078994 0.13209999 -0.22829318
-0.050750334 0.132089 -0.22828667
-0.050475001 0.132076 -0.22825533
-0.050291669 0.13209866 -0.22825116
-0.050131004 0.13207532 -0.228222
-0.049998 0.13214999 -0.22822249
-0.049694333 0.13210233 -0.22822399
-0.049507331 0.13209283 -0.22822118
-0.049362998 0.13208564 -0.228227
-0.049185999 0.132147 -0.228203
-0.048937004 0.13208866 -0.22820266
-0.048746664 0.13212283 -0.2282085
-0.048303999 0.13217799 -0.228209
-0.025839001 0.13205051 -0.228218
-0.025692834 0.13207933 -0.2282965
-0.051860005 0.13228767 -0.22836368
-0.051686663 0.13227934 -0.22835
-0.051413998 0.13230351 -0.22829601
-0.0512596 0.1322874 -0.22828659
-0.0511025 0.1323285 -0.22827376
-0.050742667 0.13230632 -0.22827233
-0.050467666 0.132294 -0.22823334
-0.050285336 0.13227944 -0.22824056
-0.050188672 0.132273 -0.22821634
-0.049993001 0.132295 -0.228212
-0.049686 0.13231866 -0.22822715
-0.049490597 0.132323 -0.228214
-0.049347799 0.13231701 -0.2282176
-0.048698001 0.132339 -0.228202
-0.048301 0.13225 -0.228211
-0.025685167 0.13229752 -0.22828251
-0.02555 0.132324 -0.22838199
-0.052153997 0.132524 -0.2283995
-0.051851999 0.132504 -0.22835368
-0.051678002 0.13249467 -0.22835366
-0.051406335 0.13248266 -0.22830467
-0.051266667 0.13247518 -0.2283055
-0.051128995 0.13249502 -0.22825579
-0.050999001 0.132531 -0.22825301
-0.050735001 0.132524 -0.22825165
-0.050459336 0.13250934 -0.228229
-0.050277445 0.13249578 -0.22823136
-0.050177999 0.132562 -0.228202
-0.049986001 0.132476 -0.228212
-0.049679004 0.13249925 -0.22822025
-0.049483601 0.13251022 -0.22820958
-0.049346667 0.13251899 -0.22821151
-0.0256755 0.13251485 -0.22830485
-0.025545001 0.132469 -0.22837001
-0.0521015 0.13271825 -0.22839175
-0.051843669 0.13272034 -0.22834635
-0.051670332 0.13271201 -0.22834234
-0.051401 0.132626 -0.22830001
-0.051292874 0.13270238 -0.22830412
-0.051153507 0.13268383 -0.22826034
-0.050992999 0.13267434 -0.22826266
-0.0507285 0.132704 -0.22824749
-0.050450999 0.13272567 -0.228227
-0.050269004 0.13271211 -0.22822934
-0.049977001 0.13269199 -0.228218
-0.049672499 0.13267967 -0.22820799
-0.0494924 0.1326846 -0.22820941
-0.049340252 0.13269851 -0.22820525
-0.025668502 0.13269649 -0.22831249
-0.052261502 0.1329595 -0.228377
-0.052100543 0.13288736 -0.22836691
-0.051838003 0.132901 -0.22832599
-0.051664002 0.1328935 -0.22832799
-0.051297333 0.13291067 -0.22828756
-0.051145833 0.132901 -0.22824901
-0.050984334 0.13289033 -0.22826801
-0.050721664 0.13288467 -0.22823735
-0.050444499 0.132907 -0.228214
-0.050272197 0.13288641 -0.2282196
-0.049970001 0.13287151 -0.22821701
-0.049662501 0.13293175 -0.22821125
-0.049484998 0.13287179 -0.22820961
-0.049333002 0.13287951 -0.22820751
-0.025659665 0.13287699 -0.22833849
-0.052492999 0.13312 -0.22837199
-0.052295007 0.1331149 -0.2283541
-0.052101832 0.13309959 -0.22831966
-0.051832337 0.13308333 -0.22828966
-0.051658999 0.13307567 -0.22827566
-0.051281858 0.13310771 -0.22824228
-0.051140502 0.13308226 -0.228214
-0.050978333 0.13310933 -0.22821833
-0.050717 0.133029 -0.22821499
-0.050283 0.1330035 -0.22820351
-0.049616002 0.133038 -0.228203
-0.049509998 0.133035 -0.228202
-0.025800999 0.13303301 -0.22820599
-0.025713667 0.13309918 -0.22830568
-0.052577503 0.133305 -0.22838551
-0.052297641 0.13331875 -0.22834072
-0.052113496 0.1333109 -0.2283034
-0.051894404 0.1333182 -0.2282832
-0.051651668 0.133294 -0.22825901
-0.051294625 0.13328324 -0.22822875
-0.051100001 0.133333 -0.228205
-0.050967999 0.133397 -0.22820599
-0.025735499 0.13331799 -0.22831716
-0.052571498 0.133449 -0.22839901
-0.052308332 0.13349423 -0.22835143
-0.052118499 0.13349916 -0.22831351
-0.051904336 0.13352132 -0.22828181
-0.051643003 0.133509 -0.22826034
-0.051277556 0.13348979 -0.22822778
-0.050965 0.133469 -0.22821
-0.025874667 0.13347299 -0.228231
-0.025727 0.1334985 -0.22834851
-0.052290421 0.13368526 -0.2283604
-0.052111447 0.13367923 -0.228311
-0.051896747 0.13370074 -0.22829425
-0.051633999 0.13372533 -0.22826566
-0.051290281 0.133697 -0.22822258
-0.051155753 0.133754 -0.22820801
-0.050953999 0.13375901 -0.228201
-0.025868 0.13365549 -0.2282155
-0.025720665 0.13368084 -0.22832917
-0.052289817 0.13389537 -0.22835754
-0.052112699 0.13390319 -0.22831139
-0.0519078 0.133867 -0.22829659
-0.051685002 0.13391966 -0.22827034
-0.051295832 0.13392383 -0.22823583
-0.051135555 0.13391399 -0.22821811
-0.050947998 0.133901 -0.22821234
-0.050680999 0.133967 -0.228204
-0.025714502 0.13389967 -0.22828352
-0.025573 0.133963 -0.22840001
-0.052301332 0.13412035 -0.228352
-0.052119333 0.13411231 -0.22831585
-0.051969003 0.13410167 -0.22829835
-0.051706668 0.13408883 -0.22828184
-0.051288001 0.13410376 -0.2282535
-0.05111957 0.13410901 -0.22821887
-0.050939333 0.13411768 -0.22821568
-0.050677001 0.13407451 -0.2282045
-0.025658667 0.13411833 -0.22823365
-0.025567666 0.13410933 -0.228378
-0.052293833 0.13430032 -0.22835948
-0.052103668 0.13430466 -0.2283099
-0.051960334 0.13431799 -0.22830999
-0.051697999 0.13430466 -0.22828948
-0.051281501 0.13428348 -0.22824483
-0.051128123 0.13428351 -0.2282254
-0.050932501 0.134298 -0.228212
-0.025650501 0.13429999 -0.22826301
-0.0255615 0.13429201 -0.228365
-0.052285776 0.13447955 -0.22838044
-0.052111093 0.13447872 -0.22833735
-0.051951498 0.134497 -0.22833949
-0.051707603 0.1345084 -0.22828761
-0.051600002 0.13459 -0.228284
-0.051273663 0.134501 -0.22823417
-0.051113334 0.13449034 -0.22821344
-0.050925333 0.134479 -0.22821231
-0.0256935 0.1344825 -0.22824733
-0.025553999 0.13447332 -0.228378
-0.052269876 0.13469513 -0.22837938
-0.052095588 0.13468792 -0.22834516
-0.051945332 0.13467734 -0.228333
-0.051769502 0.1347055 -0.22828901
-0.051596001 0.1346975 -0.2282775
-0.051265333 0.134717 -0.22823034
-0.051139802 0.1346952 -0.22821681
-0.050917 0.13469499 -0.22821033
-0.025684834 0.13469984 -0.22825401
-0.025547 0.134618 -0.228398
-0.05227033 0.13491312 -0.22835422
-0.052088168 0.13490476 -0.22832668
-0.05193767 0.134894 -0.22831933
-0.051763669 0.13488632 -0.22826667
-0.051589668 0.13487767 -0.22826433
-0.051278666 0.13488567 -0.22822233
-0.051177502 0.13489249 -0.2282095
-0.025675168 0.13491784 -0.22828116
-0.052508999 0.13507199 -0.22838099
-0.052255716 0.13510886 -0.22832943
-0.052080914 0.13512199 -0.22829975
-0.051929999 0.13511167 -0.22829668
-0.051755667 0.13510267 -0.228256
-0.051583003 0.135095 -0.22822933
-0.025666 0.13509825 -0.22832474
-0.052501995 0.135289 -0.228357
-0.052286502 0.13527599 -0.22832434
-0.052124124 0.135304 -0.22830011
-0.0519615 0.13529599 -0.228277
-0.051748332 0.13531934 -0.22823466
-0.051574666 0.13531066 -0.22822933
-0.051183999 0.135363 -0.228201
-0.025804332 0.13528867 -0.22823167
-0.025658501 0.13527983 -0.22833133
-0.052493002 0.13550501 -0.22836767
-0.052278165 0.135492 -0.22832817
-0.052117169 0.135484 -0.22830249
-0.051954832 0.13547616 -0.22827016
-0.051741499 0.1355 -0.228237
-0.051567003 0.135491 -0.22823501
-0.051293332 0.13551301 -0.22820733
-0.051151 0.13557801 -0.228204
-0.0258685 0.13554899 -0.22822601
-0.025727142 0.13549186 -0.2282853
-0.025596999 0.1355315 -0.22837099
-0.052483995 0.135721 -0.22837134
-0.052269503 0.13570784 -0.22833849
-0.052108582 0.13570008 -0.22830576
-0.051946163 0.13569251 -0.22828084
-0.051732998 0.13567834 -0.22825901
-0.05156 0.13567068 -0.22824399
-0.051284 0.135727 -0.22822666
-0.051145002 0.13572067 -0.22821683
-0.050876498 0.135738 -0.228212
-0.025864 0.1356945 -0.22820601
-0.025739999 0.13572116 -0.22826384
-0.025590001 0.13571434 -0.22837435
-0.052476503 0.135901 -0.2283815
-0.052260835 0.13592383 -0.22833866
-0.052099586 0.13591523 -0.22832225
-0.051937163 0.1359075 -0.22829248
-0.051724002 0.135895 -0.22827667
-0.051550668 0.13588667 -0.22826634
-0.051276498 0.13590801 -0.228232
-0.051112335 0.13589866 -0.22822483
-0.050870001 0.13591933 -0.22820334
-0.050602999 0.135984 -0.228201
-0.025719667 0.13589101 -0.22823532
-0.025555665 0.13590734 -0.22834735
-0.052469999 0.13608165 -0.22837301
-0.052255001 0.13610426 -0.22832325
-0.05209275 0.13609587 -0.22831526
-0.051921405 0.1361084 -0.2283024
-0.051715333 0.13611001 -0.22828032
-0.051541001 0.13610099 -0.22828633
-0.051269669 0.13608734 -0.22823535
-0.051120289 0.13606928 -0.22822158
-0.050862499 0.136098 -0.228209
-0.0506 0.13605601 -0.228203
-0.025683001 0.13604549 -0.228241
-0.025536334 0.1360765 -0.22832717
-0.052461665 0.136298 -0.22836868
-0.052247494 0.13628434 -0.22832815
-0.052085921 0.13627617 -0.22831173
-0.051930003 0.1362832 -0.2282922
-0.051707 0.13632633 -0.22827733
-0.051532332 0.13631767 -0.22829099
-0.051261336 0.13630366 -0.22823799
-0.05109711 0.13629501 -0.22821712
-0.050920334 0.13628201 -0.22821169
-0.0255285 0.13629501 -0.22831182
-0.052455001 0.13644101 -0.228396
-0.052237671 0.13650002 -0.22835666
-0.052076668 0.13649184 -0.22833294
-0.051913336 0.13648301 -0.22832216
-0.051699501 0.13650601 -0.2282815
-0.0515255 0.136499 -0.228287
-0.051253002 0.13651967 -0.22824065
-0.051088553 0.13651079 -0.22822301
-0.050924599 0.13651399 -0.22820561
-0.025563335 0.13651533 -0.228283
-0.052446 0.136693 -0.2283875
-0.052261997 0.13671835 -0.22835533
-0.052118663 0.13670941 -0.22834091
-0.051935107 0.13670255 -0.22831191
-0.051693331 0.136686 -0.22827767
-0.051519003 0.13667867 -0.22827767
-0.051246502 0.136701 -0.228232
-0.051073998 0.13670556 -0.2282213
-0.050838668 0.13671134 -0.228212
-0.025658 0.13673501 -0.22820599
-0.025555 0.136696 -0.22831401
-0.052439999 0.13687433 -0.22836268
-0.052257001 0.1368995 -0.22832
-0.052102797 0.13691179 -0.2282944
-0.051928889 0.13691922 -0.22827369
-0.051686 0.13690333 -0.22824664
-0.051511332 0.136895 -0.22826301
-0.05123933 0.13688099 -0.22822867
-0.051100165 0.13687418 -0.22821634
-0.025651 0.13688166 -0.22822301
-0.025546333 0.13687734 -0.22834134
-0.052951001 0.137188 -0.2283995
-0.052781668 0.137107 -0.22838901
-0.052434001 0.13709234 -0.22830634
-0.052251328 0.137081 -0.22828867
-0.052117698 0.13708651 -0.2282699
-0.051923499 0.13710034 -0.22823465
-0.051679667 0.13712066 -0.22820801
-0.051507 0.13707601 -0.22821301
-0.025677001 0.1371156 -0.22825761
-0.025536334 0.137095 -0.22837834
-0.052947998 0.13725999 -0.228397
-0.052773669 0.13732301 -0.22837967
-0.052425999 0.13730834 -0.22830568
-0.052243669 0.13729668 -0.22826535
-0.052100163 0.13728808 -0.22825809
-0.051917221 0.13728088 -0.22822054
-0.025676832 0.13731898 -0.22828601
-0.025528667 0.13731332 -0.22836767
-0.052766003 0.137503 -0.22839299
-0.052416999 0.13752367 -0.22831833
-0.052234996 0.137512 -0.22827534
-0.052091166 0.137504 -0.22826616
-0.051908664 0.13749678 -0.22822434
-0.025709666 0.13750333 -0.22829099
-0.025521999 0.13745899 -0.228384
-0.052762002 0.137611 -0.228394
-0.0524095 0.137704 -0.22832701
-0.052225996 0.13772801 -0.22828333
-0.05208233 0.13771985 -0.22828116
-0.051899664 0.13771312 -0.22823699
-0.051654998 0.137768 -0.22820701
-0.051481001 0.13776 -0.228203
-0.025693875 0.13767563 -0.22827101
-0.025512001 0.137714 -0.228386
-0.052752003 0.137863 -0.228394
-0.052404501 0.137849 -0.2283165
-0.052278999 0.137925 -0.22830534
-0.052085996 0.13789499 -0.22829172
-0.051896375 0.13790949 -0.22825687
-0.051648334 0.13791201 -0.22821666
-0.051475 0.137904 -0.22820733
-0.02561 0.13789733 -0.22826134
-0.025484998 0.13791126 -0.22834949
-0.052739002 0.138189 -0.228392
-0.052302837 0.13809466 -0.22831048
-0.052093223 0.138081 -0.228291
-0.051920366 0.13808027 -0.22825317
-0.051642999 0.138056 -0.22821
-0.051466662 0.13812 -0.22820532
-0.025606001 0.138043 -0.228223
-0.025458334 0.138111 -0.22830151
-0.0527355 0.13829601 -0.22838449
-0.052294672 0.13831016 -0.22831084
-0.052084997 0.13829699 -0.22829278
-0.051903833 0.1382889 -0.22825108
-0.051631998 0.138344 -0.22820701
-0.051458001 0.138336 -0.228211
-0.025442803 0.13831359 -0.22828761
-0.052726999 0.138512 -0.228386
-0.0523775 0.138496 -0.22834399
-0.052105833 0.13851474 -0.22829957
-0.051913995 0.13849919 -0.22826159
-0.051695205 0.13850579 -0.2282348
-0.051452 0.13848032 -0.22821935
-0.025488334 0.13847698 -0.228257
-0.025398999 0.13850801 -0.2283455
-0.052887 0.138715 -0.228387
-0.052720334 0.13869201 -0.228384
-0.052371334 0.13867633 -0.22833432
-0.052089557 0.13870622 -0.228294
-0.051918559 0.13872367 -0.22824955
-0.051705167 0.13870867 -0.22823334
-0.051445499 0.13866 -0.2282055
-0.025478667 0.138694 -0.22828333
-0.025390333 0.13868965 -0.22837435
-0.052895285 0.13892828 -0.22837771
-0.052712332 0.13890833 -0.22836667
-0.052363664 0.13889199 -0.22831567
-0.052100182 0.1388821 -0.22827129
-0.051912162 0.13890366 -0.22823317
-0.051698498 0.138889 -0.22822198
-0.025520002 0.13891384 -0.22827852
-0.025384 0.138836 -0.22840001
-0.053055 0.13908516 -0.22838666
-0.052904502 0.13910033 -0.22835566
-0.052705664 0.139125 -0.22833866
-0.052357335 0.13910933 -0.22827135
-0.052086581 0.13909167 -0.22823109
-0.051916201 0.1390682 -0.22821181
-0.051782999 0.139001 -0.228218
-0.025512248 0.13909599 -0.22828975
-0.025374001 0.139126 -0.228366
-0.053042747 0.13927101 -0.22839475
-0.052897334 0.13928044 -0.22836044
-0.0526985 0.139305 -0.22834399
-0.05235 0.13932499 -0.22825734
-0.052095599 0.13930129 -0.22821538
-0.051972751 0.1393005 -0.22821
-0.025648 0.13932049 -0.22822601
-0.025505001 0.13927716 -0.22829968
-0.025366999 0.1393075 -0.22836301
-0.053049002 0.13943499 -0.22839899
-0.052888665 0.13949645 -0.22836709
-0.052691668 0.139485 -0.22833733
-0.052342501 0.139505 -0.22826299
-0.052097447 0.13952477 -0.22822534
-0.051975749 0.13953626 -0.22821926
-0.025639333 0.13950168 -0.22825134
-0.025520749 0.13947749 -0.22832024
-0.052880112 0.13971256 -0.22837165
-0.052683998 0.13970067 -0.22832501
-0.052334998 0.139685 -0.22827201
-0.052090168 0.13970433 -0.22823118
-0.051965337 0.13968499 -0.22822666
-0.025636001 0.13964599 -0.22820701
-0.025487499 0.139713 -0.228314
-0.052841403 0.1399112 -0.2283664
-0.052674334 0.139917 -0.22834635
-0.052326996 0.13990067 -0.22826733
-0.052083328 0.13988535 -0.22822568
-0.051917285 0.13990887 -0.22821343
-0.051748499 0.139902 -0.22821051
-0.025465334 0.13988167 -0.228287
-0.025320001 0.13994275 -0.2283725
-0.052845001 0.1400854 -0.22837059
-0.052667499 0.14009699 -0.22835
-0.052319337 0.14011599 -0.22824936
-0.052075125 0.14010988 -0.22822335
-0.0519545 0.14007549 -0.2282235
-0.051741663 0.14008234 -0.22820266
-0.025428001 0.140038 -0.22825401
-0.025293751 0.14010476 -0.22833399
-0.052858338 0.14028889 -0.22835878
-0.052661002 0.14027767 -0.22833699
-0.052312002 0.1402975 -0.22826099
-0.052066553 0.14031754 -0.22822587
-0.05194575 0.140292 -0.22822601
-0.02531125 0.14026874 -0.22829074
-0.052837498 0.14048626 -0.22835851
-0.052710794 0.14051101 -0.2283366
-0.052304666 0.14047633 -0.22826533
-0.052059997 0.14049767 -0.22822315
-0.051949669 0.140527 -0.228218
-0.025287399 0.14051959 -0.22832079
-0.052894 0.140725 -0.22836477
-0.052717667 0.1407135 -0.22833301
-0.052297 0.14069334 -0.228248
-0.052081998 0.14067934 -0.22821666
-0.051982753 0.14067325 -0.22821225
-0.025270166 0.14072333 -0.22833049
-0.053077001 0.14089459 -0.22838882
-0.0529253 0.1408858 -0.22836439
-0.052696399 0.1409142 -0.22830741
-0.052292999 0.140837 -0.22822
-0.051989999 0.140818 -0.22820599
-0.025263 0.1409045 -0.22833425
-0.053203002 0.141178 -0.22839101
-0.053078163 0.14109634 -0.22836052
-0.052908257 0.14108633 -0.22833376
-0.052720405 0.14108761 -0.2282844
-0.052282002 0.14112499 -0.228203
-0.025287874 0.14109701 -0.22831975
-0.025124 0.141078 -0.228332
-0.053112332 0.14131555 -0.22836868
-0.052900087 0.14130241 -0.22832681
-0.052698333 0.14128934 -0.2282715
-0.025302377 0.14129737 -0.22830513
-0.05309286 0.14151014 -0.22837158
-0.052891921 0.14151843 -0.22832443
-0.052689672 0.141505 -0.22827767
-0.0253196 0.1415102 -0.2282726
-0.025192 0.14159399 -0.228358
-0.053061597 0.14168739 -0.2283788
-0.052884504 0.14169851 -0.22833349
-0.05268066 0.14172132 -0.22828633
-0.052258499 0.141736 -0.228205
-0.025323499 0.14167026 -0.22824001
-0.0251885 0.14170299 -0.22833249
-0.053009 0.141886 -0.22838099
-0.052892804 0.1418723 -0.22835501
-0.052738201 0.14189759 -0.22830263
-0.052599002 0.14193401 -0.228283
-0.052251 0.14191699 -0.22822
-0.025274999 0.141849 -0.228222
-0.025137333 0.14188133 -0.22832935
-0.053002998 0.14203 -0.228396
-0.052904498 0.14209709 -0.22837332
-0.0527655 0.14208716 -0.22829534
-0.052594334 0.142078 -0.22827132
-0.052244499 0.14209649 -0.2282095
-0.025109749 0.142079 -0.22828574
-0.052868005 0.14228784 -0.22838099
-0.052755665 0.14230333 -0.22832566
-0.052584331 0.142294 -0.22829734
-0.025132 0.1423028 -0.2282826
-0.052895997 0.14250721 -0.22836611
-0.052748833 0.14251934 -0.22829749
-0.052577663 0.14251 -0.22826934
-0.052228998 0.142492 -0.22820933
-0.025161501 0.14250049 -0.228255
-0.053089 0.142701 -0.22838061
-0.052907094 0.14268099 -0.22833738
-0.052742749 0.142699 -0.22827676
-0.05257 0.14272566 -0.22825567
-0.025154665 0.14268167 -0.22824933
-0.053259667 0.14295934 -0.228377
-0.053092163 0.14290284 -0.2283415
-0.05289425 0.1428895 -0.22828364
-0.052737337 0.14287816 -0.22824301
-0.052565999 0.142868 -0.228211
-0.025145 0.14290066 -0.22827435
-0.053411499 0.1430995 -0.22839001
-0.053261399 0.14311281 -0.2283586
-0.053086001 0.14311749 -0.22829349
-0.052887082 0.14310475 -0.22825515
-0.052726198 0.14307821 -0.22820921
-0.025135001 0.14311968 -0.228301
-0.053405002 0.143279 -0.22838099
-0.0532736 0.14328662 -0.2283686
-0.053079247 0.14329749 -0.2282915
-0.052894801 0.1433145 -0.2282656
-0.052741002 0.14331976 -0.22821389
-0.025217 0.14333799 -0.22821701
-0.025125999 0.14330301 -0.228341
-0.053276855 0.14347829 -0.22836299
-0.053071167 0.14347766 -0.22831382
-0.052898001 0.14350234 -0.22827184
-0.052739568 0.14352728 -0.22821558
-0.025209665 0.14348567 -0.228257
-0.025095001 0.1435025 -0.22836223
-0.053262997 0.14370434 -0.22838533
-0.053095501 0.14370537 -0.22834837
-0.052891221 0.14368233 -0.22827178
-0.052739434 0.14369272 -0.22823186
-0.025204999 0.14363 -0.22823299
-0.025068166 0.14369833 -0.228296
-0.053072851 0.1439023 -0.22835043
-0.052881885 0.14389901 -0.2282892
-0.052723892 0.14388822 -0.22824322
-0.0525265 0.143912 -0.2282045
-0.02504175 0.143895 -0.22822726
-0.053060334 0.14408034 -0.22837101
-0.052894913 0.14412445 -0.22832127
-0.052715 0.14410444 -0.2282549
-0.052520499 0.14405599 -0.22821
-0.0250115 0.14409351 -0.22823399
-0.05308 0.144348 -0.228388
-0.052895624 0.14429951 -0.22834763
-0.052706223 0.14432156 -0.22826555
-0.025005 0.14420401 -0.22829001
-0.053111602 0.1445076 -0.22837059
-0.052890416 0.14447875 -0.22831167
-0.052713998 0.14448476 -0.22824125
-0.053436 0.144798 -0.228398
-0.053292997 0.144732 -0.22837999
-0.053114999 0.1447085 -0.22832949
-0.052900899 0.14468721 -0.22827379
-0.052739874 0.144693 -0.22822787
-0.053433001 0.14490551 -0.228367
-0.05329825 0.14489675 -0.22832951
-0.053109169 0.144923 -0.228274
-0.052913625 0.14490138 -0.22823051
-0.052777003 0.14485534 -0.22822
-0.053678002 0.1451315 -0.22838725
-0.053509664 0.14508767 -0.22836556
-0.0532935 0.1450755 -0.2282815
-0.053104252 0.1451015 -0.22823299
-0.025062501 0.145115 -0.228204
-0.0536654 0.1452986 -0.22839341
-0.053502001 0.14530344 -0.22835112
-0.05328567 0.14529151 -0.22827184
-0.053097498 0.145282 -0.22822583
-0.025054334 0.145299 -0.22822434
-0.053636 0.145455 -0.228393
-0.05348362 0.14551149 -0.22835824
-0.053276498 0.1455075 -0.22828983
-0.053088997 0.14549801 -0.2282325
-0.025048999 0.14544301 -0.228209
-0.024953 0.14555 -0.22827899
-0.053445749 0.14570099 -0.22836801
-0.053258996 0.1457098 -0.22829862
-0.053079501 0.14571418 -0.22825684
-0.052940998 0.145777 -0.22820701
-0.02495 0.145658 -0.22824299
-0.053484 0.14581101 -0.22840001
-0.053316496 0.14588249 -0.22834276
-0.053071998 0.14589524 -0.22827101
-0.052915499 0.14593799 -0.22821826
-0.053296112 0.14608976 -0.22836123
-0.053063836 0.14607666 -0.22828718
-0.052890252 0.146099 -0.228221
-0.053286999 0.14630733 -0.22838034
-0.053101886 0.14629589 -0.228321
-0.052882835 0.14627966 -0.22823119
-0.053325836 0.1465245 -0.22834651
-0.053096112 0.14651011 -0.22826654
-0.052914999 0.14642701 -0.228229
-0.053644001 0.14675701 -0.228395
-0.053514753 0.14668539 -0.2283605
-0.053322252 0.14670199 -0.228277
-0.053138249 0.1466905 -0.22822577
-0.053846002 0.14699 -0.22839101
-0.053705204 0.14692011 -0.228351
-0.053518221 0.14689 -0.22828987
-0.053327002 0.1468662 -0.22822821
-0.053183999 0.14680099 -0.22821499
-0.053871002 0.14710967 -0.22836633
-0.053703271 0.1471131 -0.22829765
-0.053513445 0.14710324 -0.22822054
-0.053878333 0.14727899 -0.22837068
-0.053712331 0.14728834 -0.22827932
-0.05351387 0.14731075 -0.22822401
-0.053869501 0.14749533 -0.22837333
-0.053696003 0.14748092 -0.22829235
-0.0535114 0.14750721 -0.2282306
-0.053818662 0.14771099 -0.22837998
-0.053686336 0.14769858 -0.228319
-0.053490113 0.14768022 -0.22823943
-0.053676665 0.14791651 -0.22834377
-0.053481001 0.1478979 -0.22825401
-0.053661 0.14808534 -0.228379
-0.053511545 0.14811146 -0.22829384
-0.053342331 0.14815734 -0.22823034
-0.053525332 0.14830367 -0.22837017
-0.053293873 0.14831562 -0.22825414
-0.0536635 0.14855 -0.228368
-0.053521555 0.14848033 -0.22830868
-0.053366251 0.14847176 -0.22823375
-0.053863999 0.1487585 -0.2283535
-0.053700339 0.14871201 -0.22830336
-0.053524498 0.14868462 -0.22823499
-0.053383999 0.148616 -0.228202
-0.054069337 0.148928 -0.22835965
-0.053920597 0.14888181 -0.2283242
-0.053698663 0.14890055 -0.22823244
-0.054077167 0.14909734 -0.22835501
-0.053905666 0.1490805 -0.2282685
-0.053773668 0.149073 -0.228213
-0.054069832 0.14931284 -0.22833534
-0.0538975 0.14929633 -0.22825968
-0.053762998 0.149361 -0.22820701
-0.0540528 0.14951479 -0.2283442
-0.053888664 0.14951366 -0.22827084
-0.053741001 0.14952424 -0.22821175
-0.054061402 0.14969179 -0.22837381
-0.053880252 0.14969625 -0.2283005
-0.05369062 0.14972875 -0.22822025
-0.053587001 0.149782 -0.22820599
-0.054005001 0.149854 -0.22837999
-0.053871501 0.14987884 -0.22833182
-0.053681999 0.14990149 -0.22824602
-0.053582497 0.149891 -0.22822
-0.053836748 0.1500795 -0.22837701
-0.053672668 0.15008555 -0.22829543
-0.053517856 0.15009986 -0.22824359
-0.053661559 0.15030611 -0.22834976
-0.053510115 0.150288 -0.22827911
-0.053357001 0.15027617 -0.2282235
-0.053690333 0.15052192 -0.22831702
-0.053510372 0.15049487 -0.22825088
-0.05339 0.15042 -0.22821701
-0.054051999 0.150765 -0.228397
-0.053908996 0.15069801 -0.22837201
-0.053715333 0.15070133 -0.2282695
-0.053575002 0.1506895 -0.22823323
-0.054047 0.15090901 -0.22837766
-0.053924832 0.15089533 -0.22832818
-0.053730715 0.150869 -0.22823143
-0.054040331 0.15112267 -0.228339
-0.053918004 0.15110934 -0.22829215
-0.053752333 0.15109502 -0.22820668
-0.054032497 0.15130401 -0.228359
-0.053901397 0.15131201 -0.22829881
-0.053728834 0.15131266 -0.22821933
-0.054026 0.1514505 -0.22837749
-0.053909399 0.15149 -0.22834161
-0.053676147 0.15150814 -0.22823158
-0.053565502 0.15155751 -0.22822049
-0.053871248 0.151675 -0.22836825
-0.053685375 0.15168652 -0.22828099
-0.053535253 0.1517005 -0.22823474
-0.053685427 0.15189059 -0.2283497
-0.053518999 0.15189053 -0.22827135
-0.053361498 0.151939 -0.22821599
-0.053649999 0.15204699 -0.228388
-0.053514421 0.15210618 -0.22833149
-0.05331767 0.152087 -0.22826321
-0.053158 0.152153 -0.22823299
-0.053443998 0.15230225 -0.228358
-0.05330544 0.15231089 -0.22833946
-0.053106334 0.15229632 -0.22824633
-0.053423002 0.15250149 -0.2283645
-0.053289246 0.15251876 -0.22833487
-0.053108402 0.1524974 -0.22823398
-0.053441167 0.15268449 -0.22837014
-0.053302143 0.15269029 -0.22829986
-0.053136997 0.152695 -0.22823
-0.05345789 0.15290278 -0.22835466
-0.053286217 0.1528849 -0.22827744
-0.0531325 0.15283799 -0.22820899
-0.053450286 0.15309928 -0.228358
-0.053288706 0.15311198 -0.22830281
-0.053076502 0.15309051 -0.22822732
-0.024749 0.153174 -0.228211
-0.053468 0.15323499 -0.2283935
-0.053323712 0.15330657 -0.22834344
-0.053109106 0.15331511 -0.2282861
-0.05288 0.1533695 -0.2282045
-0.02467325 0.1533055 -0.22829475
-0.053305667 0.15344967 -0.22837834
-0.053100001 0.1535005 -0.22833084
-0.052862 0.1535048 -0.2282664
-0.052683502 0.1535805 -0.22822249
-0.024642 0.15350801 -0.228319
-0.053034335 0.15363267 -0.228356
-0.052891832 0.15369849 -0.22835433
-0.052676752 0.15369299 -0.22826976
-0.052509286 0.15373786 -0.22824873
-0.052391998 0.15378299 -0.228229
-0.024636 0.15369 -0.22830065
-0.052804999 0.153817 -0.22838099
-0.052657403 0.15386578 -0.22833559
-0.052491501 0.15390582 -0.22832517
-0.052327003 0.15390514 -0.22825757
-0.052134 0.15398601 -0.228227
-0.024673 0.15390982 -0.22827917
-0.052611001 0.154063 -0.2283805
-0.052475251 0.154083 -0.2283785
-0.052331626 0.15408587 -0.22830851
-0.052127 0.15409949 -0.22828001
-0.051775001 0.15418699 -0.228218
-0.024662249 0.1541 -0.22834751
-0.052316666 0.154227 -0.22836702
-0.052116334 0.15428767 -0.22834735
-0.051769502 0.1542985 -0.22824049
-0.051583 0.154393 -0.22820801
-0.024874 0.15435401 -0.22822
-0.024759335 0.15428366 -0.22830667
-0.052107498 0.15447199 -0.228386
-0.051760331 0.15448301 -0.22827768
-0.051487125 0.15449974 -0.22825474
-0.051306397 0.15452519 -0.22821741
-0.051178999 0.1545535 -0.22822499
-0.025056001 0.154581 -0.22822499
-0.024904799 0.15452 -0.2282702
-0.0247775 0.15447551 -0.228377
-0.051747669 0.15470867 -0.22836266
-0.051504113 0.15468945 -0.22832023
-0.051329639 0.1546841 -0.22827497
-0.0511715 0.15470201 -0.2282615
-0.050907999 0.15472299 -0.22823176
-0.05043 0.15477 -0.228205
-0.025074333 0.15470767 -0.22825234
-0.024922 0.15468299 -0.22832699
-0.051492885 0.15491189 -0.22837469
-0.051312167 0.15489917 -0.22831786
-0.051162001 0.154888 -0.228301
-0.050917398 0.15488701 -0.22826381
-0.050469 0.15493439 -0.228229
-0.050337832 0.15493734 -0.22822583
-0.0501315 0.1549345 -0.22821051
-0.025443001 0.154967 -0.22823299
-0.0252885 0.15492651 -0.22826001
-0.025136 0.15486433 -0.22830701
-0.051548 0.155065 -0.228396
-0.05128222 0.15510678 -0.22837633
-0.051149998 0.15511365 -0.228374
-0.050907601 0.15507999 -0.22831421
-0.050799001 0.155165 -0.228339
-0.050471254 0.15510699 -0.22828175
-0.050311167 0.15509601 -0.22826165
-0.050122667 0.15512033 -0.228247
-0.049858999 0.15511332 -0.22823234
-0.049548998 0.15511476 -0.22821724
-0.049373999 0.15515551 -0.2282085
-0.025691668 0.155104 -0.228221
-0.025488667 0.155101 -0.22830467
-0.025280001 0.155044 -0.22833601
-0.050967 0.15525 -0.228387
-0.050794002 0.155242 -0.228365
-0.050473202 0.1552816 -0.22834519
-0.050310601 0.15529309 -0.22832933
-0.050111499 0.1553115 -0.228332
-0.049848501 0.155303 -0.2283015
-0.049491603 0.15530279 -0.22827598
-0.049347375 0.15531501 -0.22826135
-0.049098667 0.155288 -0.22824533
-0.048836 0.15531451 -0.228228
-0.048678998 0.155321 -0.22823167
-0.048495334 0.15533501 -0.22823
-0.048284501 0.15535849 -0.22822
-0.048060998 0.15538999 -0.22822
-0.047885999 0.15537934 -0.22822367
-0.047647499 0.15537199 -0.2282325
-0.047458995 0.15536301 -0.228227
-0.047013 0.15533499 -0.228223
-0.046883501 0.15533 -0.2282155
-0.046758499 0.15536049 -0.22823
-0.046499003 0.1553455 -0.22823749
-0.046273001 0.15537301 -0.228227
-0.045968998 0.155358 -0.22820599
-0.045673002 0.15532033 -0.22822499
-0.045470666 0.15530999 -0.22821267
-0.045338999 0.15533149 -0.22822399
-0.044906501 0.15536401 -0.22822124
-0.044734001 0.155379 -0.228247
-0.044471666 0.15536599 -0.22823501
-0.044290334 0.15534635 -0.22821434
-0.025958667 0.15529133 -0.22829068
-0.025741667 0.15524267 -0.228332
-0.025589 0.155213 -0.228393
-0.050232999 0.155431 -0.228397
-0.050104 0.155425 -0.22839101
-0.049841002 0.15541799 -0.22836199
-0.049494501 0.15547299 -0.22836348
-0.049319994 0.15548959 -0.22835879
-0.049087003 0.155479 -0.228338
-0.048824999 0.155471 -0.22833399
-0.048684668 0.15550284 -0.22833617
-0.048484668 0.15549111 -0.22832555
-0.048274003 0.155515 -0.22831801
-0.048053 0.15550649 -0.228293
-0.047919501 0.155499 -0.22830799
-0.047739252 0.15549451 -0.22831875
-0.047516495 0.15551101 -0.22830625
-0.0472994 0.1554912 -0.22830081
-0.047006499 0.15545 -0.228283
-0.046891429 0.15549585 -0.2283067
-0.046747997 0.15551651 -0.228329
-0.046488751 0.15550175 -0.22833151
-0.046265502 0.1554895 -0.228295
-0.045958001 0.15551467 -0.22830933
-0.04569767 0.15550067 -0.22830266
-0.045510445 0.15549323 -0.22830778
-0.045321997 0.155494 -0.22830449
-0.04489683 0.15550168 -0.22831766
-0.044724002 0.1554995 -0.228347
-0.044484332 0.15549684 -0.22831549
-0.04434175 0.15552074 -0.22833337
-0.044191003 0.15549634 -0.22831
-0.043941002 0.15548667 -0.228284
-0.043510001 0.15550116 -0.22827633
-0.043300997 0.15548901 -0.22825563
-0.043074001 0.155517 -0.22828634
-0.042863 0.15549141 -0.228266
-0.042681567 0.15551043 -0.228287
-0.042488251 0.15552825 -0.2282795
-0.042318124 0.15551563 -0.22827651
-0.042071 0.155505 -0.22826549
-0.041896246 0.15549774 -0.22826049
-0.041712247 0.155486 -0.22824
-0.04150233 0.15555434 -0.22828066
-0.041354999 0.155549 -0.228283
-0.041073002 0.1555275 -0.228237
-0.040699333 0.15555 -0.22825432
-0.040449001 0.15553001 -0.228203
-0.040306501 0.15556201 -0.22821149
-0.040013 0.15558501 -0.228229
-0.026287001 0.15550599 -0.22822459
-0.025946999 0.15551901 -0.22836001
-0.048266001 0.155633 -0.228395
-0.048044998 0.155625 -0.22837999
-0.047867998 0.15561099 -0.228377
-0.047730997 0.1556115 -0.228386
-0.047502998 0.1556 -0.228379
-0.046417002 0.15561301 -0.228369
-0.043930002 0.155645 -0.22838201
-0.043501001 0.15562068 -0.228365
-0.043286003 0.1556226 -0.2283448
-0.042888001 0.155669 -0.228396
-0.042606 0.155654 -0.228386
-0.042478502 0.1556495 -0.2283875
-0.0423095 0.155634 -0.22836375
-0.042061001 0.155626 -0.228374
-0.041887499 0.155616 -0.228347
-0.0417035 0.15560499 -0.2283275
-0.041568998 0.155681 -0.228392
-0.041317999 0.155669 -0.228383
-0.041060999 0.15568849 -0.228365
-0.040693 0.155632 -0.22832566
-0.040502202 0.155664 -0.22831878
-0.0403262 0.1556558 -0.2283216
-0.040006001 0.155669 -0.228319
-0.03974 0.155691 -0.2282985
-0.039480601 0.1557128 -0.2282882
-0.039310001 0.15574534 -0.22831833
-0.039138 0.1557315 -0.22826299
-0.038699001 0.15574199 -0.22824001
-0.038486999 0.1557315 -0.2282185
-0.038307 0.155762 -0.22823101
-0.037636001 0.155763 -0.22820701
-0.026475666 0.15572466 -0.22822399
-0.026296999 0.1556886 -0.22827101
-0.039461002 0.155801 -0.228395
-0.039248999 0.15585899 -0.228388
-0.039128002 0.155853 -0.228366
-0.038692001 0.15582401 -0.228324
-0.038490001 0.155843 -0.22833501
-0.038268667 0.15588166 -0.22833999
-0.03785 0.15585449 -0.2283055
-0.037655335 0.15587632 -0.228332
-0.037478287 0.15590514 -0.22832787
-0.037326999 0.1559218 -0.2283338
-0.037111331 0.15589465 -0.22830033
-0.036489196 0.1558876 -0.2282484
-0.036258668 0.15594535 -0.22825867
-0.036008999 0.15590701 -0.228222
-0.035691999 0.155898 -0.22822401
-0.034654997 0.15599349 -0.22823849
-0.034518 0.155984 -0.228218
-0.03432025 0.155975 -0.22825326
-0.034198001 0.155959 -0.22820599
-0.026800999 0.15590499 -0.22820599
-0.026679667 0.15593201 -0.22824152
-0.026478665 0.15590416 -0.22828667
-0.026275001 0.15590316 -0.22835965
-0.034649998 0.1560725 -0.22828349
-0.034511 0.156068 -0.22831
-0.034295503 0.15608351 -0.228351
-0.034127001 0.15607934 -0.22830516
-0.033925749 0.15607101 -0.2282785
-0.033692751 0.15606101 -0.22828576
-0.033596002 0.156178 -0.228376
-0.033305891 0.15608843 -0.22829045
-0.03313167 0.156111 -0.22823466
-0.032761 0.156085 -0.22824401
-0.032486599 0.15614459 -0.2282656
-0.032354999 0.15614866 -0.22823034
-0.032111999 0.156167 -0.228275
-0.031854998 0.156149 -0.22821499
-0.031684998 0.156141 -0.228201
-0.027052 0.15614 -0.22822601
-0.026924999 0.15609899 -0.22822824
-0.026701666 0.1560975 -0.22829084
-0.026482001 0.15608267 -0.22834599
-0.032536 0.156233 -0.228315
-0.032339498 0.15625 -0.22826651
-0.0277455 0.1562545 -0.22824299
-0.02751 0.156241 -0.228202
-0.027317332 0.15628733 -0.228293
-0.027083 0.15625875 -0.228293
-0.026914999 0.15625525 -0.22831298
-0.026754335 0.15624101 -0.22835533
-0.026549 0.15621251 -0.22837651
-0.032269999 0.1271385 -0.22819
-0.031964999 0.127121 -0.228193
-0.031790502 0.1271525 -0.22816199
-0.031528998 0.127178 -0.228121
-0.031339999 0.12712501 -0.2281525
-0.0311395 0.12711149 -0.22817299
-0.030960999 0.12710151 -0.22816849
-0.030688999 0.127123 -0.22817799
-0.0304875 0.12715317 -0.22816533
-0.030328168 0.12715267 -0.22814983
-0.030141 0.127167 -0.228172
-0.033345751 0.127327 -0.22819024
-0.0328748 0.12730961 -0.22815418
-0.032672498 0.12731116 -0.22815751
-0.032450501 0.1272995 -0.22815001
-0.0322675 0.12729 -0.22812301
-0.032150999 0.12728435 -0.22811134
-0.031963333 0.12727267 -0.22810768
-0.031787001 0.12730201 -0.2281085
-0.031525001 0.12732567 -0.22808135
-0.031336669 0.12731355 -0.22806713
-0.031136334 0.12729932 -0.228083
-0.030957999 0.12729067 -0.22807266
-0.030687667 0.12727566 -0.22807933
-0.030485002 0.12730382 -0.22809665
-0.0302958 0.12731031 -0.22808401
-0.030139334 0.12731899 -0.22808667
-0.029729251 0.12733024 -0.22814749
-0.029594 0.127352 -0.22819699
-0.033311918 0.12748991 -0.22817482
-0.03292875 0.12747325 -0.228135
-0.0326938 0.12750539 -0.2281194
-0.032467 0.12750325 -0.2281225
-0.032294624 0.12752062 -0.22809513
-0.032143336 0.12750301 -0.22809534
-0.031955667 0.127492 -0.22808732
-0.031781331 0.12748735 -0.22807533
-0.031517997 0.127508 -0.228075
-0.031330168 0.12749533 -0.22805484
-0.031129666 0.12752001 -0.228046
-0.030951334 0.12751099 -0.22803666
-0.030681333 0.12749766 -0.22802933
-0.030480333 0.1274889 -0.228044
-0.030313101 0.12749019 -0.22803561
-0.030134 0.12750301 -0.22804999
-0.029725665 0.12751782 -0.22807266
-0.029593 0.127506 -0.22808833
-0.029308502 0.12751999 -0.22813901
-0.029167 0.12754799 -0.228155
-0.033663332 0.12770666 -0.228191
-0.033477999 0.12771888 -0.22817966
-0.033304583 0.12770942 -0.22815008
-0.032964334 0.12769599 -0.22810601
-0.032705445 0.12768076 -0.22810245
-0.032483499 0.1277065 -0.22808999
-0.032288142 0.12770915 -0.22807984
-0.032136004 0.12772232 -0.22806935
-0.031948667 0.12771232 -0.22805066
-0.031774331 0.12770666 -0.22804166
-0.031512666 0.127691 -0.22804467
-0.031324446 0.12767866 -0.22802714
-0.0311235 0.127703 -0.2280225
-0.030944999 0.1276935 -0.22801599
-0.030675501 0.12768 -0.22800601
-0.030474333 0.12767266 -0.22801401
-0.030269001 0.12764841 -0.2280138
-0.030129999 0.12764999 -0.2280165
-0.0297205 0.12770276 -0.2280245
-0.0295875 0.12769 -0.2280485
-0.029305667 0.127708 -0.22805698
-0.029122001 0.12769683 -0.22808433
-0.028917398 0.1277274 -0.22813658
-0.028711 0.12774301 -0.2282
-0.034308333 0.12795667 -0.22818333
-0.034132998 0.12797 -0.22818699
-0.033858333 0.12788366 -0.22818367
-0.033644665 0.12787817 -0.228154
-0.033472333 0.12790233 -0.22814785
-0.033298999 0.12789349 -0.22811775
-0.032956999 0.12791432 -0.22808801
-0.032698557 0.12790178 -0.228064
-0.032478001 0.12789133 -0.228054
-0.032304123 0.12788862 -0.22803862
-0.032131001 0.12790699 -0.22803101
-0.031943001 0.127896 -0.228018
-0.031769998 0.127854 -0.22801299
-0.031507999 0.127838 -0.228019
-0.029702 0.12783635 -0.22800666
-0.029585 0.127801 -0.228012
-0.029299501 0.12789151 -0.22803101
-0.029114665 0.12791683 -0.22804832
-0.028895779 0.12790377 -0.22809523
-0.028660499 0.12788917 -0.22814882
-0.028469 0.12794501 -0.228186
-0.028331 0.127937 -0.228184
-0.036279 0.128168 -0.228191
-0.035452001 0.12815699 -0.2281585
-0.035305377 0.12814838 -0.228138
-0.035108998 0.128139 -0.2281415
-0.034919251 0.1281285 -0.228148
-0.034695499 0.1281155 -0.228166
-0.034437001 0.1281015 -0.22817075
-0.034320667 0.12809449 -0.22813134
-0.034130335 0.12811933 -0.22811998
-0.033854 0.12810834 -0.22809267
-0.033682998 0.12806749 -0.2280765
-0.033492636 0.1280849 -0.22806954
-0.033304442 0.12805679 -0.22804411
-0.032953002 0.12806199 -0.228038
-0.032739498 0.1280525 -0.2280155
-0.032212 0.128021 -0.228008
-0.029110501 0.1280645 -0.228011
-0.0288742 0.1280808 -0.22804561
-0.028655834 0.12811333 -0.22806601
-0.028465668 0.12809466 -0.228131
-0.028285 0.1280946 -0.2281436
-0.028098499 0.12813801 -0.22818351
-0.027877999 0.128197 -0.22817799
-0.027745999 0.12819549 -0.22817001
-0.037657999 0.128388 -0.228186
-0.037490997 0.12837867 -0.228191
-0.037299 0.1283325 -0.22817799
-0.037080999 0.12835801 -0.22816999
-0.036809001 0.12835 -0.228157
-0.036676001 0.128343 -0.22814399
-0.036464665 0.12830435 -0.228137
-0.036277667 0.128318 -0.22810334
-0.036048669 0.12830333 -0.22813433
-0.035726599 0.12830439 -0.22809859
-0.035515148 0.1282983 -0.22806215
-0.035304252 0.12830025 -0.22803974
-0.035098601 0.1283118 -0.22804698
-0.034919001 0.12824351 -0.2280575
-0.034696002 0.128231 -0.22806001
-0.034428332 0.128241 -0.22806334
-0.034320001 0.12820834 -0.22804798
-0.03413 0.128272 -0.228016
-0.028274499 0.128232 -0.22803101
-0.028099749 0.12825599 -0.22806676
-0.0279318 0.12829499 -0.2280834
-0.027744751 0.12830901 -0.22811452
-0.027569002 0.12830834 -0.228154
-0.027350999 0.1283915 -0.22819099
-0.038176998 0.128562 -0.2282
-0.037929665 0.12847567 -0.228185
-0.0376545 0.128499 -0.228163
-0.037532002 0.12849225 -0.22817151
-0.037345998 0.12851785 -0.2281545
-0.037077665 0.12850566 -0.22812468
-0.036805335 0.128498 -0.22811334
-0.036672335 0.12849167 -0.22810133
-0.0364815 0.1284795 -0.22808333
-0.036273003 0.1285035 -0.228046
-0.036045 0.12849051 -0.228053
-0.03573167 0.12851299 -0.22802784
-0.035495445 0.12849711 -0.22801723
-0.03529875 0.12844801 -0.228008
-0.035147998 0.12840401 -0.22801299
-0.027917499 0.12850134 -0.22803016
-0.027739666 0.12849283 -0.22807349
-0.0275515 0.12847933 -0.22811817
-0.02734825 0.12850076 -0.22816625
-0.039271999 0.12876999 -0.228196
-0.038907498 0.12874749 -0.22818249
-0.038686 0.128737 -0.22818901
-0.038513429 0.12870686 -0.22818172
-0.038345996 0.12871699 -0.22816099
-0.038173001 0.12870966 -0.22816433
-0.037923004 0.12869567 -0.22814266
-0.037648998 0.128683 -0.22812967
-0.037526999 0.12867667 -0.22813018
-0.037340999 0.128701 -0.2281145
-0.037072003 0.1286895 -0.228095
-0.036802001 0.128646 -0.228064
-0.036698997 0.128723 -0.22805111
-0.036474671 0.12869933 -0.22804533
-0.036269002 0.12865049 -0.22801299
-0.036040999 0.12863749 -0.228016
-0.035776 0.12866101 -0.22801501
-0.027909666 0.12871982 -0.22801767
-0.027731834 0.12871301 -0.22805333
-0.0275445 0.12869917 -0.2280875
-0.027342668 0.12868534 -0.22813083
-0.039654002 0.12893599 -0.228186
-0.039481498 0.12894699 -0.22818026
-0.039269 0.12891868 -0.22813666
-0.038904 0.12889516 -0.22814266
-0.038726669 0.12888682 -0.22814701
-0.038526125 0.12888612 -0.22812973
-0.038341001 0.12890151 -0.228113
-0.038167998 0.12889451 -0.22811401
-0.037918001 0.12891667 -0.22807866
-0.037643 0.12890367 -0.22807066
-0.037521336 0.12889834 -0.22806285
-0.037336167 0.12888616 -0.22805883
-0.037067335 0.12887368 -0.228038
-0.036706001 0.12886101 -0.22802
-0.036470003 0.1288455 -0.2280145
-0.027888333 0.128888 -0.22801299
-0.02772525 0.128894 -0.2280435
-0.027536333 0.12891734 -0.22808135
-0.027334498 0.12890299 -0.22812466
-0.041636001 0.129198 -0.22817101
-0.041480668 0.12918733 -0.22814834
-0.04129 0.129153 -0.228145
-0.041044001 0.12912449 -0.228156
-0.040778998 0.12911251 -0.228148
-0.040509164 0.12910849 -0.22815984
-0.040321402 0.12910759 -0.22813621
-0.040176999 0.129116 -0.228137
-0.039827663 0.129094 -0.228112
-0.039652001 0.12908666 -0.228104
-0.039503377 0.12909013 -0.22809836
-0.039266501 0.12910751 -0.22803
-0.038900502 0.12908225 -0.228057
-0.038723499 0.12907425 -0.228057
-0.038534749 0.12904751 -0.22803874
-0.038339 0.12905151 -0.22803199
-0.038166001 0.1290445 -0.2280385
-0.027853999 0.129007 -0.228007
-0.027718669 0.12907667 -0.228034
-0.027530249 0.12910001 -0.22805774
-0.027317399 0.129107 -0.22810897
-0.042644501 0.12932301 -0.22818924
-0.04246911 0.12933178 -0.22818388
-0.042351663 0.12931132 -0.22816233
-0.042094667 0.12929267 -0.22817266
-0.041813668 0.12928 -0.228146
-0.041688599 0.12928858 -0.22814579
-0.041477334 0.129297 -0.22812568
-0.0412938 0.1293112 -0.22809581
-0.041039664 0.12931067 -0.22809
-0.040774669 0.12929834 -0.22807901
-0.040494364 0.12927537 -0.22807644
-0.040340833 0.12929817 -0.22806066
-0.040173002 0.12930149 -0.228064
-0.039823331 0.12931633 -0.22802234
-0.039647337 0.12930934 -0.22802234
-0.039490331 0.12932767 -0.22800668
-0.027695665 0.12924565 -0.22801633
-0.0275172 0.12926701 -0.22803697
-0.027331401 0.12928478 -0.22808242
-0.026969001 0.12938599 -0.228194
-0.043533999 0.129591 -0.228195
-0.043278333 0.12949884 -0.22818284
-0.043069333 0.12953867 -0.22819066
-0.042908251 0.12952 -0.22818625
-0.042732604 0.1294876 -0.2281874
-0.042502139 0.12949415 -0.22817142
-0.042362671 0.12950432 -0.22817166
-0.042087663 0.12951134 -0.22813798
-0.041805338 0.12949766 -0.22813798
-0.041672666 0.12949251 -0.22811599
-0.041470893 0.12947856 -0.22811212
-0.0413092 0.129485 -0.22810319
-0.041033499 0.129492 -0.22806701
-0.040766999 0.12951566 -0.22806567
-0.040507443 0.129502 -0.22805078
-0.040342554 0.12949322 -0.22803722
-0.040167335 0.12948467 -0.22803967
-0.039816998 0.129499 -0.22800851
-0.039643001 0.129455 -0.228003
-0.039490499 0.12944901 -0.228003
-0.027318999 0.1294165 -0.2280315
-0.026967499 0.1294995 -0.22812501
-0.026776999 0.129527 -0.22818699
-0.043622501 0.129704 -0.228193
-0.043506667 0.12971033 -0.22819233
-0.043270003 0.12971616 -0.22817816
-0.043067798 0.12972221 -0.22818279
-0.042901833 0.12970166 -0.22817467
-0.04271717 0.12969033 -0.22816665
-0.042512223 0.1296811 -0.22816423
-0.042365339 0.12967382 -0.22816901
-0.042080998 0.129692 -0.22813299
-0.041709222 0.12971145 -0.22811133
-0.041482288 0.12968715 -0.22809386
-0.041317623 0.12969825 -0.22808187
-0.041027334 0.12967367 -0.22805667
-0.040760502 0.129697 -0.228055
-0.040500332 0.12971978 -0.22802609
-0.040350284 0.12970085 -0.22803228
-0.040159669 0.12970267 -0.22802033
-0.039811499 0.12964401 -0.228003
-0.026966 0.12964949 -0.228045
-0.026736598 0.1296878 -0.22813459
-0.026589502 0.129695 -0.2281785
-0.044209003 0.129953 -0.22818799
-0.044069 0.129979 -0.22819699
-0.043826502 0.12991324 -0.22819026
-0.043650802 0.12990001 -0.2281878
-0.043488503 0.12987833 -0.2281865
-0.043312997 0.12990628 -0.22817086
-0.043070503 0.12989101 -0.22816075
-0.04289417 0.12991935 -0.22815482
-0.042709332 0.12990834 -0.22815084
-0.042504776 0.12989846 -0.22814611
-0.042357665 0.12989134 -0.22815233
-0.042073999 0.12987401 -0.228126
-0.041689146 0.12990741 -0.22810373
-0.041488167 0.12991667 -0.22807418
-0.041319329 0.12990779 -0.22806856
-0.041019335 0.12989201 -0.22803867
-0.040754337 0.12987834 -0.22803633
-0.040493499 0.12990099 -0.22801702
-0.040354248 0.12989351 -0.22802477
-0.040151667 0.12991899 -0.22801368
-0.026714001 0.12987959 -0.22806379
-0.02654325 0.129895 -0.2281325
-0.044927001 0.13017499 -0.22819801
-0.044498667 0.13015066 -0.22818701
-0.04427084 0.130115 -0.22817899
-0.044065665 0.13012566 -0.22816199
-0.043891996 0.13011967 -0.22813334
-0.043701671 0.13010855 -0.22814155
-0.043481838 0.13009767 -0.22814749
-0.043312501 0.13008508 -0.22812416
-0.043065336 0.13007416 -0.22812183
-0.042888246 0.13010201 -0.22812876
-0.042693801 0.13011119 -0.22813082
-0.042497329 0.13011712 -0.22812231
-0.042351004 0.13011134 -0.22811401
-0.042066664 0.13009132 -0.22810733
-0.041707247 0.13008387 -0.22808275
-0.041482247 0.13009825 -0.22805426
