# .PCD v0.7 - Point Cloud Data file format
VERSION 0.7
FIELDS x y z
SIZE 4 4 4
TYPE F F F
COUNT 1 1 1
WIDTH 1357
HEIGHT 1
VIEWPOINT 0 0 0 1 0 0 0
POINTS 1357
DATA ascii
-0.050468002 -0.010587 -0.25967801
-0.050464999 -0.010511 -0.25967801
-0.050462998 -0.010435 -0.25967199
-0.050459001 -0.010359 -0.25967199
-0.050455999 -0.010281 -0.25968
-0.050452001 -0.010205 -0.259691
-0.050448999 -0.010129 -0.25969899
-0.050446 -0.010051 -0.25970101
-0.050443001 -0.0099750003 -0.25969899
-0.050439999 -0.0098989997 -0.25969699
-0.050437 -0.0098230001 -0.25969601
-0.050434001 -0.0097470004 -0.25969601
-0.050430998 -0.0096709998 -0.25969601
-0.050427999 -0.0095950002 -0.25969201
-0.050425 -0.0095189996 -0.25968999
-0.050422002 -0.0094410004 -0.259693
-0.050418001 -0.0093649998 -0.25970101
-0.050415002 -0.0092869997 -0.259709
-0.050411999 -0.0092110001 -0.259709
-0.050409 -0.0091350004 -0.259709
-0.050404999 -0.0090589998 -0.25971401
-0.050402001 -0.0089830002 -0.25971401
-0.050399002 -0.0089050001 -0.259716
-0.050395999 -0.0088290004 -0.259718
-0.050393 -0.0087529998 -0.25972
-0.050390001 -0.0086770002 -0.259718
-0.050386999 -0.0086009996 -0.25971699
-0.050384 -0.008525 -0.25971499
-0.050381001 -0.0084490003 -0.25971699
-0.050377999 -0.0083710002 -0.25971901
-0.050375 -0.0082959998 -0.259711
-0.050372001 -0.0082219997 -0.25970599
-0.050368998 -0.0081439996 -0.25970599
-0.050365999 -0.008068 -0.25971001
-0.050363 -0.0079920003 -0.25970799
-0.050360002 -0.0079159997 -0.25970501
-0.050356999 -0.0078400001 -0.259709
-0.050354 -0.007762 -0.25971299
-0.050351001 -0.0076859999 -0.25971299
-0.050347999 -0.0076100002 -0.259711
-0.050345 -0.0075340001 -0.25971001
-0.050340999 -0.007456 -0.25971401
-0.050338 -0.0073799998 -0.25972399
-0.050333999 -0.0073020002 -0.25973001
-0.050331 -0.0072260001 -0.25972801
-0.050329 -0.00715 -0.259718
-0.050326001 -0.0070739998 -0.25971299
-0.050322998 -0.0069980002 -0.25971699
-0.050319001 -0.0069200001 -0.259729
-0.050315998 -0.006844 -0.259729
-0.050313 -0.0067679998 -0.25972101
-0.050310999 -0.0066920002 -0.25971401
-0.050308 -0.0066169999 -0.25970399
-0.050305001 -0.0065410002 -0.2597
-0.050301999 -0.0064650001 -0.2597
-0.050299 -0.006389 -0.25969601
-0.050296001 -0.0063129999 -0.25969699
-0.050292999 -0.0062350002 -0.25969499
-0.050291002 -0.0061590001 -0.259689
-0.050287999 -0.006085 -0.25968301
-0.050285 -0.0060069999 -0.25967899
-0.050282001 -0.0059310002 -0.259682
-0.050278001 -0.0058530001 -0.25968599
-0.050275002 -0.005777 -0.25968599
-0.050271999 -0.0057009999 -0.259684
-0.050269999 -0.005626 -0.259682
-0.050267 -0.0055499999 -0.25967899
-0.050264001 -0.0054739998 -0.25967699
-0.050260998 -0.0053980001 -0.259675
-0.050257999 -0.00532 -0.259673
-0.050255001 -0.0052439999 -0.259675
-0.050252002 -0.0051679998 -0.25966999
-0.050248999 -0.0050920001 -0.25966001
-0.050246 -0.005016 -0.25965399
-0.050244 -0.0049410001 -0.25965199
-0.050239999 -0.004865 -0.259655
-0.050237 -0.0047889999 -0.259655
-0.050235 -0.0047129998 -0.25964299
-0.050232999 -0.0046390002 -0.25962499
-0.05023 -0.0045639998 -0.259615
-0.050227001 -0.0044860002 -0.25962001
-0.050223999 -0.0044100001 -0.25961599
-0.050221 -0.0043339999 -0.259608
-0.050218001 -0.0042579998 -0.259608
-0.050214998 -0.0041820002 -0.259606
-0.050213002 -0.0041060001 -0.259597
-0.050209999 -0.00403 -0.25958499
-0.050207 -0.0039550001 -0.259583
-0.050204001 -0.003879 -0.25958499
-0.050200999 -0.0038010001 -0.259581
-0.050198998 -0.003727 -0.25957599
-0.050195999 -0.0036510001 -0.259572
-0.050193001 -0.003573 -0.25956801
-0.050190002 -0.0034970001 -0.25956601
-0.050186999 -0.003421 -0.259565
-0.050184 -0.0033450001 -0.259563
-0.050181001 -0.003267 -0.259565
-0.050177 -0.0031910001 -0.25957099
-0.050174002 -0.003113 -0.25957099
-0.050170999 -0.0030370001 -0.25956899
-0.050168 -0.002961 -0.25956801
-0.050165001 -0.0028850001 -0.25956801
-0.050161999 -0.002807 -0.259572
-0.050159 -0.0027310001 -0.25957599
-0.050154999 -0.0026529999 -0.25958401
-0.050152 -0.0025770001 -0.259583
-0.050149001 -0.0024989999 -0.25958899
-0.050145 -0.002421 -0.259601
-0.050142001 -0.0023429999 -0.25960699
-0.050138 -0.002267 -0.25961301
-0.050135002 -0.0021889999 -0.259617
-0.050131999 -0.002113 -0.25961399
-0.050129 -0.0020349999 -0.25962201
-0.050124999 -0.001957 -0.25963399
-0.050122 -0.001878 -0.25964001
-0.050117999 -0.001802 -0.259644
-0.050115 -0.001726 -0.259646
-0.050112002 -0.001648 -0.25964701
-0.050108999 -0.00157 -0.259655
-0.050105002 -0.001492 -0.25966501
-0.050101001 -0.0014140001 -0.259671
-0.050097998 -0.001336 -0.25968501
-0.050094001 -0.001255 -0.25970501
-0.050089002 -0.001177 -0.25972301
-0.050085999 -0.001099 -0.259734
-0.050082002 -0.001021 -0.25974199
-0.050078999 -0.00094300002 -0.25974801
-0.050074998 -0.00086199999 -0.259772
-0.050069999 -0.00078200002 -0.25979999
-0.050066002 -0.00070099998 -0.25982201
-0.050062001 -0.00062100001 -0.25984001
-0.050057001 -0.00053999998 -0.259866
-0.050051998 -0.00046000001 -0.25989801
-0.050048001 -0.000379 -0.259922
-0.050043002 -0.00029600001 -0.25995201
-0.050037999 -0.000214 -0.25999799
-0.050032001 -0.00013099999 -0.26003999
-0.050027002 -4.6000001e-05 -0.26008001
-0.050021 3.8999999e-05 -0.26013201
-0.050016001 0.000122 -0.260178
-0.050011002 0.000205 -0.26020399
-0.050005998 0.00028499999 -0.26023799
-0.050000001 0.00037299999 -0.26029599
-0.049993999 0.00046000001 -0.26035801
-0.049988002 0.00054500002 -0.26041001
-0.049982 0.00063000002 -0.26045799
-0.049977001 0.00071300002 -0.26049799
-0.049970999 0.00079800002 -0.26053599
-0.049966 0.00088000001 -0.26057801
-0.050581001 -0.023195 -0.260681
-0.050583001 -0.023117 -0.26057699
-0.050583001 -0.023041001 -0.26049301
-0.050584 -0.022964999 -0.26042101
-0.050585002 -0.022891 -0.26034001
-0.050585002 -0.022814 -0.26026401
-0.050585002 -0.022738 -0.260212
-0.050585002 -0.022662999 -0.26015499
-0.050584 -0.022585999 -0.26010099
-0.050584 -0.022511 -0.26004499
-0.050583001 -0.022436 -0.25999299
-0.050581999 -0.022359001 -0.25995201
-0.050581001 -0.022283999 -0.25991601
-0.050579999 -0.022209 -0.25987801
-0.050577998 -0.022134 -0.25984001
-0.050577 -0.022058999 -0.259803
-0.050576001 -0.021984 -0.25977099
-0.050574001 -0.021908 -0.25974301
-0.050572 -0.021831 -0.25971699
-0.050570998 -0.021756999 -0.25969201
-0.050569002 -0.021682 -0.25966999
-0.050567001 -0.021605 -0.259642
-0.050565001 -0.021531001 -0.259624
-0.050563 -0.021454001 -0.25958899
-0.050562002 -0.021381 -0.25955299
-0.050558999 -0.021305 -0.25955701
-0.050556 -0.021229001 -0.25955501
-0.050554 -0.021152999 -0.259536
-0.050551999 -0.021077 -0.25951999
-0.050549001 -0.021002 -0.25951001
-0.050546002 -0.020926001 -0.25950399
-0.050542999 -0.020850001 -0.259498
-0.050540999 -0.020776 -0.259491
-0.050538 -0.020699 -0.25948101
-0.050535001 -0.020624001 -0.25948301
-0.050531998 -0.020548999 -0.25948101
-0.050530002 -0.020473 -0.25946999
-0.050526999 -0.020397 -0.25946799
-0.050524 -0.020321 -0.25946999
-0.050521001 -0.020246999 -0.25946599
-0.050517999 -0.020171 -0.259462
-0.050515 -0.020095 -0.25946501
-0.050512001 -0.020019 -0.259469
-0.050508 -0.019943001 -0.259471
-0.050505001 -0.019866999 -0.25947699
-0.050501999 -0.019793 -0.25948501
-0.050499 -0.019717 -0.25948599
-0.050496001 -0.019641001 -0.25948
-0.050492998 -0.019564999 -0.25948
-0.050489999 -0.019489 -0.25948399
-0.050485998 -0.019413 -0.25948599
-0.050483 -0.019337 -0.25949499
-0.050478999 -0.019261001 -0.25951299
-0.050476 -0.019184999 -0.25951701
-0.050473001 -0.019111 -0.259505
-0.050471 -0.019035 -0.259496
-0.050466999 -0.018959001 -0.25950399
-0.050464001 -0.018882999 -0.25951001
-0.050461002 -0.018807 -0.25951001
-0.050457999 -0.018731 -0.25951201
-0.050455 -0.018657001 -0.25952101
-0.050450999 -0.018579001 -0.259527
-0.050448 -0.018505 -0.259523
-0.050445002 -0.018429 -0.259523
-0.050441999 -0.018353 -0.259527
-0.050439 -0.018277001 -0.259534
-0.050436001 -0.018200999 -0.25953001
-0.050432999 -0.018124999 -0.25952601
-0.050429001 -0.018049 -0.259536
-0.050425999 -0.017973 -0.25954601
-0.050423 -0.017897001 -0.25954899
-0.050420001 -0.017820001 -0.25955299
-0.050416 -0.017746 -0.25955501
-0.050413001 -0.017667999 -0.25955701
-0.050409999 -0.017594 -0.259561
-0.050407 -0.017518001 -0.25956801
-0.050402999 -0.017441999 -0.259574
-0.0504 -0.017366 -0.25957999
-0.050397001 -0.01729 -0.25958201
-0.050393999 -0.017214 -0.25958401
-0.050390001 -0.017138001 -0.25959501
-0.050386999 -0.017062001 -0.259599
-0.050384 -0.016985999 -0.25960499
-0.050379999 -0.01691 -0.259615
-0.050377 -0.016833 -0.25962099
-0.050374001 -0.016757 -0.259624
-0.050370999 -0.016682001 -0.25962201
-0.050367001 -0.016604999 -0.259626
-0.050363999 -0.016528999 -0.25963199
-0.050361 -0.016453 -0.25963399
-0.050358001 -0.016377 -0.25963899
-0.050354 -0.016301 -0.25964499
-0.050351001 -0.016225001 -0.25965101
-0.050347999 -0.016148999 -0.259655
-0.050345 -0.016073 -0.259648
-0.050342999 -0.015998 -0.25963601
-0.050338998 -0.015922001 -0.25963601
-0.050337002 -0.015845999 -0.25963399
-0.050333999 -0.015769999 -0.25963199
-0.050331 -0.015694 -0.259633
-0.050326999 -0.01562 -0.259635
-0.050324 -0.015542 -0.259633
-0.050322 -0.015468 -0.25962701
-0.050319001 -0.015392 -0.259617
-0.050315998 -0.015316 -0.25961399
-0.050313 -0.01524 -0.25961599
-0.050310001 -0.015164 -0.25961599
-0.050306998 -0.015089 -0.25961599
-0.050303999 -0.015012 -0.25962201
-0.050301 -0.014937 -0.259619
-0.050298002 -0.014861 -0.259617
-0.050294999 -0.014785 -0.25962099
-0.050292 -0.014709 -0.25962299
-0.050289001 -0.014633 -0.25962201
-0.050285 -0.014557 -0.259626
-0.050282001 -0.01448 -0.25963399
-0.050278999 -0.014404 -0.25963601
-0.050275002 -0.014328 -0.25964001
-0.050271999 -0.014252 -0.25964499
-0.050269 -0.014176 -0.25964701
-0.050266001 -0.0141 -0.25964901
-0.050262999 -0.014024 -0.259655
-0.05026 -0.013948 -0.259655
-0.050255999 -0.01387 -0.25965801
-0.050253 -0.013794 -0.259662
-0.050250001 -0.013718 -0.25966799
-0.050246999 -0.013642 -0.25966999
-0.050244 -0.013566 -0.25966999
-0.050239999 -0.01349 -0.25966999
-0.050237 -0.013414 -0.25967899
-0.050234001 -0.013338 -0.25968301
-0.050230999 -0.013262 -0.25968099
-0.050228 -0.013186 -0.259675
-0.050225001 -0.01311 -0.25967601
-0.050221998 -0.013034 -0.25967199
-0.050218999 -0.012958 -0.25967199
-0.050216001 -0.012882 -0.25966999
-0.050213002 -0.012807 -0.25966799
-0.050209999 -0.012731 -0.25966701
-0.050207 -0.012655 -0.25966099
-0.050205 -0.012579 -0.25965899
-0.050202001 -0.012503 -0.259655
-0.050198998 -0.012427 -0.25964901
-0.050195999 -0.012351 -0.259648
-0.050193001 -0.012275 -0.259646
-0.050191 -0.012202 -0.25963199
-0.050188001 -0.012126 -0.25961801
-0.050186001 -0.01205 -0.25960299
-0.050184 -0.011975 -0.25958499
-0.050181001 -0.011901 -0.25957501
-0.050179001 -0.011825 -0.25956899
-0.050175998 -0.011749 -0.25956401
-0.050173 -0.011674 -0.25955799
-0.050170999 -0.011598 -0.25954601
-0.050168 -0.011524 -0.259534
-0.050166 -0.011448 -0.25952601
-0.050163001 -0.011372 -0.259523
-0.050159998 -0.011297 -0.25951701
-0.050156999 -0.011221 -0.25951499
-0.050154001 -0.011145 -0.259509
-0.050151002 -0.011069 -0.25951001
-0.050147999 -0.010993 -0.25951201
-0.050145 -0.010917 -0.25951201
-0.050142001 -0.010841 -0.259514
-0.050138999 -0.010765 -0.259514
-0.050136 -0.010689 -0.25951499
-0.050133001 -0.010613 -0.25951299
-0.050129998 -0.010537 -0.25951099
-0.050127 -0.010459 -0.25951099
-0.050122999 -0.010383 -0.25951701
-0.05012 -0.010307 -0.25952801
-0.050117001 -0.010231 -0.259532
-0.050113 -0.010153 -0.25953999
-0.050110001 -0.010077 -0.25954199
-0.050106999 -0.010001 -0.25953999
-0.050104 -0.0099250004 -0.25953999
-0.050101001 -0.0098489998 -0.259545
-0.050097998 -0.0097730001 -0.259545
-0.050094001 -0.009695 -0.259547
-0.050090998 -0.0096190004 -0.259561
-0.050087001 -0.0095419995 -0.25956899
-0.050083999 -0.0094640004 -0.25957
-0.050081 -0.0093879998 -0.259574
-0.050078001 -0.0093120001 -0.25957599
-0.050074 -0.0092359995 -0.25957999
-0.050071001 -0.0091580003 -0.25959
-0.050067 -0.0090819998 -0.259599
-0.050064001 -0.0090060001 -0.25960299
-0.050060999 -0.008928 -0.25960499
-0.050058 -0.0088520003 -0.25961101
-0.050053999 -0.0087759998 -0.25962099
-0.050051 -0.0086979996 -0.25962901
-0.050046999 -0.0086209998 -0.25963601
-0.050044 -0.0085429996 -0.259642
-0.050041001 -0.008467 -0.259644
-0.050037999 -0.0083910003 -0.259644
-0.050034001 -0.0083149998 -0.259644
-0.050030999 -0.0082390001 -0.25964701
-0.050028 -0.008161 -0.25964701
-0.050025001 -0.0080859996 -0.25964499
-0.050021999 -0.00801 -0.25964499
-0.050019 -0.0079340003 -0.25964701
-0.050016001 -0.0078579998 -0.25964999
-0.050012998 -0.0077800001 -0.25964999
-0.050009999 -0.007704 -0.259648
-0.050007001 -0.0076279999 -0.259644
-0.050004002 -0.0075520002 -0.259646
-0.050000999 -0.0074760001 -0.25964499
-0.049998 -0.0074 -0.25964099
-0.049995001 -0.0073219999 -0.25964499
-0.049991 -0.0072460002 -0.259653
-0.049988002 -0.0071700001 -0.259653
-0.049984999 -0.007094 -0.25965399
-0.049982 -0.0070159999 -0.25965801
-0.049979001 -0.0069400002 -0.25965399
-0.049975999 -0.0068640001 -0.259644
-0.049973998 -0.006788 -0.25963801
-0.049970001 -0.0067119999 -0.25964099
-0.049966998 -0.0066340002 -0.25964499
-0.049964 -0.0065580001 -0.25964299
-0.049961001 -0.006482 -0.25964499
-0.049958002 -0.0064039999 -0.259653
-0.049954999 -0.0063299998 -0.259648
-0.049952 -0.0062529999 -0.259644
-0.049949002 -0.0061769998 -0.259644
-0.049945999 -0.0061010001 -0.25964001
-0.049943 -0.006025 -0.25963801
-0.049940001 -0.0059489999 -0.25964499
-0.049936 -0.0058709998 -0.25964701
-0.049934 -0.0057950001 -0.25964099
-0.049931001 -0.005719 -0.259637
-0.049927998 -0.0056429999 -0.25963899
-0.049924999 -0.0055669998 -0.259642
-0.049922001 -0.0054890001 -0.25964001
-0.049919002 -0.005413 -0.25963199
-0.049915999 -0.0053369999 -0.25963199
-0.049913 -0.0052609998 -0.25963601
-0.049910001 -0.0051850001 -0.259633
-0.049906999 -0.0051099998 -0.25962499
-0.049904 -0.0050309999 -0.25962901
-0.049899999 -0.0049530002 -0.25963899
-0.049897 -0.0048770001 -0.259637
-0.049894001 -0.004801 -0.259637
-0.049890999 -0.0047249999 -0.25964001
-0.049888 -0.0046470002 -0.25964001
-0.049885001 -0.0045710001 -0.25964001
-0.049881998 -0.0044959998 -0.25964001
-0.049879 -0.0044200001 -0.25963601
-0.049876001 -0.004342 -0.259635
-0.049872998 -0.0042659999 -0.25963101
-0.049869999 -0.0041899998 -0.25962701
-0.049867 -0.0041140001 -0.25962099
-0.049865 -0.00404 -0.25961599
-0.049862001 -0.0039650002 -0.25960401
-0.049858999 -0.003889 -0.25959799
-0.049856 -0.0038109999 -0.25959599
-0.049853999 -0.003735 -0.259592
-0.049851 -0.0036589999 -0.25958699
-0.049848001 -0.003583 -0.25958499
-0.049844999 -0.0035069999 -0.259579
-0.049842 -0.0034320001 -0.25957099
-0.04984 -0.0033559999 -0.259565
-0.049837001 -0.0032800001 -0.25955999
-0.049834002 -0.0032039999 -0.25955999
-0.049830001 -0.0031260001 -0.25956801
-0.049826998 -0.0030479999 -0.25957599
-0.049823999 -0.002972 -0.259574
-0.049821001 -0.0028959999 -0.25957099
-0.049818002 -0.0028200001 -0.25957301
-0.049814001 -0.0027419999 -0.259579
-0.049810998 -0.002664 -0.259583
-0.049807001 -0.0025879999 -0.25959501
-0.049803998 -0.002509 -0.259597
-0.049800999 -0.0024339999 -0.25959399
-0.049798001 -0.002355 -0.25960201
-0.049795002 -0.0022789999 -0.259608
-0.049791001 -0.002201 -0.25961399
-0.049787 -0.0021230001 -0.259624
-0.049784001 -0.002045 -0.259628
-0.049780998 -0.0019690001 -0.259635
-0.049777001 -0.001891 -0.25964701
-0.049773 -0.0018119999 -0.25966099
-0.049770001 -0.001734 -0.259671
-0.049766 -0.001654 -0.25968301
-0.049761999 -0.001576 -0.25969699
-0.049759001 -0.001498 -0.25970501
-0.049755 -0.001422 -0.25971001
-0.049752001 -0.001343 -0.259718
-0.049748 -0.001265 -0.25972599
-0.049745001 -0.001187 -0.259738
-0.049740002 -0.001107 -0.25976199
-0.049736001 -0.001024 -0.25979
-0.049731001 -0.00094599999 -0.259812
-0.049727 -0.00086500001 -0.259826
-0.049724001 -0.000787 -0.25984299
-0.049718998 -0.00070700003 -0.25986299
-0.049715001 -0.00062599999 -0.25988701
-0.049711 -0.00054600002 -0.259911
-0.049706001 -0.00046499999 -0.25994101
-0.049702 -0.00038499999 -0.259965
-0.049695998 -0.000302 -0.260001
-0.049692001 -0.00021899999 -0.26003301
-0.049687002 -0.000137 -0.26006699
-0.049681999 -5.4e-05 -0.26010299
-0.049676001 2.9000001e-05 -0.26014501
-0.049672 0.00011 -0.260171
-0.049667001 0.00019200001 -0.26020899
-0.049660999 0.00027700001 -0.26025501
-0.049656 0.00036000001 -0.26029301
-0.049651001 0.000443 -0.26032901
-0.049644001 0.00053199998 -0.26039901
-0.049637999 0.00061699998 -0.26044899
-0.049633 0.00069999998 -0.26049301
-0.049626999 0.000787 -0.26054499
-0.050280999 -0.023054 -0.260625
-0.050280999 -0.022978 -0.26054499
-0.050282001 -0.022902001 -0.26046699
-0.050283 -0.022825001 -0.26038599
-0.050283 -0.022751 -0.260324
-0.050283 -0.022674 -0.260268
-0.050282001 -0.022597 -0.260212
-0.050282001 -0.022523001 -0.26015699
-0.050280999 -0.022448 -0.26010701
-0.050280001 -0.022371 -0.26006499
-0.050278999 -0.022296 -0.26002201
-0.050278999 -0.022221001 -0.259974
-0.050278001 -0.022146 -0.25992599
-0.050276998 -0.022071 -0.25988799
-0.050275002 -0.021993 -0.259859
-0.050274 -0.021918001 -0.25982299
-0.050271999 -0.021842999 -0.25979701
-0.050269999 -0.021767 -0.25977901
-0.050268002 -0.021692 -0.25975701
-0.050266001 -0.021616001 -0.259736
-0.050264001 -0.021540999 -0.25971001
-0.050262 -0.021465 -0.259684
-0.05026 -0.02139 -0.25965801
-0.050257999 -0.021314999 -0.259635
-0.050255999 -0.021238999 -0.259619
-0.050253998 -0.021163 -0.25960499
-0.050251 -0.021088 -0.25959301
-0.050248999 -0.021012001 -0.25958201
-0.050246999 -0.020938 -0.25957
-0.050244 -0.02086 -0.25955999
-0.050241001 -0.020786 -0.25956199
-0.050237998 -0.020710001 -0.25956199
-0.050235 -0.020634999 -0.25955501
-0.050232999 -0.020559 -0.259541
-0.05023 -0.020483 -0.25953701
-0.050227001 -0.020407001 -0.25953901
-0.050223999 -0.020331001 -0.259536
-0.050221 -0.020257 -0.259532
-0.050218001 -0.020181 -0.25953799
-0.050214 -0.020105001 -0.25954601
-0.050211001 -0.020028999 -0.25954801
-0.050207999 -0.019952999 -0.259547
-0.050205 -0.019877 -0.259541
-0.050202999 -0.019803001 -0.25953701
-0.050198998 -0.019725 -0.25953901
-0.050195999 -0.019650999 -0.25953999
-0.050193001 -0.019576 -0.25953799
-0.050191 -0.0195 -0.259536
-0.050186999 -0.019424001 -0.25953799
-0.050184 -0.019347999 -0.25954199
-0.050181001 -0.019272 -0.259545
-0.050177999 -0.019196 -0.259547
-0.050175 -0.019122001 -0.259545
-0.050172001 -0.019045999 -0.259543
-0.050168999 -0.01897 -0.25955099
-0.050165001 -0.018894 -0.259556
-0.050161999 -0.018818 -0.259552
-0.050159998 -0.018742001 -0.25954399
-0.050156999 -0.018665999 -0.25954399
-0.050154001 -0.01859 -0.25954601
-0.050151002 -0.018516 -0.259545
-0.050147999 -0.018438 -0.259543
-0.050145 -0.018363999 -0.259545
-0.050142001 -0.018288 -0.259545
-0.050138 -0.018212 -0.25954601
-0.050135002 -0.018136 -0.25954801
-0.050131999 -0.018060001 -0.259556
-0.050129 -0.017983999 -0.25955799
-0.050126001 -0.017907999 -0.259554
-0.050122999 -0.017832 -0.25954899
-0.05012 -0.017758001 -0.25954899
-0.050117001 -0.017680001 -0.25955701
-0.050113998 -0.017605999 -0.25955901
-0.050110999 -0.01753 -0.25955299
-0.050108001 -0.017454 -0.259552
-0.050104 -0.017378001 -0.25955999
-0.050101001 -0.017302001 -0.25956601
-0.050097998 -0.017225999 -0.25957
-0.050094999 -0.01715 -0.259572
-0.050090998 -0.017074 -0.25957701
-0.050088 -0.016998 -0.259583
-0.050085001 -0.016922001 -0.25958699
-0.050082002 -0.016845999 -0.259583
-0.050078999 -0.01677 -0.25958699
-0.050074998 -0.016694 -0.259606
-0.050071001 -0.016617 -0.25962001
-0.050067998 -0.016541 -0.25961801
-0.050065 -0.016465999 -0.25961599
-0.050062001 -0.01639 -0.25961399
-0.050058998 -0.016314 -0.259615
-0.050055999 -0.016238 -0.25962099
-0.050053 -0.016162001 -0.259619
-0.050050002 -0.016085999 -0.259615
-0.050046999 -0.016012 -0.25962001
-0.050044 -0.015934 -0.25961801
-0.050041001 -0.015860001 -0.25961199
-0.050037999 -0.015782 -0.259608
-0.050035 -0.015707999 -0.259606
-0.050032001 -0.015632 -0.25960699
-0.050028998 -0.015556 -0.25960699
-0.050026 -0.01548 -0.25960499
-0.050023001 -0.015404 -0.259601
-0.050020002 -0.015328 -0.259599
-0.050018001 -0.015253 -0.25959399
-0.050014999 -0.015177 -0.25959399
-0.050011002 -0.015101 -0.25960001
-0.050007999 -0.015025 -0.25960401
-0.050004002 -0.014948 -0.25961199
-0.050000999 -0.014872 -0.25961301
-0.049998999 -0.014797 -0.25960699
-0.049995001 -0.01472 -0.25961301
-0.049991999 -0.014644 -0.259619
-0.049989 -0.014569 -0.259615
-0.049986001 -0.014493 -0.25961801
-0.049982999 -0.014416 -0.25962201
-0.049979001 -0.01434 -0.25962999
-0.049975999 -0.014264 -0.25963399
-0.049973 -0.014188 -0.25963101
-0.049970001 -0.014112 -0.259635
-0.049966998 -0.014036 -0.25964099
-0.049964 -0.01396 -0.25964099
-0.049961001 -0.013884 -0.25963899
-0.049958002 -0.013808 -0.25964001
-0.049954001 -0.013732 -0.259644
-0.049950998 -0.013654 -0.25964999
-0.049947999 -0.013578 -0.25964999
-0.049945001 -0.013502 -0.25965199
-0.049941 -0.013426 -0.25966001
-0.049938001 -0.01335 -0.25966299
-0.049934998 -0.013274 -0.25966299
-0.049931999 -0.013198 -0.25966501
-0.049929 -0.013122 -0.25966701
-0.049924999 -0.013046 -0.25967401
-0.049922001 -0.01297 -0.25967601
-0.049919002 -0.012892 -0.25967401
-0.049915999 -0.012818 -0.25967401
-0.049913 -0.01274 -0.25967401
-0.049910001 -0.012664 -0.25967199
-0.049906999 -0.01259 -0.259671
-0.049904 -0.012512 -0.25966901
-0.049902 -0.012439 -0.25966299
-0.049899001 -0.012361 -0.259657
-0.049896002 -0.012287 -0.25965199
-0.049892999 -0.012211 -0.259648
-0.04989 -0.012135 -0.259642
-0.049888 -0.012059 -0.25963199
-0.049885001 -0.011984 -0.25962201
-0.049883001 -0.011908 -0.259615
-0.049880002 -0.011834 -0.259601
-0.049878001 -0.011759 -0.25959101
-0.049874999 -0.011683 -0.259579
-0.049872998 -0.011607 -0.25956801
-0.049871001 -0.011534 -0.25954601
-0.049869001 -0.01146 -0.25953001
-0.049865998 -0.011382 -0.25952601
-0.049862999 -0.011308 -0.259523
-0.049860001 -0.011232 -0.25951499
-0.049858 -0.011157 -0.259509
-0.049853999 -0.011081 -0.259509
-0.049851999 -0.011005 -0.25950301
-0.049849998 -0.010931 -0.25948799
-0.049846001 -0.010853 -0.25949001
-0.049842998 -0.010777 -0.25950199
-0.049839001 -0.010701 -0.25950801
-0.049835999 -0.010625 -0.25950399
-0.049833 -0.010549 -0.259505
-0.049830001 -0.010471 -0.259509
-0.049826998 -0.010395 -0.259507
-0.049823999 -0.010319 -0.259505
-0.049821001 -0.010243 -0.25951299
-0.049817 -0.010167 -0.25952399
-0.049814001 -0.010089 -0.25952601
-0.049810998 -0.010013 -0.25952399
-0.049807999 -0.0099370005 -0.25952801
-0.049805 -0.0098609999 -0.25953001
-0.049802002 -0.0097850002 -0.259525
-0.049798999 -0.0097089997 -0.259527
-0.049795002 -0.0096310005 -0.25953701
-0.049791001 -0.0095549999 -0.25954899
-0.049787998 -0.0094760004 -0.25955701
-0.049784999 -0.0093999999 -0.25956199
-0.049780998 -0.0093240002 -0.25956601
-0.049778 -0.0092479996 -0.25957
-0.049775001 -0.009172 -0.259572
-0.049772002 -0.0090939999 -0.25957799
-0.049768001 -0.0090180002 -0.25958699
-0.049764998 -0.0089400001 -0.25959301
-0.049761001 -0.0088640004 -0.25960499
-0.049757 -0.0087850001 -0.259619
-0.049754001 -0.0087090004 -0.25962499
-0.04975 -0.0086310003 -0.259635
-0.049747001 -0.0085549997 -0.259648
-0.049743999 -0.0084790001 -0.25964999
-0.049740002 -0.0084009999 -0.25965199
-0.049736999 -0.0083250003 -0.25966001
-0.049734 -0.0082489997 -0.259664
-0.049729999 -0.0081709996 -0.259664
-0.049727 -0.0080949999 -0.25966901
-0.049722999 -0.0080180001 -0.25968301
-0.04972 -0.0079399999 -0.25968501
-0.049717002 -0.0078649996 -0.25968099
-0.049713999 -0.0077889999 -0.25968099
-0.049711 -0.0077129998 -0.259682
-0.049708001 -0.0076350002 -0.25968599
-0.049704999 -0.007559 -0.25968799
-0.049702 -0.0074829999 -0.25968599
-0.049699001 -0.0074069998 -0.25968
-0.049695998 -0.0073310002 -0.25967699
-0.049693 -0.0072550001 -0.259675
-0.049690001 -0.0071769999 -0.259673
-0.049687002 -0.0071009998 -0.25966901
-0.049683999 -0.0070250002 -0.259673
-0.049681 -0.0069490001 -0.25967601
-0.049678002 -0.0068709999 -0.25968
-0.049674001 -0.0067949998 -0.259684
-0.049671002 -0.0067190002 -0.259684
-0.049667999 -0.006641 -0.259682
-0.049665 -0.0065649999 -0.25968301
-0.049662001 -0.0064889998 -0.25968701
-0.049658999 -0.0064110002 -0.259689
-0.049656 -0.0063370001 -0.25968301
-0.049654 -0.0062620002 -0.259671
-0.049651001 -0.0061860001 -0.25966799
-0.049648002 -0.00611 -0.25966001
-0.049644999 -0.0060339998 -0.25965801
-0.049642 -0.0059560002 -0.259666
-0.049637999 -0.0058800001 -0.25966799
-0.049635001 -0.0058019999 -0.25966901
-0.049632002 -0.0057259998 -0.25966901
-0.049628999 -0.0056500002 -0.25966501
-0.049626999 -0.0055740001 -0.25966099
-0.049624 -0.005498 -0.25966099
-0.049621001 -0.0054219998 -0.25966001
-0.049617998 -0.005347 -0.25965199
-0.049614999 -0.0052709999 -0.25964999
-0.049612001 -0.0051930002 -0.25964999
-0.049609002 -0.0051170001 -0.25964999
-0.049605999 -0.005041 -0.259655
-0.049601998 -0.0049629998 -0.25965899
-0.049598999 -0.0048870002 -0.25966299
-0.049596 -0.0048079998 -0.25966901
-0.049592 -0.0047300002 -0.25967699
-0.049589001 -0.004654 -0.25968501
-0.049585 -0.0045759999 -0.25968799
-0.049582001 -0.0044999998 -0.25968999
-0.049578998 -0.0044240002 -0.25969201
-0.049575999 -0.004346 -0.25969201
-0.049573001 -0.0042699999 -0.25969401
-0.049570002 -0.0041919998 -0.25969499
-0.049566999 -0.0041160001 -0.259691
-0.049564 -0.0040409998 -0.25968501
-0.049561001 -0.0039650002 -0.25968099
-0.049557999 -0.003889 -0.25967899
-0.049555 -0.0038109999 -0.25968
-0.049552001 -0.0037370001 -0.25967199
-0.049550001 -0.0036609999 -0.259666
-0.049547002 -0.003583 -0.259664
-0.049543999 -0.0035069999 -0.25966001
-0.049541 -0.0034320001 -0.259653
-0.049538001 -0.0033559999 -0.25964901
-0.049534999 -0.0032800001 -0.25964701
-0.049532998 -0.0032039999 -0.25964099
-0.049529999 -0.0031280001 -0.25963899
-0.049527001 -0.003052 -0.25963601
-0.049524002 -0.0029740001 -0.25963801
-0.049520001 -0.0028979999 -0.259644
-0.049516998 -0.0028200001 -0.25965199
-0.049513999 -0.0027439999 -0.25964999
-0.049509998 -0.002666 -0.259653
-0.049507 -0.0025899999 -0.259657
-0.049504001 -0.002512 -0.259655
-0.049501002 -0.0024359999 -0.259655
-0.049497001 -0.002358 -0.259671
-0.049493 -0.0022770001 -0.25968501
-0.049490001 -0.002199 -0.25969499
-0.049486 -0.0021230001 -0.25970799
-0.049481999 -0.002043 -0.259718
-0.049479 -0.0019670001 -0.25972199
-0.049476001 -0.0018889999 -0.25973001
-0.049472 -0.0018110001 -0.259736
-0.049469002 -0.001732 -0.25974599
-0.049465001 -0.001654 -0.259765
-0.049461 -0.001574 -0.259781
-0.049456999 -0.001496 -0.25978699
-0.049454 -0.001417 -0.25979701
-0.049449999 -0.001341 -0.25980499
-0.049447 -0.001263 -0.25980899
-0.049442999 -0.001183 -0.25982499
-0.049439002 -0.001105 -0.25984201
-0.049435001 -0.001024 -0.25986201
-0.049430002 -0.00094400003 -0.25988799
-0.049426001 -0.00086299999 -0.25991601
-0.049421001 -0.00078300002 -0.25994
-0.049417 -0.00070199999 -0.25996
-0.049412999 -0.00062200002 -0.25997999
-0.049408 -0.00054099999 -0.260014
-0.049403001 -0.000459 -0.26004601
-0.049399 -0.000378 -0.26007199
-0.049394 -0.00029500001 -0.260104
-0.049389001 -0.00021300001 -0.26014599
-0.049383 -0.00013 -0.26018399
-0.049378 -4.7000001e-05 -0.26022199
-0.049373001 3.6000001e-05 -0.26025799
-0.049368002 0.000118 -0.26029
-0.049362998 0.000201 -0.260326
-0.049357999 0.00028400001 -0.26036999
-0.049352001 0.00036899999 -0.260416
-0.049346 0.00045399999 -0.26046801
-0.049341001 0.00053899997 -0.26051399
-0.049334999 0.00062399998 -0.26055601
-0.050021999 -0.022995001 -0.260649
-0.050021999 -0.022918999 -0.26057801
-0.050023999 -0.022845 -0.26047999
-0.050025001 -0.022767 -0.26038399
-0.050025001 -0.022692 -0.260317
-0.050025001 -0.022616001 -0.26025701
-0.050025001 -0.022541 -0.260205
-0.050023999 -0.022466 -0.26015499
-0.050023001 -0.022389 -0.26010999
-0.050021999 -0.022314001 -0.26006401
-0.050021 -0.022236999 -0.26003399
-0.050019 -0.022160999 -0.26000199
-0.050018001 -0.022086 -0.259965
-0.050016999 -0.022011001 -0.259927
-0.050016001 -0.021935999 -0.25988901
-0.050014 -0.021859 -0.259855
-0.050012 -0.021785 -0.259828
-0.050011002 -0.021709999 -0.25979599
-0.050009001 -0.021632999 -0.25976601
-0.050007001 -0.021557 -0.25975001
-0.050004002 -0.021482 -0.25974101
-0.050002001 -0.021406 -0.25971901
-0.050000999 -0.021333 -0.259691
-0.049998999 -0.021255 -0.25966299
-0.049996998 -0.021182001 -0.259644
-0.049995001 -0.021104001 -0.259628
-0.049993001 -0.021031 -0.25960401
-0.049991 -0.020955 -0.259588
-0.049988002 -0.020879 -0.25957999
-0.049984999 -0.020803999 -0.25957099
-0.049982999 -0.020728 -0.25955901
-0.04998 -0.020652 -0.25955099
-0.049977001 -0.020576 -0.25955299
-0.049973 -0.020500001 -0.25956699
-0.049970001 -0.020424001 -0.25957
-0.049966998 -0.020347999 -0.25956401
-0.049965002 -0.020274 -0.25956199
-0.049961001 -0.020198001 -0.25956601
-0.049958002 -0.020121999 -0.25957301
-0.049954999 -0.020045999 -0.259581
-0.049950998 -0.01997 -0.259583
-0.049949002 -0.019894 -0.25957701
-0.049945999 -0.019818 -0.25957099
-0.049943 -0.019742001 -0.259572
-0.049940001 -0.019668 -0.259572
-0.049936999 -0.019592 -0.25956601
-0.049934 -0.019516001 -0.25955999
-0.049931999 -0.019440999 -0.25955299
-0.049929 -0.019365 -0.25955501
-0.049924999 -0.019288 -0.259565
-0.049922001 -0.019212 -0.25956899
-0.049919002 -0.019137001 -0.25956699
-0.049915999 -0.019063 -0.25956801
-0.049913 -0.018985 -0.25956801
-0.049910001 -0.018911 -0.25956199
-0.049906999 -0.018835001 -0.25955999
-0.049904 -0.018758999 -0.25956601
-0.049901001 -0.018683 -0.25956899
-0.049897999 -0.018607 -0.25955901
-0.049895 -0.018531 -0.25955701
-0.049892001 -0.018455001 -0.25955901
-0.049888998 -0.018378999 -0.25955501
-0.049885999 -0.018305 -0.259554
-0.049883001 -0.018229 -0.25955001
-0.049881 -0.018154001 -0.25953999
-0.049878001 -0.018077999 -0.259534
-0.049874999 -0.018002 -0.25953901
-0.049871001 -0.017926 -0.259543
-0.049867999 -0.01785 -0.259547
-0.049865 -0.017774001 -0.25955099
-0.049862001 -0.017697999 -0.25955299
-0.049858999 -0.017622 -0.259556
-0.049855001 -0.017547 -0.25956401
-0.049851999 -0.017469 -0.25956601
-0.049849 -0.017395001 -0.25956401
-0.049846001 -0.01732 -0.25955999
-0.049842998 -0.017244 -0.25956699
-0.04984 -0.017167 -0.25957501
-0.049835999 -0.017091 -0.25957701
-0.049833 -0.017015001 -0.259579
-0.049830001 -0.016938999 -0.259583
-0.049826 -0.016863 -0.25959399
-0.049823001 -0.016787 -0.25960401
-0.049819998 -0.016711 -0.25960401
-0.049817 -0.016635001 -0.25960201
-0.049814001 -0.016558999 -0.25960401
-0.049810998 -0.016483 -0.25960901
-0.049807001 -0.016407 -0.259615
-0.049803998 -0.016331 -0.25962299
-0.049800001 -0.016255001 -0.25963101
-0.049796999 -0.016178999 -0.25963101
-0.049795002 -0.016102999 -0.25962201
-0.049791999 -0.016027 -0.25961801
-0.049789 -0.015951 -0.25961801
-0.049786001 -0.015875001 -0.25961
-0.049782999 -0.015799001 -0.25960699
-0.04978 -0.015722999 -0.25961301
-0.049777001 -0.015647 -0.259619
-0.049773 -0.015571 -0.25962099
-0.049771 -0.015495 -0.259617
-0.049768001 -0.015419 -0.25961399
-0.049764998 -0.015344 -0.25961
-0.049761999 -0.01527 -0.259608
-0.049759001 -0.015192 -0.25961199
-0.049755 -0.015116 -0.25961599
-0.049752001 -0.01504 -0.259615
-0.04975 -0.014966 -0.25961301
-0.049745999 -0.01489 -0.259615
-0.049743 -0.014812 -0.25962299
-0.049740002 -0.014736 -0.25962701
-0.049736999 -0.01466 -0.259624
-0.049733002 -0.014584 -0.259628
-0.049729999 -0.014507 -0.25963601
-0.049727 -0.014431 -0.25963601
-0.049724001 -0.014355 -0.25964001
-0.04972 -0.014279 -0.25964701
-0.049717002 -0.014203 -0.259653
-0.049713999 -0.014127 -0.259657
-0.049711 -0.014051 -0.25964901
-0.049708001 -0.013976 -0.25964099
-0.049704999 -0.0139 -0.259644
-0.049702 -0.013824 -0.259646
-0.049699001 -0.013748 -0.259648
-0.049695998 -0.013671 -0.25965399
-0.049693 -0.013596 -0.25965199
-0.049690001 -0.01352 -0.25964701
-0.049687002 -0.013444 -0.25964701
-0.049683999 -0.013368 -0.259653
-0.049679998 -0.01329 -0.259655
-0.049676999 -0.013214 -0.25966099
-0.049672998 -0.013137 -0.25967199
-0.04967 -0.013061 -0.25967801
-0.049667001 -0.012985 -0.25968
-0.049663998 -0.012909 -0.25967801
-0.049660999 -0.012833 -0.25968
-0.049658 -0.012758 -0.259675
-0.049655002 -0.012682 -0.25966901
-0.049651999 -0.012606 -0.25967699
-0.049649 -0.012528 -0.25968099
-0.049646001 -0.012454 -0.25967801
-0.049642 -0.012376 -0.259682
-0.04964 -0.0123 -0.25967199
-0.049637999 -0.012226 -0.25965399
-0.049635001 -0.01215 -0.25964999
-0.049632002 -0.012074 -0.25965101
-0.049628999 -0.011999 -0.25964299
-0.049626999 -0.011923 -0.25962901
-0.049624 -0.011849 -0.259617
-0.049621999 -0.011773 -0.25961199
-0.049619 -0.011698 -0.25960201
-0.049617 -0.011622 -0.259588
-0.049614001 -0.011546 -0.25957599
-0.049612001 -0.011473 -0.25956199
-0.049609002 -0.011397 -0.25955501
-0.049605999 -0.011321 -0.25955099
-0.049603999 -0.011245 -0.259541
-0.049601998 -0.011172 -0.259527
-0.049598999 -0.011096 -0.25951201
-0.049596 -0.01102 -0.25951001
-0.049593002 -0.010944 -0.259514
-0.049589999 -0.010868 -0.25951001
-0.049587 -0.010792 -0.25951201
-0.049584001 -0.010716 -0.25951299
-0.049580999 -0.01064 -0.259505
-0.049578 -0.010564 -0.259505
-0.049575001 -0.010486 -0.25951499
-0.049571 -0.01041 -0.259527
-0.049568001 -0.010334 -0.259532
-0.049564999 -0.010256 -0.259536
-0.049561001 -0.01018 -0.25953999
-0.049559001 -0.010104 -0.259532
-0.049555998 -0.010028 -0.25952399
-0.049552999 -0.0099539999 -0.259523
-0.049550001 -0.0098759998 -0.25952101
-0.049547002 -0.0098000001 -0.259527
-0.049543001 -0.009722 -0.25953901
-0.049539 -0.0096460003 -0.25954899
-0.049536001 -0.0095699998 -0.259554
-0.049532998 -0.0094919996 -0.25955999
-0.049529999 -0.009416 -0.25956401
-0.049525999 -0.0093390001 -0.25957599
-0.049522001 -0.009261 -0.25959
-0.049518999 -0.0091850003 -0.25959599
-0.049515001 -0.0091070002 -0.25960299
-0.049511999 -0.0090309996 -0.25960901
-0.049509 -0.008955 -0.259615
-0.049504999 -0.0088769998 -0.259619
-0.049502 -0.0088010002 -0.25962701
-0.049497999 -0.0087219998 -0.25963801
-0.049495 -0.0086460002 -0.259644
-0.049490999 -0.008568 -0.25964999
-0.049488001 -0.0084920004 -0.259662
-0.049484 -0.0084140003 -0.25967601
-0.049481001 -0.0083379997 -0.25968
-0.049477998 -0.008262 -0.25968301
-0.049474001 -0.0081839999 -0.259693
-0.04947 -0.008107 -0.25970301
-0.049467001 -0.0080289999 -0.259709
-0.049463999 -0.0079530003 -0.25971699
-0.049460001 -0.0078750001 -0.259725
-0.049456999 -0.007799 -0.25972399
-0.049454 -0.0077229999 -0.25972199
-0.049451001 -0.0076469998 -0.25972199
-0.049447998 -0.0075690001 -0.259718
-0.049445 -0.007495 -0.25971401
-0.049442001 -0.0074169999 -0.25971699
-0.049439002 -0.0073409998 -0.25971901
-0.049435999 -0.0072650001 -0.25972301
-0.049433 -0.007187 -0.25971901
-0.049430002 -0.0071120001 -0.259711
-0.049426999 -0.007036 -0.25970599
-0.049424998 -0.0069619999 -0.259698
-0.049422 -0.0068839998 -0.259698
-0.049417999 -0.0068080002 -0.259702
-0.049415998 -0.006732 -0.25969601
-0.049412999 -0.0066559999 -0.259693
-0.049408998 -0.0065779998 -0.25969899
-0.049405999 -0.0065020001 -0.25969899
-0.049403001 -0.006426 -0.25970101
-0.049400002 -0.0063479999 -0.259711
-0.049396999 -0.0062719998 -0.25971201
-0.049394 -0.0061960001 -0.259702
-0.049391001 -0.0061209998 -0.25969201
-0.049387999 -0.0060450002 -0.25968999
-0.049385 -0.005969 -0.25969401
-0.049382001 -0.0058909999 -0.259693
-0.049378999 -0.0058149998 -0.25968501
-0.049377002 -0.0057410002 -0.25967899
-0.049373999 -0.005663 -0.25967699
-0.049371 -0.0055869999 -0.25967699
-0.049368002 -0.0055109998 -0.25968
-0.049364001 -0.0054330002 -0.259682
-0.049361002 -0.005357 -0.259684
-0.049359001 -0.0052809999 -0.25967601
-0.049355999 -0.0052060001 -0.25966999
-0.049353 -0.0051299999 -0.259673
-0.049348999 -0.0050519998 -0.259675
-0.049346 -0.0049760002 -0.25967699
-0.049343001 -0.0048969998 -0.25968301
-0.049339 -0.0048210002 -0.259691
-0.049336001 -0.004743 -0.2597
-0.049332 -0.0046649999 -0.25971401
-0.049327999 -0.0045869998 -0.25972399
-0.049325 -0.0045090001 -0.25973001
-0.049322002 -0.004433 -0.259734
-0.049318999 -0.0043549999 -0.25973201
-0.049316 -0.0042790002 -0.259727
-0.049313001 -0.0042030001 -0.259725
-0.049309999 -0.004127 -0.25972301
-0.049307 -0.0040509999 -0.259725
-0.049304001 -0.0039730002 -0.25972301
-0.049300998 -0.0038970001 -0.25972
-0.049298 -0.003821 -0.25972
-0.049295001 -0.0037430001 -0.25972199
-0.049291998 -0.003667 -0.259718
-0.049288999 -0.0035920001 -0.25971001
-0.049286 -0.003516 -0.25970501
-0.049284 -0.0034399999 -0.25969899
-0.049281001 -0.003364 -0.25969699
-0.049277999 -0.0032879999 -0.25969899
-0.049275 -0.00321 -0.25969699
-0.049272001 -0.0031340001 -0.25969201
-0.049268998 -0.003058 -0.25968999
-0.049265999 -0.0029819999 -0.25968999
-0.049263 -0.002904 -0.25968999
-0.049259 -0.0028280001 -0.25969401
-0.049256001 -0.00275 -0.25969499
-0.049253002 -0.0026740001 -0.25969699
-0.049249999 -0.002596 -0.25969699
-0.049247 -0.0025200001 -0.25970501
-0.049242999 -0.002442 -0.25971499
-0.049240001 -0.0023640001 -0.25971901
-0.049236 -0.0022859999 -0.25972801
-0.049231999 -0.002208 -0.259738
-0.049229 -0.0021319999 -0.25974399
-0.049224999 -0.002051 -0.259756
-0.049222 -0.0019749999 -0.25976199
-0.049219001 -0.001897 -0.25976601
-0.049215 -0.001819 -0.259774
-0.049210999 -0.001741 -0.25979099
-0.049206998 -0.00166 -0.25980699
-0.049203001 -0.0015820001 -0.25982299
-0.049199998 -0.001504 -0.25983101
-0.049196001 -0.001426 -0.259837
-0.049192999 -0.001348 -0.25984299
-0.049189001 -0.00127 -0.25985301
-0.049185 -0.001191 -0.25987399
-0.049180999 -0.001111 -0.25989401
-0.049176998 -0.00103 -0.25991601
-0.049171999 -0.00095000002 -0.259938
-0.049168002 -0.00086999999 -0.259958
-0.049164001 -0.00078900001 -0.25998399
-0.049159002 -0.00070899999 -0.260012
-0.049155001 -0.00062800001 -0.26003799
-0.049150001 -0.00054500002 -0.260066
-0.049146 -0.00046499999 -0.26009399
-0.049141001 -0.000382 -0.26012799
-0.049136002 -0.00029900001 -0.260162
-0.049130999 -0.00021899999 -0.260194
-0.049125999 -0.000136 -0.260234
-0.049120001 -5.0999999e-05 -0.260272
-0.049116001 2.9000001e-05 -0.260306
-0.049109999 0.000114 -0.26034799
-0.049105 0.000197 -0.26039201
-0.0491 0.00028000001 -0.26042601
-0.049093999 0.00036500001 -0.26046601
-0.049089 0.00044999999 -0.26051399
-0.049780998 -0.023019999 -0.26060599
-0.049782999 -0.022944 -0.260492
-0.049784999 -0.022868 -0.26040199
-0.049784999 -0.022792 -0.26033199
-0.049784999 -0.022717001 -0.26027501
-0.049784001 -0.022639999 -0.260223
-0.049784001 -0.022565 -0.26017299
-0.049782 -0.02249 -0.26013899
-0.049780998 -0.022413 -0.260102
-0.04978 -0.022337999 -0.26006201
-0.049779002 -0.022263 -0.26001999
-0.049777001 -0.022186 -0.25998801
-0.049775999 -0.02211 -0.25995499
-0.049775001 -0.022035001 -0.25991899
-0.049773 -0.02196 -0.25988299
-0.049772002 -0.021885 -0.25985101
-0.049770001 -0.021809001 -0.25982401
-0.049768001 -0.021733999 -0.259794
-0.049766999 -0.021656999 -0.259756
-0.049764998 -0.021584 -0.25973001
-0.049763002 -0.021506 -0.259709
-0.049761999 -0.021431001 -0.25968301
-0.049759999 -0.021357 -0.25966299
-0.049757 -0.02128 -0.25964299
-0.049755 -0.021206001 -0.25962999
-0.049752001 -0.021128001 -0.259628
-0.04975 -0.021054 -0.25961599
-0.049748 -0.020979 -0.25959799
-0.049745001 -0.020903001 -0.25958899
-0.049741998 -0.020826999 -0.259581
-0.049740002 -0.020752 -0.25956699
-0.049738001 -0.020676 -0.25955099
-0.049734998 -0.0206 -0.259543
-0.049732 -0.020524001 -0.259536
-0.049729999 -0.020448999 -0.25952801
-0.049727 -0.020373 -0.25952801
-0.049724001 -0.020299001 -0.25952801
-0.049720999 -0.020222999 -0.25952601
-0.049718 -0.020147 -0.259525
-0.049715001 -0.020071 -0.25952101
-0.049711999 -0.019995 -0.25951701
-0.049709 -0.019919001 -0.25951499
-0.049706001 -0.019845 -0.259516
-0.049702998 -0.019766999 -0.25951201
-0.049699999 -0.019693 -0.25951001
-0.049697999 -0.019617001 -0.25950599
-0.049694002 -0.019540999 -0.259514
-0.049690999 -0.019464999 -0.25952101
-0.049688 -0.019389 -0.25951299
-0.049686 -0.019314 -0.25950101
-0.049681999 -0.019238001 -0.259505
-0.049679 -0.019161999 -0.25951099
-0.049676001 -0.019088 -0.259514
-0.049672998 -0.019011 -0.25951999
-0.04967 -0.018935001 -0.25951999
-0.049667001 -0.018859999 -0.25951201
-0.049663998 -0.018784 -0.259505
-0.049660999 -0.018708 -0.25950101
-0.049658999 -0.018632 -0.25949299
-0.049656 -0.018556001 -0.259489
-0.049651999 -0.018479999 -0.25949699
-0.049649 -0.018406 -0.2595
-0.049646001 -0.01833 -0.2595
-0.049642999 -0.018254001 -0.259498
-0.049640998 -0.018177999 -0.25949401
-0.049637999 -0.018103 -0.25949001
-0.049635001 -0.018027 -0.259491
-0.049632002 -0.017951 -0.259489
-0.049628999 -0.017875001 -0.259487
-0.049626 -0.017801 -0.25948501
-0.049623001 -0.017723 -0.259482
-0.049619999 -0.017649001 -0.25949001
-0.049616002 -0.017573001 -0.2595
-0.049612999 -0.017496999 -0.259498
-0.04961 -0.017421 -0.259496
-0.049607001 -0.017345 -0.25949299
-0.049603999 -0.017269 -0.259489
-0.049601 -0.017193001 -0.259487
-0.049598001 -0.017116999 -0.25949699
-0.049594 -0.017041 -0.259509
-0.049591001 -0.016965 -0.259516
-0.049587999 -0.016889 -0.259518
-0.049585 -0.016813001 -0.25952199
-0.049580999 -0.016736999 -0.25952399
-0.049578 -0.016659999 -0.25952801
-0.049575001 -0.016584 -0.25953299
-0.049571998 -0.016508 -0.25953701
-0.049568001 -0.016432 -0.259545
-0.049564999 -0.016356001 -0.25954899
-0.049562 -0.016279999 -0.259547
-0.049559001 -0.016204 -0.25955001
-0.049555998 -0.016128 -0.259556
-0.049552999 -0.016054001 -0.259556
-0.049550001 -0.015976001 -0.259552
-0.049547002 -0.015902 -0.25955501
-0.049543001 -0.015823999 -0.25955501
-0.049541 -0.01575 -0.25955299
-0.049536999 -0.015674001 -0.25955501
-0.049534 -0.015598 -0.25955701
-0.049531002 -0.015522 -0.25955999
-0.049527999 -0.015446 -0.25955999
-0.049525 -0.015371 -0.259552
-0.049523 -0.015295 -0.25953999
-0.049520001 -0.015219 -0.25954601
-0.049516 -0.015143 -0.25955701
-0.049513001 -0.015067 -0.25955701
-0.049509998 -0.014991 -0.25955501
-0.049507 -0.014915 -0.25955901
-0.049504001 -0.014839 -0.259565
-0.0495 -0.014763 -0.25956801
-0.049497001 -0.014687 -0.259572
-0.049493998 -0.014611 -0.25957599
-0.049490999 -0.014535 -0.25957
-0.049488001 -0.014459 -0.25957
-0.049485002 -0.014383 -0.25957501
-0.049481999 -0.014307 -0.259579
-0.049479 -0.014231 -0.25957301
-0.049476001 -0.014155 -0.25956899
-0.049472999 -0.014079 -0.25957099
-0.04947 -0.014003 -0.259574
-0.049467001 -0.013927 -0.259574
-0.049463999 -0.013851 -0.259574
-0.049460001 -0.013775 -0.25957799
-0.049456999 -0.013697 -0.25958601
-0.049454 -0.013623 -0.25958699
-0.049451001 -0.013545 -0.259579
-0.049447998 -0.013471 -0.25957301
-0.049445 -0.013395 -0.25957701
-0.049442001 -0.013317 -0.259581
-0.049439002 -0.013243 -0.25958201
-0.049435999 -0.013165 -0.25958201
-0.049431998 -0.013089 -0.259588
-0.049428999 -0.013013 -0.25959599
-0.049426001 -0.012937 -0.25960201
-0.049422 -0.012861 -0.25960699
-0.049419001 -0.012785 -0.25960499
-0.049415998 -0.012709 -0.25960901
-0.049412999 -0.012631 -0.259617
-0.04941 -0.012555 -0.25961101
-0.049407002 -0.012479 -0.259608
-0.049403999 -0.012403 -0.25961199
-0.049401 -0.012327 -0.25961199
-0.049398001 -0.012251 -0.25961199
-0.049394999 -0.012175 -0.259608
-0.049392 -0.012099 -0.25960901
-0.049389001 -0.012023 -0.25960499
-0.049385998 -0.011947 -0.259599
-0.049384002 -0.011874 -0.25959101
-0.049380999 -0.011796 -0.25958401
-0.049378999 -0.011722 -0.259572
-0.049377002 -0.011647 -0.25954601
-0.049373999 -0.011573 -0.259534
-0.049371999 -0.011497 -0.259525
-0.049369 -0.011422 -0.25951299
-0.049366999 -0.011348 -0.25950301
-0.049364001 -0.011272 -0.259491
-0.049362 -0.011196 -0.25948301
-0.049359001 -0.011121 -0.25947601
-0.049355999 -0.011045 -0.25946799
-0.049353998 -0.010971 -0.259462
-0.049350999 -0.010893 -0.259462
-0.049346998 -0.010817 -0.25946501
-0.049343999 -0.010741 -0.25946501
-0.049341001 -0.010665 -0.25946501
-0.049338002 -0.010589 -0.25946701
-0.049334999 -0.010513 -0.259471
-0.049332 -0.010437 -0.25946999
-0.049329001 -0.010361 -0.25946999
-0.049325999 -0.010283 -0.25947201
-0.049323 -0.010207 -0.25947401
-0.049320001 -0.010131 -0.25947201
-0.049316 -0.010055 -0.25947499
-0.049313001 -0.0099790003 -0.25947499
-0.049309999 -0.0099029997 -0.25947699
-0.049307 -0.0098270001 -0.25947699
-0.049304001 -0.009749 -0.25948101
-0.0493 -0.0096730003 -0.25949201
-0.049297001 -0.0095969997 -0.25950399
-0.049293 -0.0095189996 -0.25951001
-0.049290001 -0.009443 -0.259514
-0.049286999 -0.0093639996 -0.25951999
-0.049283002 -0.0092879999 -0.25952801
-0.049279999 -0.0092120003 -0.25953701
-0.049277 -0.0091340002 -0.25953901
-0.049272999 -0.0090579996 -0.25954899
-0.049268998 -0.0089800004 -0.259563
-0.049265999 -0.0089039998 -0.259565
-0.049263 -0.0088280002 -0.25957301
-0.049259 -0.0087489998 -0.25958601
-0.049256001 -0.0086730001 -0.25959
-0.049252 -0.008595 -0.25960001
-0.049249001 -0.0085190004 -0.25961
-0.049245 -0.0084429998 -0.25961599
-0.049242001 -0.0083649997 -0.25962299
-0.049238 -0.0082869995 -0.259637
-0.049233999 -0.0082080001 -0.259653
-0.049229998 -0.0081320005 -0.25966501
-0.049226999 -0.0080559999 -0.25966701
-0.049224 -0.0079779997 -0.259671
-0.049221002 -0.0079020001 -0.25967801
-0.049217999 -0.0078260005 -0.25967601
-0.049215 -0.0077499999 -0.25967401
-0.049210999 -0.0076720002 -0.25967601
-0.049208 -0.0075960001 -0.25968599
-0.049205001 -0.007518 -0.25968999
-0.049201999 -0.0074419999 -0.259689
-0.049199 -0.0073660002 -0.25968701
-0.049196001 -0.0072900001 -0.25968701
-0.049192999 -0.007212 -0.25968301
-0.04919 -0.0071359999 -0.25968099
-0.049187001 -0.0070600002 -0.25967801
-0.049183998 -0.0069840001 -0.25967401
-0.049180999 -0.006908 -0.25967199
-0.049178001 -0.0068299999 -0.25967601
-0.049175002 -0.0067540002 -0.25968
-0.049171999 -0.0066780001 -0.25967899
-0.049169 -0.0066030002 -0.259673
-0.049166001 -0.0065270001 -0.259673
-0.049162999 -0.006449 -0.259675
-0.04916 -0.0063729999 -0.259671
-0.049155999 -0.0062970002 -0.25967801
-0.049153 -0.0062210001 -0.25967601
-0.049151 -0.006145 -0.25966799
-0.049148001 -0.0060689999 -0.259662
-0.049144998 -0.0059930002 -0.25965199
-0.049143001 -0.0059170001 -0.25964901
-0.049139 -0.005839 -0.259655
-0.049136002 -0.0057629999 -0.259655
-0.049132999 -0.005688 -0.25964701
-0.049130999 -0.0056119999 -0.259646
-0.049127001 -0.0055340002 -0.25964999
-0.049123999 -0.0054580001 -0.259648
-0.049121 -0.005382 -0.259642
-0.049118999 -0.0053059999 -0.25964001
-0.049114998 -0.0052299998 -0.25964099
-0.049113002 -0.0051540001 -0.259637
-0.049109999 -0.005078 -0.259637
-0.049106002 -0.0049999999 -0.25964499
-0.049102001 -0.0049220002 -0.25965899
-0.049098998 -0.0048440001 -0.25966701
-0.049095001 -0.0047650002 -0.25967699
-0.049091998 -0.0046890001 -0.25968799
-0.049088001 -0.004611 -0.25968999
-0.049084999 -0.0045329998 -0.25969601
-0.049082 -0.0044570002 -0.259698
-0.049079001 -0.004379 -0.2597
-0.049075 -0.0043029999 -0.259707
-0.049072001 -0.0042249998 -0.259709
-0.049068999 -0.0041490002 -0.259707
-0.049066 -0.004073 -0.25970501
-0.049063001 -0.0039969999 -0.25970101
-0.049059998 -0.0039209998 -0.259698
-0.049056999 -0.0038439999 -0.25969401
-0.049054999 -0.0037700001 -0.25968599
-0.049052 -0.0036919999 -0.25968599
-0.049049001 -0.0036160001 -0.25968799
-0.049045999 -0.0035399999 -0.25968701
-0.049043 -0.0034620001 -0.25967899
-0.049040001 -0.003388 -0.259671
-0.049038 -0.0033120001 -0.25966501
-0.049035002 -0.003235 -0.25966299
-0.049031001 -0.0031590001 -0.25966799
-0.049028002 -0.0030809999 -0.25966799
-0.049024999 -0.0030050001 -0.25966799
-0.049022 -0.002929 -0.25966799
-0.049019001 -0.0028510001 -0.25966999
-0.049015999 -0.0027749999 -0.259671
-0.049013 -0.002697 -0.259671
-0.049010001 -0.0026209999 -0.259673
-0.049006 -0.002543 -0.25967899
-0.049003001 -0.0024639999 -0.25968701
-0.048999 -0.002388 -0.25969499
-0.048996001 -0.0023099999 -0.259702
-0.048992001 -0.002232 -0.25971201
-0.048989002 -0.0021540001 -0.25972
-0.048985001 -0.002076 -0.259734
-0.048981 -0.0019970001 -0.25974399
