# .PCD v0.7 - Point Cloud Data file format
VERSION 0.7
FIELDS x y z
SIZE 4 4 4
TYPE F F F
COUNT 1 1 1
WIDTH 1448
HEIGHT 1
VIEWPOINT 0 0 0 1 0 0 0
POINTS 1448
DATA ascii
-0.09928 0.016702 -0.203595
-0.099275999 0.016775999 -0.203605
-0.099273004 0.01685 -0.20361701
-0.099269003 0.016926 -0.203639
-0.099265002 0.017003 -0.203659
-0.099261001 0.017077001 -0.203666
-0.099257998 0.017151 -0.20367201
-0.099255003 0.017224999 -0.203678
-0.099252 0.017301001 -0.203684
-0.099247999 0.017375 -0.20369101
-0.099244997 0.017449001 -0.203697
-0.099242002 0.017526001 -0.20370699
-0.099238999 0.0176 -0.20370699
-0.099235997 0.017673001 -0.203703
-0.099233001 0.017749 -0.20369799
-0.099229999 0.017823 -0.203694
-0.099228002 0.017897001 -0.203692
-0.099225 0.017973 -0.20369001
-0.099221997 0.018046999 -0.203687
-0.099219002 0.018121 -0.203675
-0.099216998 0.018193999 -0.20366099
-0.099215001 0.018268 -0.20364501
-0.099212997 0.018340999 -0.203618
-0.099211998 0.018413 -0.203594
-0.099210002 0.018486001 -0.20356201
-0.099209003 0.018559 -0.203523
-0.099206999 0.018633001 -0.203503
-0.099205002 0.018705999 -0.20349699
-0.099202 0.018780001 -0.203483
-0.099200003 0.018854 -0.20347799
-0.099196002 0.018929999 -0.20349599
-0.099192001 0.019004 -0.20350599
-0.099188998 0.019079 -0.20351
-0.099186003 0.019154999 -0.20352501
-0.099182002 0.019231001 -0.203541
-0.099178001 0.019306 -0.203565
-0.099174 0.019382 -0.203585
-0.099169999 0.019458 -0.203603
-0.099165998 0.019533001 -0.20362601
-0.099160999 0.019610999 -0.20365199
-0.099157996 0.019686 -0.20367
-0.099152997 0.019762 -0.203692
-0.099149004 0.019839 -0.203712
-0.099146001 0.019912999 -0.20373
-0.099142 0.019989001 -0.20373499
-0.099138997 0.020063 -0.203739
-0.099136002 0.020138999 -0.203749
-0.099133 0.020213 -0.203749
-0.099129997 0.020289 -0.20374499
-0.099127002 0.020362999 -0.203742
-0.099123999 0.020437 -0.203748
-0.099120997 0.020513 -0.20375399
-0.099118002 0.020586999 -0.20375
-0.099115998 0.020661 -0.203739
-0.099113002 0.020736 -0.203725
-0.099110998 0.020808 -0.203711
-0.099109001 0.020881999 -0.20369101
-0.099108003 0.020955 -0.20366199
-0.099105 0.021028001 -0.20364401
-0.099102996 0.021102 -0.20364401
-0.099099003 0.021179 -0.20365299
-0.099096 0.021252999 -0.203657
-0.099092998 0.021329001 -0.203659
-0.099090002 0.021403 -0.203657
-0.099087 0.021478999 -0.203665
-0.099082999 0.021553 -0.203688
-0.099078998 0.021631001 -0.203706
-0.099074997 0.021706 -0.20371801
-0.099071003 0.021782 -0.20374
-0.099067003 0.021859 -0.20376199
-0.099063002 0.021934999 -0.20377401
-0.099059999 0.022011001 -0.203787
-0.099055998 0.022085 -0.203793
-0.099054001 0.022159001 -0.203789
-0.099050999 0.022235001 -0.203785
-0.099048004 0.022309 -0.20378999
-0.099044003 0.022384999 -0.203804
-0.099040002 0.022461001 -0.203816
-0.099036999 0.022538001 -0.203824
-0.099032998 0.022614 -0.203834
-0.099030003 0.022688 -0.203839
-0.099027 0.022763999 -0.203851
-0.099022999 0.022840001 -0.203869
-0.099018998 0.022917001 -0.203881
-0.099016003 0.022993 -0.203889
-0.099012002 0.023069 -0.203899
-0.099009 0.023145 -0.203908
-0.099005997 0.023219001 -0.203914
-0.099003002 0.023293 -0.203914
-0.098999999 0.023368999 -0.203912
-0.098996997 0.023443 -0.203913
-0.098993003 0.023519 -0.20391899
-0.098990001 0.023595 -0.203925
-0.098986998 0.023670999 -0.203933
-0.098982997 0.023747001 -0.20393901
-0.098980002 0.023822 -0.203952
-0.098976001 0.0239 -0.203968
-0.098972 0.023974 -0.203978
-0.098968998 0.024049999 -0.20399199
-0.098964997 0.024129 -0.204014
-0.098961003 0.024204999 -0.204034
-0.098955996 0.024284 -0.204061
-0.098950997 0.024360999 -0.204097
-0.098947003 0.024439 -0.204127
-0.098941997 0.024518 -0.204155
-0.098939002 0.024594 -0.204171
-0.098935001 0.024669999 -0.204183
-0.098931 0.024746999 -0.204197
-0.098926999 0.024823001 -0.20421401
-0.098924004 0.024901001 -0.20422401
-0.098921001 0.024975 -0.20423
-0.098917 0.025051 -0.204236
-0.098913997 0.025127999 -0.204252
-0.098909996 0.025206 -0.204271
-0.098906003 0.025281999 -0.204291
-0.098902002 0.025358999 -0.204307
-0.098898001 0.025436999 -0.204327
-0.098893002 0.025516 -0.20435099
-0.098889001 0.025591999 -0.204381
-0.098884001 0.025673 -0.20441701
-0.098879002 0.025752001 -0.204459
-0.098872997 0.025832999 -0.204505
-0.098866999 0.025914 -0.204567
-0.098858997 0.026000001 -0.204659
-0.098853 0.026084 -0.204733
-0.098839998 0.026177 -0.204907
-0.099018998 0.010812 -0.204642
-0.099019997 0.010886 -0.20455401
-0.099021003 0.01096 -0.204467
-0.099021003 0.011034 -0.20440701
-0.099021003 0.011109 -0.204363
-0.099019997 0.011184 -0.204308
-0.099019997 0.011257 -0.204252
-0.099018998 0.011332 -0.204208
-0.099018 0.011405 -0.204171
-0.099016003 0.01148 -0.204145
-0.099013999 0.011554 -0.20412301
-0.099013001 0.011629 -0.20409299
-0.099010997 0.011703 -0.20407
-0.099009 0.011778 -0.20405801
-0.099005997 0.011852 -0.20405
-0.099003002 0.011926 -0.204042
-0.099000998 0.012002 -0.20403001
-0.098999001 0.012075 -0.20402101
-0.098995 0.012149 -0.204025
-0.098991998 0.012224 -0.204037
-0.098987997 0.0123 -0.20404699
-0.098985001 0.012374 -0.20405599
-0.098981 0.012448 -0.20407
-0.098977998 0.012524 -0.204082
-0.098975003 0.012598 -0.20408399
-0.098972999 0.012672 -0.204069
-0.098971002 0.012748 -0.204043
-0.098968998 0.012821 -0.20402899
-0.098966002 0.012895 -0.204019
-0.098963998 0.012969 -0.20400999
-0.098961003 0.013044 -0.203996
-0.098959997 0.013118 -0.203968
-0.098958001 0.013191 -0.20394801
-0.098954998 0.013267 -0.20393901
-0.098953001 0.01334 -0.203917
-0.098952003 0.013414 -0.20389301
-0.098949999 0.013489 -0.203869
-0.098948002 0.013563 -0.20384599
-0.098947003 0.013636 -0.203812
-0.098945998 0.013709 -0.203758
-0.098944999 0.013784 -0.203713
-0.098944999 0.013857 -0.20367099
-0.098943003 0.01393 -0.203649
-0.09894 0.014004 -0.20364299
-0.098936997 0.014078 -0.203648
-0.098934002 0.014154 -0.20365
-0.098931 0.014228 -0.203646
-0.098927997 0.014302 -0.20365
-0.098924004 0.014377 -0.20367099
-0.098920003 0.014451 -0.20369101
-0.098916002 0.014527 -0.203711
-0.098912001 0.014602 -0.20372701
-0.098908998 0.014676 -0.203731
-0.098906003 0.014752 -0.203734
-0.098903 0.014826 -0.203738
-0.098899998 0.0149 -0.203742
-0.098897003 0.014974 -0.20374399
-0.098894 0.015048 -0.203749
-0.098889999 0.015124 -0.20375501
-0.098886997 0.015198 -0.20375299
-0.098884001 0.015274 -0.203751
-0.098880999 0.015348 -0.20375299
-0.098878004 0.015422 -0.203756
-0.098875999 0.015496 -0.20375399
-0.098872997 0.01557 -0.203742
-0.098871 0.015644999 -0.20373
-0.098867998 0.015719 -0.20372701
-0.098865002 0.015792999 -0.203721
-0.098862998 0.015867 -0.203711
-0.098860003 0.015939999 -0.20369899
-0.098858997 0.016014 -0.20366199
-0.098860003 0.016085999 -0.203596
-0.098857999 0.016159 -0.20355999
-0.098856002 0.016233001 -0.20355301
-0.098853 0.016307 -0.203545
-0.098849997 0.016380999 -0.20354301
-0.098848 0.016455 -0.203541
-0.098844998 0.016531 -0.203538
-0.098842002 0.016604001 -0.203536
-0.098839 0.016679 -0.203538
-0.098835997 0.016755 -0.20354401
-0.098833002 0.016829001 -0.203547
-0.098829001 0.016903 -0.203555
-0.098825 0.016979 -0.203585
-0.098820999 0.017054001 -0.203605
-0.098816998 0.017130001 -0.20361701
-0.098814003 0.017204 -0.20362
-0.098811999 0.017278001 -0.2036
-0.098810002 0.017351 -0.20358799
-0.098807 0.017425001 -0.203586
-0.098803997 0.017501 -0.203587
-0.098800004 0.017576 -0.203611
-0.098796003 0.017650001 -0.20362499
-0.098793 0.017726 -0.203621
-0.098791003 0.0178 -0.20361701
-0.098788001 0.017873 -0.20361
-0.098784998 0.017947 -0.20360599
-0.098782003 0.018022999 -0.20360801
-0.098779 0.018097 -0.203612
-0.098777004 0.018170999 -0.203603
-0.098774999 0.018245 -0.203583
-0.098773003 0.018317999 -0.203557
-0.098770998 0.018391 -0.20353
-0.098769002 0.018464999 -0.203512
-0.098766997 0.018537 -0.20349
-0.098765001 0.018611999 -0.203472
-0.098762996 0.018686 -0.20346899
-0.098760001 0.018759999 -0.20346899
-0.098756999 0.018834 -0.203465
-0.098754004 0.018908 -0.20346101
-0.098751001 0.018983999 -0.20346799
-0.098747 0.019058 -0.203476
-0.098743998 0.019131999 -0.203486
-0.098739997 0.019207999 -0.2035
-0.098737001 0.019285001 -0.20351399
-0.098733 0.019359 -0.20353501
-0.098728001 0.019436 -0.20356099
-0.098724 0.019512 -0.20358101
-0.098720998 0.019587999 -0.203595
-0.098715998 0.019664999 -0.203633
-0.098711997 0.019742001 -0.203655
-0.098707996 0.019816 -0.203674
-0.098704003 0.019892 -0.203688
-0.098701 0.019966001 -0.203694
-0.098697998 0.020042 -0.20370001
-0.098695002 0.020116 -0.203703
-0.098692 0.020191999 -0.203701
-0.098688997 0.020266 -0.203701
-0.098686002 0.020339999 -0.20369899
-0.098683 0.020416001 -0.203695
-0.098679997 0.02049 -0.203692
-0.098677002 0.020563999 -0.203694
-0.098673999 0.020638 -0.20369001
-0.098672003 0.020714 -0.20368201
-0.098669998 0.020787001 -0.203667
-0.098667003 0.020861 -0.20365299
-0.098665997 0.020932 -0.203629
-0.098664001 0.021005999 -0.2036
-0.098661996 0.021079 -0.20358799
-0.098659001 0.021152999 -0.203586
-0.098655999 0.021229001 -0.203586
-0.098653004 0.021303 -0.203594
-0.098649003 0.02138 -0.20360699
-0.098645002 0.021455999 -0.203619
-0.098641999 0.02153 -0.20362499
-0.098637998 0.021606 -0.203639
-0.098635003 0.021682 -0.203651
-0.098631002 0.021756999 -0.203668
-0.098627001 0.021834999 -0.203692
-0.098623 0.021909 -0.203704
-0.098619998 0.021986 -0.203714
-0.098615997 0.022062 -0.20371801
-0.098613001 0.022136001 -0.203721
-0.098609999 0.022212001 -0.203731
-0.098607004 0.022286 -0.203739
-0.098603003 0.022361999 -0.203741
-0.0986 0.022436 -0.203748
-0.098596998 0.022512 -0.203756
-0.098592997 0.022589 -0.20377
-0.098590001 0.022665 -0.20377401
-0.098586999 0.022739001 -0.203778
-0.098582998 0.022815 -0.203788
-0.098578997 0.022891 -0.203805
-0.098576002 0.022967 -0.203821
-0.098572001 0.023043999 -0.203835
-0.098568 0.023119999 -0.20384499
-0.098564997 0.023194 -0.203851
-0.098562002 0.02327 -0.20385
-0.098559 0.023344001 -0.20384599
-0.098555997 0.02342 -0.20384599
-0.098553002 0.023494 -0.20384599
-0.098549999 0.023569999 -0.203851
-0.098546997 0.023644 -0.20385499
-0.098544002 0.02372 -0.20386501
-0.098540001 0.023796 -0.20387501
-0.098536998 0.023871999 -0.20388301
-0.098532997 0.023948999 -0.203898
-0.098529004 0.024025001 -0.203916
-0.098525003 0.024103001 -0.203936
-0.098521002 0.024180001 -0.203958
-0.098516002 0.024258001 -0.203988
-0.098512001 0.024335001 -0.204018
-0.098507002 0.024413999 -0.20405
-0.098503001 0.024491999 -0.204082
-0.098498002 0.024568999 -0.204109
-0.098494001 0.024646999 -0.204127
-0.098490998 0.024723999 -0.20413899
-0.098486997 0.024800001 -0.204153
-0.098483004 0.024876 -0.20416901
-0.098480001 0.024952 -0.204179
-0.098476 0.025028 -0.20418601
-0.098472998 0.025105 -0.204198
-0.098468997 0.025180999 -0.20421
-0.098465003 0.025257001 -0.204228
-0.098461002 0.025335999 -0.204252
-0.098457001 0.025412001 -0.204273
-0.098452002 0.025490999 -0.204303
-0.098447002 0.025572 -0.204345
-0.098442003 0.02565 -0.204383
-0.098436996 0.025729001 -0.20442501
-0.098430999 0.02581 -0.204475
-0.098425999 0.025891 -0.204523
-0.098420002 0.025971999 -0.204575
-0.098411001 0.026061 -0.204693
-0.098402001 0.026147 -0.20481101
-0.098392002 0.026238 -0.204946
-0.098587997 0.010864 -0.20462801
-0.098590001 0.01094 -0.20451599
-0.098591 0.011014 -0.204438
-0.098591 0.011087 -0.20437101
-0.098591 0.011163 -0.20430499
-0.098591 0.011236 -0.204253
-0.098590001 0.011311 -0.20421
-0.098590001 0.011384 -0.20416
-0.098589003 0.011459 -0.20411199
-0.098587997 0.011534 -0.20406801
-0.098586001 0.011607 -0.20403901
-0.098583996 0.011681 -0.20402101
-0.098582 0.011756 -0.204007
-0.098580003 0.01183 -0.203997
-0.098577 0.011906 -0.20399
-0.098573998 0.01198 -0.203982
-0.098572001 0.012054 -0.20398
-0.098568998 0.012128 -0.20398
-0.098566003 0.012204 -0.20397501
-0.098563001 0.012278 -0.203979
-0.098559 0.012352 -0.203991
-0.098555997 0.012426 -0.203999
-0.098552004 0.012502 -0.204013
-0.098549001 0.012576 -0.204026
-0.098545998 0.01265 -0.204028
-0.098543003 0.012726 -0.20402201
-0.098540001 0.0128 -0.204014
-0.098537996 0.012874 -0.20400099
-0.098536 0.012947 -0.20398299
-0.098534003 0.013023 -0.203963
-0.098531999 0.013096 -0.203941
-0.098530002 0.01317 -0.203918
-0.098527998 0.013245 -0.20389999
-0.098526001 0.013319 -0.20388401
-0.098523997 0.013392 -0.20386299
-0.098522 0.013468 -0.203841
-0.098520003 0.013541 -0.203813
-0.098518997 0.013614 -0.203777
-0.098517999 0.013688 -0.20373601
-0.098517999 0.01376 -0.20368201
-0.098517001 0.013833 -0.20363399
-0.098514996 0.013909 -0.20361499
-0.098513 0.013983 -0.203611
-0.098509997 0.014057 -0.203609
-0.098507002 0.014131 -0.203611
-0.098503999 0.014205 -0.203618
-0.098499998 0.014281 -0.20363
-0.098495997 0.014355 -0.20364401
-0.098493002 0.01443 -0.20366
-0.098489001 0.014506 -0.203676
-0.098485 0.01458 -0.203695
-0.098480999 0.014654 -0.203705
-0.098477997 0.014731 -0.203713
-0.098474003 0.014805 -0.20372701
-0.098471001 0.014879 -0.203733
-0.098468997 0.014953 -0.203724
-0.098466001 0.015027 -0.20372
-0.098462999 0.015103 -0.203722
-0.098459996 0.015177 -0.20372599
-0.098456003 0.015251 -0.203733
-0.098453 0.015327 -0.20373701
-0.098451003 0.0154 -0.20372701
-0.098448001 0.015474 -0.203721
-0.098444998 0.015548 -0.20372599
-0.098442003 0.015624 -0.203722
-0.098439999 0.015698001 -0.20371
-0.098436996 0.015772 -0.203696
-0.098435 0.015845001 -0.203683
-0.098433003 0.015919 -0.203669
-0.098430999 0.015992999 -0.203651
-0.098430999 0.016065 -0.203593
-0.09843 0.016138 -0.20355
-0.098428003 0.016212 -0.20352399
-0.098425999 0.016285 -0.203508
-0.098422997 0.016359 -0.203503
-0.098421 0.016433001 -0.203501
-0.098417997 0.016507 -0.203495
-0.098415002 0.016582999 -0.203495
-0.098412 0.016657 -0.2035
-0.098408997 0.016731 -0.20350599
-0.098405004 0.016805001 -0.20351
-0.098402001 0.016881 -0.203522
-0.098398 0.016956 -0.20354
-0.098393999 0.017031999 -0.203555
-0.098390996 0.017106 -0.20356099
-0.098388001 0.01718 -0.20356899
-0.098384 0.017255999 -0.20357899
-0.098380998 0.01733 -0.20358101
-0.098378003 0.017403999 -0.203578
-0.098375 0.017480001 -0.203576
-0.098371997 0.017554 -0.203576
-0.098370001 0.017627999 -0.203568
-0.098366998 0.017702 -0.203559
-0.098364003 0.017775999 -0.203573
-0.098360002 0.017852001 -0.203591
-0.098356999 0.017926 -0.203595
-0.098353997 0.017999999 -0.203592
-0.098352 0.018076001 -0.20358001
-0.098348998 0.01815 -0.20356201
-0.098347001 0.018223001 -0.20355199
-0.098343998 0.018297 -0.203545
-0.098343 0.018371001 -0.203523
-0.098342001 0.018441999 -0.203477
-0.098341003 0.018515 -0.20344
-0.098338999 0.018588001 -0.203416
-0.098337002 0.018662 -0.20340399
-0.098334 0.018735999 -0.20339601
-0.098330997 0.01881 -0.20339701
-0.098328002 0.018883999 -0.203407
-0.098324001 0.018959999 -0.203421
-0.098320998 0.019034 -0.20343301
-0.098316997 0.019111 -0.203449
-0.098312996 0.019187 -0.20346799
-0.098309003 0.019261001 -0.20348801
-0.098305002 0.019338001 -0.20351399
-0.098301001 0.019414 -0.20353
-0.098296002 0.019491 -0.203566
-0.098291002 0.019568 -0.20359799
-0.098287001 0.019644 -0.203633
-0.098283 0.019721 -0.20365299
-0.098278999 0.019795001 -0.20366099
-0.098275997 0.019869 -0.203665
-0.098273002 0.019944999 -0.20367099
-0.098269999 0.020019 -0.203674
-0.098266996 0.020095 -0.203668
-0.098264001 0.020168999 -0.203668
-0.098260999 0.020243 -0.203666
-0.098259002 0.020319 -0.20366301
-0.098255001 0.020393001 -0.203665
-0.098251998 0.020469001 -0.203675
-0.098249003 0.020543 -0.203677
-0.098246001 0.020617001 -0.203668
-0.098243997 0.02069 -0.20366199
-0.098241001 0.020765999 -0.203656
-0.098238997 0.02084 -0.20364
-0.098237 0.020911001 -0.203611
-0.098237 0.020981999 -0.20357101
-0.098233998 0.021056 -0.20355301
-0.098232001 0.021129999 -0.203549
-0.098228998 0.021206001 -0.20355
-0.098226003 0.02128 -0.203554
-0.098222002 0.021356 -0.203556
-0.098219 0.021430001 -0.20355999
-0.098214999 0.021506 -0.203577
-0.098210998 0.021583 -0.203603
-0.098206997 0.021659 -0.20361701
-0.098204002 0.021733001 -0.20362701
-0.098200001 0.021809001 -0.20364299
-0.098196 0.021886 -0.20366301
-0.098191999 0.021962 -0.20368201
-0.098188996 0.022038 -0.203692
-0.098186001 0.022112001 -0.20369799
-0.098182 0.022189001 -0.203704
-0.098178998 0.022263 -0.203704
-0.098176003 0.022337999 -0.203705
-0.098173 0.022414999 -0.203715
-0.098168999 0.022489 -0.203725
-0.098165996 0.022565 -0.20373499
-0.098162003 0.022640999 -0.20374499
-0.098159 0.022717001 -0.203758
-0.098154999 0.022794001 -0.20377
-0.098150998 0.022868 -0.203784
-0.098148003 0.022944 -0.20379201
-0.098145001 0.023019999 -0.20379999
-0.098141 0.023096001 -0.203815
-0.098136999 0.023173001 -0.203823
-0.098135002 0.023247 -0.203823
-0.098131999 0.023322999 -0.203821
-0.098128997 0.023396 -0.20382001
-0.098126002 0.023472 -0.20381799
-0.098122999 0.023545999 -0.20381799
-0.098119996 0.02362 -0.203822
-0.098116003 0.023696 -0.203826
-0.098113 0.023773 -0.203839
-0.098108999 0.023848999 -0.203853
-0.098105997 0.023925001 -0.20386501
-0.098102003 0.024001 -0.203881
-0.098096997 0.024080001 -0.203905
-0.098093003 0.024156 -0.203927
-0.098089002 0.024235001 -0.203954
-0.098085001 0.024311 -0.20398
-0.098080002 0.024388 -0.20401201
-0.098075002 0.024468999 -0.20404799
-0.098070003 0.024545999 -0.204082
-0.098066002 0.024623999 -0.20411199
-0.098061003 0.024703 -0.20413999
-0.098058 0.024778999 -0.204152
-0.098053999 0.024855001 -0.204161
-0.098050997 0.024931001 -0.20416699
-0.098047003 0.025008 -0.204181
-0.098044001 0.025084 -0.20418701
-0.098040998 0.02516 -0.204197
-0.098036997 0.025235999 -0.204208
-0.098033004 0.025312001 -0.204228
-0.098029003 0.025390999 -0.204256
-0.098024003 0.025469 -0.204282
-0.098018996 0.025548 -0.20431601
-0.098013997 0.025627 -0.204358
-0.098008998 0.025707999 -0.204402
-0.098003 0.025789 -0.20446
-0.097998001 0.025868 -0.204502
-0.097992003 0.025948999 -0.204548
-0.097981997 0.026040001 -0.204684
-0.097970001 0.026133999 -0.20485599
-0.097961999 0.026219999 -0.204952
-0.098251998 0.01092 -0.204579
-0.098252997 0.010994 -0.204486
-0.098254003 0.011068 -0.204404
-0.098254003 0.011143 -0.20434
-0.098254003 0.011218 -0.20429499
-0.098252997 0.011291 -0.204243
-0.098252997 0.011366 -0.204193
-0.098251998 0.01144 -0.204146
-0.098251 0.011514 -0.20411
-0.098249003 0.011589 -0.20408601
-0.098246999 0.011662 -0.20405801
-0.098246001 0.011738 -0.20402899
-0.098243997 0.011811 -0.204007
-0.098241001 0.011887 -0.203997
-0.098237999 0.011961 -0.203995
-0.098236002 0.012035 -0.20399
-0.098233998 0.012108 -0.20397601
-0.098231003 0.012184 -0.203968
-0.098228 0.012258 -0.20397601
-0.098223999 0.012333 -0.203991
-0.098220997 0.012407 -0.203997
-0.098217003 0.012483 -0.20400099
-0.098214 0.012557 -0.20401099
-0.098210998 0.012631 -0.20402101
-0.098208003 0.012707 -0.20402201
-0.098205 0.012781 -0.20402201
-0.098201998 0.012855 -0.204014
-0.098200001 0.012928 -0.203996
-0.098197997 0.013004 -0.203979
-0.098196 0.013078 -0.203963
-0.098194003 0.013151 -0.203941
-0.098191999 0.013227 -0.20391899
-0.098190002 0.0133 -0.203904
-0.098187998 0.013374 -0.203886
-0.098186001 0.013449 -0.20386
-0.098183997 0.013523 -0.203834
-0.098182 0.013596 -0.20380899
-0.098181002 0.013669 -0.203775
-0.098181002 0.013744 -0.20371699
-0.098181002 0.013817 -0.203656
-0.098178998 0.01389 -0.20363
-0.098177001 0.013964 -0.203622
-0.098173998 0.014038 -0.203614
-0.098171003 0.014111 -0.203611
-0.098168001 0.014188 -0.203619
-0.098164 0.014262 -0.203631
-0.098160997 0.014336 -0.203647
-0.098157004 0.01441 -0.20366
-0.098154001 0.014487 -0.20367
-0.09815 0.014561 -0.20369001
-0.098145999 0.014635 -0.203706
-0.098142996 0.014711 -0.20371599
-0.098139003 0.014786 -0.20372701
-0.098136 0.01486 -0.20373701
-0.098132998 0.014934 -0.20373701
-0.098130003 0.015007 -0.203723
-0.098127998 0.015083 -0.20372
-0.098123997 0.015158 -0.203734
-0.098121002 0.015233 -0.20373
-0.098118998 0.015307 -0.20372
-0.098116003 0.015381 -0.203721
-0.098112002 0.015455 -0.203731
-0.098108999 0.015529 -0.203729
-0.098107003 0.015605 -0.203719
-0.098104 0.015679 -0.203712
-0.098102003 0.015752999 -0.203706
-0.098099001 0.015826 -0.203696
-0.098096997 0.015900001 -0.203686
-0.098095 0.015976001 -0.20366301
-0.098095 0.016046001 -0.20359699
-0.098095 0.016119 -0.203547
-0.098093003 0.016193001 -0.203532
-0.09809 0.016266 -0.203522
-0.098088004 0.016340001 -0.203512
-0.098085001 0.016414 -0.203502
-0.098081999 0.016488001 -0.20349699
-0.098079003 0.016564 -0.203501
-0.098076001 0.016638 -0.203509
-0.098072998 0.016712001 -0.203517
-0.098068997 0.016788 -0.203531
-0.098064996 0.016863 -0.20354401
-0.098061003 0.016938999 -0.203574
-0.098057002 0.017014001 -0.203602
-0.098053999 0.01709 -0.2036
-0.098050997 0.017163999 -0.203602
-0.098047003 0.017238 -0.203605
-0.098044001 0.017314 -0.203609
-0.098041996 0.017387999 -0.203603
-0.098039001 0.017461 -0.203595
-0.098035999 0.017534999 -0.203602
-0.098031998 0.01761 -0.20361
-0.098029003 0.017686 -0.203614
-0.098026 0.017759999 -0.203614
-0.098022997 0.017836001 -0.20361
-0.098021001 0.017909 -0.20359699
-0.098018996 0.017981 -0.203575
-0.098017 0.018056 -0.203567
-0.098013997 0.018131001 -0.20357201
-0.098011002 0.018204 -0.203568
-0.098007999 0.018278001 -0.203558
-0.098007001 0.018351 -0.20352399
-0.098006003 0.018424001 -0.203483
-0.098004997 0.018495999 -0.20344301
-0.098003998 0.018569 -0.203411
-0.098002002 0.018642001 -0.203394
-0.097998999 0.018716 -0.203394
-0.097994998 0.018790999 -0.20340601
-0.097992003 0.018866999 -0.203418
-0.097988002 0.018941 -0.20342401
-0.097984999 0.019017 -0.203437
-0.097980998 0.019091999 -0.203457
-0.097976997 0.019168001 -0.203477
-0.097972997 0.019244 -0.203501
-0.097967997 0.019321 -0.20352501
-0.097964004 0.019396 -0.203558
-0.097958997 0.019471999 -0.20358799
-0.097956002 0.019548001 -0.20359001
-0.097952999 0.019622 -0.20359799
-0.097948998 0.019699 -0.20361
-0.097946003 0.019773001 -0.203619
-0.097942002 0.019849 -0.203637
-0.097938001 0.019926 -0.203659
-0.097934 0.020002 -0.203675
-0.097930998 0.020075999 -0.203679
-0.097928002 0.02015 -0.203674
-0.097925 0.020226 -0.203674
-0.097921997 0.020300001 -0.203678
-0.097919002 0.020376001 -0.20367999
-0.097916 0.02045 -0.20367999
-0.097914003 0.020524001 -0.20367301
-0.097911 0.020597 -0.20366099
-0.097909003 0.020671001 -0.203651
-0.097906001 0.020747 -0.203647
-0.097903997 0.020821 -0.20363399
-0.097902 0.020894 -0.203618
-0.097900003 0.020965001 -0.20358799
-0.097898997 0.021039 -0.203559
-0.097896002 0.021112001 -0.203545
-0.097893 0.021187 -0.20355099
-0.097889997 0.021263 -0.203555
-0.097887002 0.021336 -0.20355
-0.097883999 0.02141 -0.20355199
-0.097879998 0.021486999 -0.20356999
-0.097877003 0.021562999 -0.203584
-0.097873002 0.021639001 -0.203602
-0.097868003 0.021716001 -0.203629
-0.097864002 0.021792 -0.203649
-0.097860001 0.021869 -0.203669
-0.097856 0.021945 -0.20368899
-0.097852997 0.022019001 -0.20369899
-0.097850002 0.022095 -0.20370699
-0.097846001 0.022172 -0.20372
-0.097842999 0.022245999 -0.20371801
-0.097841002 0.022319 -0.20370799
-0.097837001 0.022396 -0.20371801
-0.097833 0.022472 -0.203739
-0.097828999 0.022547999 -0.20375299
-0.097825997 0.022624001 -0.203765
-0.097822003 0.022701001 -0.20377301
-0.097819 0.022775 -0.20378301
-0.097815 0.022851 -0.203795
-0.097811997 0.022926999 -0.20381001
-0.097808003 0.023003999 -0.203826
-0.097804002 0.023080001 -0.20383599
-0.097801 0.023156 -0.20383801
-0.097797997 0.023229999 -0.20383599
-0.097795002 0.023304 -0.203833
-0.097792998 0.023376999 -0.20381901
-0.097791001 0.023452999 -0.203811
-0.097787 0.023529001 -0.203823
-0.097783998 0.023603 -0.203834
-0.097779997 0.02368 -0.20384
-0.097777002 0.023755999 -0.203852
-0.097773001 0.023832001 -0.203866
-0.097769 0.023908 -0.20388401
-0.097764999 0.023985 -0.20390099
-0.097760998 0.024063 -0.20391899
-0.097756997 0.024139 -0.203935
-0.097753003 0.024216 -0.203963
-0.097747996 0.024295 -0.203995
-0.097742997 0.024373 -0.20403101
-0.097737998 0.024452001 -0.204071
-0.097733997 0.024530999 -0.204105
-0.097728997 0.02461 -0.204144
-0.097724997 0.024685999 -0.20416
-0.097721003 0.024762001 -0.20416801
-0.097718 0.024838001 -0.20417599
-0.097714998 0.024912 -0.20417801
-0.097710997 0.024991 -0.20419
-0.097707003 0.025067 -0.204207
-0.097704001 0.025142999 -0.20422301
-0.0977 0.025219001 -0.204239
-0.097695999 0.025297999 -0.204261
-0.097691 0.025376 -0.204289
-0.097686999 0.025452999 -0.204311
-0.097682998 0.025531 -0.204339
-0.097677 0.025612 -0.204386
-0.097672001 0.025691001 -0.20442399
-0.097667001 0.025772 -0.204464
-0.097661003 0.025851 -0.20451599
-0.097654998 0.025935 -0.204584
-0.097646996 0.026021 -0.20468201
-0.097632997 0.026118999 -0.20489299
-0.097960003 0.010983 -0.204557
-0.097960003 0.011056 -0.20448101
-0.097961001 0.011132 -0.204393
-0.097961999 0.011204 -0.20433
-0.097961001 0.011279 -0.20427801
-0.097960003 0.011354 -0.20423201
-0.097958997 0.011427 -0.20419399
-0.097957999 0.011502 -0.204153
-0.097957 0.011575 -0.204115
-0.097955003 0.011651 -0.204087
-0.097953998 0.011724 -0.204064
-0.097952001 0.0118 -0.204042
-0.097949997 0.011873 -0.20402201
-0.097948 0.011949 -0.204006
-0.097944997 0.012023 -0.203999
-0.097942002 0.012097 -0.203995
-0.097939 0.012171 -0.20399299
-0.097935997 0.012247 -0.203995
-0.097933002 0.012321 -0.20400099
-0.097929001 0.012395 -0.204014
-0.097925998 0.012471 -0.204026
-0.097923003 0.012545 -0.204028
-0.097920001 0.012619 -0.20403001
-0.097916 0.012695 -0.204035
-0.097912997 0.012769 -0.204041
-0.097911 0.012843 -0.204035
-0.097909003 0.012917 -0.204017
-0.097906999 0.012992 -0.203996
-0.097903997 0.013066 -0.20398
-0.097902 0.013139 -0.20396601
-0.097900003 0.013215 -0.20395599
-0.097897001 0.013289 -0.203943
-0.097894996 0.013362 -0.203925
-0.097893 0.013438 -0.20390099
-0.097892001 0.013511 -0.203871
-0.097889997 0.013585 -0.20385399
-0.097888 0.013658 -0.20382001
-0.097888 0.013733 -0.203758
-0.097888999 0.013805 -0.20369101
-0.097887002 0.013878 -0.203665
-0.097884998 0.013952 -0.203655
-0.097882003 0.014026 -0.203641
-0.097879998 0.014102 -0.203632
-0.097877003 0.014176 -0.20364
-0.097873002 0.01425 -0.20365
-0.09787 0.014324 -0.203658
-0.097865999 0.014398 -0.20367099
-0.097861998 0.014475 -0.203687
-0.097859003 0.014549 -0.203701
-0.097855002 0.014623 -0.203713
-0.097851001 0.0147 -0.203733
-0.097847998 0.014774 -0.203748
-0.097843997 0.014848 -0.20375399
-0.097841002 0.014924 -0.20376
-0.097837999 0.014998 -0.20376401
-0.097834997 0.015072 -0.20376401
-0.097832002 0.015146 -0.203759
-0.097829998 0.015222 -0.203751
-0.097827002 0.015296 -0.203749
-0.097824 0.01537 -0.203749
-0.097820997 0.015443 -0.20374601
-0.097819 0.015519 -0.20373601
-0.097815998 0.015593 -0.203732
-0.097813003 0.015667001 -0.203722
-0.097810999 0.015741 -0.203715
-0.097808003 0.015814001 -0.20370699
-0.097805999 0.01589 -0.203697
-0.097804002 0.015964 -0.203679
-0.097801 0.016037 -0.203664
-0.097801998 0.016108001 -0.2036
-0.097801 0.016181 -0.20354199
-0.097799003 0.016254 -0.203529
-0.097796999 0.016328 -0.203513
-0.097793996 0.016402001 -0.203511
-0.097791001 0.016478 -0.20351499
-0.097787999 0.016551999 -0.20351601
-0.097785003 0.016626 -0.20351601
-0.097782001 0.016702 -0.203518
-0.097778998 0.016775999 -0.20352601
-0.097774997 0.01685 -0.20354301
-0.097769998 0.016927 -0.203575
-0.097767003 0.017000999 -0.203585
-0.097763002 0.017077001 -0.203593
-0.097759999 0.017151 -0.203603
-0.097756997 0.017225999 -0.20360599
-0.097754002 0.017302001 -0.20360801
-0.097750999 0.017376 -0.203614
-0.097746 0.017452 -0.203642
-0.097741999 0.017529 -0.203674
-0.097737998 0.017603001 -0.20368101
-0.097736001 0.017677 -0.203677
-0.097732998 0.017751001 -0.203675
-0.097730003 0.017827 -0.203677
-0.097726002 0.017901 -0.203686
-0.097723 0.017975001 -0.203686
-0.097722001 0.018048 -0.20366
-0.097721003 0.018121 -0.203622
-0.097718999 0.018195 -0.203591
-0.097717002 0.018268 -0.20357101
-0.097714998 0.018342 -0.20355099
-0.097713001 0.018415 -0.20352501
-0.097712003 0.018486001 -0.203494
-0.097710997 0.01856 -0.203458
-0.097709 0.018633001 -0.203444
-0.097705998 0.018707 -0.20344301
-0.097703002 0.018781001 -0.203435
-0.0977 0.018855 -0.20343301
-0.097696997 0.018931 -0.203447
-0.097693004 0.019005001 -0.203462
-0.097689003 0.019082 -0.20347799
-0.097685002 0.019158 -0.20349599
-0.097681001 0.019233 -0.20352
-0.097677 0.019311 -0.20355199
-0.097672999 0.019386001 -0.20357201
-0.097668998 0.019462001 -0.203591
-0.097663999 0.019539 -0.20363501
-0.097658999 0.019616 -0.20367099
-0.097654998 0.019692 -0.203677
-0.097652003 0.019765999 -0.203683
-0.097649001 0.01984 -0.203684
-0.097645998 0.019916 -0.203684
-0.097643003 0.019990001 -0.203692
-0.09764 0.020066001 -0.203696
-0.097636998 0.02014 -0.203694
-0.097634003 0.020214001 -0.203695
-0.097631 0.02029 -0.20369899
-0.097627997 0.020364 -0.203701
-0.097623996 0.020439999 -0.203705
-0.097622 0.020514 -0.203702
-0.097618997 0.020587999 -0.203692
-0.097617 0.020663001 -0.20367999
-0.097613998 0.020734999 -0.203666
-0.097612001 0.020811001 -0.203649
-0.097609997 0.020881999 -0.203629
-0.097608998 0.020956 -0.203601
-0.097607002 0.021028999 -0.20358001
-0.097603999 0.021103 -0.203574
-0.097600996 0.021176999 -0.203576
-0.097598001 0.021252999 -0.20357201
-0.097594999 0.021327 -0.203576
-0.097592004 0.021403 -0.203591
-0.097588003 0.021477001 -0.20360699
-0.097584002 0.021554001 -0.20361701
-0.097580999 0.02163 -0.203631
-0.097576998 0.021706 -0.203649
-0.097572997 0.021783 -0.203668
-0.097569004 0.021859 -0.203688
-0.097565003 0.021934999 -0.203706
-0.097561002 0.022012001 -0.203722
-0.097557999 0.022086 -0.203734
-0.097553998 0.022162 -0.203743
-0.097551003 0.022236001 -0.203741
-0.097548001 0.022312 -0.203741
-0.097544 0.022388 -0.203757
-0.097540997 0.022461999 -0.203765
-0.097538002 0.022538001 -0.203768
-0.097534999 0.022614 -0.203776
-0.097530998 0.022691 -0.203788
-0.097526997 0.022767 -0.203802
-0.097522996 0.022841001 -0.20381799
-0.097519003 0.022919999 -0.20383701
-0.097516 0.022994 -0.203849
-0.097512998 0.02307 -0.20385499
-0.097508997 0.023146 -0.203859
-0.097506002 0.023221999 -0.203869
-0.097502999 0.023296 -0.203876
-0.097499996 0.02337 -0.203866
-0.097498 0.023445999 -0.20385399
-0.097494997 0.02352 -0.203858
-0.097491004 0.023596 -0.20387
-0.097487003 0.023672 -0.203881
-0.097484 0.023747999 -0.203885
-0.097480997 0.023824001 -0.20389099
-0.097476996 0.023901001 -0.20391101
-0.097473003 0.023977 -0.203935
-0.097468004 0.024056001 -0.203959
-0.097464003 0.024132 -0.20398401
-0.097460002 0.024211001 -0.20400999
-0.097456001 0.024287 -0.204024
-0.097452 0.024363 -0.204046
-0.097447 0.024442 -0.20409
-0.097442001 0.024521001 -0.204134
-0.097437002 0.024599999 -0.204162
-0.097433001 0.024676001 -0.204179
-0.097429998 0.024752 -0.204189
-0.097425997 0.024831001 -0.20420501
-0.097421996 0.024907 -0.204217
-0.097419001 0.024983 -0.204227
-0.097415 0.025059 -0.204235
-0.097411998 0.025134999 -0.204248
-0.097407997 0.025211999 -0.204264
-0.097404003 0.025288001 -0.204282
-0.097400002 0.025366001 -0.204298
-0.097395003 0.025444999 -0.20433
-0.097390004 0.025524 -0.20437001
-0.097384997 0.025605001 -0.204412
-0.097379997 0.025684001 -0.204458
-0.097374 0.025765 -0.204502
-0.097369 0.025846001 -0.204555
-0.097363003 0.025924999 -0.204603
-0.097354002 0.026015 -0.204724
-0.097344004 0.026103999 -0.20485
-0.097713001 0.010966 -0.204557
-0.097713999 0.01104 -0.204467
-0.097713999 0.011115 -0.204411
-0.097713999 0.011189 -0.204346
-0.097713999 0.011264 -0.204284
-0.097713001 0.011339 -0.20423201
-0.097713001 0.011412 -0.204182
-0.097712003 0.011487 -0.204145
-0.097709998 0.01156 -0.20411301
-0.097709 0.011635 -0.204081
-0.097708002 0.011708 -0.20404799
-0.097704999 0.011784 -0.204032
-0.097703002 0.011858 -0.20402201
-0.097700998 0.011932 -0.20400999
-0.097698003 0.012007 -0.20399401
-0.097696997 0.012081 -0.203969
-0.097694002 0.012154 -0.203963
-0.097690001 0.012231 -0.20397501
-0.097686999 0.012305 -0.20398501
-0.097682998 0.012379 -0.204
-0.097680002 0.012455 -0.20401201
-0.097676001 0.012529 -0.204016
-0.097672999 0.012603 -0.20402201
-0.097669996 0.012678 -0.204033
-0.097667001 0.012754 -0.204033
-0.097663999 0.012827 -0.204027
-0.097661003 0.012901 -0.204023
-0.097658999 0.012977 -0.204005
-0.097657003 0.01305 -0.20398401
-0.097654998 0.013124 -0.203968
-0.097653002 0.0132 -0.20394801
-0.097650997 0.013273 -0.203933
-0.097649001 0.013347 -0.203915
-0.097646996 0.013422 -0.203895
-0.097645 0.013496 -0.203871
-0.097644001 0.013569 -0.203832
-0.097643003 0.013642 -0.203802
-0.097640999 0.013717 -0.203766
-0.097640999 0.01379 -0.203705
-0.09764 0.013863 -0.20366301
-0.097638004 0.013937 -0.203647
-0.097635999 0.01401 -0.203641
-0.097632997 0.014086 -0.203638
-0.097630002 0.01416 -0.203638
-0.097626999 0.014234 -0.203642
-0.097623996 0.014308 -0.20364401
-0.097620003 0.014382 -0.203649
-0.097617 0.014459 -0.203667
-0.097612999 0.014533 -0.20368899
-0.097608998 0.014607 -0.20369899
-0.097604997 0.014684 -0.203715
-0.097600996 0.014758 -0.203738
-0.097598001 0.014834 -0.20374399
-0.097594999 0.014908 -0.203742
-0.097592004 0.014982 -0.20374399
-0.097589001 0.015056 -0.203742
-0.097586997 0.01513 -0.20373701
-0.097584002 0.015206 -0.203725
-0.097580999 0.01528 -0.203723
-0.097577997 0.015354 -0.203729
-0.097575001 0.01543 -0.20373
-0.097571999 0.015503 -0.20372
-0.097570002 0.015577 -0.20370799
-0.097566999 0.015651001 -0.203704
-0.097563997 0.015725 -0.203703
-0.097562 0.015800999 -0.203695
-0.097560003 0.015874 -0.203677
-0.097557999 0.015947999 -0.203655
-0.097556002 0.016021 -0.20363601
-0.097554997 0.016094999 -0.203602
-0.097554997 0.016164999 -0.20354401
-0.097553 0.016239 -0.203521
-0.097551003 0.016314 -0.20350499
-0.097548001 0.016388001 -0.203501
-0.097544998 0.016462 -0.20349699
-0.097542003 0.016535999 -0.203492
-0.097539 0.01661 -0.203492
-0.097535998 0.016686 -0.203504
-0.097531997 0.016759999 -0.20351601
-0.097529002 0.016835 -0.203529
-0.097525001 0.016911 -0.20355301
-0.097521 0.016984999 -0.203575
-0.097516999 0.017062001 -0.203585
-0.097512998 0.017138001 -0.20361499
-0.097507 0.017213 -0.20366099
-0.097503997 0.01729 -0.203678
-0.097501002 0.017363001 -0.203664
-0.097498998 0.017437 -0.20364401
-0.097497001 0.017511001 -0.20364
-0.097493 0.017587001 -0.203649
-0.097489998 0.017661 -0.20365299
-0.097487003 0.017735001 -0.20365299
-0.097484 0.017811 -0.20365299
-0.097480997 0.017885 -0.20365199
-0.097479001 0.017958 -0.20364401
-0.097475998 0.018034 -0.20364
-0.097473003 0.018107999 -0.203638
-0.097470999 0.018182 -0.20362499
-0.097469002 0.018254999 -0.203595
-0.097466998 0.018329 -0.203585
-0.097465001 0.018402001 -0.203555
-0.097465001 0.018472999 -0.203504
-0.097464003 0.018544 -0.203458
-0.097461998 0.018618001 -0.20343199
-0.097460002 0.018691 -0.20342299
-0.097456999 0.018765001 -0.203419
-0.097453997 0.018841 -0.20342299
-0.097451001 0.018914999 -0.203429
-0.097447999 0.018989 -0.203436
-0.097443998 0.019066 -0.20344999
-0.097439997 0.019142 -0.20346799
-0.097436003 0.019215999 -0.20348801
-0.097432002 0.019293001 -0.20351601
-0.097428001 0.019369001 -0.203536
-0.097424001 0.019444 -0.203555
-0.097416997 0.019523 -0.203623
-0.097413003 0.0196 -0.20364299
-0.097410001 0.019676 -0.203651
-0.097406 0.019750001 -0.20366301
-0.097402997 0.019826001 -0.203668
-0.097400002 0.0199 -0.20367
-0.097397 0.019975999 -0.203678
-0.097392999 0.02005 -0.203686
-0.097390004 0.020126 -0.203684
-0.097387999 0.020199999 -0.20368101
-0.097384997 0.020274 -0.203679
-0.097381003 0.02035 -0.20368899
-0.097378001 0.020424001 -0.203687
-0.097375996 0.020498 -0.203684
-0.097372003 0.020574 -0.203692
-0.097369 0.020648001 -0.20369001
-0.097367004 0.020722 -0.20367201
-0.097364999 0.020795001 -0.203655
-0.097364001 0.020869 -0.203631
-0.097363003 0.02094 -0.203591
-0.097360998 0.021012999 -0.203554
-0.097359002 0.021087 -0.203548
-0.097355999 0.021160999 -0.20355199
-0.097352996 0.021237001 -0.203554
-0.097350001 0.021311 -0.20355
-0.097346999 0.021384999 -0.20355301
-0.097342998 0.021461001 -0.203565
-0.097338997 0.021537 -0.20357899
-0.097336002 0.021614 -0.203595
-0.097332001 0.02169 -0.20361701
-0.097327001 0.021767 -0.20365
-0.097322002 0.021842999 -0.20367999
-0.097318001 0.021919999 -0.20370001
-0.097314999 0.021996001 -0.203712
-0.097310998 0.022072 -0.203722
-0.097308002 0.022148 -0.203734
-0.097304001 0.022221999 -0.203741
-0.097301997 0.022298001 -0.20373701
-0.097297996 0.022372 -0.203747
-0.097295001 0.022449 -0.203757
-0.097291 0.022524999 -0.203766
-0.097287998 0.022600999 -0.20378
-0.097283997 0.022677001 -0.203794
-0.097281002 0.022751 -0.20379999
-0.097277001 0.022828 -0.20381001
-0.097273998 0.022903999 -0.20382001
-0.097269997 0.022980001 -0.203839
-0.097266003 0.023056 -0.203851
-0.097263001 0.023132 -0.20385499
-0.097259998 0.023207 -0.203861
-0.097257003 0.023282001 -0.203859
-0.097254001 0.023356 -0.203852
-0.097250998 0.023432 -0.20385601
-0.097248003 0.023506001 -0.203862
-0.097244002 0.023582 -0.203868
-0.097240999 0.023659 -0.20387299
-0.097237997 0.023732999 -0.203877
-0.097235002 0.023809001 -0.20388301
-0.097231001 0.023885 -0.203899
-0.097227 0.023961 -0.20392101
-0.097222 0.024040001 -0.203943
-0.097217999 0.024119001 -0.20397601
-0.097213998 0.024195001 -0.20400199
-0.097208999 0.024274001 -0.204024
-0.097204998 0.024350001 -0.204054
-0.097199999 0.024429001 -0.20409
-0.097194999 0.024507999 -0.20412
-0.097190998 0.024586 -0.204144
-0.097188003 0.024660001 -0.20415699
-0.097184002 0.024736 -0.20416699
-0.097180001 0.024815001 -0.204181
-0.097176999 0.024891 -0.204189
-0.097172998 0.024967 -0.20420299
-0.097168997 0.025043 -0.204221
-0.097166002 0.025119999 -0.204236
-0.097162001 0.025198 -0.204252
-0.097158 0.025273999 -0.20427001
-0.097153001 0.025353 -0.204298
-0.097148001 0.025432 -0.20433401
-0.097144 0.02551 -0.204362
-0.097139001 0.025589 -0.2044
-0.097134002 0.025668001 -0.204438
-0.097129002 0.025749 -0.20448001
-0.097124003 0.025828 -0.204521
-0.097119004 0.025908001 -0.204561
-0.097111002 0.025992 -0.204649
-0.097102001 0.026081 -0.204768
-0.097483002 0.010943 -0.204458
-0.097484998 0.011017 -0.204364
-0.097484998 0.011091 -0.20428801
-0.097485997 0.011166 -0.204221
-0.097485997 0.011238 -0.204161
-0.097484998 0.011313 -0.204107
-0.097484998 0.011388 -0.204054
-0.097484 0.011463 -0.204014
-0.097482003 0.011536 -0.203986
-0.097480997 0.01161 -0.20395599
-0.097479001 0.011685 -0.203933
-0.097476996 0.011759 -0.203915
-0.097474001 0.011834 -0.20390099
-0.097471997 0.011908 -0.203895
-0.097469002 0.011982 -0.203886
-0.097466998 0.012058 -0.203876
-0.097464003 0.012131 -0.20387
-0.097461 0.012205 -0.20387
-0.097457998 0.012279 -0.20387299
-0.097453997 0.012354 -0.20389099
-0.097450003 0.01243 -0.203917
-0.097446002 0.012505 -0.20392901
-0.097442999 0.012579 -0.203931
-0.097439997 0.012655 -0.203936
-0.097437002 0.012729 -0.20394599
-0.097433999 0.012803 -0.203944
-0.097432002 0.012876 -0.203926
-0.097429998 0.012952 -0.20390899
-0.097427003 0.013025 -0.203895
-0.097424999 0.013099 -0.203877
-0.097423002 0.013175 -0.20385499
-0.097420998 0.013248 -0.203834
-0.097419001 0.013322 -0.203816
-0.097416997 0.013397 -0.20379999
-0.097415 0.013471 -0.203778
-0.097414002 0.013544 -0.203751
-0.097411998 0.013617 -0.203721
-0.097411998 0.013692 -0.20366301
-0.097411998 0.013765 -0.20360801
-0.097410999 0.013838 -0.20357201
-0.097407997 0.013912 -0.203556
-0.097406 0.013986 -0.20355199
-0.097402997 0.014059 -0.203547
-0.097400002 0.014135 -0.203545
-0.097397 0.014209 -0.20355099
-0.097392999 0.014284 -0.20356099
-0.097390004 0.014358 -0.203568
-0.097387001 0.014434 -0.203576
-0.097383 0.014508 -0.20359001
-0.097379997 0.014582 -0.203602
-0.097375996 0.014656 -0.20361
-0.097372003 0.014733 -0.20362701
-0.097369 0.014807 -0.203639
-0.097365998 0.014881 -0.203637
-0.097363003 0.014955 -0.203631
-0.09736 0.015031 -0.203632
-0.097358003 0.015105 -0.203624
-0.097355999 0.015178 -0.20361
-0.097352996 0.015252 -0.203612
-0.097349003 0.015326 -0.203623
-0.097346 0.015402 -0.20362701
-0.097342998 0.015476 -0.203621
-0.097341001 0.01555 -0.203611
-0.097337998 0.015624 -0.203604
-0.097335003 0.015699999 -0.20359799
-0.097332999 0.015774 -0.203594
-0.097331002 0.015846999 -0.203574
-0.097328998 0.01592 -0.203549
-0.097327001 0.015993999 -0.203529
-0.097326003 0.016067 -0.203499
-0.097326003 0.016140001 -0.203437
-0.097323999 0.016210999 -0.20340399
-0.097321004 0.016287001 -0.20340399
-0.097318999 0.016361 -0.203398
-0.097315997 0.016434999 -0.203389
-0.097313002 0.016509 -0.203389
-0.097309999 0.016582999 -0.203401
-0.097305998 0.016659001 -0.20341299
-0.097303003 0.016733 -0.203417
-0.0973 0.016806999 -0.203426
-0.097296 0.016883999 -0.203436
-0.097291999 0.016960001 -0.20347001
-0.097286001 0.017037001 -0.203522
-0.097282 0.017112 -0.20353401
-0.097278997 0.017185999 -0.203541
-0.097276002 0.017262001 -0.203545
-0.097273 0.017336 -0.203549
-0.097269997 0.017410001 -0.20355099
-0.097267002 0.017486 -0.20355099
-0.097263999 0.01756 -0.20355
-0.097260997 0.017634001 -0.203554
-0.097258002 0.017708 -0.20355199
-0.097254999 0.017782999 -0.20354199
-0.097253002 0.017855 -0.203527
-0.09725 0.017930999 -0.20352501
-0.097246997 0.018005 -0.20353501
-0.097244002 0.018079 -0.203531
-0.097240999 0.018154999 -0.203528
-0.097237997 0.018229 -0.203528
-0.097237997 0.018300001 -0.20348001
-0.097236998 0.018373 -0.203439
-0.097235002 0.018446 -0.203411
-0.097235002 0.018517001 -0.20335101
-0.097234003 0.01859 -0.20332199
-0.097231001 0.018664001 -0.203326
-0.097227998 0.018738 -0.20333201
-0.097225003 0.018812001 -0.203328
-0.097222 0.018888 -0.203328
-0.097218998 0.018962 -0.203335
-0.097214997 0.019036001 -0.203347
-0.097211003 0.019113 -0.203365
-0.097207002 0.019189 -0.20338701
-0.097203001 0.019266 -0.203403
-0.097199 0.019339999 -0.20343
-0.097193003 0.019419 -0.203486
-0.097188003 0.019495999 -0.20353401
-0.097185001 0.01957 -0.20354
-0.097181 0.019647 -0.20355199
-0.097176999 0.019723 -0.203566
-0.097174004 0.019796999 -0.20357101
-0.097171001 0.019873001 -0.203573
-0.097167999 0.019947 -0.203577
-0.097165003 0.020022999 -0.203583
-0.097161002 0.020097001 -0.203586
-0.097158 0.020171 -0.20359001
-0.097154997 0.020246999 -0.203594
-0.097152002 0.020321 -0.20359799
-0.097149 0.020397 -0.203594
-0.097145997 0.020470999 -0.20358901
-0.097144 0.020545 -0.203573
-0.097142003 0.020617999 -0.203563
-0.097139001 0.020692 -0.20356099
-0.097136997 0.020765999 -0.203546
-0.097135 0.020839 -0.20352399
-0.097134002 0.020911001 -0.203486
-0.097133003 0.020984 -0.203453
-0.097130001 0.021058001 -0.203445
-0.097126998 0.021132 -0.20344301
-0.097125001 0.021205001 -0.203437
-0.097121999 0.021279 -0.203438
-0.097117998 0.021356 -0.203448
-0.097115003 0.021431999 -0.20345999
-0.097111002 0.021508001 -0.203466
-0.097107999 0.021582 -0.20348001
-0.097103 0.021659 -0.203511
-0.097098 0.021737 -0.20354301
-0.097093999 0.021814 -0.20358101
-0.097089 0.021893 -0.203609
-0.097085997 0.021966999 -0.20361701
-0.097083002 0.022041 -0.203609
-0.097080998 0.022115 -0.203604
-0.097076997 0.022190999 -0.20361599
-0.097073004 0.022267001 -0.20363399
-0.097070001 0.022343 -0.203642
-0.097066 0.022417 -0.203647
-0.097062998 0.022493999 -0.20366099
-0.097058997 0.022569999 -0.203683
-0.097055003 0.022647999 -0.20369899
-0.097051002 0.022722 -0.20370699
-0.097048 0.022799 -0.203713
-0.097043999 0.022875 -0.20372599
-0.097041003 0.022949001 -0.203734
-0.097038001 0.023025 -0.203742
-0.097034 0.023101 -0.20375399
-0.097030997 0.023177 -0.20376199
-0.097028002 0.023251001 -0.20376299
-0.097025 0.023327 -0.203765
-0.097021997 0.023401 -0.203761
-0.097019002 0.023476999 -0.203757
-0.097015999 0.023551 -0.20376199
-0.097011998 0.023627 -0.20377
-0.097009003 0.023704 -0.203788
-0.097003996 0.023782 -0.203812
-0.097001001 0.023859 -0.20382801
-0.096997 0.023934999 -0.20384599
-0.096992001 0.024010999 -0.20387501
-0.096988 0.024089999 -0.20390099
-0.096983999 0.024165999 -0.20392101
-0.096979998 0.024245 -0.203945
-0.096974999 0.024321999 -0.203979
-0.096969999 0.0244 -0.204015
-0.096965 0.024479 -0.204045
-0.096960999 0.024557 -0.204065
-0.096956998 0.024634 -0.204088
-0.096954003 0.02471 -0.20410199
-0.096950002 0.024785999 -0.20411
-0.096946999 0.02486 -0.20411
-0.096943997 0.024936 -0.20411199
-0.096940003 0.025012 -0.204125
-0.096937001 0.025088999 -0.20414101
-0.096933 0.025167 -0.20415901
-0.096928 0.025246 -0.20418701
-0.096923999 0.025322 -0.204209
-0.096919999 0.025401 -0.204237
-0.096914999 0.025479 -0.204267
-0.09691 0.025558 -0.20430399
-0.096905001 0.025637001 -0.20434199
-0.096900001 0.025718 -0.20438799
-0.096894003 0.025799001 -0.204446
-0.096887998 0.02588 -0.204504
-0.096881002 0.025963999 -0.204568
-0.096873 0.02605 -0.204676
-0.096862003 0.026143 -0.204831
-0.097239003 0.01085 -0.204448
-0.097240001 0.010926 -0.204357
-0.097241998 0.010999 -0.204255
-0.097243004 0.011074 -0.204175
-0.097244002 0.011148 -0.20411
-0.097243004 0.011221 -0.20405801
-0.097241998 0.011296 -0.20400999
-0.097241998 0.011369 -0.20396399
-0.097240001 0.011444 -0.20392901
-0.097239003 0.011517 -0.203897
-0.097237997 0.011593 -0.203867
-0.097236 0.011666 -0.203844
-0.097234003 0.011742 -0.203824
-0.097231999 0.011815 -0.20380799
-0.097228996 0.011889 -0.203798
-0.097226001 0.011963 -0.203795
-0.097223997 0.012039 -0.203789
-0.097220004 0.012113 -0.203793
-0.097217001 0.012187 -0.203803
-0.097213 0.012263 -0.203813
-0.097209997 0.012337 -0.20382801
-0.097205997 0.012412 -0.203852
-0.097202003 0.012486 -0.20387
-0.097199 0.012562 -0.20387401
-0.097195998 0.012636 -0.20387299
-0.097194001 0.01271 -0.203861
-0.097190998 0.012784 -0.203851
-0.097188003 0.012859 -0.20384499
-0.097185999 0.012933 -0.203831
-0.097184002 0.013007 -0.20381799
-0.097181998 0.01308 -0.203804
-0.097179003 0.013156 -0.20379201
-0.097176999 0.01323 -0.203785
-0.097175002 0.013303 -0.203765
-0.097172998 0.013379 -0.203741
-0.097171001 0.013452 -0.203715
-0.097170003 0.013526 -0.203686
-0.097167999 0.013599 -0.203656
-0.097167 0.013674 -0.203612
-0.097167 0.013745 -0.203557
-0.097166002 0.013818 -0.20351499
-0.097163998 0.013893 -0.203503
-0.097161002 0.013967 -0.20349699
-0.097158 0.014041 -0.20349801
-0.097154997 0.014115 -0.20349801
-0.097152002 0.014189 -0.2035
-0.097149 0.014265 -0.203502
-0.097145997 0.014339 -0.20350599
-0.097143002 0.014413 -0.203513
-0.097139001 0.014488 -0.203519
-0.097135998 0.014564 -0.203527
-0.097131997 0.014638 -0.203541
-0.097129002 0.014712 -0.203554
-0.097126 0.014788 -0.20355999
-0.097122997 0.014862 -0.203558
-0.097120002 0.014936 -0.203546
-0.097117998 0.015009 -0.20352501
-0.097115003 0.015083 -0.203527
-0.097112 0.01516 -0.203539
-0.097108997 0.015234 -0.20354301
-0.097106002 0.015308 -0.203539
-0.097103 0.015382 -0.20354
-0.097099997 0.015456 -0.20354199
-0.097097002 0.015531 -0.203532
-0.097094998 0.015605 -0.20351399
-0.097093001 0.015679 -0.203501
-0.097089998 0.015752001 -0.20349699
-0.097087003 0.015826 -0.20349699
-0.097084999 0.015902 -0.203483
-0.097083002 0.015973 -0.20345999
-0.097081997 0.016047001 -0.20343199
-0.097081997 0.016119 -0.20337
-0.097080998 0.016193001 -0.20333099
-0.097078003 0.016266 -0.20332099
-0.097075 0.016340001 -0.20332301
-0.097073004 0.016414 -0.203317
-0.097070001 0.016489999 -0.203318
-0.097066 0.016564 -0.20332199
-0.097062998 0.016638 -0.20332401
-0.097060002 0.016712001 -0.20333201
-0.097056001 0.016787 -0.20334899
-0.097052 0.016863 -0.20336901
-0.097048 0.01694 -0.203399
-0.097043 0.017014001 -0.203429
-0.097038999 0.017091 -0.20345099
-0.097035997 0.017165 -0.203464
-0.097033001 0.017240999 -0.203464
-0.097030997 0.017313 -0.20344999
-0.097028002 0.017387999 -0.203446
-0.097023003 0.017464999 -0.20348001
-0.097019002 0.017539 -0.203495
-0.097016998 0.017612999 -0.20348901
-0.097014003 0.017687 -0.203481
-0.097011 0.017763 -0.20347901
-0.097009003 0.017836999 -0.203476
-0.097006001 0.017911 -0.20347001
-0.097002998 0.017983999 -0.20345999
-0.097001001 0.018058 -0.203448
-0.096998997 0.018131999 -0.20344099
-0.096996002 0.018206 -0.203435
-0.096993998 0.018278999 -0.203407
