# .PCD v0.7 - Point Cloud Data file format
VERSION 0.7
FIELDS x y z
SIZE 4 4 4
TYPE F F F
COUNT 1 1 1
WIDTH 1379
HEIGHT 1
VIEWPOINT 0 0 0 1 0 0 0
POINTS 1379
DATA ascii
0.28767985 -0.02442815 0.28735021
0.28775769 -0.02442757 0.28736705
0.28783548 -0.02442692 0.28738585
0.28791347 -0.024426896 0.28738672
0.2879895 -0.024426943 0.28738552
0.28806949 -0.024426848 0.28738838
0.28814551 -0.024426963 0.28738523
0.28822362 -0.024427356 0.28737408
0.28830156 -0.024427054 0.2873829
0.28837749 -0.024426892 0.28738773
0.28845561 -0.024427217 0.28737855
0.2885336 -0.024427192 0.28737938
0.28861147 -0.02442682 0.28739023
0.2886894 -0.024426587 0.28739709
0.28876552 -0.024426913 0.28738791
0.28884363 -0.024427235 0.28737876
0.28892145 -0.024426656 0.2873956
0.28899926 -0.024426006 0.28741443
0.28907734 -0.024426259 0.28740725
0.28915349 -0.024426794 0.28739208
0.28923157 -0.024426978 0.28738692
0.28930756 -0.024427023 0.28738576
0.2893855 -0.024426792 0.28739259
0.2894634 -0.024426419 0.28740343
0.28954142 -0.024426466 0.28740227
0.28961948 -0.02442665 0.28739712
0.2896955 -0.024426766 0.28739393
0.28977334 -0.024426255 0.28740877
0.28985119 -0.024425745 0.28742361
0.28992927 -0.024425998 0.28741646
0.29000551 -0.024426671 0.2873973
0.29008359 -0.024426993 0.28738815
0.29016167 -0.024427179 0.28738299
0.29031533 -0.024426159 0.28741261
0.29039335 -0.024426203 0.28741145
0.29047149 -0.024426596 0.28740031
0.29054958 -0.02442692 0.28739116
0.29062569 -0.024427244 0.28738201
0.2907033 -0.024425969 0.28741881
0.2907812 -0.024425667 0.28742763
0.29085934 -0.024426129 0.28741449
0.29093736 -0.024426175 0.28741336
0.2910133 -0.024425942 0.28742015
0.29109117 -0.024425503 0.287433
0.29116926 -0.024425756 0.28742585
0.29155722 -0.024425637 0.28743002
0.29163328 -0.024425752 0.28742683
0.29171133 -0.024425937 0.2874217
0.29178926 -0.024425704 0.28742853
0.29186711 -0.024425194 0.28744337
0.29194528 -0.024425726 0.2874282
0.2920216 -0.024426816 0.28739706
0.29209951 -0.024426444 0.28740788
0.29217735 -0.024425933 0.28742272
0.29225323 -0.024425562 0.28743353
0.29233128 -0.024425747 0.28742838
0.29240936 -0.024425931 0.28742322
0.29248729 -0.024425698 0.28743008
0.29256332 -0.024425814 0.28742689
0.29264134 -0.02442586 0.28742573
0.29271936 -0.024425905 0.28742456
0.29279727 -0.024425603 0.28743342
0.29287514 -0.024425162 0.28744626
0.29295105 -0.02442486 0.28745505
0.29302913 -0.024425115 0.28744793
0.29318318 -0.024425276 0.28744358
0.29326096 -0.024424557 0.28746441
0.29333895 -0.024424532 0.28746524
0.29341516 -0.024425205 0.28744608
0.29349327 -0.024425529 0.28743693
0.29357129 -0.024425574 0.28743577
0.29364914 -0.024425063 0.28745061
0.29372707 -0.02442483 0.28745744
0.29380316 -0.024425155 0.28744826
0.2938813 -0.024425549 0.28743711
0.29395944 -0.024426011 0.28742397
0.29411295 -0.024424434 0.2874696
0.29419094 -0.024424409 0.28747046
0.29426914 -0.024425011 0.28745329
0.29434529 -0.024425475 0.28744012
0.29442319 -0.024425173 0.28744894
0.29450101 -0.024424594 0.28746578
0.29457918 -0.024425127 0.28745064
0.29465738 -0.024425726 0.28743351
0.29473323 -0.024425218 0.28744832
0.2948111 -0.024424845 0.28745914
0.29488906 -0.024424683 0.28746399
0.29496497 -0.024424382 0.28747278
0.29504284 -0.02442394 0.28748563
0.29512084 -0.024423985 0.28748447
0.29519889 -0.0244241 0.28748131
0.29527485 -0.024424007 0.28748414
0.29535279 -0.024423774 0.28749096
0.2954306 -0.024423195 0.2875078
0.29550666 -0.024423311 0.28750461
0.29558685 -0.024423912 0.28748751
0.29566303 -0.024424514 0.28747034
0.29574105 -0.02442456 0.28746918
0.29581892 -0.024424119 0.28748202
0.29589477 -0.024423609 0.28749681
0.29597276 -0.024423584 0.28749767
0.29605085 -0.024423838 0.28749052
0.29612693 -0.024424164 0.28748134
0.29620495 -0.024424208 0.28748018
0.29628286 -0.024423907 0.28748903
0.29636085 -0.024423882 0.28748986
0.29643899 -0.024424275 0.28747872
0.29651511 -0.02442467 0.28746754
0.2965928 -0.024423672 0.28749636
0.29667068 -0.02442323 0.2875092
0.29674873 -0.024423415 0.28750405
0.29682469 -0.024423324 0.28750685
0.29690278 -0.024423508 0.28750169
0.29698083 -0.024423692 0.28749657
0.29705891 -0.024423946 0.28748941
0.29713693 -0.024423992 0.28748825
0.29721266 -0.024423134 0.28751305
0.29729071 -0.024423249 0.28750989
0.29736891 -0.02442392 0.28749076
0.29744494 -0.024424035 0.28748757
0.29752299 -0.024424151 0.28748441
0.29760101 -0.024424266 0.28748125
0.29767904 -0.024424242 0.28748208
0.29775688 -0.024423731 0.28749692
0.29783294 -0.024423987 0.28748974
0.29791093 -0.024423894 0.2874926
0.29798886 -0.02442373 0.28749743
0.2980648 -0.024423428 0.28750625
0.29814264 -0.024422918 0.28752106
0.29822052 -0.024422545 0.28753191
0.29829854 -0.024422592 0.28753075
0.2983745 -0.024422498 0.28753358
0.29845244 -0.024422266 0.28754044
0.29853058 -0.024422729 0.28752726
0.29860878 -0.024423331 0.28751013
0.29868671 -0.024423167 0.28751495
0.2987625 -0.024422448 0.28753576
0.29884055 -0.024422564 0.28753263
0.29891866 -0.024422957 0.28752148
0.2989946 -0.024422726 0.28752828
0.29907247 -0.024422284 0.28754112
0.29915059 -0.024422677 0.28752995
0.2992287 -0.024423001 0.28752083
0.29930669 -0.024422977 0.28752166
0.29938263 -0.024422746 0.28752846
0.29946065 -0.02442286 0.2875253
0.29953864 -0.024422836 0.28752616
0.29961449 -0.024422256 0.28754297
0.29969236 -0.024421886 0.28755379
0.29977036 -0.024421861 0.28755462
0.29984835 -0.024421768 0.28755748
0.29992446 -0.024422161 0.28754631
0.30000263 -0.024422694 0.28753117
0.30008048 -0.024422184 0.28754598
0.30015627 -0.024421534 0.28756481
0.3002364 -0.024421927 0.28755367
0.30031466 -0.024422737 0.28753054
0.30039069 -0.024422852 0.28752735
0.30046842 -0.024421994 0.28755218
0.30054435 -0.024421692 0.287561
0.30062228 -0.02442153 0.28756583
0.30070025 -0.024421368 0.28757066
0.30077624 -0.024421344 0.28757149
0.30085635 -0.024421737 0.28756037
0.30093449 -0.024422199 0.28754723
0.30101258 -0.024422452 0.28754008
0.30109057 -0.024422359 0.28754291
0.30116653 -0.024422266 0.28754574
0.3012445 -0.024422172 0.28754854
0.30132237 -0.024421731 0.28756139
0.30139834 -0.024421569 0.28756621
0.30147651 -0.024422102 0.28755105
0.30155459 -0.024422426 0.28754193
0.30163261 -0.02442247 0.28754076
0.3017104 -0.024421751 0.2875616
0.30178627 -0.024421381 0.28757238
0.30186445 -0.024421843 0.28755924
0.30194259 -0.024422375 0.2875441
0.30202055 -0.024422213 0.28754893
0.30209628 -0.024421286 0.28757575
0.30217418 -0.024420984 0.28758457
0.30225238 -0.024421655 0.28756544
0.30233264 -0.024422465 0.28754231
0.30241063 -0.024422441 0.28754315
0.30248639 -0.024421653 0.28756595
0.30256441 -0.024421697 0.28756481
0.30264032 -0.024421396 0.28757361
0.30271825 -0.024421163 0.28758046
0.30279624 -0.024421141 0.28758129
0.30287433 -0.024421394 0.28757414
0.30295244 -0.024421718 0.28756499
0.30302829 -0.024421277 0.28757781
0.30310622 -0.024420975 0.28758663
0.3031843 -0.024421299 0.28757751
0.30326247 -0.024421761 0.28756434
0.30334052 -0.024421945 0.28755918
0.3034184 -0.024421575 0.28757003
0.30349427 -0.024421133 0.28758281
0.30357221 -0.024420902 0.28758967
0.30364823 -0.024421018 0.28758651
0.30372617 -0.024420785 0.28759333
0.30380419 -0.024420829 0.28759217
0.30388227 -0.024421085 0.28758502
0.30396032 -0.0244212 0.28758186
0.30403829 -0.024421105 0.28758472
0.30411619 -0.024420803 0.28759354
0.30419216 -0.02442071 0.28759637
0.3042703 -0.024421103 0.2875852
0.30435047 -0.024421636 0.28757009
0.30442846 -0.024421612 0.28757092
0.30450419 -0.024420753 0.28759575
0.30457997 -0.024420036 0.28761655
0.30465585 -0.024419595 0.28762937
0.30473384 -0.02441957 0.2876302
0.30481187 -0.024419686 0.28762704
0.30489194 -0.024419939 0.28761989
0.30497009 -0.024420403 0.28760675
0.3050482 -0.024420725 0.2875976
0.3051261 -0.024420423 0.28760645
0.30520201 -0.024420122 0.28761524
0.30528006 -0.024420237 0.28761208
0.30535811 -0.024420422 0.28760695
0.30543607 -0.02442026 0.28761178
0.30551192 -0.024419749 0.28762659
0.30558997 -0.024419934 0.28762144
0.30566797 -0.024419909 0.28762227
0.30574593 -0.024419747 0.28762713
0.30582196 -0.024419792 0.28762594
0.30590197 -0.024419907 0.28762281
0.30597797 -0.024419883 0.28762364
0.30605808 -0.024420207 0.28761449
0.30613625 -0.024420738 0.28759935
0.30621418 -0.024420507 0.28760618
0.30628985 -0.02441944 0.287637
0.3063657 -0.02441893 0.28765181
0.30644378 -0.024419185 0.28764465
0.30652398 -0.024419785 0.28762752
0.30660209 -0.024420179 0.28761637
0.30667797 -0.024419807 0.28762719
0.30675593 -0.024419645 0.28763202
0.30683398 -0.02441976 0.28762886
0.30691198 -0.024419805 0.2876277
0.30698788 -0.024419434 0.28763852
0.30706581 -0.024419202 0.28764537
0.30714387 -0.024419386 0.28764021
0.30722398 -0.024419779 0.28762907
0.30730206 -0.024420032 0.28762192
0.30737799 -0.024419801 0.28762874
0.30745587 -0.02441936 0.28764158
0.30753389 -0.024419406 0.28764042
0.30761194 -0.024419591 0.28763527
0.30768991 -0.024419427 0.28764009
0.30776584 -0.024419265 0.28764492
0.30784383 -0.024419172 0.28764775
0.30792177 -0.024419008 0.28765261
0.30799979 -0.024419054 0.28765145
0.30807775 -0.02441889 0.28765631
0.30815578 -0.024418937 0.28765512
0.30823377 -0.024418982 0.28765398
0.30831185 -0.024419166 0.2876488
0.30838987 -0.024419213 0.28764766
0.30846784 -0.024419118 0.2876505
0.3085438 -0.024419025 0.28765333
0.30862179 -0.024419002 0.28765416
0.30869979 -0.024418909 0.28765699
0.30877769 -0.024418605 0.28766584
0.30885363 -0.024418375 0.28767264
0.30893165 -0.02441849 0.28766948
0.30900955 -0.024418186 0.28767833
0.30908754 -0.024418093 0.28768116
0.30916557 -0.02441814 0.28768003
0.30924362 -0.024418324 0.28767487
0.30932161 -0.0244183 0.28767571
0.30939966 -0.024418484 0.28767055
0.30947781 -0.024418877 0.28765941
0.3095558 -0.024418853 0.28766024
0.30963156 -0.024418065 0.28768304
0.30970946 -0.024417764 0.28769189
0.30978757 -0.024418088 0.28768274
0.30986774 -0.024418619 0.2876676
0.30994579 -0.024418803 0.28766245
0.31002167 -0.024418432 0.28767326
0.31009963 -0.024418268 0.28767812
0.31017759 -0.024418175 0.28768095
0.31025559 -0.024418153 0.28768179
0.31033352 -0.02441792 0.28768861
0.31040943 -0.024417618 0.28769743
0.31048948 -0.024417732 0.28769431
0.31056765 -0.024418265 0.28767917
0.31064576 -0.024418658 0.28766799
0.31072369 -0.024418425 0.28767484
0.3108016 -0.024418054 0.28768569
0.31087753 -0.024417821 0.28769249
0.31095758 -0.024418006 0.28768736
0.31103569 -0.024418399 0.28767622
0.31111366 -0.024418235 0.28768104
0.3111895 -0.024417726 0.28769585
0.31126752 -0.024417771 0.28769469
0.31134552 -0.024417747 0.28769556
0.31142351 -0.024417724 0.28769639
0.31150147 -0.024417561 0.28770122
0.31157735 -0.02441719 0.28771204
0.31165528 -0.024416957 0.28771889
0.31173334 -0.024417141 0.28771371
0.3118135 -0.024417672 0.2876986
0.31189364 -0.024418065 0.28768748
0.31196949 -0.024417555 0.28770226
0.31204525 -0.024416838 0.28772309
0.3121233 -0.024416951 0.28771994
0.31220359 -0.024417831 0.28769481
0.31228375 -0.024418432 0.28767771
0.31236169 -0.024418199 0.28768453
0.31243753 -0.024417689 0.28769934
0.3125135 -0.024417527 0.28770417
0.31259149 -0.024417574 0.28770301
0.31267157 -0.024417758 0.28769785
0.31275171 -0.02441822 0.28768474
0.3128297 -0.024418196 0.28768557
0.31290352 -0.024417546 0.28770438
0.31297934 -0.024417037 0.28771919
0.31305936 -0.024417013 0.28772005
0.31313741 -0.024417197 0.2877149
0.3132154 -0.024417173 0.28771573
0.31329128 -0.024416732 0.28772855
0.3133671 -0.024416152 0.28774536
0.31344497 -0.02441578 0.2877562
0.31352094 -0.024415618 0.287761
0.31360099 -0.024415802 0.28775588
0.31367901 -0.024415847 0.28775471
0.31375492 -0.024415547 0.28776354
0.31383285 -0.024415314 0.28777036
0.31390882 -0.024415152 0.28777519
0.31398883 -0.024415266 0.28777206
0.31406689 -0.024415381 0.2877689
0.31414282 -0.024415148 0.2877757
0.31422076 -0.024414986 0.28778055
0.31429881 -0.024415102 0.28777739
0.31437677 -0.024415007 0.28778023
0.31445271 -0.024414776 0.28778705
0.31453067 -0.024414612 0.28779191
0.31461075 -0.024414936 0.28778276
0.31469092 -0.024415467 0.28776765
0.31477103 -0.024415791 0.2877585
0.31484905 -0.024415836 0.28775734
0.31492496 -0.024415534 0.28776616
0.31500292 -0.024415372 0.28777099
0.31508097 -0.024415556 0.28776586
0.31515893 -0.024415463 0.28776869
0.31523487 -0.02441523 0.28777552
0.31531283 -0.024415068 0.28778034
0.31539086 -0.024415113 0.28777918
0.3154709 -0.024415297 0.28777406
0.31555104 -0.02441569 0.28776291
0.31562918 -0.024416221 0.28774777
0.31570923 -0.024416337 0.28774464
0.31578511 -0.024415966 0.28775546
0.31586105 -0.024415664 0.28776428
0.31594107 -0.024415778 0.28776115
0.31602126 -0.02441638 0.28774402
0.31609929 -0.024416495 0.28774086
0.31617504 -0.024415638 0.28776565
0.31625098 -0.024415405 0.28777248
0.31633109 -0.024415798 0.28776133
0.31641123 -0.02441626 0.28774822
0.31648719 -0.024416097 0.28775305
0.31656507 -0.024415657 0.28776586
0.31664094 -0.024415284 0.28777668
0.31671891 -0.024415191 0.28777951
0.31679696 -0.024415307 0.28777635
0.31687501 -0.024415491 0.28777122
0.31695509 -0.024415676 0.2877661
0.31703311 -0.024415791 0.28776294
0.31711107 -0.024415627 0.28776777
0.31718695 -0.024415256 0.28777859
0.317265 -0.024415441 0.28777343
0.31734514 -0.024415834 0.28776228
0.31742322 -0.024416089 0.28775513
0.3175011 -0.024415717 0.28776598
0.31757909 -0.024415623 0.28776881
0.31765717 -0.024415947 0.28775966
0.3177352 -0.024415923 0.2877605
0.31781319 -0.024415899 0.28776136
0.31789115 -0.024415806 0.28776419
0.31796703 -0.024415433 0.28777501
0.31804496 -0.024415202 0.28778183
0.31812298 -0.024415247 0.2877807
0.31819889 -0.024414945 0.28778949
0.31827685 -0.024414781 0.28779435
0.3183569 -0.024414968 0.2877892
0.31843707 -0.024415499 0.28777409
0.31851506 -0.024415474 0.28777492
0.31859306 -0.02441545 0.28777575
0.31867108 -0.024415426 0.28777659
0.31874701 -0.024415264 0.28778142
0.31882501 -0.02441524 0.28778225
0.31890082 -0.024414591 0.28780109
0.31897676 -0.024414359 0.28780788
0.3190569 -0.024414821 0.28779477
0.31913906 -0.024415351 0.28777966
0.28490961 -0.025205551 0.27642331
0.28499517 -0.025204062 0.27646622
0.28508046 -0.025201811 0.2765311
0.28516766 -0.025199208 0.27660599
0.28525132 -0.025198139 0.2766369
0.28533518 -0.025197694 0.27664977
0.28541914 -0.025197458 0.27665669
0.28550109 -0.025197363 0.27665958
0.28558496 -0.025196917 0.27667248
0.28566882 -0.025196403 0.27668735
0.28575087 -0.025196586 0.27668226
0.28583494 -0.025196837 0.27667516
0.28591695 -0.02519688 0.27667406
0.28600091 -0.025196644 0.27668095
0.28608489 -0.025196617 0.27668184
0.2865791 -0.024836319 0.28703952
0.28666034 -0.024833789 0.28711236
0.28673989 -0.024832303 0.28715521
0.28682065 -0.024828313 0.28727001
0.28690189 -0.024825852 0.28734085
0.28697962 -0.024824994 0.28736567
0.28705758 -0.024824899 0.28736851
0.28713566 -0.024825083 0.28736335
0.28721181 -0.024825614 0.28734818
0.2872898 -0.024825519 0.28735101
0.28736764 -0.024825007 0.28736585
0.28744552 -0.024824634 0.2873767
0.28752354 -0.024824679 0.28737554
0.28759974 -0.024825349 0.28735638
0.28767774 -0.024825323 0.28735721
0.28775567 -0.024825091 0.28736404
0.28783351 -0.024824578 0.28737888
0.28791153 -0.024824552 0.28737971
0.28798953 -0.024824597 0.28737855
0.28806755 -0.024824642 0.28737742
0.28814358 -0.024824686 0.28737622
0.2882216 -0.024824731 0.28737506
0.28829968 -0.024824984 0.28736791
0.28837577 -0.024825238 0.28736073
0.28845376 -0.024825212 0.28736156
0.28853172 -0.024825118 0.28736442
0.28860962 -0.024824815 0.28737324
0.28868562 -0.024824789 0.28737408
0.2887637 -0.024825042 0.28736693
0.28884175 -0.024825156 0.28736377
0.2889196 -0.024824645 0.28737861
0.28899735 -0.024823854 0.28740144
0.28907537 -0.024823967 0.28739828
0.28915152 -0.02482436 0.2873871
0.28922978 -0.024825171 0.28736395
0.28938532 -0.024823658 0.28740761
0.28946146 -0.024824191 0.28739244
0.28953952 -0.024824305 0.28738928
0.28961742 -0.024824001 0.2873981
0.28969526 -0.024823489 0.28741294
0.28977317 -0.024823185 0.28742179
0.28984937 -0.024823856 0.28740263
0.28992558 -0.024824457 0.28738546
0.2900036 -0.024824502 0.28738427
0.2900815 -0.024824198 0.28739312
0.29015946 -0.024824105 0.28739595
0.29023731 -0.024823522 0.28741279
0.29031533 -0.024823567 0.28741163
0.29039139 -0.02482382 0.28740448
0.29046947 -0.024824005 0.28739929
0.2905474 -0.024823841 0.28740415
0.29062539 -0.024823815 0.28740498
0.29070145 -0.024823928 0.2874018
0.29101324 -0.024823271 0.28742117
0.29108903 -0.024822552 0.28744197
0.29116702 -0.024822457 0.2874448
0.29124516 -0.024822919 0.28743166
0.29132327 -0.02482331 0.28742051
0.29139918 -0.024823008 0.28742933
0.29147726 -0.024823261 0.28742218
0.29155532 -0.024823444 0.28741702
0.29163322 -0.024823071 0.28742784
0.29171109 -0.024822628 0.28744069
0.29178718 -0.024822952 0.28743151
0.29186511 -0.024822718 0.28743833
0.29194316 -0.024822902 0.28743318
0.29201922 -0.024823016 0.28743002
0.29209724 -0.02482306 0.28742886
0.29217517 -0.024822896 0.28743368
0.29225129 -0.024823219 0.2874245
0.29232949 -0.024823889 0.28740537
0.29240739 -0.024823517 0.28741622
0.29248518 -0.024822796 0.28743702
0.29256117 -0.024822772 0.28743786
0.29263896 -0.024822051 0.28745869
0.29271677 -0.02482147 0.28747553
0.29279482 -0.024821652 0.28747034
0.29287317 -0.02482274 0.28743923
0.29294935 -0.024823271 0.28742406
0.29302737 -0.024823384 0.2874209
0.29310516 -0.024822665 0.28744173
0.29318109 -0.024822431 0.28744853
0.29325917 -0.024822684 0.28744137
0.29333729 -0.024823077 0.28743023
0.29341334 -0.02482326 0.28742504
0.29349121 -0.024822818 0.28743789
0.29356918 -0.024822723 0.28744072
0.29364705 -0.02482228 0.28745356
0.29372495 -0.024821907 0.28746438
0.29380104 -0.024822231 0.28745523
0.29387912 -0.024822414 0.28745008
0.293957 -0.024822041 0.28746092
0.29403508 -0.024822295 0.28745374
0.29426703 -0.024822081 0.28746027
0.29434305 -0.024822194 0.28745708
0.29442096 -0.024821891 0.2874659
0.29449889 -0.024821658 0.28747275
0.29457679 -0.024821354 0.28748158
0.29465491 -0.024821676 0.28747243
0.29473105 -0.024822069 0.28746125
0.29480872 -0.024821071 0.28749007
0.29488665 -0.024820767 0.28749892
0.29496276 -0.02482116 0.28748775
0.29504097 -0.02482176 0.28747058
0.2951192 -0.0248225 0.28744945
0.29519725 -0.024822684 0.28744429
0.29527313 -0.024822241 0.28745711
0.29535088 -0.024821522 0.28747794
0.29542878 -0.024821147 0.28748876
0.29550681 -0.024821263 0.2874856
0.29558489 -0.024821514 0.28747845
0.29566088 -0.024821421 0.28748128
0.29573882 -0.024821255 0.28748611
0.29581678 -0.024821091 0.28749096
0.2958926 -0.024820512 0.28750777
0.29597053 -0.024820277 0.2875146
0.29604867 -0.024820669 0.28750345
0.29612482 -0.024821201 0.28748828
0.29620287 -0.024821315 0.28748512
0.29628074 -0.024820942 0.28749597
0.29635879 -0.024821056 0.28749281
0.296437 -0.024821656 0.28747565
0.29651308 -0.02482198 0.28746647
0.29659098 -0.024821676 0.28747532
0.2966688 -0.024821024 0.28749412
0.29674682 -0.024821069 0.28749299
0.29682291 -0.024821322 0.28748581
0.2969009 -0.024821367 0.28748465
0.29697892 -0.024821412 0.28748348
0.29705715 -0.024822082 0.28746435
0.29713514 -0.024822125 0.28746319
0.2972106 -0.024820363 0.28751397
0.29728645 -0.024819851 0.28752878
0.29736468 -0.024820521 0.28750965
0.29744279 -0.024820914 0.2874985
0.29752076 -0.024820819 0.28750134
0.29759869 -0.024820585 0.28750816
0.2976748 -0.024820909 0.28749901
0.29775497 -0.024821438 0.28748387
0.29783106 -0.024821693 0.28747669
0.29790905 -0.024821667 0.28747755
0.29798692 -0.024821294 0.28748837
0.29806277 -0.024820782 0.28750318
0.29814073 -0.024820618 0.28750801
0.29821882 -0.024820872 0.28750086
0.29829684 -0.024820985 0.2874977
0.29837492 -0.024821239 0.28749055
0.29845083 -0.024820935 0.28749937
0.29852867 -0.024820354 0.28751621
0.29860461 -0.024820121 0.28752303
0.29868266 -0.024820304 0.28751785
0.29876077 -0.024820626 0.28750873
0.29883882 -0.02482081 0.28750354
0.29891694 -0.024821132 0.28749439
0.29899484 -0.024820829 0.28750324
0.29907048 -0.024819693 0.28753603
0.29914841 -0.024819458 0.28754288
0.29922453 -0.024819851 0.2875317
0.29930463 -0.024820173 0.28752255
0.29938066 -0.024820218 0.28752139
0.29945859 -0.024819983 0.28752822
0.29953441 -0.024819402 0.28754503
0.29961246 -0.024819586 0.28753987
0.29969066 -0.024820186 0.28752273
0.29976878 -0.02482051 0.28751358
0.29984671 -0.024820345 0.28751841
0.29992461 -0.024819972 0.28752926
0.30000061 -0.024819948 0.28753006
0.30007851 -0.024819644 0.28753892
0.30015653 -0.024819689 0.28753775
0.30023462 -0.02481994 0.2875306
0.3003127 -0.024820264 0.28752145
0.30038869 -0.024820169 0.28752425
0.30046654 -0.024819657 0.28753909
0.30054453 -0.024819633 0.28753993
0.30062261 -0.024819884 0.28753278
0.30069858 -0.024819791 0.28753561
0.30077651 -0.024819557 0.28754243
0.30085444 -0.024819324 0.28754929
0.30093041 -0.024819229 0.28755209
0.30100828 -0.024818787 0.28756493
0.30108416 -0.024818346 0.28757775
0.30116224 -0.024818668 0.28756857
0.30124241 -0.024819199 0.28755346
0.30132049 -0.024819382 0.2875483
0.30139631 -0.0248188 0.28756511
0.3014721 -0.02481815 0.28758392
0.3015503 -0.02481875 0.28756678
0.30163056 -0.024819629 0.28754166
0.30170873 -0.024820091 0.28752851
0.30178663 -0.024819788 0.28753734
0.30186254 -0.024819484 0.28754616
0.3019405 -0.02481932 0.28755099
0.30201834 -0.024818808 0.28756583
0.30209416 -0.024818227 0.28758264
0.30217218 -0.024818271 0.28758147
0.30225024 -0.024818454 0.28757632
0.30232835 -0.024818778 0.28756717
0.30240631 -0.024818683 0.28757
0.30248234 -0.024818728 0.28756884
0.30256248 -0.024819188 0.28755569
0.3026385 -0.024819233 0.28755453
0.30271417 -0.024818165 0.28758532
0.30279222 -0.02481835 0.28758016
0.30287033 -0.024818741 0.28756902
0.30295035 -0.024818785 0.28756788
0.30302623 -0.024818342 0.2875807
0.3031022 -0.02481818 0.2875855
0.30318013 -0.024817945 0.28759235
0.30325818 -0.02481813 0.2875872
0.30333629 -0.024818521 0.28757605
0.30341431 -0.024818566 0.28757489
0.3034901 -0.024817845 0.28759569
0.30356809 -0.024817821 0.28759652
0.30364621 -0.024818212 0.28758538
0.3037242 -0.024818117 0.28758821
0.30380213 -0.024817884 0.28759506
0.30388024 -0.024818275 0.28758389
0.3039583 -0.024818389 0.28758073
0.30403414 -0.024817947 0.28759354
0.30411205 -0.024817575 0.28760439
0.30418998 -0.02481734 0.28761125
0.30426604 -0.024817524 0.28760606
0.3043462 -0.024818055 0.28759092
0.30442429 -0.024818309 0.28758377
0.30450213 -0.024817796 0.28759861
0.3045781 -0.024817701 0.28760141
0.30465618 -0.024817955 0.28759426
0.30473423 -0.024818137 0.2875891
0.30481216 -0.024817904 0.28759596
0.3048901 -0.02481767 0.28760278
0.30496606 -0.024817577 0.28760561
0.30504394 -0.024817133 0.28761846
0.30512187 -0.0248169 0.28762528
0.30519789 -0.024816945 0.28762409
0.30527794 -0.024817128 0.28761896
0.30535606 -0.02481745 0.28760982
0.30543423 -0.024817981 0.28759468
0.30551443 -0.024818651 0.28757554
0.30559042 -0.024818625 0.28757635
0.30566818 -0.024817767 0.28760117
0.30574191 -0.024816979 0.28762397
0.30581987 -0.024816813 0.2876288
0.30589792 -0.024816997 0.28762364
0.30597597 -0.024817111 0.28762048
0.30605394 -0.024816947 0.28762534
0.30612984 -0.024816643 0.28763413
0.30620778 -0.024816411 0.28764099
0.30628571 -0.024816176 0.28764781
0.30636171 -0.024816152 0.28764865
0.30644178 -0.024816474 0.2876395
0.30651993 -0.024816934 0.28762636
0.30659801 -0.024817118 0.2876212
0.30667597 -0.024817023 0.28762406
0.30675396 -0.024816997 0.2876249
0.30683199 -0.024817042 0.28762373
0.30690786 -0.02481667 0.28763455
0.30698371 -0.02481609 0.28765136
0.30706379 -0.024816342 0.28764421
0.30714405 -0.02481715 0.28762108
0.30721992 -0.024816778 0.28763193
0.3072958 -0.024816336 0.28764471
0.3073737 -0.024816032 0.28765357
0.30745164 -0.024815869 0.28765839
0.30752972 -0.024816122 0.28765124
0.30760989 -0.024816651 0.2876361
0.30768588 -0.024816627 0.28763694
0.30776379 -0.024816254 0.28764778
0.30784178 -0.02481623 0.28764862
0.30791983 -0.024816412 0.28764346
0.30799779 -0.024816249 0.28764829
0.30807367 -0.024815807 0.28766111
0.30815175 -0.024816059 0.28765395
0.30823183 -0.024816381 0.28764483
0.30830991 -0.024816634 0.28763765
0.30838582 -0.024816262 0.2876485
0.30846158 -0.024815541 0.2876693
0.30853951 -0.024815308 0.28767613
0.30861759 -0.024815492 0.28767097
0.30869567 -0.024815813 0.28766182
0.30877572 -0.024815926 0.28765869
0.30885163 -0.024815625 0.28766751
0.30892757 -0.024815392 0.28767431
0.30900761 -0.024815504 0.28767118
0.30908579 -0.024816105 0.28765404
0.30916587 -0.024816288 0.28764892
0.3092396 -0.024815498 0.28767169
0.30931747 -0.024815056 0.2876845
0.30939555 -0.024815239 0.28767937
0.30947351 -0.024815146 0.28768221
0.30955148 -0.024815051 0.28768504
0.30962744 -0.024814887 0.28768986
0.30970746 -0.024815001 0.28768671
0.30978563 -0.024815531 0.28767157
0.30986375 -0.024815854 0.28766242
0.30994171 -0.02481569 0.28766727
0.31001955 -0.024815246 0.28768009
0.31009552 -0.024815083 0.28768492
0.31017563 -0.024815405 0.28767577
0.31025377 -0.024815867 0.28766263
0.31033176 -0.024815841 0.28766346
0.31040758 -0.02481526 0.28768027
0.31048766 -0.024815444 0.28767514
0.31056571 -0.024815626 0.28766999
0.31064165 -0.024815394 0.28767681
0.31071946 -0.024814811 0.28769362
0.31079534 -0.024814369 0.28770643
0.3108733 -0.024814274 0.2877093
0.31095135 -0.024814459 0.28770414
0.31102946 -0.024814781 0.28769499
0.31110948 -0.024814824 0.28769386
0.31118539 -0.024814522 0.28770268
0.31126332 -0.024814287 0.2877095
0.31134135 -0.024814401 0.28770635
0.3114216 -0.02481514 0.28768522
0.31150168 -0.024815463 0.2876761
0.31157759 -0.02481509 0.28768688
0.31165347 -0.024814717 0.28769773
0.3117314 -0.024814485 0.28770456
0.31180733 -0.024814252 0.28771138
0.31188741 -0.024814503 0.28770423
0.3119655 -0.024814757 0.28769708
0.31204346 -0.024814591 0.2877019
0.31211931 -0.024814149 0.28771472
0.31219727 -0.024813985 0.28771958
0.31227738 -0.024814308 0.28771043
0.31235546 -0.02481463 0.28770128
0.31243351 -0.024814744 0.28769812
0.31251156 -0.024814857 0.28769499
0.31258959 -0.024814971 0.28769183
0.31266969 -0.024815293 0.28768268
0.31274983 -0.024815753 0.28766957
0.31282789 -0.024815869 0.28766641
0.31290588 -0.024815843 0.28766724
0.31298175 -0.02481547 0.28767806
0.3130554 -0.024814334 0.28771085
0.31313121 -0.024813684 0.28772962
0.31320924 -0.024813728 0.28772849
0.31328714 -0.024813425 0.28773731
0.31336302 -0.024812983 0.28775012
0.31343886 -0.024812542 0.28776294
0.3135168 -0.024812307 0.28776979
0.31359479 -0.024812212 0.28777263
0.31367072 -0.024812048 0.28777742
0.31374872 -0.024812024 0.28777826
0.31382877 -0.024812138 0.28777513
0.31390682 -0.02481232 0.28776997
0.3139869 -0.024812572 0.28776285
0.31406292 -0.024812616 0.28776169
0.31414089 -0.024812452 0.28776652
0.31421879 -0.02481222 0.28777334
0.31429479 -0.024812125 0.28777617
0.31437272 -0.024811892 0.287783
0.31444848 -0.024811102 0.2878058
0.31452221 -0.024810243 0.28783059
0.3146002 -0.024810219 0.28783143
0.31468251 -0.024811234 0.28780234
0.3147648 -0.024812182 0.28777525
0.31484285 -0.024812296 0.28777209
0.31491873 -0.024811924 0.28778291
0.31499675 -0.024811968 0.28778175
0.31507692 -0.024812497 0.28776661
0.31515911 -0.024813097 0.28774953
0.31523728 -0.024813628 0.28773436
0.31531733 -0.02481381 0.28772923
0.31539318 -0.0248133 0.28774405
0.31546903 -0.024812788 0.28775886
0.31554702 -0.024812764 0.28775969
0.31562507 -0.024812946 0.28775454
0.31570303 -0.024812782 0.28775936
0.31578097 -0.024812549 0.28776622
0.31585684 -0.024812177 0.28777701
0.31593478 -0.024811942 0.28778386
0.31601295 -0.024812473 0.28776872
0.3160952 -0.024813212 0.28774762
0.31617323 -0.024813326 0.28774446
0.31624913 -0.024812954 0.28775525
0.3163271 -0.024812859 0.28775811
0.31640506 -0.024812695 0.28776294
0.31648096 -0.024812391 0.28777176
0.31655893 -0.024812296 0.28777459
0.31663904 -0.024812618 0.28776547
0.3167192 -0.024813149 0.28775033
0.31679723 -0.024813263 0.28774717
0.31687313 -0.024812959 0.287756
0.31695113 -0.024812866 0.28775883
0.31703115 -0.024812978 0.2877557
0.31710914 -0.024812885 0.28775853
0.31718498 -0.024812441 0.28777134
0.31726089 -0.024812069 0.28778216
0.31733674 -0.024811627 0.28779498
0.31741479 -0.024811741 0.28779182
0.31749496 -0.024812272 0.28777671
0.31757501 -0.024812454 0.28777158
0.317651 -0.02481243 0.28777239
0.31773099 -0.024812404 0.28777325
0.31780905 -0.024812518 0.28777009
0.3178871 -0.024812702 0.28776494
0.31796509 -0.024812607 0.28776777
0.31804097 -0.024812235 0.28777859
0.3181189 -0.024812002 0.28778541
0.31819698 -0.024812253 0.28777826
0.31827915 -0.024812784 0.28776318
0.31835511 -0.024812689 0.28776598
0.31843305 -0.024812385 0.2877748
0.31850892 -0.024812013 0.28778565
0.31858486 -0.02481178 0.28779244
0.31866485 -0.024811754 0.28779331
0.3187429 -0.024811938 0.28778815
0.31882101 -0.024812261 0.287779
0.31890103 -0.024812303 0.28777787
0.31897691 -0.024811933 0.28778869
0.31905496 -0.024812046 0.28778553
0.31913298 -0.02481216 0.28778237
0.28491071 -0.025600702 0.27648437
0.28499609 -0.025598727 0.27654123
0.28508329 -0.025596123 0.27661616
0.2851671 -0.0255954 0.27663705
0.2852509 -0.025594816 0.27665395
0.28533474 -0.025594231 0.27667081
0.28541872 -0.025594201 0.27667174
0.28550088 -0.025594661 0.27665862
0.2855829 -0.025594771 0.2766555
0.28566685 -0.025594603 0.27666041
0.28574887 -0.025594577 0.27666131
0.28583285 -0.025594547 0.2766622
0.28591487 -0.02559459 0.2766611
0.2865023 -0.025231477 0.28709972
0.28658187 -0.025230128 0.28713855
0.28666127 -0.025228156 0.28719538
0.28674236 -0.025225138 0.2872822
0.28682345 -0.025222259 0.28736502
0.28690138 -0.025222024 0.28737187
0.28697741 -0.025222067 0.28737068
0.28705543 -0.02522218 0.28736752
0.28713346 -0.025222223 0.28736636
0.28721136 -0.025221918 0.28737521
0.28728944 -0.0252221 0.28737006
0.28736547 -0.025222214 0.28736687
0.2874434 -0.025221979 0.28737372
0.2875213 -0.025221674 0.28738254
0.2875993 -0.025221579 0.28738537
0.28767723 -0.025221344 0.28739223
0.28775531 -0.025221596 0.28738505
0.28783137 -0.025221847 0.28737789
0.28790936 -0.02522175 0.28738073
0.28798735 -0.025221724 0.28738156
0.2880654 -0.025221907 0.2873764
0.28814146 -0.02522202 0.28737324
0.28821942 -0.025221923 0.28737608
0.28829738 -0.025221758 0.2873809
0.28837535 -0.025221663 0.28738374
0.28845331 -0.025221566 0.2873866
0.28852934 -0.02522161 0.2873854
0.28860724 -0.025221305 0.28739423
0.28868517 -0.02522107 0.28740108
0.28876311 -0.025220836 0.28740793
0.28884107 -0.025220739 0.28741077
0.28891715 -0.025220923 0.28740558
0.28899515 -0.025220895 0.28740641
0.28907317 -0.025221009 0.28740326
0.28914931 -0.0252214 0.28739208
0.28922737 -0.025221583 0.28738692
0.2893053 -0.025221417 0.28739178
0.28938335 -0.025221528 0.28738862
0.28945932 -0.025221365 0.28739342
0.28953716 -0.02522085 0.28740826
0.28961509 -0.025220685 0.28741312
0.28969324 -0.025221076 0.28740194
0.28977129 -0.025221258 0.28739679
0.28984737 -0.02522151 0.28738961
0.28992531 -0.025221344 0.28739446
0.29000327 -0.02522118 0.28739929
0.29007924 -0.025221014 0.28740412
0.29015917 -0.025220778 0.28741097
0.2902351 -0.025220614 0.2874158
0.29031301 -0.025220308 0.28742462
0.29039106 -0.025220422 0.28742146
0.29046723 -0.025220953 0.2874063
0.29054531 -0.025221204 0.28739914
0.29062334 -0.025221247 0.28739798
0.29070112 -0.025220595 0.28741682
0.29077885 -0.025219664 0.28744364
0.29085478 -0.025219429 0.28745043
0.29093289 -0.02521982 0.28743929
0.29101095 -0.025219932 0.28743613
0.29108888 -0.025219768 0.28744096
0.2911649 -0.025219811 0.28743979
0.29124308 -0.025220342 0.28742462
0.29132113 -0.025220523 0.2874195
0.29139712 -0.025220497 0.2874203
0.29147503 -0.025220122 0.28743115
0.29155299 -0.025220027 0.28743398
0.29163101 -0.02522007 0.28743282
0.29170895 -0.025219835 0.28743967
0.29178491 -0.02521974 0.28744248
0.29186293 -0.025219783 0.28744131
0.29194084 -0.025219478 0.28745013
0.29201686 -0.025219591 0.28744698
0.29209495 -0.025219774 0.28744182
0.29217288 -0.025219539 0.28744864
0.29224893 -0.025219722 0.28744349
0.29232705 -0.025220111 0.28743234
0.29240501 -0.025219947 0.28743717
0.29248279 -0.025219295 0.28745598
0.29256082 -0.025219267 0.28745684
0.29263693 -0.025219658 0.28744566
0.29271522 -0.025220606 0.28741851
0.29279134 -0.025220998 0.28740734
0.29287094 -0.025219649 0.2874462
0.29294688 -0.025219414 0.287453
0.29302487 -0.025219388 0.28745383
0.29310304 -0.025219917 0.28743869
0.29317918 -0.025220379 0.28742552
0.29325715 -0.025220282 0.28742838
0.29333499 -0.02521977 0.28744319
0.29341096 -0.025219604 0.28744799
0.29348886 -0.025219301 0.28745684
0.29356679 -0.025219135 0.28746167
0.29364493 -0.025219526 0.28745052
0.2937229 -0.02521936 0.28745538
0.29379886 -0.025219265 0.28745818
0.29387683 -0.025219169 0.28746101
0.29395479 -0.025219003 0.28746587
0.29403281 -0.025219116 0.28746271
0.2941089 -0.025219299 0.28745753
0.29418656 -0.02521823 0.28748834
0.2942645 -0.025217993 0.2874952
0.2943407 -0.025218664 0.287476
0.29441893 -0.025219401 0.28745487
0.2944971 -0.025219932 0.2874397
0.29457483 -0.025219072 0.28746456
0.29465273 -0.025218697 0.28747538
0.29472888 -0.025219157 0.2874622
0.29480678 -0.025218852 0.28747106
0.29488468 -0.025218548 0.28747988
0.29496059 -0.025218174 0.2874907
0.29503843 -0.025217662 0.28750551
0.29511654 -0.025218053 0.28749436
0.29519483 -0.025218999 0.28746724
0.29527074 -0.025218695 0.28747603
0.29534873 -0.025218669 0.2874769
0.2954267 -0.025218504 0.28748173
0.29550478 -0.025218755 0.28747457
0.29558083 -0.025218869 0.28747138
0.29565859 -0.025218146 0.28749222
0.29573664 -0.02521826 0.28748906
0.29581487 -0.025218997 0.2874679
0.29589087 -0.025218971 0.28746873
0.29596865 -0.02521825 0.28748956
0.29604667 -0.025218293 0.2874884
0.2961227 -0.025218407 0.28748521
0.29620063 -0.02521817 0.28749207
0.29627851 -0.025217727 0.28750488
0.29635635 -0.025217284 0.28751773
0.29643238 -0.025217328 0.28751653
0.29651037 -0.025217231 0.2875194
0.29658836 -0.025217205 0.28752023
0.29666656 -0.025217874 0.28750107
0.29674482 -0.025218681 0.28747794
0.29682079 -0.025218586 0.28748077
0.2968986 -0.025218002 0.28749758
0.29697651 -0.02521763 0.28750843
0.29705265 -0.02521809 0.28749526
0.29713061 -0.025217924 0.28750008
0.29720843 -0.025217341 0.28751692
0.29728442 -0.025217315 0.28751773
0.29736233 -0.025217012 0.28752655
0.29744041 -0.025217263 0.28751943
0.29751858 -0.025217792 0.28750426
0.2975966 -0.025217906 0.2875011
0.29767266 -0.025218019 0.28749794
0.29775065 -0.025217991 0.28749877
0.29782861 -0.025217896 0.2875016
0.29790652 -0.025217522 0.28751245
0.29798228 -0.025216732 0.28753525
0.29806021 -0.025216566 0.28754008
0.29813823 -0.025216609 0.28753892
0.29821426 -0.025216652 0.28753775
0.29829222 -0.025216486 0.28754258
0.2983703 -0.02521674 0.28753543
0.2984463 -0.025216782 0.28753424
0.29852644 -0.025217172 0.28752312
0.29860246 -0.025217285 0.28751993
0.29868045 -0.02521719 0.28752279
0.29875842 -0.025217094 0.28752562
0.29883435 -0.025216859 0.28753245
0.29891244 -0.02521711 0.28752527
0.29899049 -0.025217293 0.28752011
0.29906845 -0.025217198 0.28752297
0.29914632 -0.025216684 0.28753781
0.29922238 -0.025216937 0.2875306
0.29930028 -0.025216563 0.28754145
0.29937613 -0.02521605 0.28755626
0.29945636 -0.025216788 0.28753513
0.29953453 -0.025217317 0.28751999
0.2996105 -0.025217222 0.28752279
0.29968837 -0.025216777 0.28753564
0.29976633 -0.025216613 0.2875405
0.29984435 -0.025216725 0.28753734
0.29992032 -0.02521663 0.28754014
0.29999825 -0.025216324 0.28754896
0.30007631 -0.025216507 0.28754383
0.30015233 -0.02521662 0.28754064
0.30023241 -0.025216801 0.28753549
0.30030838 -0.025216706 0.28753832
0.30038625 -0.025216332 0.28754914
0.30046427 -0.025216375 0.28754801
0.30054036 -0.025216628 0.28754082
0.30061838 -0.025216671 0.28753966
0.30069616 -0.025216019 0.2875585
0.30077201 -0.025215507 0.28757331
0.30085012 -0.025215827 0.28756416
0.30092832 -0.025216427 0.28754699
0.30100849 -0.025217025 0.28752989
0.30108452 -0.025217069 0.28752869
0.30116248 -0.025216904 0.28753352
0.30124038 -0.025216598 0.28754237
0.30131617 -0.025215877 0.28756317
0.30139402 -0.025215365 0.28757799
0.30147007 -0.025215548 0.28757283
0.30154815 -0.025215799 0.28756568
0.30162615 -0.025215773 0.28756651
0.30170417 -0.025215816 0.28756535
0.30178225 -0.025216067 0.2875582
0.3018603 -0.02521625 0.28755304
0.30193621 -0.025215946 0.28756186
0.30201411 -0.025215641 0.28757069
0.30209216 -0.025215752 0.28756753
0.30217028 -0.025216144 0.28755638
0.3022483 -0.025216186 0.28755522
0.30232412 -0.025215605 0.28757203
0.30240196 -0.025215022 0.28758886
0.30247998 -0.025215134 0.28758571
0.30255812 -0.025215594 0.28757256
0.30263621 -0.025215846 0.28756541
0.30271211 -0.025215473 0.28757623
0.30278996 -0.025214959 0.28759104
0.30286801 -0.025215141 0.28758588
0.30294612 -0.025215533 0.28757474
0.30302426 -0.025215924 0.28756359
0.30310234 -0.025216175 0.28755644
0.30318034 -0.025216149 0.28755727
0.30325612 -0.025215497 0.28757608
0.30333394 -0.025214845 0.28759491
0.30340984 -0.02521454 0.28760374
0.30348784 -0.025214514 0.28760457
0.30356598 -0.025214974 0.2875914
0.30364412 -0.025215434 0.28757828
0.30372208 -0.025215268 0.28758311
0.30380008 -0.025215173 0.28758594
0.30387813 -0.025215356 0.28758079
0.30395609 -0.025215259 0.28758362
0.30403203 -0.025215024 0.28759044
0.30411005 -0.025215067 0.28758928
0.30418807 -0.025215181 0.28758612
0.3042661 -0.025215223 0.28758496
0.30434403 -0.025214989 0.28759181
0.30441993 -0.025214685 0.28760064
0.30449787 -0.025214449 0.28760746
0.30457592 -0.025214631 0.28760231
0.30465403 -0.025214953 0.28759316
0.30473211 -0.025215205 0.28758597
0.30480799 -0.02521483 0.28759679
0.30488801 -0.025214873 0.28759566
0.30496407 -0.025215056 0.2875905
0.305042 -0.025214752 0.28759933
0.30511984 -0.025214307 0.28761217
0.30519593 -0.02521449 0.28760698
0.3052738 -0.025214117 0.2876178
0.30534959 -0.025213394 0.2876386
0.30542755 -0.025213299 0.28764147
0.30550563 -0.025213551 0.28763431
0.30558375 -0.025213871 0.28762513
0.30566382 -0.025214123 0.28761801
0.30573985 -0.025214167 0.28761685
0.30581772 -0.025213793 0.28762767
0.30589572 -0.025213696 0.2876305
0.30597386 -0.025214227 0.28761536
0.30605197 -0.025214547 0.28760621
0.30613002 -0.02521473 0.28760105
0.30620807 -0.025214842 0.28759789
0.30628589 -0.025214259 0.28761473
0.30636171 -0.025213677 0.28763154
0.3064397 -0.025213581 0.28763437
0.30651572 -0.025213625 0.28763318
0.30659366 -0.02521346 0.28763804
0.30667168 -0.025213502 0.28763688
0.30674973 -0.025213614 0.28763372
0.30682772 -0.025213659 0.28763255
0.30690569 -0.025213493 0.28763741
0.30698165 -0.025213327 0.28764221
0.3070617 -0.02521351 0.28763708
0.30713981 -0.025213901 0.28762594
0.30721781 -0.025213873 0.28762677
0.30729368 -0.02521343 0.28763959
0.30737174 -0.025213612 0.28763443
0.30745184 -0.025213933 0.28762528
0.30752778 -0.0252137 0.28763211
0.30760556 -0.025212977 0.28765294
0.3076815 -0.025212742 0.28765976
0.30775943 -0.025212577 0.28766459
0.30783752 -0.025212828 0.28765744
0.30791566 -0.025213288 0.28764427
0.30799571 -0.025213402 0.28764114
0.30807152 -0.025212819 0.28765798
0.30814743 -0.025212515 0.28766677
0.30822757 -0.025212904 0.28765565
0.30830577 -0.025213573 0.28763649
0.30838373 -0.025213407 0.28764135
0.30845949 -0.025212618 0.28766412
0.30853745 -0.025212521 0.28766698
0.30861545 -0.025212426 0.28766981
0.30869138 -0.025212191 0.28767663
0.30876935 -0.025212094 0.28767946
0.30884737 -0.025212139 0.2876783
0.30892542 -0.02521232 0.28767315
0.30900556 -0.025212711 0.28766203
0.30908364 -0.025212962 0.28765488
0.30916154 -0.025212727 0.2876617
0.30923754 -0.025212631 0.28766453
0.30931756 -0.025212742 0.28766137
0.30939561 -0.025212856 0.28765824
0.30947369 -0.025213107 0.28765106
0.30955166 -0.025212942 0.28765592
0.30962747 -0.025212429 0.28767073
0.30970544 -0.025212264 0.28767556
0.3097814 -0.025212169 0.28767836
0.30985945 -0.02521228 0.28767523
0.30993742 -0.025212185 0.28767806
0.31001532 -0.02521188 0.28768688
0.31009331 -0.025211785 0.28768975
0.3101714 -0.025212036 0.28768259
0.31024945 -0.025212217 0.28767744
0.31032738 -0.025211982 0.28768426
0.31040323 -0.02521147 0.28769907
0.31048125 -0.025211513 0.28769791
0.31056145 -0.025212182 0.28767878
0.31064165 -0.02521278 0.28766167
0.31071755 -0.025212476 0.28767049
0.31079328 -0.025211547 0.28769729
0.31087118 -0.025211241 0.28770611
0.31094921 -0.025211355 0.28770295
0.31102732 -0.025211675 0.2876938
0.31110528 -0.02521158 0.28769666
0.31118113 -0.025210997 0.28771347
0.31125906 -0.025210833 0.2877183
0.31133717 -0.025211154 0.28770912
0.31141737 -0.025211822 0.28769001
0.31149751 -0.025212212 0.2876789
0.31157339 -0.025211839 0.28768969
0.31165129 -0.025211534 0.28769854
0.31172931 -0.025211576 0.28769737
0.31180531 -0.02521155 0.28769821
0.31188536 -0.025211662 0.28769505
0.31196338 -0.025211707 0.28769389
0.31203926 -0.025211332 0.28770471
0.31211716 -0.025210958 0.28771555
0.3121931 -0.025210794 0.28772035
0.31227317 -0.025211044 0.28771323
0.31235126 -0.025211295 0.28770608
0.31242928 -0.025211338 0.28770491
0.31250733 -0.025211452 0.28770176
0.31258535 -0.025211563 0.2876986
0.31266332 -0.025211468 0.28770143
0.31274131 -0.025211371 0.28770429
0.31281927 -0.025211276 0.28770712
0.31289515 -0.025210833 0.28771994
0.31297311 -0.025210736 0.28772277
0.31305322 -0.025211059 0.28771365
0.31312922 -0.025211032 0.28771445
0.31320709 -0.025210587 0.2877273
0.31328294 -0.025210075 0.28774211
0.31335878 -0.025209563 0.28775692
0.31343466 -0.02520919 0.28776771
0.31351259 -0.025208954 0.28777456
0.31359062 -0.025208998 0.2877734
0.31366858 -0.025208902 0.28777623
0.31374449 -0.025208598 0.28778505
0.31382236 -0.025208153 0.28779787
0.31389835 -0.025208129 0.2877987
0.31397846 -0.025208518 0.28778756
0.31405857 -0.025208838 0.28777844
0.31413448 -0.025208466 0.28778926
0.31421241 -0.0252083 0.28779408
0.31429476 -0.025209384 0.287763
0.31437495 -0.025209982 0.28774586
0.31444865 -0.025208984 0.28777465
0.31452242 -0.025208194 0.28779742
0.31460035 -0.025208028 0.28780228
0.31468049 -0.025208419 0.28779113
0.3147606 -0.02520874 0.28778201
0.3148365 -0.025208505 0.28778881
0.31491238 -0.025208062 0.28780162
0.3149904 -0.025208104 0.28780049
0.3150706 -0.025208704 0.28778335
0.31515285 -0.025209511 0.28776026
0.31523293 -0.025209831 0.28775111
0.3153089 -0.025209665 0.28775594
0.3153868 -0.025209362 0.28776476
0.31546479 -0.025209265 0.28776759
0.31554288 -0.025209587 0.28775847
0.31562299 -0.025209907 0.28774932
0.31570101 -0.02520995 0.28774816
0.31577894 -0.025209714 0.28775501
0.31585696 -0.025209827 0.28775185
0.31593505 -0.02521001 0.2877467
0.31601301 -0.025209913 0.28774953
0.31608889 -0.025209541 0.28776035
0.31616476 -0.025209097 0.28777316
0.31624272 -0.025208931 0.28777799
0.3163228 -0.025209252 0.28776887
0.31640083 -0.025209295 0.28776771
0.31647888 -0.025209408 0.28776455
0.31655899 -0.025209729 0.2877554
0.31663698 -0.025209771 0.28775424
0.31671289 -0.025209397 0.28776506
0.31679085 -0.025209302 0.28776789
0.3168689 -0.025209483 0.28776276
0.31694895 -0.025209596 0.2877596
0.317027 -0.025209708 0.28775644
0.31710497 -0.025209611 0.2877593
0.31718296 -0.025209585 0.28776014
0.31725895 -0.025209559 0.28776097
0.31733897 -0.025209602 0.28775981
0.31741703 -0.025209716 0.28775665
0.31749496 -0.02520955 0.28776151
0.31757087 -0.025209244 0.28777033
0.31764677 -0.025208872 0.28778112
0.3177247 -0.025208637 0.28778797
0.31780282 -0.025209028 0.28777683
0.31788495 -0.025209418 0.28776568
0.31796092 -0.025209321 0.28776851
0.31803891 -0.025209295 0.28776938
0.31811896 -0.025209406 0.28776622
0.31819496 -0.025209451 0.28776503
0.318275 -0.025209563 0.2877619
0.3183488 -0.025208911 0.2877807
0.31842256 -0.025208052 0.28780547
0.31850255 -0.025208024 0.28780633
0.31858283 -0.025208972 0.28777921
0.31866711 -0.025209846 0.28775415
0.31874514 -0.02520996 0.28775099
0.31881896 -0.025209308 0.28776976
0.31889692 -0.025209213 0.2877726
0.31897485 -0.025208976 0.28777945
0.31905067 -0.025208395 0.28779626
0.31912664 -0.025208231 0.28780109
0.28499255 -0.025998803 0.27646831
0.28507954 -0.025995573 0.2765612
0.28516322 -0.025994571 0.27659008
0.28524694 -0.025993638 0.27661696
0.28533074 -0.025992982 0.27663586
0.28541467 -0.025992744 0.27664277
0.28549674 -0.025992922 0.27663764
0.28558072 -0.025992893 0.27663854
0.28566453 -0.025992237 0.27665743
0.28574839 -0.02599179 0.27667034
0.28583047 -0.025991969 0.27666521
0.28591254 -0.025992218 0.27665812
0.28599662 -0.025992466 0.27665102
0.28665745 -0.02562717 0.28715241
0.28673688 -0.025625264 0.28720722
0.28681967 -0.025621342 0.28732005
0.28689745 -0.025620617 0.28734088
0.28697538 -0.025620382 0.28734773
0.28705332 -0.025620146 0.28735456
0.28713131 -0.025620187 0.2873534
0.28720739 -0.025620367 0.28734821
0.28728539 -0.025620341 0.28734905
0.28736338 -0.025620313 0.28734991
0.2874414 -0.025620354 0.28734875
0.28751937 -0.025620257 0.28735158
0.28759542 -0.025620438 0.28734639
0.28767344 -0.025620481 0.28734523
0.28775144 -0.025620453 0.28734607
0.28782949 -0.025620634 0.28734094
0.28790736 -0.025620189 0.28735375
0.28798518 -0.025619606 0.28737059
0.28806314 -0.025619438 0.28737542
0.28813925 -0.025619758 0.28736624
0.28821725 -0.025619801 0.28736508
0.28829524 -0.025619704 0.28736794
0.28837326 -0.025619745 0.28736678
0.28844941 -0.025620274 0.28735161
0.28852564 -0.025620943 0.28733242
0.28860554 -0.025620636 0.2873413
0.28868327 -0.025619704 0.28736812
0.28876114 -0.025619328 0.28737894
0.28883731 -0.025619859 0.28736377
0.28891534 -0.025619969 0.28736061
0.28899321 -0.025619525 0.28737345
0.28907117 -0.025619358 0.28737828
0.28914723 -0.025619539 0.2873731
0.28922534 -0.025619928 0.28736195
0.2893014 -0.025620041 0.28735876
0.28938124 -0.025619525 0.28737363
0.28945708 -0.025619011 0.28738844
0.28953505 -0.025618846 0.28739327
0.28961307 -0.025618955 0.28739011
0.28984511 -0.025619013 0.28738862
0.28992292 -0.025618428 0.28740543
0.29000095 -0.025618471 0.28740427
0.29007709 -0.025618931 0.28739113
0.29015517 -0.025619181 0.28738397
0.29023319 -0.025619224 0.28738278
0.29030946 -0.025620099 0.28735763
0.29038727 -0.025619516 0.28737447
0.29046524 -0.025619349 0.28737929
0.29054329 -0.02561946 0.28737614
0.29062131 -0.025619572 0.28737298
0.2906971 -0.025618849 0.28739378
0.290775 -0.025618544 0.28740263
0.29085311 -0.025618862 0.28739345
0.2909312 -0.025619114 0.2873863
0.29100722 -0.025619226 0.28738314
0.29108512 -0.02561892 0.28739196
0.2911633 -0.025619378 0.28737882
0.29124138 -0.025619699 0.28736967
0.29131743 -0.02561981 0.28736648
0.29139552 -0.025620062 0.28735933
0.29147339 -0.025619686 0.28737015
0.29155123 -0.025619172 0.28738499
0.29162714 -0.025618795 0.28739581
0.2917051 -0.025618698 0.28739864
0.29178315 -0.02561881 0.28739548
0.29186121 -0.025618991 0.28739032
0.29193911 -0.025618685 0.28739917
0.29201519 -0.025618937 0.28739199
0.29209331 -0.025619326 0.28738084
0.29217133 -0.025619367 0.28737968
0.29224709 -0.025618576 0.28740248
0.29232484 -0.025617784 0.28742531
0.29240292 -0.025618033 0.28741816
0.2924808 -0.025617588 0.28743097
0.29255691 -0.025617909 0.28742182
0.29263502 -0.025618298 0.28741068
0.29271302 -0.02561827 0.28741151
0.29279092 -0.025617965 0.28742033
0.29286888 -0.025617799 0.28742516
0.29294482 -0.025617562 0.28743199
0.29302278 -0.025617396 0.28743681
0.29310077 -0.025617437 0.28743565
0.2931768 -0.02561748 0.28743446
0.29325476 -0.025617313 0.28743932
0.29333261 -0.025616869 0.28745216
0.29340875 -0.025617259 0.28744096
0.29348692 -0.025617788 0.28742582
0.29356503 -0.025618177 0.28741467
0.29364288 -0.025617663 0.28742951
0.29372069 -0.025617009 0.28744835
0.29379678 -0.025617329 0.28743917
0.29387507 -0.025618205 0.28741401
0.29395324 -0.025618803 0.28739685
0.29403123 -0.025618706 0.28739971
0.29410675 -0.025617149 0.28744447
0.29418477 -0.025617192 0.28744334
0.29426283 -0.025617372 0.28743818
0.29433891 -0.025617624 0.287431
0.29441684 -0.025617456 0.28743583
0.29449472 -0.025617011 0.28744867
0.29457283 -0.025617331 0.28743953
0.29465082 -0.025617303 0.28744036
0.29472682 -0.025617277 0.28744116
0.29480484 -0.025617318 0.28744
