# .PCD v0.7 - Point Cloud Data file format
VERSION 0.7
FIELDS x y z
SIZE 4 4 4
TYPE F F F
COUNT 1 1 1
WIDTH 1330
HEIGHT 1
VIEWPOINT 0 0 0 1 0 0 0
POINTS 1330
DATA ascii
0.78790694 -0.013695718 -0.23791228
0.78809601 -0.013685604 -0.2378969
0.78829193 -0.013747368 -0.23785
0.78847647 -0.013669237 -0.2378286
0.78866649 -0.013660841 -0.23780596
0.78889245 -0.013693232 -0.23780812
0.7875706 -0.013452795 -0.23799071
0.78770131 -0.013495937 -0.23794861
0.7878902 -0.013487638 -0.23792331
0.78807956 -0.013476789 -0.23791194
0.78830504 -0.013513837 -0.23786619
0.78855962 -0.013523811 -0.23783597
0.78871393 -0.013470121 -0.23782115
0.78890365 -0.013458572 -0.23782365
0.78910035 -0.013517805 -0.23781021
0.78921956 -0.01341868 -0.23780051
0.78771937 -0.01333145 -0.23796189
0.78787374 -0.013277833 -0.23794238
0.78809702 -0.013295226 -0.23792104
0.78831786 -0.013279684 -0.23788594
0.78851336 -0.013341279 -0.23784477
0.78870046 -0.013294503 -0.23783967
0.78885663 -0.0132737 -0.2378349
0.78908205 -0.013307554 -0.23782861
0.78920066 -0.013208567 -0.23782161
0.78773212 -0.013095344 -0.23798293
0.78795701 -0.013132591 -0.23795214
0.78811169 -0.013077867 -0.23793887
0.78830099 -0.013069399 -0.23791279
0.78849649 -0.013133178 -0.23785718
0.78868622 -0.01312314 -0.23783714
0.78887516 -0.013110357 -0.237841
0.78906512 -0.013096274 -0.23784752
0.78929055 -0.013134063 -0.23781282
0.78791016 -0.012947121 -0.23797007
0.78809667 -0.012902297 -0.23796195
0.7882843 -0.012858693 -0.23793854
0.78850973 -0.012899387 -0.23787087
0.7887345 -0.012933712 -0.23784906
0.78892356 -0.012921448 -0.23784953
0.78911304 -0.012908238 -0.23785335
0.789303 -0.012898018 -0.23783211
0.78942162 -0.012801038 -0.23781055
0.78789234 -0.012732632 -0.23798878
0.78808278 -0.012725591 -0.23797357
0.78823656 -0.012672433 -0.23796779
0.78849262 -0.012687927 -0.23790458
0.78871846 -0.012725652 -0.23785537
0.78890687 -0.012713793 -0.23785728
0.78909653 -0.012699659 -0.23786767
0.7892856 -0.01268947 -0.23785293
0.7879926 -0.012421275 -0.23799774
0.78813028 -0.012532522 -0.23798661
0.78832036 -0.01252684 -0.23796283
0.78850514 -0.012451717 -0.2379276
0.78870153 -0.012516235 -0.23787321
0.78889042 -0.012504543 -0.23787296
0.78907984 -0.012491946 -0.23787539
0.78926903 -0.012480661 -0.237868
0.78946465 -0.012542322 -0.23782615
0.78830248 -0.012312602 -0.23798347
0.78845733 -0.012260843 -0.23795849
0.78868407 -0.012304142 -0.23790479
0.78890443 -0.012287038 -0.23789214
0.78912824 -0.012302141 -0.23788798
0.78931713 -0.012292188 -0.2378739
0.78950739 -0.012283986 -0.23783801
0.78831947 -0.012145872 -0.23799807
0.78847528 -0.012094046 -0.23796774
0.78866601 -0.01208872 -0.23793213
0.78892142 -0.012104531 -0.23790199
0.78911114 -0.012092549 -0.2379051
0.78930074 -0.012082393 -0.23789297
0.7894907 -0.012073996 -0.23786223
0.78962737 -0.012186727 -0.23781109
0.7885223 -0.011902872 -0.23797484
0.78871298 -0.011897515 -0.23794045
0.78890353 -0.011889682 -0.23792399
0.7891295 -0.01192761 -0.23791397
0.78928375 -0.011871555 -0.23791532
0.78947419 -0.01186344 -0.23788667
0.78966951 -0.011928138 -0.23782752
0.78854024 -0.011735463 -0.23798791
0.78869528 -0.011684566 -0.23795588
0.78888577 -0.011677167 -0.23793729
0.78908157 -0.011739455 -0.23792569
0.78931171 -0.011696749 -0.2379262
0.78952169 -0.011673666 -0.23789661
0.78971237 -0.011668199 -0.23784745
0.78874785 -0.011564157 -0.23796189
0.78886771 -0.011464822 -0.23795019
0.7890932 -0.011502515 -0.23793623
0.78931969 -0.01153634 -0.23794334
0.78950691 -0.011495186 -0.23792079
0.78969485 -0.011456039 -0.23787971
0.78989077 -0.011522912 -0.23781145
0.78873062 -0.011348291 -0.23798557
0.78891838 -0.011307325 -0.23795916
0.78910512 -0.01126521 -0.23794739
0.78930157 -0.011324539 -0.23795401
0.78949213 -0.011316706 -0.23793752
0.78964686 -0.011264732 -0.23791456
0.78990316 -0.011286724 -0.2378353
0.78890342 -0.011127639 -0.23798446
0.78908753 -0.011050415 -0.23796511
0.78928357 -0.011112479 -0.23796423
0.789505 -0.011096981 -0.23795152
0.78973055 -0.011120394 -0.23790427
0.78988534 -0.011071248 -0.23786111
0.79011202 -0.01111351 -0.23781502
0.79023027 -0.011015243 -0.23780537
0.78892088 -0.010961626 -0.23799092
0.78904021 -0.010860857 -0.23799247
0.78926563 -0.010898471 -0.2379787
0.78952128 -0.01091201 -0.23796539
0.78971195 -0.010906833 -0.23793024
0.78990275 -0.010904123 -0.23787534
0.7900936 -0.010898943 -0.23783839
0.79046923 -0.010814565 -0.23780051
0.78915918 -0.01076191 -0.23798311
0.78931308 -0.010705869 -0.23799448
0.78950357 -0.010696641 -0.2379884
0.78972977 -0.010739348 -0.23794395
0.7898851 -0.010689527 -0.237902
0.79007512 -0.010686566 -0.23785435
0.79030216 -0.010726068 -0.23781794
0.79052132 -0.010694298 -0.23780584
0.79064679 -0.010664909 -0.2378009
0.78968221 -0.010548205 -0.23797353
0.78989959 -0.010486163 -0.23791945
0.79012269 -0.010494426 -0.23786549
0.79031366 -0.010488249 -0.2378356
0.79053974 -0.010525706 -0.23781911
0.7906943 -0.010471909 -0.23781328
0.78972358 -0.010284674 -0.23799515
0.78995043 -0.01032924 -0.23792313
0.79010552 -0.010279137 -0.2378884
0.79029578 -0.010274327 -0.23785907
0.79049224 -0.010339599 -0.23782273
0.79067904 -0.010294449 -0.2378267
0.79086655 -0.010251306 -0.23781216
0.78990245 -0.01013896 -0.2379591
0.79008961 -0.010100101 -0.23791601
0.79027796 -0.010058743 -0.23788409
0.79050362 -0.01010195 -0.237839
0.7907297 -0.01013827 -0.23783182
0.79084909 -0.010037787 -0.2378307
0.79014063 -0.0099435756 -0.23792122
0.79032791 -0.0099030705 -0.23788935
0.79051572 -0.0098624965 -0.23785417
0.7907114 -0.009925276 -0.23785067
0.79090184 -0.0099179531 -0.2378314
0.79105675 -0.0098664816 -0.2378047
0.78998506 -0.0096150152 -0.2379903
0.79034925 -0.0097704129 -0.23790243
0.7904678 -0.0096730758 -0.23788418
0.79069334 -0.0097110504 -0.2378671
0.79088408 -0.0097036669 -0.2378536
0.79107445 -0.009698567 -0.23782237
0.79123497 -0.0097159697 -0.23780704
0.79010421 -0.0095176799 -0.23796804
0.79022378 -0.0094192727 -0.23795173
0.7905581 -0.0095997574 -0.23786446
0.79067546 -0.0094990497 -0.23787732
0.7909317 -0.0095104398 -0.23786555
0.79112154 -0.0095064174 -0.23783295
0.79127645 -0.0094529502 -0.23782334
0.79011625 -0.009279415 -0.23798448
0.79027671 -0.0092996117 -0.23795028
0.79043186 -0.009246571 -0.23793262
0.79079425 -0.009396703 -0.23789343
0.79091388 -0.0092967944 -0.23788702
0.79113984 -0.0093386006 -0.2378405
0.79129481 -0.0092844525 -0.23783521
0.79148531 -0.0092785014 -0.23781247
0.79032415 -0.0091087492 -0.23795252
0.79051495 -0.0091026491 -0.23792297
0.79066902 -0.0090519991 -0.23789513
0.79109192 -0.0091483546 -0.23787618
0.7912792 -0.0091070998 -0.23784924
0.79146767 -0.0090634869 -0.23783219
0.79160386 -0.0091791591 -0.23780876
0.79018724 -0.0089933556 -0.23798981
0.79030639 -0.0088959457 -0.23796822
0.79053283 -0.0089350836 -0.23793636
0.79068714 -0.008884077 -0.23790984
0.79087704 -0.008873391 -0.23791867
0.7913301 -0.0089493915 -0.23786338
0.79151738 -0.0089068469 -0.23784639
0.79170513 -0.0088658789 -0.23781483
0.79031825 -0.0086577628 -0.23799007
0.79048514 -0.0087479353 -0.23794937
0.79071468 -0.0087082963 -0.23792504
0.79092485 -0.0086816698 -0.23792486
0.79111511 -0.0086737787 -0.23791187
0.79153907 -0.008775264 -0.23784953
0.79168719 -0.0086518731 -0.23783962
0.79049659 -0.0085105728 -0.23796761
0.79072279 -0.0085509671 -0.23792605
0.79091001 -0.0085051693 -0.2379321
0.79109764 -0.0084606651 -0.23792624
0.79129392 -0.0085258419 -0.23789234
0.79141223 -0.0084259259 -0.23789394
0.79186636 -0.0085032964 -0.23782206
0.79039145 -0.0083725387 -0.23799574
0.79051083 -0.0082739135 -0.23798142
0.79070503 -0.0083378674 -0.23794651
0.79089493 -0.0083285309 -0.23794271
0.79104948 -0.0082743354 -0.23793563
0.79130554 -0.0082885344 -0.23790383
0.79153186 -0.0083260154 -0.2378875
0.79165179 -0.0082269637 -0.23787317
0.79052585 -0.0080406722 -0.23799311
0.79068893 -0.0081258276 -0.23796724
0.79087782 -0.008117144 -0.23795335
0.7911005 -0.0081173629 -0.23794596
0.79131752 -0.008051102 -0.23791663
0.79151392 -0.0081135407 -0.23789994
0.79170442 -0.0081066554 -0.23787768
0.79185975 -0.0080537237 -0.23785904
0.79070377 -0.0078936983 -0.23797165
0.79092693 -0.0079259975 -0.23796241
0.79111594 -0.0079158815 -0.23795776
0.79126954 -0.0078617577 -0.23794995
0.79149586 -0.0079016574 -0.23791103
0.79168683 -0.0078935437 -0.23789339
0.79187745 -0.0078865821 -0.23787045
0.79206783 -0.0078827757 -0.23782772
0.79071897 -0.0076589952 -0.23798622
0.79091173 -0.0077190972 -0.23796709
0.79110032 -0.007706346 -0.23796584
0.79128891 -0.0076961629 -0.23795532
0.79147786 -0.0076896972 -0.23792489
0.79173392 -0.0077021122 -0.23790355
0.79192448 -0.0076966472 -0.23786938
0.79211521 -0.0076919063 -0.23782994
0.79227632 -0.0077092885 -0.23781189
0.79089671 -0.0075099096 -0.23798132
0.79108524 -0.0074986625 -0.23797394
0.79127359 -0.0074878423 -0.23796271
0.79149586 -0.0075062849 -0.23793337
0.7917164 -0.0074896528 -0.23791806
0.7919426 -0.0075302343 -0.23787484
0.79209757 -0.007479012 -0.23784499
0.7922883 -0.0074719749 -0.2378214
0.79088211 -0.0073006586 -0.23799364
0.7911011 -0.0072823199 -0.23798415
0.79132271 -0.0072992616 -0.23796915
0.79151171 -0.0072903037 -0.23794068
0.7917006 -0.0072785518 -0.23793013
0.79189467 -0.0073402063 -0.23791246
0.79208201 -0.0073017543 -0.23786357
0.79227 -0.0072596557 -0.23783647
0.79240674 -0.0073744189 -0.23780513
0.79117835 -0.0070502302 -0.23799957
0.79130799 -0.0070894868 -0.23798536
0.79149646 -0.0070813373 -0.23795681
0.7916851 -0.0070705139 -0.23794545
0.79190868 -0.0071039312 -0.23792478
0.79213303 -0.0071454584 -0.23786859
0.79232025 -0.0071047153 -0.23783691
0.7925083 -0.0070624747 -0.23781113
0.79132789 -0.0069252388 -0.23799255
0.79151356 -0.0068817823 -0.2379702
0.79167026 -0.0068619824 -0.23795371
0.7918933 -0.0068976693 -0.23792668
0.79211742 -0.0069331452 -0.23788796
0.79230636 -0.0069264597 -0.23785953
0.79246002 -0.00687441 -0.23783652
0.79156601 -0.0067278873 -0.23796886
0.79171991 -0.006672652 -0.23796028
0.79190856 -0.0066632326 -0.23793894
0.79210204 -0.0067252568 -0.23790193
0.79229075 -0.0067167915 -0.23786895
0.79247969 -0.006707605 -0.23784916
0.79269856 -0.0066767815 -0.23781231
0.79158032 -0.0064924965 -0.23799682
0.79170686 -0.0064980062 -0.23797965
0.79189348 -0.0064542065 -0.23795326
0.7920866 -0.0065150079 -0.23792608
0.79230654 -0.0065007987 -0.23788144
0.79252928 -0.0065185395 -0.23784955
0.79268211 -0.006465273 -0.23783123
0.79172981 -0.006367614 -0.2379888
0.79184842 -0.0062674875 -0.23799036
0.79210168 -0.0062804902 -0.23794062
0.79232508 -0.0063186944 -0.23789279
0.79251343 -0.0063106548 -0.23786362
0.79270196 -0.0063024 -0.23783255
0.79289126 -0.006291714 -0.23781209
0.79320455 -0.0062520839 -0.23780055
0.79196775 -0.0061695124 -0.23797207
0.79208624 -0.0060690637 -0.23797663
0.79231024 -0.0061086006 -0.23791307
0.79249859 -0.0061002504 -0.23788579
0.79268676 -0.0060934485 -0.23784868
0.79287618 -0.0060829059 -0.23783068
0.79308957 -0.0061259754 -0.2378021
0.79198098 -0.0059344955 -0.23799185
0.79210544 -0.0059043132 -0.23798497
0.79229528 -0.0058982712 -0.23793797
0.79251778 -0.0059360079 -0.23789699
0.79267174 -0.0058828802 -0.23787288
0.79289412 -0.0059020016 -0.23783696
0.79311365 -0.0058855806 -0.23781067
0.79330808 -0.0059402934 -0.23781352
0.79342598 -0.0058410168 -0.23781314
0.79215991 -0.0057831313 -0.23799613
0.79227877 -0.0056868009 -0.23796861
0.79250312 -0.005725611 -0.23792055
0.79272145 -0.0056934319 -0.23788142
0.79291028 -0.0056847781 -0.23785214
0.79309911 -0.0056759957 -0.23782484
0.79329252 -0.0057338509 -0.23781826
0.79348117 -0.0057214382 -0.2378137
0.79232508 -0.0054966751 -0.23797624
0.79251653 -0.0054902765 -0.23794131
0.79274142 -0.0055288011 -0.23789191
0.79289484 -0.0054748668 -0.23787642
0.79308373 -0.005466267 -0.23784579
0.79330677 -0.0055005187 -0.2378284
0.79353005 -0.0055330177 -0.23782271
0.79365003 -0.00543404 -0.23780766
0.79237914 -0.0053766035 -0.23797277
0.79249746 -0.0052786246 -0.23796046
0.7926957 -0.0053414186 -0.23792641
0.79288268 -0.0052990075 -0.23789358
0.79306912 -0.0052549471 -0.23787598
0.79329169 -0.0052916897 -0.2378411
0.7935155 -0.0053234375 -0.23783688
0.79363465 -0.0052238833 -0.23783115
0.79235965 -0.0051650852 -0.23799196
0.79247838 -0.0050666053 -0.23798029
0.79270595 -0.0051054484 -0.23794284
0.79293346 -0.0051446785 -0.23790111
0.7931205 -0.0051005846 -0.23787983
0.79330707 -0.0050569172 -0.23785858
0.79350072 -0.005113503 -0.23785584
0.79368907 -0.0051052854 -0.23782723
0.79255801 -0.0048869858 -0.23798256
0.79271597 -0.0048691439 -0.23796159
0.79291385 -0.0049335943 -0.23791897
0.79310584 -0.0049249097 -0.23789723
0.79326105 -0.0048716487 -0.23787957
0.79348564 -0.0049046199 -0.23787148
0.79370511 -0.0048879581 -0.23784544
0.7938565 -0.0048198495 -0.23781228
0.79257816 -0.0047566053 -0.23799068
0.79269695 -0.0046579815 -0.23798032
0.7928949 -0.0047217146 -0.23793745
0.79308677 -0.0047131539 -0.2379164
0.79327744 -0.0047063506 -0.23789011
0.79346937 -0.0046957354 -0.23788226
0.79372376 -0.004705159 -0.23786335
0.79387939 -0.0046892539 -0.23782343
0.79267853 -0.0044459654 -0.23799969
0.79290509 -0.0044858744 -0.23795676
0.79313356 -0.0045221117 -0.23792665
0.79332417 -0.0045154071 -0.23790036
0.7935161 -0.0045047463 -0.23789383
0.79370707 -0.0044950577 -0.23788537
0.79393172 -0.004534862 -0.23782805
0.79405075 -0.0044361334 -0.23781671
0.79276681 -0.0043725288 -0.23799297
0.79291576 -0.0042497879 -0.23797308
0.79311377 -0.0043125171 -0.23793881
0.79330522 -0.0043040495 -0.23791629
0.79349679 -0.0042941053 -0.23790574
0.793688 -0.0042833965 -0.23790455
0.79388601 -0.0043474156 -0.23786323
0.79406995 -0.0042704251 -0.23783199
0.79309446 -0.0041017104 -0.2379549
0.79328591 -0.0040934789 -0.23793238
0.79347706 -0.0040843412 -0.23791717
0.79366904 -0.0040717982 -0.23792039
0.7938965 -0.0041109184 -0.23788145
0.79415393 -0.0041267388 -0.2378267
0.79427248 -0.0040295133 -0.23780745
0.7929557 -0.0039891554 -0.23798922
0.79307574 -0.0038904641 -0.23797153
0.79333282 -0.0039028905 -0.23794079
0.79352379 -0.0038935121 -0.23792888
0.79371589 -0.0038814452 -0.23792879
0.79390699 -0.0038736947 -0.23790365
0.79410464 -0.0039392975 -0.23785444
0.79429322 -0.0038978467 -0.23781937
0.79312348 -0.0036978603 -0.23797929
0.79331344 -0.0036919247 -0.23795879
0.79354042 -0.0037287921 -0.23793462
0.79369617 -0.003671394 -0.23794293
0.79388779 -0.0036620211 -0.23792702
0.7940852 -0.0037278365 -0.23787294
0.79427665 -0.0037218574 -0.23783605
0.79443252 -0.0036689527 -0.23781204
0.79317802 -0.0035760123 -0.23798084
0.79329616 -0.0034773827 -0.23797451
0.79349202 -0.0035432011 -0.23794656
0.79367971 -0.0034967372 -0.23795116
0.79386836 -0.003450922 -0.23794578
0.7940954 -0.0034922385 -0.23788995
0.79432362 -0.0035313114 -0.23784165
0.79444283 -0.0034321174 -0.23783261
0.79495937 -0.0034518298 -0.23780036
0.79327875 -0.0032658603 -0.23799066
0.79350477 -0.0033033951 -0.23796134
0.7937302 -0.0033401537 -0.23796354
0.79391873 -0.0032959497 -0.23794726
0.79410601 -0.0032560353 -0.23790725
0.79430419 -0.0033191324 -0.23786967
0.79449606 -0.0033135365 -0.23782463
0.79465133 -0.003260605 -0.23780258
0.79493856 -0.0032429416 -0.23780969
0.79339784 -0.0031661615 -0.23798624
0.79351711 -0.0030670371 -0.23797655
0.79371303 -0.0031262562 -0.23797329
0.79390311 -0.0031186033 -0.23796469
0.79405802 -0.0030667912 -0.23794296
0.79428524 -0.0031073161 -0.23789103
0.79447675 -0.0031012378 -0.23785265
0.7946682 -0.0030951158 -0.23781359
0.79489499 -0.0031107734 -0.23780878
0.79349965 -0.0028536394 -0.23799492
0.79369491 -0.0029162324 -0.23798354
0.79388613 -0.0029047343 -0.23798096
0.7940762 -0.0028992016 -0.23794998
0.79426599 -0.0028966304 -0.23790635
0.79452378 -0.0029111449 -0.23785643
0.79471499 -0.0029043511 -0.23782466
0.7949068 -0.0028931487 -0.23782063
0.79506862 -0.0029066261 -0.23781987
0.79367775 -0.0027037666 -0.2379933
0.79393345 -0.0027144037 -0.23798925
0.79412383 -0.0027081277 -0.23795433
0.79431421 -0.0027035989 -0.23791409
0.79450434 -0.0026998844 -0.23787706
0.79469568 -0.0026934806 -0.23784138
0.79488754 -0.00268302 -0.23783143
0.79507905 -0.0026710748 -0.23783536
0.79410678 -0.002494406 -0.23798047
0.79429644 -0.0024908986 -0.23793429
0.79448724 -0.0024841249 -0.23790003
0.79471225 -0.0025294013 -0.23784341
0.79490125 -0.0024832166 -0.23783851
0.79512566 -0.0024814059 -0.23783915
0.79531753 -0.0024747625 -0.23780207
0.79412389 -0.0023275502 -0.23799548
0.79427904 -0.0022770513 -0.23795919
0.79446912 -0.0022720948 -0.23792481
0.7946949 -0.002313443 -0.23786922
0.79495084 -0.0023277532 -0.23784748
0.79510975 -0.0023073498 -0.23783973
0.7952981 -0.0022637236 -0.23782016
0.79436278 -0.002132345 -0.23795193
0.79451686 -0.0020806596 -0.23793058
0.79470712 -0.0020764929 -0.23788889
0.79490399 -0.0021383662 -0.23786116
0.79509419 -0.0021289971 -0.23786445
0.7952792 -0.0020520303 -0.23784077
0.79550648 -0.0020901845 -0.23780584
0.79431552 -0.0019414915 -0.23798382
0.79450297 -0.0019014701 -0.23794916
0.7946896 -0.0018626632 -0.23791124
0.79488581 -0.0019279117 -0.23787534
0.79507703 -0.0019166296 -0.23787081
0.79528761 -0.0018905824 -0.23786251
0.79551721 -0.0018542086 -0.23782139
0.79565555 -0.0019653495 -0.23780033
0.79448885 -0.0017213598 -0.23797645
0.7946434 -0.0016712425 -0.23794043
0.79489833 -0.001689177 -0.23789343
0.79512429 -0.0017260102 -0.23788172
0.79531509 -0.0017171608 -0.23786269
0.79547071 -0.0016628904 -0.23784696
0.79569608 -0.0017047711 -0.23781179
0.79581571 -0.0016045738 -0.23780802
0.79453689 -0.0015285145 -0.23799162
0.79472619 -0.0015256815 -0.2379452
0.79488099 -0.0014751703 -0.23791084
0.79510707 -0.0015134712 -0.23789215
0.79529828 -0.0015040109 -0.23788349
0.79548788 -0.0014986439 -0.23785055
0.79567885 -0.001490367 -0.23782618
0.7947455 -0.0013572099 -0.23795959
0.79489976 -0.0013062669 -0.23793121
0.79508966 -0.001299213 -0.23791187
0.79531598 -0.0013361555 -0.23790178
0.79547071 -0.0012852972 -0.23787081
0.7956953 -0.0013067252 -0.23783986
0.79588759 -0.0013166312 -0.2378107
0.79472828 -0.0011449559 -0.23798349
0.79488277 -0.0010926407 -0.23795862
0.79507327 -0.0010846319 -0.23793375
0.79529893 -0.0011216127 -0.23792113
0.79555482 -0.0011380501 -0.23787905
0.79570907 -0.0010866883 -0.23785472
0.79589981 -0.0010798741 -0.23782955
0.79489875 -0.00089183962 -0.23797286
0.79512161 -0.00089317438 -0.23794647
0.79531103 -0.00088244118 -0.23794679
0.79550719 -0.0009498056 -0.23789477
0.79569191 -0.000871667 -0.23787969
0.79588217 -0.00086604431 -0.2378519
0.79610711 -0.00090870867 -0.23780422
0.79495013 -0.00073702633 -0.2379775
0.79510456 -0.0006826843 -0.23796427
0.79529476 -0.00067097944 -0.23795938
0.79549032 -0.00073400576 -0.23792791
0.79567748 -0.00069267955 -0.23790175
0.79586512 -0.00065099885 -0.23787491
0.79608995 -0.00069471821 -0.23782505
0.79508764 -0.00047270456 -0.23798126
0.79527801 -0.00046169385 -0.23797117
0.79550332 -0.0004967046 -0.23794886
0.79572839 -0.0005363251 -0.23790722
0.79591608 -0.00049392879 -0.23788497
0.79610252 -0.00045539314 -0.23784299
0.79626912 -0.00054565631 -0.23781098
0.79514176 -0.00035228021 -0.23798791
0.79529506 -0.00027846918 -0.23798889
0.79551619 -0.0002607225 -0.23797293
0.79571176 -0.00032400401 -0.23792775
0.79590154 -0.00031606294 -0.23790622
0.79605627 -0.00026310422 -0.23788533
0.7962814 -0.00030580908 -0.23783474
0.79640007 -0.00020890124 -0.23781249
0.79538035 -0.00015052408 -0.23799296
0.79569513 -0.0001132898 -0.23794878
0.79588443 -0.00010465644 -0.23792742
0.79607505 -9.6804775e-05 -0.23789598
0.79626441 -9.1367714e-05 -0.23785929
0.79651994 -0.00010949249 -0.23780143
0.79555929 8.456409e-07 -0.23799723
0.79570806 0.00012235483 -0.23796993
0.79593277 8.5681058e-05 -0.23794
0.79612303 9.3162678e-05 -0.23790403
0.79631329 0.00010022894 -0.23786934
0.79650235 0.00010452295 -0.237826
0.79569131 0.00033300556 -0.23798738
0.79591674 0.00029728995 -0.23796354
0.79610616 0.00030479766 -0.23793297
0.79629612 0.00031129023 -0.23789243
0.7964856 0.00031734505 -0.23785122
0.79668123 0.00025417781 -0.23781841
0.79680115 0.00035523251 -0.23781858
0.79578096 0.00040815212 -0.23798457
0.79590064 0.0005080619 -0.23797816
0.79612517 0.00047081243 -0.23794805
0.79627943 0.00052262534 -0.23791802
0.79646879 0.00052855973 -0.23787688
0.79669386 0.00049040467 -0.23783344
0.79691976 0.00045421781 -0.23781157
0.79576433 0.00061783195 -0.23799846
0.7959131 0.00074207876 -0.23799047
0.79610831 0.00068199914 -0.2379705
0.79636347 0.00066773687 -0.2379204
0.79651719 0.00071894564 -0.23788871
0.79670697 0.00072588027 -0.23785286
0.79690224 0.00066525367 -0.23782821
0.79702199 0.00076494738 -0.23781979
0.79724789 0.00072969403 -0.23780453
0.79609156 0.00089205522 -0.23798783
0.79631686 0.00085353415 -0.23794062
0.79650348 0.00089572743 -0.23791251
0.79669029 0.00093741779 -0.23787974
0.79688567 0.00087596354 -0.23784924
0.79707623 0.00088444847 -0.23781852
0.7973001 0.00088716485 -0.23781718
0.79745823 0.00090732612 -0.23780712
0.79598564 0.0010244902 -0.23799931
0.79610509 0.0011249362 -0.23799786
0.79630023 0.0010647861 -0.23796506
0.79649001 0.0010715047 -0.23792708
0.79667348 0.0011485498 -0.23790169
0.7968992 0.001112137 -0.23787035
0.7971248 0.0010743532 -0.23782714
0.7973153 0.0010872068 -0.23782885
0.79747093 0.0011444446 -0.23782845
0.79628414 0.0012741219 -0.23798592
0.79650474 0.0012892094 -0.23794457
0.79672492 0.0013031643 -0.23790374
0.79691178 0.0013471557 -0.23788558
0.79710764 0.0012853909 -0.23785339
0.79729885 0.0012976179 -0.23784654
0.79748917 0.0013084778 -0.23783438
0.79761964 0.0012660082 -0.23780161
0.79635805 0.0015562726 -0.2379908
0.7965219 0.001470582 -0.237958
0.79671097 0.00147784 -0.23791952
0.79686552 0.0015319251 -0.23789972
0.79709077 0.0014964497 -0.23787467
0.79728156 0.0015070637 -0.23786032
0.79747254 0.0015195943 -0.23785798
0.79766232 0.001526316 -0.2378201
0.79650563 0.0016781967 -0.23797329
0.79669505 0.0016869331 -0.23793896
0.7968846 0.0016963631 -0.23791182
0.79707432 0.0017074129 -0.23789644
0.7973302 0.0016976278 -0.23787041
0.79755652 0.0016651358 -0.23786433
0.79767561 0.001763544 -0.23785001
0.79649019 0.0018864287 -0.23799175
0.7966792 0.0018953501 -0.23795952
0.79690093 0.0018943399 -0.23792076
0.79712278 0.00189547 -0.23790036
0.79731339 0.0019060863 -0.23787703
0.79750997 0.0018504262 -0.23787995
0.79769659 0.0018926924 -0.23785247
0.79785383 0.0019084755 -0.2378127
0.79672837 0.0020837437 -0.23796774
0.79691792 0.0020928781 -0.2379335
0.79710668 0.0021038216 -0.23791774
0.79729635 0.002113919 -0.23789199
0.7974928 0.0020596012 -0.23789318
0.79768342 0.0020697538 -0.23787497
0.797867 0.0021442939 -0.23783039
0.79674268 0.0023176931 -0.23798816
0.79690242 0.0023016657 -0.23795533
0.79709095 0.0023113936 -0.23793228
0.79728055 0.0023221734 -0.23790927
0.79750556 0.0022912663 -0.23789996
0.79773206 0.0022597786 -0.23788367
0.79791844 0.002299157 -0.23783478
0.79807544 0.0023160977 -0.23780301
0.79688662 0.0025101781 -0.23797537
0.79707557 0.0025201638 -0.23795223
0.79729861 0.0025031986 -0.23792234
0.79751998 0.0025233496 -0.23790503
0.79771537 0.0024686095 -0.23790389
0.79790497 0.0024743646 -0.23785155
0.79805923 0.0025271634 -0.23782381
0.79693604 0.0026987672 -0.23798245
0.79712486 0.0027092111 -0.23796327
0.79731387 0.0027189814 -0.23793812
0.79750329 0.0027295079 -0.23791628
0.79769915 0.0026760765 -0.2379179
0.79788834 0.0026835285 -0.23787564
0.79807776 0.0026912428 -0.2378366
0.79838616 0.002799347 -0.23780033
0.79849398 0.0026690038 -0.23780435
0.7969808 0.0029598717 -0.23799688
0.79714382 0.0028723236 -0.23797131
0.79729861 0.0029280342 -0.23795946
0.79748708 0.0029372629 -0.23793304
0.79768348 0.0028830178 -0.23792844
0.79790384 0.0029000961 -0.23789561
0.7981264 0.0028794867 -0.23784304
0.79825068 0.0029060431 -0.23780644
0.79850698 0.0029036161 -0.2378183
0.79709977 0.0030597809 -0.23799445
0.79728574 0.0031032115 -0.23797607
0.797472 0.0031457115 -0.23794907
0.79769766 0.0031159972 -0.23794289
0.79792196 0.0030814055 -0.23791035
0.79811078 0.0030886836 -0.23786688
0.79829961 0.0030955493 -0.23782139
0.79849035 0.003110297 -0.23782267
0.79862642 0.0030021667 -0.23780331
0.79733783 0.0032591708 -0.23798566
0.79752433 0.00330217 -0.23796129
0.79771167 0.0033481016 -0.23795207
0.7979064 0.003290945 -0.23793566
0.79809505 0.0032981124 -0.23789467
0.79828358 0.0033039053 -0.2378432
0.79847366 0.0033153307 -0.23782213
0.79869884 0.0032848376 -0.23781462
0.79728687 0.0034378888 -0.2379972
0.79750949 0.0034755014 -0.23797411
0.79766619 0.0035329508 -0.23796508
0.79789096 0.0035003249 -0.23796032
0.79808015 0.0035078339 -0.23791797
0.79830074 0.0035027261 -0.23785764
0.79852319 0.0035047934 -0.2378363
0.79871291 0.003517295 -0.23782517
0.79884768 0.0034090299 -0.23780616
0.79752469 0.0036361003 -0.23798147
0.79768181 0.0036934756 -0.23796977
0.79787594 0.0037116159 -0.23797928
0.79812908 0.0036961362 -0.23792641
0.79831743 0.0037020755 -0.23787749
0.79850674 0.003710987 -0.23784439
0.79869717 0.0037263799 -0.23785158
0.7988922 0.0036676601 -0.23782019
0.79901165 0.0037660655 -0.23780388
0.79753345 0.0038669363 -0.23799105
0.79772693 0.0038797024 -0.23797528
0.79792088 0.0038957261 -0.23797546
0.79811412 0.0039085709 -0.23795195
0.79833698 0.0038664714 -0.23789144
0.79849118 0.0039188922 -0.23785914
0.79868144 0.0039348449 -0.23787098
0.79890609 0.0039001298 -0.23783526
0.79774266 0.0040423144 -0.23798479
0.79789943 0.0040999386 -0.23798163
0.79809237 0.0041124183 -0.23796721
0.79829282 0.0040552844 -0.23792517
0.79847789 0.0040943557 -0.23788041
0.79866552 0.0041416474 -0.23787977
0.79888999 0.0041081654 -0.23785366
0.7990849 0.0040475782 -0.23781228
0.79923379 0.0041713919 -0.23780033
0.79791123 0.004296896 -0.23799217
0.79807156 0.0043176017 -0.2379721
0.79830158 0.0042863628 -0.2379507
0.79853076 0.0042493059 -0.2378787
0.79871809 0.0042973869 -0.23788536
0.79890424 0.0043412489 -0.23786895
0.79909915 0.0042815912 -0.23783334
0.79921818 0.0043794252 -0.23781572
0.7979306 0.0044256262 -0.23799863
0.79811686 0.0045068958 -0.23798893
0.7983095 0.0045172814 -0.23796594
0.79850906 0.0044546593 -0.23790388
0.79870272 0.0044702911 -0.23789819
0.79885972 0.0045288093 -0.2378951
0.79908413 0.0044917525 -0.23786128
0.79930383 0.0045068264 -0.23781922
0.79945588 0.004577959 -0.23780298
0.79816961 0.0046260897 -0.23799178
0.79831821 0.0047509829 -0.23798975
0.79848784 0.0046627112 -0.23793125
0.79868084 0.0046728249 -0.23789902
0.79887563 0.0046902713 -0.23790441
0.79906875 0.0047036838 -0.23788619
0.79932195 0.0046879943 -0.23783134
0.79944164 0.0047878288 -0.23782426
0.79849696 0.004897092 -0.23795736
0.79872608 0.0048595988 -0.23790328
0.79892045 0.0048757177 -0.23790665
0.79911393 0.0048892316 -0.23789163
0.79930681 0.0048994948 -0.23785229
0.79949546 0.0049070953 -0.23782499
0.79838765 0.0050330739 -0.23799917
0.7985056 0.0051300577 -0.2379816
0.79870504 0.0050669648 -0.23791809
0.79889852 0.0050824974 -0.2379268
0.79909271 0.005094599 -0.23790438
0.79928488 0.0051036398 -0.2378702
0.79951549 0.0050734766 -0.2378391
0.79963475 0.0051715588 -0.2378218
0.7986843 0.0052747014 -0.23793964
0.79887748 0.0052896081 -0.23794167
0.79907173 0.0053031035 -0.23792912
0.79926348 0.005310195 -0.23788768
0.79949474 0.0052789585 -0.23785943
0.79975319 0.0052691093 -0.23780555
0.79869282 0.0055077788 -0.2379677
0.79892331 0.0054788911 -0.23795919
0.79911691 0.0054907869 -0.23793741
0.79930967 0.0054992773 -0.23789851
0.79950207 0.0055082268 -0.23786628
0.79970223 0.0054495293 -0.23782863
0.79985118 0.0055714455 -0.23780313
0.79873359 0.0057697557 -0.23798348
0.79890245 0.0056847534 -0.23797016
0.79909611 0.0056983549 -0.23795827
0.79928899 0.0057086372 -0.23792858
0.79948074 0.0057161725 -0.23788638
0.79971015 0.0056796195 -0.23783809
0.79888266 0.0058950777 -0.23798144
0.79911143 0.0058606388 -0.23796853
0.79926747 0.0059163962 -0.23795611
0.79945987 0.0059242751 -0.23791124
0.79968995 0.0058901389 -0.23787007
0.79991883 0.0058522616 -0.2378155
0.80003834 0.0059523862 -0.23781109
0.79886597 0.0061113387 -0.2379927
0.7991522 0.0061228862 -0.2379868
0.79931384 0.0061058942 -0.23796517
0.79950541 0.0061124316 -0.23792417
0.79969865 0.0061234548 -0.23789644
0.79989743 0.0060604266 -0.23783761
0.80001712 0.0061601214 -0.23782921
0.79933214 0.0062741479 -0.23798409
0.79948598 0.0063235606 -0.23794721
0.79967767 0.0063314717 -0.23792331
0.79990709 0.0062939725 -0.23786014
0.8001368 0.0062598153 -0.2378208
0.80025643 0.0063599404 -0.23781636
0.79951447 0.0065009426 -0.23796202
0.79972535 0.0065231691 -0.2379324
0.79991585 0.0065267198 -0.23788406
0.80011559 0.0064667794 -0.23783906
0.80027592 0.0064877551 -0.23781794
0.79952288 0.0066620088 -0.23797201
0.79971111 0.0067035304 -0.23795275
0.79989696 0.0067405528 -0.2379158
0.80009419 0.0066740871 -0.23786326
0.80028754 0.0066848905 -0.23783354
0.79953682 0.0069043627 -0.2379878
0.79969692 0.0068840985 -0.2379673
0.79985178 0.0069361953 -0.23795106
0.80010521 0.0069122734 -0.23788857
0.8003332 0.0068728379 -0.23784451
0.80045235 0.0069701727 -0.23782223
0.7996797 0.0070999674 -0.23797949
0.7999025 0.0070928251 -0.23794883
0.80008912 0.0071300175 -0.23790659
0.80031461 0.0070857406 -0.23786759
0.80047274 0.0071013561 -0.23783186
0.79972893 0.0072944849 -0.23798084
0.79991835 0.0072977203 -0.23795545
0.80010813 0.0073002968 -0.23792078
0.80029792 0.007303793 -0.23789144
0.80052251 0.0072561214 -0.23783299
0.80061215 0.0073283706 -0.23780933
0.79974103 0.0075347805 -0.2379939
0.79993773 0.0074681193 -0.23796436
0.80009097 0.0075167282 -0.23793496
0.80028176 0.0075215301 -0.23791213
0.80050665 0.0074759582 -0.23786435
0.80065399 0.0075943097 -0.23782274
0.80111009 0.0075222682 -0.2378068
0.79989058 0.0076598506 -0.23798752
0.80007708 0.0076986523 -0.23795694
0.80026501 0.0077393078 -0.23793159
0.8004905 0.0076948758 -0.23789401
0.80112118 0.0077599762 -0.23782863
0.80126035 0.0076490883 -0.23780864
0.80012894 0.0078565311 -0.23795755
0.80031657 0.0078978315 -0.23793815
0.80050367 0.007936989 -0.23790689
0.80066788 0.0078377752 -0.23784682
0.80107272 0.0079440027 -0.23780027
0.80130076 0.0079107564 -0.23782444
0.80011278 0.0080722021 -0.23798002
0.80030298 0.0080782911 -0.23795541
0.80045736 0.0081300773 -0.23793463
0.80062199 0.0080329701 -0.23788005
0.80116451 0.008027304 -0.23784295
0.80128455 0.0081288246 -0.23784544
0.80015785 0.0083331 -0.23799264
0.80028743 0.0082922168 -0.23797412
0.80047685 0.0082989056 -0.23794667
0.80063534 0.0082756579 -0.23790327
0.80086052 0.0082291476 -0.23784545
0.80117631 0.0082653034 -0.23784035
0.80130309 0.0082978541 -0.23785405
0.80149204 0.0082994932 -0.23781545
0.80161148 0.0083981175 -0.23780113
0.80033708 0.0084836828 -0.23798962
0.80052596 0.0084901117 -0.23795141
0.80067921 0.0085406387 -0.23791659
0.8009035 0.0084956707 -0.23786049
0.80128622 0.0085131396 -0.23785762
0.8014763 0.0085183019 -0.23784213
0.80054611 0.0086565241 -0.23796585
0.80066484 0.0087533267 -0.23794264
0.80091727 0.0087354239 -0.23787507
0.8013013 0.0087170769 -0.23786253
0.80149376 0.0087062921 -0.23785213
0.8017146 0.0087151965 -0.23781413
0.80188155 0.0086261388 -0.2378045
0.80056167 0.0088949911 -0.23799366
0.80068547 0.0089205923 -0.2379583
0.80093294 0.0089726541 -0.23789553
0.80109715 0.0088867927 -0.23787335
0.80135357 0.0088766357 -0.23787269
0.80151117 0.0088934246 -0.2378592
0.80169791 0.0089327618 -0.23783159
0.80189466 0.0088669239 -0.23781371
0.80201304 0.0089668427 -0.23781531
0.80076969 0.0090650078 -0.23795572
0.80099136 0.0090208985 -0.23788843
0.80105257 0.0090725664 -0.23788911
0.80133593 0.0090881241 -0.23787443
0.80149776 0.0090743462 -0.23787875
0.80165148 0.0091241691 -0.23784778
0.80190712 0.0091069285 -0.23781607
0.80072612 0.0092546968 -0.23798712
0.80084431 0.0093510319 -0.2379636
0.80103761 0.0092847645 -0.2379126
0.80135107 0.0093240645 -0.23788896
0.80148226 0.0092880521 -0.23789549
0.80167168 0.0092946738 -0.2378674
0.80189025 0.0093223853 -0.23782603
0.80205578 0.0092315022 -0.23781106
0.80077094 0.0095142145 -0.23799405
0.80082923 0.0095628873 -0.23799092
0.80108136 0.0095457043 -0.23792708
0.80139744 0.0095877107 -0.23791113
0.80153251 0.0094797919 -0.23790963
0.8017208 0.0094863055 -0.2378761
0.80187291 0.0095360186 -0.23784165
0.80206966 0.0094724707 -0.23781842
0.80088931 0.009611981 -0.23797977
0.80106819 0.0097577628 -0.23794439
0.80151749 0.009692057 -0.23793377
0.80170625 0.0096984589 -0.23789795
0.80185968 0.009751156 -0.23787855
0.80208224 0.009710975 -0.23783141
0.80233747 0.0096955635 -0.23780008
0.80090505 0.0098499572 -0.23799479
0.80115724 0.0098319454 -0.23793861
0.80150241 0.0099022463 -0.23794019
0.8017264 0.0098653622 -0.23791432
0.80188006 0.009917412 -0.23788893
0.80209875 0.0099487239 -0.23785084
0.80238128 0.0099609699 -0.23781735
0.80114233 0.010044087 -0.23795331
0.80129957 0.010063703 -0.2379424
0.80148679 0.010109802 -0.23793979
0.80168229 0.010054541 -0.23794508
0.8019101 0.010092341 -0.23790181
0.80211812 0.010114805 -0.23786557
0.8025009 0.010060882 -0.23781094
0.80115116 0.010270707 -0.23797269
0.80124104 0.010345315 -0.2379649
0.80147177 0.010321187 -0.23794951
0.80169725 0.010289734 -0.23795873
0.80192024 0.010250569 -0.23791315
0.80210382 0.010328038 -0.23789042
0.8022331 0.010286443 -0.23787224
0.80248594 0.01027237 -0.23783205
0.80119139 0.010523651 -0.2379885
0.80129087 0.010497302 -0.23797616
0.80151767 0.010505572 -0.23796029
0.80171245 0.010526791 -0.23797031
0.80190611 0.010461692 -0.23792987
0.80209172 0.010503957 -0.237903
0.80224848 0.010523782 -0.23788926
0.8025015 0.010509312 -0.23784892
0.80131096 0.010623774 -0.23798406
0.80157089 0.010623384 -0.23796603
0.80169123 0.010726941 -0.23798138
0.8018921 0.010675932 -0.23795407
0.80208009 0.010680941 -0.23791885
0.80226392 0.010758769 -0.23789808
0.80248719 0.010722312 -0.23787051
0.80131912 0.01084934 -0.23799652
0.8016398 0.010901748 -0.23799022
0.80190116 0.010902957 -0.23797506
0.80209875 0.010845268 -0.23791984
0.80232221 0.010807443 -0.23789495
0.80269551 0.010895331 -0.23785238
0.80152893 0.011025794 -0.23799419
0.80164832 0.011126351 -0.23799372
0.80193985 0.011154632 -0.23799098
0.80210882 0.011074045 -0.23794706
0.8025614 0.011007471 -0.2378841
0.80271053 0.011130854 -0.23786817
0.80208844 0.011277698 -0.23797606
0.80227715 0.01132359 -0.23794207
0.80240673 0.011321671 -0.23792318
0.80260694 0.011270726 -0.23790051
0.80209756 0.011503594 -0.23798448
0.80232716 0.011475013 -0.23794805
0.80244678 0.011575066 -0.23794293
0.80271697 0.01147157 -0.23789957
0.80213565 0.011753736 -0.23798838
0.80224496 0.011624629 -0.23796169
0.80242425 0.011774926 -0.23795605
0.80268598 0.011775101 -0.23793209
0.80214489 0.011978831 -0.23799507
0.8022542 0.011851184 -0.23797113
0.80248415 0.011824667 -0.23795083
0.80274445 0.011823129 -0.237923
0.80286378 0.011922036 -0.2379113
0.80226356 0.012077677 -0.23798673
0.80272329 0.012024919 -0.23794197
0.80290943 0.012106664 -0.23792207
0.80233383 0.012360129 -0.23799583
0.80250216 0.012277512 -0.23797786
0.80276227 0.012276893 -0.23795375
0.8029629 0.012223667 -0.23791918
0.80294198 0.012425901 -0.23793617
0.75756562 -0.10382181 -0.23772046
0.75769013 -0.10372054 -0.23769532
0.75781369 -0.10361868 -0.23767947
0.75787526 -0.10356811 -0.23767024
0.7581585 -0.10331193 -0.23779792
0.75826246 -0.10323697 -0.23770709
0.75835407 -0.10316026 -0.23770419
0.75847507 -0.10305839 -0.23770435
0.75858283 -0.10295533 -0.23779312
0.7586894 -0.10289031 -0.23761557
0.75890881 -0.1027037 -0.2376283
0.75902951 -0.10260097 -0.23763642
0.75914025 -0.10249811 -0.23770538
0.75931597 -0.10234445 -0.23774739
0.75943983 -0.10224345 -0.23772359
0.75953192 -0.10216684 -0.2377167
0.75965381 -0.10206483 -0.23771217
0.75974315 -0.10198864 -0.23771933
0.75986463 -0.10188664 -0.23771679
0.75998688 -0.10178442 -0.23771226
0.76010662 -0.10168304 -0.23771578
0.76028919 -0.10153047 -0.23770802
0.76041132 -0.10142825 -0.2377035
0.76053268 -0.1013276 -0.2376924
0.76065564 -0.10122574 -0.23768055
0.76071519 -0.10117494 -0.23768529
0.76086915 -0.10104841 -0.23766321
0.76096153 -0.10097266 -0.23764835
0.76108438 -0.10087045 -0.23763983
0.76129782 -0.10069296 -0.23762399
0.76151246 -0.10051507 -0.23760377
0.76163399 -0.10041314 -0.23760058
0.76203418 -0.10004886 -0.23779738
0.76209384 -0.099998496 -0.23779817
0.76224548 -0.099870995 -0.23779702
0.76236832 -0.099768877 -0.23778749
0.76249152 -0.099667743 -0.23776901
0.76258379 -0.099591561 -0.23775813
0.76270533 -0.099489622 -0.23775496
0.76288795 -0.09933719 -0.23774588
0.76300865 -0.099236466 -0.23773944
0.76313066 -0.099134028 -0.2377369
0.76325262 -0.099033102 -0.23772444
0.76334351 -0.098955736 -0.2377305
0.76346552 -0.098853946 -0.23772398
0.76355767 -0.098777443 -0.23771609
0.76367825 -0.098676436 -0.23771231
0.76379979 -0.098574281 -0.2377111
0.7639215 -0.098472632 -0.23770528
0.76410341 -0.098320335 -0.23769887
0.76422644 -0.098218769 -0.23768438
0.7643187 -0.098142482 -0.2376745
0.76444101 -0.098041758 -0.23765805
0.76456296 -0.097939976 -0.23765154
0.76468498 -0.097838186 -0.23764503
0.76477408 -0.097761452 -0.23765714
0.76489526 -0.097660303 -0.23765068
0.76507759 -0.097507082 -0.23764889
0.76520097 -0.097406581 -0.23762445
0.76526296 -0.097357087 -0.23760527
0.76675975 -0.096070684 -0.23779303
0.76682132 -0.096020117 -0.23778379
0.76691258 -0.095943823 -0.23777992
0.76703417 -0.095840856 -0.23778433
0.76715505 -0.095738739 -0.23778681
0.76727718 -0.095637485 -0.23777533
0.76736826 -0.095560655 -0.23777643
0.76748967 -0.09546008 -0.23776466
0.76770413 -0.095282771 -0.23774114
0.76791638 -0.095104702 -0.2377366
0.76803738 -0.095003054 -0.23773476
0.76812971 -0.094926983 -0.2377229
0.76825178 -0.094825514 -0.23771343
0.76834369 -0.094751045 -0.23769265
0.76846766 -0.09465041 -0.23766553
0.76859039 -0.094549842 -0.23764578
0.76868093 -0.094474405 -0.23763995
0.76877278 -0.09439683 -0.23764199
0.76889324 -0.094295539 -0.23764086
0.76910734 -0.094118081 -0.23762068
0.76929003 -0.093965985 -0.23760845
0.76944184 -0.093839012 -0.23760232
0.76950312 -0.093787581 -0.23760104
0.76974505 -0.093583778 -0.23760203
0.76986438 -0.093481041 -0.23761813
0.76998609 -0.093377605 -0.23762485
0.77010655 -0.093276106 -0.23762567
0.77025914 -0.093149483 -0.23761228
0.77105498 -0.04743604 -0.2376011
0.77107584 -0.047303326 -0.23760471
0.77109051 -0.047099005 -0.23761369
0.77121609 -0.04707006 -0.23760785
0.77113801 -0.04690592 -0.23762059
0.77125752 -0.046805512 -0.2376188
0.77134842 -0.046731122 -0.23760301
0.77146691 -0.046630781 -0.23760659
0.77129966 -0.04654092 -0.23762532
0.77141875 -0.046441369 -0.23761958
0.77128118 -0.046323147 -0.23764449
0.77147382 -0.046318501 -0.23761652
0.77131873 -0.046065491 -0.23766494
0.77152109 -0.046123337 -0.23762764
0.77164239 -0.046024509 -0.23760328
0.77129698 -0.04585598 -0.23767976
0.77149826 -0.045915913 -0.23765264
0.77161789 -0.045815933 -0.23764688
0.77150583 -0.045681041 -0.23767236
0.7717399 -0.045717254 -0.23761718
0.77185965 -0.045617633 -0.2376081
0.77148461 -0.045470737 -0.23768625
0.77171665 -0.045507085 -0.23764598
0.77183771 -0.045407541 -0.23762825
0.77149963 -0.045306463 -0.23770203
0.77169418 -0.045296397 -0.23767036
0.77192843 -0.045332611 -0.23761743
0.77201939 -0.045258332 -0.23760065
0.77147794 -0.045097511 -0.23771572
0.7716713 -0.045087874 -0.23769648
0.77190626 -0.045122515 -0.23763534
0.77152395 -0.044907656 -0.23772234
0.77171785 -0.044897545 -0.23770018
0.77191371 -0.044889569 -0.23765373
0.77211738 -0.044948306 -0.23760931
0.772237 -0.044848464 -0.2376022
0.7715044 -0.044695839 -0.23774642
0.77169663 -0.044687644 -0.23771906
0.77189189 -0.044679139 -0.23767476
0.7720952 -0.044739857 -0.23763077
0.77221489 -0.044640373 -0.23762035
0.77152228 -0.044528328 -0.23776257
0.77167732 -0.044475149 -0.23774552
0.77187091 -0.044468209 -0.23770244
0.77210289 -0.044504732 -0.23765054
0.77233458 -0.044540461 -0.23761392
0.77245432 -0.044440977 -0.23760353
0.77176082 -0.04432914 -0.23774979
0.77191824 -0.044276115 -0.23771739
0.77211237 -0.04426904 -0.23767166
0.77231288 -0.044330388 -0.23763163
0.77243263 -0.04423083 -0.23762193
0.77171415 -0.044139694 -0.23776858
0.7719028 -0.044098169 -0.2377369
0.77209377 -0.044055656 -0.2376985
0.77229279 -0.044119891 -0.23765139
0.77248591 -0.044111017 -0.23762242
0.77261251 -0.04408225 -0.23760036
0.77169651 -0.043927401 -0.23778546
0.77188849 -0.043919444 -0.23775703
0.77204573 -0.043866776 -0.23772199
0.77230477 -0.043881658 -0.23767146
0.77253222 -0.043920849 -0.23763125
0.77265197 -0.043821223 -0.23762217
0.77179891 -0.043613944 -0.23779285
0.77193648 -0.043727726 -0.23776728
0.77213019 -0.043720927 -0.23772025
0.77228725 -0.043667607 -0.23769119
0.77251434 -0.043707255 -0.23765607
0.77270597 -0.043700453 -0.23762371
0.77283341 -0.043671362 -0.23760054
0.77191824 -0.043513067 -0.23779538
0.77211183 -0.043507665 -0.23774521
0.77230519 -0.043500543 -0.23770602
0.77249664 -0.043492869 -0.23767896
0.77272391 -0.043533199 -0.23763758
0.77284545 -0.043433081 -0.23762113
0.77213025 -0.043340065 -0.23775524
0.77228695 -0.043286819 -0.2377304
0.77247882 -0.043280225 -0.23769915
0.77270675 -0.04331889 -0.23765677
0.77296519 -0.043333493 -0.23761173
0.77305502 -0.043258879 -0.23760393
0.77211237 -0.043127932 -0.23778167
0.77226871 -0.043074191 -0.23775685
0.77249569 -0.043094665 -0.23771191
0.77271909 -0.043081265 -0.23767437
0.77291775 -0.043144479 -0.23763256
0.77303743 -0.043044783 -0.23762414
0.77218533 -0.042843666 -0.2377913
0.77235389 -0.04292877 -0.23775086
0.77250957 -0.042875096 -0.23772939
0.77270097 -0.042866942 -0.23769951
0.77289981 -0.042931482 -0.23765607
0.7730915 -0.042924237 -0.237625
0.77321732 -0.042896207 -0.23760258
0.77230549 -0.042743474 -0.23778355
0.77249503 -0.042699326 -0.23774907
0.7726832 -0.042655032 -0.23772393
0.77288181 -0.042717446 -0.23767853
0.7731052 -0.042704027 -0.23764116
0.7732594 -0.042633615 -0.23761958
0.77234864 -0.042480577 -0.2377986
0.77248114 -0.04252312 -0.23776625
0.77263618 -0.042469777 -0.23774827
0.77289337 -0.042481016 -0.23770207
0.77312201 -0.042518348 -0.23765509
0.773314 -0.042512104 -0.23762052
0.77344066 -0.04248333 -0.23760192
0.77369255 -0.042494465 -0.23761208
0.77253008 -0.042330939 -0.23777498
0.77272052 -0.042323809 -0.23774876
0.77287579 -0.042270929 -0.23772648
0.77310425 -0.042306434 -0.23767953
0.77329636 -0.042298276 -0.23764563
0.7734524 -0.042244859 -0.23761983
0.77367616 -0.042282123 -0.23762168
0.77390069 -0.042319972 -0.23760556
0.77254331 -0.042095587 -0.23779304
0.77270412 -0.042111348 -0.23776825
0.77289534 -0.04210316 -0.23773813
0.7730872 -0.042096172 -0.23770259
0.77331394 -0.042132422 -0.23766068
0.77347022 -0.042078856 -0.2376342
0.77369308 -0.042097189 -0.2376298
0.77391338 -0.042082082 -0.23762281
0.77272272 -0.041945726 -0.2377834
0.77287817 -0.041891754 -0.23776154
0.77307028 -0.041882727 -0.2377255
0.77329683 -0.041922122 -0.23768407
0.77355444 -0.041933253 -0.23763585
0.77370769 -0.041877527 -0.23764329
0.77389604 -0.041867986 -0.23764198
0.77409238 -0.041932497 -0.23761456
0.77421224 -0.041833449 -0.23760018
0.77292746 -0.0417009 -0.23776878
0.77311945 -0.041692238 -0.23773403
0.77331048 -0.041683923 -0.23769937
0.77350712 -0.041748147 -0.23766088
0.77369332 -0.041702837 -0.23765501
0.7738784 -0.0416563 -0.23766442
0.77410483 -0.041693285 -0.23763341
0.7729457 -0.041534439 -0.23778635
0.77310163 -0.041481018 -0.23776011
0.77329355 -0.04147293 -0.23772466
0.77349192 -0.041533928 -0.23767905
0.77368098 -0.041526638 -0.23766218
0.77388763 -0.041499667 -0.23767294
0.77411705 -0.041456696 -0.2376536
0.77431512 -0.041519381 -0.23760955
0.77315706 -0.041359611 -0.23776311
0.77327687 -0.04126035 -0.23775071
0.77350456 -0.041298442 -0.23770127
0.77373052 -0.041334037 -0.23767088
0.77391583 -0.041325513 -0.23768526
0.77407014 -0.041271731 -0.23767528
0.7742967 -0.041307267 -0.23763998
0.7744168 -0.041208789 -0.23762032
0.77319884 -0.0410969 -0.23778895
0.77332854 -0.041103482 -0.23776099
0.7735166 -0.041061755 -0.23772661
0.77371448 -0.041123915 -0.23768421
0.77390075 -0.041112922 -0.23769808
0.77408981 -0.041104142 -0.23768525
0.77427959 -0.041097 -0.23766303
0.77447867 -0.04115906 -0.23760313
0.77334857 -0.040972665 -0.23777494
0.77346998 -0.040872119 -0.23776248
0.7736969 -0.040912475 -0.23770766
0.77388477 -0.040902365 -0.23771077
0.77407318 -0.040892746 -0.23770463
0.77429736 -0.040912054 -0.23767461
0.77452093 -0.040899489 -0.23762099
0.77332878 -0.040760431 -0.2377907
0.77348566 -0.04070637 -0.23777275
0.77367991 -0.040698793 -0.23773734
0.77393287 -0.040710706 -0.23772871
0.77412134 -0.040702175 -0.23771723
0.77431202 -0.040693432 -0.23769116
0.77450442 -0.040685188 -0.23764783
0.77336746 -0.040497564 -0.23779857
0.77353191 -0.04051495 -0.23777616
0.77372599 -0.040507775 -0.23774463
0.7739169 -0.040498178 -0.23774375
0.77414024 -0.040535785 -0.23773013
0.77429527 -0.040481433 -0.23771651
0.77448672 -0.040473845 -0.23768044
0.77468657 -0.040537417 -0.23760699
0.77480513 -0.040438294 -0.23760128
0.77354711 -0.040348239 -0.23778397
0.77370447 -0.040295478 -0.23775965
0.77389771 -0.040286843 -0.23774923
0.77409464 -0.040347088 -0.23775339
0.77428162 -0.040304102 -0.23773459
0.77446938 -0.040261403 -0.23770915
0.77469921 -0.040301621 -0.23763117
0.77355498 -0.04011032 -0.23779759
0.7736823 -0.040082399 -0.23777682
0.77387649 -0.040074717 -0.23775505
0.77410424 -0.040110379 -0.23776689
0.77433324 -0.040147271 -0.23774453
0.77452123 -0.040105149 -0.23771378
0.77471155 -0.040064257 -0.2376598
0.77490854 -0.040127549 -0.23761481
0.77376574 -0.039936669 -0.23776942
0.77392101 -0.039882794 -0.23776598
0.77411252 -0.039872874 -0.23777674
0.77431267 -0.039935712 -0.23775999
0.77450603 -0.039927419 -0.2377352
0.77469349 -0.039849564 -0.23770268
0.77489114 -0.039914895 -0.23764551
0.77508241 -0.039906949 -0.23761274
0.77374315 -0.039722528 -0.23778777
0.77390349 -0.039704658 -0.23777407
0.77409124 -0.039660219 -0.23778532
0.77429128 -0.039722938 -0.23777175
0.77448487 -0.039715238 -0.23775275
0.77464211 -0.03966219 -0.23773107
0.77490461 -0.039675977 -0.23767203
0.77513075 -0.039715942 -0.2376247
0.77525026 -0.03961575 -0.23762095
0.77392352 -0.039572455 -0.23777412
0.77404106 -0.039472211 -0.23778269
0.77429903 -0.039485231 -0.23778442
0.77453011 -0.039523695 -0.23775761
0.77472544 -0.039517149 -0.23772001
0.77488399 -0.039464325 -0.23768833
0.77511454 -0.039502699 -0.23764639
0.77530479 -0.039495025 -0.23762207
0.77393073 -0.039335418 -0.23778933
0.77408981 -0.03931544 -0.23779216
0.77427793 -0.039270878 -0.23779576
0.77450794 -0.039310459 -0.2377755
0.77470255 -0.039304066 -0.23774178
0.77489924 -0.039297611 -0.23769613
0.77509385 -0.039290924 -0.23766382
0.77532303 -0.03932818 -0.23763815
0.77544403 -0.03922946 -0.23761478
0.77403039 -0.039022457 -0.23779592
0.77436668 -0.039196048 -0.23779595
0.7744863 -0.039096069 -0.23779018
0.77471781 -0.039137054 -0.23775102
0.77487707 -0.039084312 -0.2377153
0.77507216 -0.039077353 -0.23768289
0.77530307 -0.039115619 -0.23765689
0.77556378 -0.039129879 -0.23760539
0.77568197 -0.039028674 -0.23761688
0.77408999 -0.038971856 -0.23779866
0.77452427 -0.038833842 -0.23779979
0.77469599 -0.038922317 -0.23776883
0.7749598 -0.038939402 -0.2377063
0.77511692 -0.038886216 -0.23768656
0.77531099 -0.038878109 -0.23766874
0.77551323 -0.038943112 -0.23762412
0.775702 -0.038899027 -0.23761275
0.77586079 -0.038879886 -0.23760331
0.77458411 -0.038783886 -0.23779657
0.77470374 -0.038684048 -0.2377895
0.77490789 -0.038749196 -0.23772986
0.77509564 -0.038671687 -0.23770316
0.77528912 -0.038665727 -0.23767869
0.775491 -0.03872982 -0.23764454
0.77568454 -0.03872177 -0.23762882
0.77584028 -0.038668394 -0.23761812
0.774885 -0.038535837 -0.23775662
0.77507675 -0.038494088 -0.23771837
0.77526814 -0.038451407 -0.23768871
0.77549881 -0.038491752 -0.23765948
0.7757296 -0.038529932 -0.23763637
0.7759226 -0.038522452 -0.23761933
0.77607948 -0.038468365 -0.23760726
0.7748946 -0.038297448 -0.23777333
0.7751255 -0.038337674 -0.23772454
0.77531695 -0.038294166 -0.23770051
0.77550691 -0.03825194 -0.23767656
0.77570826 -0.038317341 -0.23764427
0.7759006 -0.038309723 -0.23763384
