# .PCD v0.7 - Point Cloud Data file format
VERSION 0.7
FIELDS x y z
SIZE 4 4 4
TYPE F F F
COUNT 1 1 1
WIDTH 1340
HEIGHT 1
VIEWPOINT 0 0 0 1 0 0 0
POINTS 1340
DATA ascii
0.2441912 -0.0012178021 0.28882849
0.24426693 -0.0012169431 0.28885329
0.24434486 -0.0012167071 0.28886014
0.24442483 -0.0012166086 0.288863
0.24465899 -0.0012170777 0.2888495
0.24473691 -0.0012167722 0.28885835
0.24481495 -0.0012168824 0.2888552
0.24489316 -0.0012175469 0.28883603
0.24497117 -0.0012175879 0.28883487
0.24504885 -0.0012165203 0.28886569
0.24512666 -0.0012159378 0.28888249
0.24520487 -0.0012165327 0.28886536
0.24528313 -0.0012174051 0.28884023
0.24536332 -0.0012179995 0.2888231
0.24543923 -0.0012176947 0.28883189
0.24551708 -0.0012171813 0.28884673
0.24559495 -0.0012167376 0.28885955
0.24567303 -0.001216986 0.28885239
0.24575312 -0.0012173036 0.28884327
0.24583116 -0.0012174135 0.28884012
0.24590915 -0.0012173853 0.28884095
0.24598709 -0.0012171492 0.28884777
0.24606507 -0.0012170516 0.28885061
0.2461431 -0.0012171618 0.28884745
0.2462211 -0.0012171334 0.28884828
0.24629886 -0.0012163429 0.28887111
0.2463768 -0.0012161066 0.28887793
0.24645489 -0.0012164249 0.28886878
0.24653298 -0.0012166735 0.28886163
0.24661107 -0.0012169916 0.28885245
0.24668916 -0.0012172402 0.2888453
0.24676922 -0.001217419 0.28884017
0.2468472 -0.0012173215 0.28884301
0.24692525 -0.0012175008 0.28883785
0.24700338 -0.0012178882 0.2888267
0.24708122 -0.0012173748 0.28884152
0.2471588 -0.0012159608 0.28888232
0.24723683 -0.0012160712 0.28887916
0.24731487 -0.0012161813 0.288876
0.24739288 -0.0012162225 0.28887483
0.24747095 -0.0012164018 0.28886968
0.247549 -0.0012165813 0.28886452
0.24762693 -0.0012163452 0.28887135
0.24770485 -0.0012160395 0.2888802
0.2477829 -0.001216219 0.28887504
0.24786085 -0.0012160523 0.28887987
0.24794081 -0.0012158847 0.2888847
0.24801885 -0.0012159948 0.28888154
0.24809691 -0.0012161743 0.28887641
0.24817482 -0.0012158686 0.28888524
0.24825272 -0.0012155632 0.28889406
0.24833074 -0.0012156044 0.28889289
0.24840882 -0.001215853 0.28888574
0.24848689 -0.0012160325 0.28888059
0.24856493 -0.0012161427 0.28887743
0.24864298 -0.0012163222 0.28887227
0.24872304 -0.0012165008 0.28886712
0.24880102 -0.0012164032 0.28886998
0.24887887 -0.00121589 0.28888479
0.24895692 -0.0012160693 0.28887963
0.24903491 -0.0012160409 0.28888047
0.2491127 -0.0012153201 0.28890127
0.24919063 -0.0012150835 0.28890812
0.24926865 -0.0012151247 0.28890696
0.24934661 -0.0012150269 0.28890979
0.24942458 -0.0012148602 0.28891462
0.24950252 -0.0012146933 0.28891945
0.24958052 -0.0012146649 0.28892028
0.24965863 -0.0012149829 0.28891113
0.24973872 -0.0012153003 0.28890201
0.2498147 -0.0012152034 0.28890482
0.24989463 -0.0012149662 0.28891167
0.24997261 -0.0012148689 0.2889145
0.25005057 -0.0012147711 0.28891736
0.25012863 -0.0012148812 0.2889142
0.25020674 -0.0012152686 0.28890303
0.25028679 -0.0012153781 0.2888999
0.25036475 -0.0012152803 0.28890273
0.25044274 -0.0012152521 0.28890356
0.25051856 -0.0012146703 0.28892037
0.25059634 -0.0012138798 0.2889432
0.25067434 -0.0012138514 0.28894404
0.25075242 -0.0012141003 0.28893685
0.25083253 -0.0012144176 0.28892773
0.25091055 -0.0012145278 0.28892457
0.25098851 -0.00121443 0.28892741
0.25106654 -0.0012144016 0.28892824
0.25114462 -0.0012147198 0.28891909
0.25122476 -0.0012151757 0.28890595
0.25130281 -0.0012152859 0.28890279
0.25138068 -0.001214911 0.28891364
0.25145864 -0.0012147443 0.28891847
0.25153655 -0.0012144388 0.28892729
0.25161451 -0.0012142719 0.28893211
0.25169256 -0.001214382 0.28892896
0.25177059 -0.0012144924 0.2889258
0.25184846 -0.0012140481 0.28893864
0.25192633 -0.0012136735 0.28894946
0.25200427 -0.0012134374 0.28895628
0.25208229 -0.0012134782 0.28895512
0.25216034 -0.0012136577 0.28894997
0.25224039 -0.0012137671 0.28894684
0.25231841 -0.0012138081 0.28894567
0.25239643 -0.0012139182 0.28894252
0.25247443 -0.0012138898 0.28894335
0.25255239 -0.0012137231 0.28894818
0.25263244 -0.0012138323 0.28894505
0.25271058 -0.0012142891 0.28893188
0.2527886 -0.0012143301 0.28893071
0.25286639 -0.0012136782 0.28894955
0.25294429 -0.0012133727 0.28895837
0.25302237 -0.0012136213 0.28895122
0.25310045 -0.0012138702 0.28894407
0.25318047 -0.0012139103 0.28894293
0.25325632 -0.0012133978 0.28895772
0.25333416 -0.0012128844 0.28897256
0.25341219 -0.0012129254 0.28897139
0.25349227 -0.0012131734 0.28896427
0.25357035 -0.0012133531 0.28895909
0.25365043 -0.0012136702 0.28894997
0.25372848 -0.0012137806 0.28894681
0.25380644 -0.0012136137 0.28895164
0.25388223 -0.0012129624 0.28897044
0.25396219 -0.0012127948 0.2889753
0.25404021 -0.0012129049 0.28897214
0.25411823 -0.0012129459 0.28897098
0.25419617 -0.0012127096 0.2889778
0.25427416 -0.0012126814 0.28897864
0.2543543 -0.0012130679 0.28896749
0.25443226 -0.0012129701 0.28897035
0.25451016 -0.0012126646 0.28897917
0.25458822 -0.001212775 0.28897601
0.25466633 -0.0012130928 0.28896686
0.25474632 -0.0012131333 0.2889657
0.25482216 -0.0012126206 0.28898054
0.25490001 -0.0012121075 0.28899536
0.254978 -0.0012120097 0.28899819
0.25505605 -0.0012121892 0.28899303
0.25513613 -0.0012124372 0.28898591
0.25521407 -0.0012122011 0.28899273
0.255292 -0.001211965 0.28899956
0.25537008 -0.0012122137 0.2889924
0.2554481 -0.0012122546 0.28899124
0.25552803 -0.0012120176 0.2889981
0.25560606 -0.001212128 0.28899494
0.2556842 -0.0012125152 0.28898376
0.25576422 -0.0012125554 0.28898263
0.25584215 -0.0012123885 0.28898746
0.25592008 -0.0012121522 0.28899431
0.2559981 -0.0012121932 0.28899315
0.25607616 -0.0012123035 0.28898996
0.25615409 -0.001212067 0.28899682
0.25623193 -0.0012115538 0.28901166
0.2563099 -0.0012114563 0.28901446
0.25639001 -0.0012117736 0.28900534
0.25646812 -0.0012121608 0.28899419
0.25654817 -0.0012122705 0.28899103
0.25662619 -0.0012123804 0.28898787
0.25670418 -0.0012122828 0.28899074
0.25678211 -0.0012121159 0.28899556
0.25686225 -0.0012125026 0.28898442
0.25694025 -0.0012124742 0.28898525
0.25701815 -0.0012121687 0.28899407
0.25709611 -0.0012120018 0.28899893
0.2571741 -0.0012119734 0.28899977
0.25725201 -0.0012116679 0.28900859
0.25732994 -0.0012114318 0.28901541
0.25740796 -0.0012114728 0.28901425
0.25748807 -0.0012118593 0.28900313
0.25756606 -0.0012117617 0.28900596
0.25764394 -0.0012113871 0.28901678
0.25772199 -0.001211497 0.28901362
0.25779995 -0.0012113303 0.28901845
0.2578778 -0.0012108171 0.28903329
0.25795579 -0.0012107887 0.28903413
0.25803381 -0.0012108295 0.28903297
0.2581138 -0.0012108695 0.28903183
0.25819397 -0.0012113948 0.28901669
0.25827411 -0.0012117813 0.28900558
0.25834781 -0.0012107845 0.28903434
0.25842553 -0.0012099249 0.28905916
0.25850368 -0.0012103815 0.28904599
0.25858384 -0.0012108374 0.28903288
0.25866383 -0.0012108777 0.28903174
0.25874186 -0.0012108493 0.28903258
0.25881988 -0.0012109596 0.28902942
0.25889781 -0.0012107231 0.28903624
0.25897577 -0.0012106257 0.28903908
0.25905377 -0.0012105973 0.28903991
0.25913382 -0.0012107068 0.28903678
0.25921184 -0.0012107475 0.28903562
0.25929189 -0.0012109263 0.28903049
0.25937 -0.0012112446 0.28902131
0.25944993 -0.0012110074 0.28902817
0.25952575 -0.0012104257 0.28904498
0.25960377 -0.0012104665 0.28904381
0.25968176 -0.0012104381 0.28904465
0.25975972 -0.0012102711 0.28904951
0.25983971 -0.001210242 0.28905034
0.25991768 -0.0012100753 0.28905517
0.25999561 -0.001209839 0.28906202
0.26007363 -0.0012099494 0.28905886
0.26015162 -0.001209921 0.2890597
0.26023158 -0.0012097533 0.28906453
0.26030961 -0.0012097943 0.28906339
0.26038978 -0.0012103193 0.28904825
0.26046783 -0.0012104989 0.2890431
0.26054576 -0.0012102628 0.28904992
0.26062366 -0.0012099571 0.28905874
0.26070166 -0.0012099287 0.28905958
0.26078379 -0.0012103147 0.28904849
0.2608619 -0.0012106327 0.28903931
0.26093978 -0.0012102581 0.28905016
0.26101768 -0.0012098833 0.28906098
0.26109561 -0.0012097163 0.28906581
0.26117358 -0.0012095494 0.28907067
0.26125154 -0.0012094518 0.28907347
0.26132953 -0.0012094236 0.2890743
0.26140755 -0.0012094644 0.28907317
0.26148763 -0.0012097124 0.28906602
0.26156771 -0.0012099606 0.28905889
0.2616457 -0.0012098628 0.28906173
0.26172367 -0.0012097652 0.28906456
0.26180163 -0.0012095983 0.28906938
0.26188165 -0.0012097077 0.28906626
0.26195967 -0.0012097487 0.28906509
0.26203758 -0.0012094432 0.28907391
0.26211557 -0.0012093456 0.28907675
0.26219562 -0.0012095242 0.28907162
0.26227367 -0.0012096344 0.28906846
0.26235157 -0.0012093289 0.28907728
0.26242948 -0.0012090236 0.2890861
0.26250747 -0.0012089952 0.28908694
0.26258549 -0.0012090362 0.28908581
0.26266554 -0.0012092148 0.28908065
0.26274559 -0.0012093242 0.28907752
0.26282355 -0.0012092267 0.28908035
0.26289949 -0.0012089913 0.28908718
0.26297948 -0.0012088928 0.28909004
0.26305959 -0.0012092795 0.28907889
0.26313972 -0.0012097354 0.28906575
0.26321778 -0.0012098455 0.28906259
0.26329568 -0.0012094707 0.28907344
0.26337144 -0.0012087503 0.28909421
0.26344937 -0.0012085142 0.28910106
0.26352948 -0.0012088316 0.28909191
0.26360753 -0.0012089417 0.28908876
0.26368546 -0.0012087056 0.28909558
0.26376334 -0.0012083307 0.28910643
0.26383922 -0.0012078877 0.28911924
0.26391709 -0.0012075128 0.28913006
0.26399508 -0.0012074844 0.2891309
0.26407513 -0.0012075938 0.28912777
0.26415315 -0.001207704 0.28912461
0.26423112 -0.001207537 0.28912944
0.26430902 -0.0012071624 0.28914028
0.26438692 -0.0012068569 0.28914911
0.26446494 -0.0012068979 0.28914794
0.26454496 -0.0012070073 0.28914478
0.26462302 -0.0012071177 0.28914163
0.26470307 -0.0012072963 0.2891365
0.26478097 -0.0012069908 0.28914532
0.26485682 -0.001206409 0.28916213
0.26493478 -0.0012063112 0.28916496
0.26501483 -0.0012064902 0.28915983
0.26509291 -0.0012066695 0.28915468
0.26517302 -0.0012069868 0.28914553
0.26525098 -0.0012068893 0.28914836
0.26532891 -0.001206653 0.28915522
0.26540902 -0.0012070397 0.28914407
0.26549116 -0.0012074255 0.28913295
0.26556915 -0.0012073973 0.28913379
0.26564708 -0.0012071608 0.28914064
0.26572293 -0.0012066483 0.28915542
0.26579875 -0.0012060667 0.28917223
0.2658788 -0.0012062453 0.28916711
0.26596323 -0.001207531 0.28913003
0.26604766 -0.0012089552 0.28908896
0.26612777 -0.0012092728 0.28907982
0.26620573 -0.0012091058 0.28908464
0.26628369 -0.001209008 0.28908747
0.26636165 -0.0012089105 0.28909034
0.26643747 -0.0012082593 0.28910911
0.26651323 -0.0012074695 0.28913194
0.26659328 -0.0012076485 0.28912678
0.26667345 -0.0012081736 0.28911167
0.26675358 -0.0012085601 0.28910053
0.26682726 -0.0012075633 0.28912929
0.26690513 -0.0012071193 0.28914213
0.26698312 -0.0012070909 0.28914297
0.26706311 -0.0012069924 0.28914583
0.2671411 -0.001206964 0.28914666
0.26721913 -0.0012070052 0.2891455
0.26729709 -0.0012069074 0.28914833
0.26737505 -0.0012068099 0.28915116
0.26745716 -0.0012071263 0.28914207
0.2675373 -0.001207513 0.28913093
0.26761529 -0.0012074846 0.28913176
0.26769322 -0.0012072485 0.28913859
0.26777124 -0.0012073587 0.28913543
0.26785132 -0.0012075375 0.2891303
0.26792932 -0.0012075091 0.28913113
0.26800722 -0.0012072036 0.28913996
0.26808521 -0.001207106 0.28914279
0.26816529 -0.001207354 0.28913566
0.26824531 -0.0012074634 0.28913254
0.26832333 -0.0012075044 0.28913134
0.23063952 -0.0019974802 0.27775881
0.2307269 -0.0019955086 0.27781573
0.23081608 -0.001992844 0.27789265
0.23090324 -0.0019901111 0.27797151
0.23098895 -0.0019891793 0.27799845
0.23107293 -0.0019890801 0.27800134
0.23115698 -0.0019891886 0.27799824
0.231241 -0.0019892971 0.27799514
0.23132311 -0.0019896142 0.27798602
0.23140711 -0.0019895844 0.27798691
0.231491 -0.0019892077 0.27799782
0.23157687 -0.0019888305 0.27800873
0.23166086 -0.0019887313 0.27801162
0.23174293 -0.0019889791 0.27800453
0.23182699 -0.0019891569 0.27799943
0.23191094 -0.0019889879 0.27800432
0.23199494 -0.0019889581 0.27800524
0.23207891 -0.0019888589 0.2780081
0.2321628 -0.0019884822 0.27801901
0.23224673 -0.0019882442 0.27802593
0.2323308 -0.0019884221 0.27802083
0.23241293 -0.0019888775 0.27800772
0.23249701 -0.0019890554 0.27800262
0.23258089 -0.0019886792 0.2780135
0.23266682 -0.0019884403 0.27802044
0.23275065 -0.0019879253 0.27803531
0.23283455 -0.001987549 0.27804622
0.23291865 -0.0019878652 0.27803713
0.23300062 -0.0019877669 0.27803999
0.23308466 -0.0019878754 0.27803689
0.23316877 -0.0019881916 0.2780278
0.23325276 -0.0019881614 0.27802873
0.23333678 -0.0019882005 0.27802762
0.23342063 -0.0019876859 0.2780425
0.23350449 -0.0019872403 0.2780554
0.23358846 -0.0019871406 0.27805829
0.23367052 -0.001987319 0.27805319
0.23375458 -0.0019874969 0.2780481
0.23383851 -0.0019872589 0.27805498
0.23392257 -0.0019874368 0.27804989
0.2340067 -0.0019878224 0.2780388
0.23408864 -0.0019876543 0.27804369
0.23417456 -0.0019873469 0.2780526
0.23425654 -0.0019872482 0.27805549
0.23434061 -0.001987495 0.27804837
0.23442459 -0.0019873958 0.27805126
0.23450856 -0.0019872962 0.27805418
0.23459251 -0.0019871276 0.27805907
0.23467642 -0.0019868207 0.27806798
0.23476036 -0.0019865828 0.27807486
0.23484439 -0.0019866913 0.27807176
0.23492649 -0.0019870084 0.27806264
0.23501046 -0.0019869092 0.27806556
0.2350945 -0.0019870177 0.27806246
0.23517844 -0.0019867793 0.27806938
0.23526226 -0.0019861953 0.27808625
0.23534626 -0.0019861651 0.27808714
0.2354304 -0.00198662 0.27807406
0.23551248 -0.0019868677 0.27806693
0.23559639 -0.0019865609 0.27807584
0.23568021 -0.0019859765 0.27809274
0.23576419 -0.0019858773 0.27809563
0.23584829 -0.0019861935 0.27808654
0.23593041 -0.00198658 0.27807543
0.23601639 -0.0019864794 0.27807835
0.23610015 -0.0019856878 0.27810124
0.23660685 -0.0016264057 0.28846705
0.23668613 -0.0016240216 0.28853586
0.23676752 -0.0016220525 0.2885927
0.23684706 -0.0016205691 0.28863552
0.2369263 -0.0016181158 0.28870636
0.23700601 -0.0016171172 0.28873518
0.23708387 -0.0016166739 0.28874803
0.23716386 -0.0016166453 0.28874886
0.23723994 -0.0016168948 0.28874171
0.23731805 -0.0016172134 0.28873253
0.237396 -0.0016170471 0.28873736
0.23747593 -0.0016168106 0.28874421
0.23755392 -0.0016167826 0.28874505
0.23763196 -0.0016168932 0.28874189
0.23770984 -0.0016164499 0.28875473
0.23778778 -0.0016162832 0.28875956
0.23786573 -0.0016161167 0.28876439
0.2379438 -0.0016162967 0.28875923
0.2380219 -0.001616615 0.28875008
0.23809986 -0.0016164485 0.28875491
0.23817781 -0.0016162823 0.28875974
0.23825772 -0.0016159766 0.28876859
0.23833573 -0.0016160178 0.28876746
0.23841375 -0.0016160592 0.28876626
0.23849176 -0.0016161007 0.28876513
0.23856968 -0.0016157954 0.28877395
0.2386477 -0.0016158371 0.28877279
0.23872586 -0.0016163631 0.28875762
0.23880394 -0.0016166124 0.28875047
0.23888186 -0.0016163074 0.28875929
0.23895974 -0.001615933 0.28877014
0.23903795 -0.0016165978 0.28875098
0.23911598 -0.0016167086 0.28874782
0.23919383 -0.0016161957 0.28876266
0.2392718 -0.0016160986 0.28876549
0.23935159 -0.0016153773 0.28878632
0.23942965 -0.0016155572 0.28878117
0.2395079 -0.0016163605 0.28875804
0.23958583 -0.0016161249 0.28876486
0.23966354 -0.0016151964 0.28879169
0.23974147 -0.0016149605 0.28879851
0.23981965 -0.0016154867 0.28878337
0.23989786 -0.0016161519 0.28876421
0.239976 -0.0016166087 0.28875107
0.24005364 -0.0016154031 0.28878587
0.24013345 -0.0016148203 0.28880271
0.24020958 -0.0016152087 0.28879154
0.2402897 -0.0016155957 0.28878039
0.24036574 -0.0016157072 0.28877723
0.24044374 -0.0016156792 0.28877807
0.24052352 -0.0016149579 0.2887989
0.24060149 -0.0016148606 0.28880173
0.24067949 -0.0016148327 0.28880256
0.24075747 -0.0016147356 0.28880543
0.24083544 -0.0016146383 0.28880826
0.24091341 -0.0016145412 0.28881109
0.24099149 -0.0016147905 0.28880394
0.2410696 -0.0016151088 0.28879476
0.24114765 -0.0016152888 0.2887896
0.24122548 -0.0016147067 0.28880644
0.24130337 -0.0016143323 0.28881726
0.24138141 -0.0016144429 0.2888141
0.24146153 -0.0016148301 0.28880298
0.24153751 -0.0016147335 0.28880578
0.24161546 -0.0016145672 0.28881061
0.24169534 -0.0016141919 0.28882146
0.24177322 -0.0016137486 0.2888343
0.24185131 -0.0016140669 0.28882515
0.24192946 -0.0016145239 0.28881198
0.24200758 -0.0016149118 0.28880084
0.24208556 -0.0016148145 0.28880367
0.2421634 -0.0016143016 0.28881848
0.24224135 -0.0016141351 0.28882334
0.24231932 -0.0016139686 0.28882816
0.24239723 -0.001613733 0.28883499
0.24247541 -0.0016142594 0.28881985
0.24255343 -0.0016143007 0.28881869
0.24263144 -0.0016143419 0.28881752
0.24270946 -0.0016143835 0.28881636
0.24278736 -0.0016140783 0.28882518
0.24286538 -0.00161412 0.28882402
0.24294342 -0.0016142303 0.28882086
0.24302346 -0.0016143402 0.28881773
0.2433354 -0.0016140899 0.28882506
0.24341328 -0.0016137158 0.28883588
0.24349131 -0.0016137572 0.28883475
0.24356934 -0.0016138681 0.28883156
0.24372555 -0.0016145048 0.28881326
0.24380346 -0.0016141998 0.28882208
0.24388129 -0.0016136178 0.28883892
0.24395914 -0.001613174 0.28885174
0.2440372 -0.0016132848 0.28884858
0.24411523 -0.0016133954 0.28884542
0.24419318 -0.0016132289 0.28885025
0.24427132 -0.001613686 0.28883711
0.24434941 -0.0016139351 0.28882995
0.24442933 -0.0016136986 0.28883681
0.24450502 -0.0016126324 0.28886759
0.2445849 -0.0016122573 0.28887844
0.24466299 -0.0016125065 0.28887129
0.24474117 -0.001613102 0.28885415
0.24481936 -0.0016136976 0.28883699
0.24489726 -0.0016133928 0.28884581
0.24497518 -0.0016130876 0.28885466
0.24505298 -0.0016124364 0.28887346
0.24513093 -0.0016122697 0.28887832
0.24520914 -0.0016129346 0.28885916
0.24528733 -0.0016135302 0.28884202
0.24536526 -0.0016132946 0.28884885
0.24544309 -0.0016127123 0.28886569
0.24552108 -0.0016126843 0.28886652
0.24560137 -0.0016136257 0.28883937
0.24567945 -0.0016138748 0.28883222
0.24575746 -0.0016138469 0.28883305
0.2458353 -0.0016133339 0.28884789
0.24591093 -0.0016121293 0.28888267
0.24599104 -0.0016124469 0.28887355
0.24606916 -0.0016128347 0.28886238
0.24614717 -0.001612876 0.28886122
0.24622501 -0.0016123633 0.28887606
0.2463029 -0.0016119889 0.28888687
0.24638098 -0.0016122382 0.28887972
0.24645917 -0.0016128338 0.28886259
0.2465373 -0.0016132215 0.28885141
0.24661508 -0.0016125009 0.28887224
0.24669297 -0.0016121267 0.28888306
0.24677101 -0.0016122371 0.28887993
0.24684899 -0.00161214 0.28888273
0.246929 -0.0016121805 0.2888816
0.2470071 -0.0016124992 0.28887245
0.24708509 -0.0016124713 0.28887329
0.24716291 -0.0016118198 0.28889212
0.24723877 -0.0016113768 0.28890491
0.24731869 -0.0016110711 0.28891379
0.24739465 -0.0016109747 0.28891659
0.2474748 -0.001611431 0.28890345
0.2475529 -0.0016117495 0.2888943
0.24763079 -0.0016113751 0.28890514
0.24770869 -0.0016110701 0.28891397
0.24778682 -0.001611458 0.28890282
0.24786508 -0.0016122613 0.28887966
0.24794517 -0.0016125791 0.28887051
0.2480209 -0.0016116515 0.28889731
0.2481008 -0.0016113456 0.28890616
0.24817678 -0.0016112489 0.28890899
0.24825479 -0.0016112904 0.28890783
0.24833491 -0.0016116773 0.28889668
0.24841309 -0.0016122038 0.28888154
0.24849115 -0.0016123838 0.28887638
0.24856895 -0.0016117323 0.28889519
0.24864684 -0.0016113579 0.28890604
0.24872497 -0.0016117458 0.28889489
0.248803 -0.0016118564 0.2888917
0.24888085 -0.0016113437 0.28890654
0.24895871 -0.0016108999 0.28891939
0.24903673 -0.0016109411 0.2889182
0.2491169 -0.0016114669 0.28890309
0.24919507 -0.0016119931 0.28888792
0.24927306 -0.0016119651 0.28888875
0.24935088 -0.0016113833 0.28890559
0.24942665 -0.001610594 0.28892839
0.24950659 -0.0016104268 0.28893325
0.24958467 -0.0016106759 0.28892609
0.24966276 -0.0016109253 0.28891891
0.24974078 -0.0016109665 0.28891778
0.24981877 -0.0016109386 0.28891861
0.24989675 -0.0016108415 0.28892145
0.24997474 -0.0016108135 0.28892228
0.25005466 -0.001610577 0.28892913
0.25013268 -0.0016105491 0.28892997
0.25021073 -0.0016107293 0.28892481
0.25028875 -0.0016107705 0.28892365
0.25036666 -0.0016104652 0.28893247
0.25044459 -0.0016102296 0.2889393
0.25052258 -0.0016102017 0.28894013
0.25060064 -0.0016103816 0.28893501
0.2506786 -0.0016102846 0.28893781
0.2507565 -0.0016099102 0.28894866
0.25083449 -0.0016098825 0.28894949
0.25091246 -0.0016097851 0.28895232
0.25099048 -0.0016098266 0.28895116
0.2510705 -0.0016098671 0.28895003
0.25114849 -0.00160977 0.28895286
0.25122645 -0.0016096727 0.28895569
0.25130448 -0.0016097833 0.28895253
0.25138256 -0.0016100326 0.28894538
0.25146058 -0.0016100738 0.28894421
0.25154063 -0.0016101837 0.28894109
0.25161871 -0.0016104331 0.2889339
0.25169674 -0.0016104743 0.28893274
0.25177479 -0.0016106545 0.28892758
0.25185478 -0.0016106259 0.28892845
0.25193068 -0.0016102522 0.28893924
0.2520085 -0.0016096701 0.28895608
0.25208646 -0.0016095034 0.28896093
0.25216427 -0.0016089216 0.28897774
0.25224224 -0.0016088242 0.28898057
0.25232038 -0.0016092121 0.28896943
0.25240046 -0.0016095297 0.28896028
0.25247851 -0.0016096403 0.28895712
0.2525565 -0.0016096126 0.28895795
0.25263441 -0.0016093074 0.2889668
0.25271028 -0.0016088648 0.28897959
0.25279024 -0.0016087667 0.28898245
0.25286841 -0.0016092932 0.28896731
0.25294855 -0.0016096799 0.28895617
0.2530266 -0.0016098601 0.28895101
0.25310457 -0.0016096936 0.28895584
0.25318247 -0.0016093884 0.28896469
0.25326043 -0.0016092915 0.28896752
0.25333843 -0.0016092636 0.28896835
0.25341851 -0.0016095118 0.28896123
0.25349665 -0.0016098997 0.28895006
0.25357461 -0.0016098024 0.28895289
0.25365242 -0.0016091511 0.28897172
0.25373042 -0.0016091232 0.28897256
0.25380844 -0.0016091644 0.28897139
0.25388643 -0.0016091367 0.28897223
0.25396651 -0.0016093851 0.28896511
0.25404453 -0.0016094957 0.28896195
0.25412256 -0.0016094678 0.28896278
0.25420043 -0.0016090934 0.2889736
0.25427836 -0.0016088578 0.28898042
0.25435641 -0.0016089684 0.28897727
0.25443649 -0.001609217 0.28897014
0.25451449 -0.0016091891 0.28897098
0.25459239 -0.0016088838 0.2889798
0.25467035 -0.001608787 0.28898263
0.25475046 -0.0016091046 0.28897351
0.25482851 -0.0016092845 0.28896835
0.25490436 -0.0016087032 0.28898513
0.25498435 -0.0016086745 0.288986
0.25506246 -0.001608993 0.28897685
0.25514039 -0.0016088263 0.28898168
0.25521618 -0.0016081067 0.28900248
0.2552962 -0.0016081472 0.28900135
0.25537425 -0.0016083269 0.28899619
0.25545228 -0.0016083684 0.28899503
0.25553235 -0.0016086168 0.28898787
0.25561029 -0.0016083812 0.28899473
0.25568601 -0.0016075227 0.28901953
0.25576401 -0.0016074948 0.28902036
0.25584206 -0.0016076054 0.2890172
0.25592208 -0.0016076459 0.28901607
0.25600019 -0.0016080338 0.28900489
0.25608033 -0.0016084207 0.28899378
0.25616044 -0.0016087386 0.28898463
0.25623843 -0.0016087106 0.28898546
0.25631636 -0.0016084748 0.28899229
0.25639427 -0.00160817 0.28900114
0.25647232 -0.0016083497 0.28899598
0.25655237 -0.001608529 0.28899086
0.25663033 -0.0016083625 0.28899568
0.25670618 -0.0016078503 0.28901047
0.25678408 -0.0016075455 0.28901929
0.25686204 -0.0016073791 0.28902414
0.25694004 -0.0016073511 0.28902498
0.25702021 -0.0016078766 0.28900984
0.25710028 -0.0016081251 0.28900272
0.25717822 -0.0016078894 0.28900954
0.25725415 -0.0016076543 0.28901637
0.25733405 -0.0016073488 0.28902519
0.25741002 -0.0016072522 0.28902802
0.25749004 -0.0016072929 0.28902689
0.25756809 -0.0016074033 0.28902373
0.25764605 -0.001607237 0.28902856
0.2577239 -0.0016067933 0.2890414
0.25780189 -0.0016067656 0.28904223
0.25788414 -0.0016074983 0.2890211
0.25796235 -0.001608163 0.28900197
0.25804019 -0.0016076501 0.28901678
0.258118 -0.0016069986 0.28903562
0.258196 -0.0016070403 0.28903446
0.25827408 -0.00160722 0.2890293
0.25835201 -0.0016070536 0.28903413
0.25842991 -0.0016066794 0.28904495
0.25850794 -0.00160679 0.28904179
0.25858805 -0.0016071078 0.28903267
0.25866812 -0.0016072869 0.28902751
0.25874606 -0.0016071204 0.28903237
0.25882408 -0.0016071618 0.28903121
0.2589021 -0.001607203 0.28903005
0.25898004 -0.0016069674 0.28903687
0.25905788 -0.0016065239 0.28904969
0.25913376 -0.001606081 0.2890625
0.25921384 -0.0016062603 0.28905737
0.25929397 -0.0016067164 0.28904423
0.25937185 -0.0016063423 0.28905505
0.25944978 -0.0016060373 0.2890639
0.25952777 -0.0016060093 0.28906474
0.25960577 -0.0016060505 0.28906357
0.25968587 -0.0016063686 0.28905442
0.25976399 -0.0016066869 0.28904527
0.25984401 -0.0016067274 0.28904414
0.25992194 -0.0016064917 0.28905097
0.2599999 -0.0016063947 0.2890538
0.26007786 -0.0016062282 0.28905863
0.2601558 -0.0016060617 0.28906345
0.26023582 -0.0016061022 0.28906232
0.26031387 -0.0016062128 0.28905916
0.2603918 -0.0016059772 0.28906602
0.26046976 -0.0016058799 0.28906885
0.26054782 -0.0016059907 0.28906569
0.26062575 -0.0016057548 0.28907251
0.26070368 -0.0016055884 0.28907734
0.26078376 -0.001605837 0.28907019
0.26086387 -0.0016061546 0.28906107
0.2609418 -0.001605919 0.28906789
0.26101977 -0.0016057525 0.28907275
0.26109776 -0.0016057246 0.28907359
0.26117784 -0.0016059732 0.28906643
0.26125795 -0.0016062908 0.28905731
0.261336 -0.0016064708 0.28905213
0.26141179 -0.0016057509 0.28907293
0.26148966 -0.0016053763 0.28908378
0.26156768 -0.0016054179 0.28908262
0.26164562 -0.0016051823 0.28908944
0.26172352 -0.0016048771 0.28909826
0.2618036 -0.0016050563 0.28909314
0.26188168 -0.0016053746 0.28908399
0.26196176 -0.0016056233 0.28907686
0.26203975 -0.0016055262 0.28907967
0.26211774 -0.0016054983 0.2890805
0.2621977 -0.0016053311 0.28908539
0.26227567 -0.0016052338 0.28908822
0.26235369 -0.0016052752 0.28908706
0.26243162 -0.0016051087 0.28909189
0.26250955 -0.0016048731 0.28909871
0.26258758 -0.0016048452 0.28909954
0.26266766 -0.0016050934 0.28909242
0.26274768 -0.0016052033 0.28908926
0.2628257 -0.0016052449 0.28908813
0.26290366 -0.0016051476 0.28909096
0.26298159 -0.001604912 0.28909779
0.26305965 -0.0016050226 0.28909463
0.26313964 -0.0016049939 0.28909546
0.26321754 -0.0016046889 0.28910431
0.26329553 -0.001604661 0.28910515
0.2633757 -0.0016051867 0.28909001
0.26345578 -0.0016054349 0.28908288
0.26353371 -0.0016051301 0.28909171
0.26360956 -0.0016046871 0.28910452
0.26368538 -0.0016040365 0.28912333
0.26376322 -0.0016035236 0.28913814
0.26384124 -0.0016036342 0.28913498
0.26392129 -0.0016037443 0.28913185
0.26399925 -0.0016035779 0.28913668
0.26407719 -0.0016033418 0.2891435
0.26415509 -0.001603037 0.28915235
0.26423103 -0.0016028018 0.28915918
0.26431108 -0.0016029811 0.28915402
0.26439118 -0.0016032989 0.28914487
0.26446915 -0.0016032016 0.28914773
0.26454714 -0.0016031045 0.28915057
0.26462513 -0.0016030766 0.2891514
0.26470307 -0.001602841 0.28915823
0.264781 -0.0016026745 0.28916305
0.26485899 -0.0016025772 0.28916591
0.26493907 -0.0016028256 0.28915876
0.26501918 -0.0016032128 0.28914762
0.26509926 -0.0016034612 0.28914049
0.26517719 -0.0016032254 0.28914732
0.26525295 -0.0016024361 0.28917012
0.26532879 -0.0016018549 0.28918692
0.26540887 -0.0016021034 0.2891798
0.26549107 -0.0016027667 0.28916067
0.26556912 -0.0016028773 0.28915751
0.26564497 -0.0016024344 0.28917032
0.2657229 -0.0016021988 0.28917718
0.26580295 -0.0016023087 0.28917402
0.26588303 -0.0016025574 0.28916687
0.26596111 -0.0016028063 0.28915972
0.26604116 -0.0016029855 0.28915459
0.26611915 -0.0016029578 0.28915542
0.26619709 -0.0016026526 0.28916425
0.2662771 -0.0016026931 0.28916311
0.26635724 -0.0016031495 0.28915
0.2664353 -0.0016033297 0.28914481
0.26651323 -0.0016030936 0.28915167
0.26659322 -0.0016030649 0.2891525
0.26667124 -0.0016031066 0.28915137
0.26674923 -0.0016030787 0.2891522
0.26682928 -0.0016031886 0.28914905
0.26690939 -0.0016035064 0.28913993
0.26698738 -0.0016035476 0.28913876
0.26706529 -0.0016031732 0.28914958
0.26714328 -0.0016031455 0.28915042
0.26722333 -0.0016033245 0.28914529
0.26730129 -0.0016031583 0.28915012
0.26738134 -0.0016033374 0.28914499
0.26746145 -0.0016036552 0.28913584
0.26753938 -0.0016034195 0.28914267
0.26761535 -0.0016032538 0.2891475
0.26769328 -0.0016030179 0.28915432
0.2677691 -0.0016025059 0.28916913
0.26784909 -0.0016024079 0.28917199
0.26792923 -0.0016028642 0.28915885
0.26800931 -0.0016030433 0.28915372
0.2680873 -0.0016030153 0.28915456
0.26816732 -0.0016031252 0.28915143
0.26824534 -0.0016031669 0.28915024
0.26832539 -0.0016032768 0.28914711
0.2306487 -0.0023908643 0.27783263
0.23073241 -0.0023899339 0.27785951
0.23082003 -0.0023887255 0.27789444
0.23090552 -0.0023870324 0.27794331
0.23099317 -0.0023858929 0.27797624
0.23107693 -0.0023851017 0.2779991
0.23116079 -0.0023846561 0.27801201
0.23124483 -0.0023847651 0.27800891
0.23132893 -0.0023850822 0.27799982
0.23141293 -0.0023850524 0.27800071
0.23149693 -0.0023850231 0.27800164
0.2315789 -0.0023849248 0.2780045
0.23166476 -0.0023844787 0.27801743
0.23174874 -0.00238438 0.27802032
0.23183088 -0.0023848363 0.27800721
0.23191312 -0.0023855693 0.27798611
0.23199703 -0.0023852624 0.27799499
0.23208296 -0.0023850244 0.2780019
0.23216695 -0.0023849946 0.27800283
0.23225085 -0.0023846882 0.27801171
0.23233485 -0.0023846584 0.2780126
0.23241687 -0.0023846989 0.2780115
0.23250282 -0.0023845299 0.27801642
0.23258676 -0.0023842929 0.2780233
0.23267072 -0.0023841937 0.27802622
0.23275274 -0.0023842342 0.27802509
0.23283669 -0.0023840661 0.27802998
0.23292258 -0.0023836894 0.27804092
0.23300654 -0.0023835213 0.2780458
0.23309062 -0.002383769 0.27803871
0.23317268 -0.0023839478 0.27803361
0.23325671 -0.0023840568 0.27803051
0.2333408 -0.0023843045 0.27802342
0.23342288 -0.0023845523 0.2780163
0.23350681 -0.0023843152 0.27802318
0.23359263 -0.0023837308 0.27804011
0.23367456 -0.0023834938 0.27804697
0.2337586 -0.0023836028 0.27804387
0.23384275 -0.0023840582 0.27803078
0.23392683 -0.0023843059 0.27802369
0.23401061 -0.0023835837 0.27804458
0.23409447 -0.0023831381 0.27805749
0.2341785 -0.0023831776 0.27805638
0.23426244 -0.00238301 0.27806127
0.23434639 -0.0023828419 0.27806616
0.23442863 -0.0023835748 0.27804506
0.23451264 -0.0023836144 0.27804399
0.23459658 -0.0023833774 0.27805087
0.2346786 -0.0023834174 0.27804977
0.23476455 -0.0023832484 0.27805465
0.23484845 -0.002382942 0.27806357
0.23493043 -0.0023828438 0.27806646
0.23501447 -0.0023829527 0.27806336
0.2350985 -0.0023830617 0.27806026
0.23518243 -0.0023828242 0.27806714
0.23526636 -0.0023825867 0.27807406
0.23535025 -0.0023822109 0.27808493
0.23543426 -0.0023822505 0.27808386
0.23551641 -0.0023827069 0.27807075
0.23560232 -0.0023823995 0.27807963
0.23568423 -0.0023820936 0.27808851
0.23576809 -0.0023816479 0.27810141
0.23585401 -0.0023813411 0.27811033
0.23593605 -0.0023814505 0.27810723
0.23602018 -0.0023818365 0.27809614
0.23669043 -0.0020210501 0.28850567
0.23676975 -0.002018874 0.2885685
0.23685077 -0.0020156587 0.2886613
0.23693188 -0.0020127897 0.28874412
0.23701161 -0.0020119301 0.28876898
0.23708966 -0.0020120409 0.28876582
0.23716782 -0.0020125681 0.28875065
0.23724391 -0.0020128181 0.2887435
0.23732193 -0.00201286 0.2887423
0.23740004 -0.0020132479 0.28873116
0.23747802 -0.0020131515 0.28873399
0.23755786 -0.0020126384 0.28874886
0.23763569 -0.0020120568 0.28876567
0.23771383 -0.0020125145 0.2887525
0.23779185 -0.002012556 0.28875136
0.23786992 -0.0020127362 0.28874621
0.2379481 -0.0020133322 0.28872904
0.23802592 -0.0020127506 0.28874588
0.23810379 -0.0020123078 0.2887587
0.23818181 -0.0020123497 0.28875753
0.23825985 -0.0020124605 0.28875437
0.23833978 -0.0020122244 0.28876123
0.23841774 -0.002012128 0.28876406
0.23849572 -0.0020120312 0.28876692
0.23857364 -0.0020117266 0.28877574
0.23865169 -0.0020119068 0.28877056
0.2387298 -0.0020122258 0.28876141
0.23880757 -0.0020115054 0.28878224
0.23888555 -0.0020114086 0.28878507
0.23896372 -0.0020119357 0.28876993
0.23904176 -0.0020120465 0.28876674
0.23911977 -0.0020120884 0.28876561
0.23919958 -0.0020114365 0.28878444
0.2392776 -0.0020114789 0.28878328
0.23935583 -0.0020122132 0.28876215
0.23943189 -0.0020123944 0.28875697
0.23958962 -0.0020115073 0.28878263
0.23966736 -0.0020106486 0.28880745
0.23974559 -0.002011383 0.28878629
0.2398237 -0.0020117019 0.28877714
0.23990181 -0.0020120903 0.288766
0.23997977 -0.0020119241 0.28877082
0.24005771 -0.0020116889 0.28877765
0.2401357 -0.0020116614 0.28877848
0.2402136 -0.0020113569 0.28878734
0.24029349 -0.0020109825 0.28879818
0.2403715 -0.002010955 0.28879902
0.24044766 -0.0020114821 0.28878385
0.24052769 -0.0020115925 0.28878069
0.24060562 -0.0020113573 0.28878754
0.24068362 -0.0020113299 0.28878838
0.24076165 -0.0020114412 0.28878522
0.24083963 -0.0020113443 0.28878805
0.24091776 -0.0020117322 0.28877687
0.24099584 -0.0020119818 0.28876972
0.24107359 -0.0020111925 0.28879255
0.24115157 -0.0020110956 0.28879538
0.24122971 -0.0020115529 0.28878224
0.24130774 -0.0020115953 0.28878108
0.24138562 -0.0020112214 0.28879189
0.24146539 -0.0020104311 0.28881475
0.24154334 -0.0020102649 0.28881958
0.2416193 -0.002010169 0.28882241
0.24169932 -0.00201021 0.28882125
0.24177735 -0.0020102519 0.28882009
0.24185535 -0.0020102938 0.28881893
0.24193344 -0.0020105434 0.28881177
0.24201141 -0.0020104465 0.2888146
0.24208936 -0.0020102803 0.28881943
0.24216752 -0.002010738 0.28880629
0.24224553 -0.0020107799 0.28880513
0.24232335 -0.0020101978 0.28882194
0.2424013 -0.0020100321 0.28882679
0.24247934 -0.0020101429 0.28882363
0.2425575 -0.0020106006 0.28881049
0.2426355 -0.0020106426 0.2888093
0.24271339 -0.0020102686 0.28882015
0.24279146 -0.0020104488 0.28881496
0.24286936 -0.0020101443 0.28882381
0.2429473 -0.0020099091 0.28883064
0.2430274 -0.0020102272 0.28882152
0.24310537 -0.0020101308 0.28882435
0.24318129 -0.0020098267 0.28883314
0.24326131 -0.0020098677 0.28883201
0.24333939 -0.0020101173 0.28882486
0.24349552 -0.0020105476 0.28881255
0.24357341 -0.0020101736 0.28882337
0.24365115 -0.002009315 0.28884819
0.24372928 -0.0020097028 0.28883705
0.24380742 -0.0020101606 0.28882387
0.24388541 -0.0020101331 0.28882471
0.24396315 -0.0020092744 0.28884953
0.244041 -0.0020087617 0.28886437
0.24411921 -0.0020094272 0.28884521
0.24419938 -0.0020099534 0.28883007
0.24427548 -0.0020102728 0.28882092
0.24435328 -0.0020096218 0.28883973
0.24443302 -0.0020087622 0.28886455
0.24450901 -0.0020087357 0.28886539
0.24458905 -0.002008846 0.28886223
0.24466726 -0.0020095115 0.2888431
0.24474536 -0.00200983 0.28883395
0.24482328 -0.0020095259 0.28884277
0.24490121 -0.0020092903 0.28884959
0.24497914 -0.0020090551 0.28885645
0.2450573 -0.0020095818 0.28884128
0.24513541 -0.0020099008 0.28883213
0.24521345 -0.0020100116 0.28882897
0.24529138 -0.0020097764 0.28883579
0.24536914 -0.0020089867 0.28885862
0.24544717 -0.002009098 0.28885546
0.24552532 -0.0020095552 0.28884232
0.24560538 -0.0020097354 0.28883716
0.24568121 -0.0020091543 0.28885397
0.24576107 -0.0020087101 0.28886682
0.24583702 -0.0020085452 0.28887165
0.24591514 -0.0020089331 0.2888605
0.24599536 -0.0020095981 0.28884137
0.2460734 -0.0020097089 0.28883821
0.24615133 -0.0020094737 0.28884503
0.24622907 -0.0020086151 0.28886986
0.24630716 -0.0020089336 0.28886068
0.24638528 -0.0020092526 0.28885153
0.24646321 -0.0020090174 0.28885835
0.24654102 -0.0020084358 0.28887519
0.24661914 -0.0020087548 0.28886604
0.24669713 -0.0020087273 0.28886688
0.24677503 -0.0020084227 0.2888757
0.24685305 -0.0020084642 0.28887454
0.24693304 -0.0020084362 0.2888754
0.24701107 -0.0020084782 0.28887424
0.2470891 -0.002008589 0.28887108
0.24716714 -0.0020087003 0.28886792
0.24724507 -0.0020084647 0.28887475
0.24732298 -0.0020081601 0.28888357
0.24740094 -0.0020079943 0.28888839
0.2474789 -0.0020078975 0.28889126
0.24755675 -0.0020073853 0.28890607
0.24763477 -0.0020074272 0.28890491
0.24771284 -0.0020076074 0.28889975
0.2477908 -0.0020075105 0.28890258
0.24786869 -0.0020071366 0.28891343
0.24794658 -0.0020067631 0.28892425
0.24802475 -0.0020072898 0.28890908
0.24810492 -0.0020078155 0.28889397
0.248183 -0.0020080656 0.28888682
0.24826103 -0.0020081764 0.28888363
0.24833883 -0.0020075254 0.28890246
0.24841681 -0.0020074286 0.28890532
0.24849491 -0.0020077475 0.28889614
0.24857306 -0.0020082053 0.288883
0.24865118 -0.0020085932 0.28887182
0.24873108 -0.0020082188 0.28888267
0.24880688 -0.0020075683 0.28890151
0.24888472 -0.002007056 0.28891632
0.24896272 -0.0020070286 0.28891715
0.24904084 -0.0020074169 0.28890601
0.24912094 -0.002007735 0.28889686
0.24919896 -0.0020077769 0.2888957
0.24927694 -0.00200768 0.28889853
0.24935488 -0.0020075142 0.28890339
0.24943283 -0.002007348 0.28890821
0.24951084 -0.0020073205 0.28890905
0.24958892 -0.0020075701 0.2889019
0.24966905 -0.0020079575 0.28889075
0.24974486 -0.0020073769 0.28890756
0.24982256 -0.0020063794 0.28893638
0.24990062 -0.0020065596 0.28893122
0.24997877 -0.0020070174 0.28891808
0.25005883 -0.0020071967 0.28891292
0.25013685 -0.0020072386 0.28891176
0.25021479 -0.0020070034 0.28891858
0.25029278 -0.0020069759 0.28891942
0.25037071 -0.0020068102 0.28892428
0.2504487 -0.0020067827 0.28892511
0.2505267 -0.0020066858 0.28892794
0.25060469 -0.0020066584 0.28892878
0.25068265 -0.0020065615 0.28893161
0.25076273 -0.0020067412 0.28892648
0.25084081 -0.0020069908 0.28891933
0.2509189 -0.0020073098 0.28891015
0.25099689 -0.002007213 0.28891298
0.25107688 -0.002007185 0.28891385
0.2511549 -0.0020072958 0.28891069
0.25123289 -0.002007199 0.28891352
0.25131083 -0.0020069638 0.28892034
0.25138876 -0.0020067282 0.2889272
0.2514666 -0.0020062854 0.28894001
0.25154254 -0.0020060511 0.28894684
0.25162256 -0.0020060921 0.28894567
0.25170058 -0.0020061336 0.28894454
0.2517786 -0.0020061755 0.28894335
0.25185668 -0.0020064255 0.2889362
0.25193679 -0.0020067436 0.28892708
0.25201479 -0.002006785 0.28892592
0.25209275 -0.0020066192 0.28893074
0.25217077 -0.0020066611 0.28892958
0.25224876 -0.0020066337 0.28893042
0.25232658 -0.0020060516 0.28894725
0.25240445 -0.0020056088 0.28896007
0.25248256 -0.0020059277 0.28895092
0.25256065 -0.0020061773 0.28894377
0.25263858 -0.0020060115 0.2889486
0.25271654 -0.0020058453 0.28895342
0.25279659 -0.0020060251 0.2889483
0.2528747 -0.0020063436 0.28893912
0.25295267 -0.0020061778 0.28894398
0.2530306 -0.002006012 0.2889488
0.25310859 -0.0020059152 0.28895164
0.25318643 -0.0020054025 0.28896648
0.25326437 -0.0020052367 0.2889713
0.25334245 -0.0020054169 0.28896612
0.2534225 -0.0020055966 0.28896099
0.25350052 -0.0020056386 0.28895983
0.25357848 -0.0020054723 0.28896469
0.25365648 -0.0020054448 0.28896552
0.25373456 -0.0020056944 0.28895837
0.25381464 -0.0020059436 0.28895122
0.2538926 -0.0020058467 0.28895405
0.25397047 -0.0020054039 0.28896689
0.25404841 -0.0020052376 0.28897172
0.2541264 -0.0020051412 0.28897455
0.25420427 -0.0020046979 0.28898737
0.25428021 -0.0020045326 0.2889922
0.25436029 -0.0020047813 0.28898504
0.25444046 -0.0020052381 0.2889719
0.25451845 -0.00200528 0.28897077
0.25459638 -0.0020049755 0.28897959
0.25467432 -0.0020047398 0.28898641
0.25475237 -0.0020049899 0.28897926
0.25483245 -0.0020051692 0.28897414
0.25490838 -0.0020050039 0.28897893
0.25498626 -0.002004561 0.28899175
0.25506428 -0.0020046029 0.28899062
0.2551443 -0.0020046439 0.28898945
0.25522232 -0.0020046858 0.28898829
0.25530037 -0.002004866 0.28898314
0.25538045 -0.0020051152 0.28897601
0.25545844 -0.0020050877 0.28897685
0.25553629 -0.002004575 0.28899169
0.25561219 -0.0020042714 0.28900048
0.25569019 -0.0020041745 0.28900331
0.25577018 -0.0020041466 0.28900418
0.25584826 -0.0020043962 0.28899702
0.25592834 -0.0020046448 0.28898987
0.25600633 -0.0020046174 0.28899074
0.25608432 -0.0020045899 0.28899157
0.25616238 -0.0020047012 0.28898841
0.25624031 -0.0020044656 0.28899521
0.25631821 -0.002004161 0.28900406
0.25639823 -0.0020042714 0.28900093
0.25647628 -0.0020043827 0.28899777
0.25655434 -0.002004494 0.28899461
0.25663221 -0.00200412 0.28900543
0.25671002 -0.0020035384 0.28902227
0.25678802 -0.0020035109 0.2890231
0.25686616 -0.0020038988 0.28901193
0.25694627 -0.0020042863 0.28900081
0.2570242 -0.0020040511 0.28900763
0.2571021 -0.0020036772 0.28901845
0.25718012 -0.0020037885 0.28901529
0.25726023 -0.0020041065 0.28900617
0.2573382 -0.0020039408 0.289011
0.2574161 -0.0020036357 0.28901982
0.25749406 -0.0020035394 0.28902265
0.25757208 -0.0020035808 0.28902149
0.25765216 -0.002003761 0.28901637
0.2577301 -0.0020035948 0.28902119
0.25780809 -0.0020034979 0.28902406
0.25788608 -0.0020034704 0.28902489
0.2579641 -0.0020035817 0.28902173
0.25804412 -0.0020036227 0.28902057
0.25812212 -0.0020035952 0.2890214
0.25820014 -0.0020036371 0.28902024
0.25828013 -0.0020036087 0.2890211
0.25835606 -0.0020033745 0.28902793
0.25843397 -0.0020030006 0.28903875
0.25851193 -0.0020029037 0.28904158
0.25859198 -0.0020030835 0.28903645
0.25866997 -0.002003056 0.28903729
0.25874791 -0.0020028204 0.28904411
0.2588259 -0.002002724 0.28904694
0.25890598 -0.0020029731 0.28903979
0.25898406 -0.0020032222 0.28903264
0.25906202 -0.0020031258 0.2890355
0.25913993 -0.0020028213 0.28904432
0.25921786 -0.0020025857 0.28905115
0.25929788 -0.0020026267 0.28905001
0.25937596 -0.0020028767 0.28904286
0.25945604 -0.002003056 0.2890377
0.25953403 -0.0020030979 0.28903654
0.25961202 -0.0020030704 0.28903738
0.25968996 -0.0020028353 0.28904423
0.25976789 -0.0020026001 0.28905106
0.25984585 -0.0020024339 0.28905588
0.25992382 -0.0020022676 0.28906071
0.26000383 -0.0020023091 0.28905958
0.26008397 -0.0020028348 0.28904444
0.26016209 -0.0020031538 0.28903529
0.26024207 -0.0020030565 0.28903815
0.26031798 -0.0020027524 0.28904697
0.260398 -0.0020027938 0.28904581
0.26047602 -0.0020029051 0.28904265
0.2605539 -0.0020024618 0.2890555
0.2606318 -0.0020020879 0.28906631
0.26070979 -0.0020020604 0.28906715
0.26078984 -0.0020022402 0.28906202
0.26086792 -0.0020024898 0.28905487
0.26094586 -0.0020022546 0.2890617
0.26102376 -0.0020019501 0.28907052
0.26110181 -0.0020020609 0.28906736
0.26118189 -0.0020023794 0.28905821
0.261262 -0.0020026281 0.28905109
0.2613399 -0.0020023929 0.28905791
0.26141787 -0.0020022267 0.28906277
0.26149589 -0.0020022686 0.28906161
0.26157594 -0.0020023789 0.28905845
0.26165393 -0.0020023515 0.28905928
0.26172981 -0.0020019785 0.2890701
0.26180771 -0.0020016739 0.28907892
0.26188567 -0.0020015077 0.28908378
0.26196569 -0.0020015487 0.28908265
0.26204371 -0.0020016599 0.28907946
0.26212171 -0.0020015631 0.28908229
0.26219961 -0.0020012585 0.28909114
0.2622776 -0.0020012311 0.28909197
0.26235768 -0.0020014802 0.28908482
0.26243773 -0.0020015906 0.28908169
0.26251566 -0.0020014243 0.28908652
0.26259366 -0.0020013275 0.28908938
0.26267174 -0.0020015775 0.2890822
0.26275176 -0.0020016185 0.28908107
0.26282755 -0.0020009684 0.28909987
0.26290327 -0.0020000408 0.28912666
0.26298133 -0.0020002211 0.28912151
0.26306143 -0.0020005396 0.28911239
0.26314148 -0.0020006499 0.28910923
0.26322156 -0.0020008986 0.28910208
0.26329964 -0.0020011486 0.28909492
0.26337963 -0.0020011896 0.28909379
0.26345551 -0.0020007472 0.28910661
0.26353335 -0.002000235 0.28912142
0.26361132 -0.0020000688 0.28912628
0.26368928 -0.0019999025 0.2891311
0.26376727 -0.0019999444 0.28912994
0.26384735 -0.0020001936 0.28912279
0.26392537 -0.0020001661 0.28912365
0.26400328 -0.0019999309 0.28913045
0.26408121 -0.0019996259 0.2891393
0.26415917 -0.0019995291 0.28914213
0.2642372 -0.001999571 0.28914097
0.26431721 -0.001999612 0.28913984
0.26439521 -0.0019995845 0.28914067
0.26447314 -0.0019994187 0.2891455
0.26455107 -0.0019991142 0.28915435
0.26462901 -0.0019988785 0.28916118
0.26470694 -0.0019987128 0.289166
0.26478705 -0.0019990313 0.28915685
0.26486507 -0.0019990727 0.28915572
0.26494303 -0.0019989763 0.28915852
0.26502311 -0.001999225 0.2891514
0.26510322 -0.0019995435 0.28914225
0.26518118 -0.0019993773 0.28914711
0.26525706 -0.0019990043 0.2891579
0.26533705 -0.0019989065 0.28916076
0.26541513 -0.0019991565 0.28915361
0.26549521 -0.0019994052 0.28914648
0.26557523 -0.0019994462 0.28914535
0.26564893 -0.0019985195 0.28917211
0.26572686 -0.0019982844 0.28917894
0.26580706 -0.0019988795 0.2891618
0.26588923 -0.0019994052 0.28914669
0.26596931 -0.0019996539 0.28913957
0.26604727 -0.0019995575 0.2891424
0.26612526 -0.00199953 0.28914323
0.26620534 -0.0019997093 0.28913811
0.26628545 -0.0020000972 0.28912696
0.26636556 -0.0020004152 0.28911781
0.26644349 -0.0020001801 0.28912467
0.26652139 -0.0019998751 0.28913349
0.26659936 -0.0019997093 0.28913832
0.26667947 -0.0020000967 0.2891272
0.26675752 -0.002000208 0.28912401
0.26683334 -0.0019996269 0.28914082
0.26690915 -0.0019989768 0.28915966
0.26698712 -0.0019988799 0.28916246
0.26706719 -0.0019991286 0.28915533
0.26714724 -0.001999239 0.2891522
0.26722524 -0.0019992115 0.28915304
0.26730531 -0.0019994606 0.28914589
0.26738334 -0.0019995025 0.28914475
0.26746336 -0.0019995435 0.28914359
0.26754346 -0.0019998616 0.28913447
0.26762149 -0.0019999729 0.28913128
0.26770148 -0.0019998755 0.28913414
0.2677795 -0.0019999864 0.28913099
0.26785958 -0.0020001661 0.28912586
0.2679396 -0.0020002765 0.2891227
0.26801756 -0.0020001107 0.28912756
0.26809132 -0.0019993917 0.28914833
0.26816922 -0.0019990178 0.28915918
0.26824927 -0.0019991975 0.28915402
0.2683273 -0.0019992394 0.28915286
0.23082434 -0.0027910504 0.27784249
0.23091331 -0.002787763 0.27793741
0.23099901 -0.0027867632 0.27796632
0.23108481 -0.0027861097 0.27798522
0.23116875 -0.0027858729 0.27799213
0.23125282 -0.0027861209 0.27798504
0.23133488 -0.0027862999 0.27797991
0.23141888 -0.0027862708 0.2779808
0.23150283 -0.0027861029 0.27798569
0.23158678 -0.0027859353 0.27799061
0.23167075 -0.0027858368 0.2779935
0.23175478 -0.0027858769 0.27799243
0.23183888 -0.002786194 0.27798331
0.23192099 -0.002786512 0.27797419
0.23200496 -0.0027864133 0.27797711
0.23208882 -0.0027859686 0.27798998
0.23217468 -0.002785523 0.27800292
0.23225862 -0.0027852862 0.2780098
0.23234077 -0.0027857425 0.27799669
0.23242484 -0.0027859902 0.2779896
0.23250879 -0.0027858226 0.27799451
0.23259279 -0.0027857935 0.27799541
0.23267679 -0.0027857642 0.2779963
0.23276065 -0.0027853192 0.27800918
0.2328445 -0.0027848051 0.27802408
0.23292851 -0.0027848452 0.278023
0.23301263 -0.0027852317 0.27801189
0.23309666 -0.0027852717 0.27801079
0.23318054 -0.0027848962 0.27802169
0.23326449 -0.0027847283 0.27802658
0.23334855 -0.0027849071 0.27802148
0.23343059 -0.0027850172 0.27801839
0.23351464 -0.0027851262 0.27801529
0.23359865 -0.0027851665 0.27801418
0.23368257 -0.0027849295 0.2780211
0.23376647 -0.0027845537 0.27803198
0.23385048 -0.002784594 0.27803087
0.23393263 -0.0027850503 0.27801776
0.23401663 -0.0027850212 0.27801865
0.23410055 -0.0027847842 0.27802557
0.23418464 -0.0027850319 0.27801847
0.23426861 -0.0027849337 0.27802137
0.23435247 -0.0027844885 0.27803427
0.23443642 -0.0027843209 0.27803916
0.23452041 -0.0027842224 0.27804208
0.23460439 -0.0027841933 0.27804297
0.23468831 -0.0027838869 0.27805185
0.23477229 -0.0027838578 0.27805275
0.23485443 -0.0027842449 0.27804166
0.23493844 -0.0027842848 0.27804056
0.23502237 -0.002784048 0.27804744
0.23510441 -0.0027841579 0.27804434
0.23519041 -0.0027841281 0.27804524
0.23527233 -0.0027838915 0.27805212
0.23535627 -0.0027836545 0.27805904
0.2354403 -0.0027837639 0.27805594
0.23552428 -0.0027836657 0.27805883
0.23560821 -0.0027834284 0.27806574
0.23569229 -0.0027836764 0.27805865
0.23577432 -0.0027837865 0.27805552
0.23586017 -0.0027832717 0.27807042
0.23594403 -0.0027828265 0.27808332
0.23602808 -0.002782936 0.27808022
0.23611014 -0.0027831153 0.2780751
0.23669824 -0.0024218753 0.28849775
0.23677792 -0.0024208084 0.28852859
0.23685895 -0.0024176624 0.28861943
0.2369381 -0.0024149327 0.28869823
0.23701784 -0.0024140736 0.28872305
0.23709576 -0.0024137695 0.2887319
0.23717371 -0.0024136037 0.28873673
0.23725362 -0.0024132989 0.28874558
0.23733155 -0.0024130638 0.28875244
0.23740959 -0.0024131753 0.28874928
0.2374876 -0.0024132177 0.28874809
0.23756562 -0.0024132596 0.28874695
0.2376436 -0.0024131634 0.28874975
0.23772155 -0.0024129977 0.28875461
0.23779953 -0.002412901 0.28875744
0.23787753 -0.0024129434 0.28875628
0.23795551 -0.0024128468 0.28875911
0.23803353 -0.0024128892 0.28875795
0.23811153 -0.0024128621 0.28875878
0.23819149 -0.0024126957 0.28876364
0.23826769 -0.0024133618 0.28874448
0.23834588 -0.0024139583 0.28872731
0.23842561 -0.0024130992 0.28875217
0.23850359 -0.0024130028 0.288755
0.23858172 -0.0024133914 0.28874385
0.23873764 -0.0024131292 0.28875151
0.23881549 -0.0024126172 0.28876632
0.23889358 -0.0024129364 0.28875718
0.23897162 -0.0024130479 0.28875402
0.23904964 -0.0024130901 0.28875285
0.23912773 -0.0024133401 0.2887457
0.23920552 -0.0024126894 0.28876454
0.23928347 -0.0024125236 0.28876936
