-0.00323168 0.476587 0.879122 0
-0.00167146 0.486318 0.87378 0
0.00157637 0.475576 0.879673 0
-0.000271045 0.462826 0.886449 0
0.00316098 0.481046 0.87669 0
-0.0172137 0.408786 0.912468 0.0036804
-0.0260663 0.381978 0.923804 0.0506293
-0.0240403 0.38732 0.921632 0.0429206
-0.0196388 0.370099 0.928785 0.0353632
-0.0156722 0.366109 0.93044 0.0208997
-0.0142324 0.388175 0.921476 0.0186927
-0.0118547 0.385767 0.92252 0
-0.0101857 0.392826 0.919556 0
-0.00805189 0.391904 0.919971 0
-0.00341149 0.416112 0.909307 0
-0.00447325 0.41462 0.909984 0
-0.00210236 0.412853 0.910795 0.00562099
0.00053917 0.422031 0.906581 0.00933082
0.00663052 0.446931 0.894544 0.00770483
0.00785955 0.413728 0.910366 0
0.00626046 0.37756 0.925964 0.000127072
0.00719051 0.41814 0.908354 0.00978549
0.0046538 0.404659 0.914456 0.0123396
0.00571946 0.413129 0.910654 0.00937661
0.00628129 0.402882 0.91523 0
-0.112785 0.25526 0.960272 0.0118066
-0.105437 0.24936 0.962654 0.0133621
-0.106498 0.259338 0.959897 0.0180155
-0.0663139 0.320244 0.945011 0.00360066
-0.06725 0.324504 0.943491 0.017589
-0.0672861 0.350135 0.934279 0.020094
-0.063712 0.350002 0.93458 0.0222711
-0.017662 0.290604 0.95668 0
-0.0201155 0.253955 0.967007 0.00391168
-0.0213448 0.228229 0.973373 0.012581
0.00773101 0.293909 0.955802 0.0330833
0.00824169 0.321432 0.946897 0.0280729
-0.00548216 0.34606 0.938196 0.0297187
-0.00811133 0.345534 0.938371 0.0353118
-0.000897601 0.352096 0.935964 0.0337583
-0.00308054 0.343226 0.939248 0.0386996
-0.00581393 0.353308 0.935489 0.0357377
-0.00984344 0.384115 0.923233 0.0477769
-0.00512121 0.392955 0.919544 0.0304244
-0.00578129 0.429157 0.903211 0
-0.0165905 0.42221 0.906346 0
-0.016869 0.436125 0.899728 0
-0.00809147 0.474336 0.880307 0
-0.0165997 0.424807 0.905132 0.0143168
-0.0228747 0.385547 0.922404 0.0430578
-0.113307 0.207965 0.971551 0.0218248
-0.109851 0.229804 0.967017 0.0279835
-0.107271 0.21896 0.969819 0.0314252
-0.0992774 0.245224 0.96437 0.0165921
-0.106683 0.228266 0.967736 0.0297589
-0.096965 0.257508 0.961399 0.0124176
-0.0932094 0.274132 0.957164 0
-0.0861751 0.304702 0.948541 0.0112285
-0.0870169 0.316588 0.944564 0.0132104
-0.0733021 0.369223 0.926446 0.0185321
-0.0685847 0.33929 0.938178 0.0261915
-0.0659814 0.333005 0.940614 0.024774
-0.0586267 0.333252 0.941013 0.0121711
-0.0603187 0.328754 0.942487 0.00353438
-0.0635913 0.327761 0.942618 0.0118911
-0.0691077 0.336983 0.938971 0.0286517
-0.0674981 0.356311 0.931926 0.0208017
-0.0578967 0.389774 0.919089 0.00488765
-0.0513356 0.40264 0.913918 0.000124407
-0.0250648 0.373138 0.927437 0
-0.0234371 0.36288 0.931541 0
-0.0270769 0.26986 0.962519 0
-0.0311778 0.254292 0.966625 0.00927274
-0.0315511 0.234424 0.971622 0.00362662
-0.0302837 0.232987 0.972008 0
-0.0280921 0.217867 0.975574 0.00358898
-0.024302 0.373892 0.927154 0.0338991
-0.0205571 0.313618 0.949327 0.0088187
-0.0209569 0.301707 0.95317 0.00725214
-0.0187457 0.253686 0.967105 0
-0.0196007 0.272619 0.961922 0.00228854
-0.0052426 0.303534 0.952806 0.00484408
-0.00278287 0.352984 0.935625 0.0171541
-0.00732515 0.418978 0.907967 0.02805
-0.00182619 0.403551 0.914955 0.0104565
-0.00463219 0.372958 0.927837 0
0.00687751 0.344754 0.938668 0.015246
0.00642343 0.328872 0.944353 0.0130064
0.00761603 0.321556 0.94686 0.0230296
0.00718065 0.327762 0.944733 0.0223011
0.00717607 0.32621 0.94527 0.0122982
0.00368237 0.317322 0.948311 0.0335542
0.00221931 0.318175 0.948029 0.0225479
-0.00103189 0.302034 0.953297 0.0417112
-0.000383764 0.347244 0.937775 0.0324524
-0.000686299 0.372722 0.927943 0.0389221
-0.00301554 0.37622 0.926525 0.0411074
-0.0028642 0.36282 0.931855 0.0418637
-0.00510309 0.372506 0.928016 0.0370096
-0.00303107 0.374063 0.927398 0.021284
-0.113709 0.229457 0.966654 0.0265938
-0.110009 0.216518 0.970061 0.0343674
-0.0988429 0.227856 0.968665 0.0211218
-0.110877 0.248249 0.96233 0.0379837
-0.098806 0.240464 0.965616 0.0147377
-0.0970034 0.275569 0.956374 0.00927753
-0.0852672 0.308592 0.947365 0.00832216
-0.0831932 0.315162 0.945384 0
-0.0759172 0.365188 0.927833 0.0167644
-0.0713547 0.360104 0.930179 0.0357983
-0.0681832 0.359411 0.930685 0.0278328
-0.0686915 0.370603 0.926248 0.020684
-0.0607331 0.374677 0.925164 0.00732879
-0.0503139 0.396278 0.916751 0
-0.0479339 0.394546 0.917625 0
-0.0397617 0.436925 0.898619 0
-0.0402594 0.395099 0.917756 0.00261336
-0.0410979 0.35029 0.935739 0.00293979
-0.0340449 0.346232 0.937531 0.0220042
-0.0254135 0.366283 0.930156 0
-0.0257496 0.346489 0.937701 0
-0.0252962 0.318002 0.947753 0
-0.0268838 0.275697 0.960869 0
-0.0281386 0.257349 0.965909 0
-0.0281402 0.315509 0.948505 0
-0.028488 0.312465 0.949502 0
-0.0294271 0.292923 0.955683 0
-0.0258352 0.304143 0.952276 0
-0.0252951 0.310145 0.950353 0.00759487
-0.0295126 0.287838 0.957224 0.0049642
-0.0274669 0.356853 0.933757 0.0191816
-0.0166107 0.283625 0.958791 0
-0.0175069 0.272634 0.961959 0
-0.0188409 0.305008 0.952164 0
-0.0111409 0.333098 0.942826 0
-0.00643453 0.358961 0.93333 0
-0.00398474 0.365971 0.930618 0
9.19346e-05 0.368541 0.929612 0
-0.00235932 0.37304 0.927812 0
-0.00687626 0.31832 0.947958 0.012562
-0.00632939 0.347709 0.937581 0.0076909
-0.00182607 0.357646 0.933855 0.00631217
-0.00231951 0.37271 0.927945 0.0211171
-0.00437454 0.350676 0.936487 0.0312163
-0.00242237 0.386132 0.92244 0.0154775
-0.00145291 0.380525 0.92477 0.00259286
-0.000986097 0.393112 0.91949 0.00494477
-0.00228392 0.397618 0.917548 0.00521184
-0.00527199 0.408505 0.912741 0.00151898
-0.00328784 0.372299 0.928107 0.0431261
-0.00199703 0.410242 0.911974 0.0429659
-0.00298399 0.391772 0.920057 0.0509169
-0.0033867 0.383194 0.923662 0.0297435
0.00292871 0.360078 0.932918 0.0230951
0.00108318 0.367095 0.930183 0.0270154
-0.00305914 0.318428 0.947942 0.0489964
-0.00281139 0.331162 0.94357 0.048461
-0.0456542 0.390687 0.919391 0.00023305
-0.0489312 0.424528 0.904092 0
-0.0461195 0.427839 0.902678 0
-0.0393407 0.443073 0.895622 0
-0.0375705 0.39294 0.918796 0
-0.0372408 0.369061 0.928659 0.00368127
-0.0374867 0.35649 0.933547 0
-0.0359265 0.385655 0.921943 0.018816
-0.0326221 0.379415 0.924652 0.00398646
-0.0327989 0.368529 0.929037 0.00154356
-0.0255915 0.321251 0.946648 0
-0.0273301 0.315263 0.948611 0
-0.0289008 0.300176 0.953446 0.00731432
-0.000666745 0.385544 0.922689 0
-0.00355958 0.407194 0.913335 0.0199294
-0.00591103 0.394076 0.919059 0.0423772
-0.0396936 0.368362 0.928835 0.0014423
-0.0776928 -0.443708 0.892797 0.0273711
-0.0791513 -0.46523 0.881644 0.02691
-0.0766377 -0.463409 0.882824 0.0312129
-0.0671621 -0.417583 0.906154 0.0234432
-0.0629924 -0.426645 0.902223 0.0271659
-0.0618597 -0.412591 0.908813 0.0283453
-0.0565063 -0.381001 0.922846 0.031754
-0.0475068 -0.304517 0.951322 0.0122163
-0.0464294 -0.272987 0.960897 0.0119375
-0.0204275 -0.439545 0.897988 0.00428403
-0.00782123 -0.39893 0.916948 0
7.71175e-05 -0.387808 0.92174 0
-0.000103636 -0.369747 0.929133 0
0.00332057 -0.324495 0.945882 0.0165455
0.00978191 -0.38267 0.923834 0.0155394
-0.0780226 -0.405711 0.910665 0.0260673
-0.0599573 -0.374229 0.925396 0.020599
-0.0422608 -0.229483 0.972395 0
-0.0274785 -0.348119 0.937047 0
-0.023659 -0.396128 0.91789 5.12769e-05
-0.0213594 -0.412135 0.910872 0
-0.017244 -0.428698 0.903283 0
-0.0122654 -0.415829 0.90936 0
0.0181268 -0.466623 0.884271 0.0201307
0.0318075 -0.463492 0.88553 0.0118782
-0.0944458 -0.417367 0.903817 0.0199878
-0.0902276 -0.398985 0.912507 0.0313518
-0.0269469 -0.380033 0.92458 0
0.0300061 -0.441344 0.896836 0.0138546
0.0416318 -0.45909 0.887414 0.0394644
0.0442335 -0.440219 0.8968 0.0337026
0.0458151 -0.428384 0.902435 0.0276843
0.0495283 -0.421775 0.905347 0.0263057
0.0514785 -0.437057 0.89796 0.0295741
0.0581615 -0.355961 0.932689 0.019142
-0.111907 -0.432961 0.894439 0.00875616
-0.103611 -0.422434 0.900452 0.00906565
-0.103375 -0.425684 0.898948 0.0310534
-0.098331 -0.430482 0.897227 0.0235148
0.0434651 -0.433859 0.899932 0.0388777
0.0437243 -0.440685 0.896596 0.0344733
0.0655583 -0.357559 0.931587 0.0293137
0.066762 -0.359207 0.930867 0.0240061
0.070841 -0.366361 0.927772 0.024473
0.0678282 -0.322014 0.944302 0.0209676
0.0671964 -0.305985 0.949662 0.0212997
0.0794907 -0.391047 0.916931 0.0326359
-0.111114 -0.265246 0.957757 0
-0.0979273 -0.29343 0.950952 0.00234242
-0.0981643 -0.313105 0.944632 0.000911824
-0.101528 -0.363698 0.925968 0.00833058
-0.104045 -0.394634 0.912929 0.0070536
-0.105627 -0.404277 0.908517 0.00501129
0.0833121 -0.392694 0.915888 0.0375545
0.079898 -0.344678 0.935315 0.0314729
0.107751 -0.471914 0.875035 0.0332487
-0.103172 -0.242302 0.9647 0
-0.088889 -0.22466 0.970374 0.00205131
-0.0919629 -0.249254 0.964062 0.00207495
-0.096745 -0.276465 0.956142 0
-0.0940238 -0.277955 0.955981 0
-0.0910352 -0.25565 0.962474 0
-0.0972226 -0.304546 0.947523 0.00951319
0.0960699 -0.406056 0.908785 0.0389079
0.103978 -0.453442 0.8852 0.0298471
0.096774 -0.417342 0.903582 0.0209316
-0.0998702 -0.229033 0.968282 0
-0.0818965 -0.186231 0.979087 0
-0.0754807 -0.158533 0.984464 0
-0.0844208 -0.189228 0.978297 0
0.0978345 -0.425137 0.899826 0.0246192
0.0992715 -0.417878 0.903063 0.0205296
0.102631 -0.418376 0.902457 0.0158601
-0.0824077 -0.181264 0.979976 0
-0.0780391 -0.173427 0.98175 0
-0.0773107 -0.157059 0.984559 0
0.110392 -0.447238 0.887577 0.027554
0.107493 -0.415974 0.903001 0.0200682
0.107361 -0.385646 0.916379 0.0149325
0.10747 -0.369794 0.922877 0.0138606
0.105872 -0.325652 0.939543 0.0362167
0.12717 -0.379366 0.916466 0.0486623
-0.0890767 -0.182517 0.979159 0
-0.0902174 -0.189752 0.977678 0
-0.0786791 -0.161102 0.983796 0
-0.0836703 -0.187494 0.978696 0
0.105511 -0.388151 0.915536 0.0206519
0.126217 -0.367947 0.921241 0.0479891
0.134328 -0.399224 0.90696 0.0474862
0.138775 -0.400034 0.905933 0.0361413
0.144204 -0.425388 0.893449 0.0395518
-0.105047 -0.252102 0.961982 0
-0.0941268 -0.206556 0.973897 0
-0.0933753 -0.20133 0.975063 0
-0.0837468 -0.160115 0.983539 0
0.125203 -0.37191 0.919787 0.0497391
0.131022 -0.36453 0.921928 0.0391736
0.131865 -0.349725 0.927526 0.0358819
-0.158079 -0.382354 0.910394 0
-0.13475 -0.325839 0.935773 0
-0.137557 -0.339428 0.93052 0
-0.13183 -0.337611 0.932008 0
0.123138 -0.287158 0.949935 0.0192302
0.125931 -0.314557 0.940848 0.0165478
0.127861 -0.329382 0.935499 0.00803407
0.129995 -0.331135 0.934586 0.00603244
0.16441 -0.45863 0.873286 0.0367654
-0.18911 -0.418954 0.888096 0.0256767
-0.186667 -0.427162 0.884696 0.0238561
-0.173215 -0.389213 0.904715 0.0135073
-0.171597 -0.388621 0.905278 0.00592874
-0.173842 -0.417279 0.891996 0.0124646
0.124078 -0.301161 0.945466 0
0.13337 -0.33903 0.931274 0.0102145
0.152761 -0.392894 0.906807 0.0309762
0.156547 -0.422896 0.892554 0.0312974
-0.204174 -0.45715 0.865636 0.0311054
0.126953 -0.318083 0.939524 0.00806512
0.13788 -0.333877 0.932478 0.0106552
0.150572 -0.387608 0.909444 0.0310524
-0.191492 -0.426643 0.883915 0.02025
0.135426 -0.318278 0.938274 0.00604031
-0.168475 -0.364114 0.91599 0.0101005
-0.201345 -0.451006 0.869514 0.027018
0.131778 -0.288649 0.948323 0
0.137866 -0.321734 0.936739 0
0.145437 -0.351356 0.924877 0.010893
-0.159218 -0.342863 0.925794 0
-0.155681 -0.34346 0.926174 0
-0.172707 -0.378796 0.909223 0.01236
0.145524 -0.348981 0.925762 0.00818442
0.145868 -0.34668 0.926572 0.00997383
0.16295 -0.401813 0.901107 0.020605
0.173221 -0.399682 0.900138 0.0139441
-0.149647 -0.314168 0.937499 0
-0.157993 -0.341104 0.926653 0
0.164251 -0.355742 0.920038 0
0.174667 -0.357471 0.917445 0
0.170829 -0.341332 0.924289 0
-0.146284 -0.304889 0.941086 0
0.168333 -0.332371 0.928005 0
0.177945 -0.355864 0.91744 0.00159045
0.172479 -0.317441 0.93246 0.000186957
0.178599 -0.324184 0.928982 0.00887555
0.174713 -0.303722 0.936605 0.00521608
-0.166727 -0.281372 0.945004 0.00203251
-0.16703 -0.299319 0.93942 0.00177196
-0.159317 -0.301022 0.940215 0
-0.150775 -0.29123 0.944697 0.000531548
-0.184267 -0.301402 0.935523 0.0082871
-0.198282 -0.339945 0.919305 0.0130295
0.200324 -0.344395 0.917204 0
-0.176595 -0.24865 0.952359 0.00193493
-0.17573 -0.257979 0.950034 0.00118332
-0.183741 -0.278875 0.942586 0.01002
-0.195784 -0.32257 0.926076 0.0152565
0.196249 -0.342125 0.918932 0
0.196889 -0.345748 0.917439 0
0.201871 -0.359948 0.910871 0.00841928
-0.168198 -0.227017 0.959256 0
-0.191693 -0.279348 0.94086 0.00767135
-0.160172 -0.210385 0.964408 0
-0.163728 -0.215352 0.962713 0
0.196061 -0.318321 0.927487 0
-0.149148 -0.18085 0.972136 0
-0.158088 -0.206177 0.96566 0
0.198361 -0.313641 0.928592 0
-0.151199 -0.182259 0.971556 0
-0.133006 -0.144027 0.980595 0
-0.153903 -0.178222 0.97188 0
-0.165053 -0.203375 0.965089 0
0.192727 -0.276677 0.941438 0.00664476
0.184926 -0.247489 0.951079 0
-0.183255 -0.232769 0.955111 0
-0.180714 -0.225526 0.95733 0
0.190324 -0.263826 0.945607 0
0.18695 -0.242316 0.952015 0
-0.206398 -0.273558 0.93945 0.00255266
0.199144 -0.262737 0.944093 0
0.196489 -0.240367 0.950587 0
0.196302 -0.228799 0.953476 0
0.184161 -0.188722 0.964608 0
0.1888 -0.197631 0.961923 0
-0.235814 -0.322157 0.916846 0.0157839
0.182621 -0.186464 0.96534 0
0.199913 -0.216609 0.955571 0
0.203665 -0.218326 0.954387 0
0.213589 -0.242168 0.946432 0
-0.249574 -0.333351 0.90917 0.023607
-0.229732 -0.314609 0.921002 0.0116393
0.209231 -0.227936 0.95093 0
0.204521 -0.221486 0.953475 0
-0.249226 -0.328429 0.911055 0.0245811
-0.237056 -0.318401 0.917837 0.0179822
0.206573 -0.221987 0.952916 0
0.212799 -0.232751 0.94897 0
0.222349 -0.252724 0.941643 0
-0.280218 -0.367195 0.88693 0.0307342
-0.256792 -0.345608 0.902559 0.0238375
0.221824 -0.246405 0.94344 0
0.233535 -0.280699 0.930951 0
0.233328 -0.276186 0.932352 0
-0.277416 -0.355343 0.892621 0.0220402
0.248087 -0.31285 0.91683 0
0.276053 -0.356575 0.892552 0.00531818
-0.274662 -0.315874 0.908176 0.0172447
-0.270268 -0.331751 0.903823 0.0132065
-0.27386 -0.339317 0.899925 0.0211533
-0.28987 -0.362243 0.885864 0.0306828
0.247357 -0.309398 0.918198 0
0.264186 -0.33646 0.903881 0.000500293
0.263061 -0.325024 0.908382 0
-0.265215 -0.27164 0.925134 0.0145873
-0.255589 -0.277087 0.926227 0.0130529
-0.259587 -0.28472 0.922794 0.0139411
0.250731 -0.29943 0.920585 0
-0.237241 -0.211556 0.948135 0
-0.246822 -0.222322 0.943213 0.00851599
-0.245978 -0.229741 0.941655 0.0145731
-0.221338 -0.177703 0.95887 0
-0.22241 -0.186411 0.956966 0
-0.238745 -0.217153 0.946491 0
0.254886 -0.302059 0.918582 0
-0.243467 -0.207145 0.947531 0
-0.232634 -0.192426 0.953338 0
0.253835 -0.29857 0.920013 0
-0.223932 -0.172527 0.959213 0
0.2352 -0.246981 0.940043 0
-0.217668 -0.156467 0.9634 0
-0.219367 -0.154183 0.963382 0
-0.219302 -0.165654 0.961491 0
0.249492 -0.267248 0.93077 0
0.24261 -0.248708 0.937702 0
-0.223645 -0.149017 0.963212 0
-0.218571 -0.148744 0.964418 0
0.242049 -0.236105 0.941099 0
0.244618 -0.241033 0.939183 0
0.236041 -0.200942 0.95074 0
-0.217789 -0.133196 0.966864 0
-0.222639 -0.139841 0.964819 0
0.22628 -0.177445 0.957763 0
0.24766 -0.205482 0.946806 0
-0.218375 -0.142968 0.965336 0
-0.233039 -0.167225 0.957981 0
-0.224918 -0.14787 0.963092 0
-0.22298 -0.150946 0.963066 0
0.235484 -0.160881 0.95847 0
-0.209282 -0.113192 0.971282 0
-0.21399 -0.131363 0.967963 0
0.249023 -0.163379 0.954618 0
-0.209748 -0.10326 0.972288 0
-0.216047 -0.104651 0.970758 0
-0.200986 -0.081521 0.976196 0
0.317807 -0.248082 0.915125 0.0192572
-0.212496 -0.0891126 0.97309 0
0.316658 -0.24924 0.915209 0.0172829
-0.231172 -0.116777 0.965879 0
-0.229372 -0.0985175 0.96834 0
0.314752 -0.243658 0.917367 0.00658338
-0.232817 -0.0958581 0.967785 0
0.307283 -0.231628 0.922998 0.00772523
0.302986 -0.218479 0.927613 0.00524942
-0.234084 -0.0920614 0.967848 0
0.30273 -0.213085 0.928951 0.00614517
-0.263294 -0.122952 0.956849 0
-0.25241 -0.111489 0.961176 0
-0.236043 -0.0937057 0.967214 0
0.294059 -0.188947 0.936925 0
-0.270606 -0.127283 0.954239 0
0.304029 -0.198708 0.931709 0
-0.266608 -0.116299 0.956762 0
-0.265144 -0.116387 0.957159 0
0.306892 -0.198944 0.930719 0
0.304531 -0.186875 0.933991 0
-0.31595 -0.152515 0.936437 0.00400963
-0.292153 -0.136198 0.946624 0
-0.277307 -0.129921 0.951957 0
0.297663 -0.181288 0.9373 0.00287318
0.292946 -0.167246 0.941388 0
-0.319595 -0.142545 0.936771 0.0105151
-0.318157 -0.152018 0.935771 0.00496232
-0.286463 -0.117776 0.950825 0
0.309053 -0.187357 0.932408 0.0226012
0.307802 -0.183518 0.933584 0.0205243
-0.319662 -0.135333 0.937817 0.0075113
-0.310708 -0.131873 0.941313 0.0067298
0.337458 -0.215074 0.916442 0.040641
-0.301629 -0.0992355 0.948247 0
-0.300812 -0.102078 0.948205 0
-0.308532 -0.12047 0.943555 0.00132384
0.358637 -0.245069 0.900733 0.0507343
-0.307254 -0.12356 0.943572 0
0.341229 -0.215781 0.914878 0.0501293
0.365047 -0.239326 0.899702 0.0573453
-0.323292 -0.136217 0.936444 0
-0.307983 -0.124779 0.943174 0
0.351628 -0.217007 0.91064 0.0512423
0.367339 -0.228276 0.901638 0.056351
-0.336403 -0.14477 0.930524 0
-0.326632 -0.137892 0.935039 0
0.357074 -0.225156 0.906533 0.0570907
0.370419 -0.231307 0.899604 0.057411
-0.333246 -0.128708 0.934013 0
0.374275 -0.23261 0.89767 0.057583
-0.356135 -0.157234 0.921111 0.00549576
0.335774 -0.182653 0.924064 0.0448771
-0.354858 -0.165738 0.920112 0
0.350387 -0.202763 0.914394 0.0532658
0.335431 -0.185181 0.923685 0.0412894
0.342436 -0.186452 0.920855 0.0431006
0.309142 -0.14481 0.939926 0.0371514
0.31697 -0.141701 0.93779 0.0426477
0.314239 -0.137845 0.939283 0.0422507
0.288354 -0.100389 0.952247 0.0375209
0.302935 -0.117852 0.945696 0.0467091
0.334768 -0.155401 0.929398 0.0527251
0.370751 -0.183401 0.910444 0.0630305
-0.399111 -0.187374 0.897553 0.0147517
0.303783 -0.115135 0.945759 0.056716
0.34793 -0.16061 0.923661 0.0606822
0.377725 -0.186524 0.906936 0.0679864
0.366416 -0.168871 0.914998 0.0614439
-0.408881 -0.190302 0.892525 0.0200854
0.334006 -0.146404 0.931131 0.0549677
0.346982 -0.148264 0.926078 0.0580082
0.340253 -0.126737 0.931754 0.0579893
-0.393912 -0.17812 0.901724 0.0110141
0.317789 -0.125591 0.939807 0.0472157
0.336776 -0.125474 0.933187 0.0584653
0.34504 -0.122642 0.930541 0.0648723
0.382156 -0.159276 0.910268 0.0747058
-0.39995 -0.176886 0.899306 0.0239715
0.337075 -0.116677 0.93422 0.0600521
0.381237 -0.146605 0.912779 0.077868
0.387168 -0.155731 0.908762 0.0688592
0.350291 -0.103162 0.930942 0.0636017
0.380138 -0.142425 0.913898 0.0762741
0.344225 -0.104846 0.933015 0.0663285
-0.4458 -0.180813 0.876681 0.0452769
0.348259 -0.0926358 0.93281 0.0737246
-0.442747 -0.168302 0.88071 0.0472677
0.356665 -0.10368 0.928461 0.0711188
-0.422811 -0.151245 0.893508 0.041122
0.385135 -0.137854 0.912506 0.0764041
-0.404244 -0.130713 0.905263 0.0325583
0.348734 -0.105947 0.931214 0.0522866
-0.397288 -0.11687 0.910222 0.0295011
-0.410294 -0.122593 0.903676 0.0391541
0.307649 -0.0672285 0.949122 0.0171228
-0.404192 -0.124322 0.906186 0.0353048
0.313109 -0.0757223 0.946693 0.0123142
-0.396377 -0.114885 0.910871 0.03153
0.300384 -0.0444429 0.952782 0
-0.377352 -0.101427 0.920499 0.029465
0.305783 -0.0578315 0.950343 0.00257176
-0.388907 -0.112287 0.914408 0.035192
0.312168 -0.0500518 0.948708 0
-0.357291 -0.08945 0.9297 0.0257912
0.301992 -0.0327194 0.952749 0
0.299822 -0.0193201 0.953799 0
-0.362652 -0.0967317 0.926891 0.0260337
-0.338263 -0.0744421 0.938103 0.0160914
0.303749 -0.0249516 0.952425 0
-0.371949 -0.103896 0.92242 0.033952
-0.347593 -0.0861253 0.933682 0.0255169
0.301768 -0.0229382 0.953105 0
-0.338425 -0.0811247 0.93749 0.0190399
-0.338649 -0.0837227 0.937181 0.0182038
0.298236 -0.0141353 0.954388 0
0.306415 -0.0218654 0.951647 0
-0.313592 -0.0552501 0.947949 0
-0.315104 -0.0651227 0.94682 0.00361273
-0.305024 -0.0666925 0.950007 0
-0.307703 -0.0638746 0.949336 0
0.29206 -0.00494351 0.956387 0
0.309298 -0.0269909 0.950582 0
-0.313227 -0.0559409 0.948029 0
-0.306117 -0.0556442 0.950366 0
0.309291 -0.0225118 0.950701 0
0.30926 -0.0217223 0.950729 0
-0.332947 -0.0639461 0.940775 0
-0.323004 -0.0587696 0.944571 0
-0.320581 -0.0491273 0.945946 0
-0.305896 -0.0467523 0.950916 0
0.312982 -0.050269 0.948428 0
0.31291 -0.0326416 0.949222 0
-0.322267 -0.0384552 0.945867 0
-0.319854 -0.0482867 0.946236 0
-0.314466 -0.04917 0.947994 0
0.322601 -0.0553549 0.944915 0
0.317027 -0.0403475 0.947558 0
-0.317053 -0.0284156 0.947982 0
-0.316856 -0.0306507 0.947978 0
-0.31209 -0.0333883 0.949466 0
0.320611 -0.0455848 0.946113 0
-0.302259 -0.0138473 0.953125 0
-0.301281 -0.020154 0.953322 0
0.322076 -0.0306238 0.946218 0
0.330986 -0.0236954 0.943338 0
-0.303024 -0.0111653 0.952917 0
-0.299541 -0.0191577 0.953891 0
0.324571 -0.0246271 0.945541 0
-0.289577 0.0126453 0.957071 0
-0.288519 0.0104496 0.957417 0
-0.28216 0.0103124 0.959312 0
0.31684 -0.00548691 0.948463 0
0.323798 -0.0207249 0.945899 0
-0.298031 0.0095259 0.954509 0
-0.291995 0.0066753 0.956397 0
0.312602 -0.00355489 0.949878 0
0.327698 -0.0134819 0.944686 0
-0.307455 -0.00314209 0.951557 0
-0.310092 -0.00568546 0.950689 0
-0.300687 -0.00303721 0.953718 0
0.326927 -0.027431 0.944651 0
0.32916 -0.0230173 0.943994 0
-0.322374 -0.0205874 0.946389 0
-0.309238 0.0018589 0.950983 0
0.331876 -0.0329895 0.942746 0.000552895
-0.319701 0.0075854 0.947488 0
-0.312855 0.00400092 0.949793 0
-0.312999 0.00974743 0.949704 0
0.327542 -0.0209604 0.944604 0
-0.311158 0.00648128 0.950336 0
-0.311462 0.0138199 0.950158 0
-0.308578 0.0225955 0.950931 0
0.323485 0.000897881 0.946233 0
0.329138 -0.00095846 0.944281 0
-0.308026 0.00967275 0.951329 0
-0.310692 0.00914781 0.950467 0
-0.303461 0.0298495 0.952376 0
0.323968 0.014976 0.94595 0
0.334048 0.01262 0.942471 0
-0.299749 0.0148953 0.953902 0
-0.296454 0.012909 0.95496 0
-0.29093 0.0243992 0.956433 0
0.326248 0.0257237 0.944934 0
0.329686 0.0179812 0.943919 0
-0.306326 0.0209832 0.951695 0
-0.292606 0.0282883 0.955815 0
-0.291171 0.0261686 0.956313 0
0.320502 0.0212009 0.947011 0
0.32057 0.0292094 0.946774 0
-0.3039 0.0347109 0.952071 0
-0.30697 0.0257895 0.95137 0.00314637
-0.299058 0.0277504 0.953832 0
0.321112 0.0236057 0.946747 0
0.318257 0.043623 0.947 0
-0.305131 0.0408575 0.951433 0
-0.321052 0.0350381 0.946413 0.0109588
-0.32069 0.0248477 0.946858 0.0123066
0.313428 0.0412483 0.948716 0
0.312698 0.0537056 0.948333 0.00357103
-0.316522 0.0336286 0.947989 0.0110647
-0.310815 0.0453746 0.949387 0.0115799
0.314661 0.0461376 0.948082 0.00780025
0.320304 0.0563824 0.945635 0.0171051
-0.304148 0.0376927 0.951879 0.00231012
-0.316283 0.0496898 0.947362 0.0192769
0.310923 0.0610539 0.948472 0.0165581
0.319869 0.0615412 0.945461 0.014544
-0.312137 0.0401702 0.949187 0.00829507
-0.30158 0.0637565 0.951307 0.00591219
0.30999 0.0662583 0.948428 0.0229052
0.31674 0.0771728 0.945368 0.0243257
-0.306387 0.0547201 0.950333 0.00526994
-0.323616 0.0458577 0.945077 0.016749
-0.320222 0.0461602 0.946217 0.0101025
0.313201 0.0718141 0.946968 0.0254357
0.327992 0.0611294 0.942701 0.0303582
-0.296442 0.0607651 0.953116 0
-0.304402 0.0491825 0.951273 0.00170511
-0.300871 0.0508989 0.952306 0.00210684
0.298857 0.0717737 0.951595 0.0239804
0.312854 0.0727809 0.947009 0.0365268
0.328271 0.0451975 0.943502 0.0347258
0.331699 0.0558856 0.941729 0.033256
-0.305383 0.0668027 0.949884 0
-0.302217 0.0685587 0.95077 0
-0.296366 0.0640565 0.952924 0
-0.305608 0.0554921 0.950539 0.0115157
0.319135 0.0665466 0.94537 0.045553
0.315889 0.0729939 0.945984 0.0371395
-0.309793 0.0804408 0.947395 0
-0.308295 0.0745136 0.948368 0.00536688
-0.300744 0.0730881 0.9509 0.00485158
-0.299233 0.0521936 0.952752 0.0138126
0.303264 0.0828601 0.949297 0.0346356
0.322217 0.0764545 0.943574 0.0415543
0.336155 0.0520267 0.940369 0.0453129
-0.299972 0.075331 0.950969 0.00299714
-0.292515 0.0741016 0.953385 0.00322227
-0.288181 0.0726979 0.954812 0.00583428
-0.305658 0.0605346 0.950215 0.0196283
0.321101 0.0772951 0.943886 0.0623166
0.326814 0.0587244 0.943262 0.0588887
-0.295277 0.0790857 0.952133 0
-0.289669 0.0683487 0.954683 0
-0.287677 0.0728848 0.95495 0
-0.296236 0.0633295 0.953013 0.0139749
0.327288 0.0641386 0.942745 0.0635345
-0.290211 0.0608921 0.955023 0
-0.281889 0.0588044 0.957643 0.000196055
-0.28115 0.0633821 0.957568 0.00430909
0.326178 0.0603814 0.943378 0.0707154
0.33213 0.0621321 0.941185 0.0763508
-0.284145 0.0693953 0.956267 0
-0.277344 0.0576571 0.959039 0
-0.275586 0.0603561 0.95938 0.00103344
0.325722 0.0624696 0.943399 0.0720864
0.331016 0.0553306 0.942002 0.0723764
-0.269829 0.0765909 0.959857 0
-0.267749 0.0654354 0.961264 0
-0.265263 0.0647904 0.961997 0
0.306712 0.0949904 0.94705 0.057755
0.30806 0.0889835 0.947196 0.0557115
0.321836 0.0835718 0.9431 0.0632096
-0.266907 0.088435 0.959656 0
-0.260679 0.0776105 0.962301 0
-0.253947 0.0843085 0.963537 0
0.308001 0.0987541 0.946247 0.064769
0.308515 0.10132 0.945808 0.0599417
0.314011 0.0992855 0.944214 0.0585129
-0.264574 0.0910604 0.960056 0
-0.253386 0.0945081 0.962738 0
-0.252248 0.0935564 0.96313 0
0.300354 0.109172 0.94756 0.0598203
0.300535 0.104993 0.947974 0.0549979
-0.256761 0.0996801 0.961321 0
-0.255256 0.101542 0.961527 0
-0.255038 0.0875782 0.962957 0
0.293587 0.12115 0.948224 0.0446295
-0.250575 0.100105 0.962908 0
-0.250376 0.0873151 0.964203 0
-0.2492 0.0972019 0.963562 0
-0.243676 0.101283 0.964554 0
0.278307 0.140063 0.950225 0.0299541
0.288133 0.127415 0.949076 0.038117
-0.248803 0.122927 0.960722 0
-0.243318 0.116166 0.962965 0
-0.243079 0.108135 0.96396 0
-0.244155 0.102941 0.964257 0
0.26748 0.149186 0.951944 0.0262538
0.265028 0.147274 0.952927 0.0173206
0.276162 0.13413 0.951706 0.0294029
-0.244406 0.131981 0.960649 0
-0.239384 0.130664 0.962092 0
-0.235837 0.117344 0.964682 0
0.275028 0.137171 0.951601 0.0386075
0.277647 0.13095 0.951716 0.0412805
-0.243076 0.137319 0.960238 0
-0.234527 0.131011 0.963241 0
-0.235653 0.116766 0.964797 0
-0.241305 0.121104 0.962863 0
0.258128 0.137159 0.956325 0.0245552
0.265321 0.129638 0.955405 0.0251162
-0.237954 0.143777 0.960576 0
-0.237709 0.13233 0.96228 0
-0.238929 0.134604 0.961663 0
0.25349 0.138049 0.957437 0.0182015
0.259599 0.136831 0.955974 0.0224679
-0.234785 0.116378 0.965056 0
-0.23632 0.134287 0.962351 0
-0.229835 0.152044 0.96128 0
0.247719 0.149798 0.957181 0.0081528
0.248358 0.157924 0.955708 0
-0.22618 0.155232 0.961637 0
-0.227174 0.159633 0.960682 0
-0.226464 0.14963 0.962458 0
-0.222922 0.147902 0.963551 0
0.243551 0.144382 0.959081 0.0109736
0.248722 0.155163 0.956066 0.00995702
0.250231 0.177539 0.951769 0
-0.226393 0.16508 0.959945 0
-0.226226 0.160534 0.960755 0
-0.224231 0.162365 0.960915 0
-0.226646 0.159752 0.960787 0
-0.224093 0.155432 0.962093 0
0.239617 0.155932 0.958264 0.00393057
0.244363 0.158791 0.956594 0.00792252
-0.223017 0.179939 0.958063 0
-0.227923 0.167467 0.959169 0
-0.227416 0.154715 0.961429 0
-0.227751 0.158733 0.960694 0
-0.219071 0.158504 0.962748 0
-0.219758 0.156762 0.962877 0
0.24476 0.156826 0.956817 0.0168649
-0.228578 0.190909 0.954623 0
-0.228806 0.190568 0.954637 0
-0.220846 0.17768 0.958987 0
-0.219914 0.177681 0.959202 0
-0.223527 0.165276 0.960583 0
-0.218219 0.165043 0.961843 0
0.245019 0.167916 0.954866 0.0169971
-0.225943 0.190326 0.955367 0
-0.225729 0.184807 0.9565 0
-0.220391 0.176715 0.95927 0
-0.221802 0.174278 0.959391 0.00556066
-0.225688 0.173822 0.958567 0.0157971
0.247215 0.167666 0.954344 0.0279498
-0.230875 0.199181 0.952378 0
-0.232989 0.193466 0.953041 0
-0.225752 0.1796 0.957486 0
-0.218688 0.182044 0.958663 0
-0.219621 0.18044 0.958753 0.00160581
-0.218725 0.176849 0.959627 0.00671734
-0.224738 0.166108 0.960157 0.0171596
-0.225399 0.171606 0.959034 0.0171082
0.244516 0.172505 0.954177 0.0187328
-0.231274 0.201009 0.951897 0
-0.228006 0.190191 0.954903 0
-0.222862 0.180073 0.958074 0
-0.217312 0.194265 0.956575 0
-0.223787 0.184608 0.956995 0.0130964
-0.22131 0.186873 0.957131 0.0152789
0.249121 0.176994 0.952162 0.029126
-0.230374 0.186945 0.954976 0
-0.227116 0.200427 0.95302 0
-0.225651 0.200491 0.953354 0
-0.220618 0.207435 0.953047 0
-0.22066 0.207943 0.952926 0.00420611
0.244669 0.180112 0.952731 0.0173983
-0.231733 0.225649 0.946247 0
-0.231934 0.22569 0.946187 0
-0.230608 0.216622 0.948628 0
-0.228111 0.218648 0.948767 0
-0.219482 0.220154 0.950453 0
-0.224891 0.229499 0.946971 0.00900865
0.240979 0.171695 0.955223 0.0116897
-0.239241 0.236909 0.941615 0
-0.23663 0.221567 0.945999 0
-0.227218 0.210687 0.95078 0
-0.225497 0.246442 0.942559 0
-0.219551 0.257649 0.940965 0
-0.223699 0.240211 0.944594 0.00940756
-0.221021 0.245606 0.943836 0.0116279
-0.212388 0.193254 0.957885 0.0118052
0.235702 0.1988 0.951275 0
0.241626 0.200982 0.949328 0
-0.222714 0.257487 0.940266 0
-0.217597 0.254403 0.942301 0
-0.216788 0.23687 0.947046 0.00247073
-0.218105 0.206506 0.953827 0.0128267
-0.21216 0.195619 0.957456 0.0140751
0.237819 0.203255 0.949805 0
-0.215183 0.25536 0.942596 0
-0.207973 0.225887 0.951694 0
-0.212545 0.218762 0.952349 0.0147778
-0.2155 0.203905 0.954978 0.0152243
0.244214 0.225232 0.943202 0
-0.207296 0.221142 0.952956 0.000543075
-0.219971 0.197645 0.955274 0.0178261
0.225848 0.224325 0.947982 0
-0.211177 0.250125 0.944903 0.00125524
-0.21111 0.227202 0.95069 0
-0.211707 0.230583 0.949743 0.0019341
0.229068 0.248073 0.941269 0.0257165
-0.206907 0.242072 0.94794 0
-0.187595 0.241232 0.952164 0.00714889
-0.197139 0.264237 0.944095 0
-0.186831 0.239542 0.95274 0.00897557
-0.182299 0.249053 0.951178 0.012195
-0.161588 0.270463 0.949073 0.00561374
-0.162293 0.263546 0.950897 0.0112656
-0.136961 0.265522 0.954327 0.0116568
-0.133128 0.266529 0.954588 0.00530114
-0.124777 0.269877 0.954776 0.00564983
-0.123374 0.275105 0.953465 0.00328343
0.151692 0.381038 0.912031 0.00862088
0.16593 0.343328 0.924442 0.0459422
0.171974 0.337791 0.925377 0.0494447
0.173512 0.345111 0.922384 0.0520972
0.174242 0.35316 0.919194 0.0504672
0.182819 0.328952 0.926481 0.0602532
0.19268 0.318665 0.928077 0.0681951
0.195843 0.312093 0.929647 0.0630374
0.216771 0.295913 0.930294 0.0304761
0.221276 0.281387 0.933734 0.0426276
0.223244 0.289542 0.930767 0.0389092
0.222357 0.272497 0.93611 0.0344214
0.223778 0.266124 0.937604 0.0237934
-0.18112 0.232801 0.95551 0
-0.184557 0.25985 0.947848 0.0170651
-0.181603 0.255683 0.949551 0.0215235
-0.178863 0.254048 0.950509 0.0170466
-0.176562 0.25587 0.950451 0.0236299
-0.175375 0.254569 0.95102 0.0165837
-0.155339 0.268063 0.950795 0
-0.155531 0.264738 0.951695 0.000773659
-0.137111 0.257326 0.956548 0.0134027
-0.126873 0.245562 0.961042 0.0123734
-0.127843 0.242684 0.961645 0.0070771
-0.122806 0.258385 0.958205 0.00714105
-0.123171 0.254421 0.959218 0.0117393
-0.112405 0.266208 0.957339 0.00132765
0.0673172 0.352136 0.933525 0.0278678
0.0719549 0.372274 0.92533 0.0292793
0.0725952 0.358956 0.930527 0.00912878
0.0779653 0.362872 0.928572 0.00551619
0.129928 0.347031 0.92881 0
0.146215 0.394875 0.907025 0
0.188044 0.329478 0.925248 0.0548826
0.192799 0.298161 0.934842 0.0628353
0.198931 0.291447 0.935674 0.0574159
0.202827 0.270645 0.94107 0.0582242
0.199222 0.265595 0.943276 0.0374197
0.208633 0.28574 0.93532 0.0302722
-0.179606 0.254614 0.950217 0
-0.172516 0.26595 0.948424 0
-0.178139 0.256844 0.949893 0.0259919
-0.173689 0.253557 0.951599 0.0163725
-0.169848 0.237863 0.956333 0.0212087
-0.16223 0.235184 0.958316 0.0132832
-0.151678 0.264987 0.952248 0
-0.148609 0.25769 0.954731 0.000761253
-0.142755 0.260424 0.954882 0.00311688
-0.138976 0.251407 0.957852 0.0220659
-0.13625 0.240532 0.961031 0.0232696
-0.130538 0.249553 0.959522 0.0222139
-0.118409 0.270027 0.955544 0.00656815
-0.120896 0.276106 0.953493 0.00753964
-0.122556 0.267557 0.955716 0.0166088
-0.108604 0.277398 0.954597 0
-0.00155971 0.345594 0.938383 0.0183509
0.0189158 0.416085 0.909129 0
0.0203498 0.412055 0.910932 0
0.019387 0.418748 0.907895 0
0.0211064 0.433353 0.900977 0
0.0572065 0.388303 0.919754 0.0248991
0.0607128 0.372469 0.926057 0.0228653
0.0646303 0.329638 0.941893 0.0256484
0.0715347 0.349762 0.934103 0.0350123
0.0767713 0.386526 0.919078 0.0091467
0.0842129 0.406051 0.909962 0.0192814
0.0836843 0.390871 0.916634 0.0014312
0.0904894 0.389007 0.91678 0
0.096765 0.364309 0.926237 0
0.103053 0.378712 0.919759 0
0.103095 0.390001 0.915025 0.0135368
0.105811 0.350892 0.930419 0
0.108753 0.319487 0.941329 0
0.113121 0.333908 0.935793 0.00456068
0.117588 0.324138 0.938673 0.0129656
0.120934 0.341349 0.932124 0.0087433
-0.175933 0.274741 0.945286 0
-0.171237 0.269826 0.947561 0.00415006
-0.169896 0.258062 0.951073 0.00301954
-0.168091 0.266866 0.948961 0.0081703
-0.161229 0.267861 0.949871 0.00918388
-0.150845 0.272153 0.950357 0
-0.145952 0.250644 0.957014 0
-0.144889 0.24851 0.957732 0.0108874
-0.138026 0.238953 0.961171 0.0152695
-0.119045 0.271601 0.955019 0.0112885
-0.109459 0.288975 0.951059 0.00466816
-0.104924 0.300693 0.947932 0
-0.00263116 0.327527 0.944838 0.0287191
-0.00790176 0.330133 0.943901 0.0490527
-0.00425229 0.348309 0.93737 0.0257486
-0.00353726 0.449157 0.893446 0.00260317
-0.00591763 0.434961 0.90043 0.01131
-5.13537e-05 0.473111 0.881003 0
0.015269 0.447091 0.894358 0
0.0164481 0.434891 0.900333 0
0.0157154 0.397072 0.917653 0
0.0199741 0.402747 0.915093 0
0.0203684 0.422294 0.90623 0
0.0191371 0.426794 0.904146 0
0.0175524 0.426024 0.904542 0
0.0185818 0.435649 0.899925 0.00266519
0.0179572 0.443411 0.896139 0.0305241
0.0188788 0.414487 0.909859 0.0444616
0.0188281 0.439469 0.898061 0.0409559
0.0206793 0.434966 0.900209 0.0419851
0.022287 0.426813 0.904065 0.0406442
0.02718 0.407762 0.912684 0.0180453
0.0333876 0.462915 0.885774 0.0229684
0.0359928 0.463585 0.885321 0.024745
0.0479848 0.455202 0.889094 0.0384359
0.095365 0.380341 0.919916 0.000387586
-0.177235 0.308204 0.934664 0
-0.140234 0.267187 0.953386 0.00463949
-0.110965 0.307971 0.944902 0.00512863
-0.1009 0.299239 0.948828 0
-0.103694 0.278818 0.954729 0.00824198
-0.0753548 0.339096 0.937729 0.00916787
-0.0737609 0.339338 0.937768 0.0224902
-0.070629 0.370694 0.926065 0.0324134
-0.0701666 0.365987 0.927971 0.029343
-0.0594183 0.3604 0.930903 0.0161526
-0.0572326 0.384297 0.921434 0.0105475
-0.00624082 0.354503 0.935034 0.0258128
-0.00922204 0.299055 0.954191 0.0222772
-0.00437896 0.356216 0.934394 0.0100405
-0.000552898 0.367311 0.930098 0.0154261
-0.00349372 0.447571 0.894242 0.0236046
-0.00678593 0.454662 0.890638 0.0139982
-0.00547896 0.46916 0.883096 0.00447183
-0.00491185 0.446829 0.894606 0
-0.00156567 0.451028 0.892508 0.000495655
0.00371644 0.491687 0.870764 0
0.00155618 0.480788 0.876835 0
-0.00347014 0.474803 0.880085 0
-0.0145662 0.405523 0.913969 0.0139401
-0.0139688 0.378593 0.925458 0.0141547
-0.00904419 0.390999 0.920346 0.00733191
-0.00448695 0.409577 0.912265 0
-0.000855811 0.431391 0.902165 0
0.00111419 0.439152 0.898412 0
0.00160823 0.452895 0.891562 0
0.000734984 0.421096 0.907016 0
0.000402599 0.415756 0.909476 0.00409835
0.00186158 0.437809 0.899066 0.0017717
0.000827635 0.456129 0.889913 0.0198548
0.00327014 0.475168 0.879889 0.0105159
0.00362244 0.469108 0.883133 0.00463452
0.00549979 0.444211 0.895905 0.00834246
0.0086035 0.446923 0.894531 0
0.0083663 0.456639 0.889613 0
0.0117701 0.437341 0.899219 0
0.0260493 0.458056 0.888541 0.0355449
-0.103807 0.302515 0.947475 0.00577149
-0.0989749 0.269709 0.957842 0.00724837
-0.10011 0.250945 0.962811 0.00995121
-0.101812 0.266288 0.958501 0.0200982
-0.107928 0.278506 0.954351 0.0247953
-0.0978502 0.316406 0.943564 0.0150468
-0.0972445 0.331631 0.938384 0.0225197
-0.0621174 0.345504 0.936359 0.00357957
-0.0683704 0.348098 0.934962 0
-0.0672085 0.342126 0.937247 0.0145329
-0.0681974 0.372611 0.925478 0.0288296
-0.0627324 0.375591 0.92466 0.0186543
-0.0617317 0.375485 0.92477 0.0243859
-0.0605868 0.361382 0.930447 0.0215093
-0.056562 0.389683 0.91921 0.0113729
-0.028352 0.246129 0.968822 0
-0.0253028 0.250567 0.967769 0
-0.0190711 0.257193 0.966172 0.00849254
-0.0172927 0.251128 0.967799 0.00193432
-0.00697518 0.36934 0.929268 0.0459286
-0.00465288 0.36038 0.932794 0.0184791
-0.00262222 0.353246 0.935527 0.0329615
-0.00555121 0.392907 0.919562 0.050697
-0.00894596 0.409575 0.912233 0.05963
-0.00963141 0.410939 0.911612 0.0565894
-0.0060983 0.410608 0.911791 0.0453424
-0.00356251 0.461418 0.887176 0
-0.0127459 0.439503 0.898151 0
-0.0150298 0.450598 0.8926 0
-0.0151645 0.463664 0.885882 0
-0.0130488 0.462287 0.886634 0
-0.0168633 0.433553 0.90097 0.00805762
-0.0191877 0.387186 0.921802 0.024937
-0.02031 0.393632 0.919044 0.0281565
-0.0163631 0.390313 0.920537 0.0146526
0.00272201 0.453085 0.891463 0.0043155
0.00680137 0.455022 0.890454 0.00433953
0.00606111 0.433824 0.900977 0.0127921
0.00629989 0.447973 0.894025 0.0124433
-0.101038 0.272765 0.95676 0.00261002
-0.100203 0.270926 0.957371 0.0127452
-0.106853 0.289832 0.951094 0.0235078
-0.104087 0.296331 0.949396 0.0283906
-0.0988911 0.333081 0.937698 0.0268413
-0.0887412 0.371298 0.924263 0.02346
-0.0822858 0.357543 0.930265 0.0248152
-0.0748967 0.367252 0.927101 0.0294693
-0.0733043 0.34966 0.934004 0.0306244
-0.0664812 0.333347 0.940457 0.0208094
-0.0674529 0.330395 0.941429 0.0152505
-0.0629773 0.321567 0.94479 0.0105552
-0.0611177 0.372376 0.926068 0.0163099
-0.0611824 0.363464 0.929597 0.0210967
-0.0525264 0.377095 0.924684 0.00412226
-0.0314173 0.251129 0.967443 0.0287686
-0.0324208 0.233999 0.971696 0.0148301
-0.0278937 0.221989 0.97465 0
-0.0275285 0.230973 0.972571 0
-0.0292846 0.255625 0.966332 0
-0.0266045 0.291609 0.956168 0.0198972
-0.020707 0.317387 0.94807 0.0188553
-0.0178259 0.302698 0.95292 0.00569444
-0.020721 0.241723 0.970124 0.000982182
-0.0196792 0.242045 0.970065 0.000967989
-0.0220058 0.240382 0.970429 0.0024275
-0.00745468 0.312726 0.949814 0.0256175
-0.00326471 0.29277 0.956177 0.000154636
-0.00392781 0.335071 0.942185 0.000123898
-0.000386765 0.382675 0.923883 0.00253849
-0.00276442 0.361751 0.932271 0
-0.00449955 0.336371 0.941719 0.0165189
-0.00807008 0.337331 0.941351 0.0181175
-0.00281107 0.398186 0.9173 0
0.00652029 0.27897 0.960278 0.0207084
0.00645806 0.297534 0.954689 0.0241168
0.00507475 0.273284 0.96192 0.032279
0.00754247 0.265269 0.964145 0.0251198
0.0041021 0.309908 0.950758 0.0338103
0.00604164 0.319336 0.947622 0.0284075
7.84517e-05 0.346461 0.938064 0.0239844
-0.00207704 0.332419 0.943129 0.0369906
-0.00272093 0.381622 0.924314 0.0354841
-0.00424356 0.373032 0.927809 0.0340942
-0.00390299 0.382027 0.924143 0.0341483
-0.00474989 0.353039 0.935597 0.032823
-0.00381949 0.304918 0.952371 0.0400163
-0.101695 0.251161 0.962588 0.00901171
-0.097974 0.269619 0.95797 0.00834227
-0.0989457 0.259498 0.960661 0.0171508
-0.094364 0.282898 0.954497 0.00834774
-0.0975489 0.296444 0.950055 0.0255285
-0.0909602 0.344093 0.934519 0.0229608
-0.0725373 0.347623 0.934825 0.0306223
-0.0583422 0.367205 0.928309 0.0134618
-0.0486553 0.391702 0.918805 0
-0.0470577 0.403248 0.91388 0
-0.0466615 0.386936 0.920925 0
-0.0399358 0.375457 0.925979 0
-0.0350182 0.284125 0.958148 0.0237391
-0.0302324 0.290633 0.956357 0.0292073
-0.0286709 0.307876 0.950994 0.0087721
-0.0245116 0.334976 0.941908 0
-0.0255486 0.309159 0.950667 0.00465572
-0.0252641 0.215201 0.976243 0
-0.0307883 0.261741 0.964647 0
-0.0266873 0.296653 0.954612 0
-0.0324648 0.235085 0.971432 0
-0.0256073 0.303298 0.952552 0.00681374
-0.0257545 0.339032 0.940422 0.0249399
-0.0242858 0.321742 0.946516 0.0228681
-0.0235797 0.267586 0.963245 0
-0.0182791 0.289768 0.956922 0.0079179
-0.0135815 0.279847 0.959949 0
-0.00734454 0.302589 0.953093 0
-0.0029869 0.290119 0.956986 0
-0.00396793 0.309986 0.950733 0
-0.00430714 0.315794 0.948818 0
-0.00583382 0.313959 0.949419 0.00884393
-0.00357022 0.344761 0.938684 0.00941382
-0.000756037 0.350164 0.936688 0
-0.00169116 0.353612 0.935391 0.0119883
-0.00476392 0.35194 0.93601 0.0152256
-0.00438239 0.372716 0.927935 0.01363
-0.00320645 0.409118 0.912476 0.00991448
-0.00290223 0.377066 0.926182 0.000969709
-0.00250273 0.367766 0.929915 0.00452413
-0.00294678 0.386505 0.922283 0.00715103
-0.00445745 0.386217 0.922397 0.0165707
-0.00290525 0.382447 0.923973 0.0095638
-0.00304277 0.350566 0.936533 0.0343835
0.00494134 0.338065 0.94111 0.0148463
0.00685259 0.320469 0.947234 0.0120093
0.00495547 0.292438 0.956272 0.0252886
-0.00367267 0.374079 0.92739 0.0296795
-0.000825298 0.368104 0.929784 0.0300599
-0.0446959 0.436361 0.898661 0
-0.0432721 0.421895 0.905611 0
-0.0418819 0.406066 0.912883 0
-0.0385376 0.375433 0.926048 0
-0.0431575 0.350452 0.935586 0.0145818
-0.0366826 0.331343 0.942797 0
-0.0347048 0.348994 0.936482 0.0281248
-0.0336428 0.315753 0.948245 0.0251855
-0.0374207 0.340109 0.939641 0.0207138
-0.0322905 0.35375 0.934783 0.00139993
-0.0294997 0.292237 0.955891 0.000205812
-0.0317573 0.286533 0.957544 0
-0.0274357 0.306185 0.951577 0
-0.028265 0.269951 0.962459 0.00218106
-0.0297441 0.280699 0.959335 0.0117906
-0.0299574 0.268564 0.962796 0
-0.0054359 0.339905 0.940444 0
-0.000720465 0.334802 0.942288 0
-0.00383335 0.341921 0.939721 0
-0.00161343 0.395277 0.918561 0.018412
-0.000647972 0.366319 0.930489 0.0347828
-0.00120098 0.331483 0.943461 0.0382735
-0.00767045 0.361691 0.932267 0.0541242
-0.000817749 -0.386894 0.922124 0.00217853
-0.00256136 -0.388136 0.921598 0.012649
0.00149878 -0.352195 0.935925 0.020583
-0.078487 -0.436077 0.89648 0.0316578
-0.0768892 -0.431641 0.898763 0.0266863
-0.0743802 -0.442132 0.893861 0.0260249
-0.0689971 -0.393285 0.916824 0.0287123
-0.0598245 -0.360663 0.930776 0.024868
-0.0590954 -0.363272 0.929807 0.0274918
-0.0523548 -0.342174 0.938177 0.0217994
-0.045243 -0.302163 0.952182 0.0143288
-0.0424616 -0.244303 0.968769 0
-0.0205825 -0.400043 0.916265 0
-0.0204914 -0.414396 0.909866 0
-0.0132132 -0.42873 0.903336 0
-0.00860443 -0.403284 0.915035 0
0.0168978 -0.479741 0.877248 0.0334965
-0.0904723 -0.390534 0.916132 0.0209482
-0.0800546 -0.333138 0.939473 0.0237399
-0.0763859 -0.388997 0.918067 0.0205163
-0.0747389 -0.394128 0.916012 0.0209439
-0.0415105 -0.252661 0.966664 0
-0.029062 -0.343758 0.938608 0.000966137
-0.0251248 -0.376468 0.926089 0
-0.0220031 -0.371791 0.928056 0
-0.0959077 -0.383882 0.918388 0.0124319
-0.093183 -0.375326 0.922197 0.0171674
-0.0941566 -0.394846 0.91391 0.0234955
-0.0855952 -0.359835 0.929082 0.0138793
0.0265794 -0.416933 0.908549 0.0121722
0.0401378 -0.435064 0.899504 0.0451873
0.0443005 -0.410193 0.910922 0.027271
0.0450131 -0.392185 0.918784 0.0218941
0.0487778 -0.388046 0.920348 0.025898
0.050026 -0.34008 0.939065 0.0216421
0.0551954 -0.327548 0.943221 0.0154365
0.0668166 -0.333162 0.940499 0.0139656
0.0685399 -0.341462 0.937393 0.0198196
-0.096722 -0.369018 0.924376 0
-0.105709 -0.397583 0.911457 0
-0.102334 -0.392692 0.913959 0
-0.0997268 -0.391223 0.914877 0
-0.0889744 -0.344744 0.93447 0
-0.0849874 -0.348781 0.933343 0.0135472
-0.078976 -0.329774 0.940751 0
0.0378088 -0.401688 0.914996 0.0368855
0.0436376 -0.433278 0.900203 0.0308914
0.047028 -0.358167 0.932473 0.0154612
0.0685574 -0.321811 0.944318 0.0284565
0.071966 -0.334678 0.939581 0.0293352
0.0792364 -0.395427 0.915073 0.0363951
-0.0829149 -0.186568 0.978937 0
-0.0856973 -0.217619 0.972264 0
-0.090025 -0.256215 0.962419 0
-0.0982923 -0.296173 0.950063 0.0132379
-0.100287 -0.339708 0.935169 0.00475439
-0.0941416 -0.352142 0.9312 0
-0.0993211 -0.375092 0.921651 0
0.0823359 -0.387138 0.918338 0.0349816
-0.0964208 -0.229811 0.968447 0
-0.0744915 -0.135446 0.98798 0
-0.0811598 -0.164558 0.983023 0
-0.0829612 -0.189923 0.978288 0
-0.0860256 -0.241529 0.966573 0
-0.0901057 -0.248998 0.964303 0
0.0970201 -0.412552 0.905753 0.0328964
0.0982022 -0.425946 0.899403 0.0266909
0.10315 -0.449917 0.887094 0.0285906
-0.0740469 -0.135453 0.988013 0
-0.078316 -0.147576 0.985945 0
0.0947304 -0.409035 0.907588 0.0273599
0.0997687 -0.426004 0.899203 0.0290311
0.107419 -0.443979 0.889575 0.0295127
0.102114 -0.385271 0.917136 0.0192541
0.0970842 -0.277662 0.955761 0.0101594
-0.0826403 -0.180973 0.98001 0
-0.0809003 -0.16479 0.983005 0
0.100612 -0.410837 0.90614 0.0250694
0.0947752 -0.328245 0.939826 0.00296698
0.0953262 -0.317136 0.943577 0.00773847
0.0967773 -0.307168 0.946722 0.0123845
0.0987048 -0.289892 0.951956 0.014534
-0.085419 -0.162288 0.983039 0
-0.0893312 -0.17337 0.980797 0
-0.0816742 -0.160277 0.983687 0
0.118904 -0.32762 0.937298 0.0453972
0.123499 -0.317784 0.940086 0.0362246
0.127976 -0.351997 0.927211 0.0365303
0.127289 -0.344811 0.930001 0.031329
-0.155958 -0.379626 0.9119 0
-0.144007 -0.345064 0.927466 0
-0.130818 -0.322536 0.937474 0
-0.136372 -0.355967 0.924495 0
-0.106326 -0.248785 0.962705 0
-0.0857078 -0.163039 0.98289 0
-0.0859877 -0.169535 0.981766 0
-0.0906124 -0.186494 0.978269 0
0.116948 -0.291289 0.94946 0.0197688
0.114717 -0.290982 0.949826 0.0234248
0.114161 -0.26382 0.957792 0.0166826
0.118343 -0.283731 0.951573 0.00853781
0.125185 -0.310376 0.942335 0
-0.178788 -0.409986 0.894397 0.0174803
-0.185058 -0.415979 0.890346 0.025407
-0.181652 -0.423191 0.887644 0.0179961
-0.149617 -0.356033 0.922418 0.000417562
-0.136927 -0.325136 0.935702 0
-0.132383 -0.311014 0.94114 0
-0.131484 -0.309933 0.941623 0
-0.13465 -0.334477 0.932735 0
-0.109083 -0.244455 0.963505 0
-0.0924952 -0.184841 0.978406 0
-0.0885209 -0.171843 0.981139 0
-0.0910265 -0.181663 0.979139 0
0.118868 -0.274643 0.954171 0
0.119859 -0.288565 0.949928 0
-0.176805 -0.388895 0.904157 0.0212497
-0.177343 -0.392368 0.90255 0.021717
-0.173791 -0.390359 0.904111 0.0175881
0.122807 -0.285387 0.950512 0
0.126291 -0.286566 0.9497 0
-0.20942 -0.463873 0.860793 0.0362286
0.128776 -0.302347 0.944459 0.000543443
-0.198603 -0.438504 0.876511 0.0216909
-0.197362 -0.439452 0.876316 0.0304439
0.130106 -0.304887 0.94346 0
0.133931 -0.317324 0.938812 0
-0.195849 -0.431994 0.880355 0.0226265
0.134205 -0.314151 0.939839 0
0.142416 -0.346954 0.927006 0.00462258
0.154214 -0.354887 0.922103 0.0104273
0.157834 -0.345923 0.924892 0.00779521
-0.164342 -0.365823 0.91606 0
-0.163757 -0.361547 0.91786 0
-0.166918 -0.365289 0.915807 0.00465319
0.138655 -0.321117 0.936835 0
0.133381 -0.278259 0.9512 0
0.141261 -0.297798 0.94412 0
0.153238 -0.318464 0.935467 0
0.162193 -0.345243 0.924392 0
-0.153129 -0.317105 0.935947 0
-0.154028 -0.328508 0.931857 6.05881e-05
-0.164338 -0.362502 0.91738 0
-0.167547 -0.374468 0.911977 0.000712502
0.133255 -0.266901 0.954467 0
0.138897 -0.284667 0.948511 0
0.141427 -0.291456 0.946072 0
0.167655 -0.30857 0.93631 0
0.169088 -0.307981 0.936246 0
0.169711 -0.310713 0.93523 0.00198315
-0.164741 -0.32453 0.931419 0.00785832
-0.171106 -0.343228 0.923535 0.015642
0.165976 -0.282065 0.944929 0
0.158518 -0.24778 0.95576 0
0.164379 -0.255256 0.952798 0
-0.195899 -0.345561 0.917721 0.0153374
-0.190417 -0.347717 0.91806 0.0108706
-0.182285 -0.345765 0.920445 0.00611349
-0.176552 -0.351344 0.919449 0.00976983
-0.20988 -0.357058 0.910198 0.0196666
-0.205013 -0.361408 0.90959 0.0193921
-0.211266 -0.379443 0.900772 0.0190177
0.192195 -0.326606 0.925413 0
0.191845 -0.330001 0.924281 0
-0.182301 -0.260221 0.948183 0.00304188
-0.196012 -0.2916 0.936242 0.0104893
-0.191305 -0.291511 0.937243 0.00845065
-0.199275 -0.320147 0.926172 0.0135941
-0.201583 -0.339012 0.918931 0.0104642
0.192134 -0.337776 0.921408 0
0.199107 -0.352783 0.914276 0.00327891
0.198255 -0.34792 0.916322 0.00024734
-0.17907 -0.24781 0.952116 0
-0.180666 -0.254526 0.95004 0.00299279
0.193916 -0.338295 0.920844 0
0.201077 -0.341301 0.918195 0
-0.164263 -0.217077 0.962234 0
-0.181442 -0.249327 0.95127 0
0.197205 -0.319429 0.926863 0
0.199687 -0.33211 0.921861 0
0.192117 -0.311092 0.930759 0
-0.134506 -0.149278 0.979604 0
-0.155354 -0.191134 0.969192 0
0.195101 -0.308236 0.931089 0
0.193593 -0.314989 0.929141 0
0.193533 -0.322992 0.926402 0.00120772
0.204454 -0.333401 0.920349 0.000897998
-0.152495 -0.185685 0.970704 0
-0.146019 -0.176228 0.973459 0
0.193427 -0.315991 0.928835 0
0.199354 -0.32469 0.924572 0.00209798
0.21404 -0.35282 0.910881 0.0189784
-0.16606 -0.203813 0.964823 0
-0.165679 -0.206936 0.964224 0
0.190854 -0.298722 0.935062 0
0.201319 -0.323742 0.924479 0.00569577
0.20255 -0.316251 0.9268 0.00530366
0.194279 -0.271501 0.942626 0
0.19073 -0.253502 0.948345 0
-0.204037 -0.270932 0.940726 0.00501039
-0.192146 -0.246687 0.949855 0.00958112
-0.172381 -0.212375 0.961864 0
0.196813 -0.255753 0.946496 0
-0.215758 -0.292147 0.931718 0.0119055
0.193608 -0.217979 0.956557 0
0.18183 -0.184554 0.965856 0
-0.228508 -0.311228 0.922454 0.0148626
0.188649 -0.197079 0.962066 0
0.183252 -0.186282 0.965255 0
0.196425 -0.200875 0.959722 0
