-0.174677 0.0833363 0.981093 0
-0.243703 0.0859832 0.966031 0
-0.179459 0.0839691 0.980175 0
-0.170102 0.082706 0.98195 0
-0.179895 0.0832737 0.980155 0
-0.144755 0.0823414 0.986035 0.00264373
-0.172628 0.0836617 0.981428 0
-0.180692 0.0832495 0.98001 0
-0.183426 0.0834916 0.979482 0
-0.181477 0.0834228 0.97985 0
-0.189441 0.0836599 0.978322 0
-0.16638 0.082757 0.982583 0.000407043
-0.147794 0.0820304 0.98561 0
-0.142148 0.0816801 0.98647 0
-0.204231 0.0855209 0.97518 0
-0.202332 0.0836663 0.975736 0
-0.204939 0.0837687 0.975184 0
-0.181412 0.0832244 0.979879 0
-0.18945 0.0834171 0.978341 0
-0.159379 0.0824953 0.983765 0
-0.14448 0.0818748 0.986115 0.0024167
-0.159029 0.0825964 0.983813 0.00415379
-0.127144 0.0810909 0.988564 0
-0.152725 0.0824211 0.984826 0
-0.219543 0.0848053 0.97191 0
-0.218851 0.0850936 0.972041 0
-0.161369 0.0833534 0.983368 0
-0.115907 0.0814894 0.989912 0.00779909
-0.095412 0.0808086 0.992152 0.0102091
-0.148726 0.0820155 0.985471 0
-0.144228 0.0822468 0.98612 0
-0.120962 0.0807129 0.98937 0
-0.0830309 0.0783237 0.993464 0
-0.119513 0.0824669 0.989402 0.0048112
-0.112858 0.0819582 0.990225 0.00473964
-0.0636155 0.0799488 0.994767 0.0100887
-0.0842432 0.0808562 0.993159 0.0131258
-0.062307 0.0787962 0.994942 0.0131081
-0.0713556 0.0782266 0.994379 0.000721377
-0.103831 0.0800294 0.99137 0
-0.140654 0.0823384 0.986629 0
-0.0976987 0.0819449 0.991837 0.0103506
-0.0590042 0.0805173 0.995005 0.0171392
-0.0868949 0.0806306 0.992949 0.0146422
-0.0698084 0.0789443 0.994432 0.00990023
-0.0336775 0.0758058 0.996554 0.00507841
-0.162821 0.0831917 0.983142 0
-0.130178 0.0812564 0.988155 0
-0.252529 0.0895849 0.963433 0
-0.123088 0.0829812 0.98892 0.0114473
-0.0321285 0.0788408 0.996369 0.0188644
-0.059873 0.0790388 0.995072 0.0114351
-0.0838553 0.0798303 0.993275 0.0110821
-0.123556 0.0811166 0.989017 0.00410397
-0.142795 0.0819875 0.986351 0
-0.151632 0.0828243 0.984961 0.00204402
-0.170748 0.0841682 0.981713 0
-0.126888 0.0826356 0.988469 0.00929595
-0.0791478 0.0804903 0.993608 0.0107435
-0.0850613 0.080522 0.993117 0.0142358
-0.138937 0.0821944 0.986884 0.00173676
-0.163607 0.0834884 0.982986 0
-0.117723 0.0807011 0.989762 0.00269273
-0.155453 0.0825945 0.984384 0.00292182
-0.104257 0.0793045 0.991384 0.00128616
-0.150087 0.0828735 0.985193 0
-0.125759 0.08227 0.988644 0.0105762
-0.146451 0.0826278 0.985761 0.00397743
-0.119079 0.0816666 0.98952 0.00583729
-0.138519 0.0824012 0.986926 0.000686919
-0.0787041 0.078157 0.993829 0.000559229
-0.0741936 0.077455 0.994231 0.00158387
-0.147593 0.0829613 0.985563 0
-0.188211 0.0870629 0.978262 0
-0.115444 0.0813706 0.989976 0.0063466
-0.0894418 0.0798394 0.992787 0.00742512
-0.094768 0.0793492 0.992332 0
-0.104897 0.0797984 0.991276 0
-0.133614 0.0822001 0.987619 0
-0.160399 0.0839543 0.983475 0.000972155
-0.131404 0.0821891 0.987916 0.00394015
-0.105922 0.0806956 0.991095 0.00732637
-0.0783921 0.0785073 0.993827 0.00584891
-0.0816688 0.0783548 0.993575 0.00188321
-0.0709598 0.0769972 0.994503 0
-0.109222 0.0801574 0.99078 0.00189911
-0.22094 0.0886993 0.971246 0
-0.147488 0.0832576 0.985553 0
-0.115923 0.0803206 0.990005 0
-0.114862 0.0803892 0.990124 0
-0.0573912 0.0763753 0.995426 0.00407347
-0.0988634 0.079546 0.991917 0.000477156
-0.145245 0.0833935 0.985875 0
-0.100437 0.0790691 0.991797 0
-0.301504 0.0969859 0.94852 0
-0.0844554 0.0781737 0.993356 0
-0.105239 0.079661 0.991251 0
-0.146393 0.0828381 0.985752 0
-0.151428 0.0836977 0.984918 0
-0.18842 0.0868314 0.978242 0
-0.155727 0.0837362 0.984245 0
-0.167441 0.0847894 0.982229 0
-0.196674 0.0875856 0.976549 0
-0.219727 0.087952 0.971589 0
-0.21475 0.0882482 0.972674 0
-0.358089 0.0993686 0.928385 0
-0.212588 0.0883296 0.973141 0
-0.202714 0.0875699 0.975315 0
-0.184296 0.0864001 0.979066 0
-0.364362 0.103533 0.925484 0
-0.217694 0.0879516 0.972046 0
-0.280927 0.0926346 0.955248 0
-0.272241 0.0927108 0.957752 0
-0.197221 0.0866337 0.976524 0
-0.137548 0.0816675 0.987123 0
-0.201151 0.0877066 0.975626 0
-0.229438 0.0904809 0.969109 0
-0.194588 0.0872633 0.976996 0
-0.26034 0.0908517 0.961233 0
-0.274531 0.0925859 0.957111 0
-0.163192 0.0840382 0.983009 0
-0.148587 0.0825165 0.985451 0
-0.165329 0.0841673 0.98264 0
-0.143805 0.0816327 0.986233 0
-0.165892 0.0838477 0.982573 0
-0.216465 0.0896061 0.97217 0
-0.149954 0.0827684 0.985222 0
-0.139457 0.0819476 0.986831 0
-0.102429 0.0782566 0.991657 0
-0.0990139 0.0778081 0.992039 0
-0.10833 0.0780475 0.991046 0
-0.145539 0.0823252 0.985921 0
-0.317739 0.0997166 0.94292 0
-0.1447 0.082558 0.986025 0
-0.145548 0.0827986 0.98588 0
-0.203987 0.0871636 0.975086 0
-0.167589 0.0841529 0.982259 0
-0.169284 0.0846804 0.981923 0
-0.380749 0.104684 0.918734 0
-0.469673 0.11236 0.875661 0
-0.301019 0.0993963 0.948424 0
-0.243503 0.0910783 0.965614 0
-0.171802 0.0849756 0.98146 0
-0.286207 0.0954465 0.953402 0
-0.381437 0.104002 0.918526 0
-0.378247 0.105283 0.919698 0
-0.43153 0.111318 0.895204 0
-0.170443 0.0845447 0.981734 0
-0.225177 0.0895367 0.970195 0
-0.213349 0.0893471 0.972882 0
-0.284383 0.0965578 0.953836 0
-0.412452 0.108367 0.904511 0
-0.361847 0.103792 0.926442 0
-0.280722 0.0947936 0.955096 0
-0.255579 0.093475 0.962259 0
-0.243507 0.0926385 0.965465 0
-0.17473 0.0856005 0.980888 0
-0.422832 0.111835 0.899281 0
-0.421966 0.111958 0.899672 0
-0.197781 0.0875131 0.976332 0
-0.357924 0.103453 0.928002 0
-0.491719 0.114116 0.863244 0
-0.362767 0.104262 0.926029 0
-0.390903 0.107621 0.914119 0
-0.483856 0.116314 0.867384 0
-0.296528 0.0972893 0.950056 0
-0.219092 0.0895482 0.971586 0
-0.26588 0.0948009 0.959333 0
-0.352785 0.10476 0.929822 0
-0.305346 0.0995648 0.947022 0
-0.174033 0.0854951 0.981021 0
-0.216509 0.0897744 0.972144 0
-0.280839 0.0975151 0.954788 0
-0.244781 0.0927917 0.965128 0
-0.154608 0.0834396 0.984446 0
-0.161095 0.0840688 0.983352 0
-0.239731 0.0922115 0.96645 0
-0.226957 0.0915783 0.969589 0
-0.222101 0.0910419 0.970764 0
-0.103014 0.0768982 0.991703 0.00114978
-0.224498 0.0904072 0.970272 0
-0.236415 0.0921533 0.967272 0
-0.200703 0.0884003 0.975656 0.000778964
-0.170512 0.0854518 0.981643 0.00208462
-0.143139 0.0822606 0.986278 0.00112374
-0.218106 0.0904883 0.971721 0
-0.219712 0.0906945 0.97134 0
-0.20129 0.0886747 0.97551 0
-0.222929 0.0912991 0.97055 0
-0.210033 0.0898434 0.973558 0
-0.104938 0.0772549 0.991473 0.00187107
-0.160613 0.0848057 0.983368 0
-0.100361 0.0772353 0.991949 0.00159874
-0.115637 0.0789797 0.990147 0.00516544
-0.186952 0.0871936 0.978492 0
-0.227905 0.0920961 0.969318 0
-0.170693 0.0854442 0.981613 0
-0.221951 0.0924358 0.970666 0
-0.189854 0.087363 0.977918 0.00011065
-0.238358 0.0936932 0.966647 0
-0.25219 0.0958435 0.96292 0
-0.260876 0.0975115 0.960435 0
-0.277226 0.0995455 0.955634 0
-0.306338 0.101387 0.946508 0
-0.30846 0.101765 0.945778 0
-0.302879 0.101748 0.947582 0
-0.299596 0.1018 0.94862 0
-0.294509 0.10208 0.950181 0
-0.314862 0.104718 0.943343 0
-0.359581 0.10657 0.927008 0
-0.440772 0.11727 0.889926 0
-0.410899 0.113941 0.904533 0
-0.442378 0.118379 0.888981 0
-0.333276 0.106616 0.936782 0
-0.296205 0.102453 0.949614 0
-0.341903 0.10669 0.933659 0
-0.41843 0.115106 0.900926 0
-0.238284 0.0946842 0.966569 0
-0.18535 0.0875573 0.978764 0
-0.472317 0.119641 0.873271 0
-0.218305 0.0910411 0.971625 0
-0.266433 0.0975575 0.958904 0
-0.315188 0.104293 0.943281 0
-0.216011 0.0908177 0.972158 0.00765571
-0.20984 0.089988 0.973586 0.00454005
-0.139591 0.0813778 0.98686 0.00627197
-0.289975 0.100163 0.951778 0
-0.219705 0.0921257 0.971207 0
-0.238568 0.0952682 0.966442 0
-0.268092 0.0965801 0.95854 0
-0.225576 0.0926206 0.969813 0
-0.250026 0.0963166 0.963437 0
-0.322258 0.107195 0.940563 0
-0.228516 0.0924975 0.969136 0
-0.177102 0.0859504 0.980432 1.96834e-05
-0.231853 0.0941983 0.968179 0
-0.253661 0.0974145 0.962376 0
-0.198541 0.0890857 0.976036 0.00642256
-0.190424 0.087439 0.9778 0.00112767
-0.219474 0.0918001 0.97129 0
-0.253682 0.0965243 0.96246 0
-0.300935 0.103216 0.948042 0
-0.297399 0.104185 0.949052 0
-0.209909 0.0896633 0.973601 0
-0.213295 0.0908339 0.972756 0
-0.200489 0.0893798 0.97561 0
-0.307746 0.105075 0.945649 0
-0.239355 0.0955185 0.966222 0
-0.174415 0.0854847 0.980955 0
-0.254544 0.0971132 0.962173 0
-0.152044 0.0819156 0.984973 0
-0.129303 0.0787023 0.988477 0
-0.166882 0.0842634 0.98237 0
-0.15068 0.0816678 0.985203 0
-0.135196 0.0795842 0.987618 0
-0.201996 0.0902168 0.975222 0
-0.164116 0.0838845 0.982868 0
-0.144398 0.0813136 0.986173 0
-0.20346 0.0903631 0.974904 0
-0.22713 0.0939454 0.969323 0
-0.211431 0.0914683 0.973104 0
-0.169135 0.0852939 0.981895 0
-0.190693 0.0886208 0.977641 0
-0.67739 0.735072 0.0284974 0
-0.714613 0.698312 0.0411055 0
-0.580309 0.79974 -0.15381 0.0926633
-0.575027 0.793891 -0.19769 0.0944513
-0.564351 0.793756 -0.226849 0.0906504
-0.555329 0.803324 -0.215127 0.106652
-0.688331 0.72525 -0.0146094 0.0611552
-0.670753 0.736645 -0.0862874 0.0702925
-0.7351 0.677491 -0.0251649 0.0295623
-0.749263 0.6617 -0.0275278 0.0132828
-0.753027 0.657931 0.00881284 0.00858533
-0.723302 0.683692 -0.0969479 0.0440618
-0.693744 0.710619 -0.117216 0.0681754
-0.717631 0.689329 -0.0991491 0.0593577
-0.703663 0.694969 -0.147908 0.0653761
-0.746687 0.665157 0.00492585 0.0412271
-0.712814 0.686625 -0.142975 0.0545911
-0.60423 0.71511 -0.351461 0.0920516
-0.651768 0.700995 -0.28949 0.0737474
-0.658647 0.678886 -0.324497 0.0600344
-0.630847 0.668512 -0.393858 0.05681
-0.641108 0.667698 -0.378366 0.0557926
-0.520777 0.620646 -0.586165 0.0692609
-0.460363 0.593257 -0.660388 0.080665
-0.452394 0.586983 -0.671409 0.0766721
-0.369135 0.524769 -0.767044 0.0797428
-0.368926 0.52495 -0.767021 0.0825032
-0.379383 0.535972 -0.75419 0.0839654
-0.426768 0.560805 -0.709483 0.0787914
-0.470803 0.588014 -0.657711 0.0853314
-0.486642 0.59043 -0.643872 0.0829749
-0.374803 0.503913 -0.7782 0.0818156
-0.543969 0.590611 -0.596051 0.0680106
-0.548781 0.576769 -0.605126 0.0667242
-0.533404 0.575889 -0.619542 0.0739573
-0.483558 0.550791 -0.680295 0.0791391
-0.439974 0.522855 -0.730099 0.0805258
-0.488043 0.551809 -0.676255 0.0842786
-0.479881 0.544429 -0.687976 0.0857903
-0.389432 0.476552 -0.788188 0.0912665
-0.53935 0.554146 -0.634054 0.0823525
-0.630733 0.587586 -0.506872 0.0661988
-0.548013 0.552162 -0.62833 0.0725374
-0.636952 0.599348 -0.484844 0.0726761
-0.69458 0.603316 -0.391878 0.0551531
-0.712206 0.600405 -0.363699 0.0498348
-0.728561 0.592195 -0.344244 0.0399854
-0.650569 0.586669 -0.482264 0.0784123
-0.557862 0.548442 -0.622898 0.087575
-0.614938 0.578059 -0.536376 0.0879045
-0.538788 0.548767 -0.639189 0.094193
-0.385412 0.457273 -0.801473 0.100934
-0.331233 0.415174 -0.847299 0.0939727
0.235354 -0.350287 0.906591 0.0924682
-0.276133 0.379954 -0.882828 0.0845142
-0.298601 0.397223 -0.867785 0.0870092
0.223596 -0.346573 0.910984 0.0886637
-0.248235 0.367378 -0.896333 0.0903355
-0.285003 0.389883 -0.875651 0.0880034
-0.274662 0.378559 -0.883886 0.0860272
-0.267945 0.377047 -0.88659 0.0860913
-0.287812 0.399313 -0.870468 0.0891866
-0.313411 0.428315 -0.847537 0.0952226
-0.30549 0.420477 -0.854327 0.0972805
-0.341026 0.452597 -0.823928 0.0981928
-0.338402 0.45911 -0.821402 0.095352
-0.376268 0.487591 -0.787831 0.0939679
-0.320533 0.444482 -0.836477 0.0915765
-0.3115 0.438697 -0.84292 0.0864132
-0.343237 0.464689 -0.816243 0.093757
-0.353772 0.469262 -0.809097 0.0947041
-0.381297 0.484533 -0.787299 0.0906108
-0.404498 0.493767 -0.769789 0.088193
-0.360267 0.458099 -0.812621 0.0871791
-0.409013 0.477694 -0.777506 0.0815461
-0.37726 0.464245 -0.801343 0.0861535
-0.427856 0.498257 -0.754108 0.0905196
-0.371272 0.465081 -0.803652 0.0954789
-0.346753 0.45484 -0.820294 0.0939751
-0.34513 0.457499 -0.8195 0.0912428
-0.328461 0.443431 -0.833956 0.0933196
-0.349896 0.45897 -0.816651 0.0973355
-0.317911 0.445577 -0.836895 0.0989056
-0.358237 0.467224 -0.808312 0.0942529
-0.290098 0.418727 -0.860529 0.097048
-0.512275 0.551049 -0.658725 0.0888959
-0.447541 0.517007 -0.729665 0.100818
-0.566902 0.560375 -0.603823 0.0973916
-0.636599 0.587416 -0.499683 0.0930192
-0.422868 0.494986 -0.759059 0.100735
-0.661131 0.604248 -0.444736 0.0932907
-0.528912 0.5639 -0.634246 0.0990634
-0.245702 0.403921 -0.88118 0.0939383
-0.38243 0.494862 -0.780294 0.101599
-0.342331 0.481509 -0.80682 0.0893611
-0.246687 0.417435 -0.874582 0.085166
-0.235177 0.409308 -0.881566 0.089307
-0.284391 0.432024 -0.855849 0.0795304
-0.236415 0.403749 -0.883796 0.0769588
-0.24656 0.401843 -0.88189 0.0749168
0.195535 -0.378747 0.904608 0.076716
0.155287 -0.348682 0.924287 0.072569
0.132086 -0.33134 0.93422 0.0757261
0.126158 -0.324319 0.937497 0.0661025
0.0821545 -0.293015 0.952572 0.0590834
0.0660411 -0.284831 0.9563 0.0624117
0.0643506 -0.289816 0.954917 0.0660504
0.0817346 -0.298317 0.950961 0.0640884
0.068419 -0.287786 0.955248 0.0678258
0.0424691 -0.268588 0.962318 0.0686993
-0.0250486 -0.223216 0.974447 0.072797
0.0191414 -0.245077 0.969315 0.076167
-0.00641625 -0.223171 0.974758 0.0710786
0.0979899 -0.293376 0.950962 0.0795893
0.0382551 -0.2571 0.965627 0.0770558
0.0862807 -0.289688 0.953224 0.0753724
0.0410289 -0.264861 0.963413 0.0708501
0.0570809 -0.272083 0.960579 0.0663757
-0.335734 0.016166 0.941818 0.0716043
-0.236573 -0.049547 0.97035 0.065214
-0.0345238 -0.199306 0.979329 0.0644178
-0.0543423 -0.183918 0.981438 0.0636256
0.0184676 -0.235006 0.971818 0.0641007
-0.0660058 -0.173053 0.982698 0.0637319
-0.0860912 -0.156354 0.983942 0.0577133
-0.217994 -0.0693033 0.973486 0.0512966
-0.205954 -0.07609 0.975599 0.0582789
-0.185029 -0.0924344 0.978376 0.0667894
-0.127044 0.0694136 0.989465 0.000582532
-0.121693 0.0679407 0.99024 0.0010939
-0.0699903 0.0585829 0.995826 0.00632043
-0.100285 0.0649164 0.992839 0.00358534
-0.106982 0.0665245 0.992033 0.00152985
-0.118305 0.0678092 0.990659 0.00872617
-0.13135 0.0692182 0.988917 0
-0.081349 0.0601923 0.994866 0.00528562
-0.137181 0.0708626 0.988008 0
-0.168626 0.0726658 0.982998 0.00820313
-0.109646 0.0664884 0.991744 0.00651917
-0.0864589 0.0607892 0.994399 0.0170925
-0.0837587 0.0624664 0.994526 0.0145682
-0.088078 0.0616388 0.994205 0.0109404
-0.105347 0.0640877 0.992368 0.00824316
-0.0647346 0.0597459 0.996112 0.0181983
-0.0805794 0.0613317 0.994859 0.0149989
-0.0655191 0.0582019 0.996153 0.011999
0.0136159 0.0465477 0.998823 0.0168494
-0.0705817 0.0618101 0.995589 0.0128563
-0.0803623 0.0637194 0.994727 0.0211064
-0.0900101 0.0628397 0.993956 0.00923107
-0.0686538 0.0605416 0.995802 0.00553169
-0.10537 0.0679565 0.992108 0.00868126
-0.0879121 0.0643467 0.994048 0.0134799
-0.189528 0.0786557 0.97872 0.000137002
-0.12914 0.0710892 0.989075 0.00445809
-0.179817 0.0790879 0.980516 0.00410613
-0.218008 0.0881616 0.971957 0
-0.151169 0.0733208 0.985785 0.00203135
-0.197364 0.0805714 0.977014 0
-0.106209 0.0683915 0.991989 0.00339339
-0.170141 0.0793237 0.982222 0
-0.0532393 0.0573574 0.996933 0.00169384
-0.096224 0.064934 0.993239 0.00237196
-0.14023 0.0716517 0.987523 0
-0.220997 0.0860226 0.971473 0
-0.0886892 0.0619194 0.994133 0.0088009
-0.0844197 0.062855 0.994446 0.00394459
-0.162675 0.0770138 0.983669 0
-0.18266 0.080718 0.979857 0
-0.237998 0.0898476 0.967101 0
-0.178047 0.0795857 0.980798 0
-0.112531 0.0689055 0.991256 0
-0.0719346 0.0624647 0.995452 0.00655889
-0.127009 0.0706498 0.989382 0.0011609
-0.135225 0.0738359 0.98806 0
-0.141681 0.0760904 0.986984 0
-0.08858 0.0643906 0.993986 0.000326353
-0.15883 0.0759817 0.984378 0
-0.179048 0.0799271 0.980588 0
-0.195302 0.0823228 0.977282 0
-0.187019 0.0809957 0.979012 0
-0.109032 0.0690029 0.99164 0
-0.163767 0.0772988 0.983466 0
-0.204081 0.0822958 0.975489 0
-0.180109 0.079831 0.980402 0
-0.171632 0.0790883 0.981981 0
-0.130044 0.0722329 0.988874 0
-0.116538 0.0685345 0.990819 0.00272477
-0.125769 0.0702973 0.989566 0
-0.196542 0.0822326 0.977041 0
-0.119195 0.0718527 0.990267 0
-0.172109 0.0794461 0.981869 0
-0.20009 0.0827643 0.976276 0
-0.177212 0.0769371 0.981161 0
-0.113745 0.0664999 0.991282 0.00294771
-0.105783 0.0701061 0.991915 0
-0.038545 0.0571372 0.997622 0
-0.106491 0.0684174 0.991957 0
-0.183407 0.078487 0.979899 0
-0.14078 0.0698495 0.987574 0
-0.18173 0.0740095 0.980559 0
-0.192541 0.0745589 0.978452 0
-0.0821889 0.0614919 0.994718 0.00460781
-0.0996981 0.0677401 0.992709 0
-0.103225 0.0673976 0.992372 0
-0.138271 0.0727386 0.98772 0
-0.218993 0.0813304 0.972331 0
-0.305037 0.0890023 0.948172 0
-0.198514 0.0771068 0.97706 0
-0.212629 0.0758908 0.974181 0
-0.188847 0.0742167 0.979198 0.0022957
-0.160327 0.0782468 0.983958 0
-0.0825077 0.0636057 0.994559 0
-0.17677 0.0778769 0.981166 0
-0.28558 0.0884224 0.954267 0
-0.242911 0.0825389 0.966531 0
-0.211298 0.0781577 0.974292 0
-0.0999628 0.0628083 0.993007 0
-0.0931742 0.0625183 0.993685 0
-0.119223 0.0668004 0.990618 0
-0.383527 0.109759 0.916984 0
-0.349538 0.106272 0.930876 0
-0.292087 0.0959649 0.951565 0
-0.340353 0.10062 0.934899 0
-0.225778 0.0819866 0.970723 0
-0.160724 0.0735013 0.984259 0
-0.202095 0.0777366 0.976276 0
-0.17385 0.0741275 0.981978 0
-0.162893 0.0725986 0.983969 0
-0.233968 0.0892032 0.968143 0
-0.216792 0.0837268 0.972621 0
-0.256005 0.0890149 0.962568 0
-0.211319 0.0835132 0.973843 0
-0.213737 0.0815728 0.97348 0
-0.222324 0.0830582 0.971429 0
-0.188702 0.0783963 0.9789 0
-0.171336 0.0757092 0.982299 0
-0.176972 0.0726808 0.981529 0
-0.169485 0.0781081 0.982433 0
-0.218393 0.0833561 0.972295 0
-0.155293 0.0732102 0.985152 0
-0.177587 0.0791057 0.980921 0
-0.232361 0.0839925 0.968996 0
-0.245708 0.0855192 0.965564 0
-0.169022 0.0745889 0.982786 0
-0.217302 0.0780352 0.97298 0
-0.187228 0.0767038 0.979317 0
-0.253565 0.0911643 0.963013 0
-0.195178 0.0802214 0.977481 0
-0.160938 0.0730491 0.984257 0
-0.192277 0.0768838 0.978324 0
-0.227899 0.0830447 0.970137 0
-0.199557 0.078189 0.976762 0
-0.107881 0.0670091 0.991903 0.000293737
-0.201648 0.0772526 0.976407 0
-0.255944 0.0871086 0.962759 0
-0.415083 0.107829 0.903371 0
-0.534352 0.120031 0.836696 0
-0.281085 0.0862576 0.955799 0
-0.210967 0.0781401 0.974365 0
-0.141428 0.0690823 0.987535 0.000842536
-0.272146 0.0835339 0.958623 0
-0.318099 0.0886379 0.943905 0
-0.501007 0.12146 0.856878 0
-0.601347 0.133173 0.787811 0
-0.462636 0.113708 0.879226 0
-0.568496 0.122205 0.813559 0
-0.302003 0.0888851 0.949154 0
-0.495898 0.107126 0.861748 0
-0.694884 0.121454 0.708791 0
-0.476283 0.10243 0.873305 0
-0.55637 0.126043 0.82132 0
-0.670746 0.134814 0.729332 0
-0.716187 0.13925 0.683875 0
-0.381377 0.095433 0.919481 0
-0.2725 0.0844599 0.958441 0
-0.422868 0.103172 0.900299 0
-0.376611 0.0980706 0.921166 0
-0.856619 0.156431 0.491663 0
-0.868025 0.153258 0.472276 0
-0.646058 0.133742 0.75148 0
-0.423995 0.106317 0.899403 0
-0.293611 0.0894857 0.951727 0
-0.412431 0.101834 0.905279 0
-0.370382 0.0965449 0.923849 0
-0.260499 0.0851094 0.961715 0
-0.778756 0.146435 0.609996 0
-0.89986 0.151537 0.409009 0
-0.553493 0.119772 0.824196 0
-0.429465 0.107456 0.896668 0
-0.197447 0.0786303 0.977155 0
-0.14611 0.0717116 0.986666 0
-0.165127 0.0750626 0.983412 0
-0.210815 0.080337 0.974219 0
-0.799224 0.146018 0.583027 0
-0.682656 0.138493 0.717496 0
-0.524176 0.11656 0.843595 0
-0.354359 0.0978473 0.929976 0
-0.229103 0.0824619 0.969903 0
-0.183262 0.0767089 0.980067 0
-0.176192 0.0761592 0.981405 0
-0.321588 0.0886558 0.94272 0
-0.298257 0.0913912 0.9501 0
-0.238672 0.0844794 0.967419 0
-0.281829 0.0903577 0.9552 0
-0.353249 0.0967718 0.930511 0
-0.148337 0.0741909 0.98615 0
-0.175622 0.0771794 0.981428 0
-0.167111 0.0739495 0.983161 0
-0.174661 0.0769266 0.981619 0
-0.18959 0.0774603 0.978803 0
-0.165563 0.0752447 0.983324 0
-0.228763 0.0837653 0.969872 0
-0.184365 0.0783996 0.979726 0
-0.205683 0.0818411 0.975191 0
-0.100535 0.0685372 0.99257 0
-0.140081 0.0710232 0.987589 0
-0.167319 0.0735228 0.983158 0
-0.160142 0.0745444 0.984275 0.00147203
-0.199019 0.0781974 0.976871 0
-0.082933 0.0643653 0.994474 0.00301071
-0.0868625 0.0665347 0.993996 0
-0.108705 0.0665952 0.991841 0.00133005
-0.0729287 0.0635218 0.995312 0.00728225
-0.192313 0.0791415 0.978137 0
-0.164503 0.0749915 0.983522 0
-0.15661 0.0716238 0.98506 0
-0.129646 0.0690584 0.989153 0
-0.0548634 0.0609893 0.996629 0.00789514
-0.107785 0.0677175 0.991865 0
-0.0959346 0.0657994 0.99321 0.00425897
-0.132865 0.069532 0.988692 0
-0.133504 0.0716007 0.988458 0
-0.11197 0.0688045 0.991327 0
-0.126669 0.0702171 0.989457 0.00167322
-0.179178 0.0758702 0.980887 0
-0.177128 0.0739931 0.981402 0
-0.21895 0.0773129 0.972668 0
-0.166946 0.0768823 0.982964 0
-0.159481 0.0781241 0.984105 0
-0.0977999 0.0713904 0.992642 0
-0.136462 0.0751886 0.987788 0
-0.240383 0.0861436 0.966848 0
-0.21088 0.0809389 0.974155 0
-0.183357 0.075546 0.980139 0
-0.282415 0.0822571 0.955759 0
-0.179956 0.082773 0.980186 0
-0.242797 0.091342 0.965767 0
-0.249652 0.0897813 0.964164 0
-0.226299 0.0865787 0.970202 0
-0.252114 0.0845774 0.963994 0
-0.204163 0.0770753 0.975898 0
-0.177752 0.0745247 0.981249 0.0022664
-0.221867 0.0890497 0.971002 0
-0.162084 0.0815165 0.983404 0
-0.189325 0.0810399 0.978565 0
-0.164058 0.0787799 0.9833 0
-0.18217 0.078071 0.980163 0.00027898
-0.154331 0.0744181 0.985213 0.00326586
-0.0898331 0.067219 0.993686 0.0105995
-0.150863 0.0802146 0.985295 0
-0.170754 0.0825894 0.981846 0
-0.225639 0.0870324 0.970316 0
-0.115909 0.073445 0.990541 0.00162657
-0.10924 0.0717443 0.991423 0.00125798
-0.111495 0.0702773 0.991277 0.00514299
-0.126186 0.0719229 0.989396 0.00580437
-0.173844 0.0828416 0.981283 0
-0.335337 0.105477 0.936175 0
-0.15449 0.079941 0.984755 0
-0.122945 0.0737913 0.989666 0.00373438
-0.0932788 0.0702166 0.993161 0.012946
-0.11153 0.0710379 0.991219 0.00711931
-0.152698 0.0749573 0.985426 0.0050568
-0.173716 0.0811414 0.981447 0
-0.142883 0.0786036 0.986613 0.0023561
-0.252435 0.0921862 0.963212 0
-0.13479 0.0757028 0.987978 0.00106086
-0.110171 0.0727619 0.991246 0.00138259
-0.146014 0.0754355 0.986402 0
-0.152811 0.0791525 0.98508 0
-0.167164 0.0817139 0.982537 0
-0.184155 0.0820108 0.97947 0
-0.116902 0.0723245 0.990506 0.00246763
-0.109135 0.0713871 0.99146 0.0077958
-0.104541 0.0697885 0.992069 0.00712136
-0.152695 0.0742482 0.98548 0
-0.147507 0.0799679 0.985823 0
-0.214465 0.0882124 0.97274 0
-0.128967 0.0758947 0.98874 0
-0.120226 0.0723644 0.990106 0
-0.134378 0.073812 0.988177 0
-0.105755 0.0701311 0.991916 0
-0.115133 0.0704411 0.990849 0.000199649
-0.162966 0.0747769 0.983794 0
-0.130791 0.0715678 0.988823 0
-0.0796542 0.0688902 0.994439 0
-0.157715 0.0776408 0.984428 0
-0.154705 0.0764397 0.984999 0
-0.102543 0.0711571 0.99218 0
-0.0981933 0.0705611 0.992663 0.00371005
-0.0650697 0.0671413 0.995619 0.00746869
-0.0941598 0.0693657 0.993138 0.000387763
-0.0843149 0.0672103 0.99417 0.000819432
-0.157271 0.0787204 0.984413 0
-0.12953 0.0732929 0.988863 0
-0.123572 0.0712456 0.989775 0
-0.0913667 0.0693338 0.993401 0.0012696
-0.0553733 0.0672564 0.996198 0.0103964
-0.0610822 0.0673319 0.995859 0.00813832
-0.0790585 0.0686471 0.994503 0.00624813
-0.0941104 0.0680804 0.993231 0.0046567
-0.0500517 0.0652173 0.996615 0.0136792
-0.131903 0.0731727 0.988558 0
-0.101575 0.0702273 0.992346 0.00424639
-0.0732235 0.0673916 0.995036 0.00695878
-0.0700334 0.0678163 0.995237 0.0113485
-0.0682 0.0683446 0.995328 0.0138348
-0.0630426 0.0660174 0.995825 0.0188764
-0.0704387 0.0667362 0.995281 0.0149394
-0.0341998 0.0626155 0.997452 0.0167869
-0.0472913 0.0645801 0.996791 0.0152173
-0.135665 0.0731494 0.988051 0
-0.124479 0.0724632 0.989573 0.00561534
-0.13191 0.07246 0.98861 0.00801304
-0.113813 0.0711256 0.990953 0.0172145
-0.0806675 0.0675548 0.994449 0.0208313
-0.103109 0.0687974 0.992288 0.0171155
-0.0914999 0.0672223 0.993534 0.0125751
-0.0752883 0.0657386 0.994993 0.0143814
-0.0472995 0.0658535 0.996708 0.0139404
-0.138345 0.0749874 0.987541 0.0056915
-0.137426 0.0724961 0.987855 0.0101931
-0.13155 0.0736963 0.988566 0.0108332
-0.128767 0.0695857 0.98923 0.0112592
-0.0990638 0.0676526 0.992779 0.0117779
-0.107071 0.0680952 0.991917 0.00994606
-0.0792295 0.0693611 0.99444 0.0101976
-0.0927167 0.0702315 0.993213 0.00676432
-0.0850027 0.069517 0.993953 0.00767904
-0.0842431 0.0688547 0.994063 0.0110794
-0.135903 0.0738448 0.987966 0.00872331
-0.0994225 0.0705883 0.992538 0.00957567
-0.0978262 0.0695546 0.99277 0.0128049
-0.0617068 0.0651573 0.995965 0.014644
-0.110169 0.0707401 0.991392 0.00739925
-0.101974 0.0705539 0.992282 0.00716555
-0.0831124 0.0688886 0.994156 0.00712154
-0.092422 0.0688832 0.993334 0.00106872
-0.119511 0.0719124 0.990225 0.00884991
-0.0609147 0.0656277 0.995983 0.0156602
-0.0855382 0.0676022 0.994039 0.0123768
-0.0795139 0.0663511 0.994623 0.0091229
-0.0749227 0.066297 0.994983 0.00991676
-0.0614429 0.0656351 0.99595 0.0138336
-0.0652074 0.0663242 0.995665 0.00994324
-0.061147 0.0664902 0.995912 0.00765679
-0.0589917 0.0663667 0.99605 0.00687568
-0.112969 0.0720764 0.990981 0.00210462
-0.0951321 0.0696277 0.993027 0.00434204
-0.0621562 0.064782 0.995962 0.00520179
-0.0728162 0.0651594 0.995215 0.0055495
-0.0739789 0.0656857 0.995094 0.00833338
-0.0642656 0.0658362 0.995759 0.0114391
-0.0791082 0.067453 0.994581 0.00877206
-0.0940584 0.0670148 0.993309 0.00591805
-0.127739 0.0695481 0.989366 0.00346256
-0.0770784 0.0676179 0.99473 0
-0.0965508 0.0672105 0.993056 0
-0.130728 0.0713615 0.988847 0
-0.126938 0.0704618 0.989405 0
-0.115604 0.0688967 0.990903 0.00523929
-0.10665 0.0677734 0.991984 0.00436502
-0.136535 0.0697042 0.98818 0.0019893
-0.178331 0.0729458 0.981263 0
-0.158085 0.0716363 0.984824 0.00494903
-0.117203 0.0712058 0.990552 0
-0.107007 0.0691438 0.991851 0
-0.132952 0.0705374 0.988609 0
-0.148657 0.0699571 0.986411 0
-0.195395 0.0745636 0.977886 0
-0.207456 0.0773179 0.975184 0
-0.212263 0.0759387 0.974258 0
-0.173825 0.072669 0.982092 0.000676655
-0.168383 0.076735 0.98273 0
-0.14567 0.0732289 0.986619 0
-0.260921 0.0837953 0.961717 0
-0.330147 0.0894069 0.939686 0
-0.23791 0.0794682 0.968031 0
-0.346058 0.0870013 0.934171 0
-0.288274 0.0814241 0.95408 0
-0.208358 0.0757862 0.975112 0
-0.180172 0.0742474 0.980829 0
-0.223288 0.0803244 0.971437 0
-0.231617 0.0808645 0.96944 0
-0.274455 0.0817456 0.958119 0
-0.336611 0.086511 0.937661 0
-0.306783 0.0811775 0.948311 0
-0.307156 0.0802586 0.948269 0
-0.202937 0.0729973 0.976467 0
-0.15848 0.0715914 0.984763 1.56118e-05
-0.277525 0.0874839 0.956727 0
-0.35345 0.094138 0.930704 0
-0.33272 0.0879921 0.938911 0
-0.337889 0.0849839 0.937341 0
-0.320335 0.0818227 0.943764 0
-0.289925 0.0797971 0.953717 0
-0.299645 0.0787073 0.950799 0
-0.231555 0.0760301 0.969846 0
-0.265631 0.0787808 0.960851 0
-0.215722 0.0783225 0.973309 0
-0.298478 0.0857171 0.950559 0
-0.399786 0.0918849 0.911992 0
-0.435626 0.0914381 0.895471 0
-0.440151 0.0903291 0.893369 0
-0.380123 0.0879352 0.920746 0
-0.293363 0.0810173 0.952562 0
-0.210418 0.0753038 0.974707 0
-0.172148 0.0729715 0.982365 0
-0.246922 0.0826407 0.965505 0
-0.269764 0.0827468 0.959365 0
-0.320284 0.0859994 0.94341 0
-0.443366 0.0926527 0.891539 0
-0.370298 0.0881824 0.924718 0
-0.31758 0.0825629 0.94463 0
-0.273557 0.0797555 0.958543 0
-0.237498 0.0780445 0.968248 0
-0.165187 0.0747192 0.983428 0
-0.204964 0.0752891 0.97587 0
-0.212085 0.0751432 0.974358 0
-0.392159 0.0917678 0.915309 0
-0.353634 0.0884043 0.931197 0
-0.238445 0.0785348 0.967975 0
-0.230297 0.0764644 0.970112 0
-0.197712 0.075634 0.977338 0
-0.158918 0.0744806 0.984478 0
-0.156634 0.0759429 0.984733 0
-0.190178 0.074717 0.978902 0.000340795
-0.175226 0.0739495 0.981747 0.00255176
-0.250768 0.0801617 0.964722 0
-0.252831 0.0797081 0.964221 0
-0.236846 0.075621 0.9686 0
-0.212352 0.0728694 0.974472 0
-0.166618 0.0705273 0.983496 0.00355033
-0.145534 0.0739412 0.986586 0.00267712
-0.140249 0.0725584 0.987454 0.00178372
-0.191588 0.0744836 0.978645 0
-0.192641 0.0739373 0.97848 0
-0.177931 0.0728562 0.981342 0
-0.145379 0.0693782 0.986941 0.00485673
-0.141195 0.0706602 0.987457 0.0100484
-0.146436 0.0713713 0.986642 0.00164482
-0.13334 0.0713176 0.988501 0.00152858
-0.135704 0.0706084 0.98823 0.000473017
-0.184367 0.0743511 0.980041 0
-0.144548 0.0686839 0.987111 0
-0.0997369 0.0658348 0.992833 0.00824325
-0.0876781 0.0662092 0.993946 0.0094172
-0.0829656 0.0676504 0.994254 0.00685322
-0.107058 0.0692217 0.99184 0.00374533
-0.130402 0.070738 0.988935 0
-0.112504 0.070672 0.991135 0.0051125
-0.122187 0.0666687 0.990265 0.000750293
-0.0474323 0.0624778 0.996919 0.00901495
-0.120282 0.0687738 0.990355 0
-0.0766642 0.0666302 0.994828 0.00356069
-0.0897107 0.0690654 0.99357 0.00455657
-0.0976919 0.0706329 0.992707 0.00238188
-0.114348 0.0696422 0.990997 0.00577421
-0.133219 0.0699139 0.988618 0.00341932
-0.0277021 0.0602998 0.997796 0.00925237
-0.0510053 0.0610539 0.99683 0.00696723
-0.0846589 0.0647233 0.994306 0.00400328
-0.112392 0.0678034 0.991348 0.0077562
-0.108869 0.0683085 0.991706 0.00902429
-0.105345 0.0692437 0.992022 0.00494283
-0.118455 0.0701683 0.990477 0.00086851
-0.0627405 0.0618638 0.996111 0.00956399
-0.0722914 0.063849 0.995338 0.00895127
-0.104806 0.0685769 0.992125 0.00689993
-0.126275 0.0699104 0.989529 0
-0.142487 0.0731423 0.987091 0
-0.114136 0.0704919 0.990961 0
-0.139746 0.0702276 0.987694 0
-0.117585 0.0670445 0.990797 0.00204642
-0.130887 0.0694621 0.988961 0.00178611
-0.173806 0.0745484 0.981954 0
-0.139976 0.0709139 0.987612 0
-0.119747 0.069179 0.990391 0
-0.142337 0.0693935 0.987383 0
-0.126413 0.0683901 0.989617 0.000838291
-0.149357 0.0727109 0.986106 0
-0.184376 0.0764911 0.979875 0
-0.160212 0.0731992 0.984365 0
-0.12833 0.0700135 0.989257 0
-0.136176 0.0710026 0.988137 0
-0.128126 0.0700808 0.989279 0
-0.138111 0.0708564 0.987879 0
-0.158738 0.0734699 0.984583 0
-0.219243 0.0769845 0.972628 0
-0.190645 0.0754516 0.978755 0
-0.112633 0.071086 0.991091 0
-0.132964 0.0705525 0.988607 0
-0.107955 0.0682918 0.991807 0
-0.141342 0.0695753 0.987513 0
-0.201739 0.0750591 0.976559 0
-0.137184 0.0709416 0.988002 0
-0.117374 0.0695936 0.990646 0.000434445
-0.140381 0.0707989 0.987563 0
-0.110242 0.0678706 0.991585 0
-0.105807 0.0674659 0.992095 0.00196648
-0.190817 0.073899 0.97884 0
-0.14637 0.0699968 0.98675 0.00094206
-0.169239 0.0736008 0.982823 0
-0.133237 0.071302 0.988516 0.00134002
-0.147328 0.0709972 0.986536 0
-0.109391 0.0688416 0.991612 0
-0.0764613 0.0667068 0.994839 0.00227624
-0.176844 0.0730549 0.981524 0
-0.171574 0.0734164 0.982432 0
-0.133102 0.0721246 0.988474 2.61175e-05
-0.152977 0.071333 0.985652 0
-0.0944636 0.0673314 0.993249 0.000529341
-0.0741996 0.0659704 0.995059 0.00497117
-0.0591157 0.0660909 0.996061 0.00855345
-0.189068 0.0751993 0.97908 0
-0.162947 0.0722578 0.983985 0
-0.150128 0.0718693 0.986051 0
-0.149819 0.0689668 0.986305 0
-0.120495 0.0694596 0.990281 0
-0.0676628 0.0659827 0.995524 0.00645632
-0.0398037 0.0655465 0.997055 0.0108529
-0.0535253 0.0659331 0.996387 0.0101474
-0.148451 0.0720177 0.986294 0
-0.15741 0.0720444 0.984902 0
-0.159712 0.0713539 0.984581 0.00268188
-0.117502 0.0681566 0.990731 0.00367028
-0.0949634 0.0667403 0.993241 0.00564467
-0.0677711 0.0673075 0.995428 0.00760765
-0.0466804 0.0657498 0.996744 0.0117576
-0.0362212 0.0653497 0.997205 0.0130267
-0.143619 0.0699765 0.987156 0.00196222
-0.126945 0.0690524 0.989503 0.00478873
-0.092888 0.0679685 0.993354 0.00681086
-0.0774985 0.0667715 0.994754 0.00765268
-0.0386904 0.0655059 0.997102 0.0125868
-0.036867 0.0659487 0.997142 0.013565
-0.0490332 0.0655359 0.996645 0.0123874
-0.0960418 0.0671991 0.993106 0.00504936
-0.105992 0.0687523 0.991987 0.00451161
-0.0844075 0.0673819 0.99415 0.00390112
-0.050501 0.0661174 0.996533 0.00824023
-0.0770951 0.0680174 0.994701 0.00848091
-0.0722465 0.0663151 0.99518 0.0107302
-0.0651501 0.0664289 0.995662 0.0109817
-0.06829 0.0673686 0.995388 0.00849807
-0.117018 0.0714971 0.990553 0.00565038
-0.0930184 0.0685194 0.993304 0.00726393
-0.0851483 0.0687398 0.993994 0.00791894
-0.0998173 0.0689927 0.992611 0.00836507
-0.0709991 0.0677365 0.995174 0.00688543
-0.0541357 0.0673983 0.996256 0.0113723
-0.0582986 0.0678167 0.995993 0.00926316
-0.0645567 0.0676357 0.995619 0.0139768
-0.113836 0.0697666 0.991047 0.00543084
-0.100102 0.0694162 0.992553 0.0101922
-0.0855889 0.0691696 0.993927 0.0115406
-0.0896204 0.0680303 0.99365 0.00800705
-0.0572926 0.0670625 0.996103 0.0144084
-0.0548173 0.0686164 0.996136 0.0145606
-0.0793277 0.0680258 0.994525 0.0122083
-0.0639176 0.0688867 0.995575 0.0182607
-0.13824 0.0708511 0.987861 0.00905524
-0.0885376 0.068892 0.993688 0.0128775
-0.090178 0.06889 0.99354 0.00931833
-0.0974985 0.0688993 0.992848 0.0092875
-0.0918834 0.0671535 0.993503 0.0113907
-0.0605175 0.0684927 0.995814 0.0135808
-0.0647459 0.0677454 0.9956 0.0148497
-0.0729005 0.0680458 0.995015 0.0131251
-0.13592 0.0687568 0.988331 0.0115343
-0.111056 0.0694979 0.991381 0.0114854
-0.0902893 0.0695875 0.993481 0.0140242
-0.0920511 0.067051 0.993494 0.00776633
-0.109098 0.0667073 0.99179 0.00595012
-0.105199 0.0665519 0.992222 0.00789378
-0.0911316 0.0676738 0.993537 0.0153156
-0.079986 0.0664875 0.994576 0.019705
-0.0939271 0.0673981 0.993295 0.0113058
-0.113957 0.0687778 0.991102 0.0110589
-0.0740078 0.0670782 0.994999 0.0141828
-0.112011 0.0671945 0.991432 0.00732248
-0.0746336 0.0654125 0.995063 0.0121204
-0.0775157 0.0666394 0.994762 0.0116252
-0.121485 0.0672386 0.990313 0.00652182
-0.102831 0.067045 0.992437 0.0169515
-0.141117 0.06779 0.987669 0.00945193
-0.0988286 0.0667884 0.992861 0.00783538
-0.0678361 0.0657667 0.995526 0.015715
-0.0827449 0.0668355 0.994327 0.0135895
-0.081808 0.0656885 0.994481 0.0100556
-0.0906122 0.0654785 0.993731 0.00712621
-0.105135 0.0650636 0.992327 0.0131678
-0.113747 0.0669034 0.991255 0.0127548
-0.129652 0.0683206 0.989203 0.00888979
-0.138656 0.0689023 0.987941 0.0066557
-0.0730502 0.065818 0.995154 0.00859827
-0.0709329 0.0657438 0.995312 0.0118608
-0.0797038 0.0669304 0.994569 0.0123611
-0.0860529 0.0665176 0.994068 0.0091294
-0.102258 0.0659975 0.992566 0.0145046
-0.127851 0.0672936 0.989508 0.0139182
-0.152632 0.0695763 0.985831 0.00902949
-0.153361 0.0688429 0.985769 0.00729966
-0.0850619 0.0666632 0.994143 0.0106814
-0.0691053 0.0673898 0.995331 0.0120831
-0.0706267 0.0671912 0.995237 0.0123531
-0.10042 0.0663056 0.992733 0.0109163
-0.139244 0.0680439 0.987917 0.00795363
-0.137312 0.0693761 0.988095 0.01243
-0.13367 0.0692234 0.988605 0.00938769
-0.131653 0.0671825 0.989017 0.00604573
-0.093524 0.0691009 0.993216 0.0119385
-0.0621729 0.0671054 0.995807 0.0111375
-0.0857603 0.0673547 0.994036 0.00637504
-0.0742581 0.0667032 0.995006 0.0101032
-0.0697448 0.0674142 0.995284 0.0161097
-0.105573 0.0691846 0.992002 0.0146904
-0.124719 0.0681533 0.989849 0.0141877
-0.114151 0.0684071 0.991105 0.0127617
-0.136922 0.0684066 0.988217 0.00658698
-0.102602 0.0683935 0.992368 0.0054327
-0.0932815 0.0674823 0.99335 0.00917162
-0.0714259 0.0671513 0.995183 0.0121994
-0.0673279 0.0677174 0.99543 0.0124442
-0.0869157 0.0669763 0.993962 0.0132225
-0.109024 0.0683642 0.991686 0.00868794
-0.121493 0.0703508 0.990096 0.00918843
-0.155685 0.0699908 0.985324 0.00557209
-0.100892 0.0690068 0.992501 0.00349997
-0.102741 0.0688046 0.992326 0.00494971
-0.12235 0.0689593 0.990088 0.00358513
-0.0916462 0.067276 0.993516 0.00898756
-0.0987466 0.0686058 0.992745 0.0102298
-0.14538 0.0693328 0.986944 0.00812074
-0.11485 0.0709071 0.990849 0.0132742
-0.142462 0.0723747 0.987151 0.00578255
-0.124531 0.0709499 0.989676 0.00591996
-0.113793 0.0697624 0.991052 0.00447536
-0.118075 0.0700528 0.990531 0.00636745
-0.134288 0.0696264 0.988493 0.00567238
-0.160936 0.0695973 0.984508 0.00129304
-0.117828 0.0704041 0.990535 0.00732336
-0.132612 0.0709787 0.988623 0.00962838
-0.135311 0.0720132 0.988183 0.00948725
-0.110783 0.0730053 0.99116 0.00871133
-0.15762 0.0706175 0.984972 0
-0.141915 0.0710112 0.987329 0.00541386
-0.13972 0.0693257 0.987761 0.00467267
-0.1515 0.0683894 0.986089 0
-0.145101 0.0685606 0.987039 0
-0.159838 0.0704461 0.984626 0
-0.123189 0.0721515 0.989757 0.00769057
-0.131473 0.0735808 0.988585 0.00614251
-0.195226 0.0750889 0.97788 0
-0.197828 0.0759695 0.977288 0
-0.169325 0.0703303 0.983048 0
-0.168575 0.0689661 0.983273 0
-0.176806 0.0693901 0.981797 0
-0.175694 0.07031 0.981931 0
-0.122655 0.0706272 0.989933 0.00362269
-0.144884 0.0727194 0.986773 0.00626812
-0.126314 0.0725175 0.989336 0.00611864
-0.149494 0.0746593 0.98594 0
-0.140148 0.0747259 0.987307 0.000854896
-0.222887 0.0705405 0.972289 0
-0.226618 0.0670412 0.971674 0
-0.228112 0.0697041 0.971136 0
-0.191517 0.0693909 0.979033 0
-0.13103 0.0722349 0.988743 0.00622469
-0.128131 0.0707994 0.989227 0.00570144
-0.125838 0.0735742 0.989319 0.00707342
-0.108536 0.0738043 0.991349 0.00700128
-0.120764 0.0759037 0.989775 0.00371561
-0.137438 0.0750341 0.987664 0
-0.198635 0.0702974 0.977549 0
-0.216958 0.0708171 0.973609 0
-0.189785 0.0715939 0.979212 0
-0.176516 0.0711451 0.981723 0
-0.140107 0.0719047 0.987522 0
-0.120526 0.0727969 0.990037 0.00300466
-0.159868 0.0761051 0.9842 0
-0.135632 0.0769915 0.987763 0
-0.141046 0.0747358 0.987178 0
-0.169516 0.0698428 0.98305 0.000557044
-0.173165 0.0704278 0.982372 0
-0.143399 0.0705045 0.98715 0.00603252
-0.155212 0.0699166 0.985404 0.00532725
-0.142594 0.0712436 0.987214 0.000926899
-0.127043 0.0725536 0.98924 0.00283909
-0.0977719 0.0732922 0.992506 0.00524052
-0.171059 0.0761948 0.98231 0
-0.169285 0.0738866 0.982794 0
-0.16699 0.0751227 0.983092 0
-0.166417 0.0702402 0.983551 0.000836148
-0.175732 0.0696226 0.981973 0.00336608
-0.140425 0.0709101 0.987549 0.0059145
-0.148875 0.0712991 0.986282 0.00218597
-0.169422 0.0728184 0.98285 0
-0.124034 0.0724934 0.989626 0.000339522
-0.164851 0.0754973 0.983425 0
-0.155633 0.0742266 0.985022 0
-0.200813 0.0751938 0.976739 0
-0.18898 0.0712986 0.979389 0
-0.159632 0.0705567 0.984652 0.00213851
-0.152419 0.0714715 0.985728 0.00406221
-0.170365 0.0713395 0.982795 0.00409572
-0.199284 0.0709282 0.977371 0
-0.128776 0.0716261 0.989084 0.00121366
-0.160162 0.072968 0.98439 0
-0.140108 0.0737283 0.987387 0
-0.152399 0.07398 0.985546 0
-0.174698 0.0717617 0.982004 0
-0.185756 0.0721916 0.97994 0.00233651
-0.177948 0.0723148 0.981379 0.00393969
-0.14342 0.0717952 0.987054 0.00671819
-0.127557 0.0722956 0.989193 0.00165754
-0.14931 0.0730732 0.986087 0
-0.152674 0.074292 0.98548 0
-0.158083 0.0745736 0.984606 0
-0.140213 0.0713427 0.987548 0.00570492
-0.131964 0.0728898 0.988571 0.00557055
-0.131376 0.0733776 0.988613 0.00466964
-0.102586 0.0744455 0.991934 0.00605263
-0.121327 0.0756895 0.989723 0.00430405
-0.120069 0.0743957 0.989974 0
-0.154152 0.0741491 0.985261 0
-0.173242 0.0729708 0.982172 0
-0.1454 0.0728773 0.986685 0
-0.129895 0.0731935 0.988823 0.00181459
-0.135417 0.0739676 0.988024 0.000255944
-0.151148 0.0746032 0.985692 0
-0.116201 0.0736352 0.990492 0.00278069
-0.147253 0.0725804 0.986432 0
-0.139746 0.0736661 0.987443 0.0002518
-0.105087 0.074629 0.991659 0.00827744
-0.114724 0.0718507 0.990796 0.00736091
-0.129825 0.0722843 0.988899 0.00529986
-0.113984 0.0727534 0.990815 0.00433786
-0.148449 0.0736401 0.986174 0
-0.16471 0.0727793 0.983653 0
-0.171183 0.0732066 0.982516 0
-0.114385 0.0740741 0.990671 0.00664854
-0.117629 0.0724408 0.990412 0.00224938
-0.0940876 0.0723326 0.992933 0.00719722
-0.131396 0.0719886 0.988713 0.00507681
-0.1605 0.0727809 0.984349 0
-0.153926 0.0716265 0.985483 0
-0.133583 0.0704809 0.988528 0.00497051
-0.127883 0.0726502 0.989125 0.00415064
-0.100985 0.0727034 0.992228 0.00463741
-0.0995142 0.0717143 0.992448 0.00847218
-0.110485 0.0727656 0.991211 0.00479444
-0.120613 0.0718031 0.990099 0.00463202
-0.144582 0.0705732 0.986973 0.00353034
-0.139099 0.0708339 0.987742 0.00287104
-0.13448 0.0720085 0.988296 0.00687785
-0.119297 0.0716592 0.990269 0.00503501
-0.0949531 0.0720157 0.992873 0.0109042
-0.106446 0.0715108 0.991744 0.00866668
-0.105654 0.0723414 0.991768 0.00725796
-0.085975 0.0715186 0.993727 0.0106877
-0.103956 0.0707421 0.992063 0.00931928
-0.121556 0.0707271 0.990062 0.00636694
-0.128897 0.0706599 0.989137 0.00993691
-0.135544 0.070782 0.98824 0.00414371
-0.0803356 0.0725803 0.994122 0.0150388
-0.0655403 0.0718647 0.995259 0.0185534
-0.0576885 0.0717471 0.995753 0.0142332
-0.0373496 0.0700701 0.996843 0.0144626
-0.0475122 0.0699769 0.996417 0.0143581
-0.09347 0.0693195 0.993206 0.0131751
-0.131326 0.0702453 0.988847 0.0081995
-0.130715 0.0706747 0.988898 0.00429195
-0.0561993 0.0731007 0.99574 0.0132514
-0.0643261 0.0706781 0.995423 0.0137515
-0.0758743 0.0695951 0.994686 0.00944475
-0.0444546 0.0702563 0.996538 0.0138038
-0.0553642 0.069114 0.996071 0.0105009
-0.0918592 0.0699821 0.99331 0.0102357
-0.144466 0.0691967 0.987087 0.00284104
-0.13111 0.0691632 0.988952 0
-0.118666 0.069033 0.990532 0
-0.0482275 0.0702964 0.99636 0.0124264
-0.062381 0.071841 0.995463 0.0106386
-0.0497467 0.0709279 0.99624 0.0116433
-0.0693475 0.0704609 0.995101 0.0117317
-0.067205 0.0702339 0.995264 0.0119055
-0.0860425 0.0703692 0.993803 0.0081401
-0.125587 0.0705709 0.989569 0
-0.111803 0.0694308 0.991302 0
-0.0656632 0.0708678 0.995322 0.0093354
-0.0480293 0.0710786 0.996314 0.0109051
-0.0593522 0.0703719 0.995754 0.00969375
-0.0567526 0.0716745 0.995812 0.00902609
-0.0764536 0.0716584 0.994495 0.00783195
-0.0974189 0.0693026 0.992828 0.00281909
-0.117487 0.0702541 0.990586 0
-0.117028 0.0689426 0.990733 0
-0.0813872 0.0726388 0.994032 0.00601631
-0.0475415 0.070442 0.996382 0.00905398
-0.0573704 0.0710371 0.995822 0.00651868
-0.105216 0.0703909 0.991955 0.000537874
-0.0708152 0.0715258 0.994922 0.00861066
-0.10367 0.0706633 0.992098 0.00220753
-0.150596 0.072281 0.985949 0
-0.170011 0.0698317 0.982965 0
-0.0735907 0.0709961 0.994758 0.00391676
-0.0760084 0.070948 0.99458 0.00512511
-0.0783844 0.0708111 0.994405 0.00318284
-0.107878 0.0711791 0.991613 0.00225785
-0.13615 0.0719411 0.988073 0
-0.167942 0.0709796 0.983238 0
-0.16251 0.0696767 0.984244 0
-0.139314 0.0683528 0.987886 0
-0.128721 0.0667246 0.989434 0
-0.0869433 0.0702817 0.993731 0.00484691
-0.0864769 0.0703301 0.993768 0.00586086
-0.10839 0.0705544 0.991602 0.000132422
-0.10848 0.0716229 0.991515 0.00207226
-0.101984 0.0712345 0.992232 0
-0.107701 0.0700335 0.991714 0
-0.140377 0.0696057 0.987648 0
-0.149451 0.0692382 0.986342 0
-0.133758 0.0669209 0.988752 0
-0.0897336 0.0714891 0.993397 0.00568344
-0.0885512 0.0720572 0.993462 0.00340566
-0.0900993 0.0709929 0.993399 0
-0.110044 0.0697634 0.991475 0
-0.115707 0.0693818 0.990857 0
-0.131113 0.0694045 0.988935 0
-0.154888 0.0683255 0.985566 0
-0.125854 0.0675007 0.98975 0
-0.113303 0.0656959 0.991386 0
-0.0723942 0.0730247 0.994699 0.00777442
-0.136158 0.0712213 0.988124 0
-0.135229 0.070733 0.988286 0
-0.131698 0.0702642 0.988796 0
-0.149695 0.0692574 0.986304 0
-0.148527 0.0678821 0.986576 0
-0.137272 0.0669338 0.988269 0
-0.133581 0.0671645 0.988759 0
-0.135891 0.0661592 0.988512 0
-0.0823613 0.0721643 0.993986 0.00749111
-0.11495 0.0709306 0.990836 0.0019873
-0.109084 0.0712599 0.991475 0
-0.131035 0.072167 0.988748 0
-0.108406 0.0691485 0.991699 0
-0.138801 0.0687274 0.987933 0
-0.136729 0.0666301 0.988365 0
-0.105123 0.066191 0.992254 0
-0.103161 0.0709693 0.99213 0
-0.125849 0.070834 0.989517 0
-0.106556 0.0703171 0.991817 0.00102076
-0.117281 0.0701919 0.990615 0
-0.10723 0.0678714 0.991915 0
-0.0991141 0.0684551 0.992719 0
-0.0927441 0.0678202 0.993378 0.000226629
-0.0923314 0.0682744 0.993385 0
-0.116165 0.0709814 0.99069 0.00325957
-0.0995669 0.071177 0.992482 0
-0.136701 0.070396 0.988108 0
-0.123211 0.06976 0.989926 0
-0.0978385 0.0696262 0.992764 0
-0.105519 0.0697641 0.991967 0
-0.0907773 0.0684838 0.993514 0.00089308
-0.0742269 0.0712213 0.994695 0.00386224
-0.1067 0.0708235 0.991766 0.00142854
-0.0943909 0.0712884 0.99298 0
-0.115951 0.0704202 0.990755 0
-0.132922 0.0716586 0.988533 0
-0.135863 0.0702153 0.988236 0
-0.116095 0.06784 0.990919 0
-0.09943 0.0689685 0.992652 0.00341195
-0.117916 0.070385 0.990526 0
-0.0816197 0.07222 0.994044 0.00457399
-0.103778 0.0711677 0.992051 0.00133487
-0.0902709 0.0714419 0.993352 0
-0.125372 0.0709231 0.989572 0
-0.139504 0.0708758 0.987682 0
-0.104713 0.0697353 0.992055 0.00165218
-0.126329 0.0683518 0.989631 0
-0.118496 0.0696716 0.990507 0
-0.136074 0.0702471 0.988205 0.00364169
-0.142568 0.0690169 0.987376 0
-0.159762 0.0693199 0.984719 0
-0.12369 0.0694019 0.989891 0
-0.109174 0.0680122 0.991693 0.00289979
-0.117709 0.0684255 0.990688 0
-0.147863 0.0694748 0.986565 8.13587e-05
-0.136135 0.0704042 0.988186 0.00201018
-0.145667 0.0698212 0.986867 0.000283378
-0.145959 0.0700099 0.98681 0
-0.209374 0.0703137 0.975304 0
-0.177977 0.0701766 0.981529 0
-0.144765 0.0684053 0.987099 0
-0.124265 0.0680503 0.989913 0
-0.145255 0.0691145 0.986977 0
-0.135072 0.0679254 0.988505 0
-0.18193 0.0698501 0.980828 0
-0.177592 0.069482 0.981648 0
-0.161316 0.0676783 0.984579 0
-0.147043 0.0660604 0.986922 0
-0.128764 0.0673192 0.989388 0
-0.108233 0.0693223 0.991706 0
-0.14597 0.0699187 0.986815 0
-0.178471 0.0696247 0.981479 0
-0.178643 0.0698387 0.981432 0
-0.145071 0.0676067 0.987109 0
-0.139397 0.0662538 0.988018 0
-0.157398 0.0667869 0.985274 0
-0.124453 0.0676433 0.989917 0
-0.143001 0.0692863 0.987294 0
-0.116147 0.0690703 0.990828 0.00201183
-0.201246 0.0704579 0.977003 0
-0.157107 0.0690437 0.985165 0.00124826
-0.14565 0.0687832 0.986942 0
-0.144365 0.0673557 0.98723 0
-0.112752 0.0667573 0.991378 0.00349884
-0.126922 0.0674497 0.989617 0
-0.159889 0.0704117 0.984621 0
-0.146234 0.0696146 0.986798 0
-0.182259 0.0689074 0.980833 0
-0.155118 0.069483 0.985449 0.00232028
-0.137123 0.0687513 0.988165 0.00423896
-0.189029 0.0680212 0.979613 0
-0.129391 0.0684525 0.989228 0.000924116
-0.103126 0.0694625 0.99224 0.00472958
-0.15202 0.0704474 0.985864 0
-0.160934 0.0702251 0.984464 0
-0.198999 0.0711277 0.977415 0
-0.124635 0.0693247 0.989778 0.00244892
-0.151889 0.0679465 0.986059 0
-0.168496 0.0694334 0.983254 0
-0.146237 0.0703996 0.986741 0
-0.151708 0.0691029 0.986007 0
-0.156249 0.0702249 0.985218 0
-0.189758 0.0700802 0.979327 0
-0.174306 0.0701049 0.982193 0
-0.188734 0.0691765 0.979589 0
-0.240955 0.0715274 0.967897 0
-0.197178 0.0725007 0.977683 0
-0.183261 0.0720107 0.980423 0
-0.170707 0.0692692 0.982884 0
-0.190502 0.0712834 0.979095 0
-0.212041 0.07299 0.974531 0
-0.18671 0.0732458 0.979681 0
-0.220686 0.0721761 0.972671 0
-0.198999 0.0734633 0.977242 0
-0.164697 0.0736621 0.98359 0
-0.192722 0.0713654 0.978655 0
-0.165832 0.0692556 0.983719 0
-0.188029 0.0740413 0.979369 0
-0.147465 0.0729648 0.986372 0
-0.172971 0.0731619 0.982206 0
-0.16549 0.0737308 0.983452 0
-0.177914 0.0733921 0.981305 0
-0.148239 0.072713 0.986275 0.000281914
-0.158145 0.0696308 0.984958 0
-0.142089 0.0689202 0.987452 0
-0.156515 0.0738765 0.984909 0
-0.138944 0.0733535 0.98758 0
-0.146884 0.073162 0.986444 0
-0.178393 0.0731908 0.981233 0
-0.154859 0.0714069 0.985353 0.000205937
-0.17506 0.0713335 0.98197 0
-0.133009 0.0718869 0.988504 0.00164858
-0.145583 0.0736341 0.986602 0
-0.155653 0.0749667 0.984963 0
-0.166899 0.073818 0.983207 0
-0.172515 0.0720837 0.982366 0
-0.142347 0.0720618 0.98719 0.00147154
-0.139602 0.0716757 0.98761 0.00685925
-0.123773 0.0730211 0.98962 0.00592111
-0.136541 0.0730875 0.987935 0.00226448
-0.125709 0.0749498 0.989232 0.00150253
-0.138683 0.0763043 0.987393 0
-0.172005 0.0759215 0.982166 0
-0.185832 0.0746038 0.979745 0
-0.158695 0.0723793 0.984671 0.000813644
-0.133738 0.0714636 0.988437 0.000865435
-0.140407 0.0731373 0.987389 0.00886775
-0.166047 0.0731281 0.983403 0
-0.133596 0.0732381 0.988326 0.00232989
-0.191549 0.0764425 0.978502 0
-0.198746 0.0753703 0.977149 0
-0.209456 0.0752941 0.974915 0
-0.145059 0.0734035 0.986696 0.0027783
-0.13117 0.0740149 0.988593 0.00331833
-0.153658 0.0729652 0.985426 0
-0.110076 0.0715906 0.991342 0
-0.0903591 0.0710256 0.993373 0.0024095
-0.171397 0.0755238 0.982303 0.0051189
-0.210245 0.0753339 0.974742 0
-0.198878 0.0771261 0.976985 0
-0.16708 0.0746602 0.983112 0.000217433
-0.153947 0.0746231 0.985257 0
-0.122716 0.0733366 0.989729 0.00200117
-0.11357 0.0747407 0.990715 0
-0.10015 0.0732849 0.99227 0
-0.0941358 0.071456 0.992992 4.8923e-05
-0.249691 0.0753945 0.965386 0
-0.237596 0.0753167 0.96844 0
-0.192601 0.0748045 0.978422 0
