0.00988872 -0.00500988 -0.999939 0.00695992
-0.000337585 -0.00532911 -0.999986 0.0019884
-0.00424104 -0.00529449 -0.999977 0.00417703
-0.000950928 -0.0051516 -0.999986 0
0.00251712 -0.00506516 -0.999984 0
0.0138715 -0.00456517 -0.999893 0
0.0082144 -0.00458104 -0.999956 0
0.0114828 -0.00439817 -0.999924 0.000197782
0.00737385 -0.00432506 -0.999963 0.000257885
0.00506935 -0.00376095 -0.99998 0.000687823
0.010032 -0.00394476 -0.999942 0.00304338
0.00245068 -0.00360105 -0.999991 0
0.00421659 -0.0035515 -0.999985 0.000919874
-0.00241207 -0.00299398 -0.999993 0
-0.00416572 -0.00267294 -0.999988 0
-0.000555936 -0.00298828 -0.999995 0
0.0120857 -0.00377232 -0.99992 0.00687524
0.0126183 -0.00360255 -0.999914 0.00275908
0.00925694 -0.00342566 -0.999951 0.00350025
0.00929853 -0.0033059 -0.999951 0.00288241
-0.000989958 -0.00285983 -0.999995 0.00264195
0.0104248 -0.00327663 -0.99994 0.00709596
0.00769242 -0.00338145 -0.999965 0.0046032
0.0181636 -0.00353197 -0.999829 0.00845821
0.0168639 -0.00329846 -0.999852 0
0.013366 -0.0033284 -0.999905 0
0.0179244 -0.00338832 -0.999834 0.000794745
0.031746 -0.00328509 -0.999491 0.00401479
-0.00546137 -0.00451271 -0.999975 0
-0.00403454 -0.00440159 -0.999982 0
0.000260708 -0.00418135 -0.999991 0
0.000681132 -0.00420167 -0.999991 0
0.0185185 -0.00366895 -0.999822 0
0.0157652 -0.00367464 -0.999869 5.38607e-05
0.0143225 -0.00386818 -0.99989 0.00271685
0.00805763 -0.00367595 -0.999961 0
0.000279087 -0.00357896 -0.999994 0
0.0047614 -0.00350207 -0.999982 0
0.0166266 -0.00363876 -0.999855 0.00570875
0.00106684 -0.00388166 -0.999992 0.00977674
0.00529851 -0.00377672 -0.999979 0.0076105
0.002495 -0.00390053 -0.999989 0.0042089
0.00198365 -0.00417748 -0.999989 0.00512208
0.00671214 -0.00383554 -0.99997 0.000478067
0.0123687 -0.00415618 -0.999915 0.00504453
0.00704404 -0.00423602 -0.999966 0.00176768
0.0101701 -0.00436176 -0.999939 0
0.00747231 -0.00436637 -0.999963 0
0.0102723 -0.00430464 -0.999938 0
0.0193961 -0.00413361 -0.999803 0
0.0182499 -0.00468398 -0.999822 0.00429984
0.0113654 -0.00505559 -0.999923 0.00558856
-0.0024262 -0.00513075 -0.999984 0.00267616
-0.00828751 -0.00524881 -0.999952 0.00111162
-0.00547786 -0.00490162 -0.999973 0
-0.000228068 -0.00459687 -0.999989 0
-0.0019482 -0.0043596 -0.999989 0
0.00055387 -0.00420906 -0.999991 0
0.00603477 -0.00443204 -0.999972 0.0010313
-0.000855027 -0.00395514 -0.999992 0
0.000267287 -0.00386993 -0.999992 0
0.00278136 -0.00384441 -0.999989 0
0.00656792 -0.00388309 -0.999971 0
-0.00230884 -0.00295704 -0.999993 0
-0.00380221 -0.00299776 -0.999988 0
-0.00121973 -0.00326008 -0.999994 0
0.00408603 -0.00359639 -0.999985 0
0.00980523 -0.00400151 -0.999944 0.00145794
0.0109124 -0.00381617 -0.999933 0.00185563
0.0121252 -0.00366509 -0.99992 0.00616475
0.0113577 -0.00356162 -0.999929 0.00320249
0.0075855 -0.00335062 -0.999966 0.00333764
0.00358322 -0.00301761 -0.999989 0.00175345
0.00251589 -0.00326175 -0.999992 0.00135782
0.0146911 -0.00355408 -0.999886 0
0.0097953 -0.00357936 -0.999946 0
0.0142367 -0.00338933 -0.999893 0.00307327
0.00838984 -0.00420827 -0.999956 0
0.00213466 -0.00418859 -0.999989 0
-0.0017213 -0.00406625 -0.99999 0
0.00160911 -0.00411564 -0.99999 0
-0.00278584 -0.00413469 -0.999988 0
-0.00268597 -0.00396203 -0.999989 0
0.00072804 -0.00410112 -0.999991 0
0.0123154 -0.00412937 -0.999916 0
0.00610655 -0.00415206 -0.999973 0.000631967
0.0139284 -0.00408928 -0.999895 0.003374
0.0166127 -0.00413431 -0.999853 0.00365498
0.0134014 -0.00427651 -0.999901 0.00598613
0.00958729 -0.00425398 -0.999945 0.0033532
0.0103707 -0.00416391 -0.999938 0.00500486
0.0103032 -0.00403265 -0.999939 0.00294696
0.00867653 -0.00411273 -0.999954 0.000314953
0.0160298 -0.00433548 -0.999862 0.00690392
0.010923 -0.00434235 -0.999931 0.00101756
0.0104562 -0.0042487 -0.999936 0
0.00746772 -0.00403254 -0.999964 0
0.0121375 -0.00421457 -0.999917 0
0.0144646 -0.00434991 -0.999886 0
0.0167129 -0.00456637 -0.99985 0.000228466
0.0159441 -0.0046946 -0.999862 0.00548584
0.0095159 -0.00472605 -0.999944 0.00576361
-0.00222443 -0.00487218 -0.999986 0.00172301
-0.00369007 -0.00461922 -0.999982 0
-0.0035339 -0.00439094 -0.999984 0
-0.000435063 -0.00431757 -0.999991 0
0.00346864 -0.00409981 -0.999986 0
-0.00197354 -0.00392197 -0.99999 0
-0.00716185 -0.00378357 -0.999967 0
-0.00436363 -0.00362626 -0.999984 0
-0.00359102 -0.00363448 -0.999987 0
-0.0042684 -0.00346459 -0.999985 0
-0.00722679 -0.00314113 -0.999969 0
-0.00697535 -0.00288294 -0.999972 0
0.000413891 -0.00327933 -0.999995 0
0.00523598 -0.00361331 -0.99998 0
0.00729362 -0.0036814 -0.999967 0.00233145
0.00847901 -0.0038345 -0.999957 0.00609962
0.0104974 -0.00380205 -0.999938 0.00467766
0.0114687 -0.00391308 -0.999927 0.00832762
0.0151288 -0.0038444 -0.999878 0.00543726
0.0149233 -0.00376768 -0.999882 0.00319992
0.0123238 -0.00364911 -0.999917 0.000327874
0.00306939 -0.00373356 -0.999988 0
0.00555348 -0.00375976 -0.999978 0
0.00940775 -0.00346479 -0.99995 0
0.00960975 -0.00349123 -0.999948 0
0.021865 -0.0042161 -0.999752 0
0.0259841 -0.004261 -0.999653 0
0.0277444 -0.00431714 -0.999606 0
0.0101714 -0.00435159 -0.999939 0
0.00254685 -0.00451224 -0.999987 0
0.00627254 -0.00440177 -0.999971 0
0.00855868 -0.00452389 -0.999953 0
0.0198573 -0.00442633 -0.999793 0.00104702
0.00930719 -0.00440923 -0.999947 0.00509753
0.0122596 -0.00441815 -0.999915 0.00372579
0.0159968 -0.00436397 -0.999862 0.00369426
0.0117985 -0.00427067 -0.999921 0.0018731
0.0172562 -0.00413356 -0.999843 0
0.0181659 -0.00422165 -0.999826 0.00257942
0.0211104 -0.00426267 -0.999768 0.00312904
0.0188176 -0.00427643 -0.999814 0.00216987
0.0175717 -0.00436085 -0.999836 0.00340791
0.00984101 -0.00420254 -0.999943 0
0.0127423 -0.00417395 -0.99991 0
0.0107329 -0.00420983 -0.999934 0
0.00562721 -0.00436483 -0.999975 0
0.00907783 -0.00444453 -0.999949 0
0.0112688 -0.0044961 -0.999926 2.04545e-05
0.0138607 -0.00465376 -0.999893 0.00474425
0.00609269 -0.00463716 -0.999971 0.00516529
-0.00132011 -0.00476612 -0.999988 0.00327098
0.00329747 -0.00445901 -0.999985 0
0.0087101 -0.00413069 -0.999954 0
0.00823272 -0.003948 -0.999958 0
0.0099052 -0.0039587 -0.999943 0
0.00543809 -0.00372354 -0.999978 0
0.00344602 -0.00379223 -0.999987 0
-0.00414424 -0.00366221 -0.999985 0
-0.0087999 -0.00332542 -0.999956 0
0.0031783 -0.00377227 -0.999988 0
-0.00690277 -0.00326577 -0.999971 0
-0.00419362 -0.0032074 -0.999986 0
0.00287341 -0.00350189 -0.99999 0.00334919
0.0160462 -0.00419567 -0.999862 0.00515183
0.016226 -0.0041486 -0.99986 0.0063187
0.0135301 -0.00381875 -0.999901 0.00621519
0.015642 -0.00381271 -0.99987 0.00834756
0.0223805 -0.00403956 -0.999741 0.00921291
0.0122024 -0.00357057 -0.999919 0.00587575
0.0122206 -0.00337535 -0.99992 0.00448956
0.00667822 -0.00326358 -0.999972 0
0.00744983 -0.00330061 -0.999967 0
0.00556035 -0.00337025 -0.999979 0.00118017
0.0129158 -0.00387533 -0.999909 0
0.0157351 -0.00398277 -0.999868 0
0.015707 -0.003962 -0.999869 0
0.00698621 -0.00408629 -0.999967 0
0.00661166 -0.00408689 -0.99997 0
-0.00619321 -0.00421993 -0.999972 0
-0.00521973 -0.00432203 -0.999977 0
-0.0027545 -0.00443842 -0.999986 0.000879856
-0.000536528 -0.00433887 -0.999991 0.00188514
0.012111 -0.00412272 -0.999918 0.00585459
0.0200352 -0.00410035 -0.999791 0.00501908
0.00906712 -0.00408955 -0.999951 0.00346397
0.00713703 -0.004116 -0.999966 0.00298936
0.0119017 -0.00402245 -0.999921 0.00118415
0.0183307 -0.00401231 -0.999824 0.00283742
0.0158615 -0.00408612 -0.999866 0.00642353
0.0170442 -0.00401811 -0.999847 0.00792946
0.0157128 -0.00382281 -0.999869 0.000385017
0.0143714 -0.00377623 -0.99989 0
0.00903753 -0.00381784 -0.999952 0
0.009031 -0.00409954 -0.999951 0
0.0127298 -0.00411778 -0.99991 0.00537995
0.00824847 -0.0041753 -0.999957 0.00801258
0.00781407 -0.00400714 -0.999961 0.00461556
0.0075979 -0.00394567 -0.999963 0.0031127
0.00204354 -0.00382946 -0.999991 0.00428973
0.0153584 -0.00401798 -0.999874 0.00605366
0.00946333 -0.00378805 -0.999948 0.00230011
0.0116065 -0.00364222 -0.999926 0
0.0140416 -0.00349849 -0.999895 0
0.00442655 -0.00317223 -0.999985 0
0.00231303 -0.00292273 -0.999993 0
-0.00138591 -0.00293202 -0.999995 0
-0.00548547 -0.00274372 -0.999981 0
0.00293376 -0.00279109 -0.999992 0
0.000549962 -0.00280853 -0.999996 0
0.00419922 -0.0030403 -0.999987 0.00598116
0.0138178 -0.0032697 -0.999899 0.00764807
0.0166739 -0.00363449 -0.999854 0.012448
0.0136488 -0.00335585 -0.999901 0.00804463
0.00877418 -0.00310847 -0.999957 0.00374136
0.0091687 -0.00315014 -0.999953 0.00407767
0.0100682 -0.00301426 -0.999945 0.00423488
0.00934039 -0.00274712 -0.999953 0.00182876
0.00311643 -0.00261938 -0.999992 0.00211472
0.00741157 -0.0027846 -0.999969 0.00507491
0.00698719 -0.00292231 -0.999971 0.00379426
0.00755274 -0.00292538 -0.999967 0.00452638
0.00734601 -0.00296777 -0.999969 0.00328782
0.01356 -0.0030568 -0.999903 0.0055347
0.00845007 -0.00313377 -0.999959 0.00102452
-0.000471406 -0.00304354 -0.999995 0.000397518
0.0107633 -0.00331256 -0.999937 0.00126124
0.00279196 -0.00320268 -0.999991 0
-0.00315696 -0.00329875 -0.99999 0
-0.00184251 -0.0033545 -0.999993 0
0.00814671 -0.00360018 -0.99996 0
0.00712263 -0.00355607 -0.999968 0
0.00784076 -0.00363642 -0.999963 0
0.00965038 -0.00354625 -0.999947 0
0.018407 -0.003524 -0.999824 0.0037387
0.00957481 -0.00361665 -0.999948 0.00716737
0.0179308 -0.00360825 -0.999833 0.00877381
0.0180591 -0.00356556 -0.999831 0.00462531
0.0316108 -0.00344475 -0.999494 0.0101875
0.0241228 -0.0032952 -0.999704 0.0129142
0.0200719 -0.00328588 -0.999793 0.00779544
0.01617 -0.00303573 -0.999865 0.00217179
0.0163826 -0.00308502 -0.999861 0.00648571
0.014169 -0.00313278 -0.999895 0.00217668
0.0141542 -0.00304219 -0.999895 0
0.00968347 -0.00314787 -0.999948 0.00657702
0.0136128 -0.00327931 -0.999902 0.00980314
0.0121174 -0.00332598 -0.999921 0.011889
0.0082721 -0.00306324 -0.999961 0.00861818
-0.00353566 -0.00276264 -0.99999 0.00108425
0.00148916 -0.00301832 -0.999994 0.00561529
0.00374852 -0.00288492 -0.999989 0
0.0103275 -0.00283507 -0.999943 0.00168111
0.00926501 -0.00284706 -0.999953 0.00422466
0.00272535 -0.00238458 -0.999993 0
0.00624759 -0.00237945 -0.999978 0
0.00611834 -0.00229537 -0.999979 0
0.000753292 -0.00224347 -0.999997 0
0.00663891 -0.00217028 -0.999976 0
0.00333504 -0.00204011 -0.999992 0
0.00854871 -0.00206976 -0.999961 0.00245122
0.00668866 -0.00216308 -0.999975 0.00367969
0.00886247 -0.00227983 -0.999958 0.004649
0.0119889 -0.00233716 -0.999925 0.00251398
0.00966573 -0.00215221 -0.999951 0.000938554
0.0126573 -0.00217294 -0.999918 0
0.0120406 -0.00207718 -0.999925 0
0.00080647 -0.00198739 -0.999998 0
-0.0021234 -0.00209235 -0.999996 0.00285058
-0.00496303 -0.00214471 -0.999985 0.00281728
-0.00152158 -0.002174 -0.999996 0.00569728
0.00122628 -0.00220548 -0.999997 0.00712367
0.00623276 -0.00228441 -0.999978 0.0105107
0.0112207 -0.0022281 -0.999935 0.00897308
0.00848236 -0.00222626 -0.999961 0.00760426
0.0069151 -0.00233921 -0.999973 0.00921655
0.00977161 -0.00215258 -0.99995 0.0032679
0.0197045 -0.0022171 -0.999803 0
0.0225349 -0.00226186 -0.999743 0
0.0179661 -0.00218311 -0.999836 0.00172228
0.0103359 -0.00224028 -0.999944 0
0.00895373 -0.00238561 -0.999957 0.00400506
0.00399674 -0.00253224 -0.999989 0
-0.00115415 -0.00269541 -0.999996 0
0.00946465 -0.00270396 -0.999952 0
0.00786661 -0.00241703 -0.999966 0
-0.00106336 -0.00255829 -0.999996 0
0.00201161 -0.00255854 -0.999995 0
0.000164401 -0.00266756 -0.999996 0
0.00746468 -0.00269029 -0.999969 0.00475106
0.014861 -0.00269989 -0.999886 0.00556334
0.0136524 -0.0025753 -0.999904 0.00537216
0.0273891 -0.00249443 -0.999622 0.0101482
0.0271566 -0.00251124 -0.999628 0.0140875
0.0215042 -0.00240299 -0.999766 0.0119141
0.0201991 -0.00229285 -0.999793 0.0101315
0.00661138 -0.00197003 -0.999976 0
0.0105812 -0.00203708 -0.999942 0.000526312
0.0172076 -0.0021165 -0.99985 0.000494289
0.0120964 -0.00204329 -0.999925 0.000931672
0.0143392 -0.00191451 -0.999895 0.00570143
0.00947293 -0.00196763 -0.999953 0.00989407
0.00272523 -0.00191462 -0.999994 0.00513173
-0.00500294 -0.00154758 -0.999986 0.00135257
0.00266563 -0.00174862 -0.999995 0.00424048
0.00166459 -0.00160347 -0.999997 0.00242499
0.00728099 -0.0016384 -0.999972 0.00184041
0.00120658 -0.00148937 -0.999998 0
0.011177 -0.00155897 -0.999936 0
0.00809929 -0.00144191 -0.999966 0
-0.00169887 -0.00129385 -0.999998 0.00120707
-0.00180253 -0.00117504 -0.999998 0
0.00372025 -0.00136489 -0.999992 0
0.0129147 -0.00126129 -0.999916 0.00136142
0.0154368 -0.00127968 -0.99988 0.00475412
0.0104761 -0.00104682 -0.999945 0.000503929
0.0152161 -0.0011419 -0.999884 0.0030381
0.012333 -0.00113807 -0.999923 0.00436434
0.00525239 -0.00103312 -0.999986 0
0.00537362 -0.00121026 -0.999985 0
0.00870811 -0.0012482 -0.999961 0
-0.00151301 -0.00124917 -0.999998 0
-0.00238232 -0.00119687 -0.999996 0
-0.0136717 -0.00141876 -0.999906 0
-0.00463973 -0.00130821 -0.999988 0
-0.00107212 -0.00151215 -0.999998 0.00295423
-0.00125113 -0.00141944 -0.999998 0.00437083
0.0113115 -0.00155379 -0.999935 0.0134149
0.0164732 -0.00119606 -0.999864 0.00455353
0.0169138 -0.001346 -0.999856 0.00853927
0.0162889 -0.00158993 -0.999866 0.000236605
0.0196073 -0.00175144 -0.999806 0.00622668
0.00599271 -0.00171762 -0.999981 0.00512629
0.00784882 -0.00167168 -0.999968 0.00351388
0.0171555 -0.00189143 -0.999851 0.00615478
0.0196217 -0.00188608 -0.999806 0.0116566
0.0182575 -0.00173399 -0.999832 0.00135263
0.0186572 -0.00183068 -0.999824 0.00210574
0.0252217 -0.00166596 -0.999681 0.00214931
0.0101836 -0.00160275 -0.999947 0.00192173
0.0237184 -0.00159537 -0.999717 0.00589915
0.0246075 -0.00172817 -0.999696 0.00889729
0.0324718 -0.0018009 -0.999471 0.0150236
0.0170708 -0.0014888 -0.999853 0.00786764
0.0146633 -0.00137164 -0.999892 0.00519197
0.013478 -0.00139812 -0.999908 0.0025217
0.0110681 -0.00126948 -0.999938 0.000442326
0.0131632 -0.00145803 -0.999912 0.00397697
0.0228113 -0.0013643 -0.999739 0
0.0121514 -0.00116134 -0.999925 0
0.0117399 -0.00102291 -0.999931 0
0.0123593 -0.00100465 -0.999923 0.00281805
-0.00392136 -0.000621661 -0.999992 0
-0.00151392 -0.000506455 -0.999999 0
-0.000240631 -0.000626843 -1 0
9.88409e-05 -0.000543498 -1 0
0.00503241 -0.000796674 -0.999987 0
0.00587973 -0.000831093 -0.999982 0.0041705
0.00621157 -0.000751149 -0.99998 0.00502618
0.00625843 -0.000729473 -0.99998 0.00676175
-0.000208834 -0.000533019 -1 0.00216152
6.5712e-05 -0.000669544 -1 0
0.000461111 -0.000873213 -1 0
0.00838421 -0.000644348 -0.999965 0
0.0112014 -0.000444034 -0.999937 0.000479163
0.00661336 -0.000528927 -0.999978 0
0.00357111 -0.00045496 -0.999994 0
0.00299103 -0.000432752 -0.999995 0
0.00181303 -0.000403727 -0.999998 0
0.00212196 -0.000345105 -0.999998 0
-0.00209278 -0.000385946 -0.999998 0
-0.00889082 -0.00042388 -0.99996 0
-0.00332019 -0.000408497 -0.999994 0
-0.0074125 -0.000503266 -0.999972 0.00266063
0.00432874 -0.000590638 -0.99999 0.00611342
0.0165854 -0.000846529 -0.999862 0.00987855
0.0169384 -0.00075309 -0.999856 0.00760862
0.0203716 -0.000625858 -0.999792 0.0109542
0.0251797 -0.0011004 -0.999682 0.00750304
0.0260035 -0.00128564 -0.999661 0.0107
0.0255793 -0.00130281 -0.999672 0.00982347
0.0236454 -0.00130165 -0.99972 0.00984344
0.0217911 -0.00127522 -0.999762 0.00889758
0.0271911 -0.00131131 -0.999629 0.0117152
0.0341872 -0.00103374 -0.999415 0.0137426
0.0307149 -0.00125249 -0.999527 0.00854079
0.0337968 -0.00113606 -0.999428 0.00799585
0.0340187 -0.00106507 -0.999421 0.00914698
0.0345961 -0.000990574 -0.999401 0.00497421
0.0296774 -0.0009536 -0.999559 0.0127368
0.0217625 -0.00108137 -0.999763 0.0130693
0.0218166 -0.00114648 -0.999761 0.0122571
0.019264 -0.000973839 -0.999814 0.010361
0.0144423 -0.000875495 -0.999895 0.00388386
0.0151506 -0.000924312 -0.999885 0.0016871
0.0125935 -0.000827712 -0.99992 0.00115808
0.000582375 -0.00086136 -1 0
0.0216625 -0.000870254 -0.999765 0
0.0170987 -0.000789724 -0.999853 0
0.0192595 -0.000749399 -0.999814 0.00208873
0.0182583 -0.000742508 -0.999833 0
0.0155575 -0.000509655 -0.999879 0.00171576
0.003656 -0.000282242 -0.999993 0.000247143
0.00149196 -0.000257347 -0.999999 0
-0.00438347 0.000190769 -0.99999 0
-0.00331224 0.000192955 -0.999994 0
0.00883509 -0.000386944 -0.999961 0.00401846
0.000911243 -0.000213921 -1 0.0049119
0.0153853 -0.000374855 -0.999882 0.0113381
0.00977325 -0.000264195 -0.999952 0.0108372
0.0134261 -0.000218634 -0.99991 0.00775765
0.0129039 -9.74563e-05 -0.999917 0.00367844
0.0126968 -0.000111096 -0.999919 0.00319459
0.0120342 -7.8096e-05 -0.999928 0.00178438
0.00675242 -1.83142e-05 -0.999977 0
0.00887409 0.000122472 -0.999961 0
0.00944943 2.83194e-05 -0.999955 0
-3.38902e-05 8.01029e-05 -1 0
-0.00371802 8.7692e-05 -0.999993 0
-0.00728001 -8.95888e-06 -0.999974 0
-0.0109613 7.92753e-06 -0.99994 0
-0.0118174 6.73244e-05 -0.99993 0
0.00052435 0.000144996 -1 0
0.00385426 0.000148019 -0.999993 0
0.00426793 4.37833e-05 -0.999991 0.00174181
0.0176455 -0.000231808 -0.999844 0.00725261
0.0166437 -0.000916073 -0.999861 0.00471659
0.0284226 -0.000902309 -0.999596 0.00515592
0.0368281 -0.000846354 -0.999321 0.00673561
0.0298767 -0.00101239 -0.999553 0.00867812
0.0285053 -0.000909086 -0.999593 0.00826059
0.0319636 -0.000803196 -0.999489 0.00915241
0.0247723 -0.000865653 -0.999693 0.0105272
0.0322933 -0.000792044 -0.999478 0.0118648
0.0191052 -0.000782144 -0.999817 0.0083487
0.0217255 -0.000694657 -0.999764 0.00798433
0.0210643 -0.000538079 -0.999778 0.0123534
0.0295238 -0.000524478 -0.999564 0.0122906
0.0359463 -0.000412078 -0.999354 0.0161924
0.0239268 -0.000452347 -0.999714 0.0083598
0.0167845 -0.000592486 -0.999859 0.00561672
0.0184777 -0.000658518 -0.999829 0.0027329
0.0185648 -0.000524815 -0.999828 0
0.0138877 -0.000539622 -0.999903 0
0.0102742 -0.000533874 -0.999947 0
0.0179305 -0.000605411 -0.999839 0.000567504
0.0109976 -0.000574304 -0.999939 0.000972979
0.0140236 -0.000481969 -0.999902 0
0.0150046 -0.000346583 -0.999887 0
0.0133075 -0.000269911 -0.999911 0
0.0118077 -0.000232441 -0.99993 0
0.00720112 -8.9535e-05 -0.999974 0
0.00882532 -0.00011457 -0.999961 0
-0.00118506 0.000157668 -0.999999 0
-0.00399925 0.000200824 -0.999992 0
-0.00283693 -1.47431e-05 -0.999996 0.00676189
0.00467061 -0.000163684 -0.999989 0.0153966
0.0082999 8.60453e-05 -0.999966 0.0110282
0.0140071 0.000215857 -0.999902 0.00416715
0.0131495 0.000366183 -0.999913 0
0.0213024 0.000445523 -0.999773 0.000916361
0.0166932 0.00035926 -0.999861 0.000665412
0.0129876 0.00042642 -0.999916 0.000752863
0.0115867 0.000442242 -0.999933 0
0.00625049 0.000340502 -0.99998 0
-0.00181215 0.000381611 -0.999998 0
-0.00428827 0.000292521 -0.999991 0
-0.0125192 0.00018 -0.999922 0
0.0473922 -0.000590047 -0.998876 0.00627777
0.0467739 -0.000559613 -0.998905 0.00821286
0.0452915 -0.000689238 -0.998974 0.00527342
0.0349279 -0.000631506 -0.99939 0.00622929
0.0305616 -0.000629904 -0.999533 0.00215792
0.0274784 -0.000588653 -0.999622 0.00727639
0.0369299 -0.000630191 -0.999318 0.00947081
0.0311924 -0.000826505 -0.999513 0.0100594
0.0191323 -0.000807765 -0.999817 0.00193835
0.0132543 -0.000764111 -0.999912 0.00654869
0.0275972 -0.000754069 -0.999619 0.0137095
0.0299135 -0.000682711 -0.999552 0.0163151
0.0309093 -0.000497497 -0.999522 0.0133312
0.0310483 -0.00060085 -0.999518 0.0116403
0.0195829 -0.000498645 -0.999808 0.000213465
0.0194677 -0.00053101 -0.99981 0.00019681
0.0175667 -0.00057458 -0.999846 0.000375641
0.0172893 -0.00063826 -0.99985 0.0014125
0.011905 -0.000597079 -0.999929 0.00380399
0.0148091 -0.00048915 -0.99989 0.00285339
0.0147605 -0.000424299 -0.999891 0
0.0131717 -0.00037188 -0.999913 0
0.00455667 -0.000223007 -0.99999 0
0.0140598 -0.00022008 -0.999901 0
0.0132146 -0.000192675 -0.999913 0.00362564
0.011073 -0.000156357 -0.999939 0
0.00861644 -0.000100127 -0.999963 0
0.00574002 7.60465e-05 -0.999984 0
0.0023379 9.07764e-05 -0.999997 0.00553941
9.03543e-05 0.000230126 -1 0.0119134
-0.00383561 0.000352292 -0.999993 0.00961785
-0.00221401 0.000206482 -0.999997 0.00866764
0.00177949 0.000299099 -0.999998 0
0.00871959 0.000447208 -0.999962 0
0.0119697 0.000561963 -0.999928 0.000273838
0.0181511 0.000595845 -0.999835 0.00502005
0.0106388 0.000407343 -0.999943 0.00533324
0.0143098 0.000483039 -0.999897 0.00147829
0.0134905 0.000473467 -0.999909 0.00065916
0.00376991 0.000550224 -0.999993 0
-0.00309878 0.00050367 -0.999995 0
0.0028419 0.00049355 -0.999996 0
0.0138143 0.000439116 -0.999904 0
0.0157483 0.000461438 -0.999876 0
0.0524834 -0.000882379 -0.998621 0
0.0479428 -0.000818363 -0.99885 0
0.036762 -0.000799326 -0.999324 0
0.0365191 -0.000818996 -0.999333 0
0.0325076 -0.000822113 -0.999471 0
0.0245799 -0.000853502 -0.999698 0
0.0225948 -0.000955084 -0.999744 0.00158623
0.00728283 -0.000850219 -0.999973 0
0.0238396 -0.00094697 -0.999715 0.00471753
0.0207948 -0.000988011 -0.999783 0.00856782
0.0172309 -0.000863298 -0.999851 0.0105582
0.0225528 -0.000966608 -0.999745 0.00750673
0.0297903 -0.000925141 -0.999556 0.00845996
0.0235098 -0.000850165 -0.999723 0.00486046
0.0241084 -0.000735111 -0.999709 0.00693625
0.0183765 -0.00069663 -0.999831 0.00343992
0.0196938 -0.000678025 -0.999806 0.00489095
0.0193487 -0.000796761 -0.999812 0.00722518
0.0113696 -0.000727835 -0.999935 0.00291683
0.015639 -0.000761227 -0.999877 0.00348068
0.01571 -0.000693846 -0.999876 0.00307877
0.0207108 -0.000470038 -0.999785 0.00278637
0.0189268 -0.000397995 -0.999821 0.00150123
0.0210242 -0.000426191 -0.999779 0.00639625
0.0160073 -0.000449056 -0.999872 0.00300571
0.0157672 -0.000357732 -0.999876 0.00288058
0.00825435 -0.000244418 -0.999966 0.000601735
0.00431363 -0.00014719 -0.999991 0
0.00142679 -0.000113629 -0.999999 0.00144131
-0.0104519 6.08757e-05 -0.999945 0.00131988
-0.0085766 5.43923e-05 -0.999963 0.00699346
-0.00823784 0.00018927 -0.999966 0.00405802
-0.0177118 -5.10474e-05 -0.999843 0
-0.00492838 1.28378e-05 -0.999988 0
-0.00199461 1.13249e-05 -0.999998 0
0.0111116 0.000149232 -0.999938 0.00177414
0.0190861 8.07294e-05 -0.999818 0.00619208
0.00318392 0.000181532 -0.999995 0
0.00283048 0.000285847 -0.999996 0
0.00364385 0.000204333 -0.999993 0
0.00856297 0.000167176 -0.999963 0.00339456
0.00614201 0.00025599 -0.999981 0.00163013
0.0370816 -0.00102689 -0.999312 0
0.0328054 -0.00106382 -0.999461 0
0.0291065 -0.00122324 -0.999576 0
0.0268383 -0.00122999 -0.999639 0
0.0249234 -0.00123078 -0.999689 0
0.0234514 -0.00127155 -0.999724 0
0.0112627 -0.00117098 -0.999936 0
0.0105342 -0.00123009 -0.999944 0.00472546
0.00946231 -0.00122845 -0.999955 0
0.00497573 -0.00124268 -0.999987 0
0.0186348 -0.00137144 -0.999825 0.00383761
0.0232865 -0.00137188 -0.999728 0.004776
0.019756 -0.00126708 -0.999804 0.00415928
0.0260872 -0.0012797 -0.999659 0.0089482
0.0187456 -0.00124001 -0.999823 0.00387006
0.0249406 -0.00137208 -0.999688 0.00867766
0.0179651 -0.0012525 -0.999838 0.00484224
0.0180258 -0.00108512 -0.999837 0.00423956
0.0126144 -0.00103989 -0.99992 0.00170014
0.0144048 -0.00102683 -0.999896 0.00262215
0.0127703 -0.000997173 -0.999918 0
0.0180528 -0.000950949 -0.999837 0.00427166
0.0121325 -0.00083742 -0.999926 0
0.0145039 -0.000758543 -0.999895 0.00443105
0.0131308 -0.000637528 -0.999914 0
0.0120729 -0.000657867 -0.999927 0.00477495
0.0142667 -0.000543484 -0.999898 0
0.00536697 -0.000566518 -0.999985 0
-0.00226864 -0.00053027 -0.999997 0
0.00087806 -0.000413837 -1 0.000587623
-0.00555011 -0.000399009 -0.999985 0.0040794
-0.00563843 -0.000610946 -0.999984 0.00639011
-0.00714039 -0.000485398 -0.999974 0.00268913
-0.0169663 -0.00060873 -0.999856 0
-0.00442775 -0.000280398 -0.99999 0
0.0159537 -0.000335992 -0.999873 0.00526264
0.0128303 -0.000369946 -0.999918 0.0118632
0.00254361 -0.000279774 -0.999997 0.0052343
0.0058672 -0.000296938 -0.999983 0.0045127
0.00374909 -0.000330562 -0.999993 0.00500317
0.00963956 -0.000131014 -0.999954 0.00570597
0.0210098 -0.00143297 -0.999778 0
0.0147412 -0.00143637 -0.99989 0
0.0162553 -0.00154633 -0.999867 0
0.00915315 -0.00154897 -0.999957 0
0.0134664 -0.00154499 -0.999908 0
0.0016441 -0.00153792 -0.999997 0
0.00687027 -0.00162221 -0.999975 0
0.0195951 -0.00173751 -0.999806 0.00191378
0.0221411 -0.00178177 -0.999753 0.00327418
0.0161517 -0.00179541 -0.999868 0
0.0182107 -0.00174022 -0.999833 0.00188162
0.0180607 -0.0017294 -0.999835 0.00339206
0.0232364 -0.00182111 -0.999728 0.00619615
0.0280254 -0.001716 -0.999606 0.00647596
0.0219098 -0.0016365 -0.999759 0.00782475
0.0136039 -0.00163096 -0.999906 0.00660356
0.0174801 -0.00175547 -0.999846 0.00409921
0.00932865 -0.00156039 -0.999955 0
0.0137447 -0.00142732 -0.999905 0
0.00935629 -0.001349 -0.999955 0
0.0130963 -0.00130882 -0.999913 0
0.0175385 -0.00127396 -0.999845 0
0.0158248 -0.00130066 -0.999874 0.00360881
0.0178914 -0.00108824 -0.999839 0
0.00983636 -0.00109686 -0.999951 0
0.00767293 -0.00104811 -0.99997 0
0.0102582 -0.000993495 -0.999947 0
0.0160609 -0.000896654 -0.999871 0
0.00911178 -0.000978679 -0.999958 0
-0.000243334 -0.00102693 -0.999999 0
0.00771328 -0.000856217 -0.99997 0.00424741
0.00264546 -0.000870737 -0.999996 0.0022834
-0.00256743 -0.000777536 -0.999996 0
-0.00437459 -0.000870511 -0.99999 0
0.00635385 -0.000770187 -0.99998 0.00163914
0.00382189 -0.000713852 -0.999992 0
0.0144959 -0.000834894 -0.999895 0.00518918
0.0176701 -0.000830474 -0.999844 0.00387061
0.00422784 -0.000777963 -0.999991 0.00326687
0.0100032 -0.000803461 -0.99995 0.00563557
0.0073368 -0.000746815 -0.999973 0.00512361
0.00551915 -0.000749466 -0.999984 0.0066058
0.00422788 -0.000737832 -0.999991 0.000988654
0.0174583 -0.00149776 -0.999847 0.00205542
0.015327 -0.0015245 -0.999881 0.00280364
0.0100278 -0.00163856 -0.999948 0.00363532
0.00969876 -0.00174353 -0.999951 0
0.0139472 -0.00171481 -0.999901 0.00150448
0.0218961 -0.00188461 -0.999758 0.00378569
0.0186289 -0.00194181 -0.999825 0.00283891
0.0114809 -0.00186794 -0.999932 0.00177927
0.0146019 -0.00193439 -0.999891 0.00487378
0.00952774 -0.0019104 -0.999953 0.00150027
0.0155135 -0.00194946 -0.999878 0.00350463
0.0310778 -0.00208765 -0.999515 0.000955288
0.0314362 -0.00211688 -0.999504 0.00226639
0.0266793 -0.00211829 -0.999642 0.0047781
0.0237197 -0.00217785 -0.999716 0.00494732
0.0137401 -0.00202495 -0.999904 0
0.00774053 -0.00205514 -0.999968 0
0.00294976 -0.00199958 -0.999994 0
0.00786234 -0.00188833 -0.999967 0
0.00661025 -0.00169796 -0.999977 0
0.00620755 -0.00176826 -0.999979 0
0.0156792 -0.00164194 -0.999876 0.000248842
0.010431 -0.00150579 -0.999945 0
0.01699 -0.00136577 -0.999855 0.000347478
0.0173377 -0.0012987 -0.999849 0
0.0151174 -0.00126178 -0.999885 0
0.0205415 -0.00112858 -0.999788 0.00191713
0.0179422 -0.00104878 -0.999838 0
0.0130297 -0.00117395 -0.999914 0
0.0142582 -0.00115689 -0.999898 0
0.00700825 -0.00123631 -0.999975 0
0.00175736 -0.00131951 -0.999998 0
0.00995445 -0.00110932 -0.99995 0
0.00583879 -0.00107767 -0.999982 0.00043486
-0.000171308 -0.000991503 -0.999999 0
0.007174 -0.0011435 -0.999974 0
0.0155948 -0.00118589 -0.999878 0.00332084
0.0177498 -0.0010672 -0.999842 0.00712296
0.0111429 -0.00105871 -0.999937 0.0061793
0.00600466 -0.00107779 -0.999981 0.00688873
0.0039764 -0.00102791 -0.999992 0.00829716
0.00660333 -0.00100793 -0.999978 0.00997736
0.0154362 -0.0011215 -0.99988 0.0152237
0.00708162 -0.00103701 -0.999974 0.00576379
0.00491938 -0.00105101 -0.999987 0.00155609
0.00528868 -0.00110551 -0.999985 0.00142524
0.0108102 -0.00127199 -0.999941 0.00742591
0.00967607 -0.00132669 -0.999952 0.00893213
0.0156457 -0.0015516 -0.999876 0.00653041
0.0202014 -0.00167562 -0.999794 0.00580045
0.0126222 -0.00150522 -0.999919 0.00240411
0.0133649 -0.00155994 -0.999909 0.00321022
0.00704257 -0.00162323 -0.999974 0.00268739
0.00802086 -0.00172112 -0.999966 0.00520946
0.0179016 -0.00184407 -0.999838 0.00797406
0.0197753 -0.00185021 -0.999803 0.00497176
0.0228424 -0.00178614 -0.999737 0.00149886
0.0204102 -0.00191144 -0.99979 0.00223725
0.00758298 -0.00188898 -0.999969 0.00242925
0.00644963 -0.00195416 -0.999977 0
0.0137095 -0.00205743 -0.999904 0
0.0144743 -0.00201203 -0.999893 0.000805719
0.011654 -0.00207637 -0.99993 0
0.0108565 -0.00212879 -0.999939 0
0.00911924 -0.00214841 -0.999956 0
0.0129564 -0.00207434 -0.999914 0.00109941
0.012922 -0.00204552 -0.999914 0
0.00672518 -0.00200653 -0.999975 0
0.00421541 -0.00195261 -0.999989 0
0.0079874 -0.00172245 -0.999967 0.00141517
0.0115168 -0.00173413 -0.999932 0.00408812
0.00481883 -0.0017212 -0.999987 0
0.00694563 -0.00166706 -0.999974 0
0.0078925 -0.00153334 -0.999968 0
0.0085667 -0.00153935 -0.999962 0
0.0141873 -0.00134001 -0.999898 0
0.013805 -0.00134083 -0.999904 0.000123929
0.013493 -0.00118493 -0.999908 0
0.00474437 -0.00139244 -0.999988 0
0.00715128 -0.00139309 -0.999973 0
0.0111381 -0.00131077 -0.999937 0
0.00449755 -0.00115921 -0.999989 0
0.00639822 -0.00116817 -0.999979 0
0.0106637 -0.0010776 -0.999943 0.00134473
0.010688 -0.00102122 -0.999942 0.000162478
0.014082 -0.00121099 -0.9999 0.00495472
0.0117353 -0.0012402 -0.99993 0.0115926
0.00490433 -0.00113426 -0.999987 0.00635093
0.004039 -0.00114463 -0.999991 0.00745998
0.00447915 -0.00116079 -0.999989 0.00353427
-0.000998109 -0.00116565 -0.999999 0.00191149
0.00576869 -0.00130505 -0.999982 0.00742009
0.0055989 -0.0013045 -0.999983 0.00635102
0.0083157 -0.00139467 -0.999964 0.0109062
0.00725569 -0.00123901 -0.999973 0.00717743
0.0047028 -0.00138261 -0.999988 0.00365415
0.000542312 -0.00141228 -0.999999 0.00939761
0.0108045 -0.00163112 -0.99994 0.00710779
0.0154669 -0.00133101 -0.999879 0.00320392
0.00662563 -0.00136642 -0.999977 0.00094589
0.0111923 -0.00127642 -0.999937 0.00327898
0.0146358 -0.00128286 -0.999892 0.00540498
0.00668201 -0.00121198 -0.999977 0.00569437
0.0148804 -0.00146275 -0.999888 0.00899239
0.00868021 -0.00136291 -0.999961 0.0047199
0.000125637 -0.00127116 -0.999999 0
0.0222446 -0.00144921 -0.999752 0.00747666
0.0123645 -0.00144847 -0.999923 0.00251814
0.0116457 -0.00153871 -0.999931 0.000658316
-0.00184822 -0.00152457 -0.999997 0
0.000421844 -0.00170879 -0.999998 0
0.000673571 -0.00183221 -0.999998 0
-0.000970627 -0.00206536 -0.999997 0
0.00221417 -0.00204201 -0.999995 0
0.00975774 -0.0021095 -0.99995 0.00137097
0.0069447 -0.00195123 -0.999974 0
0.0104585 -0.00193812 -0.999943 0
0.0182975 -0.00177592 -0.999831 0.000253707
0.0167501 -0.00179154 -0.999858 0.000693308
0.0157692 -0.00174302 -0.999874 0.00675337
0.015556 -0.00163261 -0.999878 0.00565174
0.00818196 -0.0015839 -0.999965 0.000283206
-0.00198531 -0.0018058 -0.999996 0
-0.00201866 -0.00180343 -0.999996 0
-0.00646712 -0.00199049 -0.999977 0
0.00568994 -0.00131255 -0.999983 0
0.00871769 -0.00135374 -0.999961 0
0.0122807 -0.00125846 -0.999924 0
0.0121695 -0.00122092 -0.999925 0
0.0190724 -0.000959501 -0.999818 0.00410111
0.0128116 -0.00119794 -0.999917 0.00200907
0.00852799 -0.00118279 -0.999963 0
0.00280848 -0.0010753 -0.999996 0
0.0021546 -0.000990275 -0.999997 0
0.00607142 -0.00087506 -0.999981 0.00232583
0.0123064 -0.00104503 -0.999924 0.00755254
0.00747605 -0.000988871 -0.999972 0.0132504
0.0108125 -0.000992616 -0.999941 0.0114849
0.0022346 -0.000872751 -0.999997 0.00842442
-0.00237731 -0.00101984 -0.999997 0.00254466
0.00421264 -0.00111994 -0.99999 0.00634291
0.00562578 -0.0012028 -0.999983 0.00548914
0.0100211 -0.00137602 -0.999949 0.00863263
0.0234949 -0.00102563 -0.999723 0.00898641
0.01547 -0.000864578 -0.99988 0.00447128
0.0104233 -0.000964333 -0.999945 0.00516878
0.0120578 -0.000870376 -0.999927 0.00336984
0.00275485 -0.000728191 -0.999996 0.00305276
0.00709885 -0.000759675 -0.999975 0.0130433
0.0175001 -0.000834841 -0.999847 0.0139398
0.023133 -0.000907701 -0.999732 0.00501658
0.0247272 -0.00103876 -0.999694 0.00773988
0.0136612 -0.00109964 -0.999906 0
-0.00274461 -0.000981477 -0.999996 0
-0.00655117 -0.00105274 -0.999978 0
0.00533358 -0.00132346 -0.999985 0
0.00718542 -0.00141486 -0.999973 0
0.00981112 -0.00156305 -0.999951 0.00305237
0.0124826 -0.00157416 -0.999921 0.00380102
0.00691517 -0.00156788 -0.999975 0.00317907
0.0100144 -0.00158554 -0.999949 0
0.00875343 -0.00137406 -0.999961 0
0.010182 -0.00125075 -0.999947 0.000310074
0.00584457 -0.00127908 -0.999982 0.00146154
0.0078391 -0.00119897 -0.999969 0.00124733
0.00856609 -0.00136017 -0.999962 0.00263372
0.00506352 -0.00128774 -0.999986 0.00156363
-0.0046642 -0.00156391 -0.999988 0
0.000320894 -0.00141268 -0.999999 0
0.000139105 -0.00142817 -0.999999 0
-0.00156433 -0.00122442 -0.999998 0
0.00284643 -0.000938193 -0.999996 0
0.0149189 -0.000514549 -0.999889 0.00305645
0.0166289 -0.000481218 -0.999862 0.00563488
0.0154325 -0.000469435 -0.999881 0.00586992
0.016345 -0.000379381 -0.999866 0.00332755
0.00878582 -0.000498748 -0.999961 0
0.00603057 -0.000485849 -0.999982 0
0.00386246 -0.0004508 -0.999992 0.00114631
0.0116686 -0.000715616 -0.999932 0.0047749
0.00367378 -0.00055104 -0.999993 0.0084816
0.0101611 -0.000719032 -0.999948 0.0103443
-0.000942762 -0.000598008 -0.999999 0.00342457
-0.00177565 -0.000499397 -0.999998 0.00622134
-0.00246263 -0.000504898 -0.999997 0.0018289
0.00990218 -0.00083112 -0.999951 0.000590539
0.00629898 -0.000925892 -0.99998 0.000185342
0.0114046 -0.00100235 -0.999934 0
0.00725912 -0.000986494 -0.999973 0.00276693
0.0152256 -0.00114859 -0.999883 0.0063733
0.0058953 -0.000881254 -0.999982 0.0012613
-0.00168505 -0.000702668 -0.999998 0.000827914
0.000454882 -0.000802433 -1 0.00122314
-0.011993 -0.000392545 -0.999928 0
-0.0117779 -0.00108671 -0.99993 0.00369019
-0.0151888 -0.00068293 -0.999884 0
-0.00073219 -0.000288889 -1 0.00332239
-0.0027565 -6.91634e-05 -0.999996 0.000404092
-0.00736888 -9.55327e-05 -0.999973 0.000950788
-0.0053559 4.34534e-05 -0.999986 0.00389566
-0.0112788 0.000118049 -0.999936 0.000178792
-0.00159644 0.000153595 -0.999999 0.00628533
-0.0069522 3.54948e-06 -0.999976 0.00259287
0.00228837 3.52696e-05 -0.999997 0.00432688
-0.0109616 3.10147e-05 -0.99994 0
-0.0146823 -0.000228939 -0.999892 0
-0.0119292 -0.000108883 -0.999929 0
0.00494101 -0.000616982 -0.999988 0
0.0137204 -0.000661753 -0.999906 0
0.0247561 -0.000874131 -0.999693 0.00338055
0.0118946 -0.000820271 -0.999929 2.08548e-05
0.0117318 -0.000822588 -0.999931 0.00330469
0.00619538 -0.000681392 -0.999981 0.000966628
0.00821407 -0.000659091 -0.999966 0.00219953
0.00179433 -0.000545959 -0.999998 0
0.000687715 -0.000443077 -1 0.00163003
0.0019734 -0.000410079 -0.999998 0.000984604
-0.000812276 -0.000409242 -1 0
-0.000549574 -0.000279251 -1 0
0.0072921 -0.000316143 -0.999973 0.00289856
0.01 -0.000185439 -0.99995 0.0043252
0.00324981 -0.000303307 -0.999995 0.000833607
0.00220231 -0.000426972 -0.999997 0.000166124
0.00429016 -0.000338781 -0.999991 0
0.00972583 3.26105e-05 -0.999953 0.000475922
0.00490179 -2.62529e-05 -0.999988 0.00490328
0.0111029 0.000238155 -0.999938 0.00651494
0.0119964 0.000211675 -0.999928 0.00259569
0.0138566 0.000148477 -0.999904 0.000380726
0.00693242 0.000227471 -0.999976 0
0.00750162 0.000252034 -0.999972 0
0.0034131 0.000274818 -0.999994 0.00129933
-0.00252686 0.00030339 -0.999997 0.0033309
0.00240135 0.000202691 -0.999997 0.00929698
-0.00073955 0.000123261 -1 0.0101481
-0.00132947 2.2492e-05 -0.999999 0.00788624
0.00472252 -0.000170676 -0.999989 0.00997362
0.00515258 -0.000132774 -0.999987 0.00851782
0.00248752 -0.000134277 -0.999997 0.00592169
0.00967437 -0.000393908 -0.999953 0.00255173
0.00915256 -0.000399087 -0.999958 0.00120982
0.00178337 -0.000252058 -0.999998 0
0.00231025 -0.00029327 -0.999997 0.000254159
-0.00130949 -0.000116627 -0.999999 0
0.00753816 -0.000359614 -0.999972 0.00151013
-7.54581e-05 -0.000106071 -1 0
-0.00377163 3.46105e-05 -0.999993 0
-0.00861755 -0.000545729 -0.999963 0.0049629
-0.0112391 -0.000242108 -0.999937 9.97812e-05
-0.00328909 -0.000738879 -0.999994 0
0.0149306 0.000907953 -0.999888 0.0105601
0.00719586 0.000937052 -0.999974 0.0073598
0.00646998 0.000963487 -0.999979 0.00939259
-0.00831558 0.000964741 -0.999965 0.000633613
-0.00618378 0.000997912 -0.99998 0.00154473
-0.00472528 0.00108635 -0.999988 0.00303382
-0.0139591 0.000940352 -0.999902 0
-0.0152904 0.000503759 -0.999883 0
-0.00624631 0.000605373 -0.99998 0
0.00190861 0.00041886 -0.999998 0
0.0119272 0.000465734 -0.999929 0.00202067
0.0103278 0.000315177 -0.999947 0.000554246
0.0165419 0.000195776 -0.999863 0.00148954
0.0262298 9.012e-05 -0.999656 0.00315339
0.0233602 0.000208985 -0.999727 0.0048583
0.0224867 0.000300455 -0.999747 0.0037332
0.0159219 0.000316585 -0.999873 0.00457426
0.0153869 0.000366583 -0.999882 0.00648605
0.00443067 0.000461329 -0.99999 0.0019891
0.00121769 0.000534067 -0.999999 0.00395622
-0.000726765 0.000705521 -0.999999 0.00147337
0.00438754 0.000777597 -0.99999 0
0.00624889 0.000809471 -0.99998 0.00138795
0.0098988 0.000841352 -0.999951 0.0029926
0.0148863 0.000809663 -0.999889 0.00569464
0.0180712 0.000884929 -0.999836 0.00796666
0.0196791 0.000961436 -0.999806 0.00593319
0.0104303 0.000878842 -0.999945 0.0060947
0.00527973 0.000781627 -0.999986 0.0023823
0.00465953 0.00107005 -0.999989 0.00584425
0.00618145 0.00106869 -0.99998 0.00854656
0.00922694 0.00110526 -0.999957 0.00121688
0.010509 0.00107101 -0.999944 0
0.00237628 0.00087809 -0.999997 0
-0.000276131 0.00082484 -1 0
0.00161785 0.000911957 -0.999998 0.00351596
0.00462998 0.000964664 -0.999989 0.003422
0.00799554 0.000960222 -0.999968 0.00515006
0.00629315 0.000903055 -0.99998 0.00474679
0.00671175 0.000767433 -0.999977 0.00653076
0.00727207 0.000716944 -0.999973 0.0125152
-0.000349863 0.000598704 -1 0.0129635
0.00579343 0.000567134 -0.999983 0.00917502
0.0014293 0.000576292 -0.999999 0.00394042
0.00159281 0.000614484 -0.999999 0.00326726
-0.0108421 0.000669052 -0.999941 0
-0.00768602 0.000705253 -0.99997 0
-0.00422048 0.000712121 -0.999991 0
0.00378303 0.000559077 -0.999993 0
0.000505222 0.000743056 -1 0
0.0284335 0.00172023 -0.999594 0.0109884
0.0265384 0.00166547 -0.999646 0.00718102
0.0214585 0.00173325 -0.999768 0.00859001
0.0188265 0.0016518 -0.999821 0.010157
0.00651673 0.00164036 -0.999977 0.0051964
0.00177935 0.00141928 -0.999997 0.00125255
-0.00604303 0.001238 -0.999981 0
-0.00131667 0.00149622 -0.999998 0
-0.00519649 0.00139824 -0.999986 0.000812258
0.0108145 0.00144983 -0.99994 0.0031282
0.0106546 0.00142595 -0.999942 0.00481386
0.0155177 0.00131175 -0.999879 0.00238889
0.0286495 0.00145498 -0.999588 0.00379411
0.0267011 0.0012652 -0.999643 0.00635891
0.0247336 0.00138785 -0.999693 0.00654454
0.0201122 0.00136467 -0.999797 0.0050268
0.0128654 0.00139643 -0.999916 0.00252583
0.0114276 0.00159467 -0.999933 0.00828468
0.0101559 0.0017223 -0.999947 0.00631637
0.00743693 0.0017291 -0.999971 0.00341985
0.0067355 0.0017264 -0.999976 7.587e-05
0.00718753 0.00187536 -0.999972 0.00155416
0.0117096 0.00185039 -0.99993 0.00591091
0.0178264 0.0018167 -0.999839 0.008982
0.0183137 0.00181469 -0.999831 0.00611331
0.0224643 0.00196002 -0.999746 0.0132911
0.022392 0.00194063 -0.999747 0.00884371
0.0180786 0.00193013 -0.999835 0.00320557
0.0167792 0.00207946 -0.999857 0.00907625
0.00738297 0.00194933 -0.999971 0.00481259
0.0134114 0.00211469 -0.999908 0.00374223
0.00255802 0.00193351 -0.999995 0.00162038
0.000804702 0.00193054 -0.999998 0
-0.00589371 0.00171376 -0.999981 0
-0.00192965 0.00196718 -0.999996 0.00576154
0.00101456 0.00195515 -0.999998 0.00710377
0.00484806 0.00189736 -0.999986 0.00600561
0.00586253 0.00180524 -0.999981 0.000615805
0.00474975 0.00165945 -0.999987 0.00299558
0.0137015 0.00179214 -0.999904 0.00626725
0.0171494 0.00174574 -0.999851 0.013758
0.0120047 0.00163498 -0.999927 0.0137727
-0.000554006 0.00143212 -0.999999 0.00582889
-0.00381376 0.00126951 -0.999992 0.00489922
-0.00457761 0.00146236 -0.999988 0
-0.00898335 0.00155972 -0.999958 0
-0.00746083 0.0015474 -0.999971 0.000130276
-0.00118445 0.00136881 -0.999998 0.00476565
0.000936885 0.00169873 -0.999998 0
0.000572944 0.00138611 -0.999999 0.00371785
0.0253913 0.00253517 -0.999674 0.00852834
0.026605 0.00238965 -0.999643 0.00808681
0.0196827 0.00234097 -0.999804 0.00840051
0.014152 0.00243425 -0.999897 0.00534198
0.0159599 0.00240138 -0.99987 0.00571553
0.00968821 0.00240971 -0.99995 0.00483473
0.00519548 0.00250392 -0.999983 0.00546391
-0.00108625 0.00232534 -0.999997 0
-0.00724053 0.00245645 -0.999971 0
-0.000312667 0.00222889 -0.999997 0
0.00406359 0.0024307 -0.999989 0
0.00921899 0.00238323 -0.999955 0
0.0104635 0.00252942 -0.999942 0.000574129
0.0123718 0.00248221 -0.99992 0
0.0192777 0.00249547 -0.999811 0.00196718
0.0214396 0.00251318 -0.999767 0.0031529
0.020311 0.00247515 -0.999791 0.00146018
0.0220019 0.00255784 -0.999755 0.00558642
0.0155987 0.00273439 -0.999875 0.00145244
0.018833 0.00274945 -0.999819 0.00241614
0.0106933 0.00282184 -0.999939 0
0.00652976 0.00299047 -0.999974 0
0.0133136 0.00306002 -0.999907 0.00189132
0.0163613 0.00293873 -0.999862 0.0041016
0.0211906 0.00294277 -0.999771 0.00827658
0.0164276 0.00304182 -0.99986 0.0101437
0.0177485 0.00306773 -0.999838 0.0123204
0.0157825 0.00302731 -0.999871 0.0103302
0.0184628 0.00314242 -0.999825 0.00998376
0.0167054 0.00298114 -0.999856 0.000133702
0.0160836 0.00300852 -0.999866 0.00319386
0.00690328 0.00284363 -0.999972 0
0.0050997 0.00277365 -0.999983 0.000448786
-0.00614935 0.0025205 -0.999978 0
-0.00442053 0.00255763 -0.999987 0
-0.00836331 0.00237691 -0.999962 0
-0.00320731 0.00252169 -0.999992 0
-0.00983824 0.00237356 -0.999949 0
-0.00158882 0.00249373 -0.999996 0
0.000191358 0.00255846 -0.999997 0
0.005899 0.00271412 -0.999979 0
0.00952141 0.00290165 -0.99995 0.005255
0.0104793 0.00291999 -0.999941 0.00789349
0.000558185 0.00255054 -0.999997 0.00377474
-0.00458348 0.00239827 -0.999987 0.00110065
-0.00831754 0.00223702 -0.999963 0
-0.00362971 0.00242817 -0.999991 0
-0.00906025 0.00264868 -0.999955 0
-0.0013447 0.0025969 -0.999996 0.000107064
-0.00466565 0.0027479 -0.999985 0
-0.00739209 0.00288153 -0.999969 0
0.0120183 0.00315845 -0.999923 0.00724054
0.00582011 0.0031964 -0.999978 0.00718699
0.00824622 0.00305184 -0.999961 0.00433423
0.0253151 0.00302359 -0.999675 0.00325923
0.0195447 0.00288024 -0.999805 0
0.0114908 0.00295921 -0.99993 0
0.00769675 0.00279352 -0.999967 0
0.0133311 0.00296119 -0.999907 0
0.0281454 0.00313678 -0.999599 0.00119803
0.0181864 0.00305441 -0.99983 0
0.0144916 0.00309836 -0.99989 0.000291867
0.0194155 0.00324744 -0.999806 0.00394703
0.00925948 0.00331871 -0.999952 0
0.0139891 0.00348979 -0.999896 0.00302851
0.0175603 0.00354125 -0.999839 0.00237584
0.0237226 0.0036077 -0.999712 0.00511632
0.0234475 0.00370735 -0.999718 0.00732017
0.0167469 0.00376091 -0.999853 0.00590803
0.0149843 0.00360698 -0.999881 0.00464096
0.0121717 0.00375679 -0.999919 0
0.0127817 0.00376431 -0.999911 0
0.0134241 0.00386296 -0.999902 6.94901e-05
0.0240098 0.00392874 -0.999704 0.00488964
0.0225045 0.00402966 -0.999739 0.00898896
0.0192456 0.00412031 -0.999806 0.00776621
0.0126457 0.00409691 -0.999912 0.00377907
0.01983 0.00387658 -0.999796 0.00696967
0.0163795 0.00392786 -0.999858 0.00751838
0.0141859 0.00384161 -0.999892 0.00534326
0.00987035 0.0038382 -0.999944 0.0010651
0.00346133 0.00369355 -0.999987 0.000282189
0.00118712 0.00365743 -0.999993 0
-0.00524503 0.00348048 -0.99998 0
-0.00301014 0.00327475 -0.99999 0.00202858
-0.00492013 0.00303042 -0.999983 0
-0.0102255 0.00281645 -0.999944 0
-0.00921275 0.00282749 -0.999954 0
-0.00927034 0.00281276 -0.999953 0
-0.00336721 0.00304824 -0.99999 0
0.00433315 0.00315363 -0.999986 0
0.00203942 0.00316643 -0.999993 0
-0.000961196 0.00306372 -0.999995 0
0.00465006 0.00328066 -0.999984 0.00107054
-0.00617747 0.00298314 -0.999976 0
-0.00532765 0.00302311 -0.999981 0
-0.003019 0.00317194 -0.99999 0
-0.000144963 0.00317919 -0.999995 0
0.0165215 0.00329121 -0.999858 0.00150807
0.0153513 0.00325722 -0.999877 0.00314987
0.0131282 0.00304213 -0.999909 0.0020094
0.00828392 0.00286973 -0.999961 0.0018402
0.00971965 0.00262693 -0.999949 0.00198807
0.00586858 0.00260454 -0.999979 0
0.0127758 0.00276351 -0.999915 0
0.0188708 0.00297184 -0.999817 0
0.0166358 0.00298079 -0.999857 0
0.024402 0.00309974 -0.999697 0
0.0128867 0.00321607 -0.999912 0
0.0182637 0.00349105 -0.999827 0.00286858
0.0173474 0.0035614 -0.999843 0.00516577
0.0180773 0.00359914 -0.99983 0.00397413
0.0198579 0.00382762 -0.999795 0.00696976
0.0129209 0.0038279 -0.999909 0
0.00926662 0.00398466 -0.999949 7.66148e-05
0.0206605 0.00394468 -0.999779 0.00388849
0.0241114 0.00401107 -0.999701 0.00769247
0.00955358 0.00427236 -0.999945 0.00549717
0.0107004 0.00422949 -0.999934 0.00409716
0.00975886 0.00442915 -0.999943 0.00207456
0.0133987 0.00445313 -0.9999 0.00322227
0.0198938 0.00445259 -0.999792 0.00984236
0.020351 0.00442561 -0.999783 0.00615497
0.0212455 0.00428906 -0.999765 0.00273125
0.0152948 0.00455824 -0.999873 0.00808036
0.0127632 0.00456615 -0.999908 0.00283124
0.0141054 0.00439437 -0.999891 0.00654439
0.00721508 0.00439572 -0.999964 0.00432509
0.0053252 0.00448527 -0.999976 0.00512324
0.000271137 0.00443169 -0.99999 1.2454e-05
-0.00611095 0.00414423 -0.999973 0
-0.00558691 0.00401415 -0.999976 0.000976529
-0.00722852 0.00353099 -0.999968 0
0.00034364 0.00359174 -0.999993 0.00154283
-0.00227026 0.00326111 -0.999992 0
-0.00940754 0.00288032 -0.999952 0
-0.0067314 0.00311274 -0.999972 0
-0.00194593 0.00324449 -0.999993 0
0.000908635 0.00340359 -0.999994 0
0.00348364 0.00348162 -0.999988 0
0.000122488 0.00333879 -0.999994 0
-0.00532485 0.00319797 -0.999981 0
-0.00363236 0.00336983 -0.999988 0
-0.0108586 0.00304245 -0.999936 0
0.00316489 0.00354114 -0.999989 0
0.00324953 0.003433 -0.999989 0.000881356
0.00703 0.00354744 -0.999969 0.00601027
0.0047188 0.00359601 -0.999982 0.000511461
0.00272465 0.00349556 -0.99999 0.00234322
0.0181741 0.003355 -0.999829 0
0.00507065 0.00329564 -0.999982 0
0.0117035 0.00318963 -0.999926 0.00252972
0.017168 0.00301535 -0.999848 0.000972018
0.0186628 0.0029854 -0.999821 0.00654438
0.0177327 0.00291088 -0.999839 0.00497245
0.0164515 0.00287695 -0.999861 0.000413097
0.0123711 0.002974 -0.999919 0
0.0179869 0.00322329 -0.999833 0
0.0153078 0.00341507 -0.999877 0
0.0169512 0.00358519 -0.99985 0.00246069
0.0154447 0.00373167 -0.999874 0.00895281
0.0124465 0.00384894 -0.999915 0.00751564
0.016973 0.00387082 -0.999848 0.00469843
0.0090809 0.00399451 -0.999951 0.00397633
0.00523483 0.00405085 -0.999978 0.000804462
0.0168557 0.0041445 -0.999849 0.00488629
0.013418 0.00416177 -0.999901 0
0.00716127 0.00432956 -0.999965 0.0061415
0.00302273 0.00464964 -0.999985 0.00530122
0.00950658 0.00461038 -0.999944 0.00302644
0.0172172 0.00445392 -0.999842 0.00361936
0.0157974 0.00445903 -0.999865 0
0.018864 0.00440962 -0.999812 0.00541525
0.0146194 0.00452702 -0.999883 0.00599179
0.0129055 0.00437337 -0.999907 0.00459641
0.0067676 0.00455612 -0.999967 0.00329051
0.00871245 0.00444248 -0.999952 0.00236364
0.00596032 0.00448819 -0.999972 0.00647384
0.00208612 0.00454665 -0.999987 0.00621957
-0.00210017 0.00443616 -0.999988 0.00328979
0.00885472 0.00445859 -0.999951 0.0098889
0.00421111 0.00451994 -0.999981 0.00887953
0.00657466 0.00417976 -0.99997 0.00965532
0.00648393 0.00403392 -0.999971 0.00932881
-0.000728238 0.0037023 -0.999993 0.00525578
0.00542919 0.00369338 -0.999978 0.00399673
-0.0015381 0.00345502 -0.999993 0.00308472
-0.00343768 0.00327799 -0.999989 0.00191681
-0.00496227 0.00323628 -0.999982 0.000893656
-0.00231111 0.00331896 -0.999992 0
-0.00357299 0.00324081 -0.999988 0
-0.00827418 0.00292551 -0.999961 0
-0.00685467 0.00302096 -0.999972 0
-0.0108237 0.00295787 -0.999937 0
-0.00445527 0.00316085 -0.999985 0
0.000305443 0.00313954 -0.999995 0
0.00931279 0.00335609 -0.999951 0.00562107
0.0150778 0.00336652 -0.999881 0.00906953
0.00604461 0.00327457 -0.999976 0.00503012
-0.0062266 0.00326994 -0.999975 0.000765835
-0.00172078 0.00340092 -0.999993 0
0.000738524 0.00350338 -0.999994 0
0.0138366 0.00323834 -0.999899 0.00408859
0.0157567 0.00290714 -0.999872 0.00481131
0.0170836 0.00280924 -0.99985 0.00833262
0.0244041 0.00263406 -0.999699 0.00507004
0.0201386 0.00235418 -0.999794 0.00434852
0.0240113 0.00241822 -0.999709 0.00869793
0.0272731 0.00237157 -0.999625 0.01027
0.0184738 0.0023737 -0.999827 0.00696292
0.0181453 0.00255409 -0.999832 0.00835398
0.0193952 0.00279129 -0.999808 0.0110101
0.0188417 0.00272891 -0.999819 0.00522391
0.00703774 0.00289147 -0.999971 0.00319424
0.0204923 0.00313626 -0.999785 0.00544101
0.0241991 0.00335867 -0.999702 0.0097684
