# .PCD v0.7 - Point Cloud Data file format
VERSION 0.7
FIELDS x y z
SIZE 4 4 4
TYPE F F F
COUNT 1 1 1
WIDTH 1385
HEIGHT 1
VIEWPOINT 0 0 0 1 0 0 0
POINTS 1385
DATA ascii
-0.084501497 0.14012051 -0.22707799
-0.084299326 0.14010066 -0.22706933
-0.084178604 0.14015821 -0.22708321
-0.08398167 0.14013422 -0.22707579
-0.083787329 0.14011998 -0.2270595
-0.083425499 0.14013749 -0.22707701
-0.083288997 0.140129 -0.227081
-0.083102494 0.14012301 -0.227109
-0.082951002 0.14011401 -0.227073
-0.082743108 0.14013633 -0.22706035
-0.082521334 0.14012633 -0.22702001
-0.082381204 0.14010561 -0.22700739
-0.085929662 0.14030235 -0.22700566
-0.085474506 0.14031601 -0.22701
-0.085235253 0.140304 -0.22706124
-0.085046805 0.14031419 -0.22706079
-0.084880777 0.14032112 -0.22709054
-0.084717996 0.14030777 -0.22706588
-0.084495999 0.140297 -0.22705199
-0.084320664 0.14029001 -0.22708733
-0.084181249 0.14032151 -0.22709399
-0.083975494 0.14031084 -0.2270655
-0.083863497 0.140305 -0.227091
-0.083693005 0.14032401 -0.22709465
-0.083417989 0.14031416 -0.22709185
-0.083282001 0.140306 -0.22708166
-0.083097331 0.14029866 -0.22707534
-0.082943998 0.14029099 -0.22708167
-0.082737505 0.14031249 -0.22703801
-0.082514495 0.140302 -0.22702651
-0.082367994 0.14030732 -0.22700267
-0.082151003 0.140247 -0.226981
-0.085923001 0.14048 -0.22699851
-0.085467331 0.14049166 -0.22702467
-0.085228674 0.1404805 -0.22705768
-0.085060202 0.14048439 -0.2270408
-0.084874995 0.14049749 -0.2270695
-0.08471217 0.14048366 -0.22704832
-0.084487326 0.14050899 -0.22706866
-0.084313333 0.14050166 -0.22707766
-0.084174663 0.14049734 -0.22709185
-0.08396823 0.140487 -0.22706801
-0.083857 0.14048134 -0.22709434
-0.083685502 0.14049999 -0.227107
-0.0834115 0.1404905 -0.22709101
-0.083275005 0.14048201 -0.22708249
-0.083090499 0.140476 -0.22707
-0.082935005 0.14050199 -0.22709
-0.082731009 0.14048912 -0.22702911
-0.082507335 0.140479 -0.22702934
-0.082375668 0.14047234 -0.22700416
-0.085916668 0.140655 -0.22698967
-0.085745499 0.14067951 -0.22698599
-0.085212402 0.14067741 -0.22704999
-0.085042663 0.140682 -0.22704698
-0.084867999 0.14067432 -0.22707468
-0.084705561 0.14066057 -0.22704132
-0.084481999 0.14068499 -0.227038
-0.084307 0.140678 -0.22705451
-0.084168501 0.14067376 -0.22707625
-0.083961166 0.1406635 -0.22706817
-0.083849505 0.14065801 -0.2270975
-0.083680004 0.14067733 -0.22708867
-0.083404996 0.14066683 -0.22707766
-0.083270006 0.14065833 -0.22704701
-0.083084337 0.14065234 -0.22706234
-0.082928501 0.14068 -0.22708601
-0.082723163 0.14066632 -0.22705184
-0.082501002 0.14065599 -0.22702301
-0.082367338 0.14068434 -0.22700949
-0.085907996 0.14086699 -0.22700067
-0.085453495 0.14087901 -0.22699
-0.085222803 0.1408484 -0.22706039
-0.085035503 0.14085899 -0.22705325
-0.084861338 0.14085001 -0.22706799
-0.084699668 0.14083667 -0.227024
-0.084475003 0.140862 -0.22704101
-0.084300339 0.14085366 -0.22706167
-0.084161997 0.1408505 -0.22707331
-0.08395344 0.14084023 -0.2270911
-0.08384233 0.14083467 -0.22710234
-0.083673 0.140854 -0.227088
-0.083398744 0.14084351 -0.22706975
-0.083263502 0.140835 -0.22704801
-0.083075672 0.14086433 -0.22707234
-0.082921334 0.14085633 -0.22709198
-0.082716331 0.14084268 -0.22704922
-0.082493998 0.14083235 -0.22701998
-0.082361251 0.140861 -0.22699174
-0.085901499 0.14104301 -0.22699
-0.085447997 0.141021 -0.22699249
-0.085207336 0.14104484 -0.22703968
-0.085028835 0.14103417 -0.22704799
-0.084854774 0.14102668 -0.2270641
-0.084692776 0.14101277 -0.22702378
-0.084468499 0.14103749 -0.22703099
-0.084292501 0.141031 -0.227073
-0.084155254 0.14102775 -0.22706975
-0.083938576 0.1410313 -0.22706641
-0.083835661 0.14104633 -0.22707967
-0.083665006 0.14103067 -0.22710533
-0.083392672 0.14102034 -0.22705084
-0.083256006 0.14101233 -0.22705066
-0.083069503 0.14104199 -0.2270585
-0.082914501 0.14103299 -0.227099
-0.082709998 0.14101917 -0.22703868
-0.082485668 0.14104433 -0.22702433
-0.082354002 0.14103767 -0.22699851
-0.0854415 0.141197 -0.2269845
-0.085201249 0.1412205 -0.22702549
-0.085023008 0.14120999 -0.22703025
-0.084847502 0.14120333 -0.22707416
-0.084693 0.14121523 -0.22701015
-0.084461667 0.14121433 -0.22703166
-0.08428701 0.14120734 -0.22705901
-0.084149159 0.14120384 -0.22705066
-0.083971329 0.14119516 -0.2270745
-0.0838525 0.14122325 -0.22709274
-0.083659001 0.14120701 -0.22709501
-0.08339867 0.14118566 -0.22708802
-0.083269499 0.1412255 -0.227092
-0.083061002 0.14121766 -0.22709365
-0.082907669 0.14120866 -0.22708733
-0.082703441 0.14119534 -0.22703297
-0.082480498 0.141221 -0.226991
-0.082347497 0.141215 -0.22699299
-0.085436001 0.14133801 -0.226989
-0.085195161 0.14139767 -0.22701119
-0.085016333 0.14138766 -0.22702233
-0.084836245 0.14137 -0.2270305
-0.084692746 0.14141899 -0.2269915
-0.084454 0.14139101 -0.22704101
-0.084280506 0.14138299 -0.22704349
-0.084142499 0.14138 -0.22704574
-0.083962329 0.1414075 -0.22708933
-0.083844505 0.1414005 -0.22712134
-0.083652325 0.14138366 -0.22708732
-0.083420672 0.141376 -0.22707333
-0.083296001 0.14138301 -0.22709861
-0.083055004 0.141394 -0.22707999
-0.082901999 0.141385 -0.227073
-0.082689382 0.14139751 -0.22702813
-0.082474001 0.14139734 -0.22698902
-0.082349598 0.1413908 -0.2269882
-0.085187748 0.141574 -0.2270205
-0.084962502 0.14156 -0.2270025
-0.084836334 0.14159 -0.226992
-0.084682092 0.14158529 -0.22701499
-0.084448665 0.14156701 -0.22701766
-0.084273338 0.14156066 -0.22705035
-0.084136508 0.14155649 -0.22702985
-0.083956257 0.14158399 -0.22707525
-0.0838385 0.14157724 -0.2271
-0.083646506 0.14156 -0.2270675
-0.083412327 0.14158799 -0.22707534
-0.083278663 0.14157984 -0.2271025
-0.083048664 0.14157067 -0.227066
-0.082896002 0.141561 -0.22704767
-0.082696721 0.14156972 -0.22702815
-0.082466498 0.141573 -0.226999
-0.082335502 0.1415315 -0.22699049
-0.08520475 0.14173451 -0.22700025
-0.085085794 0.14175919 -0.22699919
-0.084888443 0.14173578 -0.22702911
-0.084691748 0.1417565 -0.22702563
-0.084442005 0.141744 -0.2270125
-0.084268495 0.141736 -0.227008
-0.084118605 0.1417532 -0.2270406
-0.083949834 0.14175999 -0.22706284
-0.083833508 0.14175235 -0.2270612
-0.083639331 0.14173633 -0.227075
-0.083405003 0.141765 -0.227083
-0.083271995 0.14175749 -0.22710425
-0.083040997 0.141748 -0.227083
-0.082889497 0.141738 -0.2270475
-0.082690127 0.141752 -0.22701438
-0.08249975 0.14176899 -0.2269965
-0.082368001 0.14181501 -0.22698601
-0.085218504 0.141929 -0.22700301
-0.085088 0.141922 -0.22700851
-0.084860995 0.1419573 -0.22702999
-0.084702998 0.14192541 -0.22702381
-0.084499002 0.14193781 -0.2270236
-0.084259003 0.14191334 -0.22706133
-0.0841306 0.14192441 -0.22706461
-0.083942495 0.14193651 -0.22707525
-0.083825253 0.14193 -0.22708949
-0.083631665 0.14194833 -0.22706033
-0.083397664 0.14194167 -0.22710167
-0.08326517 0.14193366 -0.22710182
-0.083035 0.14192332 -0.227062
-0.082881667 0.14191501 -0.22706433
-0.082705505 0.141939 -0.2270215
-0.082534 0.14193 -0.22700076
-0.082319751 0.14192051 -0.22699749
-0.085212328 0.14210565 -0.22699232
-0.08508151 0.14209817 -0.227
-0.08487317 0.14212434 -0.22703569
-0.084707499 0.14210983 -0.22701816
-0.084508248 0.142102 -0.22703099
-0.084250003 0.14212634 -0.22707599
-0.084113158 0.14212234 -0.22706099
-0.083936334 0.142114 -0.22706683
-0.083818667 0.14210699 -0.22708583
-0.083625004 0.14212599 -0.227064
-0.083390504 0.14211899 -0.22710049
-0.083258003 0.1421115 -0.22711051
-0.083029002 0.14210099 -0.22705001
-0.082872994 0.14212768 -0.22706901
-0.082698159 0.142116 -0.22702616
-0.082526661 0.14210701 -0.2270115
-0.0823218 0.14209799 -0.22699539
-0.085065201 0.142295 -0.2269946
-0.084866785 0.14230067 -0.22702599
-0.084700219 0.14228699 -0.22703202
-0.084518 0.14226539 -0.22703961
-0.084302001 0.14231665 -0.22705366
-0.084155999 0.1423015 -0.22705001
-0.08397416 0.14229117 -0.22702251
-0.083812997 0.14228299 -0.227065
-0.083617993 0.14230201 -0.22705968
-0.083384 0.14229535 -0.22709434
-0.083252169 0.14228684 -0.22708434
-0.083020665 0.14227767 -0.22706999
-0.082866505 0.14230451 -0.22706699
-0.082692251 0.14229226 -0.2270045
-0.082600504 0.142288 -0.227036
-0.082351245 0.14227624 -0.22699174
-0.082259998 0.142377 -0.22698399
-0.085075803 0.14246561 -0.2269998
-0.084859006 0.14247733 -0.22704399
-0.084694333 0.14246283 -0.22701432
-0.084574997 0.14246 -0.22705001
-0.084412664 0.14248566 -0.22702533
-0.084193669 0.14247815 -0.22704466
-0.083966769 0.14246811 -0.22702667
-0.083805501 0.14245982 -0.22707336
-0.083613001 0.14247751 -0.227024
-0.083378002 0.14247149 -0.22707099
-0.083245747 0.14246325 -0.227073
-0.083012998 0.142455 -0.227088
-0.082860328 0.14248033 -0.22704601
-0.082685336 0.14246868 -0.22701032
-0.082593001 0.14246432 -0.22704101
-0.08241 0.14245601 -0.2269945
-0.085191995 0.142635 -0.22699299
-0.085051201 0.14264801 -0.22700179
-0.084853008 0.14265388 -0.22702844
-0.084687337 0.14263922 -0.2270159
-0.084568657 0.142637 -0.22703767
-0.084405497 0.142662 -0.22703001
-0.084187508 0.142654 -0.22703025
-0.084000252 0.14264625 -0.22704124
-0.083824337 0.14263834 -0.22707534
-0.083605327 0.142654 -0.22703467
-0.083371997 0.14264701 -0.227057
-0.083239496 0.14263965 -0.22706752
-0.083007671 0.14263067 -0.227063
-0.082854494 0.142655 -0.2270225
-0.082678504 0.142645 -0.22701626
-0.082588002 0.14263999 -0.22701299
-0.082424998 0.142634 -0.227005
-0.0850095 0.142837 -0.226997
-0.084847003 0.14282949 -0.22700699
-0.084669799 0.14283641 -0.22699881
-0.084560335 0.14284833 -0.22704066
-0.084398001 0.14283834 -0.22703767
-0.084181003 0.14283049 -0.22702533
-0.083994173 0.14282183 -0.22702785
-0.083818227 0.14281479 -0.227063
-0.083599001 0.142831 -0.22703099
-0.083367005 0.142823 -0.2270215
-0.083223 0.142836 -0.2270544
-0.082998671 0.14284267 -0.22707367
-0.082846664 0.14283367 -0.22705333
-0.082671002 0.14282165 -0.22702634
-0.082581006 0.14281599 -0.22701299
-0.082419999 0.14277449 -0.2270045
-0.085045666 0.14301585 -0.22700399
-0.084829003 0.14298233 -0.22700651
-0.084692627 0.14302075 -0.22701825
-0.084553003 0.143025 -0.2270515
-0.084391996 0.143015 -0.22703001
-0.084173746 0.143007 -0.2270315
-0.083987251 0.1429985 -0.227027
-0.083804376 0.14301637 -0.22705527
-0.083592676 0.14300632 -0.227018
-0.083359331 0.14299966 -0.227037
-0.083235405 0.14300659 -0.2270482
-0.082993001 0.14301899 -0.2270515
-0.082839996 0.1430095 -0.22704399
-0.08266525 0.14299801 -0.22700649
-0.082574502 0.142993 -0.22701199
-0.085038751 0.14319199 -0.22700426
-0.084851332 0.14319466 -0.22698967
-0.084681198 0.14319289 -0.22703469
-0.084545672 0.14320235 -0.22706001
-0.084384657 0.14319234 -0.22703297
-0.08416716 0.1431845 -0.22703068
-0.083979823 0.14317584 -0.22704117
-0.083811425 0.143189 -0.227054
-0.083585501 0.14318401 -0.227017
-0.0833515 0.143178 -0.227052
-0.083217666 0.14320467 -0.22706182
-0.082986332 0.14319533 -0.22704899
-0.082834668 0.14318599 -0.227017
-0.082658164 0.14317501 -0.22700782
-0.082567662 0.14317 -0.22700566
-0.085031502 0.143369 -0.22701401
-0.084855668 0.1433605 -0.22701132
-0.084695704 0.1433647 -0.22704069
-0.084541 0.14337701 -0.22702
-0.084378004 0.143369 -0.227035
-0.084160507 0.14336026 -0.22702076
-0.083963007 0.14337321 -0.22704279
-0.083796218 0.14337999 -0.22706212
-0.083577998 0.14336066 -0.22703433
-0.083344996 0.14335434 -0.22705533
-0.083211251 0.14338151 -0.227054
-0.082980998 0.14333799 -0.227056
-0.082877666 0.14337766 -0.22703399
-0.082645796 0.14337179 -0.22700338
-0.082559332 0.14338167 -0.22700201
-0.082393996 0.143445 -0.226987
-0.085025497 0.14354551 -0.22700076
-0.084849253 0.14353651 -0.22700325
-0.084694602 0.1435546 -0.2270205
-0.084559202 0.14356799 -0.22701919
-0.084371664 0.143544 -0.22702368
-0.084154002 0.14353633 -0.22701435
-0.083973601 0.1435442 -0.22705881
-0.083790161 0.14355665 -0.22704667
-0.083570495 0.143538 -0.22704449
-0.083294503 0.14356351 -0.22704251
-0.083157666 0.143556 -0.22704934
-0.082896672 0.1435445 -0.22703783
-0.082656249 0.1435315 -0.227011
-0.082618997 0.143593 -0.226989
-0.082391001 0.143517 -0.226998
-0.084997758 0.14370251 -0.22699025
-0.084841996 0.14371265 -0.22701116
-0.084725998 0.14374101 -0.22700149
-0.084558994 0.14373025 -0.22701851
-0.084364504 0.143721 -0.2270245
-0.084154405 0.14373478 -0.227029
-0.083957165 0.14374118 -0.22705285
-0.083783224 0.14373311 -0.22705276
-0.083563 0.14371534 -0.22705935
-0.083287999 0.14373925 -0.22703925
-0.083150506 0.14373299 -0.22705251
-0.082889006 0.14372149 -0.22704524
-0.082658999 0.143746 -0.22702233
-0.084969997 0.14386 -0.226989
-0.084834158 0.14392532 -0.22700568
-0.084691331 0.14391567 -0.22702378
-0.084551997 0.14390732 -0.22702335
-0.084357329 0.14389767 -0.22703566
-0.084131002 0.14390421 -0.22701161
-0.083952501 0.14391699 -0.22701299
-0.083775997 0.14390932 -0.22705616
-0.083555996 0.14392601 -0.22703965
-0.083280496 0.14391683 -0.22705333
-0.083143003 0.14390934 -0.22705935
-0.082882836 0.14389732 -0.22703916
-0.0826535 0.143922 -0.2270025
-0.082572997 0.143911 -0.2269915
-0.084828243 0.14410049 -0.22698426
-0.084683836 0.1440925 -0.22703534
-0.084545754 0.14408375 -0.22701199
-0.084352002 0.14407399 -0.227009
-0.084123202 0.14411561 -0.227005
-0.083945505 0.14409301 -0.22701418
-0.083769664 0.14408579 -0.22704212
-0.083549999 0.14410201 -0.22702301
-0.083273754 0.14409275 -0.22704625
-0.083136998 0.1440855 -0.227047
-0.082902662 0.14406301 -0.22702567
-0.082747996 0.14410233 -0.22701435
-0.082550503 0.14407 -0.22698975
-0.084821336 0.1442775 -0.22698833
-0.084678456 0.14426787 -0.22700244
-0.084539168 0.14426051 -0.227009
-0.084343001 0.14432099 -0.226983
-0.084124997 0.14427926 -0.227017
-0.083938748 0.14427075 -0.22701025
-0.083763003 0.14426301 -0.22704299
-0.083542325 0.144279 -0.22703832
-0.083267994 0.144269 -0.22702684
-0.083131336 0.14426066 -0.22702499
-0.08294633 0.144255 -0.22702467
-0.082791999 0.14428049 -0.22701901
-0.082525499 0.144264 -0.226991
-0.085032001 0.1445 -0.22698601
-0.084882669 0.14446867 -0.22699334
-0.084698245 0.144447 -0.227
-0.084532507 0.144437 -0.22700749
-0.084338002 0.14446168 -0.22698499
-0.084118664 0.144455 -0.22700833
-0.083931506 0.14444683 -0.22701633
-0.083757117 0.14443867 -0.22702466
-0.083535999 0.144456 -0.227029
-0.083261997 0.14444526 -0.22700299
-0.083124995 0.14443749 -0.227015
-0.082938999 0.14446665 -0.22700965
-0.082785003 0.14445834 -0.22702666
-0.085028 0.14460599 -0.226987
-0.084942997 0.144566 -0.226996
-0.084675804 0.14461491 -0.22700131
-0.084520392 0.14459899 -0.2269938
-0.084330998 0.144638 -0.226989
-0.08411175 0.144632 -0.22701226
-0.083940335 0.14461233 -0.22701633
-0.083766498 0.144633 -0.22700074
-0.083571248 0.14465401 -0.227016
-0.083212994 0.144619 -0.22699733
-0.083117671 0.14461468 -0.22702634
-0.082934 0.14460699 -0.226989
-0.082778499 0.14463401 -0.22701401
-0.090741001 0.14486 -0.227006
-0.084668003 0.14481978 -0.2270066
-0.084486 0.14482467 -0.226992
-0.084323667 0.14481501 -0.22699833
-0.084127754 0.14479101 -0.227016
-0.084001198 0.1448192 -0.2270138
-0.083843395 0.14479598 -0.22699142
-0.083524004 0.14480799 -0.22699299
-0.083234668 0.14480901 -0.22698767
-0.083110332 0.14482599 -0.227008
-0.082923003 0.144889 -0.22699
-0.082771994 0.14481167 -0.22701265
-0.090647668 0.14499767 -0.22702266
-0.084672593 0.144977 -0.22700301
-0.084509999 0.145037 -0.22699
-0.0843165 0.14499199 -0.2270005
-0.084142998 0.1449845 -0.22699399
-0.083989002 0.14496867 -0.22700866
-0.08378838 0.14499636 -0.22698988
-0.083684996 0.14503551 -0.22699401
-0.083222002 0.14495525 -0.22698924
-0.083104506 0.14500299 -0.22699299
-0.082919002 0.144996 -0.2269935
-0.082765996 0.14498749 -0.22699299
-0.090566002 0.14520501 -0.226997
-0.084821999 0.14519501 -0.226989
-0.084689572 0.145171 -0.22699955
-0.084532619 0.14517 -0.22699162
-0.084309995 0.14516835 -0.22699566
-0.084133998 0.14523099 -0.22698601
-0.083998755 0.1451575 -0.22699098
-0.083755001 0.14518075 -0.22699425
-0.083678499 0.14517701 -0.227005
-0.083226003 0.14517181 -0.2269922
-0.083099 0.1451425 -0.22699
-0.082915999 0.145101 -0.226981
-0.090553999 0.145418 -0.227081
-0.090500996 0.14537799 -0.227029
-0.084820002 0.14526699 -0.226981
-0.084693335 0.14528567 -0.22698633
-0.084504999 0.145344 -0.22699267
-0.084302999 0.145346 -0.226998
-0.084129497 0.145339 -0.2270005
-0.0840405 0.145338 -0.22699499
-0.083743006 0.14534321 -0.22699979
-0.083672009 0.14535366 -0.22700532
-0.083228998 0.14532751 -0.22698624
-0.090470664 0.14553267 -0.22705667
-0.084460005 0.1454955 -0.2269935
-0.084298998 0.14545099 -0.226992
-0.084123999 0.14547899 -0.226988
-0.084033668 0.14551432 -0.22699666
-0.0830855 0.145496 -0.226983
-0.082749002 0.145446 -0.226981
-0.090434499 0.14568201 -0.22709849
-0.090328999 0.14576299 -0.226996
-0.083929494 0.145686 -0.226987
-0.083740003 0.1457275 -0.226991
-0.083657503 0.145742 -0.226991
-0.083255 0.14575399 -0.226988
-0.082892001 0.145703 -0.226987
-0.090409003 0.145843 -0.227143
-0.090298757 0.1459225 -0.22703975
-0.083700001 0.14591999 -0.226981
-0.083250999 0.145861 -0.22698599
-0.090254664 0.14606899 -0.227071
-0.090135001 0.146102 -0.22698499
-0.083696999 0.14599 -0.226983
-0.09021733 0.14625633 -0.22708465
-0.090104006 0.14626224 -0.22701976
-0.090209998 0.14639799 -0.22713
-0.09007325 0.14642 -0.22703975
-0.090063997 0.1465985 -0.22708468
-0.0899285 0.146621 -0.22698501
-0.090047002 0.14679541 -0.22707979
-0.089922503 0.14676249 -0.22699299
-0.09005025 0.1469515 -0.22708376
-0.089949168 0.14715751 -0.22707666
-0.089894995 0.14733249 -0.22710201
-0.089808002 0.147361 -0.227005
-0.08988934 0.14750966 -0.22708233
-0.0898045 0.1474655 -0.22699499
-0.089883998 0.14765 -0.227065
-0.089754 0.14774451 -0.226998
-0.089766249 0.147856 -0.22706524
-0.089732997 0.14804961 -0.22701982
-0.089772999 0.14821033 -0.227054
-0.089704998 0.1484015 -0.22707199
-0.089611746 0.14841175 -0.22700375
-0.089702994 0.14856434 -0.22712167
-0.089589 0.14858851 -0.22701825
-0.08955913 0.14877549 -0.22704738
-0.089547999 0.14890601 -0.226996
-0.089497663 0.14916733 -0.22706766
-0.089521147 0.1493137 -0.22708429
-0.089512162 0.14947768 -0.22710748
-0.0894875 0.14961851 -0.227107
-0.089411996 0.14960399 -0.22698499
-0.089276999 0.149878 -0.226988
-0.087219 0.12714399 -0.22681451
-0.087518997 0.12740199 -0.226887
-0.087402664 0.12736399 -0.22685401
-0.087514006 0.127544 -0.22688301
-0.087425999 0.1274735 -0.2268125
-0.080600999 0.127573 -0.226871
-0.087687001 0.127766 -0.22686
-0.087598003 0.12773049 -0.22683001
-0.080505997 0.12771399 -0.22685701
-0.080429003 0.127777 -0.22688299
-0.087738 0.1278916 -0.2269042
-0.080370501 0.12788075 -0.22685525
-0.080213003 0.127978 -0.226836
-0.087863997 0.12808999 -0.22688501
-0.087727003 0.12801701 -0.226827
-0.088026501 0.128453 -0.22688299
-0.088025004 0.128563 -0.226832
-0.088334002 0.128861 -0.22685599
-0.088475503 0.1289725 -0.226879
-0.088629998 0.12915534 -0.22685833
-0.088687494 0.129336 -0.22685149
-0.088768333 0.12951633 -0.22685933
-0.088684998 0.129443 -0.226832
-0.088942498 0.129702 -0.22688
-0.088978827 0.12987851 -0.22689234
-0.089146003 0.13009299 -0.22697
-0.089030005 0.13005021 -0.22690621
-0.089161798 0.1302516 -0.22692521
-0.089058802 0.13022318 -0.22686601
-0.089284003 0.130458 -0.226963
-0.089176595 0.13042441 -0.226895
-0.089085996 0.1304175 -0.22681549
-0.089313 0.1305898 -0.22694781
-0.089198329 0.13059632 -0.22686979
-0.089082003 0.130523 -0.226805
-0.089366496 0.13078751 -0.226915
-0.089225829 0.13077651 -0.22685234
-0.089473501 0.1310015 -0.226963
-0.089354798 0.1309512 -0.22686701
-0.0892324 0.13091221 -0.22682118
-0.089498669 0.131157 -0.22692268
-0.089364603 0.13112399 -0.22683139
-0.089541495 0.13133313 -0.22689551
-0.089388996 0.13128901 -0.22681101
-0.089723997 0.131543 -0.226964
-0.089591004 0.13150275 -0.22687849
-0.089721672 0.13168533 -0.22690232
-0.089595996 0.13166741 -0.2268362
-0.085229166 0.131689 -0.22680832
-0.084544331 0.13173367 -0.22681166
-0.084209003 0.13174 -0.22682101
-0.089893997 0.131899 -0.22698
-0.089774594 0.1318462 -0.2268786
-0.089628004 0.131827 -0.22680201
-0.085348003 0.131871 -0.22680099
-0.085215122 0.13185437 -0.22682464
-0.085057124 0.13185938 -0.22681524
-0.084833004 0.13191099 -0.22680099
-0.084522001 0.13186124 -0.22683226
-0.084316403 0.1318588 -0.22681661
-0.084204003 0.131844 -0.22683799
-0.084032506 0.131899 -0.226824
-0.083715498 0.13188499 -0.2268185
-0.083621003 0.131915 -0.226804
-0.089892 0.132044 -0.22690968
-0.089760751 0.13200976 -0.22682875
-0.085567832 0.13202482 -0.22681683
-0.085389338 0.13201383 -0.22682299
-0.085221998 0.13202515 -0.22684057
-0.085049838 0.13202484 -0.22683883
-0.084828496 0.13201499 -0.22682101
-0.084652334 0.13204066 -0.22684467
-0.084513672 0.132036 -0.22686183
-0.08430589 0.13202511 -0.22687165
-0.084195338 0.132018 -0.22687133
-0.084024996 0.13203749 -0.226861
-0.083793998 0.13206799 -0.226805
-0.083615497 0.13202101 -0.226816
-0.083428502 0.132084 -0.226815
-0.089885995 0.132221 -0.22689649
-0.089802332 0.13219 -0.22682099
-0.085796997 0.13221249 -0.22683349
-0.085559249 0.13219875 -0.22685625
-0.08537966 0.132223 -0.22685717
-0.08520522 0.13221389 -0.22687922
-0.085042335 0.13220023 -0.22685678
-0.084819667 0.13219 -0.22685964
-0.084644005 0.13221601 -0.226878
-0.084506005 0.132211 -0.22688499
-0.084328756 0.132202 -0.22688924
-0.084209502 0.13222833 -0.22691785
-0.084017001 0.13221233 -0.226891
-0.083752997 0.1321898 -0.22685079
-0.083630502 0.13221425 -0.22684824
-0.083422497 0.1322245 -0.226827
-0.083268002 0.13225199 -0.226809
-0.090022661 0.13240366 -0.22694367
-0.089919172 0.13239834 -0.22689067
-0.085790671 0.13238834 -0.22682901
-0.085552 0.13237466 -0.22686635
-0.0853725 0.13239925 -0.22686425
-0.085198164 0.13238932 -0.22688633
-0.085034825 0.13237567 -0.22687566
-0.084809333 0.13239866 -0.22690535
-0.084636331 0.13239099 -0.22689001
-0.084497504 0.13238584 -0.22691733
-0.084321164 0.13237733 -0.22690783
-0.084203243 0.13240525 -0.22690749
-0.084009498 0.132387 -0.2269185
-0.083778501 0.13238099 -0.22688499
-0.083644666 0.1324075 -0.22688915
-0.083413668 0.13239901 -0.22686298
-0.083262004 0.13239099 -0.22683667
-0.082993999 0.132411 -0.226807
-0.090046495 0.13258275 -0.22691324
-0.089927673 0.13256566 -0.22684433
-0.085783496 0.13256499 -0.226824
-0.085560001 0.13254033 -0.22687
-0.085425504 0.13257851 -0.22688134
-0.085230231 0.13256757 -0.22690034
-0.085047357 0.13255928 -0.22688437
-0.084801495 0.13257301 -0.22693101
-0.0846285 0.132566 -0.22692201
-0.084489502 0.13256074 -0.22694498
-0.084312171 0.13258867 -0.2269295
-0.084196001 0.13258152 -0.22691484
-0.084002338 0.13256399 -0.22691901
-0.083769999 0.13255601 -0.226919
-0.083636999 0.13258299 -0.22690475
-0.083406501 0.132576 -0.226879
-0.083253503 0.132566 -0.22686251
-0.083027333 0.1326005 -0.22682299
-0.082824998 0.13258 -0.22680099
-0.082645997 0.132641 -0.226808
-0.090079404 0.1327695 -0.22688372
-0.089949504 0.13271999 -0.22682551
-0.086060002 0.13279 -0.22681251
-0.085775338 0.13273899 -0.22686465
-0.085581668 0.13273032 -0.22687334
-0.085448496 0.13275501 -0.22689725
-0.08524216 0.13274367 -0.22692233
-0.08507555 0.13276477 -0.22690612
-0.08487583 0.13275534 -0.22692551
-0.084620327 0.13274133 -0.22694266
-0.084482171 0.1327365 -0.22695567
-0.084304996 0.13276449 -0.22692874
-0.084187999 0.13275599 -0.22694024
-0.083995998 0.1327405 -0.226907
-0.083761334 0.13276701 -0.22693133
-0.083629496 0.13275833 -0.22692084
-0.083397992 0.13274901 -0.22691166
-0.083245665 0.13274167 -0.22688667
-0.083059825 0.132744 -0.22683282
-0.082897 0.1327945 -0.2268215
-0.08264 0.132781 -0.226809
-0.082448997 0.13277 -0.226806
-0.090228498 0.13294449 -0.2269585
-0.090128995 0.13293621 -0.22687921
-0.086053506 0.1329295 -0.22682801
-0.085765004 0.13294868 -0.226914
-0.085571341 0.13293834 -0.22692299
-0.085440837 0.13293134 -0.22691469
-0.08523456 0.13291955 -0.22693856
-0.085067332 0.13294034 -0.22693284
-0.084868498 0.13293099 -0.22693625
-0.084613502 0.132918 -0.22694001
-0.084464595 0.1329336 -0.22695461
-0.084297508 0.13294034 -0.22694565
-0.084180169 0.13293117 -0.22696716
-0.083986998 0.13291433 -0.22695667
-0.083753005 0.13294199 -0.2269555
-0.083621249 0.13293324 -0.22695149
-0.083389997 0.132925 -0.226937
-0.083237499 0.132917 -0.22691399
-0.083061829 0.13294217 -0.2268635
-0.082889996 0.13293417 -0.2268535
-0.082676835 0.13292484 -0.22682685
-0.082443506 0.13291201 -0.226804
-0.082212001 0.132974 -0.226803
-0.077065997 0.13289601 -0.226833
-0.090363003 0.133128 -0.22695599
-0.090256497 0.13305199 -0.2269315
-0.090171002 0.133055 -0.226827
-0.086220004 0.133048 -0.22681201
-0.086113393 0.1331234 -0.2268444
-0.085756496 0.133122 -0.22695249
-0.085562497 0.1331135 -0.22695801
-0.085418336 0.13309233 -0.22695367
-0.085219145 0.13311057 -0.22693059
-0.085059665 0.13311499 -0.22694921
-0.084902257 0.13309175 -0.226953
-0.084674999 0.1331104 -0.22696039
-0.084517002 0.133092 -0.22696368
-0.084332325 0.13311701 -0.22696316
-0.084173501 0.133108 -0.22695801
-0.0839765 0.13316101 -0.2269775
-0.083746009 0.13311799 -0.226964
-0.083605394 0.1330948 -0.22695801
-0.083382994 0.133101 -0.22693968
-0.083229996 0.13309267 -0.22693467
-0.083053246 0.13311699 -0.22689851
-0.082909331 0.13309832 -0.22688699
-0.082695007 0.1331078 -0.22685859
-0.082433999 0.13312133 -0.22683699
-0.082166202 0.13312601 -0.22680721
-0.090429753 0.13325825 -0.22685975
-0.086153001 0.13327734 -0.22684233
-0.086038001 0.13331699 -0.22684801
-0.085749 0.13329899 -0.22696267
-0.085556664 0.13329066 -0.22694699
-0.085424833 0.13328134 -0.22696267
-0.085238419 0.13327327 -0.22692701
-0.085052669 0.1332915 -0.22695316
-0.084934995 0.133288 -0.22695801
-0.084601 0.13323399 -0.22695699
-0.084596999 0.133305 -0.226978
-0.084357597 0.13328041 -0.22697239
-0.083972 0.133267 -0.226978
-0.083376005 0.13327751 -0.226941
-0.083220996 0.133303 -0.22695768
-0.083045669 0.13329266 -0.22692066
-0.082953997 0.133287 -0.22693467
-0.082729436 0.13326757 -0.22689915
-0.082616001 0.13330799 -0.226888
-0.082425505 0.133296 -0.22686449
-0.082165331 0.13329966 -0.22682734
-0.090538502 0.133459 -0.22681999
-0.086420499 0.133514 -0.226817
-0.086202003 0.13346833 -0.226843
-0.086031996 0.13345768 -0.22684968
-0.085742995 0.1334755 -0.22694701
-0.085549504 0.133467 -0.2269475
-0.085417747 0.133458 -0.22696875
-0.08525566 0.13343766 -0.226951
-0.085018165 0.13346483 -0.226973
-0.084927328 0.13346367 -0.22697534
-0.084765002 0.133452 -0.226979
-0.084402002 0.133508 -0.226979
-0.083733998 0.13339999 -0.22698
-0.083370999 0.13338199 -0.22696801
-0.083214 0.133443 -0.22697601
-0.083038002 0.13346849 -0.22694075
-0.082947001 0.13346401 -0.22694001
-0.082741253 0.13345575 -0.2268945
-0.082608998 0.133485 -0.22689299
-0.08241833 0.13347299 -0.22687566
-0.082141504 0.13346232 -0.22684915
-0.082001172 0.13347566 -0.2268105
-0.086414002 0.133655 -0.22684
-0.0861945 0.133644 -0.2268595
-0.086022668 0.13366766 -0.22687566
-0.085735001 0.133651 -0.226965
-0.085542001 0.13364233 -0.226963
-0.085413501 0.133563 -0.2269735
-0.084922001 0.133604 -0.226978
-0.084311001 0.13357501 -0.22697499
-0.0830305 0.133644 -0.22694634
-0.082939997 0.13363899 -0.22694467
-0.082733832 0.13363166 -0.22690816
-0.082600996 0.13366 -0.22691399
-0.082412004 0.13365 -0.226863
-0.082134247 0.13363799 -0.22685525
-0.081974775 0.133662 -0.22681846
-0.090620503 0.133819 -0.22680351
-0.086407997 0.13383099 -0.22682534
-0.086187333 0.13381933 -0.226871
-0.086016506 0.133844 -0.22686701
-0.085728496 0.133828 -0.22696501
-0.083022997 0.13382101 -0.2269585
-0.082932502 0.133816 -0.22696
-0.082724668 0.1338425 -0.22692533
-0.082594 0.13383567 -0.22692101
-0.082404673 0.13382566 -0.22687601
-0.082152247 0.13379949 -0.2268645
-0.08199475 0.13383976 -0.226833
-0.081839502 0.13383299 -0.226805
-0.0864015 0.13400799 -0.22681299
-0.086179495 0.1339955 -0.22688499
-0.086007506 0.134055 -0.226886
-0.085724004 0.13393299 -0.226979
-0.083016165 0.13399667 -0.22695883
-0.082924999 0.133991 -0.22697334
-0.082717501 0.13401851 -0.22693899
-0.082586497 0.13401151 -0.226935
-0.082397506 0.134001 -0.22689
-0.082168996 0.13399449 -0.22686601
-0.081987999 0.13401625 -0.2268341
-0.081835002 0.133938 -0.226808
-0.090602994 0.13424 -0.2268205
-0.086584002 0.13419934 -0.22682101
-0.086393334 0.13418268 -0.226844
-0.086171664 0.13417101 -0.22691333
-0.0860015 0.134196 -0.22689551
-0.085712999 0.134215 -0.226978
-0.082996503 0.134188 -0.22696826
-0.082916997 0.134203 -0.22697167
-0.082709171 0.13419451 -0.22696416
-0.082578331 0.13418801 -0.22696035
-0.082389668 0.13417767 -0.22691201
-0.082161337 0.13417034 -0.226891
-0.082008831 0.13419451 -0.22684151
-0.08186125 0.13418649 -0.22682275
-0.090627007 0.13439433 -0.22685166
-0.086834505 0.13431799 -0.226808
-0.086706996 0.13438225 -0.22681876
-0.086576499 0.13437301 -0.226843
-0.086385503 0.134359 -0.226862
-0.086164676 0.13438299 -0.22688633
-0.085993998 0.13437167 -0.22690533
-0.085709997 0.134285 -0.22697601
-0.082943752 0.13437951 -0.22697201
-0.082702503 0.13436976 -0.22696501
-0.082571499 0.134363 -0.226964
-0.082379334 0.13438733 -0.22695367
-0.082152329 0.13438065 -0.22690834
-0.082001336 0.13436989 -0.2268611
-0.081871748 0.13438025 -0.22682875
-0.090683997 0.13449199 -0.226869
-0.087127998 0.13451099 -0.226803
-0.087033249 0.13455674 -0.22681224
-0.086874329 0.134544 -0.22680533
-0.086691208 0.13454381 -0.22684021
-0.086569004 0.13454933 -0.22686468
-0.086378999 0.13453467 -0.22685134
-0.086157501 0.13455799 -0.22689
-0.085987501 0.1345475 -0.22690201
-0.085509002 0.134488 -0.22696801
-0.082650334 0.13454467 -0.22696967
-0.082565002 0.13454068 -0.22695734
-0.082373999 0.134565 -0.22692549
-0.082145497 0.13455799 -0.226904
-0.081993826 0.13454568 -0.22687285
-0.081795715 0.13455085 -0.22682957
-0.090759002 0.134776 -0.226923
-0.090674996 0.134775 -0.226813
-0.087145001 0.13472101 -0.2268075
-0.08704856 0.13471656 -0.22682256
-0.086894996 0.13464101 -0.22680099
-0.086678006 0.13474567 -0.22682901
-0.086562 0.13472551 -0.22686601
-0.086370997 0.134745 -0.22685234
-0.086148657 0.13473333 -0.22693567
-0.085979 0.1347585 -0.226904
-0.082644001 0.134721 -0.22695899
-0.082557499 0.134717 -0.22696051
-0.082366668 0.13474132 -0.22692899
-0.082138665 0.13473468 -0.22690535
-0.081987232 0.13472244 -0.22687064
-0.081809625 0.13472176 -0.22683963
-0.090644255 0.13493 -0.22685552
-0.087164998 0.13486201 -0.226808
-0.08705128 0.13490842 -0.22682515
-0.086830005 0.13490024 -0.2268105
-0.086685501 0.13490967 -0.22684066
-0.086555667 0.134902 -0.22684734
-0.086363494 0.134921 -0.226864
-0.086142495 0.13491 -0.226932
-0.085974999 0.134865 -0.2269
-0.082637668 0.13489866 -0.226945
-0.082551003 0.13489334 -0.22696467
-0.0823595 0.13491699 -0.22693799
-0.082131505 0.13491 -0.2269195
-0.081971429 0.13491286 -0.22687657
-0.081830494 0.1349255 -0.22686648
-0.081713334 0.13492067 -0.22682834
-0.090742998 0.13512699 -0.226974
-0.090616003 0.135087 -0.22683799
-0.087082505 0.13500249 -0.226809
-0.086840257 0.13509424 -0.22682001
-0.086677745 0.13508551 -0.22685924
-0.086549506 0.135079 -0.226842
-0.086356342 0.13509767 -0.22687368
-0.086134337 0.135086 -0.226951
-0.085963003 0.135148 -0.226919
-0.082630999 0.135038 -0.22698
-0.08254233 0.13510434 -0.22696467
-0.082352005 0.135094 -0.226943
-0.082124673 0.13508667 -0.22691333
-0.081978872 0.13508375 -0.22689149
-0.081823252 0.13510101 -0.226877
-0.081706494 0.135097 -0.226833
-0.090737335 0.13526767 -0.22697367
-0.090608992 0.13526285 -0.22684234
-0.087217003 0.135291 -0.226809
-0.087043859 0.13530128 -0.226823
-0.086859003 0.13528037 -0.22681975
-0.086672001 0.135262 -0.22683549
-0.086540997 0.13525367 -0.22686867
-0.086349502 0.13527301 -0.22688051
-0.086127996 0.135261 -0.22694901
-0.085958004 0.135287 -0.22692001
-0.082711503 0.13529 -0.226972
-0.082535997 0.13528049 -0.226965
-0.082345501 0.13527 -0.22694251
-0.082118005 0.13526399 -0.226907
-0.081957504 0.13527662 -0.22689673
-0.081816167 0.13527785 -0.22687966
-0.081699006 0.13527201 -0.22684599
-0.081513003 0.13519301 -0.226809
-0.090730503 0.135444 -0.2269665
-0.090601996 0.1354385 -0.2268445
-0.087165661 0.13542669 -0.22681798
-0.087037176 0.13545717 -0.22683334
-0.086843997 0.135447 -0.22680925
-0.086663745 0.13543725 -0.22686726
-0.086531341 0.13546367 -0.22690167
-0.086341344 0.13544832 -0.226909
-0.086122334 0.13543934 -0.22691466
-0.085951 0.135464 -0.22691649
-0.082707003 0.135396 -0.226973
-0.082338996 0.13544667 -0.22694033
-0.082111329 0.13543968 -0.22691067
-0.081965573 0.13544814 -0.226895
-0.081808999 0.135454 -0.2268865
-0.081691504 0.13544899 -0.226853
-0.081502497 0.135438 -0.226834
-0.090726003 0.13554899 -0.22698
-0.090594672 0.13561468 -0.22685534
-0.087385505 0.135617 -0.22681201
-0.087197334 0.13566516 -0.22682182
-0.087030329 0.13563268 -0.22683144
-0.086854555 0.13562311 -0.22681898
-0.086655833 0.1356135 -0.22688867
-0.0865255 0.13564 -0.22688699
-0.086333498 0.13562399 -0.226926
-0.086113997 0.13564967 -0.22692268
-0.085943341 0.13564 -0.22693467
-0.082520001 0.13567001 -0.22696801
-0.082331501 0.13562301 -0.22694901
-0.082103506 0.135616 -0.22693649
-0.081977002 0.13564132 -0.22690751
-0.081833445 0.13563134 -0.22688611
-0.081684999 0.135626 -0.22684734
-0.081495665 0.13561501 -0.22683233
-0.090595201 0.1358116 -0.22687781
-0.090491503 0.13588899 -0.226826
-0.087377332 0.135792 -0.22683233
-0.087202169 0.13581768 -0.2268395
-0.08702267 0.13580833 -0.22685033
-0.086847492 0.13579984 -0.22682117
-0.086647332 0.13582449 -0.2268945
-0.086516999 0.13581567 -0.226916
-0.086326659 0.1358 -0.22692199
-0.086106002 0.13582599 -0.2269475
-0.085935503 0.13581499 -0.22695401
-0.082516499 0.13577449 -0.22697
-0.082324333 0.1358 -0.22695534
-0.082097329 0.13579302 -0.22691201
-0.081969753 0.1358175 -0.22691576
-0.081826337 0.13580768 -0.22688933
-0.081678495 0.135802 -0.22685
-0.081487 0.13582633 -0.22684367
-0.090622999 0.136003 -0.2269115
-0.090487003 0.13599399 -0.226835
-0.087561503 0.135977 -0.22681099
-0.087466002 0.13600732 -0.22680567
-0.087207496 0.13597117 -0.22683682
-0.087034181 0.13599163 -0.22685727
-0.086839557 0.13597499 -0.226845
-0.086641751 0.13599999 -0.2268745
-0.086511001 0.135993 -0.2269035
-0.0863185 0.135976 -0.22694901
-0.086098671 0.136002 -0.22696
-0.085928999 0.13599066 -0.22695933
-0.082936004 0.1360435 -0.22697201
-0.082507998 0.135987 -0.226969
-0.082316995 0.135976 -0.22696
-0.082088001 0.13600333 -0.22694701
-0.081962831 0.135994 -0.22691798
-0.081818894 0.13598377 -0.22690433
-0.081671 0.135978 -0.22686601
-0.081479505 0.13600251 -0.226854
-0.090616666 0.13618 -0.22690301
-0.090479828 0.13617066 -0.22683901
-0.087555498 0.136117 -0.22682601
-0.087426007 0.13619334 -0.226831
-0.087225497 0.13617299 -0.22683875
-0.087034367 0.13616112 -0.2268655
-0.086851433 0.13617729 -0.22686157
-0.086664751 0.136187 -0.22688751
-0.086504668 0.13616835 -0.22689666
-0.086312331 0.136153 -0.22693932
-0.086090997 0.136178 -0.22697499
-0.085921496 0.13616699 -0.22696951
-0.082957 0.13611799 -0.22696701
-0.082309999 0.136152 -0.22697265
-0.082082003 0.136144 -0.226954
-0.081980802 0.1361796 -0.2269278
-0.08181233 0.13616084 -0.22689916
-0.081662998 0.136154 -0.226881
-0.081472002 0.13617933 -0.22686867
-0.090652004 0.1363575 -0.22694051
-0.090472996 0.136346 -0.226842
-0.087402843 0.13635701 -0.22684918
-0.08721751 0.1363485 -0.22686918
-0.087027498 0.13633724 -0.22686766
-0.086859249 0.13636374 -0.22686726
-0.086668007 0.13635467 -0.22690783
-0.086495504 0.136344 -0.22692999
-0.086304665 0.136364 -0.22692567
-0.086087003 0.13628399 -0.226979
-0.085914001 0.136343 -0.22697701
-0.082304001 0.136292 -0.226979
-0.081989668 0.13635021 -0.22695099
-0.081804782 0.13633756 -0.22691624
-0.081656002 0.13633001 -0.22687833
-0.081466004 0.136356 -0.22685501
-0.07598266 0.13633166 -0.22681801
-0.09062475 0.13651526 -0.22692975
-0.090466328 0.13652165 -0.22684467
-0.087395497 0.13653299 -0.226859
-0.087210007 0.13652425 -0.22688475
-0.087030999 0.13650885 -0.2268873
-0.086873002 0.136549 -0.22688898
-0.08670184 0.13653167 -0.22693999
-0.086533166 0.13652466 -0.22691083
-0.086296499 0.13654 -0.2269595
-0.085908502 0.136521 -0.226952
-0.082294002 0.136576 -0.226972
-0.081966206 0.1365324 -0.22694242
-0.081787281 0.136528 -0.22692357
-0.081648 0.13654201 -0.226879
-0.081458993 0.13653235 -0.226858
-0.075862668 0.13651766 -0.22685367
-0.090596005 0.13670701 -0.2269135
-0.090447798 0.1367176 -0.22686739
-0.090319999 0.13672499 -0.22681665
-0.087531 0.13675049 -0.2268225
-0.087388836 0.13670917 -0.22685884
-0.08720284 0.13670051 -0.22688967
-0.087036997 0.13669044 -0.226936
-0.086872168 0.13671632 -0.22692333
-0.086695001 0.1367075 -0.22693326
-0.086525247 0.1367005 -0.22693326
-0.086291 0.136645 -0.22698
-0.085901 0.136696 -0.22697033
-0.082291 0.136646 -0.22696801
-0.081975996 0.13670343 -0.22695178
-0.081798501 0.13669899 -0.22692887
-0.081640497 0.136719 -0.2268945
-0.081451505 0.13670799 -0.22686401
-0.081118494 0.13676101 -0.226807
-0.075838 0.136729 -0.22680099
-0.090587325 0.13688266 -0.22694699
-0.090458602 0.136887 -0.2269026
-0.090312496 0.1369005 -0.22683701
-0.087524503 0.13689199 -0.22685
-0.087382495 0.13688526 -0.22683926
-0.087197497 0.13687725 -0.22686276
-0.08702866 0.13690144 -0.22693676
-0.086864561 0.13689211 -0.22693811
-0.086688668 0.13688417 -0.22692434
-0.08656133 0.13688 -0.22693832
-0.08200267 0.13687067 -0.226942
-0.081827715 0.13690315 -0.22693443
-0.081673168 0.13689649 -0.22692567
-0.081443995 0.136884 -0.226888
-0.081112504 0.136902 -0.226818
-0.075887501 0.13690799 -0.226808
-0.090581 0.137023 -0.226974
-0.090440661 0.13708383 -0.22691967
-0.090268806 0.13708881 -0.22683761
-0.090134002 0.137137 -0.226808
-0.087692998 0.13714799 -0.226804
-0.087518997 0.13706799 -0.22682865
-0.087374665 0.13706134 -0.22686316
-0.08719033 0.13705301 -0.22687034
-0.087022506 0.13707784 -0.22692366
-0.08685717 0.137068 -0.22694801
-0.0866815 0.13706075 -0.2269295
-0.086553 0.1370555 -0.22696251
-0.086276658 0.13706966 -0.22693567
-0.082272999 0.137105 -0.22697499
-0.081997335 0.13705882 -0.22695284
-0.081844866 0.13706686 -0.22694142
-0.081666246 0.13707401 -0.22692999
-0.0814365 0.137061 -0.226896
-0.081109002 0.137008 -0.22680201
-0.075823329 0.13708167 -0.22683133
-0.090570003 0.13730501 -0.226973
-0.090434499 0.1372605 -0.226907
-0.090253502 0.13725001 -0.22683699
-0.090109669 0.137253 -0.226806
-0.087511003 0.137243 -0.22685251
-0.087367252 0.137237 -0.22687575
-0.08717984 0.13726382 -0.22691552
-0.087014996 0.13725355 -0.22693934
-0.086851224 0.13724478 -0.22692946
-0.086673997 0.13723665 -0.22694983
-0.086270005 0.13724551 -0.2269485
-0.0858775 0.137297 -0.226969
-0.082268998 0.13721 -0.226978
-0.081965253 0.1372505 -0.22695126
-0.081829891 0.13725767 -0.22693035
-0.081660002 0.13724983 -0.22691667
-0.081429668 0.13723733 -0.22689898
-0.081099004 0.137255 -0.226817
-0.090567 0.137375 -0.226979
-0.090403497 0.13741601 -0.22693451
-0.090245336 0.1374255 -0.22686531
-0.090085201 0.1374452 -0.226827
-0.089945003 0.137482 -0.22680099
-0.087502994 0.137419 -0.22687232
-0.087360658 0.13741301 -0.22687252
-0.087172508 0.13744 -0.226924
-0.087008506 0.13742982 -0.22693115
-0.086843826 0.13742034 -0.22694367
-0.08668033 0.137401 -0.22696333
-0.086536497 0.13747901 -0.22697601
-0.086261995 0.13742167 -0.226963
-0.085872002 0.137437 -0.2269745
-0.081964664 0.13745733 -0.22696765
-0.081822671 0.13743401 -0.22694267
-0.081652746 0.137426 -0.22692625
-0.081422336 0.13744867 -0.22688067
-0.081091337 0.13743134 -0.22682734
-0.090370998 0.13760799 -0.2269575
-0.090237252 0.137601 -0.22689451
-0.090081997 0.13762701 -0.22686864
-0.089965165 0.137624 -0.226843
-0.087496504 0.137594 -0.226862
-0.087352663 0.13762467 -0.226869
-0.087175593 0.13760239 -0.22691378
-0.087012008 0.13761351 -0.22695982
-0.086836666 0.13759722 -0.22694832
-0.086530998 0.137619 -0.22697
-0.086254999 0.13759801 -0.22696701
-0.085868001 0.13754199 -0.226971
-0.081971005 0.137694 -0.22697499
-0.081816554 0.13761023 -0.226928
-0.081645824 0.13760234 -0.22692698
-0.081414506 0.13762501 -0.2268925
-0.081084505 0.13760701 -0.226832
-0.090364002 0.13778301 -0.22697033
-0.090228826 0.13777666 -0.22692382
-0.090074748 0.13780376 -0.22686951
-0.0899418 0.13780579 -0.22684081
-0.087666497 0.137817 -0.226824
-0.08749 0.137771 -0.22685634
-0.087392494 0.1378015 -0.22689101
-0.087250002 0.13779649 -0.22690901
-0.087035574 0.13777898 -0.22695085
-0.086834557 0.13780089 -0.22695214
-0.086642601 0.1378132 -0.226963
-0.086501993 0.1378115 -0.22697249
-0.086247504 0.13777399 -0.2269775
-0.082520999 0.137863 -0.226974
-0.082247004 0.13781101 -0.22694799
-0.081967995 0.13780001 -0.22695877
-0.081809163 0.13778767 -0.2269365
-0.081640251 0.1377795 -0.22689849
-0.081407994 0.13780166 -0.22688933
-0.081078 0.137784 -0.22682266
-0.090296663 0.13794434 -0.22695833
-0.090103887 0.13798134 -0.22689533
-0.08992444 0.13797334 -0.22684103
-0.089777 0.13803449 -0.2268185
-0.087929003 0.137972 -0.22681201
-0.087661996 0.137922 -0.22682101
-0.087570503 0.137952 -0.22687149
-0.087422408 0.1379938 -0.22690961
-0.087242164 0.137972 -0.22692932
-0.087073676 0.13796218 -0.22692917
-0.086866505 0.13796012 -0.22694249
-0.086667404 0.1379848 -0.22695461
-0.086517498 0.137971 -0.22697401
-0.086239502 0.13798499 -0.22697851
-0.082239337 0.13798767 -0.22695132
-0.081962332 0.13797633 -0.22693451
-0.08180289 0.13796377 -0.22692299
-0.081633337 0.13795583 -0.22690482
-0.081402004 0.137978 -0.226873
-0.081070498 0.13796 -0.2268305
-0.090259999 0.13809499 -0.226962
-0.090096503 0.13815717 -0.2269025
-0.089916833 0.13814916 -0.22685899
-0.089734338 0.13816117 -0.22682416
-0.088081002 0.138226 -0.226806
-0.087949492 0.13813199 -0.22681725
-0.087652333 0.13813299 -0.22686434
-0.087426752 0.13815551 -0.22688225
-0.087236255 0.13814875 -0.22691
-0.087036669 0.13813584 -0.22696066
-0.086868376 0.13815388 -0.22692412
-0.086676106 0.13815433 -0.22695234
-0.086233497 0.138161 -0.226955
-0.082232997 0.138164 -0.226953
-0.081955999 0.1381525 -0.22692449
-0.081796832 0.13814066 -0.22691284
-0.081617005 0.13815321 -0.2269104
-0.081395335 0.138155 -0.22687133
-0.081064336 0.13813733 -0.22681834
-0.090089008 0.13833322 -0.22691634
-0.089910001 0.13832523 -0.22685988
-0.089737624 0.1383225 -0.22681613
-0.088291004 0.13837701 -0.22680449
-0.088076502 0.13833299 -0.22681651
-0.087969005 0.138329 -0.2268135
-0.087643676 0.13834433 -0.22686833
-0.087418996 0.13833152 -0.22689651
-0.087228835 0.13832484 -0.22692634
-0.08703813 0.13830462 -0.22694351
-0.086874716 0.13832542 -0.22695342
-0.086668998 0.1383305 -0.22695048
-0.086228997 0.138266 -0.226963
-0.082593001 0.13836101 -0.22696701
-0.08222533 0.13834034 -0.22696167
-0.081974253 0.1383135 -0.22693126
-0.081809551 0.13832437 -0.22691737
-0.081627391 0.13832299 -0.2269012
-0.081388503 0.13833201 -0.22687051
-0.081057504 0.138313 -0.226823
-0.090242997 0.1385175 -0.22696701
-0.090081662 0.13850917 -0.22692667
-0.089903168 0.1385015 -0.22685599
-0.089751199 0.13851221 -0.22683382
-0.088285662 0.13851732 -0.22681017
-0.088108838 0.13851117 -0.22681315
-0.087898396 0.13848379 -0.22680941
-0.087637499 0.138521 -0.22684801
-0.087411746 0.1385075 -0.22690701
-0.087220997 0.13850051 -0.22694199
-0.087021135 0.13852371 -0.22695957
-0.086859889 0.13851534 -0.2269451
-0.0866464 0.13850601 -0.22697119
-0.086407997 0.138565 -0.226973
-0.082543254 0.13846475 -0.22696751
-0.082219496 0.13851801 -0.2269465
-0.081991002 0.13851 -0.226943
-0.081798203 0.1385154 -0.22692581
-0.081611499 0.13852049 -0.22690465
-0.081381001 0.13850699 -0.22688933
-0.081050664 0.13849001 -0.22681899
-0.090236999 0.13869299 -0.22695799
-0.090075344 0.13868533 -0.22691767
-0.089895882 0.13867712 -0.22686921
-0.089758202 0.13868161 -0.22682782
-0.088595003 0.13874599 -0.22680099
-0.088278756 0.138694 -0.22681075
-0.088089325 0.13867535 -0.22681367
-0.087883331 0.138686 -0.22681166
-0.087630667 0.13869701 -0.22684999
-0.087406337 0.13868484 -0.22687931
-0.087215006 0.13867734 -0.22692567
-0.087025143 0.13868628 -0.22694358
-0.086854339 0.13869233 -0.22692449
-0.086694002 0.13868549 -0.22696501
-0.086533003 0.13867751 -0.226969
-0.08258 0.13867849 -0.226971
-0.082210995 0.13869299 -0.22697435
-0.081983328 0.13868533 -0.22696
-0.081837997 0.13868313 -0.22691774
-0.081642002 0.13869816 -0.22692084
-0.081374004 0.138684 -0.226887
-0.081042327 0.13870199 -0.22682267
-0.090260327 0.13888299 -0.22695768
-0.090068668 0.13886116 -0.22691482
-0.089881502 0.13887887 -0.22686325
-0.089744002 0.138878 -0.22682182
-0.089631669 0.13887234 -0.22681965
-0.088295996 0.13885351 -0.22682424
-0.088059999 0.13879 -0.22680099
-0.087948672 0.13885634 -0.22681566
-0.087624997 0.138873 -0.226831
-0.087398753 0.13885999 -0.22689201
-0.0871986 0.1388742 -0.2269156
-0.08700867 0.13887657 -0.22695078
-0.086847447 0.13886811 -0.22692421
-0.086689003 0.13886151 -0.226932
-0.086547747 0.13887225 -0.22696
-0.086393997 0.138917 -0.226978
-0.086204 0.13890199 -0.226971
-0.082575999 0.138785 -0.226978
-0.082204506 0.13887 -0.22697
-0.081975996 0.138862 -0.2269645
-0.081822552 0.13888499 -0.22693613
-0.081635326 0.13887466 -0.22691233
-0.081366666 0.138861 -0.22689669
-0.081035495 0.138877 -0.22683001
-0.0904468 0.1390744 -0.2269458
-0.090270668 0.13904767 -0.22692747
-0.090096168 0.13903816 -0.22689784
-0.089921497 0.1390447 -0.22687101
-0.089737497 0.139054 -0.226815
-0.089626998 0.13901199 -0.226806
-0.088249661 0.13903333 -0.22680767
-0.087831497 0.139093 -0.22680351
-0.08761666 0.13904867 -0.22686601
-0.087393492 0.13903667 -0.2268595
-0.087210402 0.1390442 -0.22691698
-0.087001503 0.139053 -0.22695416
-0.086840831 0.13904484 -0.22691618
-0.086681254 0.13903825 -0.22694674
-0.086518668 0.13906567 -0.22695865
-0.086388998 0.13905834 -0.22696768
-0.086200997 0.138972 -0.226974
-0.082199998 0.13897499 -0.22697499
-0.081969 0.13903899 -0.22697
-0.081815496 0.1390615 -0.22694451
-0.0816295 0.139052 -0.22689085
-0.081362002 0.13900299 -0.22687399
-0.081359997 0.139072 -0.22686
-0.081028007 0.13905467 -0.22683734
-0.090629004 0.13924775 -0.22694799
-0.090451747 0.13923725 -0.22690049
-0.090267509 0.13922325 -0.226858
-0.090092249 0.13921499 -0.22683525
-0.089945197 0.13920179 -0.22683182
-0.088120997 0.139219 -0.22680201
-0.087609001 0.13922399 -0.22688401
-0.087375998 0.1392332 -0.22686961
-0.087193839 0.139241 -0.226907
-0.087024003 0.13923034 -0.226937
-0.086859338 0.13922267 -0.22693491
-0.086674668 0.13921417 -0.22693984
-0.086512752 0.13924199 -0.2269395
-0.086382501 0.13923401 -0.226961
-0.085973501 0.13921 -0.226978
-0.08219 0.139259 -0.226971
-0.081963003 0.13921601 -0.226946
-0.08180844 0.13923855 -0.2269439
-0.081621774 0.13922755 -0.22690977
-0.08135467 0.13921334 -0.22686367
-0.081021503 0.13923049 -0.22682899
-0.090752333 0.13947266 -0.22695966
-0.090624996 0.13942283 -0.22689216
-0.090449251 0.139378 -0.22684176
-0.090265498 0.13933051 -0.22680551
-0.087603666 0.139401 -0.226851
-0.087387793 0.139403 -0.22688082
-0.087187752 0.13941726 -0.226898
-0.087017499 0.1394065 -0.22693275
-0.086842552 0.13940988 -0.2269488
-0.086668663 0.13942565 -0.22689418
-0.086505167 0.13941817 -0.22695883
-0.086375333 0.13941099 -0.22696567
-0.086183995 0.139431 -0.2269685
-0.085795 0.139412 -0.2269755
-0.082185499 0.139365 -0.226969
-0.081955001 0.139392 -0.2269685
-0.081802167 0.13941483 -0.22693269
-0.081654251 0.1394065 -0.22691825
-0.0815375 0.13940001 -0.226878
-0.081346005 0.13942467 -0.22686601
-0.081018001 0.139337 -0.226809
-0.090758003 0.1396015 -0.2269375
-0.09061975 0.139599 -0.2268595
-0.087918997 0.139631 -0.226809
-0.087597996 0.13957649 -0.2268195
-0.087370165 0.13959983 -0.22689317
-0.087179996 0.13959317 -0.22691733
-0.087010659 0.13958268 -0.22692966
-0.086852811 0.13958181 -0.22693664
-0.086660251 0.13960175 -0.22692575
-0.086499244 0.13959375 -0.22694051
-0.086369999 0.139586 -0.226936
-0.086177669 0.13960667 -0.22694933
-0.085955001 0.139669 -0.226979
-0.085790999 0.13951699 -0.22697701
-0.081946999 0.13960367 -0.22697033
-0.081795335 0.13959156 -0.22693557
-0.081648171 0.13958299 -0.22690099
-0.081530668 0.13957633 -0.22687
-0.081339002 0.13960099 -0.2268685
-0.081009999 0.139549 -0.226808
-0.090785779 0.13979533 -0.22691202
-0.090630673 0.13972868 -0.22683966
-0.087916002 0.13970099 -0.226813
