# .PCD v0.7 - Point Cloud Data file format
VERSION 0.7
FIELDS x y z
SIZE 4 4 4
TYPE F F F
COUNT 1 1 1
WIDTH 1379
HEIGHT 1
VIEWPOINT 0 0 0 1 0 0 0
POINTS 1379
DATA ascii
0.26147521 -0.027728636 0.28910396
0.26175061 -0.027728831 0.28909808
0.26202527 -0.027728762 0.28909987
0.26233763 -0.027728237 0.28911471
0.26265272 -0.027728461 0.28910813
0.26296782 -0.027728818 0.28909752
0.2632823 -0.02772864 0.28910241
0.26355657 -0.027728247 0.28911352
0.26383123 -0.027728265 0.28911281
0.26414093 -0.027727153 0.28914464
0.26445055 -0.027725987 0.28917795
0.26480308 -0.027725531 0.28919089
0.26535463 -0.02772598 0.28917751
0.26563069 -0.027726175 0.28917164
0.26594466 -0.027725926 0.28917855
0.2662608 -0.027726337 0.28916645
0.26657689 -0.027726609 0.28915834
0.26685157 -0.027726604 0.28915831
0.26712641 -0.027726475 0.28916177
0.26743925 -0.027725969 0.28917611
0.26775649 -0.027726693 0.28915504
0.26806885 -0.027726203 0.28916889
0.26834422 -0.02772619 0.28916904
0.26850292 -0.027726289 0.28916606
0.24804701 -0.027317721 0.28890741
0.248125 -0.02731769 0.28890824
0.24855381 -0.027316961 0.28892884
0.24886586 -0.027317081 0.28892517
0.24917959 -0.027317716 0.28890657
0.24953103 -0.027317472 0.28891337
0.24972595 -0.027317204 0.28892097
0.25003713 -0.027316159 0.2889508
0.25035149 -0.027317176 0.28892118
0.25066513 -0.027317468 0.28891256
0.25097567 -0.027315989 0.28895488
0.25125021 -0.027316594 0.28893718
0.25152397 -0.027316825 0.2889303
0.2518363 -0.027316181 0.28894866
0.25214994 -0.027316522 0.28893852
0.25246167 -0.027315669 0.28896287
0.25277472 -0.027315717 0.28896126
0.25304878 -0.027315848 0.28895721
0.25332281 -0.027315911 0.28895515
0.25363567 -0.027315419 0.28896898
0.25394869 -0.027315436 0.28896838
0.25426117 -0.027315307 0.28897172
0.25457358 -0.027314974 0.28898108
0.25484791 -0.027314847 0.28898454
0.25512257 -0.027314825 0.28898498
0.25543451 -0.027314544 0.28899282
0.25574747 -0.027314331 0.28899872
0.25606042 -0.027314119 0.28900456
0.25637349 -0.027314302 0.28899896
0.25664631 -0.02731357 0.28901985
0.25692239 -0.027313806 0.28901285
0.25723591 -0.027313817 0.28901222
0.25754932 -0.027313467 0.28902209
0.25786117 -0.027312908 0.28903794
0.25817579 -0.027313214 0.28902882
0.25844952 -0.027312867 0.2890386
0.25872204 -0.027312266 0.28905571
0.25903717 -0.027312675 0.28904361
0.2593511 -0.027312342 0.28905296
0.25966242 -0.027311714 0.28907081
0.25997648 -0.027311832 0.28906718
0.26025212 -0.027312189 0.28905663
0.26052701 -0.027311869 0.2890656
0.26083887 -0.02731131 0.28908145
0.26115394 -0.027311359 0.28907984
0.26146632 -0.027311008 0.28908971
0.26178032 -0.027310949 0.28909108
0.26205584 -0.027310999 0.28908935
0.26233035 -0.027310885 0.28909251
0.26264489 -0.027310949 0.28909039
0.26295882 -0.027310684 0.28909776
0.26327226 -0.027310418 0.28910512
0.26355219 -0.027311737 0.28906682
0.26382881 -0.0273121 0.28905612
0.26413199 -0.027309343 0.28913537
0.26444212 -0.027308112 0.28917068
0.26483193 -0.027307399 0.28919089
0.26507175 -0.027308395 0.28916195
0.26534295 -0.027307367 0.28919137
0.26561797 -0.027307328 0.28919232
0.26593733 -0.027308516 0.28915778
0.26625454 -0.027308993 0.28914368
0.26656964 -0.027309282 0.2891351
0.26688251 -0.027308829 0.28914794
0.26715755 -0.027308881 0.28914624
0.26743194 -0.027308503 0.28915685
0.26774916 -0.02730919 0.28913677
0.26806313 -0.027308995 0.28914216
0.26837286 -0.027308038 0.28916949
0.24823254 -0.026900478 0.28890276
0.24854451 -0.026900301 0.28890759
0.24873957 -0.026900411 0.28890419
0.24909151 -0.026900165 0.28891098
0.24948251 -0.026900075 0.28891319
0.24975552 -0.026900025 0.28891447
0.24999018 -0.026899999 0.28891501
0.25038147 -0.02689977 0.28892121
0.25065443 -0.026899517 0.28892827
0.2509675 -0.026899669 0.28892365
0.25128043 -0.026899386 0.28893152
0.25155404 -0.026899159 0.28893778
0.25182748 -0.026899442 0.2889294
0.2521404 -0.026899194 0.28893626
0.25245231 -0.026898757 0.2889486
0.25276646 -0.026899219 0.28893501
0.25307834 -0.026898816 0.28894633
0.25335112 -0.02689795 0.2889711
0.25362632 -0.026898578 0.28895274
0.25393876 -0.026898345 0.28895909
0.25425053 -0.026897509 0.28898293
0.25456518 -0.026897937 0.28897032
0.25487819 -0.026897881 0.28897169
0.25515255 -0.026897868 0.28897181
0.25542504 -0.026897294 0.28898805
0.25573805 -0.026897186 0.28899091
0.25605094 -0.026896851 0.28900027
0.2563639 -0.026896587 0.28900766
0.25667799 -0.026896806 0.28900105
0.25695071 -0.02689594 0.28902578
0.25722638 -0.026896378 0.28901291
0.2575393 -0.026896097 0.28902078
0.25785279 -0.026895916 0.28902566
0.25816524 -0.026895635 0.28903353
0.25847811 -0.026895214 0.28904536
0.25875407 -0.026895583 0.28903452
0.25902772 -0.026895443 0.2890383
0.25934064 -0.026895072 0.28904864
0.25965357 -0.026894808 0.289056
0.25997025 -0.026895357 0.28903991
0.2602821 -0.026894799 0.28905576
0.26055437 -0.026894001 0.28907853
0.260831 -0.026894368 0.28906769
0.26114446 -0.026894154 0.28907353
0.26145899 -0.026894182 0.28907239
0.26177192 -0.026893899 0.28908026
0.26204571 -0.026893698 0.28908589
0.26232091 -0.026893713 0.28908518
0.26263437 -0.0268935 0.28909105
0.26294783 -0.026893288 0.28909689
0.26326612 -0.026894234 0.28906935
0.26354274 -0.026894502 0.28906134
0.26381448 -0.026893597 0.28908724
0.26412091 -0.026891671 0.28914252
0.26443481 -0.026891388 0.28915039
0.26474777 -0.02689114 0.28915724
0.26506013 -0.02689058 0.28917307
0.26537353 -0.026890175 0.28918445
0.26564968 -0.0268906 0.28917193
0.26592898 -0.026891563 0.28914398
0.26624453 -0.026891695 0.28913984
0.26655588 -0.026891103 0.28915671
0.26687306 -0.026891634 0.28914112
0.26714808 -0.026891591 0.28914207
0.26742202 -0.026891291 0.28915051
0.26773381 -0.026890662 0.28916836
0.26805103 -0.026891228 0.28915176
0.26836652 -0.026891168 0.28915316
0.2414715 -0.026483051 0.2889055
0.24166539 -0.026482694 0.28891557
0.24197748 -0.026482863 0.28891042
0.24225076 -0.026482666 0.28891587
0.24252364 -0.026481688 0.28894377
0.24283567 -0.026481703 0.28894314
0.24314809 -0.026481347 0.28895298
0.24345985 -0.026480565 0.28897533
0.24375933 -0.026482031 0.28893271
0.24400634 -0.02648199 0.28893372
0.24431807 -0.026481118 0.28895855
0.24463019 -0.026481355 0.28895143
0.24494237 -0.026481887 0.28893578
0.24525437 -0.026481779 0.28893864
0.2456056 -0.026482508 0.28891727
0.24589141 -0.026481837 0.28893635
0.24615122 -0.026481224 0.28895378
0.24650362 -0.026482362 0.28892058
0.24669984 -0.026483011 0.28890169
0.24705066 -0.026482351 0.28892046
0.24736267 -0.02648236 0.28891981
0.24771357 -0.026481884 0.28893325
0.24790961 -0.026482001 0.2889297
0.24830085 -0.026482709 0.2889089
0.24853478 -0.026482424 0.28891692
0.24884661 -0.026481777 0.28893524
0.24915846 -0.026481234 0.28895059
0.24947055 -0.026481487 0.28894296
0.24974577 -0.0264821 0.28892508
0.25001872 -0.026481891 0.28893083
0.25033066 -0.026481574 0.28893971
0.25064358 -0.026481327 0.28894657
0.25095657 -0.026481234 0.28894892
0.25126907 -0.026481194 0.28894979
0.25158274 -0.026481567 0.28893867
0.25185406 -0.026480483 0.28896973
0.25212955 -0.026480913 0.28895703
0.25244033 -0.026480129 0.28897935
0.25275338 -0.026480157 0.28897822
0.25306755 -0.026480706 0.28896213
0.25338048 -0.026480407 0.28897047
0.25365338 -0.026480028 0.28898105
0.25392845 -0.026480218 0.28897536
0.2542409 -0.026480021 0.28898072
0.25455391 -0.026479967 0.28898206
0.25486624 -0.026479354 0.28899944
0.25517988 -0.02647966 0.28899032
0.25545332 -0.026479369 0.2889984
0.25572675 -0.026479108 0.2890057
0.25603911 -0.026478654 0.28901854
0.25635263 -0.026478631 0.28901893
0.25666666 -0.026478659 0.28901777
0.25697851 -0.026478168 0.28903162
0.2572552 -0.026478663 0.28901711
0.25752807 -0.026478153 0.28903154
0.25784156 -0.026478097 0.28903291
0.25815508 -0.026478004 0.28903526
0.25846797 -0.026477721 0.28904313
0.2587809 -0.026477262 0.28905597
0.25905493 -0.026477376 0.28905246
0.25932997 -0.026477441 0.2890504
0.2596423 -0.026476881 0.28906623
0.25995737 -0.026477011 0.28906211
0.26027137 -0.026476972 0.28906301
0.26054552 -0.026476795 0.28906778
0.26082146 -0.02647713 0.28905791
0.26113319 -0.026476258 0.28908274
0.26144671 -0.026476217 0.28908363
0.26176131 -0.026476298 0.28908101
0.26207471 -0.026476 0.28908938
0.26234713 -0.026475141 0.28911379
0.26262254 -0.026475377 0.28910676
0.26293766 -0.026475649 0.28909865
0.26325214 -0.026475519 0.28910202
0.26356661 -0.026475444 0.28910393
0.26388285 -0.02647608 0.28908533
0.26415178 -0.02647464 0.28912652
0.26442361 -0.026473608 0.28915608
0.26473328 -0.026472494 0.28918791
0.26516375 -0.026472267 0.28919402
0.2653667 -0.026473589 0.28915572
0.26568061 -0.026473306 0.28916362
0.26595265 -0.02647285 0.28917649
0.26623178 -0.026473671 0.28915253
0.26654628 -0.026473649 0.28915292
0.26685971 -0.026473418 0.28915927
0.26717418 -0.026473204 0.28916514
0.26744816 -0.026473051 0.28916928
0.26772529 -0.026473412 0.28915858
0.26804036 -0.026473545 0.28915447
0.26835483 -0.026473435 0.28915736
0.24676806 -0.026065391 0.28890377
0.24758708 -0.026065264 0.28890657
0.2479775 -0.026064862 0.28891778
0.2482513 -0.026064763 0.2889204
0.24848604 -0.026064968 0.28891423
0.24883695 -0.026064565 0.2889255
0.24916349 -0.026065201 0.28890687
0.2494631 -0.026064899 0.28891525
0.24977498 -0.026064426 0.2889286
0.25004888 -0.026065119 0.28890839
0.25032157 -0.026064586 0.28892344
0.25063449 -0.026064301 0.28893131
0.25094682 -0.02606374 0.28894717
0.25125939 -0.026063822 0.28894454
0.251573 -0.026064094 0.28893641
0.2518459 -0.02606374 0.28894636
0.25211927 -0.026063282 0.28895926
0.25243306 -0.026064159 0.28893366
0.25274599 -0.026063789 0.28894401
0.25305784 -0.026063316 0.28895736
0.25336668 -0.026061144 0.28901964
0.25364289 -0.026062198 0.28898895
0.25391886 -0.026063172 0.28896064
0.25423232 -0.026062958 0.28896648
0.25454304 -0.026061984 0.28899428
0.25485712 -0.026062202 0.28898767
0.25516611 -0.026060481 0.28903693
0.25548309 -0.02606193 0.28899488
0.25575694 -0.026061939 0.28899431
0.25603056 -0.02606174 0.28899977
0.25634184 -0.026061006 0.2890206
0.25665641 -0.026061105 0.2890175
0.25697052 -0.026061358 0.28900987
0.25724339 -0.026060989 0.28902027
0.25751781 -0.026060598 0.28903121
0.25783244 -0.02606092 0.28902161
0.25814536 -0.026060604 0.28903049
0.25845888 -0.026060682 0.28902784
0.25877118 -0.026059898 0.28905016
0.25904593 -0.026060091 0.28904429
0.2593208 -0.026060143 0.28904259
0.25963369 -0.026059754 0.28905344
0.25994653 -0.026059194 0.28906929
0.26026168 -0.026059518 0.2890597
0.26057458 -0.026059199 0.28906855
0.26084766 -0.026058828 0.28907898
0.26112404 -0.026058992 0.28907394
0.26143759 -0.026059091 0.28907084
0.261751 -0.026058635 0.28908369
0.26206389 -0.026058298 0.28909302
0.26237851 -0.026058584 0.28908443
0.26265576 -0.026058853 0.28907642
0.26292792 -0.026058119 0.28909731
0.26324087 -0.026057836 0.28910518
0.26355752 -0.026058348 0.2890901
0.26387095 -0.026058082 0.28909746
0.26417628 -0.026055826 0.28916222
0.26445022 -0.026055582 0.28916898
0.2648021 -0.026055001 0.2891854
0.26504183 -0.026055787 0.28916252
0.26527417 -0.026055153 0.28918049
0.26570758 -0.026055394 0.28917313
0.26594645 -0.026055967 0.28915638
0.2662231 -0.026056398 0.28914371
0.26653868 -0.026056632 0.28913659
0.26684844 -0.026055692 0.28916341
0.26716453 -0.026055928 0.28915632
0.26748013 -0.026056163 0.28914922
0.26775745 -0.026056617 0.28913584
0.26802957 -0.026055837 0.28915811
0.268343 -0.026055638 0.28916347
0.24703124 -0.025652111 0.28890458
0.24765521 -0.025651876 0.28891078
0.24792826 -0.025651976 0.28890756
0.24828069 -0.025651706 0.28891498
0.24855417 -0.025651537 0.2889196
0.24886607 -0.025651133 0.28893095
0.24913971 -0.025651567 0.28891823
0.24945161 -0.025651108 0.28893107
0.24976411 -0.025651086 0.28893143
0.25007713 -0.025651079 0.28893128
0.25035003 -0.02565062 0.28894421
0.25062296 -0.025650444 0.28894913
0.2509371 -0.025650835 0.28893751
0.25124896 -0.025650203 0.28895536
0.25156307 -0.02565063 0.28894272
0.25187391 -0.025650037 0.28895956
0.25214639 -0.025649337 0.28897947
0.252422 -0.025650144 0.28895596
0.25273395 -0.025649825 0.28896478
0.25304693 -0.0256497 0.28896815
0.25336048 -0.025649918 0.28896153
0.25367343 -0.025649704 0.28896737
0.2539472 -0.025649436 0.28897482
0.25422025 -0.025649013 0.28898674
0.25453329 -0.025648989 0.28898713
0.25484622 -0.025648637 0.28899696
0.25515863 -0.025648408 0.28900331
0.25547221 -0.025648573 0.28899819
0.25574791 -0.025649095 0.28898284
0.25602013 -0.025648143 0.28901008
0.2563321 -0.025647981 0.2890144
0.25664613 -0.025647992 0.28901377
0.25695953 -0.025647622 0.28902414
0.25727201 -0.025647441 0.289029
0.25754613 -0.025647277 0.28903344
0.25782204 -0.025647443 0.28902841
0.25813451 -0.025647245 0.28903377
0.25844738 -0.025646895 0.28904361
0.25876138 -0.025646783 0.2890465
0.25907326 -0.025646362 0.28905833
0.2593472 -0.025646038 0.28906742
0.25962281 -0.025646295 0.28905973
0.25993735 -0.025646428 0.28905562
0.26024973 -0.025645919 0.28906995
0.26056316 -0.02564567 0.28907681
0.26087719 -0.025645645 0.28907719
0.26115254 -0.025645649 0.28907681
0.26142505 -0.025645111 0.28909206
0.26173908 -0.02564507 0.28909296
0.26205254 -0.025644924 0.2890968
0.26236758 -0.025644971 0.28909519
0.26268208 -0.025644928 0.28909606
0.26295856 -0.025645355 0.28908357
0.26323318 -0.025645085 0.28909099
0.263551 -0.025646083 0.2890619
0.26385683 -0.025643844 0.28912616
0.26416808 -0.025643006 0.28915
0.26447946 -0.025642483 0.28916484
0.26475441 -0.025642335 0.28916875
0.26494825 -0.025641669 0.28918785
0.26565897 -0.025642367 0.28916699
0.26597458 -0.025642656 0.2891584
0.26624927 -0.025642583 0.28916016
0.26652515 -0.025642604 0.2891593
0.26684076 -0.025642978 0.28914821
0.26715633 -0.025643125 0.28914356
0.26746607 -0.025642153 0.2891714
0.26778001 -0.025641954 0.28917676
0.26805663 -0.025642311 0.28916624
0.26833376 -0.025642594 0.28915772
0.24503066 -0.025253467 0.28890923
0.2463588 -0.025253627 0.28890347
0.24729483 -0.025253529 0.28890553
0.24807672 -0.025253009 0.28891993
0.24823149 -0.025253272 0.28891227
0.24854487 -0.0252534 0.2889083
0.24881786 -0.025253287 0.28891137
0.24912971 -0.025252763 0.28892621
0.24944153 -0.025252152 0.28894356
0.24975578 -0.025252823 0.28892395
0.25006652 -0.025251988 0.28894776
0.25037974 -0.025252622 0.28892913
0.25065267 -0.025252232 0.28894022
0.25092712 -0.025252059 0.28894502
0.25123963 -0.025252072 0.28894436
0.25155368 -0.025252171 0.28894123
0.25186339 -0.025251128 0.28897107
0.25217748 -0.025251418 0.28896242
0.25245121 -0.025251469 0.28896087
0.25272447 -0.025251236 0.28896728
0.25303686 -0.025250763 0.28898063
0.25334996 -0.025250984 0.28897399
0.25366342 -0.025250841 0.28897786
0.25397697 -0.025250958 0.28897426
0.25425044 -0.025250768 0.2889795
0.25452334 -0.025250323 0.28899211
0.25483561 -0.025249612 0.28901243
0.25514928 -0.025250126 0.28899729
0.25546274 -0.025249809 0.28900617
0.25577459 -0.025249321 0.28902
0.25605026 -0.025249885 0.28900346
0.25632209 -0.025249187 0.2890234
0.25663504 -0.02524896 0.28902975
0.25694907 -0.025248989 0.28902861
0.25726205 -0.025248844 0.28903246
0.25757653 -0.025248773 0.28903434
0.25784925 -0.025248334 0.28904679
0.25812393 -0.02524831 0.28904721
0.25843692 -0.025248237 0.28904909
0.25874981 -0.025247782 0.28906193
0.25906387 -0.025247933 0.28905731
0.25937843 -0.025248051 0.28905368
0.25965187 -0.025247702 0.28906345
0.25992629 -0.025247451 0.28907055
0.26024032 -0.025247497 0.28906894
0.26055378 -0.025247321 0.2890738
0.26086664 -0.025246777 0.28908914
0.26118067 -0.025246775 0.28908902
0.2614564 -0.025246957 0.28908348
0.26172963 -0.025246538 0.2890954
0.26204312 -0.025246413 0.2890988
0.26235709 -0.025246287 0.28910214
0.26267269 -0.025246542 0.28909454
0.26294705 -0.025246615 0.28909215
0.26322058 -0.025246045 0.2891084
0.26353782 -0.025246853 0.28908482
0.26385176 -0.02524652 0.28909421
0.26415822 -0.025244698 0.28914648
0.2644684 -0.025243636 0.28917676
0.26474172 -0.025242975 0.28919569
0.26501784 -0.025243316 0.28918567
0.26533511 -0.02524407 0.28916359
0.26564798 -0.025243599 0.28917694
0.26596308 -0.02524389 0.2891683
0.26628026 -0.02524442 0.28915274
0.26655737 -0.025244733 0.28914356
0.26683241 -0.02524472 0.28914368
0.26714319 -0.02524399 0.28916448
0.26745987 -0.025244433 0.2891514
0.2677733 -0.02524424 0.28915679
0.26804721 -0.025243858 0.28916755
0.26832059 -0.025243394 0.28918064
0.24564536 -0.024855137 0.28890195
0.24787045 -0.024854954 0.28890583
0.24826196 -0.024854902 0.28890702
0.24857441 -0.024854675 0.2889134
0.24884741 -0.024854638 0.28891429
0.24915929 -0.024854213 0.28892633
0.24943346 -0.024854667 0.2889131
0.24974588 -0.024854353 0.28892195
0.25005651 -0.024853121 0.28895727
0.25037035 -0.024854142 0.28892767
0.25064465 -0.024853906 0.28893426
0.25091842 -0.024854254 0.28892404
0.2512303 -0.024853854 0.28893536
0.25154322 -0.02485347 0.28894624
0.25185627 -0.024853608 0.28894207
0.25216991 -0.024853934 0.28893244
0.2524811 -0.024852876 0.28896278
0.25275525 -0.024853259 0.28895158
0.25302809 -0.02485273 0.28896666
0.25334004 -0.024852399 0.28897598
0.25365466 -0.024852812 0.28896388
0.25396761 -0.024852604 0.28896976
0.2542806 -0.024852481 0.28897309
0.25455284 -0.024851605 0.28899816
0.2548286 -0.024852367 0.28897598
0.25513995 -0.024851864 0.28899032
0.25545278 -0.024851201 0.28900915
0.25576806 -0.024851996 0.28898606
0.25607991 -0.024851527 0.28899938
0.25635281 -0.024851149 0.28901017
0.25662833 -0.024851242 0.28900728
0.25694245 -0.02485143 0.28900164
0.25725427 -0.024850788 0.28901997
0.25756612 -0.024850247 0.28903532
0.25788119 -0.024850506 0.28902769
0.25815472 -0.024850368 0.28903148
0.25842753 -0.024849787 0.28904805
0.25874212 -0.024850011 0.28904146
0.25905615 -0.02484999 0.28904182
0.25936961 -0.024849884 0.28904468
0.25964248 -0.024849346 0.28906012
0.25991911 -0.024849687 0.28905007
0.2602331 -0.024849664 0.28905046
0.26054549 -0.024849162 0.28906476
0.26085943 -0.024849039 0.28906816
0.26117343 -0.024848949 0.28907052
0.26144922 -0.024849303 0.28906015
0.26172298 -0.024848992 0.28906894
0.26203534 -0.02484847 0.28908378
0.26234928 -0.024848225 0.28909063
0.26266333 -0.024848275 0.28908899
0.2629762 -0.024847806 0.28910238
0.26325226 -0.024847969 0.28909749
0.2635279 -0.024848264 0.28908879
0.26384127 -0.024847846 0.28910065
0.2641477 -0.024845922 0.2891559
0.26446006 -0.024845367 0.28917176
0.26477349 -0.02484514 0.2891781
0.26504964 -0.024845572 0.28916541
0.26532516 -0.024845494 0.28916752
0.26563916 -0.024845509 0.28916693
0.26595581 -0.024845906 0.2891553
0.26627249 -0.024846455 0.28913921
0.26658428 -0.024845708 0.28916055
0.2668592 -0.024845878 0.28915551
0.26713699 -0.024846235 0.28914499
0.26745152 -0.024846319 0.28914237
0.26776496 -0.02484604 0.28915024
0.26807734 -0.024845604 0.28916258
0.26835394 -0.024845866 0.28915489
0.26851201 -0.024845988 0.28915125
0.24438761 -0.024456704 0.28890458
0.24688575 -0.024456637 0.28890538
0.24708073 -0.024456562 0.28890747
0.24735375 -0.024456546 0.28890774
0.24762678 -0.024456592 0.28890634
0.24829108 -0.024456322 0.28891376
0.24856472 -0.024456175 0.28891787
0.24887662 -0.024455797 0.28892872
0.24914961 -0.024455667 0.28893232
0.24942325 -0.024456121 0.28891909
0.24973504 -0.024455395 0.28893992
0.25004697 -0.024455046 0.28894976
0.25036061 -0.024455532 0.28893566
0.25067306 -0.024455221 0.28894448
0.25094619 -0.024455108 0.28894758
0.25122046 -0.024454819 0.28895587
0.25153357 -0.024455059 0.28894871
0.25184494 -0.02445461 0.28896153
0.25215846 -0.024454679 0.28895944
0.25247031 -0.02445416 0.28897426
0.25278395 -0.024454558 0.2889626
0.25305736 -0.024454221 0.28897223
0.25333154 -0.02445464 0.28896001
0.25364441 -0.024454206 0.28897238
0.25395632 -0.024453808 0.2889837
0.25426978 -0.02445367 0.28898758
0.25454247 -0.024453139 0.28900281
0.25481784 -0.024453685 0.28898695
0.2551308 -0.024453564 0.28899029
0.25544378 -0.024453389 0.28899515
0.25575614 -0.024452973 0.28900701
0.25606796 -0.024452297 0.28902635
0.25638327 -0.024453215 0.28899974
0.25665718 -0.02445285 0.28901017
0.25692999 -0.024452137 0.28903061
0.25724298 -0.024452049 0.28903294
0.25755754 -0.024452224 0.28902781
0.25786942 -0.024451792 0.28904015
0.25814354 -0.024451511 0.28904811
0.25841898 -0.024451889 0.28903705
0.25873297 -0.024451751 0.28904092
0.25904375 -0.024450954 0.28906375
0.25935835 -0.024451213 0.28905612
0.25967342 -0.02445142 0.28904998
0.25994679 -0.024450928 0.28906408
0.26021963 -0.024450343 0.28908086
0.26053473 -0.024450652 0.28907174
0.2608493 -0.024450757 0.28906864
0.26116163 -0.024450116 0.28908694
0.26147452 -0.024449807 0.28909579
0.26174846 -0.02444949 0.28910473
0.26202625 -0.024450336 0.28908023
0.26233754 -0.024449624 0.28910056
0.2626504 -0.024449123 0.28911492
0.26296824 -0.024450108 0.28908634
0.26328114 -0.02444971 0.2890977
0.26355669 -0.024449876 0.28909281
0.2638295 -0.02444917 0.28911307
0.26413965 -0.024448009 0.28914636
0.26445046 -0.02444735 0.2891652
0.26476282 -0.024446797 0.28918105
0.26511505 -0.024446523 0.28918883
0.26543194 -0.024447022 0.28917423
0.26563165 -0.024447691 0.28915489
0.26594621 -0.02444776 0.28915277
0.26625752 -0.024447188 0.28916907
0.26657364 -0.024447447 0.2891615
0.26685023 -0.024447789 0.28915146
0.26712632 -0.024447942 0.2891469
0.26743928 -0.024447752 0.28915229
0.26775485 -0.024447871 0.28914869
0.26806721 -0.024447335 0.28916401
0.26834431 -0.024447719 0.28915283
0.26850018 -0.024447219 0.28916717
0.24531393 -0.024058493 0.28890064
0.24621072 -0.024057664 0.28892425
0.2463668 -0.024057848 0.28891891
0.24671923 -0.024058096 0.2889117
0.2471879 -0.024057986 0.28891474
0.24738297 -0.024058189 0.28890884
0.24765591 -0.024057969 0.28891507
0.24792884 -0.02405767 0.28892368
0.2482419 -0.024057811 0.28891954
0.24855502 -0.024058141 0.28890991
0.24886681 -0.024057398 0.28893122
0.24917892 -0.024057677 0.28892308
0.24945343 -0.024058163 0.28890905
0.24972588 -0.024057452 0.28892946
0.25003827 -0.024057057 0.28894079
0.25035074 -0.02405685 0.28894663
0.25066268 -0.024056645 0.28895247
0.25097463 -0.024056369 0.28896034
0.2512475 -0.024055839 0.28897557
0.2515226 -0.024056247 0.28896371
0.25183505 -0.024056075 0.28896856
0.25214875 -0.024056511 0.28895593
0.2524606 -0.024055993 0.28897077
0.25277248 -0.024055529 0.28898412
0.25304687 -0.02405566 0.28898022
0.25332111 -0.024055943 0.28897199
0.25363356 -0.024055684 0.28897935
0.25394651 -0.024055498 0.28898469
0.2542595 -0.024055324 0.28898954
0.25457144 -0.024055034 0.28899789
0.25484529 -0.024054557 0.28901148
0.25511819 -0.024054199 0.28902173
0.25543284 -0.024054669 0.28900814
0.25574464 -0.024053911 0.28902996
0.25605828 -0.024054257 0.28901982
0.25637066 -0.02405386 0.28903118
0.2566452 -0.024053989 0.28902745
0.25692025 -0.024054088 0.28902456
0.25723431 -0.02405414 0.28902292
0.25754622 -0.024053726 0.28903478
0.25785905 -0.024053209 0.28904963
0.25817207 -0.024053194 0.28904998
0.25844705 -0.024053141 0.28905144
0.25871998 -0.024052793 0.28906137
0.25903344 -0.024052553 0.28906822
0.25934747 -0.024052642 0.2890656
0.25966197 -0.02405259 0.28906697
0.25997329 -0.024051953 0.2890853
0.2602489 -0.024052201 0.28907809
0.26052335 -0.024052037 0.28908271
0.26083785 -0.024051987 0.28908408
0.26115024 -0.024051625 0.28909442
0.26146427 -0.024051609 0.28909478
0.26177883 -0.024051696 0.28909212
0.26205269 -0.024051212 0.2891061
0.26232618 -0.024051039 0.28911102
0.26264066 -0.024050917 0.28911436
0.26295522 -0.024051145 0.28910774
0.26326922 -0.024051094 0.28910914
0.26354912 -0.024052283 0.28907481
0.26382139 -0.024051541 0.28909606
0.26412886 -0.024049709 0.28914884
0.26443851 -0.024048552 0.28918213
0.26463386 -0.02404801 0.28919771
0.26510677 -0.024048731 0.28917679
0.26534417 -0.024048939 0.28917071
0.26560333 -0.024048286 0.28918946
0.26593274 -0.024048952 0.28917018
0.26624826 -0.024048988 0.28916907
0.26656282 -0.024049077 0.28916645
0.26687628 -0.024048939 0.2891703
0.26715231 -0.024049036 0.28916743
0.26742572 -0.024048641 0.2891787
0.26774132 -0.024048904 0.28917107
0.26805475 -0.024048593 0.28917992
0.26836979 -0.02404863 0.28917882
0.24553789 -0.023659348 0.28891516
0.24651405 -0.023659676 0.28890562
0.24674802 -0.023659486 0.28891116
0.24706042 -0.02365916 0.28892046
0.24733239 -0.023658447 0.28894106
0.24768507 -0.023659481 0.28891119
0.24791893 -0.02365903 0.28892422
0.24821799 -0.023659131 0.28892124
0.24854438 -0.02365876 0.28893191
0.24885644 -0.023658834 0.28892973
0.24916892 -0.023658734 0.28893256
0.24948086 -0.02365846 0.28894043
0.24975388 -0.023658464 0.28894034
0.25002673 -0.023657946 0.28895527
0.25033969 -0.023657776 0.28896016
0.25065213 -0.023657572 0.28896597
0.2509653 -0.023658026 0.28895283
0.25127769 -0.023657581 0.28896567
0.25155103 -0.023657536 0.28896695
0.25182348 -0.02365684 0.28898704
0.25213715 -0.023657344 0.28897241
0.25244963 -0.023657089 0.28897974
0.25276268 -0.023657233 0.2889756
0.25307506 -0.023656819 0.28898743
0.25334722 -0.023655685 0.28902018
0.25362134 -0.023656061 0.2890093
0.25393778 -0.023657432 0.2889697
0.25424731 -0.023655793 0.28901702
0.25456035 -0.023655882 0.28901437
0.25487447 -0.023656147 0.28900671
0.25514877 -0.023656094 0.28900817
0.25542185 -0.023655681 0.28902009
0.25573316 -0.023655044 0.28903842
0.25604784 -0.023655688 0.28901982
0.25635958 -0.023654707 0.28904814
0.25667319 -0.023654934 0.28904152
0.25694859 -0.023655122 0.28903612
0.2572217 -0.023654971 0.28904039
0.25753516 -0.023654647 0.28904974
0.25784811 -0.023654461 0.28905508
0.25816098 -0.023653995 0.28906843
0.25847399 -0.023653999 0.28906828
0.25874904 -0.02365412 0.28906474
0.25902358 -0.023654211 0.2890622
0.25933599 -0.023653727 0.28907603
0.2596505 -0.023653749 0.28907543
0.25996399 -0.023653701 0.28907675
0.26027796 -0.023653496 0.28908265
0.26055077 -0.023652961 0.28909805
0.26082692 -0.023653187 0.28909153
0.2611399 -0.023653174 0.28909186
0.2614533 -0.023652762 0.28910372
0.26176625 -0.023652576 0.28910908
0.2620818 -0.023652753 0.28910398
0.26235688 -0.023652861 0.28910077
0.26262975 -0.023652375 0.28911483
0.26294208 -0.023651753 0.28913268
0.2632561 -0.02365181 0.28913105
0.26353994 -0.023653992 0.28906813
0.26384845 -0.023652475 0.28911179
0.26415417 -0.023650294 0.28917465
0.26438805 -0.023649745 0.2891905
0.26478216 -0.023650059 0.28918138
0.26505607 -0.023649819 0.28918833
0.26544803 -0.023649566 0.28919551
0.26564476 -0.02364976 0.28918996
0.26592335 -0.023650516 0.28916812
0.26623896 -0.023650795 0.28916001
0.26655024 -0.023650039 0.28918186
0.26686743 -0.023650577 0.28916627
0.26718032 -0.023650199 0.28917712
0.26745644 -0.023650443 0.28917009
0.26773146 -0.023650497 0.28916851
0.26804271 -0.023649668 0.28919232
0.26839837 -0.023650134 0.28917882
0.24311477 -0.023268886 0.28890339
0.2438187 -0.023268597 0.28891161
0.24405278 -0.023268811 0.28890541
0.24432567 -0.023268327 0.28891936
0.24465084 -0.023268817 0.2889052
0.24494979 -0.023268614 0.28891107
0.24526164 -0.023268044 0.28892744
0.24557371 -0.023268223 0.28892225
0.24584688 -0.023268759 0.28890669
0.24604285 -0.023268584 0.28891179
0.24643165 -0.023267882 0.28893197
0.24674469 -0.023267955 0.28892982
0.24705666 -0.023267856 0.28893268
0.24736966 -0.023267757 0.28893554
0.24768157 -0.023267429 0.28894484
0.24795546 -0.023268061 0.28892663
0.2482276 -0.023267416 0.28894523
0.2485407 -0.023267645 0.28893858
0.24885255 -0.023267146 0.28895295
0.24916548 -0.023266837 0.28896177
0.24947762 -0.023267206 0.28895116
0.24975054 -0.02326688 0.28896055
0.25002339 -0.023266379 0.28897497
0.25033647 -0.023266502 0.28897133
0.25064898 -0.023266559 0.2889697
0.25096139 -0.023266234 0.28897902
0.25127342 -0.023266204 0.28897989
0.25154862 -0.023266805 0.28896251
0.2518208 -0.023265719 0.28899375
0.25213277 -0.02326555 0.2889986
0.25244567 -0.023265207 0.28900844
0.25275877 -0.023265453 0.28900129
0.25307006 -0.023264678 0.28902364
0.25334418 -0.023265088 0.28901175
0.25361925 -0.023265254 0.28900704
0.25393111 -0.023264632 0.28902489
0.2542446 -0.023264635 0.28902474
0.2545571 -0.023264639 0.28902459
0.25486952 -0.023264296 0.28903446
0.25514406 -0.023264343 0.28903306
0.25541914 -0.023264524 0.28902787
0.25573048 -0.023264026 0.28904217
0.25604236 -0.023263562 0.28905553
0.25635475 -0.023263047 0.28907037
0.25666887 -0.023263482 0.28905776
0.2569828 -0.02326319 0.28906611
0.25725582 -0.023263112 0.28906837
0.25753078 -0.023263004 0.2890715
0.25784326 -0.023262763 0.28907833
0.25815612 -0.023262404 0.28908867
0.25847074 -0.023262685 0.28908056
0.25874579 -0.023262853 0.28907567
0.25901869 -0.023262341 0.28909042
0.25933158 -0.02326205 0.2890988
0.25964564 -0.023262139 0.28909618
0.25995857 -0.02326183 0.289105
0.26027143 -0.023261331 0.28911936
0.26054689 -0.023261622 0.28911099
0.26082152 -0.02326154 0.28911325
0.26113331 -0.023260817 0.28913409
0.26144737 -0.023260975 0.28912947
0.26176137 -0.023260843 0.28913334
0.2620759 -0.023260949 0.28913021
0.26234862 -0.023260413 0.28914562
0.26262382 -0.023260519 0.28914261
0.26293892 -0.023260675 0.28913799
0.26325178 -0.023260282 0.28914931
0.26356682 -0.02326037 0.28914669
0.26387814 -0.023259649 0.28916752
0.26411092 -0.023259023 0.28918552
0.26544696 -0.023258869 0.28918988
0.26591793 -0.023258623 0.28919691
0.2662724 -0.023259031 0.28918505
0.26653299 -0.023258703 0.28919449
0.26686317 -0.023259254 0.28917858
0.2670992 -0.023259323 0.28917658
0.26737097 -0.023258526 0.2891995
0.26772499 -0.023258567 0.28919828
0.26835668 -0.023259038 0.28918457
0.24260786 -0.022879485 0.28890842
0.24272294 -0.022879718 0.28890163
0.24315289 -0.022879485 0.28890824
0.24358298 -0.022879669 0.28890288
0.2437779 -0.022879355 0.28891197
0.24405091 -0.022879355 0.28891191
0.24432394 -0.022879371 0.28891134
0.24463595 -0.022879429 0.28890967
0.24494787 -0.022879032 0.28892103
0.24525991 -0.02287914 0.2889179
0.24555904 -0.022879502 0.28890744
0.24584478 -0.022878608 0.28893316
0.24611771 -0.022878312 0.28894156
0.24643023 -0.022878367 0.28893995
0.24674219 -0.022878127 0.28894678
0.24705464 -0.022877924 0.28895262
0.24736777 -0.022878291 0.28894198
0.24767894 -0.022877185 0.28897381
0.24795257 -0.022877509 0.28896442
0.24822558 -0.022877499 0.28896469
0.24853928 -0.022878107 0.28894708
0.24884957 -0.022877367 0.28896838
0.24916366 -0.022877561 0.28896278
0.24947442 -0.022876766 0.28898561
0.24974705 -0.022876622 0.28898969
0.25002217 -0.02287746 0.28896546
0.25033456 -0.022876993 0.28897884
0.25064757 -0.022877034 0.28897771
0.25095946 -0.022876637 0.28898904
0.2512714 -0.022876399 0.28899589
0.25154504 -0.02287622 0.28900099
0.25181895 -0.022876346 0.28899726
0.25213131 -0.022875916 0.28900963
0.25244379 -0.022875816 0.28901246
0.25275734 -0.022875853 0.28901133
0.25306869 -0.022875356 0.28902566
0.2533429 -0.022875449 0.28902295
0.25361672 -0.022875268 0.28902805
0.25392982 -0.022875616 0.28901792
0.25424215 -0.022874981 0.28903627
0.254554 -0.022874428 0.2890521
0.25486708 -0.02287464 0.28904599
0.25518107 -0.02287459 0.28904733
0.25545475 -0.022874488 0.28905028
0.25572744 -0.022873968 0.28906521
0.25604159 -0.022874316 0.28905505
0.25635341 -0.022873729 0.28907192
0.25666633 -0.022873456 0.28907979
0.25697926 -0.022873182 0.28908762
0.25725529 -0.022873735 0.28907159
0.25752831 -0.022873148 0.28908852
0.2578418 -0.022873133 0.2890889
0.25815582 -0.022873171 0.28908774
0.25846663 -0.022872465 0.2891081
0.25878066 -0.0228725 0.28910697
0.25905567 -0.022872455 0.28910825
0.25932974 -0.022872537 0.28910586
0.25964314 -0.022872264 0.28911373
0.25995666 -0.022872247 0.28911409
0.26027116 -0.022872232 0.28911448
0.26058349 -0.022871614 0.2891323
0.26085743 -0.022871336 0.28914025
0.26113197 -0.022871457 0.28913668
0.26144701 -0.022871578 0.28913307
0.26176158 -0.022871615 0.28913197
0.26207289 -0.022871014 0.28914928
0.26234812 -0.022871139 0.28914556
0.26262295 -0.022871047 0.28914821
0.26293528 -0.022870515 0.28916356
0.26324934 -0.022870518 0.28916341
0.26357359 -0.022872958 0.28909293
0.2638773 -0.022870347 0.28916818
0.26654565 -0.022869408 0.28919479
0.26776457 -0.022869416 0.28919438
0.24127787 -0.022490319 0.28890556
0.24342495 -0.022490183 0.28890896
0.24377595 -0.022490095 0.2889114
0.24412704 -0.022490308 0.2889052
0.244322 -0.022490148 0.28890979
0.24463385 -0.022489613 0.28892514
0.24494575 -0.022489216 0.28893644
0.24525785 -0.022489514 0.28892782
0.24557036 -0.022489464 0.28892919
0.24588186 -0.022489328 0.28893304
0.24615557 -0.022489512 0.28892764
0.24642833 -0.022489155 0.2889379
0.24674021 -0.022488758 0.28894925
0.24705262 -0.02248838 0.2889601
0.24736588 -0.022489181 0.28893697
0.2476777 -0.022488505 0.28895631
0.24795075 -0.0224886 0.28895357
0.24822368 -0.022488331 0.28896117
0.24853727 -0.022488544 0.28895506
0.24884859 -0.022487905 0.28897339
0.2491616 -0.022487905 0.28897327
0.2494736 -0.02248784 0.28897512
0.24974667 -0.022487961 0.28897157
0.25002006 -0.022487579 0.28898248
0.25033247 -0.022487305 0.28899032
0.25064501 -0.022487253 0.28899169
0.25095809 -0.02248757 0.28898254
0.25126988 -0.022486828 0.28900391
0.25158119 -0.022486206 0.28902173
0.25185713 -0.022486947 0.28900021
0.25213051 -0.022487106 0.28899565
0.25244239 -0.022486586 0.28901049
0.25275484 -0.022486363 0.28901684
0.25306845 -0.022486575 0.2890107
0.25338027 -0.022485955 0.28902858
0.25365338 -0.022485249 0.28904882
0.25392827 -0.022485919 0.28902945
0.25424063 -0.022485383 0.2890448
0.25455368 -0.02248542 0.28904366
0.2548672 -0.022485455 0.28904253
0.25518012 -0.022485232 0.28904891
0.25545272 -0.022484889 0.28905883
0.25572711 -0.022484992 0.28905576
0.25604007 -0.022484802 0.28906113
0.25635138 -0.022484232 0.28907746
0.25666705 -0.022484684 0.28906435
0.25698119 -0.022484997 0.28905526
0.25725186 -0.022483902 0.28908682
0.25752681 -0.022483803 0.28908959
0.2578392 -0.02248325 0.28910542
0.25815329 -0.022483513 0.28909782
0.25846678 -0.022483446 0.28909969
0.25878078 -0.022483395 0.28910106
0.25905436 -0.022483075 0.28911018
0.25932872 -0.022483099 0.28910944
0.25964275 -0.022483118 0.28910881
0.25995624 -0.022483015 0.28911167
0.2602697 -0.022482827 0.28911704
0.26058251 -0.022482222 0.28913441
0.26085833 -0.022482574 0.28912422
0.2611326 -0.02248241 0.28912881
0.26144662 -0.022482362 0.28913018
0.26175958 -0.022482052 0.28913903
0.26207411 -0.02248228 0.28913242
0.2623468 -0.022481704 0.28914884
0.26262087 -0.022481289 0.28916079
0.26293653 -0.022481794 0.28914618
0.26325372 -0.022482298 0.28913161
0.26356936 -0.022482697 0.28912002
0.26387468 -0.022480465 0.28918427
0.26414844 -0.02248019 0.2891922
0.26430503 -0.022479922 0.28919989
0.2659952 -0.022480074 0.28919503
0.26729324 -0.022480031 0.28919598
0.26741025 -0.022479987 0.28919724
0.24303299 -0.022101097 0.28890991
0.24353997 -0.022100937 0.28891432
0.24428101 -0.022100918 0.28891465
0.24467097 -0.0221007 0.28892085
0.24494401 -0.022100762 0.28891894
0.2452559 -0.022100365 0.2889303
0.24556804 -0.022100765 0.28891864
0.24587974 -0.022099745 0.288948
0.24615501 -0.022100499 0.28892612
0.24642803 -0.022100557 0.2889244
0.24674001 -0.022100419 0.28892824
0.24705181 -0.022099745 0.28894761
0.24736392 -0.022100009 0.28893995
0.24767557 -0.022098849 0.28897327
0.24794865 -0.022099003 0.28896871
0.24822162 -0.022098847 0.28897315
0.24853578 -0.02209935 0.28895855
0.24884775 -0.022099249 0.28896141
0.24915971 -0.022099007 0.28896827
0.24947153 -0.022098351 0.2889871
0.24974464 -0.02209866 0.28897804
0.25001746 -0.022098055 0.28899547
0.25033155 -0.022098262 0.28898934
0.25064343 -0.022097781 0.28900319
0.25095546 -0.022097817 0.28900206
0.25126898 -0.022097852 0.28900093
0.25158158 -0.022098044 0.28899527
0.25185439 -0.022097439 0.2890127
0.25212729 -0.02209709 0.28902265
0.25244147 -0.022097576 0.2890085
0.25275338 -0.022097196 0.28901935
0.25306636 -0.022097075 0.28902274
0.25337884 -0.022096939 0.28902659
0.2536523 -0.022096748 0.28903201
0.25392622 -0.022096539 0.28903797
0.2542381 -0.022096038 0.28905234
0.25455225 -0.022096403 0.2890417
0.25486407 -0.022095762 0.28906006
0.25517869 -0.022096232 0.28904644
0.25545207 -0.02209571 0.28906137
0.25572556 -0.022095624 0.28906381
0.25603804 -0.022095555 0.28906569
0.25635093 -0.022095054 0.28908002
0.25666505 -0.022095419 0.28906941
0.25697801 -0.022095161 0.28907678
0.25725198 -0.022095045 0.28908005
0.25752699 -0.022095038 0.2890802
0.25783885 -0.022094486 0.28909603
0.25815231 -0.022094399 0.28909838
0.25846469 -0.022093864 0.28911376
0.25877821 -0.022093952 0.28911111
0.25905237 -0.022093778 0.28911605
0.25932831 -0.022094071 0.28910753
0.25964284 -0.022094104 0.28910643
0.25995469 -0.022093549 0.28912225
0.26026818 -0.022093467 0.28912461
0.26058275 -0.022093624 0.28912002
0.26085708 -0.022093477 0.28912413
0.26112947 -0.022092633 0.28914839
0.26144567 -0.022093276 0.28912979
0.2617586 -0.02209286 0.28914165
0.26207262 -0.022092966 0.28913856
0.262344 -0.022091961 0.28916743
0.26262262 -0.022092842 0.28914195
0.26293561 -0.022092739 0.28914481
0.26324952 -0.022092393 0.28915468
0.26356569 -0.022092843 0.2891416
0.26387963 -0.022092586 0.28914899
0.26414785 -0.022091039 0.28919348
0.26430517 -0.02209107 0.2891925
0.2665846 -0.022090958 0.28919503
0.26685977 -0.022090904 0.28919649
0.24232677 -0.021711929 0.28891069
0.24443498 -0.021712225 0.28890139
0.24474689 -0.021711897 0.28891075
0.24486367 -0.021711159 0.28893197
0.24533173 -0.021711254 0.28892905
0.24556643 -0.021711824 0.28891256
0.24587946 -0.021711875 0.28891093
0.24615215 -0.021711333 0.28892654
0.24642518 -0.02171085 0.28894031
0.24673785 -0.021711336 0.28892615
0.24704981 -0.021711094 0.28893301
0.24736235 -0.021711182 0.28893036
0.24767429 -0.021710958 0.28893673
0.24794877 -0.021710822 0.28894052
0.24822 -0.021709897 0.28896707
0.24853376 -0.021710712 0.28894347
0.24884564 -0.021710245 0.28895685
0.24915926 -0.021710541 0.28894821
0.24947116 -0.021710195 0.28895807
0.24974382 -0.021709576 0.28897581
0.25001749 -0.021709567 0.28897592
0.25033066 -0.021709967 0.2889643
0.25064194 -0.021709239 0.28898516
0.2509549 -0.021709068 0.28899002
0.25126964 -0.02170971 0.28897142
0.25157931 -0.021708602 0.28900322
0.2518546 -0.021709522 0.28897655
0.25212803 -0.021709239 0.28898466
0.2524409 -0.021708755 0.28899851
0.25275463 -0.021709414 0.28897938
0.25306526 -0.021708116 0.28901672
0.25337881 -0.021708289 0.2890116
0.25365302 -0.021708319 0.28901052
0.25392628 -0.021708027 0.28901899
0.25423929 -0.021708041 0.28901833
0.25455156 -0.021707229 0.2890417
0.2548641 -0.021707231 0.28904155
0.25517935 -0.021707993 0.28901947
0.25545207 -0.021707164 0.28904322
0.25572565 -0.021707296 0.28903931
0.25603911 -0.021707123 0.2890442
0.2563526 -0.021707036 0.28904659
0.25666389 -0.021706276 0.2890684
0.25697798 -0.021706536 0.28906083
0.25725344 -0.02170684 0.28905192
0.2575253 -0.021705857 0.28908017
0.25784042 -0.021706134 0.28907207
0.25815338 -0.021705978 0.28907645
0.2584663 -0.021705683 0.28908482
0.25877976 -0.021705423 0.28909218
0.25905299 -0.021704989 0.28910461
0.25932997 -0.021706078 0.28907311
0.25964063 -0.021704832 0.28910893
0.25995624 -0.02170516 0.28909934
0.26026917 -0.021704797 0.28910971
0.26058215 -0.021704661 0.28911358
0.26085547 -0.021704085 0.28913
0.26113158 -0.021704413 0.28912047
0.26144564 -0.021704482 0.28911835
0.261758 -0.021703996 0.28913218
0.262072 -0.021703962 0.28913307
0.2623468 -0.021703789 0.28913805
0.26262304 -0.021703977 0.28913254
0.26293382 -0.021703213 0.28915435
0.2632516 -0.021704013 0.28913128
0.26357585 -0.021706434 0.28906131
0.26387686 -0.02170313 0.2891565
0.26501241 -0.021701952 0.28919005
0.26575804 -0.021701779 0.28919473
0.26595506 -0.021701792 0.2891942
0.26623169 -0.021702098 0.28918535
0.26654622 -0.021702185 0.28918272
0.26697716 -0.021701863 0.28919184
0.26717421 -0.021702029 0.28918698
0.26744914 -0.021701751 0.28919494
0.26772416 -0.0217018 0.28919339
0.26815724 -0.021701893 0.28919056
0.26823729 -0.021701999 0.28918743
0.24544567 -0.021320084 0.2889021
0.24712446 -0.021319091 0.28893018
0.24736071 -0.021319833 0.28890872
0.24767262 -0.021319507 0.28891808
0.24794568 -0.021319678 0.28891301
0.24821857 -0.021319246 0.28892544
0.24853274 -0.021319747 0.28891084
0.24888216 -0.021318832 0.28893709
0.24917044 -0.021319717 0.28891155
0.2494691 -0.02131911 0.28892893
0.24978219 -0.021319266 0.28892428
0.25005555 -0.021318844 0.28893641
0.25032848 -0.021318588 0.28894365
0.25064144 -0.021318398 0.28894901
0.25095454 -0.021318538 0.2889449
0.25126642 -0.021318141 0.28895625
0.25158051 -0.021318402 0.28894863
0.25185347 -0.021318153 0.28895572
0.25212625 -0.021317394 0.2889775
0.25243986 -0.021317743 0.28896737
0.25275239 -0.021317797 0.28896576
0.25306422 -0.021317035 0.28898758
0.2533778 -0.021317348 0.28897846
0.25365126 -0.021317137 0.28898439
0.25392568 -0.021316808 0.28899387
0.2542381 -0.021316513 0.28900221
0.25455222 -0.02131681 0.2889936
0.25486529 -0.021317018 0.28898746
0.25517762 -0.021316411 0.28900483
0.25545105 -0.021316098 0.28901377
0.255725 -0.02131596 0.28901774
0.25603795 -0.021315701 0.28902507
0.25635096 -0.021315666 0.28902596
0.25666553 -0.021315772 0.28902283
0.25697839 -0.021315338 0.2890352
0.25725079 -0.021314921 0.28904712
0.2575269 -0.021315197 0.28903911
0.25784099 -0.021315407 0.289033
0.25815329 -0.021314785 0.28905082
0.25846678 -0.021314697 0.2890532
0.25878084 -0.021314837 0.28904909
0.25905544 -0.021314504 0.28905854
0.25932822 -0.021314245 0.28906599
0.25964159 -0.021313898 0.28907585
0.25995612 -0.021313796 0.28907874
0.26026958 -0.021313658 0.28908262
0.26054314 -0.02131331 0.28909257
0.26081964 -0.02131369 0.28908154
0.2611331 -0.021313585 0.28908443
0.26144594 -0.021313049 0.28909975
0.26175943 -0.02131293 0.28910315
0.26207453 -0.021313172 0.28909606
0.26234919 -0.021313006 0.28910068
0.2626234 -0.021312615 0.28911194
0.26294017 -0.021313427 0.28908837
0.26325414 -0.021313258 0.28909323
0.26357299 -0.021314312 0.28906268
0.26387721 -0.021311752 0.28913644
0.26415148 -0.021311507 0.28914335
0.2644234 -0.021310676 0.28916728
0.26473632 -0.021310329 0.28917715
0.26493171 -0.02130989 0.28918976
0.26536429 -0.021310018 0.28918591
0.26564339 -0.021310911 0.2891601
0.26591969 -0.021311225 0.28915089
0.26623258 -0.021310844 0.28916177
0.26654708 -0.02131081 0.28916267
0.26686159 -0.021310829 0.28916204
0.26717609 -0.021310743 0.28916442
0.26745006 -0.021310493 0.28917155
0.26772606 -0.021310566 0.28916934
0.26804006 -0.021310462 0.28917223
0.26835722 -0.021310929 0.28915864
0.24774468 -0.02092012 0.28890753
0.24844879 -0.020920344 0.28890109
0.24915075 -0.020920098 0.28890815
0.24946254 -0.020919375 0.28892899
0.24965984 -0.020920271 0.28890315
0.25004956 -0.020919316 0.28893065
0.25032422 -0.020919725 0.28891879
0.25063661 -0.020919368 0.28892913
0.25094852 -0.02091906 0.28893799
0.251261 -0.020918824 0.28894487
0.25157467 -0.020919414 0.28892773
0.25184739 -0.020918434 0.28895599
0.25212097 -0.020918638 0.28895009
0.25243509 -0.020918954 0.288941
0.25274751 -0.020918611 0.28895086
0.25306049 -0.020918565 0.2889522
0.2533741 -0.020918828 0.2889446
0.25364751 -0.020918498 0.28895405
0.25392082 -0.020917825 0.28897348
0.25423446 -0.020918192 0.28896284
0.25454685 -0.020917799 0.2889742
0.25485873 -0.020917319 0.28898805
0.25517386 -0.020917721 0.28897643
0.25544724 -0.020917179 0.28899205
0.25571954 -0.020916596 0.2890088
0.25603369 -0.020917069 0.28899518
0.25634608 -0.020916555 0.28901005
0.25665957 -0.020916488 0.28901193
0.25697464 -0.02091663 0.28900781
0.25724706 -0.020916367 0.28901541
0.25751978 -0.020915423 0.28904265
0.25783443 -0.020915788 0.28903204
0.25814953 -0.020916086 0.28902346
0.25846195 -0.020915831 0.28903079
0.25877485 -0.020915385 0.28904366
0.2590495 -0.020915275 0.28904679
0.25932592 -0.020915594 0.28903759
0.25963837 -0.020915236 0.28904796
0.25995016 -0.020914596 0.28906631
0.26026577 -0.020914845 0.28905922
0.2605792 -0.020914553 0.28906757
0.26085556 -0.020915108 0.28905156
0.26112655 -0.020914018 0.28908294
0.26144272 -0.020914437 0.28907084
0.26175725 -0.020914508 0.28906876
0.26207018 -0.020914201 0.28907758
0.26234388 -0.020913696 0.28909221
0.26262128 -0.020914499 0.28906903
0.26293415 -0.020913966 0.2890844
0.26324704 -0.020913605 0.28909475
0.26356697 -0.020914821 0.28905973
0.26387823 -0.020914063 0.28908157
0.26414767 -0.020912742 0.2891196
0.26441956 -0.020911815 0.28914636
0.26473141 -0.020911163 0.2891652
0.26504481 -0.020910833 0.28917456
0.2653631 -0.020911757 0.289148
0.26567656 -0.0209115 0.28915536
0.26595068 -0.02091142 0.28915766
0.26622927 -0.020912107 0.28913781
0.26654643 -0.020912543 0.28912526
0.26685882 -0.020912167 0.28913611
0.26717064 -0.020911494 0.28915545
0.26744828 -0.020911878 0.28914446
0.26772168 -0.020911548 0.28915387
0.26803672 -0.020911623 0.28915179
0.26831156 -0.020911599 0.28915238
0.24648832 -0.020520695 0.28890574
0.24824528 -0.020520298 0.28891766
0.24840343 -0.020520724 0.28890535
0.2487935 -0.020520881 0.28890088
0.24926151 -0.020520827 0.28890258
0.24977046 -0.02052059 0.28890955
0.25008112 -0.02051954 0.28893989
0.25039542 -0.020520344 0.28891677
0.25062925 -0.020519825 0.28893179
0.25094238 -0.020520162 0.28892216
0.25125533 -0.020519909 0.28892952
0.25156769 -0.020519344 0.28894585
0.25188017 -0.020519283 0.28894773
0.25215462 -0.020519586 0.28893903
0.25242764 -0.020519048 0.28895462
0.25274122 -0.020519299 0.28894749
0.25305414 -0.020519046 0.28895485
0.25336492 -0.020518187 0.28897971
0.25367963 -0.020518852 0.28896058
0.2539531 -0.020518677 0.28896567
0.25422704 -0.020518359 0.28897497
0.25453997 -0.020518124 0.2889818
0.25485408 -0.020518478 0.28897172
0.2551665 -0.02051812 0.28898209
0.25547776 -0.020517262 0.28900689
0.25575361 -0.020517791 0.28899172
0.25602579 -0.020517219 0.28900829
0.25633988 -0.020517468 0.28900117
0.25665331 -0.020517319 0.28900555
0.25696734 -0.020517256 0.28900743
0.2572813 -0.020517124 0.2890113
0.25755325 -0.020516396 0.28903237
0.25782922 -0.020516682 0.28902417
0.2581422 -0.020516584 0.28902707
0.25845346 -0.020515813 0.28904939
0.25876912 -0.020516252 0.28903681
0.25904396 -0.020516314 0.28903508
0.25931865 -0.020516278 0.28903621
0.25962991 -0.020515507 0.28905854
0.25994661 -0.020516049 0.28904295
0.26025951 -0.020515675 0.2890538
0.2605719 -0.020515231 0.28906667
0.26084635 -0.020514963 0.28907445
0.2611208 -0.02051479 0.28907955
0.26143694 -0.020515282 0.28906548
0.26174775 -0.020514559 0.28908628
0.26206332 -0.020514704 0.28908217
0.26237735 -0.020514783 0.28908005
0.26265094 -0.020514352 0.28909251
0.26292568 -0.020514149 0.28909844
0.26324517 -0.020515576 0.28905743
0.26356345 -0.020516498 0.28903085
0.26386711 -0.020513665 0.28911257
0.26417619 -0.020512357 0.28915039
0.26445031 -0.02051208 0.28915849
0.26472676 -0.020512365 0.28915033
0.26504236 -0.0205127 0.2891407
0.26535261 -0.020511739 0.28916854
0.2656697 -0.02051216 0.28915647
0.26594797 -0.02051292 0.28913462
0.26622251 -0.020512931 0.28913441
0.26653591 -0.02051259 0.28914428
0.26685202 -0.020512804 0.2891382
0.2671665 -0.020512793 0.28913856
0.26744208 -0.020512976 0.28913337
0.26771539 -0.020512385 0.28915048
0.26802993 -0.02051241 0.28914982
0.2683067 -0.020512592 0.28914467
0.24702798 -0.020121004 0.28891125
0.24882594 -0.020120574 0.28892457
0.24952912 -0.020121053 0.28891116
0.24976255 -0.020120729 0.28892064
0.25007594 -0.020120393 0.28893051
0.2503489 -0.020120116 0.28893861
0.25062174 -0.020119697 0.28895086
0.250936 -0.020120397 0.28893074
0.25124845 -0.020120131 0.28893861
0.251562 -0.020120282 0.28893447
0.25187501 -0.020120291 0.28893435
0.25214696 -0.020120056 0.28894126
0.25242198 -0.020120028 0.28894222
0.25273392 -0.020119814 0.28894857
0.25304794 -0.020119842 0.28894797
0.25336105 -0.02012011 0.28894031
0.25367627 -0.020120831 0.28891972
0.25394979 -0.020120226 0.28893733
0.25422138 -0.020119408 0.28896105
0.25453427 -0.020119071 0.28897092
0.25484735 -0.020119168 0.28896829
0.25516021 -0.020118797 0.28897917
0.25547373 -0.020118825 0.28897852
0.25574735 -0.020118596 0.28898528
0.25602171 -0.020118631 0.28898442
0.25633463 -0.020118225 0.28899628
0.25664815 -0.020118289 0.28899464
0.25696164 -0.020118279 0.28899503
0.25727394 -0.020117614 0.28901434
0.25754768 -0.020117171 0.2890273
0.25782353 -0.020117696 0.28901225
0.25813535 -0.020117119 0.28902912
