# .PCD v0.7 - Point Cloud Data file format
VERSION 0.7
FIELDS x y z
SIZE 4 4 4
TYPE F F F
COUNT 1 1 1
WIDTH 1328
HEIGHT 1
VIEWPOINT 0 0 0 1 0 0 0
POINTS 1328
DATA ascii
0.098832667 0.01041191 0.32593548
0.099140622 0.010412 0.32594252
0.099447399 0.010412682 0.32596704
0.099754751 0.010413076 0.32598311
0.10006496 0.010412274 0.32596368
0.10037337 0.010412449 0.32597321
0.10068178 0.010412674 0.32598427
0.10094994 0.010413154 0.32600227
0.10122117 0.010412851 0.32599711
0.10152911 0.01041301 0.32600614
0.10183536 0.010413773 0.32603317
0.10214212 0.010414488 0.32605872
0.10245112 0.01041441 0.32606077
0.10275798 0.010414772 0.32607579
0.10306692 0.010414879 0.32608336
0.10336181 0.010415146 0.32609543
0.10360686 0.010414921 0.32609218
0.11297935 0.010410363 0.32608902
0.11323418 0.010405732 0.32595512
0.11356489 0.010401528 0.32583499
0.099842787 0.010672465 0.32580638
0.10007533 0.010672282 0.3258042
0.10042251 0.010672082 0.32580313
0.10065377 0.010672275 0.3258121
0.10092369 0.010672451 0.3258211
0.10123159 0.010672711 0.32583314
0.10154053 0.010672853 0.32584172
0.1018478 0.010673517 0.32586575
0.10215516 0.010673912 0.32588178
0.10246299 0.010674391 0.32590032
0.10277089 0.010674617 0.32591137
0.10308086 0.010674625 0.32591593
0.10335008 0.01067493 0.32592878
0.10361959 0.010675376 0.32594576
0.1039275 0.010675585 0.32595628
0.10423484 0.010676065 0.32597482
0.10454322 0.010676391 0.32598889
0.10485103 0.010676939 0.32600942
0.10515944 0.010677114 0.32601899
0.10546518 0.010677914 0.326047
0.1057735 0.010678426 0.32606655
0.10608192 0.010678636 0.3260771
0.10631125 0.010679143 0.32609534
0.11278793 0.010674811 0.32605755
0.11295388 0.010672656 0.32599589
0.1132405 0.010669345 0.32590163
0.11345044 0.010666102 0.32580823
0.10525736 0.01093576 0.32580441
0.10545063 0.010935936 0.32581234
0.10572018 0.01093627 0.32582599
0.10602851 0.010936717 0.32584354
0.10633687 0.010937111 0.32585961
0.10664199 0.010938316 0.3258996
0.10694924 0.010939082 0.32592663
0.10725863 0.010939343 0.3259387
0.10756272 0.010940649 0.32598168
0.10787008 0.010941043 0.32599771
0.10818004 0.010941086 0.32600328
0.10845084 0.010941095 0.32600731
0.10872258 0.010940743 0.32600069
0.10903147 0.010941088 0.32601523
0.10934202 0.010940777 0.32601029
0.10965148 0.010940852 0.32601687
0.10996204 0.010940541 0.32601196
0.11026989 0.01094097 0.32602897
0.11057877 0.010941265 0.32604206
0.11084569 0.010942069 0.32606968
0.11239716 0.010941141 0.32606372
0.11267821 0.010939112 0.32600737
0.11296254 0.010936241 0.32592607
0.113208 0.010933424 0.32584587
0.1091346 0.011199915 0.32580525
0.10936497 0.011200304 0.32582
0.10967702 0.011199977 0.3258146
0.10994565 0.011200626 0.32583761
0.11021738 0.011200359 0.32583347
0.11052945 0.011200015 0.32582754
0.11080253 0.011199635 0.32582009
0.11122958 0.011199333 0.32581699
0.11145189 0.011201609 0.32588768
0.11175704 0.011202731 0.32592517
0.11207072 0.011201999 0.3259078
0.11234454 0.011201407 0.32589403
0.11262231 0.011199821 0.32585078
0.1128227 0.011198448 0.32581282
0.10733484 -0.010245482 0.32610273
0.10756524 -0.010245204 0.32611451
0.10787147 -0.010244432 0.32614201
0.10817821 -0.010243576 0.32617205
0.10844747 -0.010243489 0.3261787
0.10871707 -0.0102433 0.32618839
0.10902544 -0.010242984 0.32620245
0.10933493 -0.010243073 0.32620448
0.1096439 -0.010243059 0.32620955
0.10995393 -0.010243265 0.32620811
0.11026447 -0.010243504 0.3262057
0.11057881 -0.010244789 0.32617235
0.11085465 -0.010245998 0.32614055
0.11101499 -0.010247239 0.32610619
0.10462166 -0.010015612 0.32610279
0.10485152 -0.010015196 0.32611856
0.10515672 -0.01001427 0.3261506
0.10546511 -0.010013985 0.32616365
0.10577247 -0.010013597 0.32617968
0.10608035 -0.010013329 0.3261922
0.10634897 -0.010012676 0.32621554
0.10661586 -0.010011833 0.3262445
0.10692319 -0.01001138 0.32626253
0.10723156 -0.010011027 0.32627758
0.10753679 -0.010010201 0.32630658
0.10784356 -0.010009529 0.32633114
0.10815042 -0.010009142 0.32634714
0.1084578 -0.010008839 0.3263607
0.10876621 -0.010008637 0.32637125
0.10907469 -0.010008671 0.3263748
0.10938261 -0.010008504 0.32638437
0.10965344 -0.010008576 0.32638621
0.10992521 -0.010009031 0.32637674
0.11023529 -0.010009386 0.32637081
0.11055064 -0.010010701 0.32633644
0.11086447 -0.010011897 0.3263056
0.11114209 -0.010013537 0.32626101
0.11142309 -0.010015913 0.3261947
0.11166583 -0.010018496 0.3261216
0.10249028 -0.0097854035 0.32610628
0.1027593 -0.0097849462 0.3261238
0.10306561 -0.0097844386 0.32614332
0.10337347 -0.0097840484 0.32615936
0.10368132 -0.0097836256 0.3261764
0.10395022 -0.0097833872 0.32618737
0.10421901 -0.0097827669 0.32620972
0.10452421 -0.0097818216 0.32624221
0.10483209 -0.0097815339 0.32625526
0.10513888 -0.0097809248 0.32627779
0.10544516 -0.0097802654 0.32630181
0.10575257 -0.0097800773 0.32631186
0.10605881 -0.0097792838 0.3263399
0.10636456 -0.0097785071 0.32636738
0.10667138 -0.0097779995 0.32638693
0.10686431 -0.0097778272 0.32639486
0.11119667 -0.0097804824 0.32637915
0.11147891 -0.009783064 0.32630664
0.11176369 -0.0097864084 0.32621154
0.11197026 -0.009789506 0.32612264
0.094703816 -0.0093134837 0.32610455
0.094972752 -0.0093133627 0.32611203
0.095279694 -0.0093132751 0.32611907
0.095549047 -0.0093134576 0.3261176
0.095818743 -0.0093136281 0.32611641
0.096126765 -0.0093137762 0.3261165
0.096433744 -0.0093138069 0.32612002
0.096741721 -0.0093138376 0.3261236
0.097049795 -0.0093141887 0.32611763
0.097358331 -0.0093144216 0.32611522
0.09766683 -0.0093145194 0.3261168
0.097973749 -0.009314348 0.32612631
0.098282263 -0.0093144802 0.32612687
0.09855178 -0.0093146171 0.32612672
0.098820746 -0.0093145967 0.32613122
0.099128738 -0.0093146786 0.32613328
0.099436685 -0.0093145734 0.32614082
0.099743977 -0.0093139652 0.32616338
0.10005101 -0.0093141813 0.32616138
0.10036111 -0.0093926769 0.32615307
0.10067039 -0.0094319414 0.32615066
0.10097772 -0.0094314162 0.32617068
0.10126714 -0.009413898 0.32619834
0.10153212 -0.0094476389 0.32619375
0.10182203 -0.0094301989 0.32621908
0.10212996 -0.009430062 0.32622764
0.10243683 -0.0094297128 0.32624242
0.10274281 -0.0094289025 0.32627094
0.10305019 -0.0094285961 0.3262845
0.10335701 -0.0094280886 0.32630402
0.1036649 -0.0094278418 0.32631582
0.10397118 -0.0094271647 0.32634032
0.10425353 -0.0094660437 0.32634899
0.10455107 -0.0095443316 0.32634667
0.1048182 -0.009543716 0.32636881
0.10512553 -0.0095432755 0.32638636
0.10535593 -0.0095430091 0.32639766
0.11178052 -0.0094308686 0.32634383
0.11204902 -0.00945214 0.32621291
0.11227638 -0.0093210712 0.32613426
0.094046153 -0.0090780221 0.32612854
0.09435343 -0.0090773795 0.32615206
0.094660223 -0.0090767695 0.32617462
0.094967753 -0.009076952 0.32617366
0.095275722 -0.009076965 0.32617772
0.095582657 -0.009076844 0.32618576
0.09585204 -0.0090770824 0.3261826
0.096121743 -0.0090772975 0.3261801
0.096428744 -0.0090773944 0.32618165
0.096736804 -0.009077711 0.3261767
0.097045451 -0.0090783313 0.32616282
0.097352915 -0.0090782773 0.32616884
0.097660922 -0.0090784254 0.32616889
0.09796901 -0.0090787932 0.32616246
0.098277479 -0.009078823 0.32616603
0.098546959 -0.0090788193 0.32617003
0.098815955 -0.0090788882 0.32617188
0.099123336 -0.0090785827 0.32618541
0.099429622 -0.009077956 0.32620844
0.099737063 -0.009077834 0.32621649
0.10004446 -0.0090775955 0.32622802
0.10035186 -0.0090773394 0.32624006
0.10065972 -0.009076966 0.32625562
0.10096713 -0.0090768104 0.32626468
0.10127395 -0.0090762684 0.32628521
0.1015808 -0.0090758605 0.32630175
0.10185045 -0.0090758689 0.32630542
0.10211805 -0.0090751685 0.32633007
0.10242495 -0.0090749124 0.32634211
0.10273176 -0.0090744039 0.32636166
0.10303809 -0.0090738777 0.32638168
0.11189174 -0.0090789571 0.32635909
0.11206279 -0.0090825986 0.32625353
0.11227395 -0.0090865605 0.326139
0.093429625 -0.0088445563 0.32611513
0.093735695 -0.0088431891 0.3261601
0.094042405 -0.0088422932 0.32619116
0.094348684 -0.0088416655 0.32621419
0.09465497 -0.008841021 0.32623771
0.094962358 -0.008840749 0.32625026
0.095269822 -0.0088407118 0.32625583
0.095577382 -0.0088410098 0.32625136
0.09584678 -0.0088413265 0.32624587
0.096116558 -0.0088418163 0.32623523
0.09642414 -0.0088421497 0.32622981
0.096732199 -0.0088424999 0.32622385
0.097039722 -0.008842648 0.32622391
0.097347766 -0.0088428967 0.32622099
0.097656325 -0.0088431966 0.32621655
0.09796378 -0.0088431425 0.3262226
0.098270729 -0.0088430708 0.32622916
0.098579809 -0.0088434378 0.32622272
0.09884838 -0.0088432208 0.32623303
0.099117622 -0.0088429805 0.32624403
0.099423453 -0.0088425046 0.32626256
0.099730812 -0.0088421144 0.32627863
0.10003828 -0.0088421106 0.32628316
0.10034615 -0.008841753 0.32629821
0.10065304 -0.0088414624 0.32631126
0.10095991 -0.008841157 0.32632482
0.10126729 -0.0088408496 0.32633835
0.10157529 -0.0088409139 0.32634091
0.10188159 -0.0088403532 0.32636195
0.1021497 -0.0088396817 0.32638577
0.10238033 -0.0088396259 0.32639071
0.11184896 -0.0088447835 0.32637447
0.11205798 -0.0088483067 0.3262729
0.11227129 -0.0088528302 0.32614177
0.092849694 -0.0086091561 0.32615423
0.093118519 -0.008608629 0.32617372
0.093424186 -0.0086075971 0.32620877
0.093730874 -0.0086066332 0.32624179
0.094036989 -0.0086054169 0.32628229
0.094343267 -0.0086047724 0.32630584
0.09465073 -0.0086047519 0.3263109
0.094957195 -0.008604697 0.32631695
0.095264703 -0.0086048283 0.32631749
0.095572203 -0.0086049242 0.32631904
0.095880315 -0.0086054094 0.32630908
0.096149802 -0.008606039 0.3262943
0.09641853 -0.0086062979 0.32629049
0.096726552 -0.0086064972 0.32628903
0.097034588 -0.0086066946 0.3262876
0.097342148 -0.0086070104 0.32628268
0.097650185 -0.008607259 0.3262797
0.097958207 -0.0086074062 0.32627979
0.098265693 -0.0086074527 0.32628283
0.098573126 -0.0086073307 0.32629088
0.09888003 -0.0086071081 0.3263019
0.099149138 -0.0086069861 0.32630944
0.099417433 -0.0086069703 0.32631376
0.099724859 -0.008606798 0.3263233
0.10003169 -0.0086063053 0.32634234
0.10034016 -0.0086063016 0.32634693
0.10064764 -0.0086063314 0.32635048
0.10095497 -0.0086058713 0.32636851
0.10114574 -0.0086051766 0.32639191
0.11188443 -0.008610907 0.32637662
0.11205119 -0.0086135594 0.32630032
0.11233822 -0.0086171059 0.32619923
0.11262099 -0.0086198421 0.32612208
0.092386432 -0.0083539719 0.32610235
0.092576884 -0.0083521809 0.32615823
0.092882104 -0.0083496151 0.32623869
0.09315002 -0.0083483132 0.32628119
0.093417346 -0.0083472189 0.32631749
0.093723983 -0.0083460845 0.32635552
0.094029836 -0.0083456747 0.32637206
0.094451629 -0.0083451131 0.32639474
0.09464366 -0.0083452761 0.32639265
0.09493766 -0.0083453637 0.32639423
0.095219702 -0.0083455853 0.3263917
0.095565781 -0.0083459839 0.32638478
0.095873356 -0.0083463322 0.32637882
0.096181005 -0.0083469152 0.32636595
0.096450746 -0.0083472701 0.32635927
0.096719213 -0.0083478028 0.32634729
0.09702719 -0.0083478317 0.32635084
0.097335242 -0.0083480952 0.32634741
0.097643413 -0.0083487798 0.3263315
0.097950377 -0.0083487239 0.32633755
0.09825781 -0.0083486345 0.32634458
0.09856528 -0.0083485954 0.32635015
0.09887214 -0.0083482526 0.3263647
0.099180192 -0.0083485171 0.32636124
0.099449493 -0.0083484948 0.32636574
0.099718064 -0.0083482414 0.32637709
0.099947929 -0.0083478708 0.32639134
0.11187851 -0.0083535919 0.32639194
0.11204237 -0.008355435 0.3263396
0.11232056 -0.0083572436 0.32628989
0.1126471 -0.0083609112 0.3261857
0.11285133 -0.0083634341 0.32611376
0.092279419 -0.0079358472 0.32614997
0.092568249 -0.007951566 0.32624921
0.092873819 -0.0079493849 0.32631823
0.093179777 -0.0079476163 0.32637501
0.093449526 -0.0080797663 0.32638887
0.09364146 -0.0080796238 0.32639578
0.09659335 -0.0078159487 0.32639822
0.096731067 -0.0080148857 0.3263945
0.09704528 -0.0079931151 0.32638964
0.097326554 -0.0079489537 0.32639346
0.097634606 -0.007949248 0.32638901
0.097941652 -0.0079494501 0.32638735
0.09824302 -0.0079305256 0.32639143
0.098540202 -0.0079684826 0.32639268
0.11238058 -0.0080231214 0.32637009
0.11264105 -0.0079785855 0.32629061
0.11295068 -0.0079635018 0.32618061
0.11319191 -0.0078330319 0.32612234
0.092256673 -0.0075573372 0.32615778
0.092561632 -0.0075538903 0.32626426
0.092866294 -0.0075511681 0.32634923
0.093096927 -0.0075499853 0.32638752
0.096858032 -0.0075514452 0.32639587
0.097012058 -0.0075515658 0.32639444
0.097358406 -0.0075517003 0.32639518
0.097511053 -0.0075516975 0.32639739
0.097935103 -0.0075520044 0.32639411
0.098242104 -0.0075520948 0.32639563
0.09855067 -0.0075524207 0.32639024
0.098934144 -0.0075524524 0.32639456
0.0991778 -0.0075524505 0.32639796
0.099357121 -0.0075524738 0.32639974
0.11272208 -0.007559713 0.32636863
0.11292951 -0.0075628888 0.32627723
0.11325498 -0.0075662988 0.32618052
0.092251725 -0.0072920239 0.32616735
0.092557088 -0.0072882725 0.3262828
0.092861846 -0.0072858343 0.32635927
0.093092576 -0.0072849868 0.32638755
0.09658464 -0.0072862231 0.32639828
0.096777201 -0.0072864993 0.32639268
0.097046785 -0.0072868406 0.32638621
0.097316355 -0.0072871712 0.32638004
0.097623833 -0.0072871749 0.32638413
0.097931415 -0.007287533 0.32637769
0.098238364 -0.0072874697 0.32638371
0.098546937 -0.0072877766 0.32637879
0.098853886 -0.0072877305 0.32638437
0.099161305 -0.0072875321 0.32639438
0.11279363 -0.0072942702 0.32637942
0.11295968 -0.0072967373 0.32630846
0.11324476 -0.0072999159 0.32621801
0.11349325 -0.0073033813 0.32611853
0.092016779 -0.0070451386 0.32612157
0.092246182 -0.0070431791 0.32618284
0.092551813 -0.0070403195 0.32627183
0.092857882 -0.0070389593 0.32631633
0.093163967 -0.0070375982 0.32636085
0.093470298 -0.0070371469 0.32637841
0.093738623 -0.007037207 0.32638022
0.09419924 -0.0070371497 0.32638815
0.094353326 -0.0070374827 0.32638034
0.095619261 -0.0070376573 0.32639223
0.095850334 -0.0070379712 0.32638603
0.096170016 -0.0070381053 0.32638642
0.096466668 -0.007039241 0.32635671
0.096773617 -0.0070391772 0.32636273
0.097080618 -0.0070392815 0.3263638
0.097350389 -0.0070397067 0.32635483
0.097619668 -0.0070395814 0.32636216
0.097927213 -0.0070398203 0.32635921
0.098234713 -0.0070399246 0.32636029
0.098542139 -0.0070397593 0.32636932
0.098849118 -0.007039763 0.3263734
0.099156521 -0.0070395302 0.32638443
0.099476077 -0.0070392657 0.32639661
0.099732079 -0.0070393407 0.32639781
0.11274923 -0.0070458776 0.32637954
0.11294868 -0.0070473948 0.32633722
0.11323781 -0.0070513245 0.32622451
0.11348683 -0.0070548905 0.32612202
0.091424808 -0.0066256984 0.32611936
0.091636792 -0.0067144921 0.32615733
0.09192729 -0.0067282123 0.32619917
0.092234097 -0.0067268461 0.32624394
0.092540264 -0.006725783 0.3262797
0.092847146 -0.0067254775 0.32629302
0.093154036 -0.0067251967 0.32630557
0.093459614 -0.0067238724 0.32634905
0.093766548 -0.0067237103 0.32635811
0.094056614 -0.0067088013 0.32635957
0.094405085 -0.0066890311 0.32635778
0.09466394 -0.0067029595 0.3263633
0.094893828 -0.0066616908 0.32634526
0.095250271 -0.0066899043 0.32634351
0.095533513 -0.0067249741 0.32634494
0.095841318 -0.0067252414 0.32634121
0.096148893 -0.0067255837 0.32633531
0.096456788 -0.0067261793 0.32632187
0.096764654 -0.0067266487 0.32631218
0.097072117 -0.0067266459 0.32631648
0.097380199 -0.0067270063 0.32631007
0.097670779 -0.0067123687 0.32630351
0.097935781 -0.0067421882 0.32631207
0.09822648 -0.006727343 0.32631171
0.098533936 -0.0067273062 0.32631701
0.098840781 -0.0067268666 0.3263343
0.099147074 -0.006726258 0.32635659
0.099454299 -0.0067262892 0.3263599
0.099760905 -0.0067258738 0.32637641
0.10004292 -0.0066628372 0.32638243
0.10037316 -0.006621141 0.32637867
0.10068011 -0.0066210129 0.32638672
0.11271938 -0.0067842137 0.32638016
0.11296195 -0.0067189322 0.32631949
0.11324213 -0.0067518288 0.32623652
0.11352308 -0.0066769435 0.32615012
0.091378912 -0.0064158351 0.32616079
0.091647111 -0.0064143292 0.32620928
0.091915458 -0.0064127776 0.32625908
0.092222124 -0.0064117084 0.32629511
0.092529252 -0.0064122393 0.32628369
0.092836186 -0.006412114 0.32629171
0.093142577 -0.0064118365 0.32630426
0.093448959 -0.0064115254 0.32631779
0.093756288 -0.0064110458 0.32633635
0.094063282 -0.0064111045 0.32633889
0.094370358 -0.0064114835 0.32633194
0.094677769 -0.0064112572 0.326343
0.094984904 -0.0064118216 0.32633054
0.095254146 -0.006412134 0.32632506
0.095523 -0.0064123175 0.32632339
0.095830545 -0.006412562 0.32632047
0.096139356 -0.0064136991 0.32629102
0.09644682 -0.0064136907 0.32629561
0.096753858 -0.0064139022 0.32629365
0.097062394 -0.0064141299 0.3262912
0.097371072 -0.0064148121 0.32627529
0.097678021 -0.0064147371 0.32628182
0.097984806 -0.0064140894 0.32630536
0.098255448 -0.0064152214 0.32627559
0.098524429 -0.0064146859 0.32629526
0.098830782 -0.0064142738 0.32631177
0.099137664 -0.0064139795 0.32632482
0.099445127 -0.006413938 0.32633036
0.099752016 -0.00641366 0.32634291
0.10005943 -0.0064134332 0.32635397
0.1003669 -0.0064134253 0.3263585
0.10067429 -0.006413165 0.32637054
0.10098119 -0.0064129047 0.32638258
0.10124973 -0.006412582 0.3263959
0.11307167 -0.0064182151 0.32639474
0.11323766 -0.0064205281 0.3263284
0.11352113 -0.0064233458 0.32624876
0.11381168 -0.0064275675 0.32612753
0.09110304 -0.0062071048 0.32612026
0.091371 -0.0062048147 0.32619205
0.091677509 -0.0062032253 0.32624358
0.091984183 -0.0062022093 0.32627809
0.0922525 -0.006201142 0.32631359
0.092520967 -0.0062016468 0.32630241
0.092826582 -0.0062004449 0.32634246
0.093133971 -0.0062001524 0.32635546
0.093440384 -0.0061999271 0.32636651
0.093747944 -0.0062002414 0.32636157
0.094054997 -0.0062005213 0.32635763
0.094361961 -0.0062005157 0.32636219
0.094669014 -0.0062007783 0.32635874
0.094977126 -0.0062012775 0.3263483
0.095284626 -0.0062013725 0.32634985
0.095553078 -0.0062018433 0.32633969
0.095823005 -0.0062028309 0.32631421
0.096131034 -0.0062030107 0.32631326
0.096439131 -0.0062034251 0.32630533
0.096746862 -0.0062043285 0.32628292
0.097054861 -0.0062044063 0.32628497
0.097362898 -0.0062046363 0.32628256
0.097669192 -0.0062040412 0.32630455
0.097977296 -0.0062044561 0.32629663
0.098245442 -0.0062039164 0.32631645
0.098515734 -0.0062044328 0.32630497
0.098823801 -0.0062047634 0.32629955
0.099130198 -0.0062044878 0.32631207
0.099438094 -0.0062042633 0.32632312
0.099745028 -0.0062041059 0.32633215
0.1000519 -0.0062037967 0.32634571
0.1003599 -0.0062038917 0.32634726
0.10066679 -0.0062036156 0.32635981
0.10097524 -0.0062035089 0.32636735
0.10128051 -0.0062028626 0.32639089
0.10147344 -0.0062026549 0.3263998
0.11334043 -0.0062097246 0.32635871
0.11358504 -0.0061276532 0.32631388
0.11384087 -0.0061249984 0.32621887
0.11408532 -0.0060601309 0.32615146
0.091070011 -0.0058990759 0.32614931
0.091359429 -0.0058807936 0.32621309
0.091665938 -0.0058792159 0.32626435
0.091971993 -0.0058778059 0.3263106
0.092277959 -0.0058769095 0.32634163
0.092567921 -0.0058596646 0.32637459
0.092816055 -0.0059136939 0.32638469
0.093125045 -0.0059896726 0.32638821
0.093470186 -0.0059897136 0.32639197
0.093700171 -0.0059897029 0.3263956
0.094034903 -0.0058987257 0.32639569
0.094348788 -0.0058761798 0.32639316
0.094656333 -0.0058764191 0.3263905
0.094963923 -0.0058768028 0.32638356
0.095272139 -0.0058776829 0.32636186
0.095579162 -0.0058778478 0.32636139
0.095870391 -0.0058623306 0.32634315
0.096135654 -0.0058955816 0.3263261
0.096425839 -0.0058795502 0.32632309
0.096733876 -0.0058797658 0.32632115
0.097041704 -0.0058801658 0.3263137
0.097349815 -0.0058806334 0.32630426
0.097657263 -0.0058805374 0.32631159
0.097965218 -0.005880483 0.32631767
0.098273091 -0.0058809672 0.32630768
0.098580584 -0.0058810562 0.3263095
0.098849781 -0.0058809933 0.32631525
0.099118777 -0.0058810445 0.32631758
0.099426255 -0.0058810581 0.3263216
0.099733666 -0.005880869 0.32633168
0.10004057 -0.005880638 0.32634297
0.10034856 -0.0058807353 0.32634455
0.10065626 -0.0058806217 0.32635236
0.10096419 -0.0058804834 0.32636088
0.10127079 -0.0058801007 0.32637668
0.10157742 -0.0058797682 0.32639095
0.10179488 -0.0058417427 0.32639572
0.11352265 -0.005999919 0.32637781
0.11387057 -0.0057737171 0.32633537
0.11416782 -0.0057792123 0.32617655
0.091080599 -0.0054945895 0.32613593
0.091348648 -0.0054926025 0.32619876
0.091655098 -0.0054908288 0.32625577
0.091961116 -0.0054892735 0.32630628
0.092266664 -0.005487836 0.32635328
0.092573978 -0.0054873242 0.3263728
0.092880428 -0.0054872343 0.32637984
0.093148917 -0.0054872781 0.32638237
0.093417391 -0.0054872613 0.32638669
0.093723893 -0.0054873899 0.32638723
0.094032034 -0.0054879561 0.3263748
0.094338506 -0.0054879673 0.32637882
0.094646074 -0.0054882634 0.32637438
0.094953716 -0.0054888474 0.32636142
0.095262431 -0.0054896665 0.32634151
0.095569588 -0.005490317 0.32632658
0.095877171 -0.0054907151 0.32631916
0.096184708 -0.0054908944 0.3263182
0.096454442 -0.0054912139 0.32631254
0.096723899 -0.0054917298 0.32630104
0.097031489 -0.0054921275 0.32629362
0.097340144 -0.005492745 0.32627967
0.097647712 -0.0054930421 0.3262752
0.097956195 -0.0054930858 0.32627827
0.098263107 -0.0054929117 0.32628784
0.098571144 -0.0054931417 0.32628539
0.098878577 -0.0054929839 0.32629445
0.099147379 -0.0054929727 0.32629859
0.099415995 -0.0054929103 0.32630426
0.099724546 -0.0054931398 0.32630181
0.10003261 -0.0054934882 0.32629591
0.10034109 -0.0054934979 0.32629997
0.10064686 -0.0054928018 0.32632497
0.10095426 -0.0054925773 0.32633603
0.10126165 -0.0054923184 0.32634807
0.10156962 -0.0054922956 0.3263531
0.10187542 -0.0054917168 0.32637465
0.10218225 -0.0054912223 0.32639369
0.11389536 -0.0054975287 0.32637295
0.11414651 -0.0055015162 0.32625818
0.11432037 -0.0055056047 0.3261393
0.091112107 -0.0052205408 0.32612389
0.091341682 -0.0052191578 0.32616812
0.091648079 -0.0052172132 0.32623014
0.091954142 -0.0052158237 0.32627565
0.09226016 -0.0052142828 0.32632568
0.092566967 -0.0052137184 0.3263467
0.092873968 -0.0052138111 0.32634825
0.093180858 -0.0052135331 0.32636082
0.093449198 -0.0052136425 0.32636127
0.093717888 -0.0052137743 0.32636112
0.094024859 -0.0052137994 0.32636464
0.094332486 -0.0052143126 0.32635373
0.094640695 -0.0052151131 0.3263343
0.094947733 -0.0052153403 0.32633185
0.095255449 -0.0052161901 0.3263109
0.095563002 -0.0052164337 0.32630795
0.095871672 -0.0052171159 0.32629204
0.096179247 -0.0052174777 0.3262856
0.096448235 -0.00521807 0.32627177
0.096719071 -0.0052187294 0.32625595
0.097026125 -0.0052190074 0.32625201
0.097333588 -0.0052189818 0.32625705
0.097641073 -0.0052190069 0.32626063
0.097950168 -0.005219453 0.32625166
0.098257102 -0.0052192928 0.32626072
0.098564617 -0.0052194363 0.32626075
0.098873667 -0.005219731 0.32625633
0.099180698 -0.0052199075 0.32625538
0.099449813 -0.0052198041 0.32626221
0.09972024 -0.0052201995 0.32625425
0.10002706 -0.0052196858 0.32627377
0.10033504 -0.0052197282 0.32627684
0.10064422 -0.0052204272 0.32626039
0.10095041 -0.0052194418 0.32629395
0.10125728 -0.0052191131 0.32630795
0.1015652 -0.0052189697 0.32631651
0.10187154 -0.0052184728 0.32633555
0.10217942 -0.0052181948 0.32634807
0.10244765 -0.0052179229 0.3263599
0.10271561 -0.0052173082 0.32638189
0.11396261 -0.0052224118 0.32638747
0.11412793 -0.0052247015 0.32632184
0.11431091 -0.0052303392 0.32615706
0.091334663 -0.0049460512 0.32614148
0.091641076 -0.0049441541 0.32620198
0.091948077 -0.0049425606 0.3262535
0.09225376 -0.0049415389 0.32628801
0.092560068 -0.004940989 0.32630855
0.092867076 -0.0049411128 0.32630908
0.093174011 -0.0049409838 0.32631713
0.093481347 -0.0049405009 0.32633567
0.093750246 -0.0049408334 0.3263295
0.094018996 -0.0049411929 0.3263225
0.094325975 -0.0049411985 0.32632655
0.094633505 -0.0049413894 0.32632512
0.09494064 -0.004941951 0.32631266
0.095248252 -0.0049424111 0.32630321
0.095557541 -0.0049434779 0.3262758
0.095865257 -0.0049443254 0.32625484
0.09617281 -0.0049445839 0.32625142
0.096480809 -0.0049446737 0.32625294
0.096749865 -0.0049449215 0.3262493
0.09701883 -0.004944928 0.32625279
0.097328052 -0.0049457592 0.32623237
0.097636111 -0.0049460512 0.32622793
0.097942993 -0.0049457033 0.32624245
0.098249942 -0.0049456581 0.32624802
0.098559059 -0.0049461527 0.32623759
0.0988677 -0.0049467143 0.32622516
0.099174567 -0.0049463329 0.32624069
0.099444889 -0.0049469508 0.32622606
0.099714175 -0.0049468563 0.32623255
0.10002212 -0.0049467948 0.32623857
0.10033016 -0.004947003 0.32623664
0.10063748 -0.0049464866 0.32625619
0.10094543 -0.0049463743 0.32626373
0.10125232 -0.0049461108 0.32627577
0.10155916 -0.0049456619 0.32629332
0.10186599 -0.004945213 0.32631084
0.10217169 -0.0049442593 0.32634336
0.10247967 -0.0049442649 0.32634741
0.10274768 -0.0049438276 0.32636404
0.10301636 -0.0049433741 0.32638124
0.10328539 -0.0049429988 0.32639605
0.11395326 -0.0049479585 0.32639518
0.11412212 -0.0049509206 0.32630959
0.11434485 -0.0049568983 0.32613522
0.091634855 -0.0046723504 0.32613391
0.09194123 -0.0046703331 0.32619792
0.092247993 -0.0046696123 0.32622343
0.092555329 -0.0046691103 0.32624248
0.092861682 -0.0046687094 0.32625851
0.093168184 -0.0046688137 0.32625952
0.093476266 -0.0046691699 0.32625312
0.093783282 -0.0046693082 0.32625315
0.094051577 -0.0046692728 0.3262578
0.094321281 -0.004669474 0.3262555
0.094628185 -0.0046692416 0.32626653
0.094935864 -0.0046699182 0.32625058
0.095243394 -0.0046701236 0.32624862
0.09555158 -0.0046708169 0.32623219
0.095859051 -0.0046708202 0.32623625
0.096166596 -0.0046710591 0.3262333
0.09647426 -0.0046717189 0.32621783
0.096781723 -0.0046717059 0.32622239
0.097051412 -0.004671833 0.32622221
0.097322002 -0.0046727974 0.32619727
0.097630516 -0.0046729017 0.32619834
0.097938031 -0.0046730563 0.32619786
0.098245509 -0.0046730768 0.32620141
0.098552942 -0.0046729287 0.32620996
0.098861568 -0.004673454 0.32619852
0.099170066 -0.0046735243 0.3262006
0.099478073 -0.0046736454 0.32620114
0.099746309 -0.0046733916 0.32621229
0.10001654 -0.0046736766 0.32620746
0.10032393 -0.0046733934 0.32622001
0.10063355 -0.0046738852 0.3262096
0.10093983 -0.0046732486 0.32623261
0.10124774 -0.0046730163 0.32624367
0.1015546 -0.0046726326 0.3262592
0.10186028 -0.0046716589 0.32629222
0.10216715 -0.0046712914 0.32630724
0.10247568 -0.0046714633 0.32630631
0.10278091 -0.0046706246 0.32633531
0.10304902 -0.0046699722 0.32635829
0.10331809 -0.0046697129 0.32636964
0.10362709 -0.0046697836 0.3263717
0.10381741 -0.0046692337 0.32639056
0.11410906 -0.0046755429 0.32634196
0.09170416 -0.0044011166 0.32611459
0.091934413 -0.0044003343 0.32614088
0.092241064 -0.0043992409 0.32617742
0.092548251 -0.0043982654 0.32621041
0.092855275 -0.0043984517 0.32620898
0.093162172 -0.0043981662 0.3262215
0.093468443 -0.0043974766 0.32624602
0.093775891 -0.0043973764 0.32625306
0.094083585 -0.0043981182 0.32623512
0.094352268 -0.004397688 0.32625145
0.094621614 -0.0043983636 0.32623497
0.094929203 -0.0043987688 0.32622701
0.095236748 -0.0043990053 0.32622406
0.095545463 -0.0043998314 0.32620364
0.095853642 -0.0044005224 0.32618719
0.096161179 -0.0044007255 0.32618526
0.096469283 -0.0044011646 0.32617632
0.096776694 -0.0044009467 0.32618684
0.097045869 -0.0044016279 0.32617021
0.097316414 -0.0044018487 0.32616723
0.0976239 -0.0044019003 0.32616976
0.097932428 -0.0044020694 0.32616884
0.098240525 -0.0044024917 0.32616037
0.098548539 -0.0044026272 0.32616043
0.09885709 -0.004402881 0.32615697
0.099165618 -0.0044030505 0.32615602
0.099473037 -0.0044028657 0.32616559
0.099781126 -0.004403254 0.32615817
0.10005075 -0.0044032228 0.32616267
0.10031942 -0.0044026915 0.32618198
0.10062733 -0.0044024913 0.32619202
0.10093418 -0.0044020712 0.32620853
0.10124215 -0.0044020386 0.3262136
0.1015479 -0.0044012815 0.32624009
0.1018569 -0.0044013835 0.32624117
0.10216267 -0.004400677 0.3262662
0.10247006 -0.0044004088 0.32627821
0.10277746 -0.0044001401 0.32629028
0.10308371 -0.0043994002 0.3263163
0.10335404 -0.0043994193 0.32631931
0.10362099 -0.0043987539 0.32634258
0.10392939 -0.0043985024 0.32635415
0.10423459 -0.0043975599 0.32638615
0.10446501 -0.0043973671 0.32639495
0.1141459 -0.0044048028 0.32630247
0.11436234 -0.004306172 0.32614768
0.091651738 -0.0039855419 0.32611939
0.091923594 -0.0040885038 0.32614377
0.092230432 -0.0040880204 0.32616228
0.092538007 -0.0040883874 0.3261556
0.092844889 -0.0040880297 0.32617036
0.093151785 -0.0040877988 0.32618141
0.093459435 -0.0040875343 0.32619345
0.093766496 -0.0040878337 0.32618874
0.094073929 -0.0040877284 0.32619601
0.094364479 -0.0040730885 0.32619506
0.094628915 -0.0041027009 0.32619873
0.094919778 -0.004088298 0.32619068
0.09522754 -0.004088412 0.32619148
0.095534898 -0.0040888707 0.32618204
0.095843554 -0.0040894994 0.32616758
0.096151419 -0.0040899836 0.32615742
0.096459165 -0.0040900391 0.32615995
0.096767277 -0.0040905238 0.32614976
0.097075656 -0.0040910337 0.32613882
0.097367205 -0.0040764287 0.32613686
0.097632572 -0.0041062594 0.32613391
0.097922668 -0.0040913168 0.32614195
0.098231584 -0.0040919865 0.32612631
0.098540716 -0.0040925299 0.32611436
0.098847792 -0.0040920209 0.32613364
0.099155538 -0.0040920931 0.32613567
0.099464409 -0.0040926035 0.32612473
0.099771544 -0.0040923217 0.32613727
0.1000786 -0.0040917462 0.32615858
0.10036963 -0.0040768064 0.3261666
0.10063524 -0.0041065174 0.32616708
0.10092523 -0.0040915739 0.32617521
0.10123363 -0.0040913178 0.32618698
0.10154045 -0.0040908176 0.32620603
0.10184651 -0.0040902244 0.32622781
0.10215389 -0.0040899264 0.32624084
0.10246152 -0.0040896032 0.32625461
0.10276839 -0.0040892628 0.32626894
0.10307522 -0.0040887622 0.32628793
0.1033662 -0.0040737968 0.32629678
0.10362988 -0.0041027633 0.32631925
0.10392059 -0.004087748 0.32632953
0.10422684 -0.0040869615 0.32635707
0.10451662 -0.0040716422 0.32637644
0.10472164 -0.003982293 0.32639545
0.11417681 -0.0040940312 0.32628274
0.091490418 -0.0037787231 0.32611948
0.09168224 -0.0037781771 0.32613838
0.091950715 -0.0037775969 0.32615936
0.092219353 -0.0037770388 0.32617968
0.092526637 -0.0037763745 0.3262037
0.092833519 -0.003776063 0.32621723
0.093140401 -0.0037757684 0.32623026
0.093447998 -0.003776181 0.32622233
0.093754955 -0.0037761224 0.32622835
0.09406174 -0.0037755081 0.32625091
0.094369508 -0.003776493 0.32622594
0.094676554 -0.0037767712 0.326222
0.094985232 -0.0037774364 0.32620656
0.095255196 -0.0037779845 0.32619405
0.095523901 -0.0037782008 0.3261914
0.095832065 -0.003778866 0.32617593
0.096138962 -0.0037785885 0.3261885
0.096447006 -0.003778833 0.32618555
0.096755713 -0.0037796497 0.32616562
0.097063795 -0.003780012 0.32615918
0.097372435 -0.0037805932 0.32614625
0.097680442 -0.0037807196 0.32614678
0.09794984 -0.0037810039 0.32614213
0.098220021 -0.003781097 0.32614315
0.098528087 -0.0037814593 0.32613671
0.098837212 -0.0037819732 0.32612574
0.099144615 -0.0037817294 0.3261373
0.099453188 -0.0037820579 0.32613185
0.099760577 -0.0037817806 0.3261444
0.10006802 -0.0037816712 0.32615194
0.10037594 -0.0037815114 0.326161
0.1006839 -0.00378147 0.32616654
0.10095292 -0.0037810579 0.32618251
0.10122222 -0.0037810388 0.32618687
0.1015301 -0.0037807277 0.3262004
0.1018375 -0.0037804837 0.32621193
0.10214543 -0.0037802903 0.326222
0.10245234 -0.0037800968 0.32623202
0.10275973 -0.0037798027 0.32624504
0.10306598 -0.0037790872 0.32627058
0.1033733 -0.0037785233 0.32629162
0.10368013 -0.0037780439 0.32631016
0.10394686 -0.003777205 0.3263388
0.10421631 -0.0037771242 0.32634494
0.10452146 -0.0037760383 0.32638144
0.10475232 -0.0037756325 0.3263967
0.11399914 -0.0037812144 0.32636034
0.1141794 -0.0037866936 0.32620022
0.11435169 -0.003790017 0.32610399
0.09148322 -0.0035719115 0.3261084
0.091674916 -0.0035709462 0.32613978
0.091981664 -0.003570166 0.32616732
0.092250228 -0.0035687911 0.32621196
0.092518508 -0.0035681231 0.32623559
0.092824891 -0.0035678314 0.32624862
0.09313187 -0.0035678258 0.32625318
0.093438834 -0.0035678199 0.32625771
0.093746357 -0.0035679825 0.32625726
0.094053954 -0.0035683978 0.3262493
0.094362073 -0.0035689143 0.32623836
0.094669119 -0.0035691781 0.32623491
0.094976708 -0.0035695764 0.32622746
0.095245637 -0.0035699916 0.32621896
0.095516421 -0.0035704463 0.32620931
0.095823497 -0.0035708279 0.32620233
0.096131071 -0.0035711592 0.32619691
0.096439667 -0.0035715743 0.32618898
0.096747696 -0.0035717878 0.32618701
0.097056448 -0.003572742 0.32616311
0.097363904 -0.0035726691 0.32616964
0.097672522 -0.0035731853 0.3261587
0.097980633 -0.0035736682 0.32614875
0.098249674 -0.0035733031 0.32616344
0.0985201 -0.0035737131 0.3261551
0.098828159 -0.0035740107 0.32615066
0.099136755 -0.0035744258 0.32614273
0.099444211 -0.0035743697 0.32614875
0.099751651 -0.0035742633 0.32615629
0.10005952 -0.0035739378 0.32617033
0.1003675 -0.003573949 0.32617438
0.1006755 -0.0035740277 0.32617643
0.10098395 -0.0035739886 0.32618198
0.10125285 -0.0035737192 0.32619381
0.10152125 -0.0035734442 0.32620579
0.10182855 -0.0035728831 0.32622683
0.10213703 -0.0035728943 0.32623088
0.10244282 -0.0035722824 0.32625341
0.10275189 -0.0035726302 0.32624745
0.10305811 -0.003571783 0.32627699
0.10336547 -0.0035713564 0.32629403
0.10367287 -0.0035711487 0.32630455
0.10398019 -0.0035706211 0.32632458
0.10424747 -0.0035699813 0.32634741
0.10451522 -0.0035692009 0.32637435
0.10474506 -0.0035687294 0.32639164
0.10501301 -0.0035686339 0.32639828
0.11391602 -0.0035748491 0.32634053
0.11404368 -0.0035771236 0.32627481
0.091699101 -0.0031577796 0.32612646
0.091967098 -0.003156729 0.32616162
0.092274264 -0.0031556846 0.32619715
0.092581116 -0.0031552969 0.32621318
0.09284953 -0.0031550936 0.32622313
0.093118586 -0.0031553674 0.32621896
0.093425557 -0.00315535 0.32622403
0.093733087 -0.0031555851 0.32622159
0.09404061 -0.0031557363 0.32622162
0.094347671 -0.0031560555 0.32621664
0.094655283 -0.0031565265 0.32620719
0.094962731 -0.0031564587 0.32621372
0.095270291 -0.0031567612 0.32620931
0.095578916 -0.0031572997 0.32619783
0.095847428 -0.0031579603 0.32618216
0.096118219 -0.0031585153 0.32616973
0.096426263 -0.0031587675 0.32616675
0.096734427 -0.0031594066 0.32615232
0.097042449 -0.0031595747 0.32615188
0.097351111 -0.0031602643 0.32613593
0.09765853 -0.0031600618 0.32614648
0.097967118 -0.0031604825 0.32613856
0.098275736 -0.0031609873 0.3261281
0.098582588 -0.0031605826 0.32614464
0.098853528 -0.0031615917 0.32611868
0.099123374 -0.0031617144 0.32611901
0.099431902 -0.003161916 0.32611755
0.099739894 -0.0031619996 0.3261196
0.10004781 -0.0031618141 0.32612967
0.10035512 -0.0031612581 0.32615069
0.10066316 -0.0031614765 0.32614875
0.10097108 -0.0031613247 0.32615778
0.10127904 -0.0031612907 0.32616335
0.10154695 -0.003160526 0.32618999
0.10181683 -0.0031607384 0.32618764
0.10212419 -0.003160384 0.32620269
0.10243271 -0.0031605524 0.32620224
0.10273899 -0.0031599118 0.32622576
0.10304637 -0.003159625 0.32623881
0.10335371 -0.0031591365 0.32625782
0.10366105 -0.0031587319 0.32627437
0.10396843 -0.0031583779 0.32628942
0.10427418 -0.0031576534 0.3263154
0.10458092 -0.0031568783 0.32634294
0.10484943 -0.0031564394 0.3263599
0.10511763 -0.0031560564 0.32637525
0.10534747 -0.0031555889 0.3263925
0.11366092 -0.0031598702 0.32638785
0.11386453 -0.0031620241 0.32632691
0.11412098 -0.0031670155 0.32618248
0.091772631 -0.002892592 0.32610929
0.091963239 -0.002891324 0.32614967
0.092270479 -0.0028905286 0.32617769
0.092577346 -0.0028901706 0.32619271
0.092884712 -0.0028898295 0.32620725
0.093153037 -0.0028899035 0.32620892
0.093422227 -0.0028900283 0.32620907
0.093729272 -0.0028903098 0.32620513
0.094036847 -0.0028906423 0.32619968
0.094344266 -0.0028904865 0.32620871
0.094651803 -0.0028907177 0.32620627
0.094959982 -0.0028914039 0.32619032
0.095267557 -0.0028917361 0.32618487
0.095575675 -0.0028922372 0.32617444
0.095883198 -0.0028924346 0.32617301
0.09615308 -0.0028932495 0.32615265
0.096423522 -0.0028936942 0.32614335
0.096730471 -0.0028936225 0.32614991
0.097039714 -0.002894561 0.32612646
0.097347841 -0.0028950956 0.32611504
0.097655758 -0.0028949061 0.32612509
0.097964272 -0.0028950199 0.32612616
0.09827292 -0.0028956556 0.3261117
0.098580867 -0.0028955501 0.32611924
0.098851658 -0.0028960789 0.32610744
0.099120453 -0.0028960183 0.3261131
0.099429026 -0.0028963846 0.32610667
0.099698365 -0.002896453 0.32610849
0.10004497 -0.0028963762 0.32611579
0.10035287 -0.0028961194 0.3261278
0.10066137 -0.0028962498 0.32612836
0.10096822 -0.0028958076 0.32614589
0.10127665 -0.0028957191 0.32615298
0.10158356 -0.0028954456 0.3261655
0.1018531 -0.002895138 0.32617849
0.10212298 -0.0028953748 0.32617533
0.10243035 -0.0028950169 0.32619035
0.1027372 -0.0028945915 0.3262074
0.10304617 -0.0028946381 0.32621044
0.10335353 -0.0028942297 0.32622701
0.10366087 -0.002893754 0.32624552
0.10396768 -0.0028932276 0.32626557
0.10427397 -0.0028926339 0.32628757
0.10457962 -0.0028915349 0.32632458
0.10484835 -0.0028912332 0.32633743
0.10511578 -0.0028905382 0.32636186
0.10542318 -0.0028902979 0.32637343
0.10573058 -0.0028900243 0.32638597
0.11385992 -0.0028954707 0.32634103
0.1141158 -0.0029002903 0.32620168
0.092037886 -0.0026237033 0.32610446
0.092267543 -0.0026226065 0.32614022
0.092575759 -0.002623423 0.32612032
0.092882581 -0.0026229091 0.32613984
0.093151204 -0.0026228447 0.3261455
0.093419999 -0.0026227972 0.32615066
0.093727477 -0.0026228223 0.32615423
0.094034329 -0.0026224263 0.32617024
0.09434244 -0.0026228724 0.3261613
0.094649471 -0.0026230658 0.32615983
0.094957523 -0.0026233601 0.32615539
0.095265552 -0.0026235199 0.32615495
0.095573559 -0.0026236628 0.32615501
0.095880672 -0.0026241424 0.32614505
0.096151523 -0.0026248246 0.3261286
0.096420407 -0.0026250912 0.32612443
0.096728414 -0.0026252344 0.32612446
0.097037055 -0.0026257983 0.32611203
0.097345121 -0.0026261094 0.32610708
0.097614445 -0.0026261688 0.32610908
0.098577648 -0.0026265807 0.3261103
0.098847874 -0.0026268754 0.32610533
0.099503279 -0.0026273127 0.32610148
0.099733762 -0.0026273103 0.32610479
0.10004166 -0.0026270491 0.32611686
0.10035124 -0.0026274449 0.32610941
0.10065869 -0.002627352 0.32611644
0.10096716 -0.0026273266 0.32612151
0.10127451 -0.0026269138 0.32613805
0.10158191 -0.0026266866 0.32614908
0.10185078 -0.0026263192 0.32616377
0.10212132 -0.0026265581 0.32616043
0.1024287 -0.0026262295 0.3261745
0.1027356 -0.0026259683 0.32618654
0.10304292 -0.0026254712 0.32620555
0.10335085 -0.0026252775 0.32621562
0.10365821 -0.0026248985 0.32623112
0.10396604 -0.0026244186 0.32624966
0.10427341 -0.0026240731 0.3262642
0.10457911 -0.002623172 0.32629523
0.10488485 -0.0026223888 0.32632273
0.10515392 -0.0026221222 0.32633442
0.10542101 -0.0026213673 0.32636058
0.10572833 -0.0026208535 0.32638007
0.10595769 -0.0026204472 0.32639533
0.11393571 -0.0026263488 0.3263315
0.11415174 -0.0026310245 0.32619572
0.092571825 -0.0023533702 0.32612133
0.092879847 -0.0023535257 0.32612088
0.093147367 -0.0023531152 0.32613671
0.093417421 -0.002353945 0.3261157
0.093737006 -0.002354332 0.32610855
0.094032377 -0.0023539863 0.32612282
0.094339892 -0.002354125 0.32612285
0.094647922 -0.0023542806 0.3261224
0.094955482 -0.0023546042 0.32611698
0.095263496 -0.0023547262 0.32611752
0.095571071 -0.0023550666 0.32611158
0.095802099 -0.0023552463 0.32610935
0.096225172 -0.0023556012 0.32610458
0.096379839 -0.00235562 0.3261061
0.10065637 -0.0023575565 0.32610655
0.1009649 -0.002357729 0.32610559
0.10135037 -0.0023577425 0.32611042
0.1015813 -0.0023575854 0.3261182
0.10184983 -0.0023572089 0.32613304
0.10212012 -0.002357163 0.32613805
0.10242695 -0.0023566619 0.32615709
0.10273386 -0.0023564131 0.32616863
0.10304222 -0.0023560466 0.32618368
0.10335125 -0.0023562191 0.32618275
0.10365753 -0.002355583 0.32620579
0.10396427 -0.0023547788 0.3262338
0.10427056 -0.0023541595 0.32625633
0.10457789 -0.0023536752 0.32627487
0.1048836 -0.0023527697 0.3263059
0.10515288 -0.0023526512 0.32631305
0.10542031 -0.0023519262 0.3263382
0.10572708 -0.0023512566 0.32636225
0.10595591 -0.0023507287 0.326381
0.11389165 -0.0023555369 0.32634577
0.11410804 -0.0023603446 0.32620597
0.10138565 -0.0020882934 0.32610241
0.10157906 -0.0020880448 0.32611233
0.10213235 -0.0020886434 0.32610181
0.10242762 -0.0020884904 0.32611024
0.10274943 -0.0019724302 0.32612935
0.10304026 -0.0019527066 0.32614687
0.10334927 -0.0019527716 0.32614893
0.10365686 -0.0019523564 0.32616523
0.10396364 -0.0019516805 0.32618928
0.10427015 -0.0019509371 0.3262153
0.10457639 -0.0019501429 0.3262428
0.10486624 -0.0019304637 0.32625893
0.10513039 -0.001968594 0.32627407
0.10541987 -0.0019486118 0.32629919
0.10572584 -0.0019477252 0.32632944
0.10603242 -0.001947226 0.32634825
0.10632081 -0.0019269243 0.32638279
0.10652893 -0.0018109216 0.32639796
0.11388963 -0.0019511579 0.32633314
0.1141289 -0.001982728 0.32619998
0.10303836 -0.0015849833 0.32611388
0.10334571 -0.0015845412 0.32613093
0.10365248 -0.0015838803 0.32615447
0.10396095 -0.0015838086 0.32616052
0.10426608 -0.0015826591 0.32619855
0.10457452 -0.0015825033 0.3262071
0.10488078 -0.0015818086 0.32623163
0.10514931 -0.0015813964 0.32624727
0.10541796 -0.0015808498 0.32626694
0.10572313 -0.0015798013 0.32630196
0.10602988 -0.001579056 0.32632798
0.10633668 -0.0015784287 0.32635051
0.10664186 -0.0015774308 0.32638407
0.10687228 -0.001577217 0.32639331
0.11388769 -0.0015827465 0.32631874
0.11410269 -0.0015873357 0.32618529
0.093248948 -0.0013728563 0.32611209
0.093364008 -0.0013730708 0.32610723
0.10311149 -0.0013773842 0.32610708
0.10334179 -0.001376769 0.32612833
0.10365018 -0.0013764655 0.32614139
0.1039575 -0.0013759767 0.32615992
0.10426372 -0.0013750666 0.32619095
0.10456995 -0.0013742746 0.32621849
0.10487738 -0.0013740888 0.32622802
0.10518523 -0.0013737009 0.32624358
0.10545226 -0.0013727531 0.32627523
0.10572076 -0.0013722263 0.32629439
0.10602866 -0.0013719732 0.32630593
0.10633224 -0.0013706419 0.32634944
0.10663901 -0.0013699171 0.32637498
0.10686886 -0.0013695379 0.32638925
0.1138508 -0.0013763155 0.32627964
0.11406665 -0.0013809516 0.32614487
0.093245469 -0.0011653076 0.3261041
0.093466938 -0.0011237387 0.3261067
0.093796492 -0.0011655419 0.32610455
0.094053142 -0.0011655501 0.32610777
0.094309837 -0.0011657154 0.32610634
0.094591171 -0.0011658164 0.32610711
0.10279892 -0.0011696138 0.32610497
0.1030459 -0.0010804152 0.32611254
0.10333671 -0.0010652521 0.32612601
0.10364461 -0.0010649707 0.32613859
0.10395109 -0.001064142 0.32616737
0.10425821 -0.0010637849 0.32618216
0.10456659 -0.0010634869 0.32619518
0.10487258 -0.0010626919 0.32622299
0.10517937 -0.0010620739 0.32624555
0.10546914 -0.0010466829 0.32626581
0.1057326 -0.0010757761 0.32628685
0.10602313 -0.0010606139 0.32630035
0.10632858 -0.0010596673 0.32633263
0.10663454 -0.0010588471 0.32636118
0.10692527 -0.0010436729 0.32637507
0.10724881 -0.00095447112 0.32638445
0.10747872 -0.00095421507 0.32639524
0.11328844 -0.00095841312 0.32635093
0.11355863 -0.0010299498 0.32628602
0.11380224 -0.0011198445 0.32618943
0.10367902 -0.00075409148 0.32612062
0.10394913 -0.00075396197 0.3261283
0.10425645 -0.00075346715 0.32614732
0.10456375 -0.00075287162 0.32616937
0.10487062 -0.00075249473 0.3261849
0.10517795 -0.00075203378 0.32620293
0.10544536 -0.00075124722 0.32623008
0.1057146 -0.00075105001 0.32623976
0.10602078 -0.00075001642 0.32627478
0.10632759 -0.00074948807 0.32629478
0.10663439 -0.00074890914 0.32631636
0.10694014 -0.00074812816 0.32634386
0.10724638 -0.00074736396 0.32637089
0.10751599 -0.00074723427 0.32637855
0.11324372 -0.00075039011 0.32636607
0.11353019 -0.00075377023 0.32626981
0.11381833 -0.00075716194 0.32617322
0.10394765 -0.00054670015 0.32610673
0.1042521 -0.00042710145 0.32611099
0.1045591 -0.00042639868 0.32613629
0.10486481 -0.00042547678 0.32616806
0.10517292 -0.00042510242 0.32618362
0.10548027 -0.00042470268 0.32619992
0.10576808 -0.00040659818 0.32623419
0.10603352 -0.00044060368 0.32624307
0.10632182 -0.00042258223 0.32627493
0.10662936 -0.00042197216 0.32629749
0.10693597 -0.00042158068 0.3263135
0.1072416 -0.00042043993 0.32635176
0.10754789 -0.00041982115 0.32637459
0.10785856 -0.00053914293 0.32638791
0.11329208 -0.00040606494 0.32635826
0.11356495 -0.00042704257 0.32624683
0.11376408 -0.00047049299 0.32614377
0.10366065 -4.5750989e-05 0.32610548
0.10393113 -4.5733526e-05 0.32610965
0.10423955 -4.5586028e-05 0.32611823
0.10454467 -4.434376e-05 0.32615924
0.10485368 -4.4465531e-05 0.32615978
0.10515939 -4.3576874e-05 0.32619032
0.10546613 -4.2789266e-05 0.32621783
0.10577244 -4.2220694e-05 0.32623887
0.10607921 -4.1551015e-05 0.32626289
0.10634842 -4.1185489e-05 0.32627738
0.10661686 -4.0488667e-05 0.32630169
0.10692204 -3.9498904e-05 0.32633522
0.10722781 -3.8812228e-05 0.32635975
0.10753355 -3.8007798e-05 0.32638776
0.10781226 -0.00029966593 0.32639423
0.11306629 -4.043337e-05 0.32639062
0.11327003 -4.3017091e-05 0.32631671
0.11356019 -4.7048012e-05 0.32620096
0.10403988 0.00021628314 0.32610485
0.10423083 0.00021641614 0.32611126
0.10453811 0.00021707645 0.32613477
0.10484487 0.00021782098 0.32616079
0.10515218 0.00021836354 0.32618085
0.10545899 0.00021893962 0.32620189
0.10576472 0.00021978526 0.32623088
0.10607148 0.00022051303 0.32625642
0.10637827 0.00022112287 0.32627845
0.10668504 0.00022181694 0.32630301
0.1069511 0.00022268885 0.3263323
0.10721899 0.00022356631 0.32636175
0.10752585 0.00022397412 0.32637781
0.10779527 0.00022415553 0.3263866
0.11302064 0.00022146944 0.32637379
0.11326762 0.00021814578 0.32627827
0.11355847 0.00021403213 0.32615989
0.10426164 0.00047763143 0.3261047
0.10453029 0.00047818432 0.32612437
0.10483648 0.00047915522 0.32615688
0.10514329 0.00047972216 0.32617742
0.10545067 0.00048005325 0.32619098
0.10575747 0.0004806706 0.326213
0.1060626 0.00048184372 0.32625151
0.10637154 0.0004819727 0.32625905
0.10667726 0.00048284279 0.32628858
0.10698298 0.00048376317 0.32631958
0.10725007 0.00048446213 0.32634357
0.10751801 0.00048518897 0.32636839
0.10782539 0.00048553693 0.3263824
0.10801623 0.00048604514 0.3263998
0.1129727 0.00048323729 0.32637632
0.11325814 0.00047997286 0.32628286
0.113551 0.00047529381 0.32614747
0.1040979 0.0007389083 0.3261067
0.10425191 0.00073883351 0.32610622
0.10452228 0.00073919084 0.3261199
0.10482858 0.00073981576 0.32614189
0.10513592 0.00074032275 0.32616046
0.10544267 0.0007410656 0.32618597
0.10575058 0.00074135372 0.32619804
0.10605629 0.00074226479 0.32622856
0.10636091 0.00074346224 0.32626754
0.10666824 0.00074398617 0.32628658
0.10697445 0.00074489723 0.32631713
0.10728128 0.00074543792 0.32633662
0.10755032 0.0007457672 0.32634947
0.1078174 0.00074659049 0.32637694
0.10800923 0.000747137 0.32639533
0.11272745 0.00074536004 0.32639614
0.11292897 0.00074358244 0.32634565
0.11325446 0.00074013241 0.32624695
0.11350715 0.00073602924 0.32612801
0.10428318 0.00098189665 0.32612574
0.10455146 0.00098261202 0.32615006
0.10482144 0.00098262576 0.32615358
0.10512823 0.00098329957 0.32617712
0.10543562 0.00098356954 0.32618865
0.10574242 0.00098415918 0.32620966
0.1060497 0.00098484987 0.32623369
0.10635649 0.00098550692 0.32625675
0.10666171 0.00098639983 0.32628676
0.10697011 0.00098668644 0.32629883
0.10727529 0.00098769716 0.32633233
0.10758049 0.00098864047 0.32636383
0.10785076 0.00098881125 0.32637203
0.10811879 0.00098923477 0.32638767
0.10835021 0.00098942453 0.32639596
0.11248939 0.00098789134 0.32639802
0.11264906 0.00098669308 0.32636428
0.112932 0.00098404614 0.32628894
0.11325752 0.00098047685 0.32618672
0.10399536 0.0012869866 0.32610789
0.10427654 0.0013255586 0.32612428
0.1045668 0.0013423973 0.32614261
0.10483123 0.0013101699 0.32615963
0.10512077 0.001327106 0.32618088
0.10542784 0.0013276674 0.32620138
0.10573439 0.0013282959 0.32622394
0.10604145 0.0013288318 0.3262437
0.10634822 0.0013295192 0.32626799
0.10665531 0.0013299962 0.32628602
0.10696208 0.0013307089 0.32631105
0.10726809 0.0013314637 0.32633731
0.10757463 0.0013320755 0.32635933
0.10788224 0.0013324596 0.32637465
0.10815149 0.0013326989 0.32638511
0.10836209 0.0013900271 0.3263922
0.11213689 0.0013308593 0.32638082
0.1123748 0.0013294151 0.32634097
0.11265256 0.0013278887 0.32629913
0.11293682 0.001324928 0.32621482
0.11320236 0.0012650506 0.32613719
0.10434954 0.0016681073 0.32611012
0.10458051 0.0016681278 0.32611394
0.10484794 0.0016688394 0.32613873
0.10511714 0.0016692199 0.32615376
0.10542336 0.0016700726 0.32618326
0.1057302 0.001670538 0.32620126
0.1060375 0.001671121 0.32622284
0.10634481 0.0016716535 0.32624283
