# .PCD v0.7 - Point Cloud Data file format
VERSION 0.7
FIELDS x y z
SIZE 4 4 4
TYPE F F F
COUNT 1 1 1
WIDTH 1352
HEIGHT 1
VIEWPOINT 0 0 0 1 0 0 0
POINTS 1352
DATA ascii
0.17496724 0.0061555691 0.32228601
0.14981744 0.0064204675 0.32222265
0.15012614 0.0064213672 0.32225421
0.15043509 0.0064214743 0.32226229
0.15074328 0.0064224578 0.32229632
0.15105292 0.0064218077 0.32228193
0.15136032 0.0064237677 0.32234493
0.15166894 0.0064249523 0.32238495
0.15197581 0.00642693 0.32244849
0.15216693 0.0064281551 0.32248786
0.17458019 0.0064157313 0.32247242
0.17474963 0.0064130039 0.32239416
0.17496306 0.0064092577 0.32228634
0.14958127 0.0066740615 0.32222012
0.14985143 0.0066756983 0.32227293
0.15012181 0.0066754557 0.32226995
0.1504311 0.0066743689 0.32224256
0.15073949 0.0066745952 0.32225412
0.15104789 0.0066765398 0.32231665
0.15135594 0.0066779787 0.32236418
0.15166304 0.0066808998 0.32245564
0.17473698 0.0066682738 0.32244197
0.17495573 0.0066633937 0.32230055
0.14896949 0.0070898547 0.32224867
0.14926589 0.0070519899 0.32231462
0.14957422 0.0070533119 0.32235867
0.14986594 0.0070715724 0.32239723
0.15013094 0.00703758 0.32240835
0.15039797 0.0070154597 0.3224332
0.1507332 0.0069344481 0.32240433
0.151042 0.0069350298 0.32242638
0.15131135 0.0069359783 0.32245871
0.17454599 0.0070835184 0.3224586
0.17476119 0.0070584128 0.32239392
0.17495929 0.0069988663 0.32232252
0.14875965 0.0073924847 0.32223129
0.14895125 0.0073954938 0.32232365
0.1492599 0.0073982612 0.32241067
0.1495682 0.0074005397 0.32248321
0.17448784 0.0073868888 0.32247269
0.17477173 0.007384391 0.32240307
0.17498007 0.0073814029 0.32231766
0.14867789 0.0076155202 0.32226759
0.14894827 0.0076192245 0.32238188
0.14921857 0.0076220534 0.32247022
0.17451996 0.0076089888 0.3224898
0.17476302 0.0076069343 0.32243273
0.17496814 0.0076048211 0.3223733
0.14863434 0.0079547865 0.32238293
0.14890669 0.007845006 0.32245088
0.17484395 0.0079057859 0.32246706
0.14843693 0.0082873069 0.32231918
0.14858994 0.0082906391 0.32242063
0.14842607 0.0085470006 0.32229316
0.1485824 0.008552623 0.32246262
0.14849325 0.008826091 0.32245058
0.14840461 0.0090978621 0.32237181
0.14839314 0.0093715405 0.32238117
0.14810669 0.0098875202 0.32222328
0.14834063 0.0097703058 0.32241145
0.14807092 0.010096896 0.32229173
0.14826448 0.010101749 0.3224386
0.14803626 0.010303219 0.32229969
0.14826825 0.010308279 0.32245341
0.14785115 0.010713891 0.32221705
0.14804214 0.010613437 0.3223055
0.1483262 0.01065173 0.32242438
0.15564474 0.010719052 0.32249826
0.15572278 0.0107189 0.32249504
0.16765535 0.010712378 0.32249749
0.16785046 0.010711915 0.32248691
0.16816416 0.010711071 0.32246703
0.1684725 0.010711542 0.3224861
0.16866538 0.010711888 0.32249951
0.14804757 0.010922222 0.32229477
0.14835706 0.010925498 0.32239729
0.1485882 0.010928355 0.32248601
0.15263833 0.010926234 0.32249224
0.15283044 0.010925783 0.32248217
0.1531404 0.010924108 0.32243776
0.15345052 0.010923596 0.32242784
0.15375921 0.010922815 0.32240993
0.15406944 0.010921899 0.32238799
0.1543785 0.010921571 0.32238358
0.15464807 0.010921799 0.32239494
0.15492015 0.010920834 0.32237098
0.15522912 0.010920844 0.32237655
0.15553877 0.010920197 0.32236263
0.15584774 0.010920139 0.32236618
0.15615727 0.010919914 0.32236478
0.15646634 0.010919636 0.32236183
0.15677631 0.010919545 0.32236442
0.15704566 0.010919941 0.32238075
0.15731668 0.010919752 0.32237977
0.15762566 0.010919694 0.32238334
0.15793505 0.010919922 0.32239541
0.15824351 0.010919999 0.32240295
0.15855184 0.010920346 0.32241851
0.15886074 0.010920607 0.32243159
0.15917026 0.010920432 0.32243165
0.15947859 0.010920864 0.32244971
0.15974979 0.010920658 0.32244822
0.16002119 0.010920327 0.32244307
0.16033119 0.010920186 0.3224442
0.1606407 0.010920027 0.32244477
0.16094956 0.01092039 0.3224608
0.16125846 0.01092062 0.32247287
0.16156684 0.010920897 0.32248646
0.1618773 0.01092084 0.32249001
0.16210878 0.010920852 0.32249433
0.16307813 0.010920394 0.32249728
0.16478486 0.010919466 0.32249889
0.16579501 0.010918572 0.32248959
0.16606815 0.01091796 0.32247615
0.16638245 0.010916824 0.32244778
0.1666555 0.010916591 0.32244548
0.16692969 0.010915783 0.32242623
0.16724074 0.010915471 0.32242233
0.16755396 0.010914639 0.32240295
0.16787033 0.010913267 0.32236761
0.16817915 0.010913696 0.32238564
0.16844939 0.010913957 0.32239801
0.16871881 0.010914644 0.32242301
0.16902335 0.010916069 0.32247049
0.16921508 0.010916916 0.32249889
0.14812416 0.011147026 0.32224584
0.14835283 0.01127447 0.32230473
0.14866482 0.011153037 0.32243359
0.14893448 0.011154625 0.32248545
0.15168799 0.011258572 0.32242295
0.15198049 0.011274976 0.32238221
0.15225208 0.011273396 0.32234004
0.15252329 0.01127203 0.32230416
0.15281665 0.011252944 0.32227537
0.15314496 0.011145584 0.32229018
0.15345535 0.011144126 0.32225227
0.15376516 0.011142937 0.32222238
0.15407524 0.011142506 0.32221496
0.15430781 0.011142213 0.32221028
0.15713304 0.011140225 0.32220036
0.15732649 0.011140311 0.32220626
0.15763605 0.01114005 0.32220384
0.15794653 0.011139954 0.32220644
0.15833294 0.011140061 0.32221627
0.15856543 0.011140002 0.32221857
0.15887491 0.011139958 0.32222265
0.1591838 0.011140184 0.32223472
0.15945399 0.01114061 0.32225206
0.15972407 0.011140756 0.32226107
0.16003513 0.011140408 0.32225615
0.16034515 0.011140247 0.32225674
0.16065571 0.0111399 0.3222518
0.16096453 0.011140361 0.32227087
0.16127333 0.011140924 0.32229292
0.16154574 0.011140559 0.32228681
0.16181621 0.011223729 0.32227379
0.16212618 0.011265038 0.32226205
0.16245326 0.01124695 0.32226369
0.16277254 0.011223324 0.32227829
0.16305742 0.011264683 0.32226759
0.1633673 0.011264926 0.32228014
0.16367729 0.01126485 0.32228324
0.16397035 0.011247433 0.32230416
0.16423771 0.01128249 0.32228366
0.16453014 0.011265002 0.32230246
0.16483954 0.011265229 0.3223145
0.16514997 0.011265338 0.32232311
0.165461 0.01126506 0.32232019
0.16577393 0.011264367 0.32230502
0.16604795 0.011263628 0.3222878
0.16632232 0.011262794 0.32226777
0.16663246 0.011138236 0.32230619
0.16694346 0.011138124 0.32230827
0.16725448 0.011137913 0.32230738
0.16756976 0.011136875 0.32228202
0.16788185 0.011136408 0.32227361
0.16815275 0.011136617 0.32228446
0.16842259 0.011137031 0.32230145
0.16875048 0.011244013 0.32228509
0.16904178 0.011262672 0.32231098
0.16934681 0.011264096 0.32235855
0.16965269 0.011265292 0.32239926
0.16993268 0.01130819 0.32243392
0.17022295 0.011393167 0.32247409
0.14867283 0.011507317 0.32228798
0.14896441 0.011526151 0.3223176
0.1492731 0.011527903 0.32237488
0.14956465 0.011546436 0.32239562
0.14982998 0.011510738 0.32240915
0.15012167 0.011528174 0.32239729
0.15043068 0.011528024 0.32239813
0.15073957 0.011527421 0.32238543
0.15104835 0.011526345 0.32235876
0.15135825 0.01152485 0.3223196
0.15155184 0.011523591 0.32228556
0.170018 0.011636958 0.32222125
0.17028166 0.011639126 0.32229
0.17058024 0.011642121 0.32238391
0.17083953 0.011645007 0.32247394
0.17465295 0.011643174 0.32248381
0.17095144 0.011887472 0.32220098
0.17113253 0.011890462 0.32229275
0.17142692 0.01189415 0.3224071
0.17160851 0.011897157 0.32249936
0.17421675 0.011895326 0.32248825
0.1743834 0.011893099 0.32242495
0.14995252 -0.012689713 0.32252878
0.15018266 -0.012688613 0.32256505
0.15045272 -0.012688304 0.3225784
0.15060608 -0.012688491 0.32257527
0.14932904 -0.012448989 0.32255393
0.14955971 -0.012446206 0.32264015
0.14986727 -0.012443135 0.32273614
0.15013719 -0.012441806 0.3227798
0.15044367 -0.012441328 0.32279885
0.15082973 -0.012441674 0.32279468
0.1509832 -0.012442176 0.32278219
0.17425886 -0.012454047 0.32279694
0.14897686 -0.01220766 0.322597
0.14924631 -0.012203583 0.32272226
0.1484237 -0.011731068 0.32252675
0.14864504 -0.01180781 0.32263848
0.14887317 -0.011904363 0.32275864
0.15324315 -0.01196773 0.32273811
0.15347579 -0.011969967 0.32267547
0.15374725 -0.011971665 0.32262954
0.15407205 -0.011911087 0.3226437
0.15433802 -0.011867697 0.322658
0.15462938 -0.011850694 0.32265627
0.15493791 -0.011850887 0.32265559
0.15524617 -0.011851055 0.32265565
0.15555456 -0.011850769 0.32266918
0.15586221 -0.011850634 0.32267824
0.15617043 -0.011850591 0.3226845
0.15646137 -0.011833056 0.32269859
0.15674871 -0.011850909 0.32268453
0.15703396 -0.011891889 0.32266548
0.15732275 -0.011868441 0.32268468
0.15763563 -0.011851017 0.32269576
0.15794465 -0.011851178 0.32269609
0.15822999 -0.011892449 0.32266831
0.15856187 -0.011851303 0.32270247
0.15887971 -0.011975126 0.32261002
0.15912561 -0.011913218 0.32266277
0.15941957 -0.011974888 0.32262588
0.15972856 -0.011974971 0.32262844
0.16003701 -0.011974918 0.32263499
0.16034648 -0.011974967 0.32263854
0.16065489 -0.011974746 0.3226501
0.16096392 -0.011974964 0.32264864
0.1612729 -0.011975013 0.32265222
0.16158235 -0.011974979 0.32265827
0.16185126 -0.011974759 0.32266912
0.16212277 -0.011974907 0.32266915
0.16243234 -0.011975192 0.32266569
0.16274129 -0.011975156 0.32267177
0.1630519 -0.011975711 0.32266033
0.16336192 -0.011975879 0.32266045
0.16367418 -0.011976855 0.32263654
0.16394575 -0.011977204 0.32263055
0.16421671 -0.011977206 0.32263491
0.16456059 -0.011928225 0.32266355
0.16485626 -0.011928556 0.32265848
0.16513646 -0.01185495 0.32270157
0.16544755 -0.011855431 0.32269242
0.16575758 -0.011855667 0.32269049
0.16606843 -0.011856122 0.32268208
0.16636112 -0.011838922 0.32268637
0.16665128 -0.011856703 0.32267433
0.16693987 -0.011874052 0.32267508
0.16723116 -0.0118565 0.32268983
0.16754031 -0.011856213 0.32270342
0.16783175 -0.011929356 0.32268313
0.16816801 -0.011978013 0.32267502
0.16847798 -0.01197808 0.32267812
0.1687842 -0.011977185 0.32270962
0.16905154 -0.011976202 0.32274309
0.16931856 -0.011975193 0.32277739
0.14838083 -0.011485311 0.32258338
0.14861307 -0.011479434 0.3227616
0.14837739 -0.011231795 0.32263234
0.14857045 -0.011226965 0.32277867
0.14818123 -0.010983249 0.32253739
0.14837435 -0.010978599 0.32267824
0.14836966 -0.010728078 0.32263917
0.1483811 -0.010369822 0.32262665
0.14855817 -0.010347811 0.3227531
0.14863057 -0.0099852243 0.32267976
0.14878169 -0.0097509762 0.32251471
0.14885807 -0.0097455299 0.3226774
0.14873993 -0.0095112054 0.32252437
0.14897157 -0.0095066782 0.32266212
0.14877459 -0.0091509996 0.32254177
0.14896725 -0.0091464389 0.32268015
0.14916016 -0.0091428533 0.32278949
0.16669631 -0.0091279894 0.32279283
0.16695386 -0.0091523305 0.32278419
0.16726464 -0.0091526248 0.32278025
0.16757411 -0.0091526061 0.32278556
0.16785985 -0.0090808468 0.3227908
0.16807562 -0.0090328781 0.32279855
0.1489621 -0.0087896753 0.32263935
0.14919284 -0.008785462 0.32276803
0.16644344 -0.008794019 0.3227925
0.16663857 -0.0087945815 0.32277894
0.16694912 -0.0087948488 0.32277602
0.16726074 -0.0087953685 0.32276562
0.16757075 -0.008795552 0.32276523
0.16788127 -0.0087956833 0.3227663
0.16811161 -0.0087952428 0.32278308
0.14872396 -0.0085586403 0.32254487
0.14895393 -0.0085552493 0.32264906
0.14918593 -0.0085518938 0.32275236
0.16674636 -0.0085598435 0.32279381
0.16694096 -0.0085602524 0.32278478
0.16725317 -0.0085610375 0.32276636
0.16756159 -0.0085608466 0.32277694
0.16787367 -0.0085612284 0.32277054
0.16818202 -0.0085608512 0.32278657
0.16841447 -0.008560813 0.3227914
0.14875512 -0.0083263135 0.32250953
0.14894727 -0.0083235027 0.32259589
0.14921677 -0.008318495 0.32274866
0.15568465 -0.0083203958 0.32279223
0.15587774 -0.0083207358 0.32278514
0.15618567 -0.008320624 0.32279319
0.15641779 -0.0083211046 0.32278252
0.15664873 -0.0083209462 0.3227908
0.16666119 -0.0083260778 0.32279328
0.16693223 -0.0083263461 0.32278949
0.16724433 -0.0083267586 0.32278207
0.16755438 -0.0083271023 0.32277668
0.16786431 -0.0083269244 0.32278675
0.16817433 -0.008327134 0.32278532
0.16836727 -0.0083269337 0.32279423
0.14902836 -0.0080124373 0.32256338
0.14924474 -0.0079698879 0.32267308
0.14947215 -0.007849643 0.32277626
0.15197369 -0.0078512309 0.3227661
0.1522482 -0.0079699671 0.32271567
0.15255657 -0.0079712141 0.32268324
0.15286477 -0.0079711573 0.32268953
0.15317267 -0.0079710074 0.32269859
0.15346347 -0.0079539753 0.32271275
0.15372883 -0.0079875793 0.32271078
0.15401983 -0.0079709571 0.32271275
0.15432794 -0.0079705874 0.32272828
0.15463597 -0.0079707829 0.32272711
0.15494421 -0.0079708947 0.3227284
0.15525302 -0.0079711899 0.32272422
0.15556157 -0.0079714367 0.32272157
0.1558695 -0.0079713035 0.32273012
0.15617843 -0.0079719536 0.32271543
0.15646921 -0.0079550687 0.32272521
0.15673505 -0.0079884166 0.32273093
0.15702578 -0.0079717766 0.32273334
0.15733445 -0.0079716519 0.32274166
0.15764262 -0.0079714097 0.32275346
0.15795135 -0.007971487 0.32275578
0.15826017 -0.0079717832 0.32275161
0.15856922 -0.0079720635 0.32274792
0.15887713 -0.0079719219 0.32275671
0.15916897 -0.0079551851 0.32276198
0.15943393 -0.0079884036 0.3227717
0.15972483 -0.0079331798 0.32276231
0.16000745 -0.0079330588 0.32277009
0.16034082 -0.0078555616 0.32276118
0.1606504 -0.0078559825 0.32275328
0.16095935 -0.0078558642 0.32276136
0.16126668 -0.0078553753 0.32278037
0.16157562 -0.0078552905 0.32278746
0.16180657 -0.0078551937 0.32279375
0.16200052 -0.0078550912 0.32279968
0.16583174 -0.0078570982 0.3227967
0.16614537 -0.0079743378 0.32279366
0.16636539 -0.0079743965 0.32279518
0.16662963 -0.0079917433 0.32278031
0.16692443 -0.0079755718 0.32276869
0.16723418 -0.0079757255 0.32276872
0.16751988 -0.0080148028 0.3227706
0.16785383 -0.0079756277 0.32278085
0.16815966 -0.0079167355 0.32279724
0.16843812 -0.0080925887 0.32279059
0.14927235 -0.0076209703 0.32262236
0.14950259 -0.0076172785 0.32273522
0.15173483 -0.0076165847 0.32278806
0.15192856 -0.0076191397 0.32271504
0.15223719 -0.007619692 0.32270309
0.15254511 -0.007619503 0.32271314
0.15285254 -0.0076193144 0.32272318
0.15316094 -0.0076191248 0.32273325
0.15346889 -0.0076190876 0.3227388
0.15377772 -0.0076202797 0.32270789
0.15404779 -0.0076206182 0.32270172
0.15431775 -0.0076205805 0.32270676
0.15462582 -0.0076208804 0.32270229
0.15493491 -0.0076212981 0.32269439
0.15524355 -0.0076218839 0.32268146
0.15555254 -0.0076219137 0.32268503
0.15586008 -0.0076221796 0.32268158
0.15616851 -0.0076220408 0.32269013
0.15647823 -0.0076228795 0.32266974
0.15674753 -0.0076228702 0.32267389
0.15701814 -0.0076227263 0.32268208
0.15732655 -0.0076225032 0.32269314
0.15763444 -0.0076222476 0.32270518
0.15794292 -0.0076222774 0.32270876
0.15825248 -0.0076225763 0.32270432
0.15856099 -0.0076227076 0.32270488
0.15886891 -0.0076225186 0.32271492
0.15917793 -0.0076226834 0.32271451
0.15944719 -0.0076225172 0.32272336
0.1597178 -0.0076224627 0.32272884
0.16002575 -0.0076223579 0.32273641
0.16033576 -0.0076225232 0.322736
0.16064367 -0.0076223174 0.32274655
0.16095319 -0.0076224813 0.32274613
0.16126157 -0.0076221582 0.32276016
0.16157001 -0.0076220874 0.32276672
0.1618779 -0.0076217637 0.32278079
0.16214953 -0.0076222993 0.32276881
0.16241942 -0.0076220147 0.32278118
0.16264932 -0.0076217465 0.32279244
0.1651274 -0.0076228301 0.32279605
0.16532147 -0.0076230955 0.32279098
0.16605642 -0.0076231738 0.32279927
0.16648355 -0.0076237437 0.32278851
0.16667911 -0.0076240264 0.32278296
0.16694959 -0.0076240841 0.32278514
0.16710348 -0.0076237032 0.32279867
0.1674915 -0.007623875 0.32279918
0.14934395 -0.0073828115 0.32252431
0.14953627 -0.0073771495 0.32269514
0.14972731 -0.0073739793 0.32279196
0.15149747 -0.0073750578 0.32278556
0.1516531 -0.0073761144 0.32275644
0.15192302 -0.0073770592 0.3227323
0.15223095 -0.0073769549 0.32273984
0.15253893 -0.0073770015 0.32274291
0.15284701 -0.0073773349 0.32273746
0.15315557 -0.0073776348 0.32273304
0.15346366 -0.0073780692 0.32272458
0.15377222 -0.0073783686 0.32272017
0.15408033 -0.0073788371 0.32271069
0.15435113 -0.0073793554 0.32269925
0.15462041 -0.0073792562 0.32270607
0.15492821 -0.0073786802 0.32272762
0.15523814 -0.0073802262 0.32268623
0.15554664 -0.0073803407 0.32268727
0.15585519 -0.0073806406 0.32268286
0.15616374 -0.0073808897 0.32267994
0.15647227 -0.0073810886 0.32267851
0.15678182 -0.0073814048 0.32267356
0.15705076 -0.0073812269 0.32268271
0.15732136 -0.0073816897 0.3226729
0.15762977 -0.0073815011 0.32268298
0.15793814 -0.0073811105 0.32269904
0.15824729 -0.0073816795 0.32268661
0.15855677 -0.0073817605 0.32268867
0.1588652 -0.007381639 0.32269675
0.15917264 -0.0073815519 0.32270378
0.15948108 -0.0073813964 0.32271284
0.15975125 -0.0073815272 0.32271287
0.16002205 -0.007381496 0.3227177
0.16033107 -0.0073816609 0.32271728
0.16064058 -0.0073817926 0.32271785
0.16094899 -0.0073815705 0.3227289
0.16125688 -0.0073812967 0.32274145
0.16156526 -0.0073809912 0.32275501
0.16187368 -0.0073808189 0.32276455
0.16218212 -0.0073807146 0.32277215
0.1624513 -0.0073802788 0.32278895
0.1627225 -0.0073804772 0.32278699
0.16303149 -0.0073805074 0.32279056
0.16322394 -0.0073804189 0.32279596
0.16372794 -0.0073806308 0.32279694
0.16388294 -0.0073806546 0.32279849
0.16616806 -0.0073818117 0.32279718
0.16628411 -0.0073820315 0.32279235
0.14957088 -0.0071386746 0.32255223
0.14983943 -0.0071339011 0.32269788
0.15003255 -0.0071309339 0.32278872
0.15168557 -0.0071314964 0.32279611
0.15191759 -0.0071317013 0.32279342
0.15222511 -0.0071318839 0.32279247
0.15253282 -0.0071326564 0.32277405
0.15284199 -0.0071333284 0.32275862
0.15314998 -0.0071333935 0.32276118
0.15345827 -0.0071344855 0.32273325
0.15376732 -0.00713477 0.32272932
0.15407549 -0.0071354411 0.32271388
0.15438467 -0.0071361633 0.32269695
0.15465431 -0.0071361498 0.32270131
0.15492418 -0.0071364166 0.32269731
0.1552327 -0.0071365158 0.32269886
0.15554179 -0.0071369344 0.32269096
0.1558504 -0.0071373871 0.32268202
0.15615846 -0.0071377046 0.32267708
0.15646741 -0.0071376185 0.32268414
0.15677595 -0.0071378853 0.32268071
0.15708439 -0.0071377992 0.32268775
0.15735517 -0.0071377181 0.32269409
0.15762253 -0.0071367221 0.32272756
0.15793338 -0.0071380674 0.32269219
0.15824185 -0.0071380483 0.32269725
0.15855089 -0.0071382653 0.32269531
0.15885936 -0.0071382294 0.32270086
0.15916896 -0.0071386485 0.32269293
0.15947683 -0.0071383603 0.32270598
0.1597472 -0.0071385875 0.32270318
0.16001736 -0.0071385964 0.32270688
0.16032627 -0.0071384599 0.3227154
0.1606358 -0.0071385927 0.322716
0.16094476 -0.0071386071 0.32272005
0.16125317 -0.0071383696 0.32273161
0.16156219 -0.0071385521 0.32273066
0.16186997 -0.007137944 0.32275322
0.16217846 -0.0071379757 0.32275677
0.16244797 -0.0071375296 0.32277393
0.16271827 -0.0071375216 0.32277814
0.16294917 -0.007137238 0.32278991
0.1633731 -0.0071371356 0.32279912
0.16360511 -0.0071372399 0.32279941
0.14957981 -0.0067986711 0.32253909
0.14983279 -0.0067712795 0.32263485
0.15014033 -0.0067681223 0.3227331
0.15040867 -0.0067664846 0.32278565
0.15202776 -0.0068883887 0.32279617
0.15224417 -0.0068076602 0.3227922
0.15252642 -0.0067683673 0.322761
0.15283523 -0.0067695044 0.32273182
0.15314385 -0.0067700935 0.32271889
0.1534524 -0.0067711128 0.32269323
0.15376069 -0.0067713899 0.3226895
0.15406924 -0.0067716846 0.32268533
0.1543784 -0.0067722993 0.32267168
0.1546488 -0.0067729242 0.32265714
0.15491852 -0.0067728925 0.32266206
0.15522707 -0.0067731533 0.32265887
0.15553567 -0.006773557 0.32265142
0.15584467 -0.0067737172 0.32265121
0.15615328 -0.0067741456 0.32264304
0.15646176 -0.0067742052 0.32264584
0.15677023 -0.0067742551 0.32264891
0.15707931 -0.0067746001 0.32264322
0.15734938 -0.0067745992 0.32264724
0.15761974 -0.0067745368 0.32265308
0.15792854 -0.0067747892 0.32265013
0.15823784 -0.0067751594 0.32264376
0.15854603 -0.0067749908 0.32265326
0.15885447 -0.0067748725 0.32266131
0.15916428 -0.0067752013 0.32265615
0.1594722 -0.0067750658 0.32266468
0.15978146 -0.0067751002 0.32266825
0.16005158 -0.0067750965 0.32267234
0.16032216 -0.0067751464 0.32267487
0.16063058 -0.0067750355 0.32268268
0.16093953 -0.0067749522 0.32268974
0.16124794 -0.0067747487 0.32270029
0.16155694 -0.0067748339 0.32270235
0.16186561 -0.0067746397 0.32271269
0.16217318 -0.006774168 0.3227312
0.16248187 -0.0067739822 0.3227413
0.16275162 -0.0067738076 0.32275042
0.16302168 -0.0067736162 0.32276013
0.16333094 -0.0067737335 0.32276118
0.16363953 -0.006773313 0.32277825
0.16393487 -0.0067328527 0.32278213
0.16425607 -0.0066520404 0.3227827
0.16456452 -0.0066519729 0.32278925
0.16487399 -0.0066519566 0.32279432
0.16514549 -0.0066520572 0.32279536
0.14951777 -0.0064096833 0.32254434
0.14982544 -0.0064069568 0.32262987
0.15013315 -0.0064043994 0.32271037
0.15040131 -0.0064021605 0.32278082
0.15178588 -0.0064023049 0.32279721
0.15198009 -0.0064030783 0.32277712
0.15224987 -0.006404696 0.32273319
0.15252034 -0.0064058304 0.32270354
0.15282971 -0.0064071631 0.32266861
0.1531374 -0.0064079389 0.32265016
0.15344667 -0.0064089512 0.32262474
0.15375499 -0.0064084474 0.32264429
0.15406363 -0.0064090048 0.3226324
0.15437281 -0.006409748 0.32261497
0.15468182 -0.0064098341 0.32261702
0.15495043 -0.0064097778 0.32262269
0.15522188 -0.0064102453 0.32261288
0.15552938 -0.0064103478 0.32261443
0.1558378 -0.006410215 0.32262298
0.15614687 -0.0064105364 0.32261804
0.15645598 -0.0064110435 0.32260764
0.1567656 -0.006411517 0.32259822
0.15707456 -0.0064115021 0.32260326
0.15734555 -0.0064121149 0.32258913
0.15761518 -0.0064120651 0.32259464
0.15792415 -0.0064120675 0.32259917
0.1582332 -0.0064123543 0.32259524
0.15854217 -0.0064123734 0.32259929
0.15885119 -0.0064125098 0.32259989
0.15915954 -0.0064121583 0.32261494
0.159468 -0.0064121094 0.32262099
0.15977696 -0.0064120265 0.32262805
0.16004589 -0.0064119431 0.32263455
0.16031806 -0.0064126067 0.3226189
0.16062756 -0.0064126761 0.32262146
0.16093475 -0.0064117513 0.32265353
0.16124368 -0.0064115846 0.32266307
0.1615532 -0.006411822 0.32266065
0.16186276 -0.006412128 0.32265621
0.16216952 -0.0064113541 0.32268375
0.16247845 -0.0064112041 0.32269281
0.16274874 -0.0064111664 0.32269797
0.16301773 -0.0064107068 0.32271564
0.16332772 -0.0064107757 0.3227182
0.1636361 -0.0064104409 0.32273275
0.16394505 -0.0064103585 0.32273981
0.16425398 -0.0064102425 0.32274789
0.16456288 -0.0064100251 0.32275897
0.16487187 -0.0064100772 0.32276201
0.16518351 -0.0064106691 0.32274911
0.16545285 -0.0064102095 0.32276675
0.16572273 -0.0064098341 0.32278192
0.16599192 -0.0064094476 0.32279745
0.1747338 -0.0064233663 0.32251495
0.14935727 -0.0061712945 0.32254738
0.14955021 -0.0061689257 0.3226206
0.14981896 -0.0061669792 0.32268241
0.15012701 -0.0061655343 0.32272995
0.15035702 -0.0061639566 0.32278019
0.15174197 -0.0061642285 0.32279292
0.15197447 -0.0061659864 0.32274425
0.15228347 -0.0061678747 0.32269281
0.15255386 -0.0061686789 0.32267305
0.15282404 -0.006169972 0.32263872
0.15313393 -0.0061714225 0.32260033
0.15344137 -0.0061713071 0.32260835
0.1537499 -0.0061714952 0.32260743
0.15405832 -0.0061713625 0.32261598
0.15436694 -0.0061718537 0.32260603
0.15467602 -0.0061722603 0.32259861
0.15494603 -0.0061723464 0.32260013
0.15521544 -0.0061721178 0.32261094
0.15552454 -0.0061725578 0.32260251
0.15583307 -0.0061727958 0.32260007
0.15614277 -0.0061735399 0.32258266
0.15645014 -0.0061732228 0.3225967
0.15676028 -0.0061738314 0.32258329
0.15706931 -0.0061740023 0.32258284
0.15737829 -0.0061740726 0.3225854
0.15764837 -0.0061744056 0.32257959
0.1579183 -0.0061743334 0.32258576
0.15822729 -0.0061743697 0.32258934
0.15853684 -0.0061745751 0.32258791
0.15884589 -0.0061748638 0.32258397
0.15915427 -0.0061746142 0.32259601
0.15946378 -0.0061747348 0.32259709
0.1597717 -0.0061745686 0.32260662
0.16008118 -0.0061745886 0.32261071
0.1603507 -0.006174197 0.32262635
0.16061991 -0.0061739236 0.32263851
0.16093056 -0.0061744647 0.32262713
0.1612395 -0.0061743828 0.32263419
0.1615479 -0.0061741164 0.32264671
0.16185792 -0.0061743213 0.32264531
0.16216525 -0.0061738691 0.32266334
0.1624742 -0.0061737876 0.3226704
0.16278313 -0.0061736554 0.32267895
0.16305214 -0.00617318 0.3226971
0.16332348 -0.006173294 0.32269782
0.16363293 -0.0061732125 0.32270488
0.16394134 -0.0061730463 0.32271442
0.1642497 -0.0061726789 0.32272997
0.16455862 -0.0061724959 0.32274002
0.16486862 -0.006172617 0.32274109
0.16517864 -0.0061728219 0.32273966
0.16544835 -0.0061724694 0.32275417
0.16571951 -0.0061725443 0.32275605
0.16602845 -0.0061724968 0.32276207
0.16633573 -0.0061718086 0.32278711
0.16660672 -0.0061718612 0.32278964
0.17452514 -0.0061759623 0.32278681
0.17476015 -0.0061816829 0.32262057
0.14932482 -0.00584416 0.32254222
0.14956221 -0.0058341897 0.32264355
0.14985056 -0.0059321164 0.32271338
0.15012008 -0.005931125 0.32274687
0.15035021 -0.0059299693 0.32278463
0.15173632 -0.0059307488 0.32278237
0.15198265 -0.0058346023 0.32266781
0.15227525 -0.0058205216 0.32259482
0.15256754 -0.005804847 0.32256916
0.15283291 -0.0058386768 0.32255974
0.15312441 -0.0058221603 0.322559
0.15343292 -0.0058223484 0.32255808
0.15374115 -0.0058223186 0.32256362
0.15404998 -0.0058227591 0.32255518
0.15435879 -0.0058230488 0.32255125
0.15466695 -0.0058227908 0.32256356
0.15497553 -0.0058231903 0.32255635
0.15526745 -0.0058064139 0.32256338
0.15553269 -0.00583984 0.32256588
0.15582418 -0.0058231531 0.32257023
0.15613329 -0.0058236616 0.3225598
0.15644267 -0.0058242208 0.32254791
0.15675138 -0.0058241226 0.32255548
0.15706015 -0.0058243279 0.32255402
0.15736936 -0.0058243321 0.32255858
0.15767781 -0.0058242511 0.32256564
0.15794908 -0.0058246576 0.32255766
0.15821922 -0.0058249678 0.32255253
0.15852843 -0.0058249636 0.32255733
0.15883662 -0.0058248485 0.32256538
0.15914612 -0.0058249114 0.32256821
0.15945399 -0.0058245524 0.3225835
0.15976349 -0.0058246991 0.32258379
0.16007102 -0.0058240788 0.32260683
0.16038001 -0.0058241328 0.3226099
0.16065031 -0.0058241631 0.32261309
0.1609215 -0.00582432 0.32261252
0.16122988 -0.0058240453 0.32262528
0.16153911 -0.0058240732 0.32262915
0.1618484 -0.0058242455 0.32262868
0.16215755 -0.0058240723 0.32263851
0.16246569 -0.0058237468 0.32265282
0.16277327 -0.0058232285 0.32267284
0.16306682 -0.0058069094 0.32266635
0.16333319 -0.005840343 0.32266861
0.16362499 -0.0058234697 0.32267854
0.16393308 -0.0058230264 0.32269636
0.1642409 -0.0058225919 0.32271388
0.16455095 -0.0058228145 0.32271194
0.16486013 -0.0058227424 0.32271874
0.1651696 -0.0058226949 0.32272482
0.16547963 -0.0058228583 0.32272467
0.16575082 -0.0058230204 0.32272393
0.16601996 -0.0058224723 0.32274422
0.16632941 -0.0058224252 0.32275033
0.1666375 -0.00582194 0.32276934
0.16692744 -0.0058045811 0.32279369
0.16713503 -0.0057044025 0.32279849
0.17473872 -0.0058036009 0.32274252
0.14929855 -0.0054708235 0.32253638
0.14959206 -0.0055135307 0.3226583
0.14987887 -0.0055810339 0.32273677
0.15013364 -0.0056030201 0.32278061
0.15030426 -0.0056959987 0.32279369
0.15145487 -0.0055798632 0.32279533
0.15164943 -0.0055818423 0.32273957
0.15193403 -0.005515574 0.32263312
0.15226564 -0.0054710107 0.32257575
0.15257354 -0.0054707616 0.32258782
0.15288162 -0.0054712035 0.32257935
0.15315245 -0.0054718405 0.32256454
0.15342224 -0.0054717204 0.32257223
0.15373024 -0.0054718419 0.32257327
0.15403995 -0.0054727383 0.32255137
0.15434909 -0.005473231 0.32254142
0.15465689 -0.0054726792 0.32256246
0.15496491 -0.0054728677 0.3225615
0.15527388 -0.0054729059 0.32256508
0.15558305 -0.0054735667 0.32255018
0.15585352 -0.005474159 0.32253668
0.15612361 -0.0054739658 0.32254648
0.1564333 -0.0054746768 0.32253009
0.15674224 -0.00547458 0.32253763
0.15705128 -0.0054748533 0.3225342
0.1573603 -0.0054749921 0.32253474
0.15766935 -0.0054753162 0.32252982
0.15797718 -0.0054748314 0.32254887
0.15824746 -0.0054746941 0.32255706
0.15851879 -0.0054753656 0.32254124
0.15882832 -0.0054755714 0.32253981
0.15913616 -0.0054751206 0.32255787
0.15944406 -0.005474939 0.32256788
0.15975356 -0.0054749772 0.32257146
0.16006199 -0.0054748636 0.3225795
0.16037142 -0.00547475 0.32258758
0.16068041 -0.005474838 0.32258964
0.16095121 -0.0054747905 0.32259515
0.16122024 -0.0054744277 0.32260996
0.16152965 -0.0054742303 0.32262054
0.16183864 -0.0054743188 0.3226226
0.16214648 -0.0054738177 0.32264215
0.16245596 -0.0054739229 0.3226437
0.16276544 -0.0054739434 0.32264775
0.16307443 -0.0054740319 0.32264984
0.16334535 -0.0054738666 0.32265887
0.16361798 -0.0054743802 0.32264772
0.1639242 -0.0054735253 0.32267773
0.16423205 -0.0054730913 0.32269526
0.16454092 -0.0054727923 0.32270885
0.1648526 -0.0054735043 0.32269245
0.16516094 -0.0054730535 0.32271048
0.16547041 -0.0054730913 0.32271406
0.1657794 -0.005473129 0.32271761
0.16604944 -0.0054727956 0.32273158
0.16631801 -0.0054720119 0.32275891
0.16662854 -0.0054722186 0.32275748
0.16693476 -0.0054713464 0.322788
0.17473872 -0.0054755881 0.32278034
0.14956103 -0.0052350657 0.32258597
0.14986846 -0.0052298 0.32274693
0.15136944 -0.0052296803 0.32277328
0.15164024 -0.0052330121 0.32267851
0.15194848 -0.0052340599 0.32265207
0.15225716 -0.0052347551 0.32263616
0.15256575 -0.0052351467 0.32262921
0.15287422 -0.0052351514 0.32263377
0.15318228 -0.0052354755 0.3226288
0.15345229 -0.0052355737 0.32263002
0.15372321 -0.0052370876 0.32258919
0.15403132 -0.0052375803 0.32257926
0.1543408 -0.005237652 0.32258183
0.15464883 -0.0052378247 0.32258138
0.15495804 -0.0052386709 0.32256097
0.15526691 -0.0052383393 0.32257551
0.15557495 -0.0052385284 0.32257456
0.1558457 -0.0052389414 0.32256642
0.15611616 -0.0052394839 0.32255444
0.15642527 -0.005239943 0.32254547
0.15673429 -0.0052401163 0.32254505
0.15704384 -0.0052403901 0.32254162
0.15735118 -0.0052399733 0.32255867
0.15765998 -0.0052394057 0.32258019
0.15797082 -0.0052406224 0.32254881
0.15827867 -0.0052402569 0.32256436
0.15854919 -0.0052404343 0.3225632
0.15881917 -0.0052404706 0.32256621
0.15912865 -0.0052404758 0.32257077
0.15943712 -0.0052404632 0.32257581
0.15974613 -0.0052406192 0.3225759
0.16005507 -0.0052405056 0.32258394
0.1603651 -0.0052407803 0.32258052
0.1606729 -0.0052401614 0.32260355
0.16098131 -0.0052399808 0.3226136
0.16125289 -0.00524031 0.32260796
0.16152218 -0.0052397233 0.32262945
0.16182953 -0.0052393405 0.32264549
0.16213904 -0.005239429 0.32264754
0.162448 -0.0052394168 0.32265258
0.16275749 -0.0052394383 0.32265669
0.16306588 -0.0052392245 0.32266772
0.16337426 -0.0052389083 0.32268175
0.16364412 -0.0052384906 0.32269827
0.16391626 -0.0052391067 0.32268417
0.16422567 -0.0052389256 0.32269418
0.16453515 -0.0052389642 0.32269776
0.16484244 -0.0052383114 0.32272181
0.16515028 -0.0052378783 0.32273936
0.1654603 -0.0052380515 0.32273889
0.16577031 -0.0052381568 0.32274047
0.16608085 -0.0052384315 0.32273707
0.16634822 -0.005237536 0.3227677
0.16662003 -0.0052375169 0.32277238
0.16681132 -0.0052368781 0.32279426
0.17484683 -0.0052413745 0.32278287
0.14959358 -0.005002867 0.32255909
0.14986238 -0.0049983351 0.32269767
0.15009308 -0.0049956487 0.32278091
0.15113197 -0.0049956669 0.3227962
0.15132441 -0.0049972003 0.32275364
0.1516327 -0.0049983165 0.32272521
0.15194082 -0.0049988762 0.32271326
0.15224899 -0.0049995212 0.32269883
0.15255761 -0.0050000316 0.3226884
0.15286623 -0.0050005582 0.32267743
0.15317489 -0.0050012027 0.32266301
0.15348366 -0.0050022011 0.32263809
0.15375376 -0.0050026476 0.32262895
0.15402389 -0.0050031901 0.32261693
0.154333 -0.005003633 0.3226085
0.15464208 -0.0050040758 0.3226001
0.15495071 -0.0050046025 0.32258913
0.1552591 -0.0050043548 0.3226012
0.15556824 -0.0050049657 0.32258776
0.15587679 -0.0050051562 0.3225868
0.15614627 -0.0050052325 0.32258865
0.1564173 -0.0050054211 0.32258719
0.15672648 -0.0050061336 0.32257074
0.15703547 -0.0050062062 0.3225733
0.15734452 -0.005006514 0.32256886
0.15765357 -0.0050067715 0.32256594
0.15796249 -0.0050066244 0.322575
0.15827158 -0.0050070169 0.32256806
0.15858051 -0.0050069373 0.32257509
0.15885048 -0.00500684 0.32258213
0.15912104 -0.0050071357 0.32257748
0.1594294 -0.0050068041 0.32259202
0.1597389 -0.0050069434 0.32259262
0.16004841 -0.0050070663 0.32259363
0.16035689 -0.0050071385 0.32259619
0.16066578 -0.0050068237 0.32261026
0.16097482 -0.0050070304 0.32260883
0.16128314 -0.0050065806 0.32262686
0.16155343 -0.0050064945 0.32263353
0.16182406 -0.0050064926 0.32263774
0.16213244 -0.0050062109 0.32265076
0.16244084 -0.0050059296 0.32266381
0.16274764 -0.0050053615 0.32268533
0.16305822 -0.0050057876 0.32267743
0.16336712 -0.0050055236 0.32268998
0.16367552 -0.0050052921 0.32270154
0.16394539 -0.005004948 0.32271585
0.16421637 -0.0050049853 0.32271886
0.16452587 -0.0050050239 0.32272243
0.16483477 -0.0050048274 0.32273299
0.16514263 -0.0050044274 0.32274953
0.16545372 -0.0050048539 0.32274163
0.16576159 -0.0050045555 0.32275516
0.16607045 -0.0050041396 0.3227722
0.16637939 -0.005004094 0.32277828
0.16657275 -0.0050036907 0.32279319
0.17484158 -0.0050161523 0.32254922
0.14964266 -0.0046204957 0.32251778
0.14986083 -0.0046553994 0.32262516
0.15016803 -0.0046519516 0.32273215
0.15038542 -0.0046119825 0.32278168
0.15105355 -0.0047654849 0.32279608
0.15139896 -0.0047658603 0.32279015
0.15163055 -0.004766305 0.32278049
0.15196195 -0.0047201794 0.32278639
0.15224609 -0.0046520131 0.32276177
0.15255496 -0.0046533472 0.32272685
0.15286367 -0.0046541677 0.32270715
0.1531724 -0.0046550133 0.3226867
0.15348157 -0.0046557579 0.3226693
0.15375105 -0.004656313 0.3226569
0.1540215 -0.0046566017 0.3226524
0.15433037 -0.0046570431 0.322644
0.15463902 -0.0046576448 0.32263079
0.15494759 -0.0046579852 0.32262537
0.15525664 -0.0046583172 0.32262018
0.15556519 -0.0046585989 0.32261649
0.15587425 -0.0046589058 0.32261208
0.15618256 -0.0046591535 0.32260936
0.1564534 -0.0046595605 0.32260141
0.15672453 -0.0046601407 0.32258826
0.15703331 -0.0046603135 0.32258782
0.1573415 -0.0046602162 0.32259536
0.1576511 -0.0046606655 0.32258672
0.15795976 -0.0046604509 0.32259774
0.15826879 -0.0046606902 0.32259533
0.15857749 -0.0046605589 0.32260388
0.15884779 -0.0046606432 0.32260546
0.15911792 -0.0046606036 0.32261071
0.15942697 -0.0046608513 0.32260805
0.15973563 -0.0046606613 0.32261837
0.16004437 -0.0046606986 0.32262194
0.16035298 -0.0046603577 0.32263669
0.16066198 -0.0046604536 0.32263851
0.16097087 -0.0046601798 0.32265133
0.16128069 -0.0046605202 0.3226459
0.16155082 -0.004660489 0.32265091
0.1618216 -0.0046603964 0.32265776
0.16212949 -0.0046601389 0.3226701
0.16243814 -0.0046598651 0.32268286
0.1627454 -0.0046592285 0.3227064
0.16305467 -0.0046593668 0.32270694
0.16336469 -0.0046595307 0.32270679
0.16367331 -0.0046592816 0.32271883
0.16398227 -0.004659134 0.32272789
0.16425239 -0.0046588196 0.32274133
0.16452257 -0.004658699 0.32274899
0.16483071 -0.0046584327 0.32276154
0.165141 -0.004658605 0.32276112
0.1654502 -0.0046586259 0.3227652
0.16575855 -0.004658191 0.32278275
0.16600877 -0.0047154701 0.32279685
0.14931986 -0.0043136715 0.32253131
0.14955086 -0.0043120272 0.32258359
0.14985862 -0.0043096552 0.3226586
0.1501662 -0.0043065925 0.32275411
0.15035829 -0.0043053292 0.3227945
0.15201342 -0.0043063546 0.32278892
0.15224484 -0.0043077581 0.32275075
0.15255311 -0.0043088216 0.32272381
0.15286237 -0.0043098177 0.32269889
0.15317108 -0.0043106452 0.32267898
0.15347967 -0.0043110354 0.32267204
0.15374978 -0.0043115248 0.32266155
0.15402006 -0.0043125255 0.32263589
0.15432902 -0.0043125451 0.32264
0.15463823 -0.0043133558 0.32262054
0.15494621 -0.0043133749 0.32262462
0.15525414 -0.0043132934 0.32263166
0.15556377 -0.0043138349 0.32262024
0.15587285 -0.0043141907 0.32261431
0.15618202 -0.0043148841 0.3225984
0.1564519 -0.0043151099 0.32259575
0.15672316 -0.0043155323 0.32258725
0.15703215 -0.0043155686 0.32259086
0.15734062 -0.0043155882 0.32259488
0.1576497 -0.0043159444 0.32258898
0.15795866 -0.00431593 0.32259402
0.15826708 -0.0043157977 0.3226026
0.15857553 -0.0043157497 0.32260865
0.15884577 -0.0043154988 0.32262015
0.15911657 -0.0043160617 0.32260752
0.15942606 -0.0043160641 0.32261208
0.1597345 -0.0043160329 0.32261765
0.16004226 -0.0043152943 0.32264417
0.16035134 -0.004315651 0.32263827
0.16066024 -0.0043154508 0.32264882
0.16096976 -0.0043156222 0.32264841
0.16127869 -0.0043155067 0.32265645
0.16154952 -0.004315604 0.32265761
0.16181968 -0.0043156338 0.3226608
0.16212863 -0.0043155691 0.32266739
0.16243756 -0.0043154196 0.32267645
0.16274485 -0.0043148496 0.32269797
0.16305436 -0.0043149535 0.32269955
0.16336489 -0.0043151579 0.32269815
0.16367434 -0.0043151104 0.3227042
0.16398217 -0.0043146075 0.32272375
0.1642523 -0.0043146089 0.32272777
0.16452308 -0.0043144985 0.3227351
0.16483152 -0.0043144166 0.32274216
0.16514197 -0.0043143686 0.32274824
0.1654488 -0.0043138657 0.32276779
0.16575773 -0.0043137171 0.32277685
0.16606821 -0.0043137874 0.32277942
0.16630024 -0.0043139281 0.32277873
0.14927973 -0.0040805945 0.3225759
0.14954941 -0.0040784394 0.32264388
0.14985685 -0.0040766224 0.32270241
0.15012665 -0.0040748999 0.32275757
0.15201214 -0.0040749162 0.32278526
0.15224355 -0.0040764706 0.32274261
0.15255301 -0.0040780725 0.3226997
0.15286113 -0.0040785959 0.32268876
0.15317047 -0.0040798103 0.32265735
0.15347862 -0.0040804353 0.3226434
0.15374923 -0.0040803631 0.3226496
0.15401931 -0.0040812842 0.32262629
0.15432778 -0.0040812856 0.32263085
0.1546368 -0.0040815067 0.32262892
0.15494592 -0.0040819966 0.32261902
0.15525445 -0.0040822001 0.32261756
0.15556303 -0.0040825559 0.32261163
0.15587275 -0.0040834001 0.32259122
0.15618134 -0.0040837717 0.32258478
0.15645199 -0.0040838514 0.32258648
0.15672117 -0.0040834425 0.32260263
0.15703079 -0.0040839659 0.32259172
0.15733981 -0.0040841028 0.32259229
0.15764894 -0.0040846262 0.32258138
0.15795781 -0.0040843254 0.32259491
0.15826683 -0.0040844954 0.32259449
0.15857588 -0.0040847501 0.32259154
0.15884669 -0.0040847952 0.32259426
0.15911745 -0.0040851617 0.32258746
0.15942469 -0.004084405 0.32261449
0.15973431 -0.0040848954 0.32260457
0.16004324 -0.0040847454 0.32261363
0.16035165 -0.004084562 0.32262367
0.16066113 -0.0040846141 0.32262677
0.16096899 -0.0040842285 0.3226428
0.16127844 -0.0040841801 0.32264888
0.16154961 -0.0040842877 0.32264975
0.16181883 -0.004084019 0.32266173
0.16212779 -0.0040839701 0.32266784
0.16243675 -0.0040839212 0.32267386
0.16274621 -0.0040838728 0.32267994
0.16305514 -0.0040837396 0.32268852
0.16336516 -0.0040839268 0.3226876
0.16367409 -0.0040837941 0.32269615
0.16398188 -0.0040832567 0.32271668
0.16425227 -0.0040829037 0.32273123
0.16452332 -0.0040831631 0.32272759
0.16483119 -0.0040828446 0.32274163
0.16514121 -0.0040830146 0.32274121
0.16545007 -0.0040825959 0.32275826
0.16575849 -0.0040824628 0.32276681
0.16606736 -0.0040821615 0.32278037
0.1663774 -0.0040823314 0.32277995
0.16660778 -0.0040820339 0.32279223
0.17478459 -0.004090928 0.32265052
0.14904597 -0.003736699 0.32251155
0.14923905 -0.0037336412 0.32260513
0.14954697 -0.0037300722 0.32271567
0.14980075 -0.0037516267 0.32276788
0.15174104 -0.0036130331 0.32278144
0.15193409 -0.0037304307 0.32274064
0.15224415 -0.0037332866 0.32266054
0.15255283 -0.0037339786 0.32264459
0.15286089 -0.0037342915 0.32263991
0.15316966 -0.0037344357 0.32264021
0.15347807 -0.0037351276 0.3226243
0.15374784 -0.0037355237 0.32261658
0.15401819 -0.0037356727 0.32261616
0.15432754 -0.003736146 0.32260674
0.15463556 -0.0037363153 0.32260633
0.15494424 -0.0037361735 0.32261512
0.15525344 -0.0037369495 0.3225967
0.15556219 -0.003737035 0.32259879
0.15587097 -0.0037372469 0.32259709
0.15618011 -0.0037378464 0.32258391
0.15644984 -0.0037376278 0.32259443
0.15671973 -0.0037375747 0.32260004
0.15702899 -0.0037377698 0.32259887
0.15733744 -0.0037376531 0.32260692
0.15764676 -0.0037380166 0.32260075
0.15795627 -0.0037381779 0.32260057
0.15826529 -0.0037383391 0.32260039
0.15857458 -0.0037385514 0.32259873
0.15888304 -0.0037384937 0.32260504
0.15915357 -0.0037386538 0.32260433
0.15942377 -0.0037386431 0.32260868
0.15973245 -0.00373851 0.32261723
0.16004172 -0.0037386375 0.32261804
0.16035037 -0.0037384112 0.32262933
0.16065903 -0.0037382443 0.32263893
0.16096851 -0.0037382627 0.32264301
0.1612772 -0.0037381798 0.32265005
0.16154747 -0.0037380792 0.32265708
0.16181786 -0.0037380515 0.32266194
0.16212706 -0.003737994 0.32266822
0.16243517 -0.0037376247 0.32268378
0.16274412 -0.0037375335 0.32269111
0.16305332 -0.003737493 0.32269695
0.16336253 -0.0037374857 0.32270178
0.1636728 -0.0037376641 0.3227011
0.16398229 -0.0037376741 0.32270542
0.1642531 -0.0037376911 0.32270896
0.1645229 -0.0037374026 0.32272157
0.16483185 -0.0037372943 0.32272935
0.165141 -0.0037371104 0.32273942
0.16545045 -0.0037370701 0.32274526
0.16575857 -0.0037366671 0.32276183
0.16606832 -0.0037367274 0.32276464
0.16637778 -0.003736712 0.3227697
0.16664781 -0.0037363756 0.32278374
0.16686396 -0.0037129573 0.32279396
0.17477719 -0.0038114446 0.32274085
0.1490453 -0.0033865219 0.32250124
0.14923826 -0.0033830192 0.32260808
0.14954595 -0.0033787284 0.32274008
0.15166433 -0.003379616 0.3227458
0.15193561 -0.0033834754 0.32263541
0.15224516 -0.0033854493 0.32258153
0.15255316 -0.0033855368 0.32258356
0.1528617 -0.0033857594 0.32258165
0.15317023 -0.0033859818 0.32257971
0.15347877 -0.0033862381 0.32257676
0.15374948 -0.0033864931 0.3225733
0.15401876 -0.0033863832 0.32258064
0.15432782 -0.003386707 0.32257572
0.15463626 -0.0033865757 0.32258427
0.15494531 -0.0033869161 0.32257888
0.15525383 -0.0033870544 0.32257944
0.15556288 -0.0033873275 0.32257599
0.15587078 -0.0033870782 0.32258806
0.15618044 -0.003387739 0.32257316
0.15645033 -0.0033880221 0.3225688
0.15672038 -0.0033877492 0.32258102
0.15702993 -0.0033879888 0.32257861
0.15733892 -0.0033880263 0.32258216
0.15764737 -0.0033880298 0.32258672
0.15795629 -0.0033878314 0.3225973
0.15826544 -0.0033884412 0.32258385
0.15857495 -0.0033885965 0.32258397
0.15888275 -0.0033880272 0.32260549
0.15915346 -0.0033882714 0.32260236
0.15942495 -0.0033888968 0.32258791
0.15973388 -0.0033887322 0.32259747
0.16004227 -0.0033884998 0.32260904
0.16035128 -0.0033885876 0.32261112
0.16065958 -0.0033880693 0.32263118
0.1609685 -0.0033878707 0.32264173
0.16127805 -0.0033881608 0.3226378
0.16154781 -0.0033879948 0.32264683
0.16181844 -0.0033880027 0.3226507
0.16212575 -0.0033874337 0.32267222
0.16243577 -0.0033875888 0.32267231
0.16274416 -0.0033873399 0.32268438
0.1630536 -0.0033872426 0.32269195
0.16336362 -0.0033874149 0.32269153
0.16367312 -0.0033875196 0.32269311
0.1639826 -0.0033875231 0.3226977
0.1642527 -0.003387436 0.32270434
0.16452512 -0.0033877867 0.32269809
0.16483404 -0.0033876388 0.32270715
0.16514242 -0.0033873224 0.32272118
0.16545297 -0.0033876463 0.3227163
0.16576186 -0.0033873636 0.32272935
0.16607183 -0.0033873508 0.32273442
0.16637966 -0.0033869161 0.322752
0.16665025 -0.0033867334 0.32276151
0.16691992 -0.00338627 0.32277936
0.16718997 -0.0033859524 0.32279286
0.14923801 -0.0031502098 0.32258201
0.14954564 -0.0031456847 0.32272097
0.14973791 -0.0031433115 0.32279438
0.15143204 -0.0031442926 0.32279122
0.15162534 -0.0031470391 0.32271269
0.15193498 -0.0031493856 0.32264778
0.15224391 -0.0031509739 0.32260537
0.15255187 -0.003150912 0.32261196
0.15286103 -0.0031515912 0.32259655
0.15316871 -0.0031505693 0.32263157
0.15347795 -0.0031515178 0.32260817
0.15374726 -0.0031515388 0.32261166
0.15401804 -0.00315202 0.32260153
0.15432723 -0.0031527497 0.32258463
0.15463628 -0.0031530587 0.32258016
0.15494424 -0.0031529795 0.32258725
0.15525219 -0.0031529344 0.32259333
0.15556309 -0.0031543719 0.32255542
0.15587151 -0.0031542594 0.32256347
0.15618047 -0.0031542145 0.32256955
0.15644981 -0.0031542971 0.32257125
0.15671986 -0.0031540596 0.32258242
0.15703002 -0.0031546378 0.32257
0.15733781 -0.0031541213 0.32259005
0.15764755 -0.0031550026 0.32256866
0.15795644 -0.003154705 0.32258222
0.15826437 -0.0031546431 0.3225888
0.158575 -0.0031551202 0.32257938
0.15888229 -0.0031546038 0.32259941
0.159153 -0.0031547875 0.3225981
0.15942341 -0.0031551565 0.3225913
0.15973341 -0.0031552801 0.32259238
0.16004233 -0.0031550834 0.32260296
0.16035074 -0.0031548364 0.322615
0.16065969 -0.0031548082 0.32262057
0.16096801 -0.0031543253 0.32263964
0.16127862 -0.0031548364 0.32262924
0.16154735 -0.0031545258 0.32264259
0.16181901 -0.0031546312 0.32264361
0.16212635 -0.0031541819 0.32266164
0.16243634 -0.0031543053 0.32266274
0.16274422 -0.0031539572 0.32267779
0.16305314 -0.0031538112 0.32268685
0.16336475 -0.0031542885 0.32267746
0.16367376 -0.0031544459 0.32267755
0.16398315 -0.0031541314 0.32269159
0.16425367 -0.0031543206 0.3226901
0.16452512 -0.0031542631 0.32269597
0.16483408 -0.0031542354 0.32270157
0.16514407 -0.0031543085 0.32270414
0.16545407 -0.0031543984 0.32270622
0.16576189 -0.0031539151 0.3227253
0.16607298 -0.0031543253 0.32271791
0.16638021 -0.003153522 0.32274646
0.16664901 -0.0031529141 0.32276857
0.16691941 -0.0031527109 0.32277876
0.16722995 -0.0031529353 0.32277685
0.1674208 -0.0031525153 0.32279223
0.14935419 -0.0029189903 0.32252511
0.14954555 -0.0029152031 0.32264048
0.14981465 -0.0029116888 0.32274893
0.15139297 -0.0029121982 0.32275832
0.15162545 -0.0029139598 0.32270962
0.15193453 -0.0029159714 0.32265472
0.15224217 -0.0029165847 0.32264131
0.15255105 -0.0029162888 0.32265487
0.15285909 -0.0029165656 0.32265145
0.15316826 -0.0029172129 0.32263702
0.15347631 -0.00291749 0.32263356
0.15374689 -0.0029184446 0.32260945
0.15401646 -0.0029181973 0.32262096
0.1543262 -0.0029191482 0.32259756
0.15463476 -0.0029194586 0.32259315
0.15494382 -0.0029197524 0.32258922
0.1552535 -0.0029205177 0.32257128
0.15556204 -0.0029206937 0.32257086
0.15587161 -0.0029210886 0.32256395
0.15617953 -0.0029209272 0.32257351
0.15645012 -0.0029213093 0.32256636
0.15672009 -0.0029212814 0.32257137
0.15702966 -0.0029216593 0.32256496
0.15733868 -0.0029218015 0.32256556
0.15764761 -0.0029217415 0.32257211
0.15795608 -0.0029217154 0.32257769
0.15826619 -0.0029221775 0.32256877
0.15857457 -0.0029218481 0.32258332
0.15884547 -0.0029221855 0.32257754
0.15911558 -0.0029221182 0.32258371
0.15942408 -0.0029222262 0.32258528
0.15973242 -0.0029217792 0.32260334
0.16004139 -0.0029218369 0.32260641
0.16034923 -0.0029213727 0.32262498
0.1606593 -0.0029216665 0.32262105
0.16096818 -0.0029214553 0.3226321
0.16127655 -0.0029210581 0.3226487
0.16154765 -0.0029215245 0.32263908
0.16181916 -0.0029216148 0.3226406
0.16212761 -0.0029215715 0.32264665
0.16243595 -0.0029211412 0.3226642
0.16274548 -0.0029213843 0.32266182
0.16305436 -0.0029210718 0.32267585
0.16336438 -0.0029212309 0.32267594
0.16367498 -0.0029216935 0.322667
0.16398279 -0.0029211619 0.32268757
0.16425462 -0.0029212914 0.32268795
0.16452521 -0.0029211119 0.32269746
0.1648342 -0.0029211529 0.32270104
0.16514367 -0.0029211435 0.32270613
0.16545251 -0.0029207473 0.32272267
0.16576149 -0.0029207545 0.32272726
0.16607037 -0.0029204756 0.32274032
0.16637817 -0.002919944 0.32276088
0.16664925 -0.0029197421 0.32277107
0.1668805 -0.0029195163 0.32278135
0.16714935 -0.0029190951 0.32279804
0.16749838 -0.0029192953 0.32279751
0.1495609 -0.002547486 0.32252267
0.14985247 -0.002562158 0.32260117
0.15014318 -0.0025418927 0.32269782
0.15046611 -0.0024371857 0.32275441
0.15077379 -0.0024362016 0.32278845
0.15108287 -0.0025563599 0.32279256
0.15135385 -0.0026772849 0.32277331
0.1516239 -0.0026780951 0.32275349
0.15194699 -0.0025751234 0.32275859
0.15223867 -0.0025586223 0.32274359
0.15254703 -0.0025591031 0.32273415
0.15285575 -0.0025599799 0.32271299
0.15316467 -0.002560697 0.32269657
0.15347308 -0.0025612791 0.32268411
0.1537822 -0.0025618949 0.32267073
0.15405236 -0.0025624835 0.3226575
0.15432267 -0.0025627157 0.32265487
0.15463158 -0.0025634579 0.32263771
0.15494044 -0.0025638971 0.32262951
0.15524948 -0.0025642011 0.32262534
0.15555815 -0.0025648167 0.32261193
0.15586771 -0.0025651464 0.32260701
0.15617622 -0.0025653243 0.32260656
0.15646835 -0.0025481179 0.32261249
0.15673332 -0.0025828765 0.32260373
0.15702607 -0.0025659781 0.32260054
0.15733564 -0.0025662654 0.32259691
0.15764441 -0.0025664435 0.32259643
0.15795308 -0.0025663434 0.3226043
0.15826294 -0.00256685 0.32259411
0.15857106 -0.0025665143 0.32260892
0.15888 -0.0025663804 0.32261774
0.15915005 -0.002566641 0.32261428
0.15942083 -0.0025668817 0.32261139
0.15972921 -0.0025666044 0.32262444
0.16003789 -0.0025664626 0.3226335
0.16034682 -0.0025663543 0.32264158
0.16065603 -0.0025663136 0.32264763
0.16096438 -0.0025658763 0.32266545
0.16127388 -0.0025660461 0.3226653
0.16156602 -0.0025488494 0.32267094
0.16183211 -0.0025834537 0.32266673
0.16212384 -0.0025661692 0.32267499
0.16243251 -0.0025660354 0.32268381
