# .PCD v0.7 - Point Cloud Data file format
VERSION 0.7
FIELDS x y z
SIZE 4 4 4
TYPE F F F
COUNT 1 1 1
WIDTH 1369
HEIGHT 1
VIEWPOINT 0 0 0 1 0 0 0
POINTS 1369
DATA ascii
0.22037902 -0.017154185 0.29145947
0.22065406 -0.017154174 0.29145959
0.22092962 -0.017154383 0.29145336
0.22124308 -0.01715417 0.2914592
0.22147804 -0.017153973 0.29146469
0.20681983 -0.016741125 0.29138631
0.20713514 -0.016742054 0.29135919
0.20744482 -0.016740955 0.29139051
0.20776349 -0.016743045 0.29132995
0.20807602 -0.016743055 0.29132929
0.20862527 -0.016743766 0.29130816
0.20893824 -0.016743621 0.29131201
0.2092485 -0.016742751 0.29133683
0.20952523 -0.016743457 0.29131612
0.20991729 -0.016743572 0.29131234
0.21014972 -0.016742786 0.29133478
0.21042517 -0.016742997 0.29132843
0.21073481 -0.016741848 0.29136121
0.21105063 -0.016742725 0.29133558
0.21136248 -0.016742215 0.29134992
0.21167591 -0.016741931 0.29135779
0.21194893 -0.016741959 0.29135668
0.21222231 -0.016741466 0.29137063
0.21253911 -0.016742341 0.291345
0.21284984 -0.016741436 0.29137084
0.21316332 -0.016741272 0.29137516
0.21347573 -0.016740937 0.29138452
0.21374643 -0.016739907 0.2914139
0.2140258 -0.016741024 0.29138139
0.21433821 -0.016740637 0.29139224
0.21465065 -0.016740387 0.29139906
0.2149646 -0.016740225 0.29140344
0.21527755 -0.016739994 0.29140979
0.21555187 -0.016739888 0.29141256
0.21582603 -0.016739752 0.29141614
0.21613675 -0.016738812 0.29144296
0.21645299 -0.016739463 0.29142383
0.21676698 -0.016739439 0.29142419
0.21707878 -0.016738687 0.29144552
0.21735513 -0.016739244 0.29142913
0.21763106 -0.016739465 0.29142246
0.21794184 -0.016738664 0.29144526
0.21825585 -0.016738605 0.2914466
0.21856767 -0.016738009 0.29146343
0.21884215 -0.016737828 0.29146838
0.21911825 -0.016738132 0.29145932
0.21943277 -0.016738143 0.2914587
0.21974467 -0.01673772 0.29147053
0.22005709 -0.016737385 0.29147986
0.22037214 -0.016737517 0.29147574
0.2206468 -0.016737416 0.29147837
0.22091848 -0.016736807 0.29149556
0.22123617 -0.016737388 0.29147846
0.22147226 -0.016737621 0.29147151
0.20596024 -0.016326442 0.2913115
0.20638682 -0.016324949 0.29135403
0.20654351 -0.016324999 0.29135239
0.20681787 -0.016324993 0.29135215
0.20712987 -0.016324913 0.29135397
0.20744118 -0.016324213 0.29137382
0.20775647 -0.01632512 0.29134721
0.2080707 -0.016325716 0.29132956
0.2083438 -0.016325468 0.2913363
0.20861937 -0.016326215 0.29131445
0.20893231 -0.016325893 0.2913233
0.20924537 -0.01632604 0.29131866
0.20955777 -0.016325649 0.29132947
0.20986965 -0.016325224 0.2913413
0.21014605 -0.016325871 0.29132229
0.21041924 -0.016325394 0.2913357
0.21073225 -0.016325315 0.29133755
0.21104355 -0.016324578 0.29135835
0.2113571 -0.016324706 0.29135424
0.21167009 -0.016324541 0.29135859
0.2119451 -0.016324565 0.29135752
0.21221854 -0.016324278 0.29136544
0.21252982 -0.01632349 0.29138777
0.21284448 -0.016323946 0.29137415
0.21315794 -0.016323779 0.2913785
0.21346979 -0.016323183 0.29139534
0.21374477 -0.016323119 0.29139677
0.21401764 -0.016322607 0.29141116
0.21433172 -0.016322769 0.29140604
0.2146458 -0.016322969 0.2913999
0.21495818 -0.016322492 0.29141325
0.21527222 -0.016322602 0.29140961
0.21554665 -0.01632225 0.29141939
0.21581744 -0.016321508 0.29144043
0.21613468 -0.016322225 0.29141933
0.21644761 -0.016321938 0.29142717
0.21676156 -0.016321652 0.29143506
0.21707453 -0.016321519 0.2914384
0.21734779 -0.016321175 0.29144797
0.21762191 -0.016320996 0.29145274
0.21793698 -0.016321125 0.29144859
0.21824989 -0.01632075 0.29145896
0.21856338 -0.016320672 0.29146081
0.21887682 -0.016320437 0.29146716
0.21915381 -0.016320858 0.29145464
0.21942575 -0.016320085 0.29147655
0.21974091 -0.016320543 0.29146293
0.220057 -0.016320689 0.29145831
0.22036891 -0.01632035 0.29146761
0.2206438 -0.016320445 0.29146457
0.22091734 -0.016319999 0.29147699
0.22122866 -0.016319385 0.29149431
0.2214652 -0.016319407 0.29149336
0.20474398 -0.015910836 0.29130325
0.20607118 -0.015910059 0.29132345
0.2062667 -0.015910046 0.29132354
0.20657574 -0.015908493 0.29136783
0.2068485 -0.015907718 0.29138973
0.20711914 -0.015906442 0.29142612
0.20743223 -0.015906619 0.29142046
0.2077522 -0.015909722 0.29133046
0.20806409 -0.015909277 0.29134279
0.20837826 -0.015909748 0.29132867
0.20865113 -0.015909234 0.29134306
0.20892516 -0.01590929 0.29134101
0.2092393 -0.015909692 0.29132888
0.20955111 -0.015909038 0.29134721
0.20986299 -0.015908524 0.29136151
0.21017496 -0.015908357 0.29136586
0.21045111 -0.01590874 0.29135433
0.21072452 -0.015908416 0.29136327
0.21103807 -0.015908455 0.29136163
0.21134831 -0.015907593 0.29138592
0.2116612 -0.015907167 0.29139778
0.21197696 -0.015907897 0.29137617
0.2122487 -0.015907025 0.29140091
0.21252331 -0.015907282 0.29139298
0.21283671 -0.01590687 0.29140437
0.21315023 -0.015906893 0.2914032
0.21346375 -0.015906896 0.29140258
0.21377563 -0.015906453 0.29141489
0.21404998 -0.015906392 0.2914162
0.21432458 -0.015906131 0.29142329
0.21463537 -0.015905375 0.2914446
0.2149521 -0.015906017 0.2914255
0.21526343 -0.015905382 0.29144335
0.2155785 -0.015905507 0.29143921
0.21585242 -0.015905252 0.29144612
0.21612537 -0.01590498 0.29145354
0.21643993 -0.015905121 0.29144892
0.21675339 -0.015904885 0.29145527
0.21706527 -0.015904475 0.29146659
0.21738032 -0.015904512 0.29146501
0.2176543 -0.015904434 0.29146674
0.21792603 -0.015903464 0.29149431
0.21824169 -0.015903901 0.2914812
0.21855788 -0.015904423 0.29146558
0.21887079 -0.015904047 0.29147595
0.21914561 -0.015904026 0.29147604
0.21941923 -0.01590376 0.29148334
0.21973006 -0.015903108 0.29150164
0.22004567 -0.01590337 0.29149351
0.22036017 -0.015903341 0.29149389
0.22067468 -0.015903292 0.29149473
0.22094817 -0.015903233 0.29149601
0.22122106 -0.015902713 0.29151058
0.22142021 -0.015903216 0.29149574
0.20524615 -0.015495488 0.29130441
0.20602813 -0.015495216 0.29131079
0.20618305 -0.015494905 0.29131943
0.20660599 -0.015491441 0.29141855
0.20684457 -0.015493252 0.29136583
0.20711455 -0.015491448 0.29141736
0.2074289 -0.015492506 0.29138625
0.20774582 -0.015493754 0.29134968
0.20805901 -0.015494292 0.29133353
0.2083714 -0.01549393 0.29134336
0.20864494 -0.015493989 0.29134116
0.20891783 -0.015493536 0.2913537
0.20923081 -0.015493399 0.29135707
0.20954604 -0.015494091 0.29133648
0.20985785 -0.015493385 0.2913563
0.21017139 -0.015493402 0.29135513
0.21048208 -0.015492314 0.29138595
0.21075809 -0.01549288 0.29136911
0.21103069 -0.015492508 0.29137933
0.21134469 -0.015492508 0.29137871
0.21165712 -0.015492164 0.29138806
0.21196957 -0.015491888 0.2913954
0.21224463 -0.015492022 0.29139102
0.2125181 -0.015491873 0.29139477
0.21283153 -0.015491563 0.29140314
0.21314397 -0.015491306 0.29140997
0.21345524 -0.015490476 0.2914333
0.21377315 -0.015491722 0.29139674
0.21404582 -0.015491165 0.29141229
0.21431778 -0.015490429 0.29143304
0.21463232 -0.015490481 0.29143089
0.21494526 -0.015490135 0.29144025
0.21525878 -0.015490103 0.29144061
0.21557228 -0.015490087 0.29144049
0.21584618 -0.015489683 0.29145157
0.21612123 -0.015489742 0.29144934
0.2164347 -0.015489604 0.29145271
0.21674602 -0.015488949 0.29147103
0.21706165 -0.015489315 0.29145992
0.21737352 -0.015488796 0.29147425
0.21764795 -0.015488503 0.29148221
0.21792197 -0.015488487 0.29148212
0.21823545 -0.015488314 0.29148647
0.21854892 -0.01548816 0.29149032
0.21886393 -0.015488109 0.29149121
0.21917847 -0.015488196 0.29148811
0.21945196 -0.015488083 0.29149085
0.2197264 -0.015487818 0.29149795
0.22004151 -0.015488062 0.29149035
0.22035174 -0.015487181 0.29151514
0.22066733 -0.015487371 0.29150906
0.2209426 -0.015487592 0.29150215
0.22129804 -0.015487876 0.2914933
0.22145292 -0.015487461 0.29150495
0.20528091 -0.015089115 0.29130003
0.20637281 -0.015088495 0.29131573
0.2065672 -0.015088045 0.29132831
0.20687547 -0.015085656 0.29139656
0.20715238 -0.015086949 0.29135874
0.20742598 -0.015087094 0.291354
0.20773959 -0.015087389 0.29134485
0.20805147 -0.01508694 0.29135719
0.20836616 -0.015087527 0.29133958
0.20868039 -0.015088117 0.29132196
0.2089535 -0.015087862 0.2913287
0.20922789 -0.015088013 0.29132381
0.20954084 -0.015087788 0.29132968
0.20985545 -0.015088065 0.29132107
0.21016729 -0.01508746 0.29133788
0.21047977 -0.01508727 0.29134271
0.21075256 -0.015086584 0.29136196
0.21102715 -0.015086769 0.29135609
0.21134014 -0.015086683 0.29135796
0.21165356 -0.015086318 0.29136783
0.21196657 -0.015086284 0.29136816
0.21227734 -0.015085472 0.29139096
0.21255313 -0.015085742 0.29138258
0.2128302 -0.015086475 0.29136091
0.21313986 -0.015085316 0.2913937
0.21345335 -0.01508516 0.29139757
0.21376678 -0.015084918 0.29140395
0.21408027 -0.015084798 0.29140678
0.21435638 -0.015085085 0.2913979
0.21462935 -0.015084867 0.29140368
0.21494225 -0.015084469 0.29141453
0.21525624 -0.015084347 0.29141739
0.21556649 -0.015083482 0.29144168
0.21584497 -0.015084404 0.29141453
0.21611974 -0.015084191 0.29142013
0.21643114 -0.015083725 0.29143298
0.21674454 -0.015083326 0.29144382
0.21705694 -0.015082945 0.29145417
0.21737096 -0.015082893 0.29145503
0.21764606 -0.01508317 0.29144648
0.21792097 -0.015082823 0.29145592
0.21823338 -0.015082426 0.29146677
0.21854742 -0.015082478 0.29146463
0.21886089 -0.015082357 0.29146749
0.21917275 -0.015081751 0.2914843
0.21945131 -0.015082466 0.29146317
0.21972439 -0.015082131 0.29147223
0.22003731 -0.015081751 0.29148257
0.2203508 -0.015081665 0.29148445
0.22066106 -0.015080798 0.29150876
0.22097719 -0.015081093 0.29149967
0.22125167 -0.015080954 0.2915031
0.22144978 -0.015081283 0.29149324
0.206599 -0.014700942 0.29133809
0.20679426 -0.014700718 0.29134417
0.20714408 -0.014700011 0.29136392
0.20749721 -0.014700308 0.29135472
0.20773514 -0.014701643 0.29131579
0.20800929 -0.014701575 0.29131722
0.20840062 -0.014701474 0.2913194
0.20863532 -0.014701441 0.29131994
0.20902674 -0.014701687 0.29131213
0.2092222 -0.014701463 0.29131821
0.20953631 -0.01470176 0.29130906
0.20984814 -0.014701087 0.29132789
0.21016276 -0.014701487 0.29131579
0.21047576 -0.014701421 0.29131716
0.21074867 -0.014701008 0.29132855
0.21102257 -0.014700647 0.2913385
0.2113345 -0.014700302 0.29134783
0.21165064 -0.014700718 0.29133523
0.21188357 -0.014700444 0.29134271
0.21227552 -0.014700153 0.29135039
0.20694791 -0.014699508 0.2913788
0.20714507 -0.014699977 0.29136494
0.20733905 -0.014699858 0.29136801
0.21203941 -0.014699892 0.29135838
0.21254838 -0.01469967 0.29136384
0.21282238 -0.014699534 0.29136726
0.21313749 -0.014699864 0.29135716
0.21344933 -0.014699278 0.29137346
0.21376333 -0.014699177 0.29137582
0.21407735 -0.014699144 0.2913762
0.21434951 -0.014698495 0.29139441
0.21462631 -0.014698939 0.29138106
0.21493876 -0.014698613 0.29138991
0.21525222 -0.014698495 0.29139277
0.21556516 -0.014698151 0.2914021
0.21587701 -0.014697617 0.29141694
0.2161513 -0.01469741 0.29142237
0.21642707 -0.014697655 0.29141483
0.21673997 -0.014697258 0.2914257
0.21705344 -0.014697088 0.29143006
0.21736696 -0.014697124 0.29142839
0.21767926 -0.014696366 0.29144976
0.21795523 -0.014696742 0.29143837
0.21823095 -0.014696853 0.29143465
0.2185428 -0.01469625 0.29145151
0.21885736 -0.014696373 0.29144737
0.21917084 -0.014696218 0.29145122
0.21948427 -0.014695943 0.29145855
0.21975701 -0.014695519 0.29147032
0.22003379 -0.014695913 0.29145846
0.22034726 -0.014695672 0.29146481
0.22066069 -0.014695414 0.29147166
0.22097419 -0.014695331 0.29147351
0.22124974 -0.014695401 0.29147097
0.22144358 -0.014694832 0.29148704
0.20659263 -0.014315096 0.29133606
0.20698409 -0.014315413 0.29132622
0.20706426 -0.014315933 0.29131112
0.20894246 -0.014316053 0.29130456
0.21023442 -0.014315683 0.29131305
0.21043114 -0.014315785 0.29130983
0.21082255 -0.014315987 0.29130337
0.21101741 -0.014315488 0.29131743
0.21133141 -0.01431537 0.29132032
0.21164434 -0.01431508 0.29132813
0.21195793 -0.014315258 0.29132253
0.21227139 -0.014315124 0.29132587
0.21254432 -0.014314834 0.29133379
0.21281931 -0.014314733 0.29133621
0.21313116 -0.014314184 0.29135156
0.21344516 -0.014314032 0.2913554
0.21375972 -0.014314175 0.29135078
0.21407214 -0.014313815 0.29136062
0.21434683 -0.014313807 0.29136038
0.21461952 -0.014313303 0.2913745
0.21493348 -0.014313134 0.29137883
0.21524858 -0.014313381 0.29137123
0.21556206 -0.014313247 0.29137456
0.21587551 -0.01431299 0.29138142
0.21615003 -0.014312967 0.29138169
0.21642129 -0.014312133 0.29140526
0.2167374 -0.014312431 0.29139614
0.21705087 -0.014312279 0.29139999
0.21736275 -0.014311782 0.29141384
0.2176773 -0.014311856 0.29141119
0.21795313 -0.014311824 0.29141167
0.21822676 -0.014311602 0.29141757
0.21854132 -0.014311728 0.29141346
0.21885535 -0.014311784 0.29141131
0.21916771 -0.014311234 0.29142666
0.21948172 -0.014311152 0.29142851
0.2197578 -0.014311351 0.29142228
0.22002958 -0.01431057 0.29144436
0.22034518 -0.014310833 0.29143625
0.22065972 -0.01431089 0.29143411
0.22097108 -0.01431034 0.29144943
0.22124697 -0.014310505 0.29144421
0.22144471 -0.014310675 0.29143903
0.20748782 -0.013927508 0.29130661
0.20760581 -0.013927423 0.29130885
0.21207213 -0.013927411 0.29130268
0.21222675 -0.013927206 0.29130831
0.21281508 -0.013927029 0.29131261
0.21320814 -0.01392714 0.29130882
0.21344097 -0.013926556 0.2913253
0.21375601 -0.013926597 0.29132369
0.21407112 -0.013926966 0.29131258
0.21438299 -0.013926402 0.2913284
0.21465726 -0.01392616 0.29133499
0.21493144 -0.013926119 0.29133576
0.2152438 -0.013925572 0.29135108
0.21555942 -0.013925906 0.29134095
0.21587133 -0.013925514 0.2913518
0.21614504 -0.013925093 0.29136357
0.21641971 -0.013925058 0.29136419
0.21673313 -0.013924718 0.29137352
0.21704718 -0.013924759 0.29137188
0.21736117 -0.013924609 0.29137576
0.21767461 -0.013924409 0.29138106
0.21794885 -0.013924055 0.29139087
0.21822302 -0.013923952 0.29139346
0.21853651 -0.013923854 0.29139584
0.21884993 -0.01392353 0.29140466
0.21916822 -0.013924402 0.29137909
0.21948168 -0.013924183 0.29138494
0.21975636 -0.013924194 0.29138422
0.2200301 -0.013923761 0.29139629
0.22034249 -0.013923369 0.29140717
0.22065432 -0.013922771 0.29142395
0.22096889 -0.013922915 0.29141933
0.22124477 -0.013922989 0.29141679
0.22144145 -0.013922975 0.29141688
0.20692739 -0.013538249 0.29138058
0.20708445 -0.01353839 0.29137626
0.21406132 -0.013539637 0.29133144
0.21429846 -0.013540039 0.29131949
0.21469262 -0.01354043 0.29130769
0.21492651 -0.013540039 0.29131871
0.21524052 -0.01354003 0.29131854
0.21555234 -0.01353938 0.29133689
0.21586475 -0.01353899 0.29134771
0.21618143 -0.013539465 0.29133362
0.21645461 -0.013538972 0.29134753
0.21672872 -0.013538684 0.29135543
0.21704434 -0.013538986 0.29134631
0.21735564 -0.013538303 0.29136565
0.21767019 -0.013538362 0.29136351
0.2179466 -0.013538583 0.2913568
0.21821965 -0.013538134 0.29136938
0.21853366 -0.013538126 0.29136926
0.21884768 -0.013538064 0.2913706
0.21916007 -0.01353764 0.29138243
0.21947353 -0.013537441 0.2913878
0.21975191 -0.013538065 0.29136947
0.22002411 -0.013537576 0.29138321
0.22033753 -0.013537239 0.29139253
0.22065312 -0.013537488 0.29138491
0.22096656 -0.01353722 0.29139227
0.22127897 -0.01353683 0.29140311
0.20649488 -0.013154226 0.29132494
0.2139409 -0.013154787 0.29130059
0.2143703 -0.013154335 0.29131317
0.21464618 -0.013154454 0.29130945
0.21490824 -0.013154623 0.29130426
0.21523383 -0.013154259 0.29131439
0.21554728 -0.013154044 0.29132026
0.21586178 -0.013153934 0.2913231
0.21617146 -0.013152855 0.29135388
0.21644859 -0.013153232 0.29134271
0.21672474 -0.013153616 0.29133135
0.21703608 -0.013153038 0.29134765
0.21735004 -0.013152841 0.29135299
0.2176635 -0.013152626 0.29135886
0.21797746 -0.013152515 0.29136172
0.21825321 -0.013152703 0.291356
0.21852911 -0.013152792 0.29135311
0.21884149 -0.01315237 0.29136494
0.21915497 -0.013152225 0.29136881
0.21947055 -0.013152374 0.29136419
0.21978185 -0.013151709 0.291383
0.22005494 -0.013151458 0.29138991
0.22029381 -0.013151937 0.29137579
0.22064643 -0.013151771 0.29138023
0.22092037 -0.013151498 0.29138783
0.22131233 -0.013151292 0.29139334
0.20734566 -0.012724762 0.29130003
0.21440005 -0.012724295 0.29130211
0.21467558 -0.012724287 0.29130191
0.21494861 -0.012723875 0.29131332
0.21522292 -0.01272376 0.29131624
0.21553585 -0.012723418 0.2913256
0.21585035 -0.012723354 0.29132694
0.21616383 -0.012723167 0.2913318
0.21647565 -0.01272255 0.29134911
0.21675174 -0.012722761 0.29134259
0.21702625 -0.012722714 0.29134351
0.21733969 -0.012722442 0.29135084
0.21765369 -0.012722325 0.2913537
0.21796714 -0.012722139 0.29135859
0.2182827 -0.012722265 0.29135445
0.21855344 -0.01272137 0.29137984
0.21883166 -0.012721979 0.29136181
0.2191457 -0.012722086 0.29135817
0.21945915 -0.012721797 0.29136604
0.21977155 -0.012721405 0.29137686
0.22004692 -0.012721426 0.29137579
0.22031723 -0.012720253 0.29140916
0.22063391 -0.012720743 0.29139456
0.22095005 -0.01272111 0.29138345
0.22118446 -0.012720803 0.29139197
0.20682289 -0.01228489 0.29134053
0.20701727 -0.012284491 0.29135162
0.21321148 -0.01228566 0.29130387
0.21336818 -0.012285727 0.29130155
0.21375859 -0.012284813 0.29132703
0.21399398 -0.012284938 0.29132292
0.21442601 -0.012284906 0.29132286
0.21466261 -0.012285164 0.2913149
0.21497664 -0.012285212 0.29131275
0.21524997 -0.012284582 0.29133034
0.21552342 -0.012284378 0.29133558
0.21583855 -0.012284635 0.29132748
0.21615086 -0.012283992 0.2913453
0.21646598 -0.012284232 0.29133767
0.2167778 -0.012283642 0.29135397
0.21705174 -0.012283403 0.29136026
0.21732731 -0.012283499 0.29135686
0.21764131 -0.012283393 0.29135922
0.21795365 -0.012282819 0.29137507
0.21826336 -0.012281762 0.29140484
0.21858054 -0.012282313 0.29138827
0.21885562 -0.012282454 0.29138353
0.21913117 -0.012282567 0.29137966
0.21944681 -0.012282893 0.2913695
0.21976075 -0.012282631 0.29137638
0.22007419 -0.012282351 0.29138374
0.22034831 -0.012282177 0.29138818
0.22062317 -0.012282139 0.29138857
0.22093555 -0.012281705 0.29140043
0.22117157 -0.012281703 0.29139996
0.20665666 -0.011845493 0.29131991
0.20685081 -0.011844789 0.29133961
0.20712572 -0.01184555 0.29131693
0.21257222 -0.011845577 0.29130018
0.2131995 -0.011845235 0.29130819
0.21355318 -0.011845184 0.29130867
0.21374746 -0.011844953 0.29131472
0.21402101 -0.01184453 0.29132614
0.21433549 -0.011844346 0.29133052
0.21465071 -0.011844942 0.2913124
0.21496303 -0.011844362 0.29132825
0.21527547 -0.01184399 0.29133809
0.21555133 -0.011844032 0.29133603
0.21582332 -0.011843367 0.29135442
0.21613945 -0.011843685 0.29134431
0.216454 -0.011843761 0.29134116
0.21676637 -0.011843303 0.29135352
0.21708094 -0.011843363 0.29135084
0.21735375 -0.011842673 0.29136994
0.2176272 -0.01184243 0.2913762
0.21794274 -0.011842558 0.29137158
0.21825624 -0.011842426 0.29137444
0.21857077 -0.0118424 0.2913743
0.21884578 -0.011842363 0.29137456
0.21912077 -0.011842313 0.29137516
0.21943264 -0.011841734 0.29139102
0.21970908 -0.011842024 0.29138181
0.2201397 -0.011841728 0.29138905
0.22037619 -0.011841721 0.2913886
0.22065103 -0.011841579 0.29139188
0.22092514 -0.011841306 0.29139894
0.22119825 -0.011841021 0.29140639
0.21287398 -0.011407218 0.29130718
0.21314849 -0.011407192 0.29130697
0.21385509 -0.011407275 0.29130203
0.21405208 -0.011407178 0.29130411
0.2143261 -0.011407146 0.29130405
0.21463846 -0.011406593 0.29131889
0.21495304 -0.01140675 0.29131326
0.21526429 -0.011405886 0.29133707
0.21558043 -0.011406231 0.29132599
0.21585457 -0.01140602 0.29133108
0.21612884 -0.011405735 0.29133832
0.21643913 -0.01140501 0.29135814
0.21675581 -0.011405442 0.29134452
0.21706867 -0.011404958 0.29135737
0.21734373 -0.011405054 0.29135367
0.21761872 -0.011404877 0.29135776
0.21793272 -0.011404756 0.29136011
0.21824352 -0.011404065 0.29137892
0.2185591 -0.011404255 0.2913723
0.21887363 -0.011404255 0.29137117
0.21914761 -0.011404091 0.29137492
0.21942206 -0.01140381 0.29138204
0.21973604 -0.011403673 0.29138488
0.2200495 -0.011403431 0.29139075
0.22036457 -0.011403605 0.29138461
0.22067854 -0.011403345 0.29139096
0.22095282 -0.011403152 0.29139557
0.22118886 -0.011403221 0.29139277
0.21344854 -0.010965202 0.29132381
0.21368358 -0.010965219 0.29132232
0.21427584 -0.010965882 0.29130065
0.2146657 -0.010965242 0.29131749
0.2149391 -0.010964898 0.29132625
0.21525201 -0.010964459 0.29133761
0.21556816 -0.010964884 0.29132399
0.21588054 -0.010964429 0.29133582
0.21615489 -0.010964331 0.2913374
0.21643056 -0.01096423 0.29133922
0.21674134 -0.010963463 0.29136002
0.21705908 -0.010964078 0.29134092
0.21737039 -0.010963363 0.29136026
0.21764469 -0.010963191 0.29136398
0.21792042 -0.01096332 0.29135913
0.21823221 -0.01096257 0.29137945
0.21854626 -0.010962581 0.29137781
0.21886083 -0.01096266 0.29137418
0.21917637 -0.01096274 0.29137057
0.21944924 -0.010962258 0.2913833
0.21972427 -0.010962196 0.29138392
0.22003773 -0.010961999 0.29138827
0.22042808 -0.010961416 0.29140341
0.22066355 -0.010961191 0.29140896
0.22094266 -0.010961994 0.29138461
0.21348667 -0.010597222 0.29131079
0.21375962 -0.010596954 0.29131755
0.21407411 -0.010596832 0.29131991
0.21435009 -0.010597187 0.29130867
0.21462415 -0.010596786 0.29131931
0.21493772 -0.010596889 0.29131514
0.21525109 -0.010596387 0.29132849
0.21556133 -0.010595488 0.29135332
0.21587911 -0.0105963 0.2913287
0.21615322 -0.010596014 0.29133597
0.21642751 -0.010595769 0.29134208
0.21673992 -0.010595389 0.29135191
0.21705282 -0.010594957 0.29136324
0.21736628 -0.010594767 0.29136759
0.21764384 -0.01059539 0.29134858
0.21791792 -0.010595029 0.29135799
0.21823083 -0.010594614 0.29136887
0.21854538 -0.010594665 0.29136622
0.21885933 -0.010594388 0.29137307
0.21917227 -0.010594199 0.29137743
0.21944761 -0.010594103 0.29137921
0.2201132 -0.010593645 0.29139
0.22034866 -0.010593425 0.29139549
0.2209767 -0.010593303 0.29139674
0.22121108 -0.010592857 0.29140872
0.20717381 -0.010235397 0.29133984
0.21434785 -0.010235678 0.29131112
0.21462306 -0.010235654 0.29131106
0.21493545 -0.010235213 0.29132289
0.21525 -0.010235307 0.29131928
0.21556504 -0.010235384 0.29131615
0.21587691 -0.010234891 0.29132947
0.21615033 -0.010234508 0.29133973
0.21642697 -0.010234876 0.29132837
0.2167404 -0.010234538 0.29133722
0.21705383 -0.010234268 0.29134408
0.21736728 -0.010233948 0.29135242
0.21767968 -0.010233593 0.29136175
0.21795277 -0.010233246 0.29137102
0.21823347 -0.010234355 0.29133821
0.21854374 -0.010233516 0.29136151
0.21885826 -0.010233472 0.29136187
0.21917275 -0.010233376 0.29136372
0.21944545 -0.01023289 0.29137695
0.21972115 -0.010232963 0.29137409
0.22003676 -0.010233178 0.29136696
0.22035126 -0.010233116 0.29136783
0.22066315 -0.010232588 0.29138216
0.2209803 -0.010233029 0.29136857
0.22121207 -0.010232244 0.29139054
0.20666359 -0.0098732254 0.29132867
0.20674367 -0.0098734666 0.29132152
0.21340281 -0.0098732598 0.29131344
0.21407123 -0.0098733669 0.29130894
0.21430734 -0.0098736081 0.29130149
0.21465951 -0.0098730708 0.29131624
0.2149342 -0.0098730698 0.29131567
0.21520887 -0.0098730111 0.29131678
0.21556276 -0.0098731201 0.2913129
0.21587563 -0.0098725837 0.29132774
0.2161501 -0.0098724328 0.29133153
0.21642405 -0.0098721664 0.29133862
0.21673749 -0.0098719057 0.29134545
0.21701632 -0.0098728565 0.29131746
0.21736497 -0.0098716272 0.29135215
0.21767788 -0.0098713152 0.29136053
0.21795183 -0.0098710787 0.29136679
0.21822628 -0.0098708812 0.29137188
0.21854033 -0.009870898 0.29137075
0.2188548 -0.0098707583 0.29137409
0.21916829 -0.0098706018 0.29137793
0.21948332 -0.0098706353 0.29137635
0.21974997 -0.0098688481 0.29142734
0.22002155 -0.009868023 0.29145056
0.22034359 -0.0098696994 0.29140151
0.22066131 -0.0098703196 0.29138294
0.22096109 -0.0098700421 0.29139033
0.22120871 -0.0098698176 0.29139629
0.20646636 -0.0095118452 0.29132032
0.20724949 -0.009512037 0.29131371
0.20744544 -0.0095118517 0.2913188
0.20760162 -0.0095124096 0.29130247
0.21230316 -0.0095119933 0.29130813
0.21293189 -0.0095120538 0.29130554
0.21312684 -0.009511834 0.29131162
0.21344031 -0.009511685 0.29131547
0.2137538 -0.0095116068 0.29131731
0.21406886 -0.0095116831 0.29131469
0.21438237 -0.0095116384 0.29131556
0.2146558 -0.0095113795 0.29132262
0.21493028 -0.0095112538 0.29132593
0.21524313 -0.0095107062 0.29134125
0.21555555 -0.0095103346 0.29135159
0.21587279 -0.0095110675 0.29132998
0.21614493 -0.0095104109 0.29134858
0.21641906 -0.0095101809 0.29135484
0.2167325 -0.0095098764 0.29136318
0.21704644 -0.0095096072 0.29137054
0.21735992 -0.0095094768 0.29137388
0.21767451 -0.0095097255 0.29136628
0.21794949 -0.0095095644 0.29137051
0.21822397 -0.0095094442 0.29137364
0.2185369 -0.0095091574 0.29138151
0.21885036 -0.0095089572 0.29138684
0.21912605 -0.0095089572 0.29138646
0.21947993 -0.0095090587 0.29138309
0.21971542 -0.0095089767 0.29138511
0.22010635 -0.009508606 0.29139528
0.2203418 -0.0095084039 0.29140079
0.2206558 -0.0095082894 0.29140365
0.22096869 -0.0095079513 0.29141301
0.22124325 -0.0095080268 0.29141045
0.20666085 -0.0091507379 0.29131812
0.20685524 -0.0091503505 0.29132918
0.20716716 -0.0091500375 0.29133803
0.21261461 -0.0091508999 0.29130983
0.2127713 -0.0091509083 0.29130954
0.21347868 -0.0091510015 0.29130644
0.21375342 -0.0091510778 0.29130405
0.21406525 -0.0091505582 0.29131886
0.21437763 -0.0091500543 0.2913332
0.21465461 -0.0091504948 0.29132035
0.21492773 -0.0091502722 0.29132661
0.21524222 -0.0091502005 0.29132846
0.21555355 -0.0091495765 0.29134631
0.21586746 -0.0091492459 0.29135567
0.21614313 -0.0091496566 0.2913436
0.2164197 -0.009149895 0.29133657
0.21673153 -0.0091492534 0.29135489
0.21704495 -0.0091489758 0.29136276
0.21735954 -0.0091491118 0.29135862
0.21767084 -0.0091484524 0.29137745
0.2179469 -0.0091486275 0.29137224
0.21822301 -0.0091488771 0.29136485
0.21853268 -0.0091477344 0.29139766
0.21884671 -0.0091477837 0.29139602
0.21916175 -0.0091478163 0.29139489
0.21947472 -0.0091476766 0.29139873
0.21975219 -0.0091480827 0.2913869
0.22002842 -0.0091482392 0.29138219
0.22034086 -0.0091479262 0.29139102
0.22065592 -0.0091480799 0.2913864
0.22096986 -0.0091478536 0.29139274
0.22116479 -0.0091475518 0.29140133
0.2065388 -0.0087824911 0.29133394
0.21312192 -0.0087832808 0.29131144
0.21331851 -0.0087835547 0.29130355
0.21378843 -0.0087831272 0.29131591
0.21406451 -0.008783401 0.29130805
0.21437639 -0.0087829391 0.29132137
0.21465103 -0.0087828087 0.29132512
0.214927 -0.0087831682 0.29131478
0.21524045 -0.0087829828 0.29132012
0.21555232 -0.0087825218 0.29133344
0.21586785 -0.0087825609 0.2913323
0.21617918 -0.008781909 0.29135114
0.21645272 -0.0087814732 0.29136372
0.21673077 -0.0087821558 0.29134405
0.21704482 -0.0087822471 0.29134142
0.21735668 -0.0087816985 0.29135725
0.21767014 -0.0087814797 0.29136363
0.21794479 -0.0087814294 0.29136506
0.21821961 -0.0087813446 0.29136747
0.21853517 -0.0087814536 0.29136437
0.21884759 -0.0087811137 0.29137421
0.21916209 -0.0087811016 0.29137456
0.21947555 -0.0087808808 0.29138094
0.21975109 -0.0087810047 0.29137737
0.22002284 -0.0087801768 0.29140127
0.22033849 -0.0087805968 0.29138917
0.22065303 -0.0087806191 0.29138854
0.22092657 -0.0087801665 0.29140162
0.20719798 -0.0083600832 0.29133698
0.20739409 -0.0083603635 0.29132873
0.21201864 -0.0083611552 0.29130331
0.21268466 -0.0083611021 0.29130444
0.21280366 -0.00836109 0.29130471
0.21315527 -0.0083607575 0.29131415
0.21343118 -0.0083609838 0.29130742
0.21370606 -0.0083610956 0.29130402
0.21409732 -0.0083607808 0.2913129
0.21437219 -0.0083607882 0.29131249
0.21464734 -0.0083606811 0.29131544
0.21492004 -0.0083602285 0.29132837
0.21523185 -0.0083595179 0.2913487
0.21555018 -0.0083605535 0.2913186
0.21586145 -0.0083597917 0.29134041
0.21617547 -0.0083598066 0.29133981
0.21644978 -0.0083596306 0.29134473
0.21672282 -0.0083591603 0.29135814
0.21703734 -0.0083591752 0.29135752
0.21735401 -0.0083596753 0.29134291
0.21766534 -0.0083590169 0.29136175
0.21797979 -0.0083588585 0.29136613
0.21825428 -0.0083586946 0.29137072
0.21852611 -0.0083581088 0.29138747
0.2188417 -0.0083583146 0.29138136
0.21911974 -0.0083589796 0.29136199
0.21958821 -0.0083581954 0.29138434
0.22001866 -0.0083579589 0.29139096
0.22033367 -0.0083579393 0.29139131
0.22064714 -0.0083578164 0.29139465
0.22096381 -0.0083582466 0.29138207
0.22119924 -0.0083580166 0.29138857
0.21385676 -0.0079392856 0.29130861
0.21397582 -0.0079394449 0.29130387
0.21460389 -0.0079395315 0.29130062
0.21523076 -0.0079389615 0.29131633
0.21554476 -0.0079389019 0.2913177
0.21585879 -0.0079388926 0.29131755
0.21617222 -0.0079386597 0.29132393
0.21644811 -0.0079387017 0.29132235
0.21672274 -0.0079385713 0.29132581
0.21703514 -0.0079382174 0.29133564
0.21734646 -0.0079375179 0.29135546
0.21766528 -0.0079385117 0.2913264
0.21797927 -0.0079383478 0.29133075
0.21825261 -0.0079378663 0.29134437
0.21852711 -0.0079377927 0.29134613
0.21884054 -0.0079374555 0.29135549
0.21915454 -0.0079373606 0.29135785
0.21947014 -0.0079376642 0.29134873
0.21974601 -0.0079376893 0.29134771
0.22001965 -0.0079375245 0.29135209
0.22033362 -0.0079373773 0.29135597
0.22061001 -0.0079374947 0.29135227
0.22096047 -0.0079367729 0.29137272
0.22115433 -0.0079362765 0.29138675
0.21589331 -0.0075174402 0.29131481
0.2161682 -0.007517552 0.29131106
0.21671763 -0.0075171753 0.29132095
0.21703267 -0.007517281 0.29131734
0.21734563 -0.0075170416 0.29132366
0.21766013 -0.0075169913 0.29132456
0.21797411 -0.0075168386 0.29132843
0.21825069 -0.0075169951 0.29132339
0.21852411 -0.0075167208 0.29133081
0.2188386 -0.007516637 0.29133266
0.21915208 -0.0075164139 0.29133853
0.21947856 -0.0075163017 0.29134122
0.21977949 -0.0075160032 0.29134923
0.22005524 -0.0075161899 0.29134336
0.22052655 -0.0075160088 0.29134777
0.22095637 -0.0075153201 0.29136688
0.2068692 -0.0070965644 0.29131106
0.20714334 -0.0070963358 0.29131699
0.21596642 -0.0070958901 0.29130858
0.2161634 -0.0070957663 0.29131171
0.21647689 -0.0070956061 0.29131556
0.21675456 -0.0070960396 0.29130235
0.21702737 -0.0070954072 0.29131997
0.21734144 -0.007095559 0.29131484
0.21765435 -0.0070951916 0.29132468
0.21796829 -0.0070948582 0.29133356
0.2182408 -0.0070943008 0.29134896
0.21851934 -0.0070949188 0.29133046
0.21895245 -0.0070951553 0.29132262
0.21910842 -0.0070950147 0.29132628
0.21953715 -0.0070940577 0.29135287
0.21977153 -0.0070936047 0.29136536
0.22004814 -0.0070938715 0.29135701
0.22032528 -0.0070942361 0.2913458
0.22056027 -0.0070941462 0.29134786
0.22095326 -0.0070940023 0.29135102
0.20717761 -0.0066741752 0.29130003
0.21643412 -0.0066731372 0.29130197
0.21674667 -0.0066726655 0.29131463
0.21702148 -0.006672482 0.2913191
0.21733609 -0.0066727656 0.29130998
0.21765004 -0.0066725295 0.29131585
0.21796504 -0.0066724308 0.29131773
0.2182769 -0.0066719013 0.29133207
0.21855186 -0.0066716434 0.29133868
0.21882583 -0.0066715013 0.29134193
0.21914196 -0.0066718189 0.29133186
0.21941517 -0.0066713938 0.29134324
0.2198858 -0.0066711004 0.29135031
0.22004314 -0.0066710948 0.29135001
0.22032049 -0.0066716038 0.29133448
0.22067179 -0.0066708648 0.29135475
0.22094625 -0.0066706473 0.29136017
0.21583796 -0.0062920498 0.29131442
0.21654664 -0.0062924381 0.29130155
0.21709663 -0.006292223 0.29130644
0.21733212 -0.0062921327 0.29130846
0.21764663 -0.0062920935 0.29130882
0.21807969 -0.0062921913 0.29130498
0.21827567 -0.0062920498 0.29130858
0.21854962 -0.0062918621 0.29131332
0.21882463 -0.0062917834 0.29131496
0.21921867 -0.0062918118 0.29131317
0.21945201 -0.00629122 0.29132968
0.21968967 -0.006291667 0.29131621
0.22019742 -0.0062907431 0.29134166
0.22031546 -0.0062908279 0.29133892
0.22067089 -0.0062910821 0.29133072
0.22094393 -0.0062905764 0.29134464
0.22114147 -0.0062906602 0.29134178
0.20716853 -0.0059125666 0.29130572
0.21626711 -0.0059121689 0.29130125
0.21634513 -0.0059122047 0.29130009
0.21689512 -0.0059120366 0.29130399
0.21705213 -0.0059120725 0.29130268
0.21732654 -0.0059117116 0.29131258
0.21764061 -0.0059117833 0.29130998
0.21795236 -0.0059109386 0.29133379
0.21827066 -0.0059118406 0.29130721
0.21858412 -0.0059116185 0.29131305
0.21881904 -0.0059113093 0.29132158
0.2191325 -0.0059111565 0.29132545
0.21944591 -0.0059107612 0.2913363
0.21975991 -0.0059106946 0.29133767
0.22007445 -0.0059106974 0.29133701
0.22031209 -0.0059110797 0.29132557
0.22066359 -0.0059105004 0.29134166
0.22093841 -0.0059103938 0.29134431
0.22117497 -0.005910499 0.29134083
0.21657647 -0.0055319942 0.29130226
0.21665449 -0.0055320314 0.29130113
0.21736185 -0.0055319034 0.29130402
0.21763542 -0.0055316123 0.29131213
0.21794939 -0.0055314144 0.29131749
0.2182634 -0.0055313385 0.29131934
0.21857843 -0.0055313823 0.2913177
0.21885385 -0.0055315928 0.29131135
0.21912897 -0.0055313651 0.29131761
0.21944241 -0.0055311676 0.29132298
0.21975587 -0.0055309348 0.29132932
0.22006932 -0.0055307029 0.2913357
0.22034289 -0.0055303597 0.29134527
0.22061878 -0.0055304258 0.29134306
0.22085746 -0.0055309692 0.29132712
0.21790782 -0.0051514618 0.29130024
0.21869384 -0.0051513659 0.29130268
0.21884912 -0.0051511675 0.29130831
0.2191378 -0.0051511941 0.29130742
0.21939977 -0.0051510469 0.29131156
0.22046185 -0.0051510637 0.29131061
0.22065787 -0.0051510222 0.29131168
0.22093233 -0.0051508639 0.29131612
0.22120857 -0.005151087 0.2913096
0.20691817 -0.0047713667 0.29131436
0.21915965 -0.0047718543 0.29130277
0.22002503 -0.0047718631 0.29130268
0.22036438 -0.0047718086 0.29130432
0.22065309 -0.0047718771 0.29130238
0.220809 -0.0047715781 0.29131106
0.22013292 -0.0043787193 0.2913022
0.22024991 -0.0043786429 0.29130447
0.21949483 -0.0031387766 0.29130417
0.22067489 -0.0031386984 0.29130477
0.21999082 -0.0027248398 0.29130539
0.22030374 -0.0027245639 0.29131272
0.21891595 -0.0023159834 0.29130504
0.22088411 -0.0023159911 0.29130006
0.21923374 -0.0019270458 0.2913177
0.21943024 -0.0019270284 0.29131782
0.22029795 -0.0019274423 0.29130408
0.22065198 -0.0019274593 0.29130286
0.22100389 -0.0019270963 0.29131263
0.22116086 -0.0019269232 0.29131731
0.21825647 -0.001539816 0.29130653
0.22057763 -0.0015397915 0.29130337
0.22070131 -0.0011513626 0.29130298
0.2209408 -0.00076275365 0.29130825
0.20506634 -0.045193892 0.2916055
0.20541731 -0.045193754 0.29160899
0.20557339 -0.04519397 0.29160267
0.20635241 -0.045193881 0.29160404
0.2074443 -0.045193199 0.29162228
0.20775351 -0.045192167 0.29165158
0.20806485 -0.045191653 0.29166594
0.20837915 -0.04519251 0.29164082
0.20865212 -0.045192342 0.29164544
0.20892574 -0.045192681 0.29163522
0.2092372 -0.04519248 0.29164058
0.20954686 -0.045191344 0.29167289
0.20986167 -0.045192219 0.29164729
0.2101725 -0.045191657 0.29166314
0.21044672 -0.045191724 0.29166076
0.21071836 -0.045191046 0.29167998
0.21103078 -0.045190737 0.29168835
0.21134444 -0.045191113 0.29167724
0.21165538 -0.045190897 0.29168308
0.21196842 -0.045190975 0.29168046
0.21228139 -0.045190789 0.29168531
0.21255307 -0.045190215 0.29170138
0.21282679 -0.045190316 0.29169816
0.21313703 -0.045189425 0.29172349
0.21345112 -0.045189641 0.29171687
0.21376358 -0.04518944 0.29172224
0.21407661 -0.04518941 0.29172263
0.21435027 -0.045189321 0.29172471
0.21462305 -0.045189127 0.29172999
0.21493652 -0.04518896 0.29173437
0.21524902 -0.045188881 0.29173625
0.21555878 -0.045188054 0.29175955
0.21587284 -0.045188174 0.29175591
0.21614742 -0.045188338 0.29175073
0.21641979 -0.045187872 0.29176381
0.21673387 -0.045188069 0.2917577
0.21704575 -0.045187645 0.29176956
0.21735659 -0.045187041 0.2917864
0.21767122 -0.045187313 0.29177827
0.21794455 -0.045187216 0.29178074
0.2182176 -0.04518684 0.29179114
0.21853057 -0.045186691 0.29179502
0.21884194 -0.045186199 0.29180887
0.21915552 -0.045186359 0.29180375
0.21946904 -0.045186333 0.29180413
0.2197804 -0.045185871 0.29181695
0.22005427 -0.045185935 0.29181474
0.22032791 -0.045185748 0.29181984
0.22063981 -0.045185357 0.29183072
0.22095332 -0.045185346 0.2918306
0.22126578 -0.045185074 0.29183793
0.2074718 -0.044817168 0.29163375
0.20770736 -0.044817746 0.29161698
0.20809804 -0.044817746 0.29161653
0.20837186 -0.044818204 0.29160315
0.20864414 -0.044817924 0.29161105
0.20891781 -0.04481788 0.291612
0.20922986 -0.044817962 0.29160938
0.20954017 -0.044817336 0.29162717
0.20985153 -0.044816829 0.29164153
0.21016513 -0.044817071 0.29163441
0.21047771 -0.044817206 0.29163027
0.2107528 -0.044817492 0.29162174
0.21102576 -0.044817276 0.29162765
0.21133603 -0.044816475 0.29165047
0.211648 -0.044816315 0.29165486
0.21196266 -0.044816747 0.29164225
0.21227346 -0.044816069 0.29166156
0.21254499 -0.044815596 0.29167497
0.21281716 -0.044814948 0.29169339
0.21313177 -0.044815239 0.29168478
0.21344538 -0.044815563 0.29167515
0.21375674 -0.044815037 0.29169002
0.2140692 -0.044814844 0.29169536
0.21438223 -0.044814855 0.29169473
0.21465409 -0.044814333 0.29170966
0.21492752 -0.04481405 0.29171759
0.21524213 -0.044814393 0.29170749
0.215553 -0.044813886 0.29172182
0.21586382 -0.044813275 0.29173917
0.21617681 -0.04481313 0.29174301
0.21645045 -0.044812966 0.2917476
0.21672484 -0.044813089 0.2917439
0.21703887 -0.044813097 0.29174328
0.21735078 -0.04481278 0.29175213
0.21766272 -0.0448125 0.29176
0.21797305 -0.044811871 0.29177782
0.21824972 -0.044812381 0.29176298
0.21852311 -0.044812012 0.29177323
0.21883664 -0.044811979 0.29177409
0.21914861 -0.044811815 0.29177845
0.21945944 -0.044811208 0.29179579
0.21977349 -0.044811271 0.29179364
0.22004676 -0.044811081 0.29179892
0.22032097 -0.044811137 0.29179707
0.22063342 -0.04481091 0.29180342
0.22094589 -0.04481075 0.29180777
0.22125883 -0.044810466 0.29181564
0.22157076 -0.044810187 0.29182348
0.20715015 -0.044442773 0.29162136
0.20750195 -0.04444316 0.29161015
0.20773531 -0.044442724 0.29162264
0.20804554 -0.044441771 0.29164997
0.20835814 -0.044441998 0.29164335
0.20867187 -0.044442713 0.2916227
0.20894475 -0.044442315 0.29163396
0.20921898 -0.044442937 0.29161608
0.20957111 -0.044443235 0.29160738
0.2098446 -0.044443201 0.29160833
0.21015716 -0.044443324 0.2916047
0.21046899 -0.044442717 0.29162201
0.21077988 -0.044442303 0.29163384
0.21105282 -0.044442017 0.29164195
0.21132576 -0.044441782 0.29164872
0.21163598 -0.04444088 0.29167455
0.21194959 -0.04444116 0.29166642
0.21226373 -0.044441544 0.2916553
0.21257573 -0.044441514 0.29165614
0.21284652 -0.044440731 0.29167855
0.21312098 -0.044440575 0.29168299
0.21343185 -0.044440039 0.29169831
0.21374705 -0.044440631 0.29168123
0.21406004 -0.044440545 0.29168361
0.21437141 -0.044440079 0.29169691
0.21468113 -0.044439111 0.29172474
0.21495618 -0.044439256 0.29172054
0.21523026 -0.044439472 0.29171413
0.21554327 -0.04443942 0.2917155
0.21585521 -0.044439167 0.29172283
0.2161682 -0.044439048 0.29172623
0.21648006 -0.044438541 0.29174054
0.21675336 -0.044438433 0.29174384
0.21702923 -0.044438943 0.29172897
0.21734269 -0.044438783 0.29173335
0.21765406 -0.044438288 0.29174769
0.2179649 -0.044437733 0.29176351
0.21827735 -0.044437509 0.29176986
0.21855183 -0.04443742 0.29177245
0.21882638 -0.044437524 0.29176927
0.21913883 -0.0444373 0.29177561
0.2194508 -0.044437148 0.29177999
0.21976376 -0.044436939 0.29178584
0.22007783 -0.044437099 0.29178122
0.22034825 -0.044436265 0.29180512
0.22062479 -0.044436853 0.2917881
0.22093882 -0.044436906 0.29178646
0.22125024 -0.044436544 0.2917968
0.2215648 -0.044436701 0.29179218
0.22179767 -0.044436269 0.29180467
0.20752884 -0.044044558 0.29160744
0.20772085 -0.044042908 0.291655
0.20803346 -0.044043221 0.29164588
0.20834731 -0.044044286 0.29161525
0.2086743 -0.044044703 0.29160309
0.20885494 -0.044044614 0.29160571
0.20928383 -0.044044137 0.2916193
0.20947947 -0.044044059 0.29162171
0.2099099 -0.044044286 0.29161501
0.21014342 -0.04404432 0.29161403
0.21045637 -0.044044062 0.29162139
0.21076606 -0.044043045 0.29165071
0.21108083 -0.044043846 0.29162759
0.21135558 -0.044044062 0.29162124
0.2116262 -0.044043276 0.29164395
0.21193923 -0.044043381 0.29164082
0.21225007 -0.044042766 0.29165864
0.2125631 -0.044042751 0.291659
0.21287559 -0.044042751 0.29165888
0.21314698 -0.044041771 0.2916871
0.21341926 -0.044041526 0.29169416
0.2137344 -0.044041909 0.29168308
0.21404746 -0.044042069 0.29167843
0.21435988 -0.04404176 0.29168728
0.21467231 -0.04404147 0.29169562
0.21494269 -0.044040497 0.2917237
0.21521714 -0.044040833 0.29171395
0.21553014 -0.044040751 0.29171634
0.21584696 -0.044041689 0.29168925
0.21615666 -0.044040721 0.29171705
0.21646908 -0.044040397 0.29172641
0.21677992 -0.044039778 0.29174423
0.21705389 -0.044039678 0.291747
0.21732685 -0.044039451 0.29175359
0.21764089 -0.044039555 0.29175049
0.21795285 -0.044039339 0.29175684
0.21826638 -0.044039406 0.29175472
0.21858044 -0.044039547 0.29175058
0.21885245 -0.044039 0.29176632
0.21912734 -0.0440391 0.29176342
0.21943766 -0.044038467 0.29178175
0.21975064 -0.044038363 0.29178461
0.22006473 -0.044038557 0.29177898
0.22037823 -0.044038545 0.29177937
0.2206496 -0.044038028 0.29179427
0.22092357 -0.044037886 0.2917982
0.22123818 -0.044038169 0.29179007
0.22155006 -0.044037741 0.29180244
0.22178662 -0.044037908 0.29179746
0.20750819 -0.043584041 0.29163024
0.20801736 -0.043584511 0.2916162
0.20860456 -0.043584988 0.29160202
0.20907257 -0.043584935 0.29160306
0.20938452 -0.043584671 0.29161039
0.2095774 -0.043584246 0.29162246
0.20985033 -0.043584 0.29162937
0.2100465 -0.043584507 0.29161447
0.21043855 -0.043584593 0.2916117
0.21075107 -0.043584548 0.29161257
0.21106245 -0.043584131 0.29162437
0.2113744 -0.043583833 0.29163274
0.21165067 -0.043584678 0.29160807
0.2119197 -0.043583091 0.29165357
0.21223278 -0.043583311 0.29164696
0.21254301 -0.043582406 0.29167277
0.21285659 -0.043582611 0.29166663
0.21317124 -0.043582968 0.29165602
0.21348208 -0.043582391 0.29167235
0.21375751 -0.043582652 0.29166463
0.2140312 -0.04358267 0.29166374
0.21434313 -0.043582372 0.29167211
0.21465503 -0.043582007 0.29168242
0.21496427 -0.043581083 0.29170874
0.21527779 -0.043581061 0.2917091
0.21554969 -0.043580677 0.29171985
0.21582419 -0.043580577 0.29172248
0.21613881 -0.04358092 0.29171234
0.21645233 -0.043580949 0.29171121
0.21676314 -0.043580197 0.29173255
0.21707669 -0.043580368 0.29172742
0.21735032 -0.043580133 0.29173383
0.21762304 -0.043579727 0.29174525
0.21793713 -0.043579951 0.29173863
0.21825011 -0.043579862 0.29174101
0.21856093 -0.043579228 0.29175884
0.21887447 -0.043579258 0.2917577
0.21914743 -0.043579042 0.29176381
0.21942036 -0.043578744 0.29177204
0.21973331 -0.043578565 0.2917769
0.2200458 -0.043578438 0.29178023
0.2203609 -0.043578677 0.29177314
0.22067338 -0.04357855 0.29177651
0.22094806 -0.043578565 0.29177579
0.22122456 -0.04357902 0.29176241
0.22153276 -0.043578014 0.29179123
0.22172718 -0.043577675 0.2918008
0.20694584 -0.043125153 0.29161119
0.20714085 -0.043125227 0.29160875
0.20745297 -0.043125488 0.29160061
0.20788184 -0.043124959 0.29161522
0.20807509 -0.043124091 0.29163978
0.2083476 -0.043124039 0.29164088
0.20862064 -0.043124136 0.29163766
0.20889588 -0.043124869 0.29161608
0.20948306 -0.043125309 0.2916024
0.2099901 -0.043125298 0.29160184
0.21014591 -0.043124672 0.29161951
0.21043408 -0.043125127 0.29160595
0.210732 -0.043124784 0.29161531
0.21104339 -0.043124288 0.29162914
0.21135418 -0.043123581 0.29164898
0.21166724 -0.043123741 0.29164383
0.2119803 -0.043123815 0.29164118
0.21225232 -0.043123234 0.29165745
0.21252729 -0.043123666 0.29164457
0.21283928 -0.043123528 0.29164791
0.21314892 -0.043122303 0.29168272
0.21346578 -0.043123364 0.29165161
0.21377495 -0.043122258 0.29168296
0.21405016 -0.043122321 0.29168072
0.21432078 -0.043121606 0.29170075
0.2146343 -0.043121558 0.29170164
0.21494788 -0.043121736 0.29169601
0.21526036 -0.043121565 0.29170036
0.21557221 -0.043121051 0.29171467
0.21584594 -0.043121174 0.29171064
0.21611978 -0.043121144 0.29171109
0.21643111 -0.043120489 0.29172939
0.21674195 -0.043119904 0.29174572
0.21705708 -0.043120235 0.29173562
0.21736847 -0.043119822 0.29174697
0.21767928 -0.043119133 0.29176629
0.21795487 -0.04311936 0.29175925
0.21822888 -0.043119334 0.29175967
0.21854134 -0.043119106 0.29176554
0.21885538 -0.043119147 0.2917639
0.21916783 -0.04311889 0.29177076
0.21948136 -0.043118928 0.29176915
0.21975134 -0.043118283 0.29178718
0.22002566 -0.04311819 0.29178944
0.22034235 -0.043118745 0.29177287
0.22065376 -0.043118332 0.29178423
0.22096837 -0.043118596 0.29177609
0.22127971 -0.043117996 0.2917929
0.22155125 -0.043117579 0.29180446
0.22174767 -0.043117724 0.29179993
0.20708294 -0.042664882 0.29161161
0.20750849 -0.042663299 0.29165617
0.20773855 -0.042661808 0.2916986
0.20805681 -0.042664174 0.29162955
0.20837004 -0.042664878 0.29160845
0.20860404 -0.042664774 0.29161096
0.20919116 -0.042665023 0.29160225
0.20962018 -0.04266493 0.29160383
0.20985416 -0.042664826 0.29160637
0.21016556 -0.042664401 0.29161766
0.21047688 -0.042663775 0.29163501
0.21075247 -0.042664468 0.29161429
0.21102506 -0.0426642 0.29162139
0.21133754 -0.042663984 0.29162675
0.21164837 -0.042663425 0.29164207
0.21195917 -0.042662673 0.2916629
0.21227613 -0.04266407 0.2916218
0.21254684 -0.042663086 0.29164955
0.21281925 -0.042662662 0.29166114
0.21313056 -0.042662051 0.29167795
0.21344356 -0.042661928 0.29168081
0.21375826 -0.042662494 0.29166371
0.21406963 -0.042661965 0.29167804
0.21434252 -0.042661477 0.29169145
0.21461657 -0.042661574 0.29168791
0.21492682 -0.042660758 0.29171073
0.2152393 -0.04266056 0.29171556
0.21555506 -0.04266132 0.29169294
0.21586421 -0.042660154 0.29172578
0.21617833 -0.042660374 0.29171863
0.21645011 -0.042659655 0.29173872
0.21672466 -0.042659745 0.2917355
0.2170382 -0.042659737 0.29173484
0.21735117 -0.042659592 0.29173821
0.2176647 -0.042659584 0.29173756
0.21797661 -0.042659201 0.2917479
0.21825154 -0.042659473 0.29173937
0.21852353 -0.042658843 0.29175675
0.21883547 -0.042658545 0.29176462
0.21915165 -0.042659026 0.29175001
0.21946307 -0.042658657 0.29175985
0.21977341 -0.042658061 0.29177618
0.22004718 -0.042657766 0.29178393
0.22031976 -0.042657427 0.29179302
0.22063118 -0.0426571 0.29180187
0.22094631 -0.042657472 0.29179025
0.22126193 -0.04265774 0.2917816
0.2215728 -0.0426572 0.29179645
0.22176562 -0.042656608 0.29181302
0.20717882 -0.042203836 0.29163459
0.20745419 -0.042204961 0.29160121
0.20772716 -0.042204816 0.29160446
0.20803908 -0.042204402 0.29161534
0.20827319 -0.042204723 0.29160535
0.20866324 -0.042204775 0.29160252
0.20901489 -0.042204637 0.29160529
0.20924731 -0.042203765 0.29162976
0.20952055 -0.042203855 0.29162621
0.20983526 -0.042204484 0.29160711
0.21014726 -0.042204421 0.29160795
0.21045923 -0.042204209 0.29161277
0.21076998 -0.042203333 0.29163709
0.21100608 -0.042203564 0.29162961
0.211395 -0.042203203 0.29163879
0.21162836 -0.042202637 0.29165429
0.2119403 -0.042202346 0.29166162
0.21225223 -0.042202037 0.29166946
0.21256688 -0.042202458 0.29165635
0.21287884 -0.042202186 0.29166317
0.21315181 -0.042202 0.29166761
0.21342528 -0.042201869 0.29167056
0.21373558 -0.042201109 0.29169136
0.21404965 -0.042201228 0.29168674
0.21436271 -0.04220134 0.2916826
0.21467349 -0.042200543 0.29170442
0.21494751 -0.042200521 0.29170421
0.21521933 -0.042199865 0.2917223
0.21553399 -0.04220023 0.29171064
0.21584648 -0.042200148 0.29171199
0.21615839 -0.04219972 0.29172334
0.21647082 -0.042199448 0.29173017
0.21674605 -0.042199582 0.29172549
0.21701664 -0.042198677 0.29175055
0.21732961 -0.042198472 0.29175538
0.21764475 -0.042198859 0.29174325
0.21795666 -0.042198494 0.29175264
0.21827018 -0.042198427 0.29175347
0.21858156 -0.042197965 0.29176581
0.21885432 -0.042197693 0.29177272
0.21912798 -0.042197563 0.29177567
0.21944153 -0.042197634 0.29177254
0.21975607 -0.042197656 0.29177091
0.22006801 -0.042197347 0.29177874
0.22038101 -0.042197227 0.2917811
0.22065569 -0.042197276 0.29177871
0.22092687 -0.04219665 0.29179594
0.22124195 -0.04219681 0.29179031
0.2215534 -0.042196535 0.29179716
0.22178684 -0.0421963 0.29180318
0.20747356 -0.0417463 0.29161271
0.20778155 -0.041744579 0.29166099
0.20805378 -0.041744158 0.2916719
0.20832929 -0.041745149 0.2916424
0.20864296 -0.041745625 0.29162726
0.20887926 -0.041746475 0.29160181
0.20926821 -0.041746188 0.29160845
0.20958224 -0.041746184 0.29160732
0.20985228 -0.041745126 0.29163656
0.21011592 -0.04174608 0.29160807
0.21043843 -0.04174491 0.29164052
0.21075039 -0.041744661 0.29164636
0.21106121 -0.041743949 0.29166567
0.21137489 -0.041744478 0.29164901
0.2116489 -0.041744411 0.29164982
0.21192129 -0.041743957 0.29166189
0.21223326 -0.041743778 0.29166573
