# .PCD v0.7 - Point Cloud Data file format
VERSION 0.7
FIELDS x y z
SIZE 4 4 4
TYPE F F F
COUNT 1 1 1
WIDTH 1359
HEIGHT 1
VIEWPOINT 0 0 0 1 0 0 0
POINTS 1359
DATA ascii
0.058908734 -0.19791502 -0.32670718
0.059075084 -0.19787751 -0.32669824
0.059310567 -0.19788574 -0.32667068
0.0594716 -0.19787329 -0.32663423
0.059661999 -0.19784176 -0.32660925
0.060736552 -0.19784088 -0.32661533
0.060882632 -0.19789208 -0.32668746
0.061101001 -0.19791013 -0.32673594
0.061269503 -0.19791883 -0.32674864
0.061498892 -0.19791085 -0.32668725
0.06169638 -0.19787388 -0.32666031
0.061940622 -0.19787811 -0.32661724
0.062077284 -0.19788171 -0.32662055
0.06249867 -0.19787133 -0.32663
0.062716 -0.19791999 -0.32668588
0.062864333 -0.19790232 -0.32674897
0.070115 -0.19797499 -0.32679099
0.070289999 -0.19798701 -0.326796
0.070451669 -0.19799466 -0.32679102
0.071359336 -0.19795035 -0.32678965
0.071505003 -0.197983 -0.326794
0.071732216 -0.19792335 -0.32676181
0.071851432 -0.19791284 -0.32674512
0.072084583 -0.19787474 -0.32671592
0.072341673 -0.19788982 -0.32670584
0.072479002 -0.197898 -0.32672444
0.072697997 -0.19792551 -0.32677674
0.072816998 -0.197984 -0.32679901
0.073013999 -0.19799399 -0.32679701
0.073525749 -0.19789024 -0.32674313
0.073681071 -0.19788177 -0.32671601
0.073894218 -0.19789489 -0.32668057
0.074081212 -0.19790712 -0.32664728
0.07430733 -0.19792201 -0.32666269
0.074466377 -0.19792187 -0.32670259
0.074710332 -0.19790266 -0.32676634
0.075361997 -0.19798 -0.32678899
0.075517721 -0.19792245 -0.32676417
0.075688936 -0.19792694 -0.32673201
0.075923719 -0.19789614 -0.32670027
0.0760445 -0.19790301 -0.326673
0.07628753 -0.19788493 -0.32671779
0.076527998 -0.19791351 -0.3267715
0.076646 -0.197974 -0.32679501
0.077472001 -0.19791451 -0.32677698
0.077703267 -0.19789718 -0.32670408
0.077886 -0.19788814 -0.32665387
0.078098997 -0.197909 -0.32662633
0.078281172 -0.19791633 -0.32664034
0.078567334 -0.19793068 -0.32670933
0.078698598 -0.197899 -0.32676673
0.078931667 -0.19795732 -0.32679501
0.079160251 -0.19794799 -0.32677376
0.079299107 -0.19790468 -0.32672727
0.079533502 -0.197878 -0.32662499
0.080743 -0.197841 -0.326603
0.084883995 -0.19792335 -0.32662299
0.085160397 -0.19788641 -0.32679042
0.085292496 -0.19790368 -0.3267895
0.085474603 -0.19790681 -0.32677779
0.085688286 -0.19792357 -0.3267763
0.085882336 -0.19791 -0.32677221
0.086023003 -0.197918 -0.32679668
0.058569003 -0.19776039 -0.32679319
0.058720749 -0.19771267 -0.32675257
0.058904063 -0.19772531 -0.32675251
0.059061788 -0.19771208 -0.32674876
0.059324797 -0.19767512 -0.32671925
0.059472401 -0.19768661 -0.32668662
0.059690427 -0.19768146 -0.32663724
0.0598475 -0.1976285 -0.32661051
0.060548 -0.19765075 -0.326612
0.060707495 -0.19767998 -0.32665598
0.060868368 -0.19768947 -0.32673863
0.061124001 -0.19775644 -0.32679054
0.061319001 -0.197781 -0.326785
0.061518919 -0.19772691 -0.3267405
0.061689537 -0.1977036 -0.32672012
0.061892375 -0.19766939 -0.32666439
0.06209508 -0.19768508 -0.32663643
0.062316246 -0.19767363 -0.32661963
0.062493831 -0.19770966 -0.32666731
0.062734127 -0.19773063 -0.32672361
0.062843837 -0.19772716 -0.32677549
0.0717825 -0.197787 -0.32677549
0.071863182 -0.19771819 -0.32677391
0.072110109 -0.19769011 -0.32674477
0.072337002 -0.19769624 -0.3267245
0.07248164 -0.1976831 -0.32675436
0.073563248 -0.19772375 -0.32678148
0.073695138 -0.19767866 -0.32675892
0.073913999 -0.19768678 -0.32672277
0.07410039 -0.19769947 -0.32667774
0.074327834 -0.19771349 -0.32670999
0.074496001 -0.197724 -0.32675156
0.075689003 -0.19776176 -0.32677776
0.075896338 -0.19772644 -0.32674563
0.076037832 -0.19773017 -0.32674018
0.076307468 -0.19767746 -0.32676002
0.076518998 -0.19775601 -0.32678801
0.077720337 -0.19770633 -0.32677045
0.077886887 -0.19769022 -0.32672545
0.078120172 -0.19770126 -0.32668781
0.078303166 -0.19770934 -0.32671002
0.078585505 -0.19775799 -0.32677299
0.078678995 -0.1977645 -0.32679099
0.079326332 -0.19776767 -0.32678333
0.079493001 -0.1977174 -0.32672679
0.079659253 -0.19769275 -0.32663351
0.080702335 -0.19767784 -0.3266435
0.080898434 -0.19771177 -0.32665369
0.081084713 -0.19770114 -0.32663229
0.081226997 -0.19765501 -0.326608
0.084902011 -0.19771467 -0.32662901
0.085148998 -0.197733 -0.32678801
0.085533999 -0.19775601 -0.32679299
0.085763998 -0.197769 -0.32679299
0.085880749 -0.1977535 -0.32679576
0.058746856 -0.19754629 -0.32678488
0.058890667 -0.19751258 -0.32677984
0.059072569 -0.19752403 -0.32676625
0.059335899 -0.19748239 -0.32676661
0.059460919 -0.19747251 -0.32675189
0.05970829 -0.19748256 -0.32668319
0.059879858 -0.19749129 -0.32662913
0.060114 -0.19746284 -0.32661834
0.0603095 -0.1974785 -0.32661098
0.060497284 -0.19751008 -0.32661986
0.060726672 -0.19748056 -0.32669586
0.060843252 -0.19748788 -0.32676426
0.061546445 -0.19756779 -0.32678223
0.061683767 -0.19752298 -0.32676384
0.061911747 -0.19748013 -0.32672
0.06209809 -0.19748308 -0.32668537
0.062286563 -0.1974853 -0.32664207
0.062479217 -0.19750009 -0.32668865
0.06270875 -0.19752949 -0.32677174
0.062812001 -0.197588 -0.32679
0.071938001 -0.19753751 -0.326783
0.072111093 -0.19752245 -0.32677671
0.072330996 -0.197503 -0.326718
0.072475001 -0.1975362 -0.32677898
0.073748499 -0.197541 -0.32678849
0.073900118 -0.19748613 -0.32676762
0.07410875 -0.19748673 -0.32672578
0.074336804 -0.19751939 -0.32674921
0.074480332 -0.19753617 -0.3267805
0.075924873 -0.19752726 -0.326785
0.076052003 -0.19753601 -0.3267892
0.076266997 -0.19753601 -0.32679999
0.077936999 -0.19755299 -0.32678002
0.078123994 -0.19751228 -0.32675713
0.078264169 -0.19752334 -0.32676902
0.079571001 -0.1975325 -0.326774
0.079727538 -0.19749965 -0.3266699
0.079827003 -0.19746834 -0.32661998
0.080371998 -0.197404 -0.32660899
0.080529571 -0.19745469 -0.32662773
0.080696329 -0.19749144 -0.32669622
0.080920555 -0.19750376 -0.32672945
0.081117004 -0.19751388 -0.3267138
0.08129257 -0.19750014 -0.32665399
0.083154343 -0.19744267 -0.32662836
0.083250999 -0.19742399 -0.326619
0.084890597 -0.1974906 -0.32662719
0.058982 -0.197381 -0.326794
0.059108999 -0.19736715 -0.32679313
0.059315171 -0.19734018 -0.32679135
0.059477005 -0.19729951 -0.32677764
0.059728708 -0.19727586 -0.32673529
0.05988067 -0.19728351 -0.326684
0.060118951 -0.19729953 -0.32665169
0.060269795 -0.1972892 -0.32662541
0.060491171 -0.19731794 -0.32663852
0.060701095 -0.19731613 -0.32671887
0.060821496 -0.19730474 -0.326772
0.061689001 -0.19738932 -0.32679698
0.061885338 -0.19733401 -0.32677832
0.062082 -0.19729145 -0.32673165
0.06229667 -0.19728249 -0.32669887
0.062486373 -0.19730201 -0.32672873
0.072116598 -0.1973612 -0.32679179
0.072263196 -0.19733901 -0.32677299
0.073964 -0.197339 -0.326794
0.074106537 -0.19730777 -0.32677311
0.074251607 -0.19730559 -0.32677659
0.079748437 -0.19730829 -0.32675144
0.079858176 -0.19730766 -0.3266941
0.080134496 -0.197285 -0.32662648
0.080310151 -0.19731937 -0.32664311
0.080488116 -0.19728261 -0.32666799
0.080693893 -0.19728212 -0.32673466
0.080894001 -0.19736101 -0.32679299
0.081142001 -0.197376 -0.32678601
0.081300922 -0.19731864 -0.32674038
0.081583999 -0.19725899 -0.32661799
0.082928002 -0.197262 -0.326621
0.083091997 -0.19727732 -0.32670665
0.083282992 -0.19728489 -0.3266657
0.083461501 -0.197225 -0.32662052
0.084771164 -0.19726582 -0.32661566
0.084875889 -0.19729368 -0.32664144
0.059207998 -0.19718499 -0.32679901
0.059513997 -0.19716981 -0.32678962
0.059743665 -0.19708185 -0.32677278
0.059869781 -0.19707634 -0.32674524
0.06012544 -0.19709244 -0.32669616
0.060277145 -0.19709051 -0.32666469
0.060506433 -0.19711342 -0.32666937
0.06069706 -0.19713962 -0.32676449
0.060812999 -0.197165 -0.3267965
0.062081452 -0.19712272 -0.32677111
0.062298734 -0.19707476 -0.32675797
0.062451668 -0.19708245 -0.32676402
0.079797 -0.197161 -0.326785
0.079891622 -0.19712712 -0.32675752
0.080127746 -0.19712949 -0.32670724
0.080304533 -0.1971204 -0.32672754
0.080475077 -0.19710667 -0.32675216
0.080663659 -0.19714133 -0.32677734
0.081365503 -0.19717699 -0.32679099
0.081595004 -0.197155 -0.32666799
0.081685998 -0.19709334 -0.32665342
0.08258 -0.197035 -0.32660201
0.082702339 -0.19703932 -0.32661134
0.082913995 -0.19710577 -0.326653
0.083108999 -0.197138 -0.32678801
0.083292671 -0.19707578 -0.32674369
0.083506003 -0.19707875 -0.32666522
0.083663747 -0.19704074 -0.32661152
0.084741369 -0.19706786 -0.32664025
0.084874086 -0.19708349 -0.32666925
0.059764195 -0.19695801 -0.32679382
0.059903249 -0.19692224 -0.32678249
0.060135428 -0.19688579 -0.32672766
0.060286313 -0.19688413 -0.32671496
0.060519468 -0.19690366 -0.32673353
0.060636666 -0.19693317 -0.32677785
0.062129498 -0.19699401 -0.326796
0.062321331 -0.19690657 -0.32678568
0.062426999 -0.196941 -0.326794
0.080121003 -0.196973 -0.32679299
0.080262996 -0.19697966 -0.3267813
0.081701636 -0.196935 -0.32673466
0.081860498 -0.196888 -0.3266665
0.082061999 -0.19686601 -0.32661501
0.082295999 -0.19682419 -0.32662421
0.082533002 -0.19689101 -0.32664347
0.08270701 -0.19689339 -0.3266812
0.082906 -0.19691384 -0.32673767
0.083371997 -0.19694 -0.32679501
0.083527744 -0.19689849 -0.32676548
0.083689347 -0.19688058 -0.32668319
0.083862498 -0.196822 -0.32663
0.084702499 -0.19691551 -0.32668862
0.084858142 -0.19690414 -0.32675871
0.060150184 -0.19667882 -0.32675454
0.060274001 -0.1966804 -0.32676888
0.060510285 -0.19669467 -0.32676274
0.060614001 -0.196631 -0.32678899
0.081903502 -0.196732 -0.32674074
0.082079001 -0.19672601 -0.32669631
0.082308397 -0.19668511 -0.32672089
0.082492501 -0.19671449 -0.3267425
0.082694575 -0.19673072 -0.32675999
0.082920499 -0.1967745 -0.32678401
0.083704606 -0.1967334 -0.3267822
0.083879001 -0.19668455 -0.32670882
0.084123671 -0.19665332 -0.32664999
0.0842814 -0.19666061 -0.32664281
0.08445067 -0.19670899 -0.32666031
0.084695838 -0.19674633 -0.32674351
0.060159601 -0.1965342 -0.32678777
0.060523424 -0.19655642 -0.32678899
0.060619999 -0.19656301 -0.32678899
0.082096003 -0.19658899 -0.326785
0.082261503 -0.19659749 -0.32678199
0.083918333 -0.196546 -0.326767
0.084138669 -0.196537 -0.32673267
0.084268749 -0.19651076 -0.32674122
0.084468998 -0.19656999 -0.32676101
0.069853999 -0.21062249 -0.3265875
0.071382001 -0.210648 -0.326588
0.071436003 -0.2106505 -0.3265875
0.071702287 -0.21069884 -0.32655042
0.071900643 -0.21068382 -0.326565
0.072141998 -0.21061499 -0.32654601
0.072368003 -0.210628 -0.32658899
0.073550001 -0.2107015 -0.32657051
0.07370501 -0.21070044 -0.32651114
0.073863402 -0.21069181 -0.32648781
0.074149251 -0.21066526 -0.3265745
0.075702503 -0.2106065 -0.32653248
0.069726877 -0.21043274 -0.32657877
0.069898412 -0.21046908 -0.32653967
0.070123449 -0.21048543 -0.32654479
0.070265763 -0.21049656 -0.32653728
0.070455335 -0.21051766 -0.32655534
0.070713498 -0.21044798 -0.32658777
0.070969999 -0.21041401 -0.32656601
0.071051255 -0.21043475 -0.32657775
0.071322776 -0.2104969 -0.3265157
0.071440667 -0.21049966 -0.32647017
0.071670249 -0.210559 -0.32644248
0.071904883 -0.21057475 -0.3264755
0.072145499 -0.210499 -0.32644498
0.072373994 -0.21047835 -0.32648298
0.0725201 -0.21046109 -0.3265498
0.072646499 -0.210436 -0.3265695
0.073483504 -0.21048075 -0.32651001
0.073690005 -0.21051601 -0.32643589
0.074139111 -0.21052621 -0.32644325
0.074309498 -0.21049049 -0.32648301
0.074497439 -0.21047212 -0.32655123
0.07464733 -0.21044868 -0.32656035
0.075189002 -0.210446 -0.32659799
0.075296 -0.21045101 -0.32659
0.075531997 -0.21049231 -0.32654834
0.075729407 -0.21049583 -0.32646069
0.075860001 -0.210475 -0.32650301
0.069379002 -0.210252 -0.326588
0.069507502 -0.21027176 -0.32658324
0.069711097 -0.21029601 -0.3265194
0.069888443 -0.21030134 -0.32645422
0.070109628 -0.21028988 -0.32643786
0.070260391 -0.21029323 -0.32644197
0.070467003 -0.210299 -0.32645133
0.070713669 -0.21032025 -0.32652891
0.070890829 -0.21030234 -0.32654867
0.071069993 -0.210308 -0.32652533
0.071309499 -0.21030234 -0.32643583
0.071448505 -0.210355 -0.32641149
0.072380997 -0.21033099 -0.32640901
0.072529212 -0.21027753 -0.32645699
0.072697818 -0.21028744 -0.32652715
0.072920501 -0.2102565 -0.32656676
0.073072828 -0.21030068 -0.32654032
0.073285423 -0.21033455 -0.32646772
0.073413 -0.210398 -0.326453
0.074313998 -0.21037801 -0.32640699
0.074513666 -0.21033099 -0.32645655
0.074692897 -0.21029267 -0.32649234
0.074914165 -0.21025002 -0.32654518
0.075123392 -0.21027741 -0.3265112
0.075263254 -0.21030091 -0.32651019
0.075489335 -0.21035068 -0.32645434
0.075706333 -0.21036322 -0.32642743
0.075831994 -0.210393 -0.32640949
0.076120399 -0.21025538 -0.32654279
0.076235503 -0.2102225 -0.32658452
0.069197997 -0.21002699 -0.32658699
0.069343798 -0.21009059 -0.32654756
0.069497004 -0.21010698 -0.32651579
0.069714457 -0.21012624 -0.32645532
0.069848508 -0.210172 -0.32643026
0.070734546 -0.21011071 -0.32644942
0.070900328 -0.21011922 -0.32645914
0.071070857 -0.21014428 -0.32643056
0.072568998 -0.21013699 -0.32640699
0.07271342 -0.21009201 -0.32646725
0.072942108 -0.21009411 -0.32649633
0.073073566 -0.21010555 -0.3264595
0.073233001 -0.210178 -0.32641399
0.074707396 -0.210151 -0.32642019
0.07492017 -0.21010183 -0.32645401
0.075023502 -0.21010551 -0.326455
0.075229339 -0.21015 -0.32641399
0.076112002 -0.21016601 -0.326433
0.076297335 -0.21009877 -0.32653415
0.076459996 -0.21002901 -0.32658499
0.067754 -0.209802 -0.32657099
0.067959994 -0.20983635 -0.32658434
0.068091862 -0.20984571 -0.32658014
0.068332337 -0.20986132 -0.32658768
0.068481661 -0.20986883 -0.32658336
0.068867996 -0.209803 -0.32657501
0.069077007 -0.20985885 -0.32656601
0.069267705 -0.2098947 -0.32649758
0.069460168 -0.20991252 -0.32643467
0.070794001 -0.209967 -0.32641599
0.070865497 -0.20997301 -0.32640949
0.072773993 -0.2099375 -0.3264055
0.072938502 -0.20993024 -0.326426
0.073035002 -0.209953 -0.32640201
0.074900493 -0.2099915 -0.32641453
0.076351002 -0.209939 -0.32641801
0.0764625 -0.209914 -0.32648098
0.076630503 -0.20986149 -0.32655901
0.067730337 -0.20968266 -0.326552
0.067933001 -0.20971267 -0.326525
0.068087064 -0.20968302 -0.32651058
0.068307333 -0.20968999 -0.32651851
0.068485089 -0.20970774 -0.32652676
0.068691172 -0.20969899 -0.32657966
0.068875507 -0.20969599 -0.32654801
0.069079004 -0.20969833 -0.32650098
0.069242664 -0.20971566 -0.32645133
0.076688834 -0.20968817 -0.32652733
0.077742152 -0.20962815 -0.32655913
0.077839002 -0.209648 -0.32648399
0.065784 -0.20941401 -0.32659
0.065875001 -0.20941865 -0.32657799
0.0660825 -0.20943318 -0.32658583
0.067568667 -0.20951116 -0.32655233
0.067678668 -0.20951544 -0.32651499
0.067907006 -0.209553 -0.32643899
0.068082996 -0.20951883 -0.32643035
0.068316996 -0.20950851 -0.32643601
0.068466 -0.20949012 -0.32643354
0.068678223 -0.20950556 -0.3265081
0.068886332 -0.20951734 -0.32648966
0.069070667 -0.20954035 -0.32643449
0.069222003 -0.20959599 -0.32642201
0.076739669 -0.20947783 -0.32648501
0.076892257 -0.2094835 -0.32654512
0.077111408 -0.2094636 -0.32656759
0.077308752 -0.209462 -0.326561
0.077597499 -0.209563 -0.32656002
0.07770367 -0.20949024 -0.32649022
0.0778917 -0.20949039 -0.32649428
0.078040667 -0.20944135 -0.32655665
0.065733001 -0.20927288 -0.32656798
0.065918267 -0.20927806 -0.3265332
0.066090174 -0.20928851 -0.32652068
0.066283442 -0.20929645 -0.326516
0.066469498 -0.20927425 -0.3265405
0.066703498 -0.2092565 -0.32657099
0.0669 -0.209203 -0.32659999
0.067303717 -0.20928158 -0.32655337
0.067555666 -0.20929468 -0.32647365
0.067641795 -0.2093111 -0.32643679
0.06869825 -0.20929851 -0.32642752
0.068896502 -0.209336 -0.32642001
0.076759003 -0.20931135 -0.32642969
0.076921999 -0.20928562 -0.32646689
0.077128001 -0.20928812 -0.32647312
0.077279143 -0.20931442 -0.32645711
0.077686749 -0.20935723 -0.32643914
0.077832997 -0.20939699 -0.326435
0.078096196 -0.20931658 -0.32649761
0.07826782 -0.20925699 -0.32653248
0.064161003 -0.20904 -0.32658899
0.064317249 -0.20905 -0.32658249
0.064510494 -0.209066 -0.326588
0.0647135 -0.2090385 -0.326572
0.064826332 -0.20903534 -0.32658499
0.065496139 -0.20907316 -0.326581
0.065690495 -0.20911825 -0.3265169
0.065907665 -0.20909667 -0.32646582
0.0661017 -0.20909978 -0.32644382
0.066296116 -0.20908055 -0.32643521
0.066479169 -0.20909218 -0.32645902
0.066711545 -0.20912164 -0.32652795
0.066883504 -0.20909987 -0.32655564
0.067072123 -0.20909238 -0.32657275
0.067306131 -0.20910576 -0.32646152
0.076784998 -0.209195 -0.326419
0.076871336 -0.20915432 -0.32641566
0.077 -0.209132 -0.32640299
0.078315832 -0.20913132 -0.32643214
0.078431204 -0.2090998 -0.32648784
0.078608997 -0.20903 -0.32656199
0.063755251 -0.20882875 -0.32656899
0.063863494 -0.20885217 -0.32653168
0.064095169 -0.20889501 -0.32652652
0.064323924 -0.20890419 -0.32650468
0.064517997 -0.20892082 -0.326516
0.064719498 -0.20889151 -0.32648098
0.064920612 -0.20889752 -0.32655346
0.065036662 -0.20886284 -0.32655564
0.065352499 -0.208883 -0.32655224
0.065494403 -0.20890787 -0.32651642
0.065685712 -0.20893256 -0.32645327
0.065906338 -0.20897602 -0.32641432
0.066024996 -0.208996 -0.32640201
0.066487499 -0.20894951 -0.32641101
0.066713624 -0.20890912 -0.32645738
0.066888921 -0.20891142 -0.32649159
0.067078397 -0.20891929 -0.32648763
0.06728439 -0.20896859 -0.32643178
0.078691117 -0.20888151 -0.32650861
0.063500494 -0.20868026 -0.32658824
0.063750833 -0.20870049 -0.32649133
0.063878141 -0.2086897 -0.3264327
0.064104505 -0.20871325 -0.326437
0.064318597 -0.20874341 -0.32642499
0.064508498 -0.208737 -0.32643199
0.064731002 -0.208713 -0.32642832
0.06490615 -0.20871717 -0.32647169
0.065070875 -0.2086831 -0.3265045
0.065315798 -0.20870081 -0.3264932
0.065488011 -0.20869662 -0.32644054
0.065632001 -0.208768 -0.32641599
0.066757195 -0.20870499 -0.326419
0.066895001 -0.2087049 -0.32643518
0.067076005 -0.20875473 -0.32642886
0.078752995 -0.20868033 -0.32645315
0.078887001 -0.20868635 -0.32653064
0.063519001 -0.20852338 -0.32656473
0.063751005 -0.20856461 -0.32644939
0.06383267 -0.20857066 -0.32641032
0.064957254 -0.20854513 -0.32643324
0.065059751 -0.20850286 -0.32644424
0.065274 -0.2085095 -0.32643598
0.065457597 -0.20853178 -0.32640961
0.066858999 -0.208555 -0.32641101
0.078761995 -0.2085395 -0.32641947
0.078905672 -0.20848662 -0.32647473
0.079572 -0.208472 -0.32658699
0.079702601 -0.20848441 -0.32655162
0.079908505 -0.20847601 -0.32650584
0.080000997 -0.20842101 -0.32658601
0.063499071 -0.20830475 -0.32651693
0.065158002 -0.20839299 -0.32642901
0.078922331 -0.20829917 -0.32644084
0.079086833 -0.20829232 -0.32650349
0.079320498 -0.20831259 -0.32652563
0.079493746 -0.20831016 -0.32648653
0.079665288 -0.20835073 -0.32645115
0.079914495 -0.20832801 -0.32640949
0.080068998 -0.20828836 -0.32649934
0.063280843 -0.20807151 -0.32658169
0.063496068 -0.20810579 -0.32644928
0.079093501 -0.2081455 -0.3264215
0.079317667 -0.208157 -0.32642233
0.079467997 -0.2081646 -0.3264184
0.080104001 -0.2081655 -0.32640952
0.080301143 -0.20807841 -0.32649246
0.080427997 -0.20802 -0.32655701
0.062331248 -0.20783626 -0.32659599
0.062504664 -0.20786567 -0.326574
0.062703751 -0.20788966 -0.32656315
0.062891901 -0.20789711 -0.326563
0.063086309 -0.20787668 -0.3265661
0.063280001 -0.20788123 -0.32652503
0.063447252 -0.20789975 -0.32643351
0.080369502 -0.20789951 -0.32642001
0.080463253 -0.20787874 -0.32649449
0.061954498 -0.20760199 -0.32657099
0.062107425 -0.20766744 -0.32655242
0.062310714 -0.2076935 -0.32651854
0.062486999 -0.20768514 -0.32648459
0.062713444 -0.2077098 -0.3264834
0.062901936 -0.20771785 -0.32648614
0.06309054 -0.20770745 -0.32650158
0.06329117 -0.20770352 -0.32646933
0.063441999 -0.20773999 -0.32641
0.080467001 -0.2077685 -0.326417
0.061742999 -0.2074855 -0.32656699
0.06190943 -0.20750371 -0.32650614
0.062073302 -0.20751372 -0.32645616
0.062301338 -0.20751733 -0.32642731
0.062473997 -0.207551 -0.32642666
0.062737882 -0.20754924 -0.32641912
0.062922768 -0.20751548 -0.32642168
0.063106865 -0.20751959 -0.32643455
0.0633085 -0.207579 -0.32643148
0.080754004 -0.20742966 -0.32646
0.080822997 -0.207408 -0.326444
0.061572503 -0.20728 -0.32656768
0.061690494 -0.20730333 -0.32648969
0.0619075 -0.20735951 -0.32642001
0.063117005 -0.20737961 -0.32641459
0.080743507 -0.2072995 -0.32644302
0.080834888 -0.20727079 -0.32645857
0.061539333 -0.2070931 -0.32656312
0.061660752 -0.2071005 -0.3264659
0.080751002 -0.207193 -0.32642001
0.080854751 -0.20711501 -0.32646149
0.061499938 -0.20687777 -0.32654512
0.06164233 -0.20688182 -0.32645434
0.080931 -0.20692949 -0.32649451
0.06137 -0.2067005 -0.32657999
0.061497726 -0.20670882 -0.32650518
0.0616435 -0.20668299 -0.32641733
0.080983505 -0.2067585 -0.326482
0.081257001 -0.206607 -0.32659
0.081499502 -0.2066225 -0.32658702
0.081725001 -0.206634 -0.32657897
0.081925005 -0.20666534 -0.32654932
0.082107663 -0.20667799 -0.32654566
0.061328877 -0.20651425 -0.32655764
0.061499137 -0.20652808 -0.32645792
0.061611667 -0.20652999 -0.3264263
0.081105337 -0.20651799 -0.32649434
0.08132825 -0.20650449 -0.32653901
0.081497774 -0.20647767 -0.32651824
0.081730835 -0.20648749 -0.32648399
0.081911892 -0.206495 -0.32645243
0.082094334 -0.20650549 -0.32642803
0.082315996 -0.206489 -0.32645601
0.060784329 -0.20621933 -0.32658565
0.060898125 -0.20622574 -0.32656762
0.061098997 -0.20627248 -0.32657799
0.061306916 -0.20631829 -0.32652572
0.06145943 -0.20633529 -0.32642359
0.081113003 -0.206375 -0.326435
0.081268504 -0.20635349 -0.326453
0.081468008 -0.20632966 -0.3264322
0.081676997 -0.206339 -0.32641801
0.082328498 -0.206351 -0.32647499
0.082456499 -0.2062885 -0.32649401
0.060484 -0.20606075 -0.32658675
0.060739301 -0.20608473 -0.32652909
0.060890041 -0.20608309 -0.32649583
0.061096698 -0.20608392 -0.32647291
0.061301887 -0.20609976 -0.32648399
0.061439 -0.20610426 -0.32642099
0.082495503 -0.2061125 -0.32644898
0.060100429 -0.20583029 -0.32658002
0.060330104 -0.20589609 -0.3265442
0.060465217 -0.20591578 -0.32650957
0.060707625 -0.20591512 -0.32646212
0.06087207 -0.20590803 -0.3264249
0.061089996 -0.20592517 -0.32641599
0.0613015 -0.20594051 -0.32642722
0.082630672 -0.20590967 -0.32645202
0.059913006 -0.20562042 -0.32657412
0.060089845 -0.20568648 -0.32652479
0.060316097 -0.20570847 -0.32645112
0.060447376 -0.20574412 -0.32642975
0.060633998 -0.205778 -0.32641
0.082686499 -0.20573649 -0.32643598
0.059774164 -0.20548816 -0.32657215
0.059895363 -0.20550172 -0.32651916
0.060093354 -0.20550905 -0.32643887
0.060226001 -0.205547 -0.326401
0.0828605 -0.20547324 -0.32646501
0.059735198 -0.2053182 -0.3265228
0.059888501 -0.20532899 -0.32644111
0.068956003 -0.20524201 -0.32640898
0.069046199 -0.20526759 -0.3264114
0.069386669 -0.20529799 -0.32641968
0.069510505 -0.205235 -0.32640451
0.071170002 -0.205263 -0.32640201
0.071329661 -0.20522867 -0.32640299
0.082896218 -0.20529844 -0.32646266
0.059595 -0.205037 -0.32658499
0.059727009 -0.20511152 -0.3264817
0.059823629 -0.20511824 -0.32641762
0.068694748 -0.20506875 -0.32641
0.068920501 -0.20507634 -0.32642749
0.069073327 -0.20507801 -0.32645035
0.069285505 -0.20510675 -0.32643151
0.069496997 -0.20509091 -0.32642719
0.069683 -0.20503999 -0.32641301
0.069843002 -0.205047 -0.32640901
0.0706442 -0.2050484 -0.32640639
0.071166858 -0.20512356 -0.32640556
0.071254 -0.20509 -0.3264114
0.071459331 -0.20502718 -0.32641533
0.082950331 -0.20511417 -0.32647067
0.059565283 -0.20488557 -0.32656413
0.059703577 -0.20489655 -0.32648066
0.059817858 -0.20490186 -0.32642144
0.067387 -0.204836 -0.32641101
0.067425996 -0.2048375 -0.32640398
0.067956373 -0.20486301 -0.3264145
0.068073288 -0.20485714 -0.32641
0.068331398 -0.20487539 -0.3264136
0.068479493 -0.20487614 -0.32641128
0.068709716 -0.2049247 -0.32643086
0.068884 -0.20491238 -0.32646221
0.069093004 -0.20487332 -0.32649115
0.069268003 -0.20488334 -0.32648334
0.069473118 -0.20488968 -0.32646033
0.069653504 -0.20489998 -0.32643718
0.069881365 -0.20491838 -0.32641909
0.070107549 -0.20490146 -0.32640913
0.070269004 -0.20487741 -0.32641059
0.070559002 -0.204809 -0.32640299
0.070687927 -0.20487741 -0.32642525
0.071172163 -0.20491652 -0.32643652
0.07126011 -0.20492488 -0.32644656
0.071495883 -0.20489031 -0.32643223
0.071738802 -0.20486701 -0.32642141
0.071902253 -0.2048565 -0.32641101
0.082973666 -0.20488034 -0.32646033
0.083023995 -0.20485449 -0.32654202
0.059540335 -0.20467713 -0.32656103
0.059693906 -0.20469289 -0.32646391
0.059813 -0.204761 -0.32640401
0.067350499 -0.20469534 -0.32641917
0.067442007 -0.20469499 -0.32642639
0.067716606 -0.20470563 -0.32642582
0.067957245 -0.20469674 -0.32641849
0.06807258 -0.20467114 -0.32642898
0.068308003 -0.20468032 -0.32642135
0.068481602 -0.20469473 -0.32643905
0.068714835 -0.20470865 -0.32646599
0.068882301 -0.20472522 -0.3264859
0.069087856 -0.20468687 -0.32652202
0.069288336 -0.20468001 -0.32653666
0.069490992 -0.20468301 -0.32647279
0.069672495 -0.20469467 -0.32646617
0.069875561 -0.20470533 -0.32645291
0.070124604 -0.20471975 -0.32644328
0.070287578 -0.20472647 -0.32643387
0.070509002 -0.20467713 -0.32641956
0.070717111 -0.20468205 -0.32645798
0.070930004 -0.20466 -0.326419
0.071125165 -0.20470549 -0.32645687
0.071261577 -0.20471799 -0.32647619
0.071496457 -0.20472446 -0.3264651
0.071722001 -0.20467035 -0.32644701
0.071876995 -0.20468293 -0.32643759
0.072127335 -0.20464599 -0.32640836
0.082983002 -0.20474 -0.32642099
0.083060749 -0.20468125 -0.32652
0.059532229 -0.20447712 -0.32655346
0.059666 -0.2044774 -0.32646328
0.067363247 -0.20450501 -0.32641348
0.067456499 -0.20449491 -0.32644609
0.067694403 -0.20449638 -0.32644489
0.067959502 -0.20454276 -0.32645226
0.068083085 -0.20449047 -0.32646927
0.068327338 -0.20447634 -0.32646
0.068501115 -0.20448983 -0.3264786
0.068733506 -0.20450298 -0.3264915
0.06888777 -0.20451099 -0.32650211
0.069081873 -0.20451939 -0.32654274
0.069306999 -0.20447402 -0.32656133
0.069511108 -0.20447844 -0.32652411
0.069691502 -0.20448868 -0.3264975
0.069894999 -0.20450056 -0.32649377
0.07012625 -0.20451343 -0.32647634
0.0702876 -0.20452033 -0.32646739
0.070497364 -0.20452255 -0.32645109
0.070720598 -0.20447512 -0.32647997
0.070876673 -0.20448433 -0.32644498
0.071144663 -0.2045005 -0.32649717
0.071281165 -0.20451309 -0.32651758
0.071514271 -0.20453054 -0.32649019
0.071691997 -0.204485 -0.32647431
0.071895756 -0.20447707 -0.32646582
0.072132751 -0.20450275 -0.326428
0.07231164 -0.204473 -0.32641837
0.072958998 -0.20445749 -0.3264055
0.073087998 -0.204464 -0.32640669
0.083101667 -0.20447333 -0.32651168
0.059527662 -0.20430116 -0.32652035
0.059654668 -0.20430285 -0.32645234
0.06713675 -0.20426373 -0.32642213
0.067322224 -0.20427267 -0.32642725
0.067469001 -0.20428263 -0.32646152
0.067703001 -0.20430382 -0.32647157
0.067968003 -0.20432101 -0.32649699
0.068059415 -0.20432669 -0.32649049
0.068289801 -0.204283 -0.32650918
0.068520173 -0.20428473 -0.32651028
0.068725497 -0.20431325 -0.32652125
0.068889372 -0.20429945 -0.32654855
0.069109559 -0.2043231 -0.32656798
0.069322497 -0.20430151 -0.32657999
0.069529556 -0.20427276 -0.32654646
0.069711328 -0.20428483 -0.32654753
0.069913544 -0.20429455 -0.32651743
0.070133194 -0.20431292 -0.32650337
0.070294298 -0.20431022 -0.32649529
0.0705062 -0.2043294 -0.3264769
0.070715994 -0.20428982 -0.32652143
0.070873879 -0.20427011 -0.32650498
0.071113668 -0.20429067 -0.32649833
0.071282655 -0.20430535 -0.32654727
0.071516335 -0.2043191 -0.32652852
0.071683832 -0.20432468 -0.32650635
0.071920455 -0.20427771 -0.32649353
0.072129667 -0.20427901 -0.3264657
0.072313406 -0.20428649 -0.32646072
0.072459303 -0.2042795 -0.3264274
0.072655 -0.20430367 -0.32641998
0.072940558 -0.20431767 -0.32642856
0.07308621 -0.20432673 -0.32642442
0.073239751 -0.204298 -0.32641348
0.073420003 -0.204236 -0.326408
0.083145328 -0.20431034 -0.32647702
0.083271667 -0.20422767 -0.32656199
0.083462998 -0.204219 -0.326572
0.059527062 -0.20412594 -0.3264975
0.059622139 -0.20413788 -0.32643858
0.066320755 -0.20404337 -0.32641125
0.066421501 -0.20402551 -0.32641301
0.066733502 -0.20403799 -0.32640499
0.066905752 -0.2041005 -0.32641172
0.06709028 -0.20411201 -0.32643113
0.067293912 -0.20408045 -0.32648098
0.067478932 -0.20408341 -0.3265073
0.067722075 -0.20409851 -0.32650158
0.067986667 -0.20411567 -0.32653096
0.068079084 -0.2041219 -0.32653114
0.068277001 -0.20411679 -0.32653701
0.068524264 -0.20407727 -0.32652941
0.068664834 -0.2040875 -0.32654735
0.068879887 -0.20411444 -0.32658255
0.069075666 -0.20415901 -0.32659069
0.069246665 -0.20417134 -0.32659534
0.069554999 -0.20410863 -0.32657659
0.069715671 -0.204078 -0.32657716
0.069932774 -0.20408887 -0.3265495
0.07013987 -0.20410925 -0.32655311
0.070282809 -0.2041045 -0.32654849
0.070480816 -0.20412089 -0.32650372
0.070711218 -0.2041472 -0.3265641
0.070895426 -0.20409214 -0.32651344
0.071131669 -0.20408367 -0.32651564
0.071285382 -0.20410369 -0.32658008
0.071511455 -0.20410527 -0.32655519
0.071702667 -0.20411867 -0.32653499
0.071921118 -0.2041101 -0.32650864
0.072149001 -0.20407432 -0.32650101
0.072320297 -0.20408522 -0.3264806
0.072466925 -0.20408273 -0.32646942
0.072673671 -0.20409834 -0.32645202
0.072946295 -0.20412157 -0.32646343
0.073093407 -0.20411572 -0.32645023
0.073296778 -0.20412721 -0.3264299
0.073476598 -0.20408079 -0.3264218
0.083168998 -0.204193 -0.326433
0.083268858 -0.20410971 -0.32647318
0.083518498 -0.20407867 -0.32652414
0.083647564 -0.20406286 -0.32654259
0.083836496 -0.2040545 -0.32653803
0.084111996 -0.20406659 -0.32653946
0.084304839 -0.20407216 -0.32655132
0.059370499 -0.203879 -0.32657951
0.059538148 -0.20392187 -0.32647175
0.059619002 -0.2039365 -0.326415
0.066161498 -0.2038555 -0.32640573
0.066311307 -0.20388402 -0.32641554
0.066490114 -0.20388751 -0.326428
0.066705726 -0.20389447 -0.32642671
0.066906504 -0.20391302 -0.32645816
0.067117006 -0.2039271 -0.32646048
0.067306727 -0.20389365 -0.32651126
0.067497656 -0.20387796 -0.32653728
0.067718334 -0.20389201 -0.32652819
0.067856252 -0.2039175 -0.3265405
0.068084858 -0.20390995 -0.32655239
0.068309501 -0.20392601 -0.32657367
0.068544582 -0.20388918 -0.32656249
0.068672426 -0.20387129 -0.32657716
0.068853498 -0.20390701 -0.32659376
0.069557995 -0.203963 -0.32659602
0.069787994 -0.20390999 -0.32658601
0.069936998 -0.20389214 -0.32658085
0.070106998 -0.2038815 -0.32658038
0.070291109 -0.2039019 -0.32657129
0.070481002 -0.20390823 -0.32654011
0.070794001 -0.204 -0.326574
0.070861861 -0.20394258 -0.326552
0.071090803 -0.2038594 -0.32650658
0.071287438 -0.20388855 -0.32656801
0.071535498 -0.20393187 -0.32658437
0.071704857 -0.20390201 -0.32656857
0.071925119 -0.20392656 -0.32653755
0.072070196 -0.20391819 -0.32652742
0.072327182 -0.20387982 -0.32652274
0.072476499 -0.20387633 -0.32650217
0.072692998 -0.20389301 -0.32648733
0.072947606 -0.20391819 -0.32649523
0.073089659 -0.20391288 -0.32648703
0.073284797 -0.20392001 -0.32646731
0.073509932 -0.20391656 -0.32643613
0.073680997 -0.20387399 -0.32640767
0.083310664 -0.20392166 -0.32642218
0.083527751 -0.20390001 -0.32644099
0.083662838 -0.20390435 -0.32646933
0.083845675 -0.20387568 -0.326453
0.084096566 -0.20390971 -0.32645184
0.084277436 -0.20390745 -0.32646227
0.058978997 -0.203618 -0.32658452
0.059152007 -0.2036773 -0.32654399
0.059284091 -0.20367402 -0.32652873
0.05954358 -0.2037075 -0.32644126
0.059606999 -0.20378201 -0.326406
0.066125832 -0.20369834 -0.32641649
0.066322371 -0.20367809 -0.32643306
0.066488951 -0.20368789 -0.32645822
0.066701427 -0.2036892 -0.32645699
0.066925667 -0.20370717 -0.32649115
0.067128368 -0.20373 -0.3264955
0.067289196 -0.2037162 -0.32653821
0.067509383 -0.2036877 -0.32657215
0.067738004 -0.20368654 -0.32657346
0.067827664 -0.20369166 -0.32657135
0.068097129 -0.20370778 -0.32656902
0.068312198 -0.20373242 -0.32658619
0.068513431 -0.20374013 -0.32658729
0.068648137 -0.203683 -0.32658571
0.070105001 -0.203752 -0.32659599
0.070285663 -0.20374843 -0.32658976
0.070499882 -0.20370243 -0.32656989
0.070634492 -0.20370983 -0.32657418
0.071115673 -0.20371501 -0.32656166
0.071307339 -0.20375066 -0.32657465
0.07164 -0.20373599 -0.32659626
0.071910173 -0.20371759 -0.32656351
0.072103329 -0.20372714 -0.32655302
0.07232783 -0.20370132 -0.32655099
0.072490238 -0.20367837 -0.32653475
0.072711997 -0.20368569 -0.32650962
0.072935671 -0.203695 -0.32651535
0.073091604 -0.20370556 -0.32651323
0.073269442 -0.20371357 -0.32650587
0.073511742 -0.20372742 -0.32646081
0.073675781 -0.2036882 -0.32642391
0.073907502 -0.20365974 -0.32640851
0.083347 -0.20378301 -0.326415
0.083490506 -0.20375749 -0.32640898
0.083692499 -0.203798 -0.32642001
0.084680341 -0.20369734 -0.32653853
0.058757 -0.20346799 -0.32658601
0.058892529 -0.20346954 -0.32654828
0.059125617 -0.20348343 -0.3264809
0.059275061 -0.20348218 -0.32644534
0.059549775 -0.203521 -0.32641557
0.065378249 -0.20346275 -0.32641476
0.065460555 -0.20347077 -0.32641509
0.065930083 -0.20348109 -0.32641026
0.066110164 -0.20352417 -0.3264268
0.066291794 -0.20351239 -0.32644829
0.066492148 -0.20347364 -0.32648301
0.066689245 -0.2034875 -0.32648417
0.066899329 -0.20349866 -0.32651564
0.067128666 -0.20351619 -0.32654348
0.067289457 -0.20353107 -0.32657555
0.067442834 -0.20353051 -0.32658499
0.067728505 -0.203548 -0.32659352
0.067841001 -0.203555 -0.32659599
0.068143502 -0.20357451 -0.32659698
0.068268999 -0.203578 -0.32659701
0.068643004 -0.20353501 -0.32659751
0.070525192 -0.20353739 -0.32658821
0.070649751 -0.20353749 -0.32659298
0.071177006 -0.203566 -0.32656199
0.071922377 -0.20353675 -0.32658523
0.072057001 -0.20351815 -0.32658869
0.072315201 -0.20352891 -0.32658279
0.07250315 -0.20350207 -0.32655907
0.072730668 -0.20347966 -0.32653967
0.072954327 -0.20348835 -0.32653865
0.073105171 -0.20350289 -0.32653841
0.073279597 -0.2035 -0.32653767
0.073518641 -0.20352115 -0.32648331
0.073664077 -0.20351408 -0.32644051
0.0739315 -0.20349199 -0.32640833
0.084728852 -0.20352186 -0.32650211
0.084838003 -0.20352232 -0.32657099
0.058585502 -0.2032885 -0.32659
0.058689997 -0.2033089 -0.32654566
0.058897752 -0.20329659 -0.32647815
0.059106201 -0.20332141 -0.3264288
0.059238251 -0.20334224 -0.32640201
0.065342002 -0.2033035 -0.32641932
0.065475285 -0.20327531 -0.326437
0.065702327 -0.20329566 -0.3264133
0.065923437 -0.20330925 -0.32643858
0.066098876 -0.20330837 -0.32645386
0.06629958 -0.20332718 -0.32647741
0.066508226 -0.20328304 -0.32651508
0.066700153 -0.20327592 -0.32651335
0.066907629 -0.20330139 -0.32654989
0.067116335 -0.20330733 -0.32656699
0.067267999 -0.2033345 -0.32659075
0.071984999 -0.20334199 -0.32658899
0.072045334 -0.20335467 -0.32659599
0.072287716 -0.20329942 -0.32659072
0.072491996 -0.20332794 -0.32657635
0.072713248 -0.203272 -0.32656676
0.072972663 -0.20328169 -0.32656536
0.073112734 -0.20329152 -0.32656652
0.07328292 -0.20329933 -0.32655495
0.073524334 -0.20330793 -0.32650474
0.073662467 -0.20332275 -0.3264724
0.073898368 -0.2033115 -0.32643265
0.074073002 -0.20327026 -0.32642099
0.074329503 -0.20321849 -0.3264035
0.084769256 -0.20331851 -0.32644424
0.08487916 -0.20331348 -0.32653382
0.058371499 -0.20304701 -0.32658648
0.058529407 -0.20310247 -0.32652944
0.058680583 -0.20311248 -0.32647589
0.058887914 -0.20314258 -0.32642508
0.06533622 -0.20313078 -0.32643577
0.065480575 -0.20307934 -0.32646465
0.065691501 -0.20306925 -0.32643998
0.065932639 -0.20310321 -0.32646701
0.066096008 -0.20310318 -0.32647711
0.066318922 -0.20312159 -0.32651159
0.066505201 -0.20310654 -0.32655624
0.066690996 -0.20308107 -0.32655784
0.066829398 -0.20306699 -0.32657379
0.067098498 -0.20311525 -0.32657951
0.067208998 -0.20303801 -0.32659701
0.072357602 -0.203127 -0.32657379
0.072504945 -0.203134 -0.32658273
0.07268925 -0.2031315 -0.32657951
0.072991669 -0.20307566 -0.32658699
0.073130935 -0.20308447 -0.32658482
0.073300995 -0.20309234 -0.32657066
0.073528796 -0.203107 -0.32651848
0.073660426 -0.2031038 -0.32648447
0.073899776 -0.20312244 -0.3264569
0.074052602 -0.20311642 -0.326442
0.074330494 -0.203062 -0.32641399
0.074410334 -0.203081 -0.32640335
0.084925167 -0.20310634 -0.32651401
0.058317412 -0.20287515 -0.32654911
0.058513898 -0.2028975 -0.32647091
0.058654897 -0.20289299 -0.3264153
0.065064996 -0.202839 -0.32640699
0.065311998 -0.20292243 -0.32645866
0.065469265 -0.20289172 -0.32649738
0.065678835 -0.20287883 -0.32648197
0.065940917 -0.20289128 -0.32648531
0.066059887 -0.20290144 -0.3265048
0.066286832 -0.20291226 -0.32651666
0.066503398 -0.20292215 -0.32656413
0.066701673 -0.20289257 -0.32658792
0.066836499 -0.202943 -0.32659501
0.067232996 -0.20292167 -0.32658899
0.07108634 -0.20290466 -0.32659435
0.071230002 -0.20290732 -0.32653335
0.072574005 -0.202986 -0.32659698
0.072777003 -0.202962 -0.32659101
0.073107332 -0.20294368 -0.32659367
0.073311917 -0.20289642 -0.3265864
0.073539443 -0.20289288 -0.32654488
0.0736752 -0.2029016 -0.32651207
0.073917672 -0.20291477 -0.32646856
0.074079327 -0.20292383 -0.32645902
0.0743232 -0.20288423 -0.3264195
0.074465714 -0.20288301 -0.32641342
0.084956206 -0.2029094 -0.32645139
0.085097998 -0.2028735 -0.32657701
0.058148146 -0.20266201 -0.32656699
0.058312941 -0.20267639 -0.32649392
0.058486912 -0.20270656 -0.32641962
0.058617 -0.20276049 -0.326406
0.064978004 -0.202629 -0.32642099
0.065078668 -0.202703 -0.32644033
0.065308228 -0.2027151 -0.32646677
0.065476142 -0.20272358 -0.32652372
0.065709002 -0.20268779 -0.32651061
0.065951094 -0.20269158 -0.32652447
0.066066086 -0.20268908 -0.32653901
0.06630592 -0.20270701 -0.32654962
0.066499442 -0.202764 -0.32658634
0.07096 -0.202756 -0.32659701
0.071240999 -0.202768 -0.32652599
0.073353998 -0.202747 -0.32659799
0.07349278 -0.20268267 -0.32658157
0.073678508 -0.20269328 -0.32652766
0.073915139 -0.20271614 -0.32648373
0.074075133 -0.20270699 -0.32648262
0.074320003 -0.20271671 -0.32642701
0.074469499 -0.2026995 -0.32641649
0.074766003 -0.2026445 -0.32640898
0.084981002 -0.202758 -0.32640699
0.085110001 -0.20269866 -0.32653901
0.058141161 -0.20251267 -0.32653776
0.058324099 -0.20250101 -0.32644328
0.064952672 -0.20248616 -0.3264325
0.065099001 -0.20249867 -0.32649368
0.065365501 -0.20250982 -0.32647148
0.065497868 -0.20252238 -0.32654175
0.065713331 -0.20250084 -0.32653114
0.065959871 -0.20248574 -0.32655138
0.066072233 -0.20248213 -0.32654491
0.066282861 -0.20250814 -0.32656553
0.073551826 -0.20247681 -0.32658884
0.073696226 -0.20248573 -0.32653546
0.073920004 -0.20249967 -0.32651365
0.074085005 -0.20250845 -0.32650048
0.074325562 -0.20252423 -0.32647189
0.074487917 -0.20252894 -0.32645476
0.074752003 -0.20250499 -0.32641798
0.074868806 -0.20247158 -0.32641321
0.085123003 -0.20248634 -0.32647434
0.057990998 -0.20231967 -0.32657799
0.05814993 -0.20231959 -0.32647589
0.058261253 -0.20234326 -0.32642901
0.064556666 -0.20232701 -0.32641968
0.064737 -0.20228533 -0.326419
0.064910673 -0.20227231 -0.32643199
0.065062836 -0.20228851 -0.32647634
0.065310337 -0.20229851 -0.326471
0.065498002 -0.20231421 -0.32654434
0.065717801 -0.20231481 -0.3265588
0.065950334 -0.20231199 -0.326547
0.066075251 -0.20227969 -0.32656866
0.066290163 -0.20229101 -0.32658216
0.066463001 -0.20233199 -0.32659698
0.073565751 -0.20230252 -0.32658148
0.073713832 -0.20227748 -0.3265425
0.073938675 -0.20229201 -0.32653266
0.074102893 -0.20230076 -0.32651243
0.07434433 -0.20231712 -0.32649636
0.074506007 -0.20232159 -0.32646772
0.074766003 -0.20233135 -0.32641566
0.074890174 -0.20227829 -0.32642266
0.075083509 -0.20226276 -0.32641226
0.085137002 -0.20227499 -0.32642469
0.085240006 -0.20228601 -0.32658166
0.057955001 -0.202042 -0.32659599
0.058129374 -0.20211449 -0.32645527
0.058203001 -0.20211101 -0.32640401
0.06457334 -0.20211966 -0.32641533
0.064722329 -0.202124 -0.32645535
0.064870104 -0.2021184 -0.32642922
0.065079667 -0.20208067 -0.32647666
0.065329336 -0.20209266 -0.32650232
0.06551595 -0.20210737 -0.32656145
0.065685995 -0.20211732 -0.32658532
0.065876834 -0.20212799 -0.32656434
0.066080265 -0.20209919 -0.32658166
0.066281006 -0.20211801 -0.32658699
0.07356675 -0.20214576 -0.32658899
0.073719054 -0.2020862 -0.32656506
0.073905803 -0.2020818 -0.32654238
0.074089296 -0.20209089 -0.32652861
0.074331373 -0.202108 -0.3265126
0.074479818 -0.20210628 -0.32646754
0.074694663 -0.20211916 -0.32646385
0.074879125 -0.20211539 -0.32644126
0.07511209 -0.20206617 -0.32643393
0.075291 -0.202024 -0.32641068
0.085147999 -0.202136 -0.32642001
0.085256666 -0.202076 -0.32657835
0.057958502 -0.201903 -0.32658702
0.058123838 -0.20190202 -0.32644841
0.058203001 -0.20197099 -0.32640401
0.064527668 -0.20188749 -0.32640919
0.064741008 -0.20191801 -0.32647932
0.064896084 -0.20192634 -0.32645014
0.06509883 -0.20187551 -0.32651067
0.065337799 -0.20190039 -0.32653457
0.065500684 -0.20190297 -0.32657754
0.065628499 -0.20192675 -0.32659101
0.065893494 -0.20192049 -0.32656401
0.066041745 -0.20190975 -0.32659575
0.073572338 -0.201919 -0.32658434
0.073704734 -0.20191567 -0.32657674
0.073881 -0.20188601 -0.32654861
0.074073449 -0.20188099 -0.32654834
0.074311338 -0.20189711 -0.32651255
0.074491583 -0.20190592 -0.32649609
0.074666753 -0.20192675 -0.32648951
0.07486891 -0.20191711 -0.32645935
0.07510557 -0.20190442 -0.32645202
0.075308122 -0.20187476 -0.32642317
0.085268497 -0.2018995 -0.326529
0.057965163 -0.20167284 -0.32658318
0.058118775 -0.20169599 -0.32646278
0.058212999 -0.20167774 -0.3264055
0.064338252 -0.20163751 -0.32641074
0.064452879 -0.20169038 -0.32642815
0.064685501 -0.20170967 -0.32648784
0.064915083 -0.20172034 -0.32647958
0.065127805 -0.2016838 -0.32654601
0.065319337 -0.20167732 -0.32655367
0.065449707 -0.20169529 -0.32657272
0.065617003 -0.201772 -0.32659799
0.065909497 -0.20174849 -0.32658949
0.066083662 -0.20173584 -0.32659552
0.073759548 -0.20173083 -0.32657826
0.073861003 -0.20170833 -0.32655001
0.074096002 -0.20168124 -0.3265416
0.074291334 -0.20168716 -0.32653531
0.074489802 -0.20169839 -0.32652378
0.074640997 -0.20169933 -0.32651067
0.074881673 -0.20171607 -0.32648191
0.075104885 -0.20172623 -0.32646525
0.07531447 -0.20169415 -0.32644123
0.075473003 -0.201673 -0.326401
0.085189 -0.201649 -0.326428
0.085282661 -0.20172632 -0.32653299
0.057962861 -0.2014973 -0.32659012
0.058077 -0.20147963 -0.32651484
0.058221504 -0.20149785 -0.32641637
0.064342774 -0.20148233 -0.32643756
0.064465553 -0.201493 -0.32645667
0.064704664 -0.20150399 -0.32651985
0.064920597 -0.20152071 -0.32651642
0.065087572 -0.20150743 -0.32654831
0.065335497 -0.20150599 -0.32658499
0.065468855 -0.2014683 -0.32657799
0.066142 -0.20159 -0.3265855
0.073757902 -0.2015079 -0.32657737
0.073871329 -0.20152277 -0.32655475
0.074095853 -0.20151372 -0.32654586
0.074308507 -0.20147933 -0.32653549
0.074492387 -0.20149587 -0.32653379
0.0746378 -0.201478 -0.3265304
0.074899338 -0.20150842 -0.32649183
0.075123221 -0.20151891 -0.32648277
0.07530693 -0.20152137 -0.32644239
0.075402498 -0.2014965 -0.32640851
0.085143499 -0.201507 -0.32643101
0.085262798 -0.20150098 -0.3265146
0.057970144 -0.20128 -0.32658815
0.05808489 -0.20128101 -0.3265222
0.05823667 -0.20125951 -0.32641068
0.063568003 -0.201233 -0.32641101
0.063689776 -0.20128857 -0.32641008
0.063882172 -0.2012835 -0.32640868
0.064083599 -0.20129021 -0.32641238
0.064348996 -0.20128527 -0.32646185
0.064469993 -0.20127882 -0.32648081
0.064706199 -0.2013106 -0.32652721
0.064918704 -0.2013001 -0.32655099
0.065077856 -0.20132872 -0.32656956
0.065496333 -0.20130616 -0.32658133
0.073761247 -0.2013135 -0.32659075
0.073869579 -0.20131318 -0.32656977
0.074119553 -0.201326 -0.32655555
0.074335605 -0.20128581 -0.32653818
0.074501 -0.20128232 -0.32653669
0.074648835 -0.2012835 -0.32654667
0.074916914 -0.20129983 -0.32649601
0.075132996 -0.20131901 -0.32649076
0.075320557 -0.20131381 -0.32644725
0.075452998 -0.2013104 -0.32641837
0.085088998 -0.20128019 -0.32642719
0.085245006 -0.20132226 -0.32651573
0.057980198 -0.2010864 -0.3265942
0.058084186 -0.20106791 -0.32653293
0.058265451 -0.20107026 -0.32642636
0.063533671 -0.20105718 -0.32642183
0.063670576 -0.20110837 -0.32643595
0.063888662 -0.20111123 -0.32642278
0.06410291 -0.20112592 -0.32644475
0.064364597 -0.20108399 -0.32651103
0.064482845 -0.20107852 -0.32651207
0.064668 -0.20108967 -0.32656235
0.064909093 -0.20110555 -0.32657826
0.065065853 -0.20109972 -0.32658842
0.073749289 -0.20108472 -0.32657772
0.073870137 -0.20110334 -0.3265633
0.074136332 -0.20111778 -0.32654423
0.074326798 -0.2011172 -0.32653242
0.07451725 -0.20107348 -0.32652244
0.074665502 -0.201075 -0.32652918
0.074933417 -0.20109159 -0.32648608
0.075129502 -0.2011015 -0.32649234
0.075307541 -0.20110886 -0.32646698
0.075454995 -0.20111768 -0.32643756
0.075608999 -0.20108801 -0.3264105
0.084973 -0.201005 -0.326406
0.085086249 -0.20107549 -0.32645512
0.085264251 -0.2010965 -0.32652199
0.0579805 -0.20096751 -0.32659501
0.058101855 -0.20090699 -0.32653758
0.05828527 -0.20087747 -0.32644692
0.063338995 -0.20080701 -0.32640499
0.063502923 -0.20088267 -0.32643154
0.063664608 -0.200891 -0.32646832
0.063848503 -0.20089488 -0.32647413
0.064098202 -0.20091721 -0.32645708
0.064363748 -0.20093176 -0.32653576
0.064498901 -0.20088463 -0.32653201
0.064908251 -0.20094299 -0.3265925
0.065061666 -0.20097065 -0.32659698
0.0737359 -0.20087765 -0.32657689
0.07385733 -0.20089342 -0.32656708
0.074099295 -0.20091419 -0.32654992
0.074260399 -0.20090239 -0.32652879
0.074488096 -0.20091109 -0.32652548
0.074662603 -0.2008936 -0.32650441
0.074945726 -0.20088892 -0.32648647
0.075126283 -0.20088272 -0.32649398
0.075313158 -0.20090514 -0.32647991
0.075460821 -0.20090257 -0.32645437
0.075623997 -0.20091432 -0.32641733
0.084983006 -0.200901 -0.32643002
0.085098892 -0.20087631 -0.32648998
0.085258998 -0.20088701 -0.32653368
0.057992 -0.20072401 -0.32659701
0.058060184 -0.20072317 -0.32657108
0.058297001 -0.20070545 -0.32644284
0.063339196 -0.20071001 -0.32641
0.063485071 -0.20066865 -0.32643205
0.063674331 -0.2006896 -0.32649487
0.06387233 -0.20069823 -0.32651821
0.064103313 -0.20071499 -0.32647577
0.064304195 -0.2007066 -0.32653362
0.06448447 -0.20072094 -0.32654291
0.064600997 -0.20060299 -0.326556
0.073730499 -0.20068288 -0.32658249
0.07386139 -0.20068334 -0.32656062
0.07410489 -0.20069845 -0.32653844
0.074266665 -0.20070736 -0.32653001
0.074499756 -0.20072459 -0.32652941
0.074666448 -0.20072788 -0.3265202
0.074957252 -0.20068213 -0.32649699
0.075067334 -0.20068234 -0.32649118
0.075300075 -0.20069031 -0.32647702
0.075464636 -0.20070682 -0.32645619
0.075662799 -0.20069221 -0.326415
0.084967002 -0.20072426 -0.32642049
0.085107118 -0.20068476 -0.32650113
0.085278668 -0.20067966 -0.32657567
0.058075916 -0.20051593 -0.32658017
0.058302876 -0.20052607 -0.32645667
0.063271001 -0.20059501 -0.326401
0.063513905 -0.20048055 -0.32645929
0.063690066 -0.20048119 -0.32647285
0.063890226 -0.20049089 -0.32653254
0.064115338 -0.2005039 -0.32651284
0.064305 -0.20051353 -0.32655969
0.064488091 -0.20052384 -0.32657084
0.064611495 -0.20050099 -0.32658798
0.073749796 -0.2004942 -0.32658482
0.073878005 -0.20047501 -0.32655185
0.074121669 -0.20048966 -0.32653201
0.074284002 -0.20049918 -0.3265315
0.074517407 -0.20051627 -0.32653764
0.074683994 -0.20051965 -0.32652563
0.074942 -0.20051818 -0.32649821
0.075064003 -0.20048113 -0.32648736
0.075295091 -0.2004806 -0.32648835
0.075466573 -0.20048593 -0.32645515
0.084925503 -0.20051233 -0.3264195
0.085095905 -0.20051965 -0.3265132
0.085291997 -0.20054001 -0.32659701
0.058096599 -0.20032939 -0.3265844
0.058315065 -0.20031945 -0.32647923
0.058428999 -0.20030876 -0.3264215
0.063147001 -0.200239 -0.32641301
0.063343674 -0.20028287 -0.32641765
0.063503154 -0.20031926 -0.32648054
0.063710466 -0.20027587 -0.32652515
0.063908443 -0.20028433 -0.32654712
0.064134084 -0.20029724 -0.32653683
0.064237997 -0.200302 -0.32656732
0.064443499 -0.20032112 -0.32658628
0.072787002 -0.20020901 -0.32659101
0.07371062 -0.20031574 -0.32657889
0.073881686 -0.20029292 -0.32656276
0.074103996 -0.20027882 -0.326525
0.07427045 -0.20028888 -0.32653248
0.074521206 -0.20031372 -0.32654068
0.074683897 -0.20030564 -0.32653791
0.074963495 -0.20032465 -0.32650468
0.075064003 -0.20031287 -0.32649103
0.075312994 -0.20027292 -0.32649997
0.075490929 -0.20028339 -0.32646397
0.075693339 -0.20026733 -0.32640168
0.084643997 -0.200216 -0.32641
0.084944338 -0.20030482 -0.32644984
0.085119329 -0.20031841 -0.32651916
0.058173001 -0.20011032 -0.32657167
0.058333196 -0.20011285 -0.32649338
0.058490299 -0.20011349 -0.326428
0.0631328 -0.200086 -0.32643458
0.06332393 -0.20011415 -0.32646292
0.063496433 -0.20012538 -0.32647282
0.063717671 -0.20008196 -0.32655782
0.063925996 -0.20007712 -0.32655686
