# .PCD v0.7 - Point Cloud Data file format
VERSION 0.7
FIELDS x y z
SIZE 4 4 4
TYPE F F F
COUNT 1 1 1
WIDTH 1438
HEIGHT 1
VIEWPOINT 0 0 0 1 0 0 0
POINTS 1438
DATA ascii
-0.13369051 0.114092 -0.23721001
-0.13389711 0.11431035 -0.23735166
-0.1337395 0.11428583 -0.23724733
-0.1338895 0.1144985 -0.23735867
-0.13372983 0.11451349 -0.23726083
-0.13386686 0.11467629 -0.23736285
-0.13372125 0.11470425 -0.23728475
-0.13384825 0.11487375 -0.237351
-0.1337024 0.1148776 -0.23729238
-0.13358399 0.11492001 -0.237231
-0.13364601 0.115116 -0.237285
-0.13357601 0.115109 -0.23724668
-0.13370639 0.11529319 -0.23735198
-0.13354068 0.115309 -0.23723702
-0.133746 0.115434 -0.237387
-0.13352017 0.1154845 -0.23724084
-0.133618 0.11573 -0.237376
-0.133503 0.11569679 -0.237252
-0.113327 0.115766 -0.237223
-0.133614 0.115808 -0.23739401
-0.13348666 0.11591834 -0.23729467
-0.133375 0.115925 -0.237211
-0.113324 0.115844 -0.23723499
-0.13347225 0.1160785 -0.23732525
-0.13334601 0.11609326 -0.2372075
-0.1133115 0.116115 -0.237266
-0.13344499 0.116249 -0.23732901
-0.133313 0.11630533 -0.23725551
-0.13318001 0.116367 -0.237202
-0.13326199 0.116455 -0.237276
-0.133173 0.1164865 -0.23724499
-0.113393 0.116531 -0.23723701
-0.11338633 0.11668434 -0.23726034
-0.1133745 0.1168855 -0.23733699
-0.113516 0.117127 -0.2372615
-0.113368 0.117006 -0.23737299
-0.11366825 0.11732151 -0.23723501
-0.11354101 0.11729658 -0.23732044
-0.113682 0.11750799 -0.23732799
-0.113575 0.11747 -0.23737
-0.114041 0.117701 -0.237234
-0.113954 0.117701 -0.237258
-0.115702 0.118608 -0.23721699
-0.120429 0.098347001 -0.237195
-0.12030867 0.098313667 -0.23716767
-0.1200884 0.0983086 -0.23714261
-0.11983667 0.098314665 -0.23711567
-0.11969933 0.098305844 -0.23712467
-0.11952267 0.098298334 -0.23714
-0.11930901 0.098284997 -0.23710383
-0.11911725 0.0983155 -0.23709652
-0.11894467 0.098321341 -0.23713632
-0.1187095 0.098315999 -0.23715875
-0.11846309 0.098314643 -0.23713699
-0.118276 0.098345503 -0.23716301
-0.118041 0.098371997 -0.237159
-0.117909 0.098368004 -0.237184
-0.122364 0.098591998 -0.237197
-0.12155 0.098552004 -0.23719899
-0.1213075 0.09853825 -0.23716849
-0.1210595 0.09852425 -0.23712601
-0.120897 0.098521166 -0.23712151
-0.12075633 0.098513 -0.237131
-0.12050983 0.098498166 -0.23708367
-0.12029634 0.098484494 -0.23706667
-0.12013167 0.09844967 -0.23705466
-0.119836 0.098462 -0.237011
-0.119699 0.098452002 -0.23701051
-0.119522 0.098444998 -0.23704401
-0.119246 0.09843 -0.23705199
-0.11891732 0.098439999 -0.23702532
-0.11870841 0.098436601 -0.23708341
-0.11849599 0.098492861 -0.23704529
-0.118337 0.098494999 -0.23704176
-0.118039 0.098519333 -0.23706932
-0.117907 0.098515995 -0.23710549
-0.1177195 0.098506667 -0.237139
-0.11755966 0.098496497 -0.23714282
-0.11737833 0.098485 -0.23714066
-0.117078 0.098512501 -0.237184
-0.116986 0.098545998 -0.237185
-0.124871 0.098797001 -0.237192
-0.12469134 0.098787665 -0.23719366
-0.124023 0.098755002 -0.23718099
-0.123416 0.098761499 -0.2371695
-0.12330332 0.098752834 -0.23715818
-0.123113 0.098720208 -0.23715219
-0.12289983 0.098732501 -0.23714383
-0.122665 0.098701403 -0.2371558
-0.12249012 0.09869834 -0.23715846
-0.12229884 0.098699503 -0.2371345
-0.122149 0.098693505 -0.237156
-0.12197267 0.098721333 -0.23712967
-0.12169734 0.098706335 -0.23713267
-0.12149811 0.098697558 -0.23712246
-0.12130633 0.098685086 -0.23707126
-0.12109566 0.098649003 -0.23704965
-0.120896 0.098669 -0.2370185
-0.120755 0.09866 -0.23702499
-0.117905 0.098664001 -0.23702151
-0.11771701 0.098691247 -0.23703423
-0.11755725 0.098680995 -0.23704299
-0.117377 0.098632999 -0.237037
-0.117075 0.098696999 -0.23709865
-0.11692518 0.098715492 -0.2371335
-0.116714 0.098756 -0.23717099
-0.127409 0.098962002 -0.23718999
-0.12729885 0.098940425 -0.23716973
-0.12705851 0.098942503 -0.23717001
-0.126873 0.098972 -0.237176
-0.125623 0.098990001 -0.23718099
-0.12544399 0.098936498 -0.23717901
-0.12524734 0.098887503 -0.23714334
-0.12509035 0.0988805 -0.23712818
-0.12491599 0.098909251 -0.23712125
-0.12469017 0.098897494 -0.23713233
-0.12447888 0.098914631 -0.23714837
-0.124269 0.098910995 -0.23713499
-0.12406716 0.098904498 -0.23712333
-0.123889 0.098895997 -0.23713101
-0.12370083 0.098885335 -0.23711316
-0.123473 0.098889992 -0.23710421
-0.12330183 0.098899834 -0.23706801
-0.123119 0.098891005 -0.2370715
-0.12289723 0.098916113 -0.23704809
-0.12267033 0.098908506 -0.237049
-0.12247799 0.098894089 -0.23706456
-0.12228762 0.098874003 -0.23705399
-0.122146 0.09887699 -0.23706268
-0.1219705 0.098904498 -0.2370345
-0.121697 0.098853 -0.23702
-0.12149667 0.098843992 -0.23703599
-0.11688312 0.098901749 -0.23705088
-0.11666232 0.098899834 -0.23710716
-0.11649884 0.098918825 -0.23715383
-0.11632661 0.098927602 -0.23717681
-0.12868699 0.099141002 -0.237179
-0.128426 0.099161498 -0.23716301
-0.1283135 0.099154003 -0.23716183
-0.12812561 0.099123605 -0.23715842
-0.1279213 0.099124573 -0.23715986
-0.12748499 0.09910199 -0.23715279
-0.12728567 0.099103332 -0.23711734
-0.12705566 0.099125661 -0.23707999
-0.12687033 0.099120326 -0.23711967
-0.12612733 0.099083334 -0.23714601
-0.12591349 0.099084243 -0.237152
-0.1256645 0.099101 -0.23713949
-0.12544 0.09912201 -0.23711167
-0.12524267 0.099109329 -0.23705167
-0.12508675 0.099064998 -0.23704325
-0.12491233 0.099094331 -0.23704332
-0.12473034 0.099083833 -0.23705785
-0.1245213 0.099089101 -0.23707458
-0.1242665 0.099094503 -0.2370435
-0.124054 0.099109806 -0.2370348
-0.12388574 0.099079251 -0.23704624
-0.1237215 0.099087745 -0.23702775
-0.12347733 0.099046327 -0.23702234
-0.12330034 0.09900967 -0.237004
-0.12316 0.099004 -0.237032
-0.122472 0.099040493 -0.23700351
-0.122224 0.099027 -0.23700701
-0.116805 0.099055 -0.237012
-0.11664367 0.099071674 -0.237022
-0.11647832 0.099113993 -0.23706447
-0.11631189 0.099103779 -0.23709467
-0.11613741 0.099117197 -0.23715839
-0.13096499 0.099333003 -0.23717
-0.13067999 0.0993535 -0.237174
-0.13043851 0.099379495 -0.237183
-0.13031065 0.099368669 -0.23717535
-0.13011433 0.099336661 -0.23717333
-0.1299095 0.099314496 -0.23717901
-0.1294658 0.099344999 -0.237168
-0.12928344 0.099315554 -0.23715509
-0.12909517 0.099307835 -0.23713465
-0.12896501 0.099303335 -0.23713267
-0.12868334 0.099290334 -0.23713134
-0.1284225 0.099309504 -0.237115
-0.12831034 0.099301003 -0.23710118
-0.12813124 0.099292748 -0.23708476
-0.127894 0.09931463 -0.23708238
-0.12748536 0.099291995 -0.23707825
-0.1272933 0.099295899 -0.23705533
-0.1270515 0.099309996 -0.237012
-0.1268675 0.099303499 -0.23702601
-0.12612282 0.099303834 -0.23705368
-0.1258985 0.099285126 -0.23705174
-0.12566133 0.099284001 -0.23705216
-0.125438 0.099267997 -0.237027
-0.124479 0.099218003 -0.23702399
-0.11644851 0.0992615 -0.2370165
-0.11626967 0.099275671 -0.23702534
-0.1161255 0.099322505 -0.23705733
-0.11589867 0.099312335 -0.23716666
-0.1313085 0.099515505 -0.23717076
-0.13113832 0.099489003 -0.23714966
-0.13096233 0.099479325 -0.23710167
-0.1306785 0.099499501 -0.23708901
-0.13043039 0.099512398 -0.23713481
-0.13030788 0.099516779 -0.23711035
-0.13012533 0.099510171 -0.23711316
-0.129905 0.099499665 -0.23711999
-0.12949321 0.099479392 -0.2371275
-0.129297 0.09950643 -0.23707941
-0.12909099 0.099492759 -0.2370645
-0.12896033 0.099524669 -0.23704468
-0.12867901 0.099509992 -0.23704867
-0.12841867 0.099492669 -0.23704499
-0.128298 0.099463709 -0.23704013
-0.1281178 0.099462405 -0.2370384
-0.1279012 0.099470802 -0.23702261
-0.127488 0.099475794 -0.23703721
-0.12730774 0.099436499 -0.23701349
-0.126075 0.099450998 -0.237004
-0.1158945 0.099496499 -0.23709801
-0.131448 0.099691503 -0.237167
-0.13134311 0.099721447 -0.23710391
-0.13113368 0.099709667 -0.23706435
-0.13095732 0.099700667 -0.23702167
-0.13067549 0.099646501 -0.237023
-0.130437 0.099690199 -0.2370688
-0.13030417 0.099700831 -0.23704065
-0.13012074 0.099694252 -0.23705375
-0.12990066 0.099720336 -0.23702832
-0.12949856 0.099700004 -0.23704499
-0.12933771 0.09965729 -0.23703329
-0.12910366 0.099628001 -0.23702066
-0.128957 0.099670999 -0.237001
-0.115894 0.099605002 -0.237023
-0.11536 0.099734999 -0.23718999
-0.131951 0.099940747 -0.23718451
-0.13163035 0.099883668 -0.23716033
-0.13144334 0.099874668 -0.23710768
-0.13133816 0.099905334 -0.23705716
-0.13112999 0.099857002 -0.23701
-0.130429 0.099821493 -0.2370185
-0.1303 0.099811494 -0.2370085
-0.13010199 0.09982834 -0.23701833
-0.11531063 0.099889129 -0.23714612
-0.115184 0.099950001 -0.23718999
-0.13210298 0.10011033 -0.23716731
-0.13193759 0.1001104 -0.23714539
-0.13162532 0.10010501 -0.23708166
-0.131438 0.10009533 -0.237037
-0.13137224 0.10007425 -0.23703399
-0.11529867 0.10010089 -0.2370792
-0.11514781 0.1001142 -0.237178
-0.132493 0.100346 -0.23717901
-0.13234249 0.1003295 -0.23714599
-0.13211234 0.10028317 -0.23712365
-0.1319502 0.1002876 -0.23710239
-0.13162 0.100289 -0.237038
-0.115285 0.10030157 -0.23703487
-0.11513484 0.10032133 -0.23712234
-0.11495999 0.100364 -0.23717634
-0.132733 0.100543 -0.237185
-0.132489 0.100494 -0.23714399
-0.132338 0.10051334 -0.23709267
-0.13210632 0.10050366 -0.23706067
-0.131936 0.10049301 -0.23704118
-0.13161799 0.1004 -0.237005
-0.115232 0.1005055 -0.23701951
-0.11513025 0.10050625 -0.237065
-0.11494175 0.10049801 -0.23712948
-0.132919 0.100698 -0.23716234
-0.13272966 0.10069 -0.23713933
-0.13248335 0.100678 -0.23710334
-0.132333 0.100697 -0.237041
-0.132101 0.100688 -0.23703149
-0.13197351 0.1006795 -0.237012
-0.1151065 0.10067274 -0.237037
-0.11490338 0.100673 -0.23709987
-0.114799 0.100754 -0.23714501
-0.13308349 0.1008935 -0.23718549
-0.13291167 0.100919 -0.237122
-0.132723 0.10091066 -0.23708665
-0.132477 0.10090033 -0.23705466
-0.13233 0.100807 -0.237012
-0.132139 0.100802 -0.237018
-0.1149212 0.1008898 -0.23704641
-0.11475017 0.10090151 -0.23714717
-0.133247 0.1011225 -0.23718676
-0.13307868 0.101077 -0.23714201
-0.132907 0.101103 -0.237075
-0.132718 0.101095 -0.23705
-0.13247301 0.101045 -0.237011
-0.1148765 0.101089 -0.23703051
-0.11469929 0.10112341 -0.23713216
-0.13325344 0.10131858 -0.23715928
-0.13311167 0.10130184 -0.23713231
-0.132902 0.10128667 -0.23702699
-0.132715 0.101205 -0.237021
-0.114872 0.101237 -0.237013
-0.11470614 0.10129372 -0.23710629
-0.13326484 0.10149533 -0.23715584
-0.13310617 0.10152167 -0.23706301
-0.11470283 0.10147033 -0.237069
-0.1145985 0.1015295 -0.237113
-0.133421 0.1017345 -0.23718999
-0.13324575 0.10162425 -0.237133
-0.13311979 0.1017154 -0.23705402
-0.1146825 0.1016795 -0.2370245
-0.114593 0.10171467 -0.23707433
-0.1334376 0.10193519 -0.23717399
-0.13330755 0.10190822 -0.23714457
-0.13312711 0.10189345 -0.23704222
-0.114586 0.1019015 -0.237068
-0.13343751 0.102106 -0.2371645
-0.13329257 0.102108 -0.23710771
-0.13315634 0.10211784 -0.23703985
-0.11457866 0.10208833 -0.23707199
-0.13347526 0.10228451 -0.23716874
-0.13331378 0.10229567 -0.2370891
-0.1331505 0.10230175 -0.23700975
-0.11457133 0.10231167 -0.23704065
-0.13349266 0.102516 -0.23714514
-0.13334322 0.10250656 -0.23709178
-0.13312826 0.10246925 -0.23701049
-0.114565 0.102498 -0.23701701
-0.11433 0.102533 -0.237186
-0.13361567 0.102675 -0.23719133
-0.13348575 0.1027015 -0.23713849
-0.13332957 0.10270586 -0.23705757
-0.133141 0.1026966 -0.2370104
-0.1142985 0.10269774 -0.23717976
-0.133606 0.10289899 -0.23719633
-0.13347834 0.1028885 -0.23713934
-0.13332233 0.10288433 -0.23706788
-0.133095 0.102933 -0.237004
-0.114292 0.1028845 -0.23716375
-0.13351279 0.10311444 -0.23714454
-0.13329981 0.10310382 -0.23705636
-0.133092 0.103007 -0.237002
-0.1142575 0.10312575 -0.23714751
-0.114147 0.103195 -0.237194
-0.13350566 0.10330018 -0.23713718
-0.13330556 0.10330113 -0.23706713
-0.13307799 0.103379 -0.237001
-0.1142795 0.103274 -0.237101
-0.11416167 0.10331934 -0.23715501
-0.13349898 0.10348579 -0.23712966
-0.133312 0.10348263 -0.23708324
-0.11429767 0.10349834 -0.237068
-0.11415243 0.10350371 -0.23713572
-0.13367933 0.103719 -0.23718433
-0.13349032 0.10370811 -0.23712513
-0.13329767 0.10369489 -0.2370699
-0.11428966 0.10372167 -0.23704632
-0.11412767 0.10371712 -0.23713456
-0.1335004 0.1038874 -0.23711801
-0.13332579 0.10392011 -0.23706166
-0.11428151 0.10391 -0.237066
-0.11412001 0.103904 -0.23713201
-0.13366249 0.104129 -0.23719749
-0.13351716 0.10408333 -0.23712867
-0.13331075 0.10410374 -0.23704374
-0.133165 0.104127 -0.237005
-0.114275 0.10409667 -0.23704799
-0.11411277 0.10409155 -0.23713122
-0.13365567 0.104314 -0.23718734
-0.13350834 0.10430668 -0.23713468
-0.13330342 0.10429008 -0.23704676
-0.11426767 0.10431933 -0.23702167
-0.11410511 0.10431511 -0.23711
-0.13367701 0.10451467 -0.23719299
-0.13350099 0.10449225 -0.23713225
-0.13329409 0.10451334 -0.23705401
-0.11426049 0.104507 -0.23701051
-0.11409833 0.10450166 -0.23709285
-0.1337315 0.104653 -0.2371895
-0.13349383 0.1046785 -0.23712964
-0.13328737 0.10469925 -0.23704275
-0.1142545 0.104656 -0.237014
-0.11409725 0.10468163 -0.237119
-0.133632 0.10491133 -0.23719732
-0.13348468 0.10490183 -0.23713416
-0.1332951 0.1048812 -0.23706941
-0.1331985 0.104914 -0.23702049
-0.11424433 0.10491899 -0.237013
-0.11408813 0.10492525 -0.23711611
-0.13362449 0.105097 -0.2371935
-0.13346741 0.1051108 -0.23713338
-0.13329679 0.10511311 -0.23707189
-0.13315649 0.10517099 -0.237003
-0.1142375 0.1051055 -0.23700801
-0.11407533 0.10510033 -0.237082
-0.133618 0.10528266 -0.23717634
-0.13347819 0.1052912 -0.23714039
-0.1332895 0.1052995 -0.2370715
-0.1331825 0.105288 -0.2370545
-0.11405099 0.1052605 -0.23706184
-0.113934 0.105364 -0.237188
-0.133606 0.105582 -0.237192
-0.13346067 0.10549917 -0.23714501
-0.13328256 0.10548489 -0.23706245
-0.13317749 0.1054365 -0.237029
-0.1140045 0.105471 -0.237059
-0.113948 0.10552976 -0.23712325
-0.13360301 0.105655 -0.23718201
-0.13346916 0.10571133 -0.23716019
-0.13327356 0.10570867 -0.23706347
-0.13316649 0.10573401 -0.237021
-0.11397033 0.105686 -0.23711367
-0.133522 0.10587656 -0.23717389
-0.13328528 0.10590128 -0.23707329
-0.133159 0.10591999 -0.237019
-0.114048 0.10588366 -0.23703001
-0.11398401 0.10588967 -0.23713465
-0.13350825 0.10608275 -0.237175
-0.1332925 0.10608384 -0.23707791
-0.1331515 0.106106 -0.237023
-0.11406484 0.10611383 -0.23707248
-0.113973 0.10611666 -0.23718233
-0.13347267 0.10632399 -0.23716767
-0.13331266 0.10630845 -0.23708145
-0.13317101 0.106296 -0.23703085
-0.11405675 0.1063025 -0.237086
-0.113966 0.106305 -0.237169
-0.13346651 0.106508 -0.237139
-0.133305 0.10649566 -0.23708868
-0.13316779 0.106535 -0.2370178
-0.11407085 0.10647614 -0.23703471
-0.11395967 0.10648999 -0.23714368
-0.13365149 0.106666 -0.237198
-0.133459 0.10669533 -0.23715533
-0.13329777 0.10668189 -0.23708746
-0.13315475 0.106706 -0.237036
-0.1140305 0.10668976 -0.237022
-0.11395267 0.10671233 -0.23711334
-0.13349141 0.10690681 -0.23717301
-0.13328911 0.10690478 -0.23707788
-0.13314733 0.106893 -0.2370405
-0.114009 0.106895 -0.237019
-0.11391126 0.10689975 -0.23711449
-0.133476 0.10712034 -0.23717134
-0.13327201 0.10710614 -0.23707344
-0.133138 0.10711715 -0.23704934
-0.114003 0.10704499 -0.237014
-0.113904 0.10708667 -0.23710799
-0.13348649 0.10729518 -0.23717666
-0.13328201 0.107288 -0.23708889
-0.13313933 0.10729466 -0.237068
-0.11391175 0.10733075 -0.23710524
-0.133453 0.10749825 -0.23716275
-0.13328472 0.10749172 -0.23708928
-0.13314213 0.10750138 -0.23704949
-0.11388575 0.107504 -0.237151
-0.1334195 0.107702 -0.23715401
-0.1332915 0.107689 -0.23708449
-0.13314001 0.10771666 -0.2370531
-0.11390475 0.10767813 -0.23709488
-0.13346301 0.10789167 -0.23717166
-0.13328351 0.10787684 -0.23709552
-0.13313317 0.10790184 -0.23703732
-0.11387384 0.10790917 -0.23706484
-0.13345575 0.10807849 -0.23716874
-0.133293 0.10811243 -0.23709472
-0.13312566 0.10808901 -0.23704447
-0.11383151 0.1080985 -0.23708099
-0.13349849 0.108305 -0.2371895
-0.13329856 0.10830515 -0.23709528
-0.13313259 0.10830342 -0.23703858
-0.11384175 0.108268 -0.237085
-0.13349099 0.10849199 -0.23718868
-0.133314 0.1084865 -0.23709187
-0.133122 0.1084906 -0.2370172
-0.1138422 0.1085274 -0.23707719
-0.13348366 0.10871333 -0.23715967
-0.13329612 0.10869934 -0.23707689
-0.13312949 0.10868733 -0.23702832
-0.11384325 0.10869725 -0.23705401
-0.13352001 0.10890275 -0.2371715
-0.13327661 0.10891288 -0.23707575
-0.13312033 0.10891217 -0.23703301
-0.11384901 0.10885966 -0.23703533
-0.113796 0.1089305 -0.237141
-0.13351251 0.10908967 -0.23717634
-0.13333 0.109093 -0.23710421
-0.1331524 0.10909259 -0.2370306
-0.1138645 0.10907 -0.237011
-0.11378833 0.10911933 -0.23714334
-0.13346033 0.10931101 -0.23715734
-0.13331349 0.10929983 -0.23709033
-0.1331405 0.1092955 -0.237028
-0.1137835 0.109303 -0.23709449
-0.13345399 0.1094955 -0.23713601
-0.133296 0.10950901 -0.237094
-0.13313287 0.10950013 -0.23702262
-0.11385 0.109446 -0.23700699
-0.11372533 0.1094915 -0.23712718
-0.13349 0.10968584 -0.2371565
-0.1333068 0.10969 -0.23710001
-0.133174 0.10969999 -0.237048
-0.113841 0.109671 -0.2370055
-0.113742 0.1097335 -0.23709325
-0.133609 0.109998 -0.237197
-0.13348134 0.10990983 -0.23715132
-0.13329016 0.10989767 -0.23708881
-0.13311116 0.109907 -0.23702168
-0.11372834 0.10988867 -0.237082
-0.1336045 0.110109 -0.23719251
-0.13347426 0.110096 -0.2371465
-0.1332738 0.110104 -0.23706901
-0.13312201 0.11008149 -0.23701619
-0.11370201 0.11012825 -0.237091
-0.13360099 0.110219 -0.237188
-0.13349964 0.11029449 -0.23714913
-0.133285 0.11028481 -0.23706579
-0.1331525 0.110294 -0.237014
-0.11369567 0.110314 -0.23707116
-0.133679 0.110451 -0.23720001
-0.13350244 0.11050945 -0.23714277
-0.13326834 0.11049166 -0.23705268
-0.1136875 0.110504 -0.237086
-0.1336695 0.11071301 -0.237197
-0.13349567 0.11069583 -0.23713483
-0.13326049 0.110714 -0.2370345
-0.11367968 0.11069233 -0.23708832
-0.133665 0.110825 -0.23719899
-0.13350013 0.11087313 -0.2371255
-0.13330024 0.11092401 -0.237055
-0.11367134 0.11091751 -0.23707731
-0.13365467 0.11112233 -0.23717333
-0.13352349 0.11111 -0.23713619
-0.13330738 0.11108275 -0.23704925
-0.11366375 0.1111065 -0.23708001
-0.1336475 0.111309 -0.237166
-0.13351676 0.111296 -0.23712225
-0.13333367 0.1113195 -0.23705401
-0.1136484 0.1112766 -0.23705821
-0.113507 0.111262 -0.23717201
-0.13363934 0.11149734 -0.237177
-0.13350983 0.111482 -0.23711602
-0.13332675 0.111505 -0.23704824
-0.113602 0.111442 -0.237069
-0.113548 0.1115565 -0.23709601
-0.13366321 0.1117088 -0.23718841
-0.13350099 0.11170667 -0.237113
-0.13331951 0.11169216 -0.23703815
-0.133624 0.111908 -0.23715851
-0.1334945 0.11189175 -0.23709601
-0.13331117 0.1119155 -0.23703367
-0.13361599 0.11209667 -0.23716901
-0.13348751 0.11207851 -0.23709051
-0.13332234 0.11208934 -0.23701768
-0.11352734 0.11211816 -0.23706134
-0.1336295 0.1123 -0.23715025
-0.13347866 0.11230334 -0.23709117
-0.13334768 0.11229233 -0.23705368
-0.1135195 0.11230651 -0.23706225
-0.13364151 0.112507 -0.23715851
-0.13348566 0.11251534 -0.23708248
-0.13334 0.11251434 -0.23702399
-0.1134885 0.112477 -0.23707075
-0.1336735 0.112699 -0.2371885
-0.13351774 0.11269287 -0.23710814
-0.133332 0.112738 -0.237011
-0.11345401 0.11272267 -0.23708467
-0.13366432 0.11292433 -0.23719333
-0.13349888 0.11290611 -0.23709835
-0.13332534 0.11289001 -0.23703098
-0.113447 0.112876 -0.237092
-0.1336575 0.113111 -0.23718399
-0.1334915 0.11309417 -0.23709767
-0.133338 0.11313301 -0.23702475
-0.13364966 0.113299 -0.23718967
-0.13352732 0.11328716 -0.23711817
-0.1333535 0.1133025 -0.23703176
-0.13367081 0.1135086 -0.23718219
-0.13351867 0.11351051 -0.23711018
-0.13334616 0.11348967 -0.23702915
-0.13367841 0.11368899 -0.23718241
-0.13351201 0.1136965 -0.23710075
-0.13334599 0.1137018 -0.2370408
-0.113418 0.11363 -0.237078
-0.13362733 0.11389599 -0.23716633
-0.13350533 0.1138825 -0.237083
-0.13337299 0.113907 -0.237057
-0.13361765 0.11412334 -0.23718034
-0.133496 0.11410949 -0.23709483
-0.1333435 0.11411125 -0.23704001
-0.13361099 0.114309 -0.237165
-0.133488 0.114298 -0.23710576
-0.13331367 0.11431567 -0.23703201
-0.133605 0.11446 -0.23716851
-0.13349713 0.11449973 -0.23712315
-0.1333065 0.114503 -0.2370245
-0.13348433 0.11469217 -0.23714702
-0.1332985 0.11469183 -0.23703635
-0.113377 0.11468566 -0.23707099
-0.1334718 0.11488219 -0.23714621
-0.13328019 0.11490419 -0.23705399
-0.133145 0.114835 -0.23700701
-0.11336867 0.11491134 -0.23705566
-0.13345584 0.1150895 -0.23712568
-0.13328919 0.1150888 -0.23708539
-0.13313299 0.115137 -0.23700701
-0.1133595 0.115104 -0.23708901
-0.1334025 0.11528 -0.23716
-0.13328972 0.11531372 -0.23709972
-0.13313 0.11521 -0.237002
-0.11335149 0.115262 -0.237133
-0.13329428 0.11550971 -0.23711513
-0.1331145 0.1155545 -0.237045
-0.11346775 0.11553375 -0.23702151
-0.1333095 0.11569537 -0.23713788
-0.133064 0.1157005 -0.237031
-0.11348476 0.115707 -0.23703776
-0.1133335 0.115648 -0.23719001
-0.13327467 0.115888 -0.2371645
-0.13307615 0.11590314 -0.23706199
-0.1134666 0.115885 -0.23706619
-0.13328101 0.116068 -0.237197
-0.13309582 0.11608616 -0.23709881
-0.13289513 0.11612438 -0.23702875
-0.113416 0.1160965 -0.23712501
-0.1331238 0.116267 -0.23714361
-0.13289087 0.11629775 -0.23705861
-0.13274699 0.116358 -0.237027
-0.1134498 0.1162954 -0.23707239
-0.13307101 0.11651134 -0.237166
-0.1329252 0.11646239 -0.2370948
-0.132771 0.116439 -0.2370435
-0.113628 0.11658 -0.237009
-0.11351585 0.11650001 -0.23707716
-0.132617 0.116611 -0.23700599
-0.1136752 0.1167082 -0.237027
-0.1135255 0.116705 -0.237103
-0.11368343 0.116896 -0.23706144
-0.11351583 0.11689967 -0.23714115
-0.1136868 0.11708981 -0.237132
-0.113542 0.117059 -0.23717999
-0.114065 0.117364 -0.23701701
-0.1139795 0.1173265 -0.23704
-0.1137505 0.117258 -0.237165
-0.114226 0.117598 -0.237021
-0.1141005 0.117488 -0.23706275
-0.113969 0.11749101 -0.237122
-0.13147134 0.11769966 -0.23704134
-0.13129967 0.117762 -0.23702399
-0.114413 0.117771 -0.237067
-0.1142758 0.1177004 -0.23706761
-0.1141105 0.11767074 -0.23714375
-0.113961 0.117613 -0.237186
-0.13146099 0.1178965 -0.23709801
-0.13129234 0.11788317 -0.237078
-0.130931 0.117818 -0.23701
-0.11463533 0.11787466 -0.23703867
-0.11449414 0.11789428 -0.2370863
-0.11427 0.11787933 -0.23717634
-0.131328 0.1180075 -0.23713151
-0.131198 0.118003 -0.237141
-0.128824 0.118176 -0.237005
-0.12869301 0.11817325 -0.237018
-0.128481 0.118165 -0.23705401
-0.12831099 0.118157 -0.237022
-0.1145045 0.11801051 -0.23714951
-0.114397 0.118016 -0.23718099
-0.129676 0.11827034 -0.23702832
-0.129508 0.11828599 -0.23703365
-0.129345 0.118279 -0.23703
-0.12868652 0.11825976 -0.23708627
-0.12850699 0.11824951 -0.23710501
-0.12764199 0.118302 -0.23703568
-0.127499 0.1183154 -0.2370352
-0.12733901 0.118338 -0.237019
-0.12709901 0.11830866 -0.23703599
-0.126811 0.118241 -0.237039
-0.126707 0.11823901 -0.23704468
-0.12749 0.118435 -0.23712432
-0.127333 0.118423 -0.237084
-0.127152 0.118427 -0.23711801
-0.11584499 0.1184725 -0.23704299
-0.115702 0.118495 -0.23707959
-0.11552075 0.118466 -0.23709275
-0.115834 0.118604 -0.23716
-0.1157035 0.1186045 -0.237196
-0.1201035 0.098545 -0.23698649
-0.119835 0.098535001 -0.23697001
-0.119684 0.09854833 -0.23695201
-0.119521 0.098553501 -0.236966
-0.1193198 0.098519802 -0.23693419
-0.11911733 0.098497003 -0.23694284
-0.11891125 0.098543249 -0.236904
-0.11867967 0.098527998 -0.23698168
-0.1210805 0.098746002 -0.2369775
-0.120895 0.098742001 -0.236982
-0.120755 0.098733 -0.23697001
-0.1205075 0.098719001 -0.23694582
-0.12029433 0.098705001 -0.23693036
-0.12010201 0.09869083 -0.23689251
-0.119833 0.098681666 -0.23688968
-0.1197046 0.098687604 -0.236883
-0.1195185 0.098701999 -0.236889
-0.119275 0.098705746 -0.2368405
-0.119114 0.098717831 -0.23682882
-0.11891099 0.09869843 -0.236843
-0.11869676 0.098708622 -0.23686698
-0.11848789 0.098691665 -0.23692022
-0.11833484 0.098678499 -0.23694016
-0.1180365 0.098702498 -0.236966
-0.117904 0.098737001 -0.23698249
-0.117667 0.098797999 -0.23699801
-0.1175555 0.098791003 -0.23699149
-0.117376 0.098742001 -0.236976
-0.123075 0.098996997 -0.23698901
-0.12236 0.098958999 -0.236995
-0.121695 0.098962501 -0.23696551
-0.12149533 0.098953508 -0.23696916
-0.12130449 0.098904587 -0.23692709
-0.12107816 0.098892003 -0.2368955
-0.12089351 0.09888766 -0.23689266
-0.12075334 0.098879002 -0.23688768
-0.1205055 0.098901495 -0.23684449
-0.12028233 0.098875336 -0.23682566
-0.120099 0.098839 -0.2368235
-0.119831 0.098829001 -0.23681501
-0.11969399 0.098819494 -0.236817
-0.119517 0.098811999 -0.236827
-0.1186605 0.098844007 -0.236809
-0.11847684 0.098887168 -0.23682386
-0.11833201 0.098861992 -0.23684575
-0.118034 0.098886997 -0.23687434
-0.1179015 0.098883837 -0.23691617
-0.11772279 0.098889604 -0.2369478
-0.117553 0.098901004 -0.236949
-0.117373 0.098889001 -0.23692
-0.11707399 0.098915666 -0.23693633
-0.11698 0.098986 -0.23695099
-0.125085 0.099175498 -0.23699149
-0.124108 0.099198997 -0.23699699
-0.123884 0.099188998 -0.236992
-0.123648 0.099139497 -0.236984
-0.12344333 0.099141665 -0.23696834
-0.1232985 0.099119157 -0.23695517
-0.12311575 0.099110246 -0.23695248
-0.1229132 0.099092409 -0.23696001
-0.12268233 0.099115334 -0.23694415
-0.1224751 0.099128298 -0.2369453
-0.12230037 0.099112868 -0.23693639
-0.122143 0.099096 -0.23694201
-0.12196767 0.099087663 -0.23693766
-0.1216925 0.099108502 -0.23689401
-0.121494 0.099099666 -0.23687465
-0.12130515 0.099082425 -0.23683499
-0.121077 0.099038005 -0.2368075
-0.1208915 0.099033996 -0.236808
-0.120751 0.099025004 -0.236807
-0.118031 0.099033996 -0.23682299
-0.117889 0.099089406 -0.23683341
-0.11771034 0.099095829 -0.2368425
-0.11754999 0.099085838 -0.23685615
-0.11736733 0.099074662 -0.23688035
-0.117071 0.099100001 -0.23684999
-0.11690859 0.099101797 -0.2369332
-0.11667466 0.099171005 -0.236965
-0.125901 0.099367999 -0.236993
-0.125438 0.099340998 -0.236972
-0.12524 0.099291995 -0.236959
-0.12508184 0.099321835 -0.2369345
-0.1249085 0.099314176 -0.23694398
-0.12472633 0.099303506 -0.23695783
-0.12451589 0.099319108 -0.23697233
-0.12426201 0.099279009 -0.23697267
-0.1240595 0.099308744 -0.23695099
-0.1238815 0.099299997 -0.23695651
-0.1236832 0.099311009 -0.23692799
-0.12345633 0.099315166 -0.23689915
-0.1232949 0.099303328 -0.23688245
-0.12311283 0.099293828 -0.23686783
-0.12293833 0.099284172 -0.23686551
-0.12272199 0.099276431 -0.23685344
-0.12248243 0.09929385 -0.23685856
-0.12229378 0.099316776 -0.23683932
-0.1221405 0.099280998 -0.23684949
-0.12196367 0.099308997 -0.23682798
-0.121691 0.099220999 -0.236835
-0.121517 0.099212497 -0.236808
-0.121385 0.099202998 -0.236809
-0.117365 0.099220999 -0.236811
-0.1170665 0.0992475 -0.236821
-0.11688823 0.099278666 -0.23685479
-0.116657 0.099303998 -0.236892
-0.11648725 0.099317491 -0.23697324
-0.11632717 0.099349499 -0.23697102
-0.1283375 0.099558502 -0.23698899
-0.12817 0.099552996 -0.237
-0.1279455 0.0995465 -0.236985
-0.12751025 0.099575505 -0.23698975
-0.12730563 0.099546626 -0.236972
-0.127046 0.099494666 -0.23696934
-0.12686233 0.099487662 -0.23698066
-0.1261268 0.099538796 -0.23695841
-0.12589477 0.099514335 -0.23695247
-0.12565717 0.099504828 -0.23695999
-0.12543432 0.099487662 -0.23692699
-0.12523668 0.099475168 -0.23688133
-0.12507749 0.099505499 -0.2368765
-0.1249035 0.099498004 -0.23689726
-0.1247126 0.099509202 -0.23689179
-0.12450217 0.099514745 -0.23689784
-0.12425599 0.099500664 -0.23691632
-0.12405566 0.09949284 -0.23687716
-0.1238775 0.099484503 -0.2368865
-0.1236992 0.0994884 -0.23685539
-0.123468 0.09948834 -0.236849
-0.123262 0.099446498 -0.2368165
-0.123151 0.099482 -0.23682499
-0.1224665 0.099408001 -0.236807
-0.11663767 0.099436998 -0.23683834
-0.11647221 0.099481665 -0.23688644
-0.11630533 0.099507667 -0.23689133
-0.11612275 0.099505998 -0.23695651
-0.130674 0.099757001 -0.23697101
-0.1292628 0.099725798 -0.23697741
-0.129071 0.099724673 -0.23697133
-0.12895501 0.099744998 -0.23696899
-0.12867549 0.0996935 -0.236965
-0.12841402 0.099712998 -0.23695767
-0.12830266 0.099704437 -0.23693323
-0.1281215 0.099697672 -0.23695816
-0.12789623 0.099691331 -0.23695435
-0.12749432 0.099703334 -0.23694067
-0.12729134 0.099704891 -0.23691566
-0.12704067 0.099715002 -0.23690067
-0.12685633 0.099709004 -0.23692401
-0.1264095 0.0997255 -0.236904
-0.12611476 0.09970925 -0.23689175
-0.125937 0.099700749 -0.23686799
-0.12568828 0.099706136 -0.23687999
-0.12542967 0.099708997 -0.236845
-0.125267 0.099623002 -0.236819
-0.12511541 0.099646792 -0.2368248
-0.12489834 0.099683829 -0.236847
-0.1247254 0.099688202 -0.2368412
-0.12449788 0.099698752 -0.236836
-0.124251 0.099720992 -0.23684168
-0.12405124 0.099676505 -0.236818
-0.12388834 0.099656664 -0.23681766
-0.123736 0.099621996 -0.23680501
-0.116443 0.099627003 -0.23683649
-0.11628234 0.099667668 -0.23684467
-0.11611884 0.099690497 -0.2368945
-0.1158915 0.099716999 -0.23697701
-0.131129 0.099930003 -0.236984
-0.13095166 0.099921338 -0.23695798
-0.13066967 0.099903665 -0.23693234
-0.1304265 0.099931754 -0.23697875
-0.13029985 0.09990485 -0.23696329
-0.13013001 0.099927999 -0.23698501
-0.129896 0.099904001 -0.23697251
-0.12949389 0.099920116 -0.23696321
-0.12930183 0.099905662 -0.23692407
-0.1290835 0.099895835 -0.23689049
-0.12895332 0.099890999 -0.236885
-0.12867166 0.099876665 -0.23689467
-0.12841049 0.099895999 -0.2368795
-0.12828974 0.099915624 -0.23687199
-0.128116 0.099918336 -0.23688734
-0.12790212 0.099903621 -0.23688975
-0.1278 0.099979997 -0.236848
-0.12748989 0.09988822 -0.23688334
-0.12730618 0.099884994 -0.2368599
-0.12703651 0.099899501 -0.23684099
-0.12685251 0.099893503 -0.23685101
-0.126405 0.099909335 -0.236849
-0.12611017 0.099892497 -0.23682968
-0.12591125 0.099865995 -0.23682275
-0.12571679 0.099845797 -0.23683341
-0.124849 0.099827997 -0.236802
-0.124757 0.099822 -0.23680399
-0.124466 0.099807002 -0.23680967
-0.116093 0.099891998 -0.236821
-0.11588766 0.099900335 -0.23690899
-0.1313028 0.1001008 -0.23697999
-0.131125 0.10007733 -0.23693769
-0.13094801 0.1001055 -0.2368875
-0.13066334 0.10012567 -0.236889
-0.130446 0.10011834 -0.236939
-0.13031967 0.10010675 -0.23691969
-0.13011082 0.10009833 -0.23692717
-0.12989034 0.10008834 -0.23694734
-0.1294895 0.10010383 -0.23690182
-0.12928452 0.10011051 -0.23685619
-0.129088 0.10010179 -0.23682542
-0.12895 0.100074 -0.236809
-0.12867001 0.100023 -0.236803
-0.12840751 0.1000425 -0.23682401
-0.12829299 0.10008433 -0.23682082
-0.12811126 0.10010225 -0.23683801
-0.12793125 0.1000985 -0.23683199
-0.1277965 0.100091 -0.2368255
-0.12748379 0.10010911 -0.23682891
-0.12734739 0.10007221 -0.23681779
-0.12711549 0.1000135 -0.23681951
-0.12684999 0.100002 -0.236816
-0.12640101 0.100056 -0.236809
-0.1158835 0.1000845 -0.23684201
-0.13143267 0.10031566 -0.23697166
-0.13132778 0.10030955 -0.23693977
-0.13111967 0.10029767 -0.23686999
-0.130943 0.10028867 -0.23683433
-0.130659 0.100309 -0.236821
-0.13044149 0.100302 -0.23687899
-0.13031167 0.10030267 -0.23687166
-0.130105 0.10031933 -0.23686881
-0.12988435 0.10031 -0.23688699
-0.12948446 0.100288 -0.23685333
-0.12935451 0.1002785 -0.2368325
-0.128122 0.10023867 -0.23680933
-0.127885 0.100209 -0.23681501
-0.127791 0.10024 -0.236812
-0.115293 0.100397 -0.23698901
-0.13161549 0.10051 -0.23696199
-0.131427 0.1005005 -0.23693201
-0.13131499 0.10050843 -0.23688443
-0.13111299 0.10051834 -0.23681933
-0.130438 0.100449 -0.23683199
-0.13029842 0.10045385 -0.23682913
-0.13011535 0.10049134 -0.23682232
-0.1298795 0.1004925 -0.23683649
-0.12949274 0.1004535 -0.23681675
-0.129379 0.100429 -0.23680399
-0.1153206 0.10048781 -0.23697262
-0.132057 0.100795 -0.236994
-0.131908 0.100731 -0.23697674
-0.131611 0.100692 -0.23690002
-0.13142267 0.10068333 -0.23687832
-0.13132362 0.10068712 -0.23685437
-0.130224 0.100619 -0.23681299
-0.130141 0.100618 -0.236809
-0.11528189 0.10069299 -0.23694055
-0.1151635 0.1007255 -0.236976
-0.1323265 0.100918 -0.236993
-0.1320945 0.10090925 -0.23698249
-0.13192499 0.10089751 -0.2369415
-0.13160335 0.10091499 -0.23688167
-0.13141567 0.100905 -0.23684032
-0.13131033 0.10089878 -0.2368191
-0.11527611 0.10091478 -0.23688422
-0.11511967 0.100912 -0.23695366
-0.114976 0.100982 -0.23699
-0.13247 0.1011575 -0.2369885
-0.13232033 0.101104 -0.236977
-0.13208933 0.10109267 -0.236938
-0.1319195 0.10108167 -0.23690133
-0.13150325 0.10109501 -0.23683649
-0.131357 0.101052 -0.236811
-0.11526159 0.10109041 -0.2368224
-0.1151145 0.10109724 -0.23691323
-0.1149725 0.101092 -0.23697099
-0.1327125 0.101315 -0.2369805
-0.132465 0.101305 -0.236972
-0.132314 0.10132467 -0.23692198
-0.13208233 0.10131416 -0.23689966
-0.13191283 0.10130266 -0.23685735
-0.13153066 0.10123134 -0.23681565
-0.11521067 0.10128134 -0.23681299
-0.11510783 0.10128316 -0.23689733
-0.1149425 0.10129476 -0.23694576
-0.13289601 0.10150734 -0.23697166
-0.13270533 0.1015 -0.23697533
-0.13245933 0.10148934 -0.23693933
-0.132309 0.101507 -0.236876
-0.13207674 0.1014985 -0.23686799
-0.1318976 0.1015086 -0.2368304
-0.11508225 0.101488 -0.23687525
-0.1149125 0.10149783 -0.23691899
-0.114775 0.101569 -0.23697799
-0.13288951 0.101692 -0.236948
-0.132699 0.10172066 -0.23692434
-0.13245334 0.10171 -0.23688801
-0.13230234 0.10169367 -0.23686166
-0.132071 0.10168249 -0.23683466
-0.13194549 0.101637 -0.23681101
-0.1150575 0.101691 -0.23683
-0.11490533 0.10171983 -0.23688199
-0.11474775 0.101735 -0.23695825
-0.132883 0.10187801 -0.23694266
-0.1326925 0.101905 -0.2369065
-0.132447 0.101894 -0.236864
-0.13229533 0.101915 -0.23682766
-0.1320845 0.10188875 -0.23681375
-0.1150525 0.101839 -0.236808
-0.114899 0.10190525 -0.236863
-0.11472025 0.1019025 -0.23695
-0.13304533 0.102111 -0.23698433
-0.13287467 0.10209999 -0.23692466
-0.13268566 0.102092 -0.23690401
-0.13244034 0.102079 -0.236854
-0.1322885 0.1021 -0.236819
-0.1321 0.102057 -0.236803
-0.11489234 0.102092 -0.236845
-0.11471316 0.10208884 -0.23694484
-0.133039 0.102297 -0.236964
-0.13286699 0.102322 -0.23691101
-0.13267799 0.10231334 -0.23687766
-0.13243499 0.102263 -0.23681299
-0.11483733 0.102314 -0.23684599
-0.11470433 0.102313 -0.23693967
-0.13322966 0.10248933 -0.23699267
-0.13308862 0.1024992 -0.2369668
-0.13286 0.102506 -0.23689851
-0.13267151 0.102498 -0.236862
-0.114831 0.1024985 -0.23682401
-0.1146985 0.1024975 -0.236912
-0.133224 0.102639 -0.23699
-0.1330425 0.10272475 -0.23696901
-0.13285367 0.10269234 -0.23688267
-0.13266499 0.10268233 -0.23684601
-0.132416 0.102746 -0.236811
-0.114827 0.102611 -0.23680399
-0.11469284 0.10268366 -0.23687752
-0.11455933 0.10268233 -0.23698533
-0.133044 0.102879 -0.23695934
-0.132845 0.102915 -0.23688267
-0.13265599 0.10290632 -0.236854
-0.132413 0.10282 -0.236809
-0.11468583 0.10290501 -0.2368425
-0.11455234 0.10290533 -0.23695301
-0.13307329 0.10307886 -0.2369657
-0.1328375 0.1031 -0.236875
-0.13264799 0.1030915 -0.23686099
-0.11466467 0.103079 -0.23684101
-0.1145465 0.10309 -0.23692399
-0.133202 0.103232 -0.236968
-0.13311112 0.10329434 -0.23695602
-0.13287175 0.1033085 -0.23690175
-0.13264233 0.10327599 -0.23683365
-0.11462867 0.10327599 -0.23683365
-0.11453968 0.10327599 -0.23691033
-0.13313515 0.10348934 -0.23694734
-0.13290717 0.10351416 -0.23689485
-0.132634 0.103499 -0.23682433
-0.11462066 0.10349967 -0.23682167
-0.11453167 0.10349967 -0.23688632
-0.1331268 0.10367611 -0.2369691
-0.1329 0.10370025 -0.236893
-0.132625 0.103721 -0.23682232
-0.11461201 0.10372434 -0.23682034
-0.11452466 0.10372233 -0.236857
-0.133238 0.1039455 -0.23699099
-0.13311088 0.1038905 -0.23697627
-0.13289283 0.10388599 -0.23688966
-0.1326175 0.1039075 -0.23682851
-0.1145175 0.103908 -0.2368415
-0.13310188 0.10412212 -0.23696987
-0.13292725 0.10409325 -0.23690525
-0.13270524 0.10409701 -0.2368345
-0.11451066 0.10409466 -0.23683667
-0.13310267 0.10430733 -0.23695384
-0.1329625 0.104301 -0.23690501
-0.13274425 0.104321 -0.2368315
-0.132599 0.104389 -0.23681299
-0.11450233 0.10431867 -0.23682566
-0.13309513 0.10449263 -0.23695175
-0.132955 0.10448601 -0.23691601
-0.1327835 0.10451 -0.2368395
-0.1325945 0.104502 -0.23682
-0.1144955 0.104506 -0.236821
-0.13306379 0.1046866 -0.23696141
-0.13294698 0.10470933 -0.23690467
-0.13277666 0.104695 -0.23683399
-0.13259099 0.104613 -0.23681
-0.114487 0.10469333 -0.23683333
-0.114251 0.104767 -0.236996
-0.133018 0.1049025 -0.23698699
-0.132939 0.1048945 -0.236909
-0.13276801 0.10491867 -0.23683266
-0.11447933 0.10491733 -0.23682033
-0.13309155 0.105084 -0.23698123
-0.13293134 0.10508167 -0.23691635
-0.13276151 0.105103 -0.23682299
-0.114472 0.105103 -0.236816
-0.13306999 0.105304 -0.23696849
-0.13294275 0.1053235 -0.23691249
-0.13275467 0.10528866 -0.23681132
-0.114468 0.105215 -0.236807
-0.11423233 0.10528866 -0.23695634
-0.11410934 0.10533267 -0.23698099
-0.13310179 0.10551 -0.23698381
-0.1329565 0.10549299 -0.23692626
-0.132746 0.105512 -0.23680733
-0.11422634 0.10550966 -0.236899
-0.1140945 0.10550451 -0.23695219
-0.13310662 0.10568819 -0.2369746
-0.13294899 0.1056785 -0.23692636
-0.11421899 0.1056965 -0.236894
-0.11408675 0.10569251 -0.23695901
-0.13308275 0.10589124 -0.2369725
-0.13293999 0.10590267 -0.23693
-0.13272899 0.105922 -0.236821
-0.11421034 0.10588733 -0.23693132
-0.114106 0.10588367 -0.23697866
-0.1330885 0.1060965 -0.23696649
-0.1329238 0.10611081 -0.2369258
-0.132725 0.106032 -0.236812
-0.114203 0.106038 -0.236956
-0.114198 0.106151 -0.236964
-0.13293299 0.1062902 -0.23693518
-0.13271549 0.106292 -0.236801
-0.11419199 0.106302 -0.2369635
-0.133076 0.106477 -0.23696402
-0.1329165 0.10649783 -0.23693216
-0.132705 0.106553 -0.23680601
-0.114183 0.1065265 -0.23696899
-0.13306549 0.1066915 -0.236956
-0.13286699 0.10671899 -0.23690967
-0.132699 0.10670167 -0.23681332
-0.11413521 0.10672541 -0.23695341
-0.13305934 0.10687599 -0.236937
-0.1328595 0.1069055 -0.236911
-0.132688 0.106999 -0.236801
-0.11411875 0.10689601 -0.23693949
-0.13304834 0.10710267 -0.23698068
-0.13292558 0.10709514 -0.23692615
-0.114112 0.107083 -0.2369315
-0.114 0.107157 -0.236995
-0.13304049 0.10729 -0.23698801
-0.13290672 0.10733928 -0.23693071
-0.13267401 0.107334 -0.23681101
-0.11410266 0.10730966 -0.23693867
-0.113994 0.10730534 -0.23698933
-0.13303433 0.107474 -0.23696768
-0.132911 0.10750499 -0.23693399
-0.13266701 0.107521 -0.23681149
-0.11409575 0.1074965 -0.23693176
-0.1139865 0.107494 -0.236994
-0.133026 0.107698 -0.23695965
-0.13290378 0.10769078 -0.23692778
-0.13265851 0.107708 -0.236834
-0.114088 0.10768399 -0.23693602
-0.113976 0.107756 -0.236995
-0.13301601 0.10792267 -0.23697799
-0.13289377 0.107917 -0.23695356
-0.13265133 0.10789499 -0.23682399
-0.11408067 0.10790616 -0.23690666
-0.113972 0.10790334 -0.23695834
-0.13300851 0.10811 -0.23698699
-0.13288683 0.10810316 -0.2369495
-0.13264267 0.10811833 -0.23682
-0.1140735 0.10809325 -0.23689924
-0.11393475 0.108091 -0.23697099
-0.13303401 0.108299 -0.23698001
-0.13289189 0.10829689 -0.23693962
-0.13263699 0.108266 -0.236807
-0.11406633 0.10828084 -0.23689467
-0.1139338 0.10829179 -0.2369484
-0.133057 0.108526 -0.23699801
-0.13292441 0.10850529 -0.23692402
-0.132797 0.108542 -0.23687249
-0.114058 0.10850517 -0.23688535
-0.113934 0.108486 -0.23696201
-0.13305168 0.10867599 -0.23699367
-0.13293099 0.10869966 -0.23692034
-0.13279165 0.108724 -0.23683
-0.11406934 0.10867867 -0.23686068
-0.113961 0.108702 -0.23691399
-0.13304301 0.10889933 -0.23698567
-0.13292323 0.10888744 -0.2369318
-0.13278401 0.108912 -0.236845
-0.11409599 0.10888001 -0.23684466
-0.11395128 0.10887656 -0.23691101
-0.1330485 0.10912475 -0.23697852
-0.13291468 0.10911089 -0.23692843
-0.13277434 0.10910233 -0.23688467
-0.11408633 0.109106 -0.23685901
-0.11394142 0.10911386 -0.23691785
-0.13304667 0.10927501 -0.236993
-0.13290833 0.10929567 -0.23691034
-0.1327665 0.10929 -0.2369
-0.1140785 0.109294 -0.23686901
-0.11391699 0.10929217 -0.23693733
-0.13303325 0.1095155 -0.23697799
-0.13290055 0.10948222 -0.23691289
-0.13275933 0.10947633 -0.23689367
-0.114072 0.10948067 -0.23685801
-0.11392642 0.10948972 -0.23692314
-0.13305901 0.10971412 -0.23696563
-0.13289134 0.109707 -0.23692288
-0.132751 0.10969868 -0.23688467
-0.114063 0.10970733 -0.23685665
-0.11391786 0.10971428 -0.23691702
-0.13307124 0.109875 -0.23697425
-0.13288434 0.1098935 -0.23691934
-0.13274333 0.109921 -0.23686266
-0.114059 0.109853 -0.23682299
-0.1139025 0.10991613 -0.23688012
-0.133065 0.11015067 -0.23699033
-0.13290749 0.11008208 -0.23692209
-0.132737 0.1101055 -0.23684001
-0.11388014 0.11009615 -0.23687628
-0.113761 0.110006 -0.236991
-0.13306321 0.11030819 -0.236968
-0.13289966 0.11030442 -0.23690401
-0.13272934 0.110293 -0.236847
-0.11388111 0.11029878 -0.23685932
-0.13309599 0.11048499 -0.23697925
-0.13288042 0.11051069 -0.2368834
-0.13272132 0.110515 -0.23682965
-0.11388025 0.11051389 -0.23684537
-0.13308111 0.11069901 -0.23697431
-0.13292176 0.11068875 -0.2369065
-0.1327555 0.110702 -0.23682851
-0.1138455 0.11068901 -0.236883
-0.133211 0.110857 -0.23699901
-0.13306613 0.110913 -0.23696238
-0.13290645 0.11090244 -0.23689055
-0.1327574 0.11087401 -0.23682539
-0.11386 0.11089733 -0.23683698
-0.113797 0.110904 -0.23691267
-0.13308975 0.11110187 -0.23696811
-0.132891 0.11111487 -0.23687574
-0.13278033 0.111115 -0.23683865
-0.113791 0.11112366 -0.23686099
-0.13309233 0.11129817 -0.23696367
-0.13290073 0.11129614 -0.23687144
-0.1327745 0.1113 -0.236819
-0.11376 0.11132333 -0.23686033
-0.1331045 0.11151275 -0.23694962
-0.13291325 0.1115005 -0.23687135
-0.1327465 0.111486 -0.23681001
-0.1137358 0.1114976 -0.2368546
-0.1136 0.111584 -0.236991
-0.13311757 0.111693 -0.23693943
-0.13288301 0.11170423 -0.23684679
-0.13276 0.111672 -0.236809
-0.1137185 0.11170125 -0.23683125
-0.113598 0.111692 -0.236956
-0.13309956 0.11189511 -0.23693578
-0.13293438 0.111888 -0.23688549
-0.1136925 0.111909 -0.236843
-0.11359 0.111881 -0.23696066
-0.13325199 0.112136 -0.23699699
-0.13309121 0.11211801 -0.23692268
-0.13289365 0.11209709 -0.23684855
-0.11370375 0.1120775 -0.236828
-0.133246 0.11228467 -0.23699065
-0.13308467 0.11230317 -0.23690601
-0.13290462 0.11231187 -0.23684163
-0.113677 0.1122885 -0.236865
-0.13323732 0.11250866 -0.23698966
-0.13307768 0.11248989 -0.23690367
-0.13294101 0.1124908 -0.23685022
-0.13272899 0.112458 -0.23680399
-0.11366833 0.112479 -0.23688333
-0.1135635 0.112525 -0.236991
-0.13326566 0.11268333 -0.23698866
-0.13307774 0.11270475 -0.23690012
-0.13291532 0.11269767 -0.23684889
-0.113661 0.112701 -0.23685066
-0.113556 0.11271366 -0.23698567
-0.13322367 0.112881 -0.23697035
-0.13309476 0.11290351 -0.23690873
-0.1329367 0.1129067 -0.23686716
-0.113654 0.11289001 -0.23685199
-0.1135485 0.112902 -0.236981
-0.13321567 0.11310401 -0.23695934
-0.13308683 0.11309084 -0.23691182
-0.132944 0.11308725 -0.2368595
-0.11364233 0.113088 -0.23692232
-0.11354267 0.11308667 -0.23694932
-0.13320801 0.1132915 -0.236958
-0.13307817 0.1133155 -0.23691301
-0.13292922 0.11330167 -0.23685557
-0.11363367 0.11331433 -0.23692401
-0.11353433 0.11331167 -0.23693867
-0.13320351 0.113439 -0.23694101
-0.13309681 0.11351119 -0.23690982
-0.13291371 0.11350343 -0.23685429
-0.1136265 0.113501 -0.23691601
-0.113527 0.11350051 -0.23693851
-0.133293 0.113783 -0.23697799
-0.13310689 0.11369278 -0.2369141
-0.13292025 0.1136865 -0.23686226
-0.11362267 0.11368167 -0.23684867
-0.11351967 0.11368966 -0.23694034
-0.1332885 0.113895 -0.236977
-0.13308713 0.11390875 -0.23692037
-0.13290623 0.11389911 -0.23684245
-0.113617 0.11386549 -0.2368135
-0.11351167 0.11391266 -0.23691966
-0.13328201 0.114046 -0.23698899
-0.1331033 0.11409171 -0.23692299
-0.13289028 0.114103 -0.23684885
-0.1135055 0.1140995 -0.23689699
-0.13309376 0.11428525 -0.23692301
-0.132909 0.11429111 -0.23684247
-0.11349767 0.11428867 -0.23690169
-0.1331062 0.11450859 -0.2369428
-0.13290973 0.11450225 -0.23685856
-0.1135276 0.11453221 -0.2369034
-0.1331166 0.1146912 -0.23695579
-0.132893 0.11470144 -0.23685455
-0.13275667 0.11471 -0.23681633
-0.11353076 0.114705 -0.23689701
-0.13308939 0.11491521 -0.23695859
-0.13290101 0.11488745 -0.23687902
-0.13275 0.114861 -0.23682
-0.113642 0.114962 -0.23681501
-0.11352151 0.11489933 -0.23693718
-0.133076 0.11507799 -0.23697634
-0.13288434 0.11510658 -0.23689091
-0.13273999 0.11512201 -0.236811
-0.11363399 0.11511701 -0.23684299
-0.1135135 0.1150895 -0.23694201
-0.13309832 0.11528067 -0.236977
-0.13287351 0.1153 -0.23692651
-0.13275822 0.1153008 -0.23684339
-0.11362401 0.115314 -0.23689499
-0.11350483 0.11528101 -0.23696184
-0.13305867 0.115504 -0.23698467
-0.13289319 0.1154892 -0.23692639
-0.11364061 0.1155154 -0.23687279
-0.113546 0.115475 -0.23697901
-0.13293999 0.115724 -0.23698032
-0.132603 0.115612 -0.236856
-0.13251701 0.115718 -0.236821
-0.1136446 0.11571281 -0.2368764
-0.13287567 0.11590967 -0.23698032
-0.13269481 0.1159528 -0.2368972
-0.13253999 0.11592641 -0.23685941
-0.113819 0.115956 -0.236808
-0.1136605 0.115898 -0.23686524
-0.11357334 0.115941 -0.23696934
-0.132816 0.116057 -0.236983
-0.132725 0.1160808 -0.236937
-0.13254076 0.1161015 -0.23687525
-0.11381034 0.116114 -0.23685431
-0.11368001 0.11610899 -0.236875
-0.11355434 0.11611801 -0.23697549
-0.13269167 0.11628034 -0.23694767
-0.13253133 0.11629517 -0.23691434
-0.113803 0.116271 -0.236891
-0.1136962 0.116313 -0.23691399
-0.113581 0.116308 -0.2369695
-0.13262101 0.116535 -0.237
-0.13253532 0.11647833 -0.236964
-0.1137135 0.11649275 -0.23695162
-0.113783 0.116663 -0.236985
-0.11402699 0.11689975 -0.23684126
-0.13169649 0.11710849 -0.236828
-0.131505 0.117137 -0.236803
-0.11412525 0.11711401 -0.23685001
-0.1139955 0.1170795 -0.236902
-0.13168633 0.11730367 -0.23687899
-0.13146301 0.11730621 -0.23684561
-0.13129665 0.11733034 -0.23683633
-0.11429225 0.11731175 -0.23685402
-0.11411425 0.1172795 -0.2369415
-0.113987 0.117203 -0.236982
-0.131677 0.117464 -0.236935
-0.13145767 0.11747966 -0.23692833
-0.13129 0.11751771 -0.23691085
-0.1309495 0.11753049 -0.23686001
-0.1307404 0.1174968 -0.23683059
-0.11449171 0.11751528 -0.236881
-0.114282 0.11747475 -0.23693049
-0.13132749 0.11766176 -0.23697525
-0.13093901 0.1176945 -0.236939
-0.13069858 0.11769228 -0.23688002
-0.13051575 0.1176625 -0.23685026
-0.11463851 0.11771825 -0.23693123
-0.11450333 0.11769117 -0.23696066
-0.130743 0.117805 -0.236972
-0.129963 0.11790667 -0.23687834
-0.12969868 0.1179265 -0.23684001
-0.12953132 0.117953 -0.23682399
-0.12936699 0.117949 -0.23683999
-0.129191 0.117946 -0.23686001
-0.12884399 0.1178865 -0.236834
-0.12869419 0.117935 -0.2368484
-0.12849216 0.11795166 -0.23689102
-0.1282776 0.11791901 -0.2368592
-0.127965 0.117884 -0.236825
-0.127701 0.117947 -0.23684099
-0.127095 0.11792 -0.236808
-0.1268325 0.1179455 -0.23684099
-0.12671229 0.11794914 -0.23685059
-0.12652424 0.117935 -0.23685475
-0.12508 0.117983 -0.236835
-0.124981 0.117976 -0.236802
-0.1245115 0.117952 -0.23681749
-0.124308 0.117947 -0.23684099
-0.1237725 0.1179945 -0.23682451
-0.12968884 0.11808816 -0.23691034
-0.12952384 0.11807466 -0.23687816
-0.129356 0.11811433 -0.23692866
-0.1291825 0.118069 -0.23692799
-0.128832 0.1180535 -0.23694301
-0.12871228 0.11805686 -0.236954
-0.1284814 0.1181082 -0.236974
-0.1282755 0.1180705 -0.23695999
-0.127666 0.11810233 -0.23688217
-0.12752363 0.11810562 -0.23688412
-0.12730885 0.11808933 -0.23688264
-0.12713082 0.11808467 -0.23688251
-0.12682101 0.118113 -0.23694199
-0.12669013 0.11810775 -0.23694162
-0.126514 0.118099 -0.2369345
-0.12530249 0.11807249 -0.23685449
-0.12512249 0.118067 -0.23686901
-0.124974 0.118059 -0.23686799
-0.124221 0.118024 -0.236863
-0.124066 0.118043 -0.23687601
-0.12390133 0.11808866 -0.23688833
-0.12374017 0.11811767 -0.23689334
-0.123526 0.1181015 -0.236855
-0.12333867 0.11810867 -0.23685665
-0.12312325 0.11806449 -0.2368315
-0.121879 0.118143 -0.236835
-0.121657 0.118199 -0.23680501
-0.121513 0.1181965 -0.236818
-0.115688 0.118161 -0.23680501
-0.115437 0.118157 -0.236819
-0.115349 0.11816 -0.236876
-0.12965599 0.118209 -0.236975
-0.12951399 0.11820301 -0.23698233
-0.127506 0.118263 -0.23698001
-0.127281 0.11828234 -0.23698799
-0.127165 0.118256 -0.23699699
-0.12373134 0.11824399 -0.23697333
-0.123517 0.118228 -0.23693401
-0.121841 0.1182165 -0.2368405
-0.1216765 0.1182445 -0.23684049
-0.121545 0.118278 -0.236846
-0.120741 0.11824267 -0.236847
-0.120552 0.118232 -0.23683599
-0.11608333 0.11828834 -0.23683934
-0.1159095 0.1182945 -0.23686326
-0.11570287 0.11829088 -0.23689437
-0.1154995 0.11828717 -0.23692469
-0.115342 0.11825 -0.236956
-0.11595 0.118423 -0.236938
-0.11566734 0.118416 -0.23698068
-0.119366 0.098728001 -0.236799
