# .PCD v0.7 - Point Cloud Data file format
VERSION 0.7
FIELDS x y z
SIZE 4 4 4
TYPE F F F
COUNT 1 1 1
WIDTH 1461
HEIGHT 1
VIEWPOINT 0 0 0 1 0 0 0
POINTS 1461
DATA ascii
-0.143425 0.089760996 -0.233409
-0.14342199 0.089832999 -0.233412
-0.143419 0.089906998 -0.233412
-0.143416 0.089978002 -0.233404
-0.143415 0.090048 -0.233384
-0.14341301 0.090118997 -0.233363
-0.143411 0.090189002 -0.233355
-0.143407 0.090263002 -0.23336899
-0.14340299 0.090337999 -0.23338901
-0.1434 0.090410002 -0.233392
-0.143398 0.090480998 -0.233374
-0.14339601 0.090550996 -0.233354
-0.14339501 0.090622999 -0.233335
-0.143392 0.090694003 -0.23332299
-0.143389 0.090765998 -0.233327
-0.143387 0.090838 -0.23332199
-0.14338499 0.090907998 -0.233298
-0.143383 0.090979002 -0.23327801
-0.143381 0.091050997 -0.23327699
-0.14337701 0.091123 -0.23328701
-0.143374 0.091196999 -0.233299
-0.143371 0.09127 -0.233303
-0.143369 0.091340996 -0.23329
-0.14336599 0.091412999 -0.233284
-0.143363 0.091485001 -0.233294
-0.14335901 0.091559 -0.2333
-0.143356 0.091631003 -0.233311
-0.143353 0.091706 -0.233319
-0.14335001 0.091778003 -0.233319
-0.143347 0.091849998 -0.233321
-0.143344 0.091923997 -0.233328
-0.143341 0.091995999 -0.233326
-0.14333899 0.092067003 -0.23331399
-0.143337 0.092137001 -0.23330399
-0.143334 0.092208996 -0.233301
-0.14333101 0.092280999 -0.23329701
-0.14332899 0.092353001 -0.233291
-0.143325 0.092427 -0.233307
-0.14332099 0.092501 -0.23333
-0.143318 0.092573002 -0.233328
-0.143316 0.092644997 -0.23332199
-0.14331201 0.092719004 -0.233334
-0.143309 0.092794001 -0.233353
-0.143305 0.092868 -0.233367
-0.14330199 0.092940003 -0.233363
-0.143301 0.093010001 -0.23334301
-0.143298 0.093080997 -0.233334
-0.143296 0.093153 -0.23333
-0.14329299 0.093225002 -0.23332
-0.143291 0.093296997 -0.23330501
-0.143289 0.093368001 -0.233301
-0.14328501 0.093442999 -0.233317
-0.143281 0.093516998 -0.23333301
-0.143278 0.093589 -0.233334
-0.14327499 0.093661003 -0.23334
-0.143271 0.093737997 -0.233372
-0.14326601 0.093814999 -0.23341601
-0.143261 0.093891002 -0.23344401
-0.14325701 0.093966 -0.233472
-0.143253 0.094043002 -0.233503
-0.14324901 0.094118997 -0.23352499
-0.143245 0.094192997 -0.233541
-0.143241 0.094268002 -0.233557
-0.14323799 0.094339997 -0.233569
-0.143235 0.094414003 -0.233574
-0.143231 0.094488002 -0.233582
-0.14322799 0.094559997 -0.23359001
-0.143225 0.094633996 -0.233594
-0.14322101 0.094709001 -0.23360801
-0.143217 0.094783001 -0.233633
-0.143213 0.094860002 -0.233657
-0.14320999 0.094934002 -0.23367301
-0.143206 0.095008001 -0.23368099
-0.14320301 0.095082 -0.233685
-0.1432 0.095155999 -0.233698
-0.143196 0.095230997 -0.23371001
-0.14319199 0.095305003 -0.23372599
-0.143189 0.095379002 -0.233748
-0.143185 0.095454 -0.233758
-0.14318199 0.095527999 -0.233767
-0.143178 0.095601998 -0.233787
-0.14317399 0.095679 -0.233813
-0.14317 0.095755003 -0.233833
-0.14316601 0.095829003 -0.233851
-0.143162 0.095905997 -0.233876
-0.14315701 0.095982999 -0.233908
-0.143153 0.096059002 -0.233942
-0.143149 0.096135996 -0.233962
-0.143144 0.096212 -0.23399
-0.143139 0.096290998 -0.234044
-0.143133 0.096372999 -0.234098
-0.14312799 0.096451998 -0.23414201
-0.143123 0.096531004 -0.23418599
-0.143117 0.096610002 -0.23424201
-0.14311101 0.096690997 -0.23429801
-0.143471 0.085087001 -0.235273
-0.143473 0.085155003 -0.235165
-0.143474 0.085225001 -0.235089
-0.14347801 0.085291997 -0.23496
-0.14347801 0.085360996 -0.23489
-0.143479 0.085428998 -0.23482899
-0.143479 0.085500002 -0.23475701
-0.143479 0.085568003 -0.234704
-0.143479 0.085639 -0.234652
-0.143479 0.085708 -0.234596
-0.14347801 0.085778996 -0.234547
-0.14347699 0.08585 -0.23450699
-0.14347699 0.085919 -0.23446099
-0.14347699 0.085989997 -0.23440599
-0.14347599 0.086058997 -0.234372
-0.143475 0.086130001 -0.234328
-0.143475 0.086199 -0.234277
-0.143474 0.086269997 -0.234235
-0.143473 0.086341001 -0.234192
-0.143471 0.086410001 -0.234172
-0.14346901 0.086482003 -0.23416001
-0.14346801 0.086553 -0.23413
-0.14346699 0.086622 -0.234091
-0.143466 0.086694002 -0.234061
-0.143464 0.086764999 -0.234027
-0.143464 0.086833999 -0.233978
-0.143463 0.086902998 -0.233932
-0.143462 0.086974002 -0.233913
-0.14345901 0.087045997 -0.233905
-0.14345799 0.087117001 -0.233877
-0.143457 0.087186001 -0.23384
-0.143454 0.08726 -0.233836
-0.14345101 0.087332003 -0.233842
-0.14344899 0.087403998 -0.23382001
-0.143448 0.087472998 -0.233787
-0.143447 0.087543003 -0.233759
-0.143444 0.087615997 -0.23374701
-0.143442 0.087687999 -0.233744
-0.14343899 0.087760001 -0.23374
-0.143437 0.087831996 -0.23372599
-0.143435 0.087901004 -0.233716
-0.14343201 0.087975003 -0.23370899
-0.14342999 0.088045001 -0.233689
-0.143428 0.088115998 -0.23367099
-0.143426 0.088188 -0.233656
-0.143424 0.088260002 -0.23365
-0.14342 0.088331997 -0.233658
-0.143418 0.088404 -0.233658
-0.143416 0.088474996 -0.233633
-0.143415 0.088545002 -0.23360699
-0.14341199 0.088616997 -0.23360699
-0.143409 0.088691004 -0.233612
-0.143406 0.088762999 -0.233606
-0.14340401 0.088834003 -0.233592
-0.143402 0.088904001 -0.233569
-0.143401 0.088973001 -0.23354501
-0.143398 0.089047 -0.23354501
-0.14339399 0.089119002 -0.23356099
-0.143392 0.089193001 -0.233556
-0.14339 0.089263 -0.233528
-0.143388 0.089331999 -0.23351
-0.14338601 0.089405999 -0.23350701
-0.143383 0.089478001 -0.233511
-0.14338 0.089550003 -0.233503
-0.143379 0.089619003 -0.23346899
-0.143378 0.089688003 -0.233438
-0.14337599 0.089759998 -0.233422
-0.143373 0.089832 -0.23341601
-0.14337 0.089904003 -0.23342299
-0.14336701 0.089975998 -0.23342501
-0.143365 0.090048 -0.233417
-0.143363 0.090118997 -0.23339599
-0.14336 0.090190999 -0.23338801
-0.14335699 0.090263002 -0.23339801
-0.143355 0.090334997 -0.233392
-0.143352 0.090406999 -0.23338699
-0.14335001 0.090479001 -0.23337901
-0.14334799 0.090548001 -0.233353
-0.143347 0.090618998 -0.23332401
-0.143344 0.090689003 -0.233316
-0.143341 0.090760998 -0.23332
-0.14333899 0.090834998 -0.233312
-0.143336 0.090905003 -0.23330501
-0.143334 0.090979002 -0.233299
-0.14333101 0.091050997 -0.233303
-0.143327 0.091123 -0.23332
-0.143324 0.091196999 -0.23332199
-0.14332099 0.091269001 -0.23332401
-0.143318 0.091343001 -0.23333199
-0.143315 0.091412999 -0.23333099
-0.14331301 0.091485001 -0.233319
-0.14331 0.091559 -0.233321
-0.143307 0.091631003 -0.233329
-0.14330401 0.091702998 -0.233328
-0.14330199 0.091775 -0.23332
-0.143299 0.091847003 -0.233316
-0.143296 0.091921002 -0.233326
-0.14329199 0.091992997 -0.233335
-0.14329 0.092064999 -0.233329
-0.143288 0.092137001 -0.233319
-0.14328501 0.092206001 -0.233312
-0.14328299 0.092278004 -0.233302
-0.14328 0.092352003 -0.233302
-0.14327601 0.092426002 -0.233316
-0.143272 0.092499003 -0.233339
-0.143269 0.092573002 -0.23335899
-0.14326601 0.092647001 -0.23336101
-0.143263 0.092719004 -0.233353
-0.14326 0.092790999 -0.233354
-0.14325701 0.092864998 -0.233364
-0.143253 0.092937 -0.233376
-0.143251 0.093009003 -0.23336799
-0.14324901 0.093080997 -0.233345
-0.14324801 0.093149997 -0.233321
-0.143246 0.093220003 -0.23330501
-0.143244 0.093291 -0.23329
-0.143241 0.093363002 -0.233282
-0.14323699 0.093437999 -0.2333
-0.143234 0.093511999 -0.233318
-0.143231 0.093584001 -0.233325
-0.143227 0.093658 -0.23334099
-0.143223 0.093735002 -0.23336899
-0.143218 0.093809001 -0.233393
-0.143214 0.093886003 -0.233417
-0.143209 0.093962997 -0.23346099
-0.14320301 0.094042003 -0.23351701
-0.143199 0.094118997 -0.23355301
-0.143195 0.094192997 -0.233568
-0.14319199 0.094267003 -0.233574
-0.143189 0.094338998 -0.233584
-0.143185 0.094414003 -0.233594
-0.14318199 0.094488002 -0.23359901
-0.143179 0.094559997 -0.233613
-0.14317399 0.094636999 -0.233641
-0.143171 0.094710998 -0.233657
-0.143167 0.094784997 -0.233667
-0.14316399 0.094858997 -0.23368201
-0.14316 0.094934002 -0.233698
-0.14315601 0.095009997 -0.233712
-0.143153 0.095082 -0.233722
-0.143149 0.095158003 -0.23373599
-0.14314599 0.095233001 -0.23375501
-0.143142 0.095307 -0.233771
-0.143139 0.095380999 -0.233779
-0.143135 0.095454998 -0.23379099
-0.143131 0.095530003 -0.233815
-0.14312699 0.095606998 -0.23384599
-0.143123 0.095680997 -0.23386399
-0.14311901 0.095757 -0.233878
-0.143115 0.095834002 -0.23390201
-0.14311101 0.095909998 -0.23393001
-0.143106 0.095985003 -0.23395599
-0.143103 0.096059002 -0.23396701
-0.14309999 0.096134998 -0.233979
-0.143094 0.096213996 -0.234027
-0.143088 0.096295998 -0.234091
-0.14308199 0.096377 -0.234155
-0.143076 0.096455999 -0.23421299
-0.143069 0.096539997 -0.23427901
-0.14306299 0.096620999 -0.234349
-0.143411 0.085157 -0.235264
-0.14341301 0.085224003 -0.235163
-0.143416 0.085291997 -0.235053
-0.143417 0.085359998 -0.23498
-0.143415 0.085431002 -0.23494799
-0.143416 0.085501999 -0.234882
-0.143416 0.08557 -0.234815
-0.143416 0.085640997 -0.234761
-0.143415 0.085709997 -0.23471899
-0.143415 0.085781001 -0.234668
-0.143415 0.08585 -0.234598
-0.143416 0.085918002 -0.234533
-0.143416 0.085988998 -0.234475
-0.143416 0.086057 -0.234413
-0.143416 0.086126 -0.234354
-0.143415 0.086197004 -0.234312
-0.14341401 0.086268 -0.234274
-0.14341401 0.086337 -0.234227
-0.14341301 0.086407997 -0.234193
-0.143411 0.086479999 -0.23417699
-0.143409 0.086551003 -0.23416001
-0.143408 0.086621001 -0.234124
-0.143407 0.086691998 -0.23409
-0.14340501 0.086760998 -0.234061
-0.14340501 0.086832002 -0.234015
-0.14340401 0.086901002 -0.233964
-0.14340299 0.086971998 -0.233934
-0.1434 0.087044001 -0.233932
-0.143398 0.087116003 -0.23393001
-0.143397 0.087185003 -0.233895
-0.14339501 0.087256998 -0.23387501
-0.143392 0.087329 -0.233867
-0.14339 0.087399997 -0.233854
-0.143388 0.087471999 -0.23383801
-0.14338601 0.087544002 -0.23383
-0.14338399 0.087614998 -0.23381101
-0.143382 0.087687001 -0.233787
-0.14338 0.087757997 -0.233775
-0.14337701 0.08783 -0.233775
-0.14337499 0.087902002 -0.233768
-0.143373 0.087973997 -0.233748
-0.14337 0.088042997 -0.23373599
-0.14336801 0.088117003 -0.233733
-0.14336599 0.088187002 -0.233715
-0.143365 0.088256001 -0.23368099
-0.143362 0.088330001 -0.23367199
-0.14335901 0.088402003 -0.233684
-0.143356 0.088473998 -0.233684
-0.143354 0.088546 -0.23367199
-0.143352 0.088616997 -0.233661
-0.14335001 0.088688999 -0.23364501
-0.14334799 0.088758998 -0.233623
-0.143345 0.088831998 -0.23362
-0.143343 0.088901997 -0.23360801
-0.143342 0.088970996 -0.23357999
-0.14333899 0.089045003 -0.233582
-0.143335 0.089117996 -0.23359901
-0.143332 0.089192003 -0.233597
-0.14332999 0.089261003 -0.23357899
-0.143328 0.089332998 -0.23356
-0.143326 0.089405 -0.23355
-0.143323 0.089477003 -0.23355199
-0.14332099 0.089547999 -0.233546
-0.143319 0.089617997 -0.23351701
-0.143318 0.089686997 -0.23347899
-0.143316 0.089758001 -0.23346099
-0.143314 0.089830004 -0.23345999
-0.14331 0.089905001 -0.23346999
-0.143307 0.089977004 -0.233472
-0.143305 0.090046003 -0.23345301
-0.14330301 0.090117998 -0.233439
-0.143301 0.090190001 -0.233437
-0.143298 0.090262003 -0.233437
-0.143296 0.090333 -0.23342399
-0.14329401 0.090405002 -0.233408
-0.143291 0.090476997 -0.233394
-0.14329 0.090545997 -0.233365
-0.143289 0.090614997 -0.233339
-0.143286 0.090686999 -0.23333301
-0.14328299 0.090759002 -0.23333199
-0.14328 0.090830997 -0.233334
-0.143277 0.090902999 -0.233336
-0.14327399 0.090976998 -0.233338
-0.143271 0.091049001 -0.233353
-0.14326701 0.091123998 -0.233367
-0.14326499 0.091196001 -0.233367
-0.143261 0.09127 -0.233371
-0.143259 0.091342002 -0.233372
-0.14325701 0.091411002 -0.23334999
-0.143255 0.091482997 -0.233336
-0.143252 0.091554999 -0.233344
-0.14324801 0.091628999 -0.233355
-0.143245 0.091701001 -0.233355
-0.143243 0.091773003 -0.233349
-0.14324 0.091844998 -0.233346
-0.14323699 0.091917001 -0.233344
-0.143234 0.091989003 -0.233346
-0.143231 0.092063002 -0.233354
-0.14322799 0.092134997 -0.23335899
-0.143226 0.092207 -0.23335101
-0.143224 0.092279002 -0.233337
-0.14322101 0.092349999 -0.23333301
-0.143217 0.092425004 -0.233348
-0.143214 0.092499003 -0.233366
-0.14320999 0.092570998 -0.23338
-0.143207 0.092644997 -0.23338801
-0.14320301 0.092717998 -0.23339701
-0.1432 0.092791997 -0.23340701
-0.143197 0.092866004 -0.233419
-0.143194 0.092937998 -0.23342299
-0.14319099 0.093011998 -0.233419
-0.143189 0.093082003 -0.23340601
-0.143187 0.093151003 -0.23337799
-0.143186 0.093220003 -0.233349
-0.14318401 0.093291998 -0.233335
-0.143181 0.093364 -0.233339
-0.143178 0.093436003 -0.233337
-0.143176 0.093510002 -0.233328
-0.143172 0.093581997 -0.233344
-0.143167 0.093658999 -0.233386
-0.143163 0.093736 -0.23341601
-0.143159 0.09381 -0.23343
-0.14315499 0.093883999 -0.233449
-0.14315 0.093962997 -0.23349901
-0.143143 0.094043002 -0.233573
-0.143139 0.094118997 -0.233601
-0.143135 0.094194002 -0.233611
-0.143132 0.094268002 -0.233621
-0.14312901 0.094339997 -0.233629
-0.143125 0.094414003 -0.23364601
-0.143121 0.094490997 -0.23366199
-0.14311799 0.094563 -0.23367
-0.143115 0.094636999 -0.233686
-0.14311101 0.094714001 -0.233706
-0.143107 0.094786003 -0.233715
-0.143104 0.094860002 -0.23371699
-0.14310101 0.094931997 -0.23371901
-0.143098 0.095008001 -0.233735
-0.143094 0.095082998 -0.23376
-0.143089 0.095159002 -0.233788
-0.143085 0.095236003 -0.233814
-0.14308099 0.095310003 -0.233832
-0.143078 0.095384002 -0.23383801
-0.143075 0.095458001 -0.23384801
-0.14307 0.095532998 -0.23387501
-0.143066 0.095609002 -0.23390099
-0.143062 0.095683999 -0.23391899
-0.143059 0.095760003 -0.233935
-0.14305399 0.095836997 -0.233961
-0.14305 0.095913 -0.233989
-0.14304601 0.095987998 -0.23401199
-0.143043 0.096061997 -0.23401199
-0.143039 0.096138 -0.23403201
-0.143033 0.096216999 -0.234098
-0.14302699 0.096300997 -0.234166
-0.143021 0.096380003 -0.234216
-0.143013 0.096464001 -0.234312
-0.143003 0.096556999 -0.23446
-0.143341 0.085295998 -0.23518699
-0.143345 0.085360996 -0.23503301
-0.143345 0.085430004 -0.23497801
-0.143343 0.085502997 -0.234956
-0.143342 0.085574001 -0.23492
-0.143342 0.085643001 -0.23486499
-0.143342 0.085713997 -0.23481099
-0.143342 0.085781999 -0.234754
-0.143343 0.085853003 -0.23467401
-0.143344 0.085920997 -0.234604
-0.143344 0.085989997 -0.234543
-0.143344 0.086057998 -0.234479
-0.143344 0.086129002 -0.234428
-0.143344 0.086198002 -0.23436201
-0.143344 0.086266004 -0.234308
-0.143344 0.086337 -0.234267
-0.143342 0.086409003 -0.234237
-0.143341 0.086478002 -0.234211
-0.14333899 0.086549997 -0.23419
-0.143337 0.086621001 -0.234164
-0.143336 0.086691998 -0.23413
-0.143335 0.086760998 -0.234097
-0.143334 0.086833 -0.234069
-0.143333 0.086902 -0.234025
-0.143332 0.086972997 -0.23398601
-0.14332999 0.087044001 -0.233962
-0.143328 0.087116003 -0.233952
-0.143326 0.087186001 -0.233945
-0.143323 0.08726 -0.233937
-0.14332099 0.087330997 -0.233923
-0.143319 0.087402999 -0.233909
-0.143317 0.087475002 -0.233898
-0.143314 0.087544002 -0.233886
-0.14331201 0.087615997 -0.233868
-0.14331 0.087687999 -0.23385499
-0.143308 0.087759003 -0.233851
-0.143305 0.087830998 -0.233845
-0.14330301 0.087903 -0.23383
-0.143301 0.087975003 -0.233816
-0.143299 0.088045999 -0.233796
-0.143297 0.088118002 -0.233776
-0.14329401 0.088189997 -0.23378301
-0.14329199 0.088261001 -0.233769
-0.14329 0.088330999 -0.233741
-0.143288 0.088403001 -0.233734
-0.143286 0.088473998 -0.233724
-0.14328399 0.088546 -0.233706
-0.143282 0.088618003 -0.23369101
-0.14328 0.088688999 -0.233675
-0.143277 0.088758998 -0.233661
-0.14327499 0.088832997 -0.23365299
-0.143273 0.088901997 -0.23364
-0.143271 0.088973999 -0.233622
-0.143268 0.089046001 -0.23361801
-0.14326601 0.089117996 -0.233615
-0.143263 0.089189 -0.23360901
-0.143261 0.089261003 -0.233597
-0.14325801 0.089332998 -0.23358899
-0.14325599 0.089405 -0.23357999
-0.143254 0.089474 -0.233566
-0.143251 0.089547999 -0.233556
-0.14324901 0.089617997 -0.23355301
-0.14324699 0.08969 -0.233539
-0.143245 0.089760996 -0.233519
-0.143243 0.089832999 -0.23350801
-0.14324 0.089905001 -0.23349801
-0.14323799 0.089974001 -0.23349001
-0.143236 0.090046003 -0.23348001
-0.143233 0.090117998 -0.233473
-0.14323001 0.090190001 -0.23346899
-0.14322799 0.090262003 -0.233463
-0.143226 0.090333 -0.233448
-0.143224 0.090405002 -0.23343401
-0.14322101 0.090476997 -0.23342399
-0.14321899 0.090545997 -0.23340701
-0.143217 0.090617999 -0.23339701
-0.143214 0.090690002 -0.233395
-0.14321201 0.090761997 -0.233381
-0.143209 0.090833999 -0.233386
-0.143205 0.090907998 -0.233408
-0.14320301 0.090980001 -0.233402
-0.1432 0.091052003 -0.233392
-0.143197 0.091123998 -0.233403
-0.143194 0.091197997 -0.23340499
-0.14319099 0.09127 -0.233403
-0.143188 0.091342002 -0.23340499
-0.143186 0.091413997 -0.2334
-0.14318299 0.091485001 -0.23339
-0.143181 0.091557004 -0.23338801
-0.143178 0.091628999 -0.233383
-0.143176 0.091701001 -0.233373
-0.14317299 0.091773003 -0.233367
-0.143171 0.091844998 -0.23336101
-0.143168 0.091916002 -0.233354
-0.14316601 0.091987997 -0.23334999
-0.143162 0.092063002 -0.233362
-0.143159 0.092134997 -0.233376
-0.14315499 0.092208996 -0.23338699
-0.143153 0.092280999 -0.233383
-0.14315 0.092353001 -0.23337901
-0.14314701 0.092427 -0.23338901
-0.143143 0.092499003 -0.233404
-0.14314 0.092573002 -0.23341
-0.14313699 0.092646003 -0.233418
-0.143133 0.092720002 -0.233428
-0.14313 0.092794001 -0.233445
-0.143126 0.092868 -0.233459
-0.143123 0.092940003 -0.23346099
-0.143121 0.093011998 -0.23345301
-0.14311799 0.093084 -0.23344
-0.143116 0.093154997 -0.233426
-0.143114 0.093225002 -0.23341399
-0.143112 0.093296997 -0.23340701
-0.14311001 0.093368001 -0.233385
-0.143108 0.093437999 -0.233363
-0.143105 0.093510002 -0.233364
-0.14310101 0.093587004 -0.2334
-0.143094 0.093666002 -0.233472
-0.143089 0.093745001 -0.23352
-0.143085 0.093819998 -0.23354
-0.14308099 0.093896002 -0.233568
-0.143075 0.093973003 -0.233614
-0.143071 0.094048001 -0.23363601
-0.143068 0.094122 -0.23364501
-0.14306501 0.094195999 -0.23365299
-0.143061 0.094269998 -0.233669
-0.143058 0.094345003 -0.23368099
-0.14305399 0.094419003 -0.23369899
-0.14305 0.094494998 -0.23372599
-0.14304601 0.094570003 -0.233742
-0.143043 0.094644003 -0.233752
-0.143039 0.094715998 -0.233758
-0.14303701 0.094788 -0.233749
-0.14303499 0.094860002 -0.233735
-0.143031 0.094934002 -0.23374499
-0.14302599 0.095011003 -0.233789
-0.143022 0.095086999 -0.233821
-0.14301801 0.095164001 -0.23383901
-0.143014 0.095238 -0.23385599
-0.14301001 0.095315002 -0.233888
-0.143006 0.095390998 -0.23391201
-0.143002 0.095466003 -0.23393001
-0.142998 0.095540002 -0.23394801
-0.142995 0.095614001 -0.233953
-0.14299101 0.095688 -0.233971
-0.142986 0.095766999 -0.23402099
-0.14298099 0.095845997 -0.234063
-0.142977 0.095922999 -0.234079
-0.14297301 0.095996998 -0.23409501
-0.142969 0.096070997 -0.234117
-0.14296401 0.096150003 -0.23415799
-0.142957 0.096234001 -0.23424301
-0.14295 0.096317999 -0.234317
-0.14294299 0.096400999 -0.234393
-0.143253 0.085437998 -0.235167
-0.143259 0.085501999 -0.23499
-0.143259 0.085573003 -0.23494001
-0.14325701 0.085643999 -0.234916
-0.143254 0.085716002 -0.23491301
-0.143253 0.085786998 -0.234889
-0.143253 0.085858002 -0.23482899
-0.143255 0.085925996 -0.234734
-0.14325701 0.085993998 -0.234632
-0.143259 0.086060002 -0.234543
-0.14326 0.086127996 -0.23445299
-0.14326 0.086198002 -0.234396
-0.143259 0.086268 -0.234366
-0.14325701 0.086338997 -0.234336
-0.14325599 0.086410001 -0.23429801
-0.14325599 0.086479001 -0.23426101
-0.143255 0.086549997 -0.234221
-0.143254 0.086618997 -0.234182
-0.143253 0.086690001 -0.234144
-0.143251 0.086762004 -0.23411401
-0.14325 0.086831003 -0.234097
-0.14324801 0.086902998 -0.234065
-0.14324699 0.086974002 -0.234029
-0.143246 0.087044999 -0.23400199
-0.143245 0.087113999 -0.23396599
-0.143242 0.087186001 -0.23395599
-0.14324 0.087258004 -0.23394801
-0.14323799 0.087329999 -0.233937
-0.143236 0.087401003 -0.23391899
-0.143233 0.087472998 -0.233905
-0.14323001 0.087545 -0.23391201
-0.143227 0.087617002 -0.233914
-0.143225 0.087688997 -0.233906
-0.143223 0.087761998 -0.233896
-0.14322001 0.087831996 -0.233889
-0.143218 0.087903999 -0.233869
-0.143216 0.087975003 -0.23385499
-0.143213 0.088048004 -0.23386
-0.14321101 0.088120997 -0.23384599
-0.14320999 0.088189997 -0.233816
-0.143208 0.088260002 -0.23379099
-0.143206 0.088334002 -0.23378301
-0.14320301 0.088403001 -0.233775
-0.14320201 0.088474996 -0.233749
-0.1432 0.088546 -0.23372599
-0.143198 0.088615999 -0.233716
-0.143195 0.088689998 -0.23370799
-0.14319301 0.088760003 -0.23369899
-0.14319099 0.088831 -0.233685
-0.143188 0.088903002 -0.233677
-0.143185 0.088974997 -0.233678
-0.14318299 0.089048997 -0.233668
-0.143181 0.089117996 -0.233642
-0.14318 0.089187004 -0.233611
-0.143179 0.089258999 -0.233583
-0.143176 0.089331001 -0.23358899
-0.14317299 0.089403003 -0.233595
-0.14317 0.089474998 -0.23357999
-0.143168 0.089546002 -0.23357201
-0.14316501 0.089619003 -0.23357999
-0.143162 0.08969 -0.233578
-0.14316 0.089762002 -0.233565
-0.143158 0.089833997 -0.23354299
-0.14315701 0.089902997 -0.233511
-0.14315499 0.089974001 -0.23349001
-0.143153 0.090043999 -0.23348001
-0.143151 0.090116002 -0.23346999
-0.14314801 0.090187997 -0.233455
-0.14314599 0.090259001 -0.23345099
-0.143143 0.090331003 -0.23345301
-0.14314 0.090402998 -0.233445
-0.14313801 0.090476997 -0.233446
-0.143135 0.090549 -0.23345
-0.143132 0.090621002 -0.23345
-0.14312901 0.090692997 -0.23344301
-0.14312699 0.090764999 -0.233435
-0.143125 0.090836003 -0.233419
-0.143123 0.090906002 -0.233403
-0.14312001 0.090977997 -0.233402
-0.143117 0.091049999 -0.2334
-0.143115 0.091122001 -0.23339599
-0.143112 0.091196001 -0.23339701
-0.14310899 0.091268003 -0.23339701
-0.143106 0.091339998 -0.233401
-0.143103 0.091413997 -0.23340701
-0.14309999 0.091486 -0.23341
-0.143097 0.091558002 -0.23341399
-0.143094 0.091629997 -0.233404
-0.143093 0.091701001 -0.233382
-0.14308999 0.091770999 -0.233373
-0.143088 0.091843002 -0.233373
-0.143085 0.091917001 -0.233371
-0.14308199 0.091986999 -0.233364
-0.143079 0.092060998 -0.233366
-0.143076 0.092134997 -0.233384
-0.14307199 0.092208996 -0.23340601
-0.143068 0.092284001 -0.23342399
-0.14306501 0.092355996 -0.233431
-0.143062 0.092427999 -0.23342501
-0.143059 0.092500001 -0.23342299
-0.14305601 0.092574 -0.23343299
-0.143053 0.092648 -0.233446
-0.143049 0.092720002 -0.23345
-0.14304601 0.092794001 -0.23345999
-0.143042 0.092868999 -0.233476
-0.143039 0.092941001 -0.233487
-0.14303599 0.093015 -0.23348901
-0.143033 0.093087003 -0.23348901
-0.143031 0.093158998 -0.233483
-0.14302801 0.093231 -0.233476
-0.14302699 0.0933 -0.233448
-0.14302599 0.093369 -0.233404
-0.143025 0.093436003 -0.233375
-0.143022 0.093510002 -0.233375
-0.14301699 0.093587004 -0.233419
-0.14301001 0.093668997 -0.233503
-0.143003 0.09375 -0.233575
-0.14299899 0.093824998 -0.233601
-0.142995 0.093898997 -0.23361599
-0.14299101 0.093974002 -0.233642
-0.142987 0.094049998 -0.23366401
-0.142984 0.094125003 -0.233678
-0.14297999 0.094199002 -0.23370001
-0.142975 0.094276004 -0.23372599
-0.14297201 0.094350003 -0.233741
-0.142968 0.094424002 -0.23375501
-0.142965 0.094498001 -0.233769
-0.142961 0.094572999 -0.233781
-0.142958 0.094646998 -0.233795
-0.14295401 0.094720997 -0.233806
-0.142951 0.094792999 -0.233814
-0.142947 0.094870001 -0.233834
-0.14294299 0.094944 -0.233858
-0.142938 0.095022999 -0.23389
-0.14293399 0.095096998 -0.233917
-0.14293 0.095174 -0.233933
-0.14292701 0.095247999 -0.233953
-0.142923 0.095322996 -0.233973
-0.142919 0.095399 -0.233997
-0.142914 0.095476002 -0.234027
-0.14291 0.095551997 -0.234051
-0.14290699 0.095624 -0.234052
-0.142905 0.095696002 -0.23404001
-0.142901 0.095770001 -0.234054
-0.142895 0.095850997 -0.234116
-0.142886 0.095940001 -0.23424201
-0.14287999 0.096019 -0.234294
-0.142876 0.096096002 -0.23431601
-0.142869 0.096179001 -0.234392
-0.14315 0.085859001 -0.234935
-0.143153 0.085924 -0.23481899
-0.14315499 0.085992001 -0.23470999
-0.14315499 0.086061001 -0.23466
-0.14315701 0.086129002 -0.23456
-0.143159 0.086197004 -0.234465
-0.143158 0.086266004 -0.234429
-0.14315701 0.086337 -0.234384
-0.14315701 0.086406 -0.234336
-0.14315601 0.086476997 -0.234302
-0.14315499 0.086548001 -0.234267
-0.143154 0.086617 -0.23421501
-0.143154 0.086687997 -0.23416699
-0.143152 0.086756997 -0.234154
-0.14315 0.086828999 -0.23414201
-0.14314801 0.086900003 -0.234116
-0.14314701 0.086971998 -0.234081
-0.14314599 0.087043002 -0.234051
-0.143144 0.087112002 -0.23403101
-0.143142 0.087183997 -0.23401199
-0.143139 0.087255999 -0.23401
-0.14313699 0.087328002 -0.23400401
-0.143134 0.087401003 -0.233992
-0.143132 0.087472998 -0.233987
-0.14313 0.087543003 -0.233973
-0.14312799 0.087614998 -0.233953
-0.143126 0.087686002 -0.23393001
-0.143124 0.087756999 -0.23390999
-0.143122 0.087829001 -0.23390201
-0.14312001 0.087901004 -0.23389
-0.143117 0.087972999 -0.23388501
-0.143115 0.088045001 -0.233877
-0.143113 0.088115998 -0.23385701
-0.14311101 0.088186003 -0.23383801
-0.14310899 0.088257 -0.23382799
-0.143106 0.088330999 -0.233822
-0.143104 0.088400997 -0.23381101
-0.14310201 0.088473 -0.23379099
-0.14309999 0.088544004 -0.23377299
-0.143098 0.088615999 -0.233757
-0.143096 0.088687003 -0.233744
-0.143093 0.088757001 -0.23373599
-0.14309099 0.088831 -0.233734
-0.143088 0.088903002 -0.233735
-0.143085 0.088974997 -0.233725
-0.14308301 0.089046001 -0.23370899
-0.14308199 0.089116 -0.233688
-0.14308 0.089187004 -0.23366
-0.143079 0.089257002 -0.233634
-0.143076 0.089327998 -0.23362599
-0.14307299 0.089400999 -0.233631
-0.14307 0.089474 -0.233631
-0.143067 0.089546002 -0.233629
-0.14306501 0.089617997 -0.23361801
-0.14306401 0.089688003 -0.233594
-0.143062 0.089759 -0.233576
-0.143059 0.089831002 -0.233566
-0.143057 0.089902997 -0.23355301
-0.14305601 0.089971997 -0.23352499
-0.14305399 0.090040997 -0.233495
-0.143051 0.090112999 -0.2335
-0.143048 0.090187997 -0.23352
-0.14304399 0.090262003 -0.23352399
-0.143042 0.090333998 -0.233518
-0.14304 0.090402998 -0.233511
-0.14303701 0.090475 -0.233495
-0.14303499 0.090547003 -0.233487
-0.143032 0.090618998 -0.233484
-0.14303 0.090690002 -0.233466
-0.14302801 0.090761997 -0.233458
-0.143025 0.090833999 -0.23346201
-0.143023 0.090906002 -0.233447
-0.14302 0.090977997 -0.233445
-0.14301699 0.091049999 -0.233455
-0.143015 0.091122001 -0.23344401
-0.143013 0.091192998 -0.233426
-0.14301001 0.091265 -0.233418
-0.143007 0.091337003 -0.23342399
-0.143003 0.091411002 -0.233439
-0.14300101 0.091482997 -0.233437
-0.142998 0.091554999 -0.23342501
-0.142996 0.091627002 -0.233426
-0.142992 0.091701001 -0.23343401
-0.14298999 0.091770999 -0.233426
-0.14298899 0.091839999 -0.23338801
-0.14298999 0.091906004 -0.233321
-0.14298899 0.091973998 -0.233279
-0.142985 0.092050001 -0.233307
-0.142979 0.092127003 -0.23336799
-0.142974 0.092203997 -0.233402
-0.14297099 0.092275999 -0.23341
-0.142968 0.092348002 -0.233412
-0.142965 0.092422001 -0.233422
-0.142961 0.092496999 -0.233435
-0.142958 0.092569001 -0.23345099
-0.14295401 0.092644997 -0.23346899
-0.14295 0.092720002 -0.233491
-0.142947 0.092791997 -0.23349801
-0.14294299 0.092866004 -0.23351
-0.14294 0.092940003 -0.23352399
-0.14293601 0.093015 -0.23353601
-0.142932 0.093088999 -0.233556
-0.142929 0.093162999 -0.233567
-0.14292701 0.093232997 -0.23354299
-0.142928 0.093296997 -0.23347899
-0.142928 0.093364 -0.23341601
-0.14292701 0.093433 -0.233374
-0.142924 0.093505003 -0.23337699
-0.142919 0.093581997 -0.233427
-0.142911 0.093666002 -0.233527
-0.142903 0.09375 -0.23363
-0.14289799 0.093827002 -0.233675
-0.142894 0.093904004 -0.233697
-0.14288899 0.093978003 -0.233721
-0.142886 0.094053 -0.233735
-0.142882 0.094126999 -0.233749
-0.142878 0.094200999 -0.233769
-0.142874 0.094278 -0.233794
-0.14287101 0.094351999 -0.233804
-0.142867 0.094425999 -0.23381799
-0.14286301 0.094501004 -0.23384
-0.14286 0.094575003 -0.233858
-0.142856 0.094650999 -0.23387501
-0.14285199 0.094726004 -0.233887
-0.142849 0.094800003 -0.233905
-0.14284401 0.094876997 -0.233933
-0.14284 0.094953001 -0.233963
-0.142836 0.095030002 -0.233989
-0.142832 0.095104001 -0.23401
-0.142827 0.095181003 -0.234036
-0.142823 0.095256999 -0.23406599
-0.142819 0.095331997 -0.23409
-0.14281499 0.095408 -0.23411199
-0.142811 0.095482998 -0.234128
-0.142809 0.095554002 -0.234117
-0.142802 0.095637999 -0.234201
-0.14279599 0.095716998 -0.234255
-0.14279 0.095795996 -0.23430701
-0.142786 0.095875002 -0.234339
-0.142781 0.095951997 -0.23437101
-0.14277799 0.096026003 -0.234385
-0.142775 0.096097998 -0.234377
-0.14306501 0.086207002 -0.234614
-0.143066 0.086273 -0.234524
-0.143066 0.086344004 -0.23448101
-0.14306501 0.086413004 -0.234439
-0.14306401 0.086484 -0.234395
-0.14306401 0.086553 -0.234348
-0.14306299 0.086623996 -0.23429801
-0.14306299 0.086691998 -0.23424099
-0.143062 0.086764 -0.234211
-0.14306 0.086834997 -0.23419701
-0.143058 0.086906999 -0.234175
-0.14305601 0.086975999 -0.234156
-0.14305399 0.087049998 -0.234144
-0.143052 0.087118998 -0.234118
-0.143052 0.087187998 -0.234069
-0.143049 0.087261997 -0.234065
-0.143047 0.087334 -0.234063
-0.14304499 0.087406002 -0.23404001
-0.143043 0.087476999 -0.234026
-0.14304 0.087546997 -0.234018
-0.143038 0.087621003 -0.234016
-0.14303499 0.087692998 -0.234019
-0.143033 0.087765001 -0.234005
-0.143031 0.087835997 -0.233981
-0.14302801 0.087908 -0.233978
-0.14302599 0.087980002 -0.23397
-0.143025 0.088049002 -0.23393799
-0.143023 0.088119999 -0.233907
-0.143022 0.088192001 -0.23388299
-0.14301901 0.088264003 -0.233879
-0.143016 0.088335998 -0.233879
-0.143014 0.088407002 -0.23387
-0.143012 0.088478997 -0.233858
-0.14300901 0.088551 -0.23385
-0.143007 0.088621996 -0.23383901
-0.143004 0.088693999 -0.233831
-0.143002 0.088766001 -0.23381899
-0.14300101 0.088835001 -0.23379
-0.14299899 0.088907003 -0.23377
-0.142996 0.088978998 -0.233776
-0.142994 0.089051001 -0.233762
-0.142992 0.089121997 -0.233741
-0.14298899 0.089194 -0.233735
-0.142987 0.089266002 -0.233731
-0.142985 0.089336999 -0.23371799
-0.14298201 0.089409001 -0.23370799
-0.142979 0.089481004 -0.23370799
-0.142977 0.089552999 -0.233706
-0.142975 0.089625001 -0.233689
-0.14297301 0.089694001 -0.233659
-0.14297201 0.089766003 -0.233639
-0.142969 0.089837 -0.23363
-0.142968 0.089906998 -0.23360001
-0.142967 0.089975998 -0.233566
-0.142965 0.090047002 -0.233551
-0.142961 0.090121999 -0.233565
-0.142958 0.090194002 -0.233575
-0.14295501 0.090265997 -0.233577
-0.142952 0.090337999 -0.23357201
-0.14295 0.090409003 -0.23356199
-0.142947 0.090480998 -0.233556
-0.14294399 0.090554997 -0.233558
-0.142942 0.090627 -0.233555
-0.14294 0.090696998 -0.23353299
-0.142939 0.090765998 -0.233491
-0.142937 0.090838 -0.233486
-0.142933 0.090911999 -0.233504
-0.14293 0.090984002 -0.23350599
-0.142928 0.091055997 -0.23349901
-0.14292599 0.091124997 -0.233475
-0.142924 0.091196999 -0.23345301
-0.142921 0.091269001 -0.233455
-0.14291801 0.091343001 -0.233456
-0.14291599 0.091412999 -0.23345201
-0.142913 0.091485001 -0.23345
-0.14291 0.091558002 -0.233449
-0.14290699 0.091631003 -0.233455
-0.142904 0.091705002 -0.233463
-0.142902 0.091774002 -0.233445
-0.142903 0.091838002 -0.233366
-0.142904 0.091904998 -0.2333
-0.142901 0.091977 -0.23330501
-0.14289699 0.092054002 -0.233327
-0.142891 0.092130996 -0.23337699
-0.142886 0.092207998 -0.233427
-0.142882 0.092281997 -0.233447
-0.142878 0.092357002 -0.233473
-0.142874 0.092432998 -0.233501
-0.14286999 0.092505001 -0.233512
-0.142867 0.092577003 -0.233518
-0.142864 0.092652 -0.23353
-0.14286 0.092726 -0.23354401
-0.142856 0.092799999 -0.233559
-0.14285301 0.092874996 -0.23357099
-0.142849 0.092949003 -0.233587
-0.142846 0.093020998 -0.233587
-0.14284401 0.093093 -0.233586
-0.14284 0.093167 -0.23359799
-0.142838 0.093239002 -0.23357999
-0.142838 0.093304999 -0.23352499
-0.142837 0.093374997 -0.233503
-0.14283299 0.093448997 -0.233511
-0.142829 0.093523003 -0.23353299
-0.14282399 0.093599997 -0.233577
-0.142818 0.093680002 -0.23363701
-0.142813 0.093759 -0.23368999
-0.14280801 0.093835004 -0.233724
-0.142804 0.093910001 -0.23374
-0.142801 0.093984 -0.233752
-0.14279599 0.094061002 -0.233798
-0.142791 0.094137996 -0.23382799
-0.14278699 0.094212003 -0.233851
-0.142783 0.094288997 -0.23387299
-0.14277899 0.094362997 -0.233899
-0.142775 0.094437003 -0.233915
-0.142772 0.094513997 -0.233925
-0.142768 0.094587997 -0.233941
-0.142764 0.094662003 -0.233964
-0.14276101 0.094737001 -0.233978
-0.142757 0.094811 -0.23399401
-0.14275301 0.094887003 -0.234018
-0.142749 0.094963998 -0.234042
-0.142744 0.095040999 -0.23407
-0.14274 0.095114999 -0.234093
-0.142736 0.095192 -0.234119
-0.14273299 0.095265999 -0.234125
-0.14273 0.095338002 -0.23412301
-0.14272501 0.095416002 -0.234163
-0.142719 0.095495999 -0.23423301
-0.14271399 0.095574997 -0.234263
-0.142773 0.087402999 -0.234258
-0.142772 0.087472998 -0.234229
-0.14277001 0.087544002 -0.234207
-0.142768 0.087615997 -0.234191
-0.142766 0.087687001 -0.234175
-0.142764 0.087759003 -0.23415001
-0.142763 0.087828003 -0.234106
-0.142763 0.087897003 -0.23406801
-0.14275999 0.087971002 -0.23406699
-0.142756 0.088042997 -0.234079
-0.14275301 0.088117003 -0.234079
-0.14275201 0.088187002 -0.234062
-0.14274999 0.088257998 -0.234042
-0.142748 0.088330001 -0.234016
-0.142746 0.088399 -0.233997
-0.142744 0.088473 -0.233991
-0.14274099 0.088545002 -0.233989
-0.142739 0.088616997 -0.233979
-0.142737 0.088688001 -0.233962
-0.142735 0.088757999 -0.233946
-0.14273199 0.088831998 -0.233934
-0.14273 0.088900998 -0.23391899
-0.142729 0.088973001 -0.233897
-0.142726 0.089043997 -0.23388501
-0.14272299 0.089116 -0.233891
-0.142721 0.089189999 -0.23388401
-0.142719 0.089259997 -0.23385599
-0.142718 0.089328997 -0.233826
-0.14271601 0.089400001 -0.233807
-0.14271399 0.089472003 -0.233797
-0.142711 0.089543998 -0.23379099
-0.142709 0.089616001 -0.23377199
-0.14270701 0.089685 -0.233758
-0.14270499 0.089757003 -0.23374601
-0.142703 0.089828998 -0.233732
-0.142701 0.089900002 -0.233705
-0.142699 0.08997 -0.233687
-0.14269599 0.090042002 -0.233689
-0.14269499 0.090112999 -0.23367199
-0.142694 0.090181999 -0.233634
-0.142691 0.090255998 -0.23363
-0.14268801 0.090328 -0.23363499
-0.14268599 0.090400003 -0.233623
-0.142683 0.090471998 -0.23361699
-0.142681 0.090544 -0.233611
-0.14267799 0.090614997 -0.23359799
-0.142676 0.090685003 -0.233586
-0.142674 0.090756997 -0.233582
-0.142671 0.090830997 -0.23358101
-0.14266799 0.090902999 -0.233583
-0.142665 0.090975001 -0.233583
-0.142663 0.091046996 -0.233575
-0.14266001 0.091118 -0.233568
-0.142658 0.091190003 -0.23356199
-0.142655 0.091261998 -0.233564
-0.14265101 0.091335997 -0.233574
-0.14264899 0.091407999 -0.233569
-0.142647 0.091480002 -0.233555
-0.142643 0.091551997 -0.23356099
-0.14263999 0.091626003 -0.23357099
-0.142637 0.091697998 -0.233568
-0.142634 0.091770001 -0.23356999
-0.14263099 0.091844 -0.233576
-0.142629 0.091916002 -0.23356099
-0.142628 0.091985002 -0.233531
-0.142627 0.092054002 -0.233493
-0.142626 0.092122003 -0.23346201
-0.14262301 0.092194997 -0.23346201
-0.142618 0.092271999 -0.23350599
-0.142612 0.092349999 -0.233566
-0.142607 0.092427 -0.23360801
-0.142603 0.092501 -0.233628
-0.1426 0.092574999 -0.23363701
-0.14259601 0.092648998 -0.233647
-0.142593 0.092721999 -0.233657
-0.14259 0.092795998 -0.23366299
-0.14258599 0.092869997 -0.233678
-0.142582 0.092944004 -0.233698
-0.14257801 0.093019001 -0.233724
-0.142574 0.093094997 -0.23375
-0.14257 0.093170002 -0.23377199
-0.142566 0.093244001 -0.23379301
-0.142563 0.093318 -0.233797
-0.14256001 0.093390003 -0.233795
-0.142556 0.093465 -0.233815
-0.142553 0.093540996 -0.233833
-0.14254899 0.093612999 -0.233842
-0.142546 0.093688004 -0.23386
-0.14254101 0.093764 -0.233882
-0.142538 0.093837999 -0.233896
-0.142533 0.093915001 -0.23392799
-0.142529 0.093992002 -0.23395801
-0.142525 0.094066001 -0.233977
-0.14252099 0.094140001 -0.233999
-0.142517 0.094217002 -0.23402099
-0.14251401 0.094291002 -0.234035
-0.14251 0.094365001 -0.23404901
-0.142506 0.094439998 -0.234072
-0.142501 0.094518997 -0.234116
-0.142496 0.094595999 -0.234156
-0.142492 0.094672002 -0.234184
-0.142563 0.087338001 -0.23452
-0.142561 0.087408997 -0.23449799
-0.14256001 0.087477997 -0.234467
-0.14255901 0.087549999 -0.234433
-0.14255799 0.087621003 -0.234405
-0.142556 0.087690003 -0.234374
-0.142555 0.087761998 -0.23435
-0.142552 0.087835997 -0.234354
-0.14254899 0.087908 -0.234349
-0.142547 0.087978996 -0.234327
-0.142546 0.088048004 -0.234299
-0.142544 0.088119999 -0.23427001
-0.142543 0.088191003 -0.234246
-0.14254101 0.088262998 -0.23423199
-0.142538 0.088335 -0.23422199
-0.142536 0.088405997 -0.234207
-0.142534 0.088477999 -0.234193
-0.14253201 0.088549003 -0.234181
-0.14252999 0.088620998 -0.234166
-0.142528 0.088693 -0.234144
-0.142526 0.088762 -0.234118
-0.142524 0.088834003 -0.23410299
-0.14252201 0.088904999 -0.234089
-0.14252099 0.088977002 -0.23406699
-0.142519 0.089046001 -0.23404001
-0.142517 0.089117996 -0.234026
-0.14251401 0.089189999 -0.23402201
-0.14251199 0.089261003 -0.23401
-0.14251 0.089332998 -0.233991
-0.142508 0.089404002 -0.233973
-0.142506 0.089475997 -0.233961
-0.14250401 0.089547999 -0.233946
-0.14250199 0.089616999 -0.233926
-0.1425 0.089689001 -0.233904
-0.142498 0.089759998 -0.23388501
-0.142496 0.089830004 -0.233869
-0.14249399 0.089901999 -0.233853
-0.14249299 0.089973003 -0.23382699
-0.142491 0.090042002 -0.23379999
-0.142489 0.090113997 -0.233786
-0.142487 0.090186 -0.23378199
-0.14248399 0.090258002 -0.23377299
-0.142483 0.090327002 -0.23374499
-0.142482 0.090396002 -0.233711
-0.14248 0.090467997 -0.233684
-0.142478 0.090539001 -0.233678
-0.14247499 0.090613 -0.233684
-0.142472 0.090686001 -0.233687
-0.142469 0.090756997 -0.23368099
-0.14246599 0.090829 -0.23368099
-0.142463 0.090903997 -0.23369101
-0.14246 0.090976 -0.233696
-0.14245699 0.091048002 -0.233694
-0.142454 0.091122001 -0.233696
-0.142451 0.091196001 -0.23370799
-0.14244799 0.091268003 -0.23370899
-0.142445 0.091339998 -0.233703
-0.142442 0.091412 -0.233703
-0.14244001 0.091482997 -0.23370101
-0.142437 0.091557004 -0.23370001
-0.142434 0.091628999 -0.233696
-0.142432 0.091701001 -0.233688
-0.14242999 0.091770999 -0.23367301
-0.142428 0.091839999 -0.233643
-0.142428 0.091908999 -0.233605
-0.142425 0.091981001 -0.233594
-0.14242101 0.092055 -0.23361599
-0.142418 0.092129998 -0.233632
-0.142415 0.092202 -0.23363
-0.14241099 0.092275999 -0.23364601
-0.142407 0.092353001 -0.23368099
-0.14240199 0.092427 -0.233705
-0.142399 0.092501 -0.23371699
-0.142396 0.092575997 -0.233729
-0.14239199 0.092649996 -0.23374499
-0.142388 0.092724003 -0.233766
-0.14238399 0.092799 -0.23378401
-0.14238 0.092873 -0.23380201
-0.142377 0.092946999 -0.233822
-0.142373 0.093021996 -0.233842
-0.142369 0.093096003 -0.233859
-0.14236499 0.093172997 -0.233877
-0.142361 0.093246996 -0.233899
-0.14235701 0.093322001 -0.233927
-0.142353 0.093397997 -0.233953
-0.142349 0.093471996 -0.233971
-0.142345 0.093547001 -0.23398601
-0.142341 0.093622997 -0.23401999
-0.142336 0.093699999 -0.23405799
-0.142331 0.093778998 -0.23409399
-0.14232799 0.093851 -0.234088
-0.14232799 0.093918003 -0.23404901
-0.142325 0.093989998 -0.23403899
-0.14232001 0.094068997 -0.234083
-0.142315 0.094145998 -0.234129
-0.14231201 0.094219998 -0.234139
-0.142308 0.094293997 -0.234152
-0.142303 0.094373003 -0.23419601
-0.142297 0.094452001 -0.23425201
-0.14229301 0.094526999 -0.23426799
-0.14229 0.094600998 -0.234276
-0.14228401 0.094682001 -0.234348
-0.142462 0.087403998 -0.23455399
-0.14246 0.087476 -0.234532
-0.14245801 0.087546997 -0.234504
-0.14245699 0.087618001 -0.234468
-0.142456 0.087687999 -0.234431
-0.142455 0.087759003 -0.23439699
-0.142453 0.087830998 -0.23438901
-0.14245 0.087903 -0.23438799
-0.14244799 0.087973997 -0.234372
-0.14244699 0.088045001 -0.23433
-0.14244699 0.088114001 -0.234283
-0.142445 0.088183001 -0.234255
-0.142443 0.088255003 -0.23424301
-0.142441 0.088326998 -0.23422
-0.14244001 0.088398002 -0.234198
-0.142437 0.088472001 -0.234198
-0.142434 0.088544004 -0.234199
-0.14243101 0.088615999 -0.234199
-0.142428 0.088689998 -0.234203
-0.142426 0.088760003 -0.234181
-0.142425 0.088831 -0.234144
-0.142424 0.0889 -0.234118
-0.14242201 0.088972002 -0.23409601
-0.14241999 0.089042999 -0.23407701
-0.142418 0.089115001 -0.234063
-0.142416 0.089185998 -0.234053
-0.14241301 0.089258 -0.234042
-0.14241099 0.089327998 -0.234028
-0.14241 0.089399002 -0.23400401
-0.142408 0.089470997 -0.233981
-0.142406 0.089542001 -0.233961
-0.142404 0.089612 -0.233937
-0.14240301 0.089681 -0.233906
-0.14240199 0.089752004 -0.23388
-0.1424 0.089823999 -0.23386601
-0.142397 0.089896001 -0.23386
-0.142395 0.089966998 -0.233843
-0.14239299 0.090037003 -0.233817
-0.142391 0.090108 -0.23380101
-0.142389 0.090180002 -0.23379201
-0.142387 0.090251997 -0.23377401
-0.14238501 0.090320997 -0.23375601
-0.14238299 0.090392999 -0.233753
-0.142379 0.090466999 -0.233761
-0.142377 0.090539001 -0.233751
-0.14237501 0.090611003 -0.23373701
-0.142372 0.090682998 -0.23373
-0.14237 0.090754002 -0.23372
-0.14236701 0.090825997 -0.233722
-0.142364 0.090898 -0.233724
-0.142362 0.090971999 -0.23371699
-0.142359 0.091044001 -0.233711
-0.14235701 0.091113999 -0.23370101
-0.142354 0.091187999 -0.233696
-0.142351 0.091260001 -0.233706
-0.14234699 0.091334 -0.233722
-0.142344 0.091407999 -0.23373
-0.142342 0.091477998 -0.233721
-0.14233901 0.09155 -0.23370899
-0.14233699 0.091622002 -0.23370101
-0.142334 0.091695003 -0.233693
-0.142332 0.091765001 -0.23368201
-0.14233001 0.091836996 -0.23366
-0.14232799 0.091908 -0.233648
-0.142324 0.091981001 -0.233667
-0.14232101 0.092056997 -0.233687
-0.142318 0.092129 -0.233687
-0.142315 0.092201002 -0.233685
-0.14231201 0.092272997 -0.233686
-0.142309 0.092347004 -0.233694
-0.142305 0.092421003 -0.233706
-0.14230201 0.092492998 -0.233716
-0.142298 0.092568003 -0.233732
-0.142295 0.092642002 -0.233749
-0.14229099 0.092716001 -0.23376501
-0.142287 0.092793003 -0.233785
-0.14228299 0.092867002 -0.23380899
-0.142279 0.092941999 -0.23382699
-0.14227501 0.093015999 -0.23384801
-0.142271 0.093091004 -0.233868
-0.142267 0.093167 -0.23390201
-0.142262 0.093244001 -0.233944
-0.142257 0.093321003 -0.233978
-0.142253 0.093396999 -0.23399401
-0.142249 0.093471996 -0.234019
-0.14224499 0.093548 -0.23404901
-0.142241 0.093622997 -0.23407701
-0.14223599 0.093699999 -0.234107
-0.142232 0.093776003 -0.23413099
-0.14222901 0.093847997 -0.23413301
-0.14222699 0.09392 -0.234126
-0.142223 0.093996003 -0.23413999
-0.142217 0.094075002 -0.23420399
-0.142212 0.094152004 -0.234246
-0.14220899 0.094226003 -0.23425201
-0.142205 0.094302997 -0.23426799
-0.14219999 0.094378002 -0.23430499
-0.142197 0.094452001 -0.23430701
-0.142194 0.094526 -0.234311
-0.142189 0.094602004 -0.23435099
-0.14240301 0.087546997 -0.234586
-0.14240099 0.087618001 -0.234558
-0.1424 0.087687001 -0.23452
-0.1424 0.087757997 -0.234479
-0.142397 0.08783 -0.23446301
-0.142395 0.087902002 -0.234459
-0.14239299 0.087972999 -0.234441
-0.14239199 0.088041998 -0.234404
-0.14239199 0.088110998 -0.23434401
-0.14239199 0.088179998 -0.234293
-0.142389 0.088253997 -0.234293
-0.142386 0.088325001 -0.234285
-0.14238501 0.088397004 -0.23426101
-0.14238299 0.088468 -0.23424201
-0.142381 0.088540003 -0.23423
-0.142378 0.088610001 -0.23422199
-0.14237501 0.088684 -0.23422299
-0.142372 0.088756002 -0.234231
-0.14237 0.088830002 -0.234211
-0.142369 0.088899001 -0.23418
-0.14236701 0.088969998 -0.234164
-0.14236499 0.089042 -0.234146
-0.142364 0.089111 -0.234116
-0.142362 0.089183003 -0.234101
-0.142359 0.089254998 -0.234091
-0.14235701 0.089326002 -0.234079
-0.142355 0.089397997 -0.234056
-0.142354 0.089466996 -0.234026
-0.142353 0.089538999 -0.233996
-0.142351 0.089607999 -0.233971
-0.14235 0.089676999 -0.23394699
-0.14234801 0.089749001 -0.23391899
-0.14234599 0.089819998 -0.23390999
-0.142343 0.089892 -0.233908
-0.142341 0.089964002 -0.23389199
-0.14233901 0.090034999 -0.233869
-0.14233799 0.090104997 -0.233843
-0.142336 0.090173997 -0.233813
-0.142335 0.090245999 -0.23379201
-0.142332 0.090317003 -0.23378401
-0.14233001 0.090388998 -0.233776
-0.142327 0.090461001 -0.23377
-0.142325 0.090533003 -0.233769
-0.142322 0.090607002 -0.23376501
-0.14231899 0.090678997 -0.233769
-0.142316 0.090751 -0.233771
-0.142313 0.090824999 -0.23376399
-0.14231201 0.090893999 -0.233742
-0.142309 0.090966001 -0.23372801
-0.142307 0.091038004 -0.23372699
-0.142304 0.091109999 -0.233729
-0.14230099 0.091183998 -0.233733
-0.142298 0.091256 -0.233735
-0.142295 0.091329999 -0.233732
-0.14229199 0.091402002 -0.23373
-0.142289 0.091473997 -0.23373599
-0.142286 0.091548003 -0.233742
-0.14228401 0.091619998 -0.233735
-0.14228199 0.091691002 -0.23371901
-0.14228 0.091761 -0.23370101
-0.142278 0.091833003 -0.233686
-0.14227501 0.091904998 -0.233688
-0.142271 0.091978997 -0.23370001
-0.142267 0.092053004 -0.233716
-0.14226501 0.092124999 -0.233715
-0.142262 0.092197001 -0.233703
-0.14226 0.092269003 -0.233697
-0.142257 0.092340998 -0.23370101
-0.142253 0.092414998 -0.233722
-0.142249 0.092488997 -0.233742
-0.14224499 0.092564002 -0.233758
-0.142242 0.092638001 -0.23377199
-0.14223801 0.092712 -0.23379201
-0.142234 0.092789002 -0.233821
-0.14222901 0.092866004 -0.233849
-0.142225 0.092940003 -0.233869
-0.142221 0.093015 -0.233899
-0.142216 0.093091004 -0.233935
-0.14221101 0.093167998 -0.23397499
-0.142207 0.093245 -0.234007
-0.142204 0.093318999 -0.234018
-0.14220101 0.093392998 -0.23401999
-0.142196 0.093468003 -0.234054
-0.14219099 0.093547001 -0.23409
-0.142187 0.093621001 -0.23412199
-0.14218201 0.093698002 -0.234156
-0.142178 0.093774997 -0.234185
-0.14217401 0.093849003 -0.234193
-0.14217199 0.093923002 -0.234193
-0.142167 0.093997002 -0.234221
-0.142161 0.094076999 -0.23428699
-0.142156 0.094155997 -0.23432501
-0.142152 0.094232 -0.23435301
-0.142147 0.094309002 -0.234394
-0.142143 0.094385996 -0.234418
-0.142139 0.094460003 -0.234428
-0.142331 0.087833002 -0.23457099
-0.14232901 0.087903999 -0.234549
-0.142327 0.087976001 -0.23453601
-0.142326 0.088046998 -0.234504
-0.142325 0.088115998 -0.23445
-0.142325 0.088184997 -0.234411
-0.142323 0.088257 -0.23438901
-0.14232101 0.088327996 -0.234373
-0.14231899 0.088399999 -0.234354
-0.142317 0.088471003 -0.234326
-0.142316 0.088541001 -0.2343
-0.142314 0.088611998 -0.23427901
-0.14231101 0.088685997 -0.234281
-0.142308 0.088757999 -0.234291
-0.142305 0.088830002 -0.234283
-0.142304 0.088900998 -0.234254
-0.14230201 0.088970996 -0.234228
-0.14230099 0.089042 -0.234198
-0.14230099 0.089111 -0.23414899
-0.142299 0.089181997 -0.234129
-0.142296 0.089254998 -0.234137
-0.14229301 0.089326002 -0.23413
-0.14229099 0.089397997 -0.23411
-0.14229 0.089469001 -0.23408601
-0.142288 0.089538999 -0.234055
-0.142287 0.089610003 -0.234023
-0.142286 0.089679003 -0.233999
-0.14228401 0.089750998 -0.233972
-0.14228199 0.089819998 -0.233952
-0.14228 0.089893997 -0.233944
-0.142277 0.089965999 -0.233936
-0.14227501 0.090034999 -0.233925
-0.14227299 0.090107001 -0.233905
-0.142272 0.090176001 -0.23387299
-0.14227 0.090248004 -0.23385
-0.142268 0.090319999 -0.23384599
-0.14226501 0.090391003 -0.23384
-0.142263 0.090462998 -0.23382901
-0.14226 0.090536997 -0.233831
-0.142257 0.090608999 -0.23382901
-0.14225499 0.090681002 -0.233817
-0.142252 0.090752997 -0.233812
-0.14225 0.090824999 -0.23380999
-0.14224701 0.090896003 -0.23379999
-0.14224499 0.090967998 -0.233787
-0.142242 0.09104 -0.233787
-0.14224 0.091112003 -0.233787
-0.14223699 0.091186002 -0.233779
-0.142234 0.091257997 -0.233778
-0.142231 0.091329999 -0.233778
-0.14222801 0.091403998 -0.233786
-0.142225 0.091476001 -0.233794
-0.142222 0.09155 -0.233795
-0.14222001 0.091619998 -0.233785
-0.14221799 0.091691002 -0.23376501
-0.142216 0.091762997 -0.23374601
-0.142214 0.091831997 -0.23372599
-0.14221101 0.091906004 -0.233732
-0.142207 0.091981001 -0.23375
-0.142204 0.092053004 -0.233751
-0.142202 0.092124 -0.23373701
-0.14219999 0.092196003 -0.233729
-0.142197 0.092267998 -0.233735
-0.142194 0.092341997 -0.23374
-0.14218999 0.092417002 -0.23375399
-0.142185 0.092491001 -0.233788
-0.14218099 0.092568003 -0.233814
-0.142178 0.092639998 -0.23382001
-0.14217401 0.092713997 -0.233835
-0.14217 0.092790999 -0.233867
-0.142166 0.092864998 -0.23389301
-0.142161 0.092941999 -0.23392101
-0.142157 0.093019001 -0.23395699
-0.142152 0.093096003 -0.233997
