0.0724244 -0.0987533 0.992473 0
0.078742 -0.105623 0.991284 0
0.08189 -0.108701 0.990696 0
0.0810465 -0.109662 0.990659 0
0.0758627 -0.111123 0.990907 0
0.074026 -0.114728 0.990635 0
0.0716379 -0.114628 0.990822 0
0.070019 -0.109212 0.991549 0
0.0708329 -0.10541 0.991903 0
0.0724881 -0.100197 0.992324 0
0.0674774 -0.098944 0.992803 0
0.0613053 -0.0961438 0.993478 0
0.050505 -0.0961466 0.994085 0
0.0352363 -0.0897123 0.995344 0
0.0211631 -0.0819062 0.996415 0
0.00595692 -0.0727037 0.997336 0
-0.00335101 -0.067521 0.997712 0
-0.0110583 -0.060761 0.998091 0
-0.0143268 -0.0553311 0.998365 0
-0.0177004 -0.0501279 0.998586 0
-0.0226318 -0.0470789 0.998635 0
-0.0263338 -0.048808 0.998461 0
-0.0303986 -0.0429013 0.998617 0
-0.0363006 -0.03683 0.998662 0
-0.0386226 -0.0321587 0.998736 0
-0.0472549 -0.0268934 0.998521 0
-0.0496961 -0.0256023 0.998436 0.00575368
-0.0481704 -0.0325626 0.998308 0.00148114
-0.0487393 -0.0359612 0.998164 0
-0.0560566 -0.0294338 0.997994 0.00482793
-0.0661169 -0.0258599 0.997477 0.00748045
-0.0699361 -0.0238681 0.997266 0.00403232
-0.07556 -0.0247852 0.996833 0.00311945
-0.0738144 -0.0290066 0.99685 0
-0.066854 -0.0269559 0.997399 0
-0.0690372 -0.0213746 0.997385 0
-0.0626589 -0.0163237 0.997901 0
-0.0602425 -0.0153672 0.998066 0
-0.0513425 -0.0197103 0.998487 0
-0.0485254 -0.0152878 0.998705 0
-0.0335076 -0.0174187 0.999287 0
-0.0329808 -0.0126542 0.999376 0
-0.0411036 -0.0119869 0.999083 0
-0.039192 -0.0158273 0.999106 0
-0.042804 -0.0204667 0.998874 0
-0.0467504 -0.0242307 0.998613 0
-0.0482155 -0.022875 0.998575 0
-0.0540727 -0.0217975 0.998299 0
-0.0544282 -0.0213006 0.99829 0
-0.0589792 -0.0206183 0.998046 0
-0.0570024 -0.0192532 0.998188 0
-0.0575645 -0.0176202 0.998186 0
-0.058504 -0.013516 0.998196 0
-0.0645576 -0.00865407 0.997877 0
-0.0576086 -0.0101011 0.998288 0
-0.0589418 -0.00793534 0.99823 0
-0.0609339 -0.00784147 0.998111 0
-0.0690272 0.00449002 0.997605 0
-0.0716325 0.00700227 0.997406 0
-0.0766784 0.0155636 0.996934 0
-0.0777152 0.0161284 0.996845 0
-0.0795782 0.0145796 0.996722 0
-0.0820443 0.02772 0.996243 0
-0.0829746 0.0330876 0.996002 0
-0.0887099 0.0401579 0.995248 0
-0.0868398 0.0435573 0.99527 0
-0.0826434 0.0444565 0.995587 0
-0.0870941 0.0529785 0.99479 0
-0.0901673 0.0652683 0.993786 0
-0.0922156 0.0701999 0.993261 0
-0.093464 0.0765225 0.992678 0.000319975
-0.100609 0.0812982 0.991599 0.00674129
-0.0995068 0.0779555 0.991979 0.00830814
-0.103217 0.0860349 0.990931 0.0139312
-0.105104 0.0947728 0.989935 0.0152149
-0.112126 0.104503 0.988184 0.0130447
-0.116326 0.108581 0.987258 0.0125941
-0.11617 0.109871 0.987134 0.0105373
-0.109011 0.10146 0.988849 0.00795381
-0.0994559 0.0897273 0.990988 0
-0.0975053 0.0946869 0.990721 0
-0.103923 0.106138 0.988906 0
-0.106028 0.101281 0.989192 0
-0.10371 0.0927564 0.990273 0
-0.105487 0.0894136 0.990393 0
-0.112382 0.105078 0.988094 0
-0.119393 0.121338 0.985405 0
-0.132348 0.144452 0.980621 0.00781831
-0.140654 0.153019 0.978162 0.0127903
-0.15748 0.191274 0.968821 0.0297289
-0.164743 0.207241 0.964319 0.033931
-0.053376 -0.194942 0.979361 0.00408562
-0.0503499 -0.186525 0.981159 0.0055602
-0.0580138 -0.181977 0.98159 0.010784
-0.0681331 -0.195151 0.978404 0.0227626
-0.0821894 -0.192735 0.977803 0.0302476
-0.0932152 -0.201944 0.974951 0.0414325
-0.0995611 -0.204986 0.973688 0.0469141
-0.109319 -0.205047 0.972628 0.0526169
-0.113775 -0.198965 0.97338 0.0576466
-0.112353 -0.191481 0.975045 0.0569428
-0.109781 -0.180798 0.977374 0.051437
-0.103471 -0.172105 0.979629 0.0400348
-0.0981854 -0.165312 0.981342 0.0289289
-0.0911376 -0.163255 0.982365 0.0173691
-0.0801231 -0.153351 0.984918 0.00380208
-0.0771251 -0.148934 0.985835 0
-0.0708659 -0.152064 0.985827 0
-0.0692335 -0.155303 0.985438 0
-0.0658711 -0.153598 0.985935 0
-0.0678098 -0.148427 0.986596 0
-0.0687949 -0.140918 0.987628 0
-0.0703296 -0.140043 0.987644 0
-0.0725802 -0.140629 0.987398 0
-0.0725337 -0.140112 0.987475 0
-0.0737992 -0.130232 0.988733 0
-0.0764996 -0.13475 0.987922 0
-0.0768107 -0.130312 0.988493 0
-0.0815895 -0.131334 0.987975 0
-0.0837745 -0.126105 0.988473 0
-0.0839286 -0.12183 0.988996 0
-0.081484 -0.11286 0.990264 0
-0.0761769 -0.107767 0.991253 0
-0.0795278 -0.112485 0.990466 0
-0.07712 -0.113079 0.990589 0
-0.0755484 -0.114062 0.990597 0
-0.0771456 -0.11335 0.990556 0
-0.0682174 -0.102168 0.992425 0
-0.0680486 -0.105338 0.992105 0
-0.0682724 -0.106044 0.992015 0
-0.0652179 -0.099006 0.992947 0
-0.0681371 -0.0963918 0.993009 0
-0.0628992 -0.0921792 0.993754 0
-0.0590315 -0.0916246 0.994042 0
-0.0550098 -0.0986501 0.993601 0
-0.0559319 -0.0982925 0.993585 0
-0.0584089 -0.0939429 0.993863 0
-0.0531948 -0.0845703 0.994997 0
-0.0469228 -0.077699 0.995872 0
-0.0340614 -0.0837283 0.995906 0
-0.0353842 -0.0787857 0.996263 0
-0.0353579 -0.0772065 0.996388 0
-0.0389329 -0.0741913 0.996484 0
-0.0406385 -0.0678602 0.996867 0
-0.0440783 -0.0713758 0.996475 0
-0.0457909 -0.0775329 0.995938 0
-0.0445584 -0.0786822 0.995903 0
-0.0399529 -0.0765569 0.996264 0
-0.0321251 -0.0718545 0.996898 0
-0.0254126 -0.0668446 0.99744 0
-0.0202713 -0.0616986 0.997889 0
-0.0118024 -0.0633112 0.997924 0
-0.00658854 -0.0625041 0.998023 0
-0.00560994 -0.0586514 0.998263 0
0.00363855 -0.053371 0.998568 0
0.0106266 -0.0546907 0.998447 0
0.00765883 -0.0557221 0.998417 0
0.00939329 -0.0560277 0.998385 0
0.021846 -0.056358 0.998172 0
0.0220986 -0.0526304 0.99837 0
0.0215137 -0.0438793 0.998805 0
0.0217785 -0.0414036 0.998905 0
0.0192598 -0.0410466 0.998972 0
0.0219711 -0.0366098 0.999088 0
0.0141648 -0.0338397 0.999327 0
0.0130139 -0.0280235 0.999523 0
0.00594262 -0.0197526 0.999787 0
0.0015519 -0.014164 0.999898 0
0.000603361 -0.0147174 0.999892 0
-0.00114009 -0.0076594 0.99997 0
-0.0110392 -0.00221923 0.999937 0
-0.0162772 0.00734701 0.999841 0
-0.0126577 0.00557953 0.999904 0
-0.0034526 0.00111974 0.999993 0
0.00765197 0.00102552 0.99997 0
0.0131949 -0.00102351 0.999912 0
0.00867148 0.00165042 0.999961 0
-0.00206349 0.0108778 0.999939 0
-0.00627581 0.0149902 0.999868 0.000753153
-0.009266 0.0180318 0.999795 0.00652537
-0.0157536 0.0230521 0.99961 0.0177872
-0.0185766 0.0225227 0.999574 0.0237287
-0.0259663 0.0261498 0.999321 0.0302044
-0.0316473 0.034048 0.998919 0.0392588
-0.0310295 0.0343684 0.998927 0.0417636
-0.0292211 0.0376692 0.998863 0.0428811
-0.0331265 0.0425512 0.998545 0.0454727
-0.03205 0.0462422 0.998416 0.0463934
-0.0320842 0.0539706 0.998027 0.0484075
-0.037398 0.0565007 0.997702 0.043534
-0.036545 0.0536289 0.997892 0.0354956
-0.0358531 0.0496584 0.998123 0.0318714
-0.0270357 0.040476 0.998815 0.0246288
-0.0200046 0.0357219 0.999161 0.0208867
-0.0102135 0.0327401 0.999412 0.016204
-0.00711603 0.0263039 0.999629 0.0115381
-0.00469432 0.0210981 0.999766 0.00913692
-0.00134243 0.0172785 0.99985 0.00599248
-0.00159294 0.0173944 0.999847 0.00810225
-0.000662955 0.015511 0.99988 0.00749326
0.000600354 0.0150914 0.999886 0.00827471
0.0131838 0.00993992 0.999864 0.00444595
0.0223432 0.00599525 0.999732 0
0.0289861 -9.70356e-06 0.99958 0
0.0237728 -0.00335302 0.999712 0
0.0212587 -0.00690626 0.99975 0
0.0158952 -0.00760814 0.999845 0
0.0126935 -0.00698569 0.999895 0
0.00753284 -0.00786077 0.999941 0
0.00406023 -0.0107236 0.999934 0
0.00625784 -0.015275 0.999864 0
0.00613045 -0.0216214 0.999747 0
0.0119676 -0.0265587 0.999576 0
0.0104829 -0.0283782 0.999542 0
0.0146476 -0.0305409 0.999426 0
0.0192266 -0.0349571 0.999204 0
0.0200202 -0.0392115 0.99903 0
0.024957 -0.0459187 0.998633 0
0.0311843 -0.0502586 0.998249 0
0.0312518 -0.0453115 0.998484 0
0.0325974 -0.0417417 0.998597 0
0.0288821 -0.0370266 0.998897 0
0.0226368 -0.0384636 0.999004 0
0.0179739 -0.0395494 0.999056 0
0.0160837 -0.0398791 0.999075 0
0.0162708 -0.0366226 0.999197 0
0.021506 -0.0408464 0.998934 0
0.0233385 -0.043649 0.998774 0
0.0245152 -0.0486357 0.998516 0
0.0282461 -0.0533326 0.998177 0
0.0348489 -0.0595882 0.997615 0
0.0340588 -0.0610679 0.997552 0
0.0349774 -0.0609787 0.997526 0
0.0351815 -0.0616931 0.997475 0
0.037289 -0.0625163 0.997347 0
0.0376574 -0.0658534 0.997118 0
0.0457645 -0.0718497 0.996365 0
0.0492117 -0.075868 0.995903 0
0.0528517 -0.0785028 0.995512 0
0.0631973 -0.0824844 0.994587 0
0.0737095 -0.0878912 0.993399 0
0.0839629 -0.0889221 0.992493 0
0.0921013 -0.0929945 0.991398 0
0.0925164 -0.098182 0.990859 0
0.085674 -0.101808 0.991108 0
0.0855609 -0.105304 0.990752 0
0.0833731 -0.107856 0.990664 0
0.0786711 -0.106848 0.991158 0
0.0781266 -0.109304 0.990933 0
0.0764522 -0.113062 0.990642 0
0.0784095 -0.113711 0.990415 0
0.0837972 -0.115142 0.989808 0
0.084881 -0.115551 0.989668 0
0.0868338 -0.113578 0.989727 0
0.0837043 -0.115774 0.989742 0
0.0693957 -0.106879 0.991847 0
0.0557707 -0.0958457 0.993833 0
0.0461785 -0.090658 0.994811 0
0.0361259 -0.0883278 0.995436 0
0.0287638 -0.0810102 0.996298 0
0.016973 -0.0756712 0.996988 0
0.00406484 -0.0682036 0.997663 0
-0.0063949 -0.0652679 0.997847 0
-0.0101465 -0.0655919 0.997795 0
-0.0160847 -0.0626504 0.997906 0
-0.0173005 -0.0595874 0.998073 0
-0.00750777 -0.0628971 0.997992 0
-0.00877806 -0.0591314 0.998212 0
-0.0160046 -0.0505167 0.998595 0
-0.0269178 -0.0463267 0.998564 0
-0.0403289 -0.0406148 0.998361 0
-0.0498518 -0.0316649 0.998255 0
-0.0532656 -0.0286407 0.99817 0
-0.0575927 -0.028065 0.997946 0
-0.0641407 -0.0261766 0.997598 0.000641712
-0.0712165 -0.0261885 0.997117 0.00510402
-0.0662882 -0.0306501 0.99733 0.0020428
-0.0667553 -0.0319879 0.997256 0
-0.0622907 -0.031963 0.997546 0
-0.0589984 -0.0321454 0.99774 0
-0.0580944 -0.0323744 0.997786 0
-0.0592524 -0.0323762 0.997718 0
-0.0526968 -0.0309518 0.998131 0
-0.0531502 -0.0269412 0.998223 0
-0.0517174 -0.0245595 0.99836 0
-0.0520238 -0.0199024 0.998448 0
-0.0448706 -0.0243957 0.998695 0
-0.035423 -0.0291651 0.998947 0
-0.026435 -0.0308128 0.999176 0
-0.0328466 -0.0232127 0.999191 0
-0.0336171 -0.0273794 0.99906 0
-0.0407549 -0.0260253 0.99883 0
-0.0401114 -0.0300619 0.998743 0
-0.0435018 -0.0318253 0.998546 0
-0.0417717 -0.0337503 0.998557 0
-0.0411002 -0.0347691 0.99855 0
-0.046176 -0.0309939 0.998452 0
-0.0488903 -0.0234784 0.998528 0
-0.0527977 -0.0231098 0.998338 0
-0.0527947 -0.0217992 0.998367 0
-0.0515593 -0.0205397 0.998459 0
-0.0591182 -0.0135709 0.998159 0
-0.0595481 -0.0102543 0.998173 0
-0.0649437 -0.00830648 0.997854 0
-0.0693652 -0.0044651 0.997581 0
-0.0719593 0.00297596 0.997403 0
-0.0751803 0.00998686 0.99712 0
-0.0767161 0.0174442 0.9969 0
-0.0798128 0.0208325 0.996592 0
-0.0752239 0.0231856 0.996897 0
-0.0777574 0.0281277 0.996575 0
-0.0750779 0.0310525 0.996694 0
-0.0795572 0.0383962 0.996091 0
-0.0791496 0.0411477 0.996013 0
-0.0828726 0.0485095 0.995379 0
-0.086809 0.0569001 0.994599 0
-0.0890031 0.0682725 0.993689 0.000140465
-0.0926682 0.073609 0.992972 0
-0.100319 0.0856001 0.991266 0.00601779
-0.102814 0.0896278 0.990654 0.0104925
-0.104434 0.0930766 0.990167 0.0138398
-0.104713 0.0987731 0.989585 0.0143222
-0.109278 0.105134 0.988436 0.0150742
-0.109154 0.104316 0.988536 0.0166413
-0.108966 0.10459 0.988528 0.0107527
-0.10452 0.0983965 0.989643 0.00064171
-0.104899 0.0904193 0.990364 0
-0.107667 0.0931361 0.989815 0
-0.108903 0.0944078 0.989559 0
-0.104848 0.094049 0.990031 0
-0.103916 0.0950429 0.990035 0
-0.109738 0.106021 0.98829 0
-0.112159 0.102942 0.988344 0
-0.111323 0.103038 0.988428 0
-0.114493 0.117966 0.986395 0.000827076
-0.122928 0.13578 0.983083 0.0118719
-0.132133 0.15735 0.978663 0.0226414
-0.138946 0.173529 0.974978 0.02836
-0.138283 0.167113 0.976192 0.0181972
-0.059313 -0.208538 0.976214 0.0102519
-0.0545671 -0.203453 0.977563 0.000413162
-0.0552862 -0.198677 0.978504 0.00378871
-0.0618025 -0.203247 0.977175 0.0079516
-0.0665155 -0.200122 0.977511 0.0129817
-0.072271 -0.192598 0.978613 0.0239049
-0.0777085 -0.198556 0.977004 0.0348704
-0.0781617 -0.192198 0.978238 0.034318
-0.0893132 -0.195715 0.976585 0.045643
-0.100101 -0.19362 0.975957 0.051331
-0.0979014 -0.180417 0.978706 0.0448895
-0.0990142 -0.179224 0.978813 0.0460372
-0.0959589 -0.170319 0.980706 0.043255
-0.0915577 -0.165172 0.982006 0.0354388
-0.0860763 -0.162263 0.982986 0.0255535
-0.0803195 -0.155551 0.984557 0.0168782
-0.076852 -0.152151 0.985365 0.0077767
-0.0715713 -0.153148 0.985608 0
-0.0636017 -0.153237 0.986141 0
-0.059975 -0.154702 0.986139 0
-0.0558474 -0.153193 0.986617 0
-0.0540904 -0.147986 0.987509 0
-0.0547161 -0.142271 0.988314 0
-0.0569455 -0.1419 0.988242 0
-0.0559328 -0.142829 0.988166 0
-0.0578944 -0.139054 0.988591 0
-0.056518 -0.140034 0.988532 0
-0.0556452 -0.134287 0.989379 0
-0.0585194 -0.128376 0.989998 0
-0.0649035 -0.128407 0.989595 0
-0.0680905 -0.122618 0.990115 0
-0.0731071 -0.120485 0.99002 0
-0.0724332 -0.107414 0.991572 0
-0.0757556 -0.105221 0.991559 0
-0.0770887 -0.0988138 0.992115 0
-0.0796134 -0.101626 0.991632 0
-0.0790897 -0.106371 0.991176 0
-0.0777657 -0.109536 0.990936 0
-0.0759758 -0.101447 0.991936 0
-0.0784853 -0.0984925 0.992038 0
-0.0811277 -0.0916466 0.992481 0
-0.0725195 -0.0914151 0.993169 0
-0.0709827 -0.0867321 0.9937 0
-0.0678355 -0.0830694 0.994232 0
-0.065749 -0.0771072 0.994853 0
-0.0602347 -0.0779066 0.995139 0
-0.0536454 -0.0823663 0.995157 0
-0.04833 -0.0833193 0.99535 0
-0.0394227 -0.0737624 0.996496 0
-0.032808 -0.0720838 0.996859 0
-0.0291991 -0.0718608 0.996987 0
-0.0260685 -0.0746949 0.996866 0
-0.0259097 -0.0703246 0.997188 0
-0.0264532 -0.0696653 0.99722 0
-0.027126 -0.0680764 0.997311 0
-0.0239 -0.0635796 0.997691 0
-0.0228466 -0.0659969 0.997558 0
-0.0226548 -0.071806 0.997161 0
-0.0233976 -0.0717049 0.997151 0
-0.0228329 -0.0693798 0.997329 0
-0.0181885 -0.0642536 0.997768 0
-0.00995245 -0.0603922 0.998125 0
-0.00614727 -0.0602715 0.998163 0
0.00151051 -0.0625441 0.998041 0
0.00553045 -0.0578134 0.998312 0
0.00361293 -0.050189 0.998733 0
0.00899437 -0.0450827 0.998943 0
0.0103231 -0.0408761 0.999111 0
0.0136364 -0.0445951 0.998912 0
0.00734755 -0.0433602 0.999032 0
0.0115565 -0.0392839 0.999161 0
0.0157417 -0.038237 0.999145 0
0.0243945 -0.0351681 0.999084 0
0.0252815 -0.0324185 0.999155 0
0.0258798 -0.033323 0.99911 0
0.0260988 -0.0314863 0.999163 0
0.0222185 -0.0249383 0.999442 0
0.0167126 -0.01583 0.999735 0
0.0194951 -0.00914441 0.999768 0
0.0163086 -0.00609161 0.999848 0
0.00957352 -0.00525903 0.99994 0
0.00613189 -0.00596731 0.999963 0
0.0062381 -0.00509873 0.999968 0
0.00310196 0.000463689 0.999995 0
0.00770677 0.00416794 0.999962 0
0.00058158 0.00519738 0.999986 0
-0.00197045 0.00825959 0.999964 0
-0.00404068 0.0134772 0.999901 0
-0.00597749 0.0138451 0.999886 0
-0.00222397 0.0125637 0.999919 0
0.00586794 0.00545559 0.999968 0
0.0137789 -0.000534801 0.999905 0
0.0069418 -2.1064e-05 0.999976 0
0.00395444 0.00374456 0.999985 0
8.66098e-05 0.0106736 0.999943 0
0.00402809 0.0129049 0.999909 0
0.000305325 0.0153144 0.999883 0
0.00104342 0.0205295 0.999789 0
0.00499303 0.0218228 0.999749 0
0.00899018 0.0248881 0.99965 0
0.00886676 0.0276619 0.999578 0
0.00614318 0.0267071 0.999624 0
0.00724521 0.0278687 0.999585 0.00424762
0.00222246 0.0290553 0.999575 0.0133348
0.000404117 0.0264925 0.999649 0.0201581
-0.00717282 0.0271509 0.999606 0.0247458
-0.0145032 0.0340333 0.999315 0.0330713
-0.0197683 0.0333971 0.999247 0.0352852
-0.0311937 0.0374884 0.99881 0.0434615
-0.0418478 0.0430838 0.998195 0.0512611
-0.0523534 0.0473814 0.997504 0.0618166
-0.0651818 0.0537134 0.996427 0.0697762
-0.071754 0.0556393 0.995869 0.0671784
-0.0818278 0.0622464 0.994701 0.0757233
-0.0873816 0.0580171 0.994484 0.0824269
-0.0915658 0.0541716 0.994324 0.083011
-0.0866782 0.0520417 0.994876 0.0791574
-0.0664464 0.0401242 0.996983 0.0660647
-0.0451893 0.0281807 0.998581 0.052282
-0.0247331 0.0150744 0.99958 0.033105
-0.0143175 0.00446979 0.999887 0.018937
-0.00667328 -0.0073861 0.99995 0.00148083
0.00352315 -0.0170278 0.999849 0
0.0163419 -0.0282225 0.999468 0
0.02914 -0.0329999 0.99903 0
0.042188 -0.0412877 0.998256 0
0.0489031 -0.0494377 0.997579 0
0.0563763 -0.0582484 0.996709 0
0.060217 -0.0637202 0.996149 0
0.0644024 -0.0666265 0.995697 0
0.0621875 -0.0603979 0.996235 0
0.0598347 -0.0575149 0.99655 0
0.0470314 -0.0516526 0.997557 0
0.0344439 -0.0451067 0.998388 0
0.0207288 -0.0428891 0.998865 0
0.00764423 -0.0435244 0.999023 0
0.00608085 -0.0440746 0.99901 0
0.00272261 -0.0434729 0.999051 0
-0.00151904 -0.0441617 0.999023 0
-0.00652784 -0.0443021 0.998997 0
-0.00731947 -0.0423861 0.999074 0
-0.00472962 -0.0448063 0.998985 0
-0.0036474 -0.0486974 0.998807 0
-0.00478229 -0.0536368 0.998549 0
-0.00200229 -0.0583467 0.998294 0
0.0040186 -0.0518675 0.998646 0.00120533
0.00980087 -0.0490903 0.998746 0.00318271
0.0136512 -0.0513858 0.998586 0.00568183
0.0226737 -0.0549154 0.998234 0.00301447
0.0307012 -0.0603973 0.997702 0.000542285
0.0424182 -0.0675407 0.996814 0
0.0549282 -0.0718972 0.995898 0
0.0637305 -0.0792144 0.994818 0
0.0743768 -0.085097 0.993593 0
0.0789161 -0.0911218 0.992708 0
0.0845287 -0.102206 0.991165 0
0.0835476 -0.108974 0.990527 0
0.0881872 -0.110189 0.989991 0
0.0846278 -0.115675 0.989675 0
0.0836038 -0.114571 0.989891 0
0.0814023 -0.116536 0.989845 0
0.0825086 -0.118568 0.989512 0
0.0799933 -0.115113 0.990126 0
0.0815382 -0.113196 0.990221 0
0.0844572 -0.109015 0.990446 0
0.0768148 -0.109142 0.991054 0
0.0647667 -0.106628 0.992187 0
0.0566766 -0.103182 0.993046 0
0.045965 -0.0954101 0.994376 0
0.0348747 -0.0865773 0.995635 0
0.0195736 -0.0795751 0.996637 0
0.00937278 -0.0722003 0.997346 0
0.00485072 -0.0701922 0.997522 0
0.000621247 -0.0659674 0.997822 0
0.00206697 -0.0649236 0.997888 0
0.00360106 -0.0688449 0.997621 0
0.00407078 -0.0686077 0.997635 0
0.00711152 -0.0695236 0.997555 0
0.002478 -0.0651453 0.997873 0
-0.00813584 -0.0571353 0.998333 0
-0.014821 -0.0514166 0.998567 0
-0.0195249 -0.051872 0.998463 0
-0.0303212 -0.0477723 0.998398 0
-0.0318912 -0.0432539 0.998555 0
-0.0369282 -0.0354992 0.998687 0
-0.0456481 -0.032863 0.998417 0
-0.0445798 -0.0392437 0.998235 0
-0.046893 -0.0447479 0.997897 0
-0.0557614 -0.0359426 0.997797 0
-0.052082 -0.0375321 0.997937 0
-0.0525024 -0.0347839 0.998015 0
-0.0503054 -0.0332307 0.998181 0
-0.0452385 -0.036372 0.998314 0
-0.039998 -0.0389248 0.998441 0
-0.0315643 -0.0359864 0.998854 0
-0.0293911 -0.0364367 0.998904 0
-0.0259277 -0.0389654 0.998904 0
-0.0304802 -0.0326196 0.999003 0
-0.0282712 -0.0333294 0.999044 0
-0.034298 -0.0352926 0.998788 0
-0.0320811 -0.0379977 0.998763 0
-0.0360526 -0.0370376 0.998663 0
-0.0367357 -0.0344796 0.99873 0
-0.0335642 -0.0392642 0.998665 0
-0.0374373 -0.0428431 0.99838 0
-0.0406594 -0.0413953 0.998315 0
-0.0460671 -0.03855 0.998194 0
-0.0447542 -0.0415814 0.998132 0
-0.0411549 -0.0394561 0.998373 0
-0.0483807 -0.0304978 0.998363 0
-0.0529396 -0.0260017 0.998259 0
-0.0563573 -0.0211925 0.998186 0
-0.062098 -0.0185031 0.997899 0
-0.0652357 -0.0128048 0.997788 0
-0.0669589 -0.0113659 0.997691 0
-0.0679314 -0.00756002 0.997661 0
-0.0730074 -1.30559e-07 0.997331 0
-0.071131 0.011322 0.997403 0
-0.0671118 0.0195452 0.997554 0
-0.0660659 0.023815 0.997531 0
-0.0616355 0.0247266 0.997792 0
-0.0677053 0.0335419 0.997141 0
-0.0723992 0.0367774 0.996697 0
-0.0753712 0.0444288 0.996165 0
-0.0850994 0.0542586 0.994894 0.00270845
-0.0920847 0.0610146 0.99388 0.00785357
-0.0983119 0.0687564 0.992778 0.00711928
-0.0950905 0.0700874 0.992998 0.00270117
-0.0966514 0.0756659 0.992438 0.00645475
-0.0984876 0.0751578 0.992296 0.00390495
-0.0932465 0.0646975 0.993539 0
-0.0904443 0.0548717 0.994389 0
-0.0901611 0.0565859 0.994318 0
-0.0920226 0.0626282 0.993785 0
-0.0979455 0.0799191 0.991978 0
-0.0958098 0.0818662 0.992027 0
-0.0979442 0.0793066 0.992027 0
-0.0983134 0.0784184 0.992061 0
-0.10668 0.089654 0.990243 0
-0.106442 0.0960303 0.989671 0
-0.105072 0.0990746 0.989517 0
-0.101343 0.0914684 0.990638 0
-0.097238 0.0825205 0.991834 0
-0.102648 0.0846302 0.991111 0
-0.101764 0.0861286 0.991073 0
-0.105867 0.0998704 0.989352 0
-0.102043 0.105966 0.98912 0
-0.113161 0.129741 0.98507 0.0112197
-0.113332 0.128908 0.985159 0.00718571
-0.10993 0.124023 0.986171 0
-0.101362 0.113395 0.988366 0
-0.0995852 0.120006 0.987766 0
-0.0776142 -0.241116 0.967388 0.00898788
-0.0753836 -0.240951 0.967605 0.0124219
-0.0748505 -0.226001 0.971247 0.0116348
-0.0731255 -0.218249 0.97315 0.0130907
-0.0716399 -0.211923 0.974657 0.0131617
-0.0728455 -0.211279 0.974708 0.0236048
-0.0714188 -0.201445 0.976893 0.0272698
-0.0790805 -0.204221 0.975725 0.039338
-0.088262 -0.204748 0.974827 0.0523674
-0.084986 -0.187453 0.97859 0.0475295
-0.0857158 -0.186773 0.978657 0.0496031
-0.0868567 -0.185565 0.978786 0.0445099
-0.0898167 -0.183666 0.978877 0.04636
-0.0920173 -0.175616 0.980149 0.0443706
-0.092704 -0.174963 0.980201 0.0373176
-0.0887494 -0.164425 0.982389 0.0267518
-0.08069 -0.151671 0.985132 0.0185584
-0.0691811 -0.147723 0.986606 0.00370574
-0.0651022 -0.148474 0.986771 0
-0.0590739 -0.149382 0.987013 0
-0.05324 -0.150595 0.987161 0
-0.0471381 -0.152011 0.987254 0
-0.0470612 -0.147677 0.987915 0
-0.0464135 -0.140929 0.988931 0
-0.0423803 -0.139485 0.989317 0
-0.0409596 -0.143959 0.988736 0
-0.0466136 -0.140075 0.989043 0
-0.0476012 -0.142933 0.988587 0
-0.050171 -0.138884 0.989037 0
-0.0469865 -0.127967 0.990665 0
-0.0512489 -0.132242 0.989892 0
-0.0527932 -0.132995 0.98971 0
-0.060137 -0.126328 0.990164 0
-0.0610151 -0.125615 0.990201 0
-0.0611606 -0.120317 0.99085 0
-0.0636842 -0.115417 0.991274 0
-0.0662081 -0.109595 0.991769 0
-0.0692466 -0.110788 0.991429 0
-0.0736291 -0.109111 0.991299 0
-0.0697256 -0.103482 0.992184 0
-0.0749566 -0.100233 0.992137 0
-0.0733852 -0.0981274 0.992464 0
-0.0734723 -0.0987777 0.992393 0
-0.0748126 -0.097699 0.9924 0
-0.0747128 -0.0902787 0.99311 0
-0.0725987 -0.0847686 0.993752 0
-0.0701203 -0.0782064 0.994468 0
-0.0685691 -0.0757496 0.994766 0
-0.0606538 -0.0749404 0.995342 0
-0.0581143 -0.0749973 0.995489 0
-0.0504211 -0.0738718 0.995992 0
-0.0453032 -0.0674881 0.996691 0
-0.0425416 -0.0626578 0.997128 0
-0.0389985 -0.0646401 0.997146 0
-0.0278661 -0.0669482 0.997367 0
-0.0253566 -0.066759 0.997447 0
-0.0210848 -0.0691985 0.99738 0
-0.0212906 -0.0639481 0.997726 0
-0.0233834 -0.0621459 0.997793 0
-0.0252103 -0.0626235 0.997719 0
-0.024123 -0.0606827 0.997866 0
-0.0222723 -0.0581594 0.998059 0
-0.0192833 -0.056245 0.998231 0
-0.010233 -0.0555555 0.998403 0
0.00289362 -0.055187 0.998472 0
0.0115282 -0.0554447 0.998395 0
0.0158228 -0.0581259 0.998184 0
0.0227378 -0.0541228 0.998275 0
0.0230418 -0.0456306 0.998693 0
0.0266848 -0.041389 0.998787 0
0.0272042 -0.0425199 0.998725 0
0.0216678 -0.0386809 0.999017 0
0.0252285 -0.0376357 0.998973 0
0.0269707 -0.0351029 0.99902 0
0.0335894 -0.0336048 0.998871 0
0.0347737 -0.0289913 0.998975 0
0.0384554 -0.0269888 0.998896 0
0.0383699 -0.0253091 0.998943 0
0.0383889 -0.023717 0.998981 0
0.0321401 -0.0194088 0.999295 0
0.0332294 -0.0150648 0.999334 0
0.0289971 -0.00954357 0.999534 0
0.0285017 -0.00505586 0.999581 0
0.0142542 -0.000922236 0.999898 0
0.000851412 0.00231094 0.999997 0
-0.00973602 0.00819257 0.999919 0
-0.0172017 0.0163194 0.999719 0
-0.0190395 0.0170175 0.999674 0
-0.0185214 0.0145622 0.999722 0
-0.0183574 0.0127115 0.999751 0
-0.0115858 0.0052061 0.999919 0
0.00444435 0.000988181 0.99999 0
0.020304 -0.00160512 0.999793 0
0.0268825 -0.00334188 0.999633 0
0.0352569 -0.00588269 0.999361 0
0.0396326 -0.00678064 0.999191 0
0.0442003 -0.0088834 0.998983 0
0.0423099 -0.00467324 0.999094 0
0.0414794 -0.00228594 0.999137 0
0.0371267 -0.000643283 0.99931 0
0.035719 0.00490885 0.99935 0
0.0341928 0.00996253 0.999366 0
0.0268366 0.0140265 0.999541 0
0.0209893 0.0191166 0.999597 0
0.0111695 0.0237947 0.999654 0
-0.00245535 0.0277625 0.999612 0.0120468
-0.0195289 0.0339583 0.999232 0.0294593
-0.0302475 0.0365156 0.998875 0.0358184
-0.0365468 0.0425507 0.998426 0.0395177
-0.0481983 0.0509114 0.997539 0.0513646
-0.0690557 0.0613874 0.995722 0.0721699
-0.0947455 0.0733841 0.992793 0.0889188
-0.120243 0.0865223 0.988967 0.104075
-0.153275 0.108189 0.982243 0.120194
-0.177811 0.125214 0.976066 0.131313
-0.206689 0.134394 0.969132 0.143133
-0.217387 0.137171 0.966399 0.149198
-0.211292 0.123818 0.969549 0.146054
-0.170639 0.0954253 0.980702 0.132008
-0.138421 0.0744373 0.987572 0.11387
-0.104773 0.0506229 0.993207 0.0892821
-0.0764915 0.034225 0.996483 0.0636722
-0.0523654 0.020757 0.998412 0.0389648
-0.0360272 0.00747975 0.999323 0.0221065
-0.0180235 -0.00883879 0.999799 0.00320304
-0.00202589 -0.0228874 0.999736 0
0.0160151 -0.0394208 0.999094 0
0.0334578 -0.0501632 0.99818 0
0.0499293 -0.0598963 0.996955 0
0.0613173 -0.0632445 0.996113 0
0.0688559 -0.0692534 0.99522 0
0.0677005 -0.0750065 0.994882 0
0.0640595 -0.0749051 0.995131 0
0.0576119 -0.0727173 0.995687 0
0.0400827 -0.0661899 0.997002 0
0.0234093 -0.0520862 0.998368 0
0.0124448 -0.0458861 0.998869 0
0.00645032 -0.0416384 0.999112 0
-0.00228579 -0.0394157 0.99922 0
-0.00764943 -0.0434838 0.999025 0
-0.0107006 -0.0451135 0.998925 0
-0.0061204 -0.0450639 0.998965 0
-0.00343945 -0.0438726 0.999031 0
-0.000861302 -0.0424959 0.999096 0.00301154
-0.00545609 -0.0449433 0.998975 0.00711126
-0.0131479 -0.044816 0.998909 0.0175714
-0.0193303 -0.0476863 0.998675 0.0288574
-0.0216405 -0.0497413 0.998528 0.0353626
-0.026936 -0.0447202 0.998636 0.0410004
-0.0200896 -0.0419228 0.998919 0.0444542
-0.0158151 -0.0431608 0.998943 0.0471859
-0.00154989 -0.0459219 0.998944 0.035513
0.0143088 -0.0513051 0.99858 0.017787
0.0270181 -0.0608878 0.997779 0
0.0439704 -0.071224 0.996491 0
0.0577599 -0.0817896 0.994974 0
0.0736352 -0.0886317 0.993339 0
0.086433 -0.0985055 0.991376 0
0.0932873 -0.104421 0.990148 0
0.0987358 -0.108814 0.989146 0
0.0988274 -0.115379 0.988393 0
0.0936621 -0.115032 0.988936 0
0.0942201 -0.118957 0.988419 0
0.0885621 -0.122959 0.988452 0
0.083361 -0.123046 0.988894 0
0.0773775 -0.121386 0.989585 0
0.0710467 -0.117887 0.990482 0
0.0677809 -0.110274 0.991587 0
0.0616561 -0.1082 0.992215 0
0.0551173 -0.106318 0.992803 0
0.0409955 -0.0973301 0.994407 0
0.0320858 -0.0959779 0.994866 0
0.0290416 -0.0968268 0.994877 0
0.0224335 -0.0971434 0.995018 0
0.0140285 -0.0949857 0.99538 0
0.00913802 -0.0895834 0.995937 0
0.00835128 -0.0872323 0.996153 0
0.00725552 -0.084903 0.996363 0
0.00256818 -0.0784362 0.996916 0
-0.000118149 -0.0713158 0.997454 0
-0.00751144 -0.0615837 0.998074 0
-0.0121633 -0.0579517 0.998245 0
-0.0172916 -0.0548623 0.998344 0
-0.0201078 -0.0538955 0.998344 0
-0.0239036 -0.0549371 0.998204 0
-0.0276213 -0.0537614 0.998172 0
-0.032011 -0.0448879 0.998479 0
-0.0389096 -0.0446007 0.998247 0
-0.043173 -0.0429772 0.998143 0
-0.0415967 -0.042277 0.99824 0
-0.0463223 -0.0403715 0.99811 0
-0.0387576 -0.0407934 0.998416 0
-0.0306305 -0.0451216 0.998512 0
-0.0177165 -0.0548489 0.998338 0
-0.0138204 -0.0576695 0.99824 0
-0.0113812 -0.0579585 0.998254 0
-0.0144797 -0.0527965 0.9985 0
-0.0191944 -0.0474753 0.998688 0
-0.0232717 -0.0437522 0.998771 0
-0.0220024 -0.0434249 0.998814 0
-0.0255085 -0.0444476 0.998686 0
-0.0325256 -0.0399647 0.998672 0
-0.0327145 -0.041774 0.998591 0
-0.0393388 -0.0364231 0.998562 0
-0.0412672 -0.0366747 0.998475 0
-0.0449201 -0.035755 0.998351 0
-0.0397546 -0.0390255 0.998447 0
-0.0428639 -0.036792 0.998403 0
-0.0427259 -0.0352241 0.998466 0
-0.0458952 -0.0306959 0.998475 0
-0.0527178 -0.0317087 0.998106 0
-0.061648 -0.0266662 0.997742 0
-0.0637783 -0.019053 0.997782 0
-0.0668884 -0.0132018 0.997673 0
-0.0652777 -0.0149801 0.997755 0
-0.065764 -0.0141989 0.997734 0
-0.0640725 -0.0137149 0.997851 0
-0.0569442 -0.0114901 0.998311 0
-0.0440226 -0.00843149 0.998995 0
-0.0412171 0.00393625 0.999143 0
-0.0405284 0.015358 0.99906 0
-0.0460878 0.0219287 0.998697 0
-0.0500156 0.021275 0.998522 0
-0.0579702 0.0295371 0.997881 0
-0.0636191 0.0330808 0.997426 0
-0.0629915 0.0405593 0.99719 0
-0.064589 0.0442312 0.996931 0
-0.069866 0.048328 0.996385 0
-0.0715388 0.050481 0.99616 0
-0.0773665 0.0523899 0.995625 0.00161301
-0.0799403 0.0607597 0.994946 0.00609578
-0.0809714 0.0601968 0.994897 0.00375323
-0.0837195 0.0586106 0.994764 0.00348517
-0.0775609 0.0460644 0.995923 0
-0.0762985 0.0400932 0.996279 0
-0.0720492 0.0325693 0.996869 0
-0.0790192 0.0442236 0.995892 0
-0.0865236 0.0588191 0.994512 0
-0.0875369 0.0634171 0.994141 0
-0.0913901 0.0621737 0.993872 0
-0.0895436 0.0630942 0.993982 0
-0.0886137 0.0653738 0.993918 0
-0.0912166 0.0755679 0.99296 0
-0.0880067 0.0729594 0.993444 0
-0.0902453 0.0816158 0.99257 0
-0.0872151 0.0707949 0.993671 0
-0.0906221 0.0757489 0.993 0
-0.0947649 0.0871154 0.991681 0
-0.102237 0.105776 0.98912 0
-0.106231 0.121405 0.986902 0.0060878
-0.104821 0.119644 0.987268 0.000600359
-0.101079 0.118129 0.98784 0
-0.0930291 0.106986 0.989899 0
-0.0956915 0.111111 0.98919 0
-0.093364 0.117042 0.988729 0
-0.0918826 0.115192 0.989085 0
-0.0776679 -0.242276 0.967094 0.00868829
-0.0754197 -0.239195 0.968038 0.0157196
-0.0666968 -0.224521 0.972184 0.00190656
-0.068687 -0.221847 0.972659 0.00626358
-0.0706671 -0.213791 0.97432 0.0132239
-0.0731857 -0.208389 0.975304 0.0174236
-0.073738 -0.203354 0.976325 0.0258612
-0.080441 -0.201132 0.976256 0.0419497
-0.0833474 -0.199948 0.976255 0.0448918
-0.0800114 -0.190884 0.978346 0.0458779
-0.0859486 -0.187127 0.978568 0.0516477
-0.0881468 -0.18448 0.978876 0.0506925
-0.0878161 -0.182728 0.979234 0.0487528
-0.0822053 -0.17203 0.981656 0.0364759
-0.0785315 -0.164485 0.983248 0.0261283
-0.0735868 -0.158817 0.984562 0.0217492
-0.0718626 -0.151951 0.985772 0.0156359
-0.0641166 -0.144126 0.98748 0.00720396
-0.0569849 -0.139422 0.988592 0
-0.0517811 -0.147417 0.987718 0
-0.0475086 -0.147488 0.987922 0
-0.0463613 -0.146717 0.988091 0
-0.0429742 -0.145788 0.988382 0
-0.0373984 -0.142864 0.989036 0
-0.0372342 -0.142542 0.989088 0
-0.0405832 -0.142821 0.988916 0
-0.0424789 -0.135991 0.989799 0
-0.0470812 -0.134399 0.989808 0
-0.0521816 -0.132777 0.989771 0
-0.0514296 -0.125131 0.990806 0
-0.0562301 -0.127416 0.990254 0
-0.0548828 -0.12531 0.990598 0
-0.0555594 -0.125576 0.990527 0
-0.0567633 -0.124975 0.990535 0
-0.065812 -0.120661 0.99051 0
-0.0678848 -0.111652 0.991426 0
-0.0703558 -0.105656 0.991911 0
-0.0706611 -0.107119 0.991732 0
-0.0711163 -0.106075 0.991812 0
-0.0724222 -0.103864 0.991951 0
-0.0742309 -0.104643 0.991736 0
-0.0744099 -0.0971667 0.992483 0
-0.0731507 -0.101142 0.992179 0
-0.0745349 -0.0975586 0.992435 0
-0.076697 -0.0899278 0.992991 0
-0.0706375 -0.0873892 0.993667 0
-0.0636909 -0.0836971 0.994454 0
-0.0635415 -0.080807 0.994702 0
-0.0606977 -0.0767768 0.995199 0
-0.0580852 -0.0762837 0.995393 0
-0.0544779 -0.0709166 0.995993 0
-0.0499135 -0.0707599 0.996244 0
-0.0420343 -0.0640416 0.997062 0
-0.0334897 -0.0648282 0.997334 0
-0.025887 -0.062158 0.99773 0
-0.0205159 -0.0603775 0.997965 0
-0.022672 -0.0602207 0.997928 0
-0.019849 -0.0607698 0.997954 0
-0.0207722 -0.0573694 0.998137 0
-0.0270245 -0.0548691 0.998128 0
-0.0233595 -0.0542244 0.998255 0
-0.0186278 -0.04862 0.998644 0
-0.0121788 -0.0464006 0.998849 0
-0.00412149 -0.0485332 0.998813 0
0.00808186 -0.0494335 0.998745 0
0.0130111 -0.049367 0.998696 0
0.013 -0.048595 0.998734 0
0.0143265 -0.0490289 0.998695 0
0.0210682 -0.0485298 0.9986 0
0.0238346 -0.0445317 0.998724 0
0.0242681 -0.0402201 0.998896 0
0.0204305 -0.0335641 0.999228 0
0.0197997 -0.0322301 0.999284 0
0.0261277 -0.0358199 0.999017 0
0.0288296 -0.0338863 0.99901 0
0.0321472 -0.0310772 0.999 0
0.0345224 -0.0281504 0.999007 0
0.0408925 -0.0266014 0.998809 0
0.0372878 -0.0216674 0.99907 0
0.0380588 -0.0209906 0.999055 0
0.037091 -0.0192486 0.999126 0
0.0293182 -0.00853299 0.999534 0
0.0177571 0.00285041 0.999838 0
0.00253396 0.010537 0.999941 0
-0.0072807 0.0147596 0.999865 0
-0.0194882 0.0172399 0.999661 0
-0.0302912 0.0226671 0.999284 0.000522255
-0.0339951 0.0257406 0.99909 0.0104266
-0.0305705 0.0233401 0.99926 0.00721705
-0.0229849 0.0146784 0.999628 0
-0.0151864 0.0056887 0.999868 0
-0.000970589 -0.00354239 0.999993 0
0.0101931 -0.00446196 0.999938 0
0.0223843 -0.00544055 0.999735 0
0.0311555 -0.0054816 0.9995 0
0.0408192 -0.00770366 0.999137 0
0.0510873 -0.0118243 0.998624 0
0.0491061 -0.00896452 0.998753 0
0.0473016 -0.00513658 0.998867 0
0.0430276 -0.00143424 0.999073 0
0.0396311 0.00196652 0.999212 0
0.0351575 0.006687 0.999359 0
0.0315511 0.0114161 0.999437 0
0.0200567 0.0180469 0.999636 0
0.0109427 0.0227588 0.999681 0.00135753
-0.00386773 0.0338176 0.999421 0.0161599
-0.0165175 0.0365116 0.999197 0.0277596
-0.0286175 0.0394622 0.998811 0.0400972
-0.0402752 0.0462724 0.998117 0.0511104
-0.0493977 0.0510424 0.997474 0.0552941
-0.0682605 0.0643369 0.995591 0.0740776
-0.0936533 0.0813392 0.992277 0.0922889
-0.127495 0.0977357 0.987012 0.112892
-0.160135 0.111598 0.980766 0.130879
-0.194835 0.13146 0.971986 0.147023
-0.217063 0.145934 0.965188 0.155373
-0.220631 0.141926 0.964976 0.157054
-0.20446 0.126659 0.970646 0.149312
-0.169052 0.101814 0.980334 0.135739
-0.131504 0.0736561 0.988575 0.121747
-0.0980511 0.0516545 0.99384 0.102537
-0.0766128 0.0368213 0.996381 0.0790451
-0.0624872 0.0267463 0.997687 0.0580689
-0.0442159 0.0149401 0.99891 0.0390122
-0.0314194 -0.000984789 0.999506 0.0165665
-0.0138717 -0.0149685 0.999792 0
0.00099013 -0.0303035 0.99954 0
0.0195178 -0.0431893 0.998876 0
0.0365137 -0.0545652 0.997842 0
0.0475884 -0.0619957 0.996941 0
0.0569497 -0.0737061 0.995653 0
0.0551546 -0.0779422 0.995431 0
0.0542029 -0.0771949 0.995542 0
0.0431223 -0.0715233 0.996506 0
0.0265332 -0.0645615 0.997561 0
0.00719823 -0.0522238 0.998609 0
-0.00699153 -0.0428522 0.999057 0
-0.0132334 -0.0383014 0.999179 0
-0.0143809 -0.0378436 0.99918 0
-0.015058 -0.0406807 0.999059 0
-0.0165116 -0.04289 0.998943 0
-0.0124302 -0.0456146 0.998882 0
-0.00707505 -0.0509429 0.998676 0
-0.00634751 -0.0482895 0.998813 0
-0.00431593 -0.0490048 0.998789 0
-0.00849594 -0.0507495 0.998675 0.00904894
-0.0117076 -0.0505924 0.998651 0.0203389
-0.0155234 -0.0504025 0.998608 0.0275597
-0.0165547 -0.0471115 0.998752 0.0332737
-0.0173285 -0.0428172 0.998933 0.036413
-0.0155039 -0.0415452 0.999016 0.0385377
-0.00750782 -0.047904 0.998824 0.0323115
0.00537404 -0.0558386 0.998425 0.014574
0.0177003 -0.0593376 0.998081 0.00034624
0.0299457 -0.0666775 0.997325 0
0.0452064 -0.0766751 0.996031 0
0.0576853 -0.0863916 0.99459 0
0.0708629 -0.0947274 0.992978 0
0.0789105 -0.0988433 0.991969 0
0.0823231 -0.101694 0.991404 0
0.0832565 -0.107072 0.990759 0
0.0820984 -0.109293 0.990613 0
0.0829829 -0.114666 0.989932 0
0.0801297 -0.117883 0.989789 0
0.0772034 -0.118833 0.989908 0
0.0629989 -0.113046 0.991591 0
0.0504876 -0.109668 0.992685 0
0.0440508 -0.102967 0.993709 0
0.0360174 -0.0982738 0.994507 0
0.0333442 -0.0950765 0.994911 0
0.0365771 -0.0973544 0.994577 0
0.039178 -0.0999059 0.994225 0
0.0326196 -0.100666 0.994385 0
0.0289723 -0.0994031 0.994625 0
0.0227178 -0.0994492 0.994783 0
0.0207265 -0.0966347 0.995104 0
0.0132751 -0.0920624 0.995665 0
0.00436342 -0.0879289 0.996117 0
-0.00359216 -0.0815973 0.996659 0
-0.0090227 -0.0745987 0.997173 0
-0.0167227 -0.065921 0.997685 0
-0.0251045 -0.0621531 0.997751 0
-0.024967 -0.0593777 0.997923 0
-0.0278974 -0.0583189 0.997908 0
-0.0254013 -0.0597819 0.997888 0
-0.024969 -0.058672 0.997965 0
-0.030542 -0.0545561 0.998044 0
-0.0335825 -0.0500133 0.998184 0
-0.0326947 -0.0451779 0.998444 0
-0.0275543 -0.0457049 0.998575 0
-0.0254893 -0.0472546 0.998558 0
-0.0216501 -0.047363 0.998643 0
-0.00832461 -0.0563403 0.998377 0
-0.00454083 -0.0619874 0.998067 0
-0.000527631 -0.0648424 0.997895 0
-0.00175644 -0.0651079 0.997877 0
-0.010614 -0.0594676 0.998174 0
-0.0185395 -0.0533148 0.998406 0
-0.0216362 -0.0483302 0.998597 0
-0.0220082 -0.0459609 0.998701 0
-0.0268799 -0.0405374 0.998816 0
-0.0327637 -0.0430879 0.998534 0
-0.0371004 -0.0431921 0.998378 0
-0.0351479 -0.0440171 0.998412 0
-0.0380996 -0.0414826 0.998413 0
-0.0431813 -0.0415605 0.998202 0
-0.039677 -0.0419534 0.998331 0
-0.0474613 -0.0379937 0.99815 0
-0.0482149 -0.0364079 0.998173 0
-0.049641 -0.0324205 0.998241 0
-0.0556043 -0.0304326 0.997989 0
-0.0560533 -0.0269493 0.998064 0
-0.0591801 -0.0283844 0.997844 0
-0.0638104 -0.0247142 0.997656 0
-0.0663592 -0.0210511 0.997574 0
-0.0666633 -0.0161221 0.997645 0
-0.0605442 -0.0122291 0.998091 0
-0.0538335 -0.0122025 0.998475 0
-0.0452789 -0.0127099 0.998894 0
-0.0469519 -0.00261621 0.998894 0
-0.0387482 0.00568526 0.999233 0
-0.0413962 0.0124163 0.999066 0
-0.0521556 0.0178962 0.998479 0
-0.0564954 0.0216375 0.998168 0
-0.0564831 0.0272009 0.998033 0
-0.0654728 0.0341063 0.997271 0
-0.0710766 0.0436495 0.996515 0
-0.0708675 0.0480155 0.996329 0
-0.0656416 0.0497072 0.996604 0
-0.0702219 0.0556812 0.995976 0.00441033
-0.0767377 0.0584805 0.995335 0.00522481
-0.0816695 0.0645458 0.994567 0.00588402
-0.0778397 0.0548976 0.995453 0.00390801
-0.0786243 0.0542813 0.995425 0
-0.0727936 0.0366212 0.996674 0
-0.0739393 0.0378593 0.996544 0
-0.0744884 0.0378013 0.996505 0
-0.0788877 0.0531408 0.995466 0
-0.0781549 0.0553499 0.995404 0
-0.0814546 0.0553611 0.995138 0
-0.0782995 0.0483096 0.995759 0
-0.0814538 0.0477971 0.99553 0
-0.0872046 0.0625858 0.994223 0
-0.0834342 0.0655609 0.994354 0
-0.0766328 0.0636552 0.995025 0
-0.0789013 0.0646493 0.994784 0
-0.0823317 0.0739483 0.993858 0
-0.0832522 0.0773688 0.993521 0
-0.0896135 0.0913688 0.991777 0
-0.0953495 0.0979683 0.990611 0
-0.0947608 0.103229 0.990133 0
-0.0898048 0.098626 0.991064 0
-0.0920733 0.106521 0.990038 0
-0.0938557 0.109344 0.989563 0
-0.0900425 0.108689 0.989989 0
-0.0855798 0.107636 0.9905 0
-0.0704455 -0.249757 0.965743 0.0122977
-0.0679798 -0.236014 0.969369 0.0118898
-0.0676855 -0.230139 0.970801 0.0131472
-0.0604715 -0.228273 0.971717 0.00312319
-0.0624286 -0.221319 0.973201 0.00460002
-0.0673315 -0.210959 0.975173 0.00786802
-0.0711337 -0.206994 0.975753 0.0147222
-0.0777502 -0.205443 0.975576 0.0242064
-0.0816301 -0.190178 0.97835 0.0313916
-0.0802687 -0.195444 0.977425 0.0404323
-0.0772775 -0.184972 0.979701 0.0443156
-0.0732061 -0.171714 0.982423 0.0411116
-0.0775867 -0.178819 0.980818 0.0447816
-0.0805879 -0.168945 0.982325 0.046451
-0.0794039 -0.166252 0.982881 0.0445769
-0.0709439 -0.160229 0.984527 0.0357394
-0.0627455 -0.15451 0.985997 0.0272084
-0.0562693 -0.145537 0.987751 0.0135934
-0.0508807 -0.139764 0.988877 0.00147996
-0.0461452 -0.140459 0.989011 0
-0.0447992 -0.145069 0.988407 0
-0.0411598 -0.14008 0.989284 0
-0.0401528 -0.145867 0.988489 0
-0.0378574 -0.147087 0.988399 0
-0.0350869 -0.151453 0.987842 0
-0.0433464 -0.143925 0.988639 0
-0.0469749 -0.140496 0.988966 0
-0.0471784 -0.135399 0.989667 0
-0.0465735 -0.131191 0.990262 0
-0.0524764 -0.127395 0.990463 0
-0.0488408 -0.120873 0.991466 0
-0.0513114 -0.112801 0.992292 0
-0.0551183 -0.112415 0.992131 0
-0.0593067 -0.11977 0.991029 0
-0.0635548 -0.125666 0.990035 0
-0.0650329 -0.121858 0.990415 0
-0.067811 -0.116279 0.990899 0
-0.0690874 -0.101795 0.992404 0
-0.0686303 -0.0916829 0.99342 0
-0.0680166 -0.0921076 0.993423 0
-0.0703205 -0.0950928 0.992981 0
-0.0688333 -0.0914426 0.993429 0
-0.0650792 -0.091082 0.993715 0
-0.0682334 -0.0903552 0.993569 0
-0.0664409 -0.0860558 0.994072 0
-0.0680521 -0.0861927 0.993952 0
-0.0676023 -0.0841298 0.994159 0
-0.0627596 -0.0797637 0.994836 0
-0.0579787 -0.0758566 0.995432 0
-0.0545153 -0.0792512 0.995363 0
-0.0546693 -0.0784701 0.995416 0
-0.0515551 -0.0739644 0.995927 0
-0.04853 -0.0751443 0.995991 0
-0.0442004 -0.0693135 0.996615 0
-0.0379134 -0.0665338 0.997064 0
-0.0212925 -0.0646154 0.997683 0
-0.0226243 -0.0614403 0.997854 0
-0.0242422 -0.0582881 0.998005 0
-0.0219998 -0.0579 0.99808 0
-0.0215307 -0.0557951 0.99821 0
-0.0179516 -0.0568316 0.998222 0
-0.0159649 -0.053005 0.998467 0
-0.00508453 -0.0519059 0.998639 0
0.00132788 -0.0493151 0.998782 0
0.00446608 -0.0487963 0.998799 0
0.00668577 -0.0444443 0.99899 0
0.0145855 -0.0455247 0.998857 0
0.0128139 -0.0464763 0.998837 0
0.0119399 -0.0479761 0.998777 0
0.0145927 -0.0515392 0.998564 0
0.0105718 -0.0456786 0.9989 0
0.0144493 -0.0412266 0.999045 0
0.0130453 -0.035646 0.999279 0
0.0141321 -0.0294321 0.999467 0
0.0176859 -0.0273569 0.999469 0
0.0198821 -0.0287647 0.999388 0
0.0188718 -0.024895 0.999512 0
0.0242538 -0.0225422 0.999452 0
0.0295144 -0.0188384 0.999387 0
0.0328205 -0.0186278 0.999288 0
0.0363288 -0.0164722 0.999204 0
0.0327622 -0.0129664 0.999379 0
0.0175202 -0.00208974 0.999844 0
0.00353623 0.010172 0.999942 0
-0.00843522 0.0192543 0.999779 0
-0.0204753 0.0242278 0.999497 0
-0.0311415 0.0260133 0.999176 0.0113326
-0.0379748 0.0317977 0.998773 0.0273738
-0.0373523 0.030525 0.998836 0.0212871
-0.0335257 0.025424 0.999114 0.00671221
-0.0236811 0.0172509 0.999571 0
-0.0123407 0.00873634 0.999886 0
0.00157749 -0.00024563 0.999999 0
0.0104041 -0.00780702 0.999915 0
0.0167715 -0.010536 0.999804 0
0.0249991 -0.00947357 0.999643 0
0.033892 -0.011841 0.999355 0
0.0391243 -0.0147981 0.999125 0
0.0478657 -0.0182156 0.998688 0
0.0529522 -0.0169785 0.998453 0
0.0539193 -0.011944 0.998474 0
0.0537293 -0.00795598 0.998524 0
0.0508619 0.000338156 0.998706 0
0.0391535 0.0039157 0.999225 0
0.0323424 0.0106031 0.999421 0
0.0192466 0.0203203 0.999608 0
0.00450932 0.0282832 0.99959 0.00477132
-0.0126381 0.0368046 0.999243 0.0233471
-0.0244176 0.039849 0.998907 0.0362763
-0.0305607 0.0382612 0.9988 0.0388874
-0.0402789 0.0417977 0.998314 0.0440613
-0.0626061 0.0523524 0.996664 0.0622269
-0.0935749 0.0727218 0.992953 0.0835257
-0.131961 0.0920083 0.986976 0.106528
-0.172741 0.110426 0.978758 0.128596
-0.198016 0.123445 0.972394 0.141007
-0.20957 0.123121 0.970011 0.145725
-0.190276 0.115782 0.974879 0.141076
-0.161727 0.100668 0.981687 0.129777
-0.128056 0.0756503 0.988877 0.115687
-0.10176 0.0527853 0.993408 0.10351
-0.0767921 0.0346535 0.996445 0.0884916
-0.0569985 0.0212994 0.998147 0.0675759
-0.0441123 0.0121051 0.998953 0.0439705
-0.0329447 0.00460814 0.999447 0.0234681
-0.0195485 -0.00716093 0.999783 0.000158829
-0.00519189 -0.0193431 0.999799 0
0.00571951 -0.0312828 0.999494 0
0.0211812 -0.0456004 0.998735 0
0.0378398 -0.0606872 0.997439 0
0.0507666 -0.0687141 0.996344 0
0.0578803 -0.0759449 0.995431 0
0.0598524 -0.0807817 0.994933 0
0.0545851 -0.0797182 0.995322 0
0.039468 -0.0710855 0.996689 0
0.0265612 -0.0624474 0.997695 0
0.0102697 -0.0530363 0.99854 0
-0.00694407 -0.0428636 0.999057 0
-0.0111405 -0.0406254 0.999112 0
-0.0160954 -0.0377257 0.999159 0
-0.0166399 -0.0409731 0.999022 0
-0.0194686 -0.0452718 0.998785 0
-0.0206792 -0.0477716 0.998644 0
-0.0160486 -0.0500835 0.998616 0
-0.0148856 -0.050888 0.998593 0.00119063
-0.0132494 -0.0496508 0.998679 0.00652922
-0.00920905 -0.051805 0.998615 0.00973508
-0.0107764 -0.0510562 0.998638 0.014555
-0.0164242 -0.054964 0.998353 0.0211085
-0.0223635 -0.0542143 0.998279 0.0244967
-0.023393 -0.0500466 0.998473 0.0286743
-0.0172619 -0.0491435 0.998643 0.0274063
-0.0097176 -0.0508065 0.998661 0.0263342
-0.00444363 -0.0513046 0.998673 0.0214593
0.0024486 -0.0578078 0.998325 0.0121737
0.0142571 -0.0634787 0.997881 0
0.0282477 -0.0740929 0.996851 0
0.0349371 -0.0825403 0.995975 0
0.0431845 -0.0874399 0.995233 0
0.0480106 -0.0912705 0.994668 0
0.0574907 -0.0956085 0.993757 0
0.0634413 -0.0970409 0.993256 0
0.0685873 -0.09793 0.992827 0
0.0629553 -0.100673 0.992926 0
0.0633524 -0.103854 0.992573 0
0.0586136 -0.104131 0.992835 0
0.0481716 -0.098892 0.993932 0
0.0402747 -0.0938807 0.994769 0
0.0292319 -0.0904308 0.995474 0
0.0288107 -0.095195 0.995042 0
0.0288754 -0.096484 0.994916 0
0.0311683 -0.0984838 0.99465 0
0.0319635 -0.0981543 0.994658 0
0.0356548 -0.102158 0.994129 0
0.0363078 -0.102857 0.994033 0
0.0347138 -0.104955 0.993871 0
0.0279868 -0.102138 0.994376 0
0.0187341 -0.0976576 0.995044 0
0.0122939 -0.0942518 0.995472 0
0.00384973 -0.0837736 0.996477 0
-0.00606447 -0.0776914 0.996959 0
-0.0163558 -0.0732575 0.997179 0
-0.0303179 -0.0686707 0.997179 0
-0.0414269 -0.0623925 0.997192 0
-0.0457671 -0.0579443 0.99727 0
-0.0406436 -0.0586533 0.997451 0
-0.036318 -0.0592598 0.997582 0
-0.02858 -0.0629581 0.997607 0
-0.0281891 -0.0621354 0.99767 0
-0.0304278 -0.0535429 0.998102 0
-0.031701 -0.0495519 0.998268 0
-0.0205044 -0.0544249 0.998307 0
-0.0152335 -0.0595396 0.99811 0
-0.00584762 -0.0642714 0.997915 0
0.00559441 -0.0715587 0.997421 0
-0.00224811 -0.0649155 0.997888 0
-0.00874709 -0.0623961 0.998013 0
-0.0114679 -0.0604638 0.998105 0
-0.016264 -0.0552517 0.99834 0
-0.0139482 -0.0517435 0.998563 0
-0.0233973 -0.0458159 0.998676 0
-0.0317706 -0.0442575 0.998515 0
-0.043515 -0.0429977 0.998127 0
-0.0484891 -0.0410815 0.997979 0
-0.0448705 -0.0379255 0.998273 0
-0.0449689 -0.0397059 0.998199 0
-0.0443783 -0.0421956 0.998123 0
-0.0525498 -0.035422 0.99799 0
-0.0537742 -0.0378825 0.997834 0
-0.0549613 -0.0361553 0.997834 0
-0.0594143 -0.0338646 0.997659 0
-0.0557042 -0.0337437 0.997877 0
-0.0595582 -0.0328464 0.997684 0
-0.0604509 -0.0293578 0.997739 0
-0.0631936 -0.0282081 0.997603 0
-0.0632396 -0.0205257 0.997787 0
-0.0547335 -0.0168054 0.99836 0
-0.0470272 -0.0173588 0.998743 0
-0.0429266 -0.0142805 0.998976 0
-0.0412819 -0.0148805 0.999037 0
-0.0395886 -0.0157826 0.999091 0
-0.0466422 -0.00541077 0.998897 0
-0.0529899 0.00767138 0.998566 0
-0.0677074 0.0213879 0.997476 0
-0.0680824 0.0248955 0.997369 0
-0.0676355 0.0280084 0.997317 0
-0.0695452 0.0360468 0.996927 0
-0.0656054 0.0421958 0.996953 0
-0.0591865 0.0436773 0.997291 0
-0.0642908 0.0457299 0.996883 0
-0.0699746 0.049639 0.996313 0
-0.0767767 0.0558145 0.995485 0.00341575
-0.0747911 0.0537586 0.995749 0
-0.0796972 0.0604229 0.994986 0.00188559
-0.0732966 0.056162 0.995728 0
-0.0680226 0.0505099 0.996404 0
-0.0677722 0.0410624 0.996855 0
-0.0687599 0.0377911 0.996917 0
-0.0740007 0.0475112 0.996126 0
-0.0756115 0.0579563 0.995452 0
-0.0732323 0.0525379 0.99593 0
-0.0738159 0.0455193 0.996233 0
-0.0743142 0.0389982 0.996472 0
-0.0786792 0.0460215 0.995837 0
-0.0768147 0.0514486 0.995717 0
-0.0735005 0.0549945 0.995778 0
-0.0686204 0.0623955 0.99569 0
-0.0690805 0.0663845 0.9954 0
-0.0722242 0.0647795 0.995283 0
-0.0753352 0.0668203 0.994917 0
-0.0836664 0.083046 0.993027 0
-0.0888652 0.0912089 0.991859 0
-0.0921783 0.0926825 0.99142 0
-0.0899025 0.100777 0.990839 0
-0.0850162 0.104706 0.990863 0
-0.077274 0.0973048 0.99225 0
-0.0703677 0.0986424 0.992632 0
-0.0784031 0.117952 0.989919 0
-0.0663938 -0.24766 0.966569 0.018093
-0.0615365 -0.232678 0.970605 0.0173888
-0.0585743 -0.224245 0.972771 0.0161368
-0.0619385 -0.225546 0.972261 0.0196549
-0.0582475 -0.221452 0.97343 0.0145828
-0.0646485 -0.217089 0.974009 0.015684
-0.066188 -0.207051 0.976089 0.0176747
-0.0710309 -0.196847 0.977858 0.0271741
-0.0754738 -0.192308 0.978428 0.0323777
-0.0747712 -0.1879 0.979338 0.0400861
-0.0720323 -0.1872 0.979677 0.0392172
-0.0673466 -0.168282 0.983436 0.0333918
-0.0720338 -0.163627 0.983889 0.0456741
-0.0726235 -0.162218 0.984079 0.0473233
-0.0713123 -0.155388 0.985276 0.0458711
-0.0623837 -0.151146 0.986541 0.0393749
-0.0593833 -0.147402 0.987292 0.0314637
-0.0527947 -0.140595 0.988659 0.0211225
-0.0493004 -0.14021 0.988894 0.00612147
-0.0436874 -0.136323 0.989701 0
-0.0439826 -0.138651 0.989364 0
-0.0403762 -0.134612 0.990075 0
-0.0407468 -0.137815 0.989619 0
-0.0421444 -0.13733 0.989628 0
-0.0428862 -0.141662 0.988986 0
-0.0449871 -0.139306 0.989227 0
-0.0478383 -0.132698 0.990001 0
-0.0501787 -0.132532 0.989908 0
-0.0513948 -0.121034 0.991317 0
-0.0494058 -0.113552 0.992303 0
-0.0498813 -0.107419 0.992962 0
-0.0567364 -0.105606 0.992788 0
-0.0587216 -0.098772 0.993376 0
-0.0576378 -0.104806 0.992821 0
-0.0614418 -0.110444 0.991981 0
-0.0639951 -0.111366 0.991717 0
-0.059239 -0.109953 0.99217 0
-0.0601326 -0.103386 0.992822 0
-0.063095 -0.0932298 0.993643 0
-0.059787 -0.0873066 0.994386 0
-0.0659409 -0.0844365 0.994245 0
-0.0661931 -0.0855402 0.994133 0
-0.0624556 -0.0843581 0.994476 0
-0.0605976 -0.0781537 0.995098 0
-0.0618098 -0.0718972 0.995495 0
-0.0629397 -0.075209 0.995179 0
-0.0585333 -0.0703001 0.995807 0
-0.059175 -0.0690431 0.995857 0
-0.0544329 -0.0675136 0.996232 0
-0.0520523 -0.066537 0.996425 0
-0.0530796 -0.0687466 0.996221 0
-0.0524966 -0.0698041 0.996178 0
-0.0529184 -0.0676097 0.996308 0
-0.0429329 -0.06739 0.996803 0
-0.0309587 -0.0648 0.997418 0
-0.023904 -0.0637198 0.997681 0
-0.0150555 -0.0612673 0.998008 0
-0.00740012 -0.0575147 0.998317 0
-0.0113124 -0.0606375 0.998096 0
