# .PCD v0.7 - Point Cloud Data file format
VERSION 0.7
FIELDS x y z
SIZE 4 4 4
TYPE F F F
COUNT 1 1 1
WIDTH 1391
HEIGHT 1
VIEWPOINT 0 0 0 1 0 0 0
POINTS 1391
DATA ascii
-0.118866 0.094875999 -0.23035949
-0.11868276 0.094898999 -0.23035775
-0.1184916 0.094912402 -0.23035941
-0.11830891 0.094917662 -0.23036642
-0.11812616 0.094905831 -0.23034598
-0.11792666 0.094897173 -0.23035049
-0.11775 0.094888993 -0.23033583
-0.11744366 0.094874658 -0.23034699
-0.11725725 0.094897248 -0.2303375
-0.1171442 0.094912998 -0.2303344
-0.116947 0.094917335 -0.23031835
-0.11671833 0.094907321 -0.23032816
-0.1164951 0.094897002 -0.23033388
-0.1163275 0.094889335 -0.23035501
-0.11611651 0.094857 -0.23032449
-0.1159075 0.094903998 -0.23031318
-0.1156842 0.094912395 -0.2303168
-0.11549717 0.0949165 -0.23034149
-0.115336 0.094907336 -0.230379
-0.11518133 0.09489733 -0.23036565
-0.11487299 0.09488333 -0.23037301
-0.11473483 0.094876669 -0.23037784
-0.120217 0.095013998 -0.23039401
-0.120166 0.095009997 -0.23039199
-0.1198825 0.095138997 -0.2303955
-0.119695 0.09510833 -0.23039334
-0.1195132 0.095109001 -0.23038502
-0.11935439 0.09513019 -0.2303946
-0.119136 0.095097661 -0.23036499
-0.118858 0.09508884 -0.23034966
-0.118676 0.095077001 -0.23035765
-0.1185026 0.095083602 -0.2303386
-0.118294 0.095106214 -0.23035444
-0.11811817 0.095118999 -0.23033582
-0.11791883 0.095110662 -0.23033716
-0.11774268 0.095102005 -0.230313
-0.117436 0.095088661 -0.23033799
-0.11725067 0.095075168 -0.23033099
-0.11714979 0.095084205 -0.23031981
-0.1169415 0.095093995 -0.23029551
-0.11671034 0.095119834 -0.23032252
-0.11653266 0.095112503 -0.23032182
-0.11634633 0.095101669 -0.23032111
-0.11614767 0.095087342 -0.23031235
-0.11590111 0.095081218 -0.23030823
-0.1156954 0.095084198 -0.23031342
-0.11549075 0.095093749 -0.23033574
-0.11532801 0.095120668 -0.23037434
-0.11517334 0.095110334 -0.23035634
-0.11486467 0.095097333 -0.23038267
-0.11472666 0.09509033 -0.23037517
-0.120203 0.095370002 -0.230396
-0.120153 0.095366001 -0.23039401
-0.11987782 0.095281333 -0.23038633
-0.1197035 0.095274158 -0.23038548
-0.1195274 0.095280804 -0.23038021
-0.1193288 0.095312998 -0.2303746
-0.11912834 0.095309339 -0.230358
-0.11885016 0.095301338 -0.23034316
-0.11866817 0.095289171 -0.23034517
-0.11848667 0.095281333 -0.23032917
-0.1183021 0.095279366 -0.23034965
-0.11809659 0.095316194 -0.23033161
-0.11791116 0.095322669 -0.2303275
-0.11773401 0.095314674 -0.23032565
-0.117428 0.095300339 -0.23032866
-0.117243 0.095286667 -0.230321
-0.11713666 0.095281161 -0.23031384
-0.11693466 0.095270671 -0.23028767
-0.11670375 0.095295995 -0.2303125
-0.11651681 0.095308796 -0.2303042
-0.11633854 0.095313996 -0.23031156
-0.11613967 0.095299996 -0.23029967
-0.11589323 0.09529411 -0.23029733
-0.11567917 0.095282495 -0.23030935
-0.11548433 0.095270999 -0.23032235
-0.115322 0.095298 -0.23035899
-0.11516533 0.095323659 -0.23035
-0.11485666 0.09531033 -0.23037367
-0.11471833 0.095303662 -0.23037381
-0.11452401 0.095367998 -0.2303855
-0.12017233 0.095508836 -0.23038383
-0.11987001 0.095493339 -0.23037551
-0.11969534 0.095486827 -0.23037986
-0.11950984 0.095477998 -0.23036818
-0.1193416 0.095484197 -0.23037858
-0.11912033 0.095522664 -0.23035133
-0.1188645 0.095498249 -0.23032625
-0.118695 0.095513254 -0.23033527
-0.1184785 0.095494173 -0.23032834
-0.118288 0.095484741 -0.23034042
-0.118119 0.095487997 -0.23032041
-0.11790475 0.095499247 -0.23031175
-0.117718 0.095512405 -0.2303144
-0.11742067 0.095512331 -0.23031235
-0.11723584 0.095499001 -0.23029698
-0.117129 0.095493503 -0.23030116
-0.11692733 0.09548267 -0.230276
-0.11669783 0.095473498 -0.23029917
-0.11652839 0.095482193 -0.23030159
-0.11633012 0.095527336 -0.23031399
-0.11613233 0.095512331 -0.23028333
-0.11592916 0.095509835 -0.23029716
-0.11571389 0.095496565 -0.2302881
-0.11547583 0.095483996 -0.23032133
-0.11531567 0.095474996 -0.23033966
-0.115159 0.0955 -0.23033901
-0.11485001 0.095521666 -0.23033966
-0.11471099 0.095516168 -0.23035733
-0.1145195 0.095509328 -0.23037218
-0.12084199 0.0957205 -0.23038599
-0.12015186 0.095731139 -0.2303797
-0.119862 0.095706336 -0.23036933
-0.11968733 0.095700003 -0.23037452
-0.11950234 0.095690824 -0.23035432
-0.11932433 0.095682502 -0.23036933
-0.119114 0.095699996 -0.230342
-0.1188775 0.095695004 -0.230332
-0.1187 0.095716886 -0.23031524
-0.11847084 0.0957065 -0.23031749
-0.1182804 0.095697075 -0.23032583
-0.11809734 0.095685005 -0.23031019
-0.11789884 0.095676325 -0.23029333
-0.1177294 0.095683403 -0.23030381
-0.11741301 0.095725663 -0.23029368
-0.11722817 0.095711827 -0.23028584
-0.11712101 0.095707171 -0.23029618
-0.116919 0.095695667 -0.23028235
-0.11668984 0.095687002 -0.23029482
-0.116512 0.095679671 -0.23029383
-0.11632416 0.095704496 -0.23029667
-0.11612433 0.095725663 -0.230278
-0.11592233 0.095722325 -0.23026367
-0.11570533 0.095709778 -0.23029102
-0.11546867 0.095696501 -0.23030369
-0.11530767 0.095687993 -0.23033465
-0.11515266 0.095678329 -0.23032933
-0.114843 0.095699996 -0.2303405
-0.114694 0.095714606 -0.23034601
-0.11451133 0.095722504 -0.23037051
-0.1212035 0.095882997 -0.23039001
-0.121199 0.095988996 -0.23039
-0.120836 0.095896333 -0.23036635
-0.120712 0.095942669 -0.23039667
-0.1203345 0.095913 -0.23039626
-0.12012967 0.095896669 -0.23036218
-0.11985434 0.095919006 -0.2303555
-0.1196795 0.095912002 -0.23036534
-0.11949485 0.095902987 -0.23033817
-0.119317 0.095894672 -0.230354
-0.119107 0.095877342 -0.23034035
-0.11887067 0.095871665 -0.23032565
-0.11874101 0.095897496 -0.230304
-0.11850834 0.095920555 -0.230295
-0.11827991 0.095903903 -0.23030773
-0.11810543 0.095908999 -0.23030029
-0.11789066 0.095889665 -0.23029315
-0.11771367 0.095881671 -0.23028718
-0.117407 0.095901996 -0.23028499
-0.117245 0.095927 -0.23028402
-0.11714056 0.095920548 -0.23027921
-0.11691099 0.095908999 -0.23027301
-0.1166825 0.095898665 -0.2302705
-0.11650433 0.095891662 -0.23028332
-0.1163179 0.095881216 -0.23028077
-0.116118 0.095901996 -0.2302645
-0.115916 0.095898256 -0.23025174
-0.11569767 0.095922224 -0.23027879
-0.11546117 0.095909171 -0.23028983
-0.1153 0.095901005 -0.23032333
-0.11514533 0.095890671 -0.23031099
-0.11483634 0.095877327 -0.23033766
-0.11470721 0.095885195 -0.23033682
-0.11450475 0.095899507 -0.2303665
-0.1211955 0.096095502 -0.230388
-0.120827 0.096109666 -0.23038
-0.12069117 0.096107163 -0.23038566
-0.1205184 0.096113995 -0.2303886
-0.12032834 0.096090168 -0.2303855
-0.12012289 0.096074112 -0.23035455
-0.119848 0.096095756 -0.23034525
-0.11969043 0.096135005 -0.23033901
-0.11948667 0.096116006 -0.23033601
-0.11930916 0.096107662 -0.23033966
-0.11909866 0.096090339 -0.23033834
-0.11886267 0.096084662 -0.23031934
-0.118734 0.096075177 -0.23031248
-0.11850083 0.096098661 -0.23030932
-0.11828879 0.096124776 -0.23031054
-0.11811922 0.096112102 -0.23028977
-0.11788284 0.096101664 -0.23028149
-0.11770567 0.096094333 -0.23028266
-0.11740249 0.096044004 -0.230266
-0.11729201 0.096119337 -0.23027468
-0.11713351 0.096097499 -0.23027833
-0.11690366 0.096121334 -0.23025201
-0.11667433 0.096111171 -0.23026651
-0.11649717 0.096104167 -0.23025982
-0.11631033 0.096093662 -0.23027055
-0.116111 0.096080005 -0.23026599
-0.11590917 0.096076332 -0.23025234
-0.11569083 0.09610033 -0.23027568
-0.115452 0.096122831 -0.23029847
-0.11529233 0.096113332 -0.23031168
-0.11513734 0.096103333 -0.230305
-0.11482867 0.096089996 -0.23032868
-0.11468967 0.096083999 -0.23033883
-0.11449749 0.096078001 -0.23036985
-0.12118867 0.09627267 -0.23038499
-0.12086275 0.096324995 -0.23037449
-0.12068266 0.096320331 -0.23038767
-0.12050283 0.096311837 -0.23037
-0.12032033 0.096302666 -0.23037301
-0.12011467 0.096287884 -0.23035666
-0.11988667 0.096276663 -0.23034067
-0.11970917 0.096302666 -0.23032819
-0.11946879 0.096313797 -0.23033659
-0.119301 0.096320331 -0.23033901
-0.119091 0.09630233 -0.23032968
-0.118855 0.096297331 -0.23030533
-0.11872566 0.096287839 -0.23030983
-0.11849455 0.096275449 -0.23029488
-0.1182825 0.09630233 -0.23029983
-0.11811714 0.096304856 -0.23028
-0.11789329 0.096324995 -0.230268
-0.11769783 0.096306674 -0.23027201
-0.1173125 0.096286662 -0.23026299
-0.11712766 0.096274883 -0.23026568
-0.116897 0.096298002 -0.23024699
-0.116666 0.096325338 -0.23026983
-0.116489 0.096317671 -0.23025601
-0.11630233 0.09630689 -0.23026067
-0.11610367 0.096292667 -0.23025034
-0.11590117 0.096289493 -0.23024666
-0.11572783 0.096279331 -0.23025684
-0.11555541 0.0962836 -0.23028222
-0.1153296 0.096316002 -0.23031721
-0.11512899 0.096316665 -0.23031199
-0.11481933 0.096303999 -0.23034467
-0.11468166 0.096297331 -0.23033418
-0.11448934 0.096290834 -0.23036619
-0.12148366 0.096501328 -0.230379
-0.1213125 0.0965655 -0.23039301
-0.12118033 0.096486002 -0.23038566
-0.12091739 0.096484803 -0.23037919
-0.12067625 0.096496493 -0.23038
-0.12049516 0.096523672 -0.23036551
-0.12031234 0.096514665 -0.23037183
-0.12010688 0.096499443 -0.23034865
-0.119879 0.096488662 -0.23032533
-0.11970255 0.096479557 -0.23032553
-0.1194832 0.096485004 -0.23032899
-0.119284 0.096517004 -0.23033139
-0.119084 0.096513994 -0.23031133
-0.11884733 0.096509002 -0.23029834
-0.11871783 0.096500158 -0.23030452
-0.11851101 0.096479431 -0.23029926
-0.11829782 0.096487172 -0.23030056
-0.11816339 0.096484199 -0.23028481
-0.11789871 0.096507721 -0.23026085
-0.11769033 0.096519344 -0.23025984
-0.11730484 0.096498996 -0.23025434
-0.11711957 0.096487001 -0.23025468
-0.11689033 0.09647534 -0.23023801
-0.11666025 0.096501753 -0.23025249
-0.1164724 0.096515 -0.230251
-0.11629411 0.096519783 -0.23026177
-0.116096 0.096505336 -0.23023401
-0.11589351 0.096501827 -0.230233
-0.11572 0.096491836 -0.23024984
-0.11553784 0.096481167 -0.23026884
-0.1153468 0.096488193 -0.23029718
-0.11512101 0.096529663 -0.23030066
-0.11481266 0.096516669 -0.23031767
-0.11467317 0.096510828 -0.23034
-0.11448216 0.096503161 -0.23034768
-0.121475 0.096714668 -0.23038466
-0.1212945 0.096719831 -0.23039518
-0.12117233 0.096698664 -0.23038
-0.12089232 0.096682169 -0.23037332
-0.12067018 0.096673667 -0.23036098
-0.12048826 0.096700996 -0.23035899
-0.120295 0.096712396 -0.23035359
-0.1200991 0.096712008 -0.23033577
-0.119872 0.096700668 -0.23031168
-0.11969512 0.096692003 -0.23030755
-0.11946666 0.096681841 -0.23029734
-0.1192978 0.096688204 -0.2303098
-0.11907667 0.096726663 -0.23028634
-0.11883933 0.096721672 -0.23029034
-0.11871034 0.096712172 -0.23028751
-0.11852116 0.096703172 -0.23029368
-0.11829859 0.096693493 -0.23029633
-0.11815234 0.096682169 -0.23027281
-0.11791512 0.096680246 -0.23026377
-0.11768325 0.096697003 -0.230259
-0.11729667 0.096712172 -0.23024501
-0.11711221 0.09670011 -0.23024267
-0.11688267 0.096688665 -0.23022766
-0.11665317 0.096678831 -0.23024882
-0.1164846 0.096686207 -0.2302396
-0.1162875 0.096696325 -0.23025501
-0.11608732 0.096717991 -0.230244
-0.115886 0.096713334 -0.23021734
-0.11571183 0.096705496 -0.23025118
-0.11553067 0.096694328 -0.23024882
-0.11532833 0.096684836 -0.23028149
-0.115115 0.096706003 -0.230278
-0.114805 0.096694 -0.23032701
-0.11466566 0.096723497 -0.23032551
-0.11447301 0.096717663 -0.23035967
-0.114132 0.096626997 -0.230398
-0.122494 0.096841 -0.230399
-0.12174333 0.096869327 -0.23039468
-0.121468 0.096925996 -0.23036166
-0.12129626 0.096927732 -0.23037928
-0.12116534 0.09691 -0.23035066
-0.120928 0.096879244 -0.23037849
-0.1206955 0.096896 -0.23035789
-0.120482 0.096878 -0.23034768
-0.1203102 0.096883595 -0.23034599
-0.12009145 0.096924767 -0.23032567
-0.11986401 0.096913002 -0.23030134
-0.11969788 0.096895993 -0.23030475
-0.11947843 0.096905999 -0.23029459
-0.11928034 0.096886665 -0.23030932
-0.1190695 0.096904002 -0.230298
-0.1188325 0.096900001 -0.23029301
-0.11870233 0.096925497 -0.23028016
-0.1185135 0.096916169 -0.23027717
-0.11829091 0.096906327 -0.23028378
-0.11814449 0.096895002 -0.23025768
-0.11789666 0.096883893 -0.2302569
-0.11767667 0.096874662 -0.23025668
-0.1172732 0.096909605 -0.23024721
-0.117104 0.096912667 -0.23023966
-0.11687467 0.096901335 -0.23022632
-0.11665499 0.096877001 -0.23023701
-0.11648671 0.096894994 -0.23023629
-0.11628088 0.096874557 -0.23024967
-0.1160805 0.096896 -0.2302385
-0.11586859 0.0969126 -0.2302274
-0.1157035 0.096918009 -0.2302465
-0.11552233 0.09690699 -0.23024715
-0.1153205 0.096897669 -0.23027468
-0.11510801 0.096884333 -0.230281
-0.114802 0.096799999 -0.230313
-0.11470484 0.096902668 -0.23032182
-0.11446575 0.096895501 -0.2303735
-0.12208632 0.097097993 -0.230395
-0.12199751 0.097128004 -0.23038501
-0.121735 0.097082339 -0.23039466
-0.1214615 0.097103 -0.2303555
-0.12129158 0.097093999 -0.23037986
-0.121156 0.097124338 -0.23036833
-0.120963 0.097112328 -0.230372
-0.1206999 0.097100109 -0.23034535
-0.12047417 0.097090662 -0.23033667
-0.12029283 0.097081333 -0.2303225
-0.12008467 0.097102009 -0.23032217
-0.119856 0.097126335 -0.23029865
-0.11972167 0.097118504 -0.23030083
-0.11952671 0.09710215 -0.23029199
-0.11930413 0.097108245 -0.23028949
-0.119062 0.097081997 -0.230305
-0.11882666 0.097076334 -0.23026733
-0.11869575 0.097102493 -0.2302805
-0.11849721 0.097113594 -0.2302742
-0.11828317 0.097117998 -0.23027109
-0.1181365 0.097106837 -0.23025434
-0.11789988 0.097087122 -0.23025149
-0.11768758 0.09709686 -0.230243
-0.11732325 0.097069249 -0.23024651
-0.117106 0.097126402 -0.23024149
-0.11686566 0.09711466 -0.23023634
-0.116681 0.09710566 -0.23023534
-0.11650521 0.097098447 -0.23022045
-0.11627322 0.09708678 -0.23023432
-0.11607433 0.097072341 -0.23022799
-0.11588021 0.097084209 -0.23022981
-0.115697 0.097095497 -0.23024449
-0.11551467 0.097119503 -0.23023432
-0.11531217 0.097111166 -0.23027502
-0.11509933 0.097097665 -0.23029433
-0.11471087 0.097071752 -0.23030987
-0.11447943 0.09708415 -0.23035814
-0.114089 0.097138003 -0.23039179
-0.122843 0.097351998 -0.230396
-0.1222748 0.097364597 -0.23038502
-0.1221414 0.097328201 -0.2303884
-0.12199033 0.097306006 -0.23038934
-0.12172733 0.097295664 -0.23038433
-0.12145434 0.097280331 -0.23035634
-0.12128737 0.097270273 -0.23037501
-0.12116534 0.097315334 -0.23037632
-0.12095666 0.097323664 -0.23033701
-0.12071814 0.097303569 -0.23034142
-0.1204995 0.097313754 -0.230332
-0.1202845 0.097294159 -0.23032166
-0.12007877 0.097278774 -0.23030178
-0.1198495 0.097302496 -0.2302855
-0.1197155 0.097295493 -0.23029001
-0.119531 0.097312398 -0.2302864
-0.11930667 0.097313121 -0.23029034
-0.11905432 0.097294666 -0.23029433
-0.118819 0.097288668 -0.23025666
-0.11868917 0.097279668 -0.23026951
-0.11850901 0.097284198 -0.23026618
-0.1183035 0.097296499 -0.23024984
-0.11815146 0.097321115 -0.23025134
-0.11792483 0.097309671 -0.23023267
-0.11770543 0.097301334 -0.23023899
-0.117356 0.097283334 -0.23022467
-0.11712433 0.097293563 -0.23023833
-0.11685833 0.097326666 -0.230226
-0.11667266 0.097318999 -0.230235
-0.11649712 0.097310886 -0.23021299
-0.11626489 0.097300112 -0.23023799
-0.11606666 0.097285002 -0.23021567
-0.11586383 0.097282499 -0.23021866
-0.11569083 0.097272165 -0.23022617
-0.11550725 0.097297505 -0.23024225
-0.115305 0.097323336 -0.23025532
-0.11509166 0.097310334 -0.23027499
-0.11473834 0.097295336 -0.23029952
-0.11449978 0.097286552 -0.23033565
-0.11407675 0.0973005 -0.23039076
-0.113979 0.097260997 -0.230395
-0.12226084 0.097498991 -0.23037517
-0.12213951 0.09752667 -0.23037218
-0.12198234 0.097519003 -0.23038633
-0.12171933 0.097508334 -0.23038167
-0.12144667 0.097493671 -0.23034966
-0.12129799 0.097490884 -0.23037475
-0.12116784 0.097480662 -0.23036782
-0.120949 0.097502001 -0.230343
-0.12072968 0.09752667 -0.23032916
-0.12050311 0.097517997 -0.23032723
-0.12027666 0.097506665 -0.23031682
-0.1200709 0.097490996 -0.23029266
-0.11984301 0.097479336 -0.23027833
-0.11970899 0.097472161 -0.23027515
-0.119543 0.097482398 -0.23028199
-0.11929933 0.097524896 -0.23027587
-0.11904699 0.097507 -0.23027332
-0.11881133 0.09750066 -0.23024766
-0.11868183 0.097491503 -0.23025183
-0.118493 0.097481824 -0.23024718
-0.118297 0.09747389 -0.23024723
-0.11814567 0.097498 -0.23022199
-0.117917 0.097522341 -0.23022251
-0.11768687 0.097503997 -0.23022361
-0.11734834 0.097496666 -0.23020899
-0.11710874 0.097481668 -0.23022877
-0.1166655 0.097497001 -0.2302435
-0.11657801 0.097528003 -0.23022133
-0.11625666 0.097512998 -0.23023589
-0.11605833 0.097498335 -0.23021202
-0.115856 0.097495168 -0.23020999
-0.11568284 0.097485505 -0.23022015
-0.11550049 0.097475 -0.23024116
-0.115298 0.097501002 -0.2302555
-0.11508366 0.097523995 -0.23027067
-0.11473117 0.097507 -0.23027617
-0.11450387 0.097491622 -0.23032063
-0.114398 0.097566999 -0.230322
-0.11409799 0.097480774 -0.23037788
-0.113969 0.097547002 -0.230388
-0.122826 0.097778 -0.230398
-0.122458 0.097763002 -0.230395
-0.1222565 0.097605497 -0.23039749
-0.122132 0.097704001 -0.23038125
-0.1219755 0.097695 -0.2303845
-0.12171134 0.097719669 -0.230368
-0.121439 0.097705662 -0.230334
-0.12129067 0.097702555 -0.23035343
-0.12116033 0.097692333 -0.230353
-0.120942 0.097678334 -0.230341
-0.1207235 0.097703002 -0.23031574
-0.12048357 0.097709134 -0.23031572
-0.12026883 0.097718835 -0.23030949
-0.12006322 0.097703449 -0.2302818
-0.11983534 0.097692668 -0.23026566
-0.11970166 0.097684324 -0.2302615
-0.11952633 0.097680502 -0.23027818
-0.11931159 0.097695798 -0.23026058
-0.11907949 0.097722754 -0.230267
-0.11880333 0.097713329 -0.23023899
-0.118674 0.097704828 -0.23024632
-0.118485 0.097695172 -0.23024134
-0.1182889 0.097686999 -0.23024219
-0.11813834 0.097676218 -0.23023123
-0.11791025 0.097699501 -0.230221
-0.1176546 0.097710803 -0.23021922
-0.117599 0.097792998 -0.23022801
-0.11734 0.097709335 -0.23021567
-0.11710066 0.097694673 -0.23022141
-0.11665966 0.097673662 -0.23022632
-0.11654133 0.097716667 -0.230205
-0.11627299 0.097702503 -0.230215
-0.11612526 0.097717494 -0.23021901
-0.1158715 0.097691998 -0.23020825
-0.11567467 0.097697668 -0.23021601
-0.11549366 0.097686671 -0.2302165
-0.1152915 0.097678177 -0.23024715
-0.115077 0.0977 -0.23026299
-0.11472317 0.097720005 -0.230267
-0.11453 0.097714007 -0.23030484
-0.11439233 0.097708337 -0.23032367
-0.11410963 0.097701721 -0.23037125
-0.11394376 0.097704753 -0.23038
-0.113797 0.097754002 -0.230391
-0.1228205 0.097919002 -0.2303935
-0.1224985 0.097905003 -0.23038466
-0.1222895 0.097927004 -0.230397
-0.12212566 0.097881325 -0.230377
-0.12196899 0.097872339 -0.230377
-0.1217055 0.097897001 -0.230349
-0.12143133 0.097918667 -0.230323
-0.12128323 0.097915232 -0.23033789
-0.12115332 0.097904675 -0.23032415
-0.120935 0.097890995 -0.23032767
-0.12071717 0.097880334 -0.23030551
-0.12051529 0.097873144 -0.23030885
-0.1202896 0.0979046 -0.23029859
-0.120084 0.097917326 -0.23028016
-0.11991183 0.097909331 -0.23027666
-0.11969367 0.097896494 -0.23025616
-0.11951816 0.097893171 -0.23027332
-0.11933167 0.097881667 -0.23026599
-0.1191296 0.097884603 -0.23026721
-0.11870933 0.097919889 -0.23023099
-0.11847734 0.097907163 -0.2302295
-0.11828099 0.097899444 -0.23023534
-0.11813034 0.097888328 -0.23022522
-0.11790367 0.097876824 -0.2302105
-0.1176825 0.097903997 -0.230216
-0.117595 0.097899005 -0.230213
-0.11733166 0.09792266 -0.230214
-0.11709511 0.097907104 -0.23021144
-0.11665233 0.097885333 -0.23020701
-0.1165114 0.097868398 -0.23021559
-0.1163125 0.097906001 -0.23020799
-0.1161935 0.097902 -0.23022601
-0.115888 0.097851999 -0.230204
-0.11564625 0.097910501 -0.23021276
-0.1154758 0.097884998 -0.23020859
-0.11528366 0.097891174 -0.23023784
-0.11507133 0.097877331 -0.23024134
-0.11471725 0.0978975 -0.23025276
-0.11452317 0.097926341 -0.23027502
-0.11438566 0.097921006 -0.23029201
-0.11410874 0.097909749 -0.23037408
-0.113918 0.097899325 -0.23036367
-0.1137504 0.097879201 -0.23038502
-0.12332 0.098160997 -0.230398
-0.12285775 0.098098502 -0.23038724
-0.12269232 0.098129667 -0.23039334
-0.12249034 0.098117828 -0.2303835
-0.122263 0.098118395 -0.23039679
-0.12214233 0.09809611 -0.23037566
-0.12196133 0.098084666 -0.23036234
-0.121698 0.098074667 -0.23035999
-0.1214235 0.098095998 -0.2303405
-0.1212675 0.098118372 -0.23033588
-0.12114567 0.098116837 -0.23031668
-0.120927 0.098103337 -0.23031799
-0.12070916 0.098092832 -0.2302985
-0.12052634 0.098086335 -0.2303005
-0.12033129 0.098067284 -0.23029414
-0.12011766 0.098098993 -0.2302895
-0.11990416 0.098122001 -0.23026519
-0.11968567 0.098109506 -0.23024718
-0.1195105 0.098106325 -0.23026384
-0.11932384 0.098094501 -0.23025417
-0.11910683 0.098080665 -0.23024583
-0.11868972 0.098111428 -0.23022087
-0.11846983 0.098119833 -0.23021834
-0.11827379 0.098111443 -0.23021346
-0.11812849 0.098092124 -0.23021087
-0.11793766 0.098090999 -0.23020302
-0.117678 0.098010004 -0.230211
-0.117327 0.098063 -0.230204
-0.11709317 0.098108828 -0.23020433
-0.116999 0.098187 -0.230205
-0.11647 0.098024003 -0.230206
-0.11630601 0.098082997 -0.23020817
-0.116187 0.098079331 -0.23021699
-0.115618 0.098122329 -0.23020701
-0.11549333 0.098161004 -0.230205
-0.115276 0.098103501 -0.230226
-0.11506367 0.098089665 -0.230233
-0.11471051 0.098074496 -0.2302435
-0.11451675 0.098104 -0.2302715
-0.11438 0.098098002 -0.2302715
-0.11409391 0.098115273 -0.23036171
-0.11390982 0.098112494 -0.23036265
-0.1137416 0.098120607 -0.23037581
-0.113587 0.098174997 -0.230396
-0.123403 0.098233998 -0.230399
-0.12330257 0.098311566 -0.23039114
-0.1230648 0.098300397 -0.23038921
-0.122868 0.098276146 -0.23038444
-0.12267979 0.098285399 -0.23038658
-0.122474 0.098316208 -0.23038061
-0.12225234 0.098315001 -0.23036315
-0.12213445 0.098308004 -0.230362
-0.12195333 0.098297663 -0.23035599
-0.12169067 0.098286994 -0.23034567
-0.12141734 0.098273329 -0.23032433
-0.12127871 0.098289855 -0.23031971
-0.12113401 0.098314196 -0.2302908
-0.12091867 0.098316669 -0.23031533
-0.12070134 0.098305337 -0.23028702
-0.12051833 0.098299675 -0.23029085
-0.12034484 0.098290831 -0.23028
-0.12011167 0.098276109 -0.23027454
-0.11989825 0.098299004 -0.23024775
-0.11967734 0.098322503 -0.23025084
-0.11950284 0.098318331 -0.23024632
-0.11931616 0.098306835 -0.23024601
-0.11909816 0.098292835 -0.23025
-0.11870857 0.098284855 -0.23020901
-0.11846275 0.098296992 -0.2302215
-0.11826534 0.098324448 -0.23021354
-0.11815933 0.098317333 -0.23022668
-0.117929 0.098304331 -0.23020566
-0.117666 0.098329999 -0.230207
-0.11758033 0.098289996 -0.23021001
-0.11715651 0.098301999 -0.2302065
-0.116639 0.098240003 -0.230203
-0.1163 0.098225504 -0.23020649
-0.11617967 0.098291665 -0.23020534
-0.115652 0.098301753 -0.23020549
-0.11525641 0.098302603 -0.2302366
-0.11505567 0.098302998 -0.23022433
-0.11470266 0.098287664 -0.23023717
-0.11450983 0.098281674 -0.23027049
-0.11437333 0.098275334 -0.23026268
-0.1140943 0.098299995 -0.23035538
-0.113902 0.098325498 -0.23035251
-0.11372384 0.098318666 -0.23036583
-0.123852 0.098503001 -0.2303955
-0.12332513 0.098506756 -0.2303834
-0.12306357 0.098490283 -0.230389
-0.12286499 0.098471507 -0.23038325
-0.122697 0.098492742 -0.23038
-0.1224858 0.098486796 -0.23036739
-0.1222455 0.098492749 -0.23036575
-0.12212678 0.098521329 -0.23035942
-0.12194533 0.09851066 -0.230353
-0.121683 0.098499 -0.230335
-0.12141 0.098485328 -0.230307
-0.12126223 0.098481998 -0.23031698
-0.1211374 0.098485991 -0.2302942
-0.12091167 0.098528661 -0.23029234
-0.1206935 0.098518007 -0.23027951
-0.12051051 0.098511837 -0.23028417
-0.1203365 0.098503344 -0.23028034
-0.12010411 0.098488003 -0.23026334
-0.119891 0.098476499 -0.2302525
-0.11967026 0.098500505 -0.230253
-0.11948619 0.098516598 -0.23024681
-0.11930766 0.098519832 -0.23025016
-0.11909118 0.098505832 -0.23023485
-0.11871399 0.098478429 -0.23021002
-0.11849175 0.098484874 -0.23021162
-0.118289 0.0985035 -0.23020975
-0.11817575 0.098497495 -0.23020776
-0.117924 0.098447002 -0.230202
-0.1175735 0.098467 -0.2302065
-0.117153 0.098407999 -0.230204
-0.1161725 0.098469004 -0.230203
-0.115261 0.0984945 -0.230221
-0.1150855 0.098536499 -0.23022449
-0.11469433 0.098500825 -0.23023634
-0.1145128 0.098480001 -0.23024599
-0.11436533 0.098488994 -0.23026334
-0.11409564 0.098484538 -0.23034057
-0.11389574 0.098503247 -0.23033799
-0.11371675 0.098497495 -0.23037276
-0.12384567 0.09868034 -0.23038733
-0.123474 0.098697498 -0.230391
-0.12331766 0.098727845 -0.23038334
-0.12305542 0.09872286 -0.23037472
-0.12289575 0.098722249 -0.2303915
-0.12270033 0.098697111 -0.23038067
-0.12246883 0.09868484 -0.23036717
-0.122238 0.098670833 -0.23037684
-0.12212 0.098697998 -0.23035717
-0.121938 0.098722667 -0.23033567
-0.12167533 0.098711669 -0.23032065
-0.1214035 0.098662004 -0.230298
-0.1213 0.098706566 -0.23030956
-0.12114789 0.098686442 -0.23030768
-0.12090451 0.0987055 -0.230299
-0.120687 0.098695002 -0.23027176
-0.12050284 0.098723345 -0.23027016
-0.12032851 0.09871567 -0.23028016
-0.12009566 0.098700449 -0.23026411
-0.11992624 0.098672494 -0.23024975
-0.11969738 0.098687246 -0.23023912
-0.11949821 0.098687001 -0.23023701
-0.11930125 0.098696753 -0.23023924
-0.1190994 0.098706 -0.23023438
-0.119 0.098782003 -0.230222
-0.118769 0.098635003 -0.230213
-0.11850943 0.098689862 -0.23020557
-0.11829914 0.098692141 -0.23020959
-0.11816883 0.098675162 -0.23020683
-0.115312 0.098675668 -0.23020633
-0.115118 0.098698996 -0.23022574
-0.11468667 0.098713003 -0.23022132
-0.11449516 0.098706506 -0.2302305
-0.11435699 0.098701663 -0.23026033
-0.11410867 0.098691665 -0.23032954
-0.11392523 0.098680891 -0.23032488
-0.113711 0.098673828 -0.23034914
-0.11354525 0.098689504 -0.23039424
-0.12442867 0.098924667 -0.23038934
-0.12405366 0.098901667 -0.23038934
-0.12383767 0.098893665 -0.23037966
-0.1235018 0.0988914 -0.23038021
-0.12331358 0.098890141 -0.23037043
-0.1230804 0.098913498 -0.23036771
-0.1229075 0.098918498 -0.23038782
-0.12271929 0.098900713 -0.23037231
-0.12249524 0.098908998 -0.23036949
-0.12222999 0.098883837 -0.23037051
-0.12211355 0.098875113 -0.23034233
-0.12193049 0.098899998 -0.2303445
-0.12166733 0.098924004 -0.23031266
-0.121315 0.09890911 -0.230299
-0.12114011 0.098899558 -0.23030135
-0.120898 0.098883003 -0.23029166
-0.12068084 0.098871671 -0.23025684
-0.120496 0.098900996 -0.23027
-0.12031259 0.098913804 -0.2302672
-0.12008813 0.098913006 -0.23025033
-0.11996 0.09890566 -0.23024799
-0.119701 0.098891892 -0.23023078
-0.11948183 0.098884992 -0.23022901
-0.11929534 0.098873168 -0.23021734
-0.1191555 0.098903999 -0.23024949
-0.11899433 0.098924667 -0.23022234
-0.11848533 0.098901331 -0.23021199
-0.1182846 0.098865196 -0.23020461
-0.11818299 0.098888665 -0.23020566
-0.115306 0.098816998 -0.230203
-0.115151 0.098860756 -0.23021249
-0.11467 0.098912202 -0.2302254
-0.11448717 0.098919667 -0.23022734
-0.11434867 0.098914333 -0.23025966
-0.11410078 0.098905116 -0.2303192
-0.11391734 0.098894447 -0.23031712
-0.11370384 0.098885991 -0.23032451
-0.113525 0.098884597 -0.23038459
-0.1244215 0.099102005 -0.23039451
-0.12404601 0.099114329 -0.230379
-0.12382933 0.099106997 -0.23039101
-0.12350366 0.099090338 -0.23036933
-0.12329478 0.09908244 -0.23038022
-0.12307674 0.099079132 -0.23037736
-0.12286166 0.099128328 -0.23037201
-0.12273083 0.0991235 -0.23035897
-0.12249933 0.099113114 -0.23036201
-0.12223449 0.099079758 -0.23036575
-0.12212245 0.099095538 -0.23033744
-0.12192533 0.099076331 -0.230317
-0.121661 0.099100001 -0.23030201
-0.12130822 0.099120334 -0.23027256
-0.12113278 0.099111006 -0.23028234
-0.12089067 0.099095337 -0.230272
-0.12067334 0.099083334 -0.23024215
-0.12048999 0.099078327 -0.23025016
-0.120324 0.0990844 -0.23024639
-0.12010375 0.099073499 -0.23022476
-0.11995233 0.099118002 -0.23023766
-0.11968274 0.099094369 -0.23021226
-0.11948401 0.099083804 -0.23021761
-0.1192802 0.099071994 -0.23021622
-0.11914933 0.099080659 -0.23023732
-0.1189875 0.099101998 -0.230224
-0.115181 0.09909334 -0.230214
-0.114673 0.099068746 -0.23021625
-0.1144805 0.099096 -0.23021699
-0.114342 0.09912733 -0.23023601
-0.11409322 0.099117331 -0.23030278
-0.11390921 0.099107333 -0.23031433
-0.11369617 0.099098839 -0.23031384
-0.11353099 0.099080503 -0.23037775
-0.124998 0.099341005 -0.230391
-0.12469367 0.099290997 -0.23038667
-0.12441467 0.099279664 -0.23039199
-0.12410101 0.099316999 -0.23037741
-0.12382167 0.099319004 -0.23036467
-0.12349501 0.099303164 -0.23037052
-0.12328711 0.099294886 -0.23036867
-0.12309562 0.099293627 -0.23037674
-0.12293725 0.099284254 -0.23037575
-0.12272475 0.099301003 -0.23034951
-0.12250751 0.099302672 -0.23035234
-0.12230261 0.099328399 -0.23034301
-0.1221214 0.099301912 -0.23032667
-0.121918 0.099288337 -0.230296
-0.12165534 0.09927734 -0.23027967
-0.1213015 0.099297829 -0.230268
-0.12112544 0.099323437 -0.23026268
-0.12088267 0.099307664 -0.23026599
-0.12066567 0.099295832 -0.23022999
-0.12048233 0.099289991 -0.23024166
-0.12030766 0.09928266 -0.23025
-0.120091 0.099291831 -0.23022734
-0.1199455 0.099295497 -0.230234
-0.11968659 0.099287398 -0.230202
-0.11947501 0.099324606 -0.23020701
-0.11924034 0.099298663 -0.23022099
-0.11914134 0.099293329 -0.23023133
-0.11898067 0.099278994 -0.23022366
-0.115176 0.099235997 -0.230205
-0.114622 0.099243499 -0.230205
-0.11447366 0.099274166 -0.2302215
-0.11433449 0.099305496 -0.23023301
-0.11407925 0.099320628 -0.23029314
-0.113901 0.099320896 -0.23031145
-0.113689 0.099312007 -0.23029615
-0.11350901 0.099324599 -0.2303628
-0.113369 0.099341005 -0.230373
-0.125268 0.099463999 -0.230396
-0.12499166 0.099517338 -0.230379
-0.12468633 0.099503003 -0.23036735
-0.12440634 0.099492997 -0.23039132
-0.12412579 0.099489801 -0.23037441
-0.1238155 0.099494994 -0.2303585
-0.12348667 0.099516161 -0.23037384
-0.12327978 0.099506669 -0.2303519
-0.12309477 0.099498674 -0.23037222
-0.12292055 0.099487223 -0.23036899
-0.12271833 0.0994775 -0.23033518
-0.12254059 0.099483989 -0.23035601
-0.1222958 0.099512398 -0.2303354
-0.12211385 0.099513918 -0.23031111
-0.12191033 0.099500664 -0.23028566
-0.121647 0.099490665 -0.23028368
-0.12129512 0.099474773 -0.23025601
-0.12111867 0.0995005 -0.23025902
-0.12087467 0.099520661 -0.23025434
-0.12065784 0.099507667 -0.23021768
-0.12047484 0.099502675 -0.23022585
-0.12029984 0.099495657 -0.23024434
-0.120076 0.099471629 -0.230222
-0.1199545 0.099490494 -0.23021474
-0.119504 0.099524342 -0.23020434
-0.119236 0.099439003 -0.23020799
-0.119135 0.099470496 -0.230215
-0.1189745 0.099455997 -0.23020801
-0.11444101 0.0994865 -0.230215
-0.114328 0.099482335 -0.23023467
-0.11408772 0.099492423 -0.23027273
-0.11389467 0.099498503 -0.23030317
-0.11367968 0.099526167 -0.23031269
-0.11349282 0.099523336 -0.23035018
-0.1133278 0.0995306 -0.23038061
-0.125257 0.099748001 -0.230399
-0.124985 0.099661998 -0.230398
-0.12467799 0.099716 -0.23037033
-0.124401 0.099634998 -0.230391
-0.12439699 0.099740997 -0.23038399
-0.12410299 0.099686332 -0.23036216
-0.12380933 0.099672668 -0.23034202
-0.12347081 0.099713199 -0.23035979
-0.12327133 0.099720225 -0.23035301
-0.12308756 0.099710777 -0.23035455
-0.12291278 0.099699564 -0.230359
-0.12271032 0.099690169 -0.23032767
-0.12252317 0.099682994 -0.23036067
-0.122322 0.099684998 -0.2303286
-0.12210046 0.099719189 -0.23029017
-0.121902 0.099713333 -0.23028232
-0.12163967 0.099701665 -0.23026466
-0.12128767 0.099686883 -0.23024501
-0.12111232 0.099677227 -0.23025179
-0.1208685 0.099696994 -0.23024499
-0.120649 0.099721827 -0.23022884
-0.1204766 0.099701606 -0.23021901
-0.12029234 0.099707164 -0.23022334
-0.12009267 0.099694498 -0.23021567
-0.11995699 0.0996712 -0.2302084
-0.1195825 0.099702999 -0.2302075
-0.119226 0.099687994 -0.23020351
-0.11441 0.099663004 -0.230206
-0.1143215 0.099661 -0.23022601
-0.11407223 0.099686116 -0.23028255
-0.11388867 0.099675007 -0.23028333
-0.11367475 0.099701501 -0.23027
-0.1134875 0.099699005 -0.23032425
-0.11330481 0.099714801 -0.23036321
-0.125421 0.099969 -0.2304
-0.125249 0.099959999 -0.23039401
-0.12508966 0.099881329 -0.230398
-0.1249755 0.099909 -0.230395
-0.124671 0.099893004 -0.23037601
-0.12439066 0.09991733 -0.23037334
-0.12409516 0.099899173 -0.230359
-0.123803 0.099813998 -0.230359
-0.123799 0.099921003 -0.23035499
-0.12348261 0.099885203 -0.23034401
-0.12329751 0.099898495 -0.230349
-0.123101 0.099917911 -0.23035307
-0.12290511 0.099912114 -0.23035111
-0.12270216 0.099902831 -0.23033015
-0.12251633 0.099893838 -0.23033367
-0.12229899 0.099880837 -0.23031318
-0.12210833 0.099891886 -0.23028368
-0.121894 0.099926673 -0.23027666
-0.121632 0.099914335 -0.23024733
-0.12127933 0.099899665 -0.23024188
-0.12110456 0.099890105 -0.23024112
-0.120862 0.099873997 -0.23023565
-0.120688 0.099898994 -0.2302075
-0.12055175 0.099895999 -0.23022
-0.120264 0.099900499 -0.2302165
-0.12013333 0.099911332 -0.23021732
-0.119926 0.099826001 -0.230203
-0.119579 0.099809997 -0.230202
-0.114065 0.099897891 -0.23026299
-0.11388055 0.099888667 -0.23027889
-0.11366916 0.099877991 -0.23024385
-0.113482 0.099875666 -0.230294
-0.1133168 0.099883199 -0.2303246
-0.1256552 0.1001088 -0.2303886
-0.12550899 0.100116 -0.23039499
-0.12526475 0.100086 -0.2303915
-0.125185 0.100033 -0.230395
-0.12489775 0.10011926 -0.23039275
-0.124664 0.10007133 -0.23038232
-0.1243845 0.100094 -0.2303555
-0.12408751 0.10011083 -0.23034535
-0.12379301 0.10009734 -0.23033868
-0.12346634 0.10008234 -0.230341
-0.1232915 0.10007516 -0.23033552
-0.123113 0.10009066 -0.23033667
-0.12289744 0.10012421 -0.2303368
-0.12269501 0.10011517 -0.23031084
-0.12250867 0.10010651 -0.23032235
-0.12229151 0.10009366 -0.23029451
-0.12209351 0.10007983 -0.23027633
-0.121888 0.1001025 -0.23026
-0.12162367 0.10012767 -0.23024833
-0.121309 0.10011316 -0.23022485
-0.12112201 0.100104 -0.23022892
-0.12085366 0.10008667 -0.23023534
-0.1206805 0.100112 -0.23020649
-0.12055479 0.10005879 -0.2302136
-0.120237 0.10006 -0.23021001
-0.12012533 0.10012466 -0.23021467
-0.11405712 0.10011134 -0.2302551
-0.11388376 0.10009125 -0.23024002
-0.11367942 0.10010386 -0.23026158
-0.11347368 0.1000895 -0.23029451
-0.11330216 0.10008033 -0.23029499
-0.12573782 0.10028319 -0.2303848
-0.12550516 0.10029349 -0.23039268
-0.12527616 0.10031601 -0.23038602
-0.125172 0.100387 -0.230398
-0.12490539 0.100297 -0.23038641
-0.124656 0.10028333 -0.23036601
-0.124378 0.10027134 -0.23035933
-0.12407975 0.10028925 -0.23035949
-0.123999 0.100389 -0.23033001
-0.123785 0.10031033 -0.23033333
-0.123459 0.10029433 -0.23032318
-0.12328335 0.100287 -0.23032935
-0.1230965 0.10027816 -0.23032232
-0.12289117 0.10030133 -0.230325
-0.12268767 0.10032684 -0.23028652
-0.12250101 0.1003195 -0.23031335
-0.12230001 0.1002928 -0.2302916
-0.12209462 0.100298 -0.23026624
-0.12188133 0.10027967 -0.23025601
-0.121617 0.1003045 -0.230241
-0.12130117 0.10032534 -0.23021601
-0.12111342 0.10031759 -0.23023534
-0.120846 0.10029966 -0.23022999
-0.1205845 0.100252 -0.23020899
-0.1201185 0.100302 -0.23020799
-0.11407634 0.10032567 -0.23023649
-0.11393433 0.10031545 -0.2302289
-0.11372758 0.10029744 -0.23023915
-0.11349951 0.10031101 -0.23026925
-0.11329249 0.1002965 -0.23031867
-0.113093 0.1002744 -0.23039219
-0.126038 0.10053299 -0.2303815
-0.1257215 0.1004815 -0.23037682
-0.12551026 0.10048025 -0.23038301
-0.12526934 0.10052783 -0.23036033
-0.1251158 0.10052478 -0.23038456
-0.12488484 0.10050717 -0.23035347
-0.124649 0.10049466 -0.23034601
-0.12436933 0.10048533 -0.23036534
-0.124151 0.10047334 -0.23036699
-0.123995 0.100495 -0.23032349
-0.12377767 0.10052234 -0.230317
-0.123451 0.10050683 -0.23032017
-0.123276 0.10049967 -0.23031183
-0.12308833 0.10049101 -0.23031925
-0.12288455 0.10047812 -0.23031855
-0.122681 0.10050425 -0.23028649
-0.1224848 0.10051639 -0.2302902
-0.12235633 0.100525 -0.23028167
-0.12210121 0.10050616 -0.2302634
-0.12187334 0.10049234 -0.23024833
-0.12161166 0.10048067 -0.23021366
-0.1212945 0.1005025 -0.23021799
-0.1210958 0.1005157 -0.23023391
-0.12083767 0.10051233 -0.23022433
-0.120115 0.100408 -0.230207
-0.1140435 0.1005 -0.230215
-0.11391888 0.10051975 -0.23022488
-0.113741 0.1005215 -0.2302195
-0.11350278 0.10051611 -0.23027079
-0.1132845 0.10051017 -0.23031898
-0.11310333 0.10050333 -0.230395
-0.12603134 0.10071067 -0.23038132
-0.12584099 0.1007375 -0.23039401
-0.12571366 0.10069334 -0.23036568
-0.12553883 0.1006855 -0.23037736
-0.12531985 0.10069257 -0.23035228
-0.12510933 0.10070183 -0.23037715
-0.12487683 0.10072017 -0.23034799
-0.124641 0.10070766 -0.23033966
-0.12436233 0.100696 -0.23033834
-0.124144 0.10068434 -0.23034035
-0.123988 0.10067233 -0.23032367
-0.1237715 0.100699 -0.23030201
-0.12346551 0.10070325 -0.23031625
-0.12330063 0.10072163 -0.23030026
-0.12310878 0.10070556 -0.230308
-0.12290742 0.10069183 -0.23029727
-0.12267467 0.1006805 -0.23027001
-0.1224974 0.10068719 -0.23028281
-0.1223495 0.100703 -0.230276
-0.12210845 0.10071422 -0.23025407
-0.1219186 0.1007212 -0.23022321
-0.12160367 0.10069267 -0.23020999
-0.12128749 0.10068033 -0.23021716
-0.12111877 0.10068177 -0.2302271
-0.12083033 0.10072434 -0.230211
-0.120213 0.100697 -0.23020101
-0.11406333 0.10068133 -0.23021817
-0.11388925 0.100705 -0.23020774
-0.1137345 0.100699 -0.23021349
-0.11348286 0.10070914 -0.2302687
-0.11327717 0.10072234 -0.23029466
-0.11307117 0.1007165 -0.23038816
-0.112998 0.10071134 -0.23037167
-0.1262625 0.100901 -0.23039949
-0.12602334 0.10092333 -0.23037867
-0.125835 0.100914 -0.23038034
-0.12570633 0.10090584 -0.23035251
-0.125531 0.10089784 -0.23036468
-0.12530001 0.10088445 -0.23035166
-0.125103 0.10087878 -0.23036745
-0.124893 0.10088766 -0.23035599
-0.12467425 0.100923 -0.2303385
-0.12435367 0.10090966 -0.23034532
-0.12413534 0.10089767 -0.23034734
-0.123981 0.10088333 -0.23030333
-0.12376499 0.10087534 -0.23029701
-0.12348 0.1009 -0.230312
-0.12330455 0.10092466 -0.23028456
-0.12310044 0.10091901 -0.23031023
-0.12293322 0.10090655 -0.230295
-0.12271011 0.10089477 -0.23027444
-0.12248049 0.10088518 -0.23027867
-0.122343 0.10087967 -0.23027234
-0.12210266 0.10090822 -0.23024702
-0.12192401 0.10092083 -0.23022251
-0.121595 0.10090601 -0.23021533
-0.12126733 0.10084534 -0.23020601
-0.1211066 0.1008929 -0.23022239
-0.1208225 0.100903 -0.23021799
-0.12050401 0.10091081 -0.23020461
-0.11406666 0.10084599 -0.23020868
-0.1138655 0.10086399 -0.230213
-0.1137354 0.10089181 -0.23021738
-0.11350125 0.10087925 -0.23023586
-0.11327174 0.10089825 -0.230271
-0.1130645 0.100895 -0.23038574
-0.11298867 0.10092566 -0.230386
-0.1266465 0.101114 -0.230395
-0.12653467 0.10109267 -0.23038466
-0.12625666 0.101077 -0.23038132
-0.126017 0.101101 -0.230371
-0.125827 0.10112667 -0.23037066
-0.12569816 0.10111749 -0.2303475
-0.12552384 0.10110917 -0.23034583
-0.12529233 0.10109644 -0.23033956
-0.12509534 0.10109068 -0.230354
-0.124933 0.10107734 -0.230341
-0.12472661 0.10108161 -0.230336
-0.12434634 0.10112167 -0.23032933
-0.12412766 0.10111033 -0.230335
-0.12397233 0.10109667 -0.230307
-0.12375633 0.10108933 -0.23030134
-0.12347367 0.101078 -0.23030265
-0.12329766 0.10110267 -0.23028666
-0.12308457 0.10111056 -0.23030387
-0.12292544 0.10111889 -0.23028344
-0.12270188 0.10110856 -0.23027489
-0.12247267 0.10109767 -0.23026566
-0.12233566 0.10109166 -0.23025934
-0.12211054 0.10108154 -0.23024316
-0.12191775 0.1010975 -0.2302115
-0.12158666 0.101119 -0.23021699
-0.12109091 0.10109171 -0.23021919
-0.12081667 0.10107934 -0.23020999
-0.113842 0.101025 -0.230214
-0.11372001 0.10107274 -0.23020801
-0.113483 0.10108233 -0.23020701
-0.11330823 0.10107778 -0.23025288
-0.11305783 0.10107266 -0.23038284
-0.1129545 0.101101 -0.23038349
-0.12666133 0.10130901 -0.230388
-0.12648621 0.1013036 -0.2303936
-0.12624866 0.10129001 -0.23037601
-0.12601066 0.10127667 -0.23035432
-0.12582049 0.101303 -0.230358
-0.125691 0.10129575 -0.23035151
-0.125516 0.10132167 -0.23033468
-0.12529525 0.10130087 -0.23033026
-0.12509899 0.1013094 -0.23033389
-0.12492534 0.10128967 -0.23032866
-0.124703 0.10127933 -0.23032634
-0.12434 0.101299 -0.2303205
-0.12412 0.10132366 -0.23032235
-0.123965 0.10130867 -0.23029101
-0.123749 0.10130099 -0.23028
-0.12346534 0.10129067 -0.23030166
-0.12329078 0.10128021 -0.23028511
-0.12309463 0.10128175 -0.23029475
-0.12291916 0.10129533 -0.23027416
-0.12269446 0.10131977 -0.23025765
-0.12246517 0.10130983 -0.230259
-0.12232801 0.10130399 -0.23024635
-0.12209634 0.10128667 -0.23023649
-0.12191132 0.10127532 -0.23020484
-0.12158 0.101296 -0.23021099
-0.12110044 0.10131278 -0.23021811
-0.120811 0.101222 -0.23020899
-0.113669 0.101267 -0.23020551
-0.1135108 0.1012822 -0.23021099
-0.11329956 0.10129257 -0.23025878
-0.11305033 0.10128534 -0.23036367
-0.11294783 0.10127917 -0.23038167
-0.112793 0.10130399 -0.2303835
-0.126984 0.10150149 -0.23039299
-0.12665318 0.10152183 -0.23038118
-0.12646832 0.10151583 -0.23039101
-0.12624167 0.10150134 -0.23035167
-0.1260045 0.101453 -0.23033699
-0.12586075 0.1015 -0.23034474
-0.12568533 0.10147166 -0.23032983
-0.12550975 0.101498 -0.230322
-0.12531917 0.10152333 -0.23031117
-0.1251085 0.10151535 -0.23031944
-0.12491866 0.101499 -0.23029099
-0.12469534 0.10149133 -0.23030867
-0.12433333 0.10147534 -0.23031001
-0.1241135 0.1015 -0.23031649
-0.123957 0.10152167 -0.23028201
-0.123741 0.101513 -0.23027168
-0.12345866 0.10150167 -0.23026766
-0.12332634 0.10149416 -0.23027499
-0.12310892 0.101486 -0.23027986
-0.12291299 0.10147211 -0.2302569
-0.12270601 0.1014906 -0.23025259
-0.12247771 0.101523 -0.23024043
-0.12232033 0.10151634 -0.23023634
-0.12209573 0.10149291 -0.23022364
-0.12184 0.101414 -0.230203
-0.12111067 0.10147899 -0.23020299
-0.11329211 0.10150466 -0.23024146
-0.1130425 0.10149867 -0.23035651
-0.1129405 0.10149283 -0.23036481
-0.112787 0.10148066 -0.23036467
-0.12736867 0.10170033 -0.23038535
-0.12705401 0.1016675 -0.2303955
-0.12697868 0.10167733 -0.23036401
-0.12664674 0.1016985 -0.23037501
-0.1264514 0.1017136 -0.2303786
-0.12623334 0.10171434 -0.23035133
-0.12590118 0.10169684 -0.23033284
-0.12567784 0.10168365 -0.23031102
-0.12550251 0.1016765 -0.230326
-0.12531275 0.1017 -0.23030052
-0.12509245 0.10170344 -0.23032001
-0.12490934 0.10171434 -0.23031366
-0.1246875 0.10170367 -0.230303
-0.12432567 0.101688 -0.23029567
-0.12410733 0.10167599 -0.23030032
-0.1239505 0.101698 -0.23027399
-0.12373333 0.10172633 -0.23026633
-0.12345034 0.10171434 -0.23026733
-0.12331883 0.10170633 -0.23026435
-0.12310091 0.1016995 -0.23027591
-0.12290488 0.101685 -0.23025353
-0.12272549 0.101675 -0.23024283
-0.12251186 0.10168857 -0.23024043
-0.122313 0.10172766 -0.23021133
-0.12210488 0.10171267 -0.23021023
-0.11330957 0.10170815 -0.23022214
-0.113076 0.101721 -0.23031414
-0.11293367 0.1017045 -0.23033799
-0.11277833 0.10169533 -0.23037165
-0.12736033 0.10191367 -0.23039033
-0.127186 0.101975 -0.23039301
-0.12697034 0.10189066 -0.23037167
-0.12668534 0.101876 -0.23035033
-0.12651449 0.10188037 -0.23036151
-0.12622534 0.10192633 -0.23034066
-0.12594074 0.10189424 -0.23032625
-0.1257015 0.10190762 -0.23031488
-0.12549467 0.1018885 -0.23032069
-0.125306 0.1018775 -0.2303015
-0.12510191 0.10187673 -0.23031354
-0.124902 0.10192666 -0.23030168
-0.124762 0.10192233 -0.23031533
-0.124598 0.10190866 -0.23025934
-0.12431899 0.10189933 -0.23026933
-0.1241 0.10188866 -0.23028333
-0.12394434 0.10187567 -0.23026466
-0.1237265 0.101904 -0.230259
-0.12344267 0.10192666 -0.23025866
-0.1233105 0.10191884 -0.23026299
-0.12309325 0.10191149 -0.23026384
-0.122897 0.10189767 -0.23024699
-0.12271766 0.10188767 -0.23023552
-0.12253866 0.10188234 -0.23023367
-0.12239701 0.10187367 -0.23022901
-0.122129 0.10188033 -0.230214
-0.11331975 0.10189751 -0.23022451
-0.11306836 0.10191675 -0.23031601
-0.11292601 0.10191733 -0.23032649
-0.112771 0.10190734 -0.23035567
-0.12771867 0.10207333 -0.23038667
-0.127352 0.102126 -0.23038834
-0.12712029 0.10214486 -0.230389
-0.12696201 0.10210333 -0.23037434
-0.12667699 0.10208934 -0.23035467
-0.12652315 0.102074 -0.23034787
-0.12630801 0.10210825 -0.23034725
-0.12597966 0.10212667 -0.230317
-0.12570456 0.10211155 -0.230312
-0.12548667 0.1021015 -0.23031366
-0.12529817 0.10208967 -0.23029451
-0.12508684 0.10208258 -0.23030949
-0.124896 0.102102 -0.23028201
-0.124756 0.102099 -0.2303025
-0.12458967 0.10212266 -0.23026268
-0.12431034 0.10211233 -0.23027067
-0.12409133 0.102101 -0.23028833
-0.12393633 0.10208833 -0.23025365
-0.12372067 0.10207867 -0.23024066
-0.1234365 0.10210299 -0.230244
-0.1233045 0.1020955 -0.23024648
-0.123115 0.10212577 -0.23025812
-0.12291568 0.10211251 -0.23024367
-0.12275267 0.10210267 -0.23023666
-0.1225305 0.10209533 -0.23022334
-0.12235401 0.10207019 -0.2302126
-0.12210584 0.10209316 -0.23020583
-0.11331283 0.10207599 -0.23022519
-0.1131286 0.1020848 -0.23028779
-0.11294567 0.1020965 -0.23031066
-0.112763 0.10212133 -0.23034734
-0.12793 0.102365 -0.230387
-0.127711 0.102286 -0.23038234
-0.12734601 0.102303 -0.23037049
-0.12707782 0.10231891 -0.23037863
-0.12695467 0.102315 -0.23035467
-0.126669 0.10230166 -0.23034267
-0.12653583 0.10229766 -0.23033468
-0.12630151 0.10228484 -0.23033299
-0.12597251 0.102304 -0.230315
-0.12569767 0.10232367 -0.23029256
-0.12547983 0.102313 -0.23029201
-0.1252895 0.10230335 -0.23029917
-0.12508708 0.1022881 -0.23028971
-0.12491725 0.10229875 -0.2302705
-0.124749 0.10227633 -0.23029934
-0.1245825 0.102301 -0.2302665
-0.12430301 0.10232466 -0.23025699
-0.12408367 0.10231366 -0.23027901
-0.12392867 0.10230034 -0.23024434
-0.12371266 0.102292 -0.23023534
-0.12342934 0.10228133 -0.23024833
-0.12330721 0.1022586 -0.2302396
-0.12310933 0.10230168 -0.23023684
-0.1228939 0.102307 -0.23022178
-0.12274567 0.10231466 -0.23021667
-0.12251361 0.102293 -0.2302188
-0.122384 0.102227 -0.230206
-0.12211567 0.102235 -0.230204
-0.113262 0.10228634 -0.23021032
-0.11310833 0.10228167 -0.23026867
-0.11293878 0.10227478 -0.23030989
-0.11275651 0.1023 -0.230342
-0.12792401 0.10250634 -0.23038399
-0.12770233 0.1025 -0.23038566
-0.12733899 0.10247934 -0.23036766
-0.12711599 0.102488 -0.23036073
-0.126967 0.1025154 -0.23034981
-0.12666167 0.10251233 -0.230323
-0.1265275 0.10251033 -0.23033614
-0.126294 0.10249717 -0.230321
-0.12596633 0.10248067 -0.23030698
-0.12569116 0.10249966 -0.23027533
-0.1254715 0.10252517 -0.23028535
-0.12528183 0.10251582 -0.23028816
-0.12509833 0.1025079 -0.23027277
-0.1249375 0.102496 -0.23027265
-0.12474167 0.10248733 -0.23028333
-0.12457599 0.10247833 -0.23026399
-0.124297 0.102499 -0.2302345
-0.12407666 0.102525 -0.23025601
-0.12392167 0.10251134 -0.23021866
-0.12370533 0.10250467 -0.230223
-0.12342167 0.10249334 -0.23023432
-0.12331225 0.102502 -0.23021425
-0.12310322 0.10247867 -0.23022066
-0.12289216 0.10250068 -0.23021667
-0.122741 0.102455 -0.230203
-0.122469 0.102483 -0.230212
-0.113257 0.102429 -0.230202
-0.11310066 0.10249434 -0.23025285
-0.11293098 0.10248756 -0.2302973
-0.11275067 0.10247567 -0.23031999
-0.12791668 0.10271966 -0.23037334
-0.12769499 0.10271133 -0.23036468
-0.12733066 0.10269266 -0.23037
-0.12710011 0.10268033 -0.23035976
-0.1269704 0.1026866 -0.23035061
-0.126654 0.10272633 -0.23032002
-0.12651984 0.1027225 -0.23032331
-0.12637566 0.102714 -0.23031266
-0.12619634 0.10270599 -0.23032331
-0.12595899 0.10269167 -0.23028201
-0.12572867 0.1026795 -0.23027749
-0.12552114 0.10269 -0.23027757
-0.12526621 0.10271241 -0.2302672
-0.12508957 0.10272155 -0.23028244
-0.124929 0.10270983 -0.23027818
-0.12473366 0.10270066 -0.23027432
-0.12456767 0.10269 -0.23025566
-0.12429032 0.10267734 -0.230231
-0.12407 0.1027025 -0.230252
-0.123914 0.10272334 -0.230211
-0.12369767 0.10271567 -0.23020566
-0.12341367 0.10270634 -0.23022734
-0.12332734 0.102698 -0.23021233
-0.12308811 0.102682 -0.23021814
-0.12290367 0.10265567 -0.230213
-0.1227305 0.102703 -0.230204
-0.11309266 0.102708 -0.23025066
-0.11292311 0.10270111 -0.23028877
-0.11274233 0.10268966 -0.23031433
-0.12800901 0.102943 -0.230399
-0.12791 0.102896 -0.2303735
-0.12768799 0.10292233 -0.23034768
-0.12732333 0.102904 -0.230353
-0.12709244 0.102892 -0.2303458
-0.12695868 0.102883 -0.23032768
-0.1266475 0.102901 -0.23030201
-0.12651375 0.10289875 -0.23030899
-0.12636767 0.10292533 -0.23030199
-0.12618899 0.10291734 -0.23029999
-0.12595133 0.10290434 -0.23027599
-0.12572099 0.10289166 -0.23026283
-0.12550223 0.10288033 -0.23026101
-0.1252782 0.1028834 -0.23026137
-0.12508251 0.10289901 -0.2302845
-0.12492084 0.1029225 -0.23027401
-0.12472534 0.10291334 -0.23027468
-0.12456033 0.10290267 -0.23025
-0.124282 0.10289067 -0.23023933
-0.12406301 0.10287934 -0.23024666
-0.123906 0.102937 -0.230204
-0.12368933 0.10292833 -0.23020732
-0.123408 0.102882 -0.230207
-0.12307733 0.10290283 -0.23020633
