-0.00232278 -0.00714019 0.999972 0.0003546
-0.00376498 -0.00714148 0.999967 0
-0.00471965 -0.00720551 0.999963 0.00169769
-0.005459 -0.00738203 0.999958 0.000974418
-0.00402691 -0.00734779 0.999965 0.00127772
-0.00428839 -0.00687132 0.999967 0
-0.00524405 -0.00705959 0.999961 0.0012081
-0.00624669 -0.0071411 0.999955 0
-0.00966113 -0.00732655 0.999927 0.00106576
-0.0134869 -0.00740817 0.999882 0.00322842
-0.0103472 -0.00715345 0.999921 2.23912e-05
-0.0106312 -0.00735686 0.999916 0.000518996
-0.0104322 -0.00743505 0.999918 0
-0.00881761 -0.00740967 0.999934 0
-0.0114401 -0.00765506 0.999905 0
-0.00918104 -0.00761899 0.999929 0
-0.0114747 -0.00821511 0.9999 0
-0.0140079 -0.00864567 0.999865 0
-0.0129497 -0.00907855 0.999875 0
-0.011368 -0.0089948 0.999895 0
-0.0112628 -0.00917061 0.999894 0
-0.0132114 -0.00981237 0.999865 0
-0.0112321 -0.0101527 0.999885 0
-0.014775 -0.0102755 0.999838 0
-0.0141178 -0.0104872 0.999845 0
-0.0169814 -0.0111129 0.999794 0
-0.0200933 -0.0118778 0.999728 0
-0.018997 -0.0119114 0.999749 0
-0.0188521 -0.0123674 0.999746 0.000974841
-0.0183128 -0.0121803 0.999758 0.00272078
-0.0202507 -0.0121066 0.999722 0.00108963
-0.0199128 -0.0122252 0.999727 0.00235146
-0.0233432 -0.0123089 0.999652 0.00244109
-0.0201549 -0.0124479 0.999719 0.00220619
-0.0210488 -0.0123668 0.999702 0.000701648
-0.0204414 -0.0123035 0.999715 0.000591765
-0.018666 -0.0124215 0.999749 0
-0.0202866 -0.0127477 0.999713 0
-0.0212372 -0.0128658 0.999692 0.00151103
-0.0207736 -0.0128873 0.999701 0.000603479
-0.0204113 -0.0129817 0.999707 0
-0.0190134 -0.013266 0.999731 0
-0.0215521 -0.0134655 0.999677 0
-0.0219173 -0.0139566 0.999662 0
-0.0223025 -0.0141513 0.999651 0
-0.0220985 -0.0144814 0.999651 0
-0.0222072 -0.0147007 0.999645 0
-0.0214424 -0.0148336 0.99966 0
-0.0247141 -0.0152294 0.999579 0
-0.0272652 -0.0154566 0.999509 0.000476571
-0.0253859 -0.0157013 0.999554 0
-0.0270595 -0.0159634 0.999506 0.00274838
-0.0276062 -0.0156893 0.999496 0.000342853
-0.0285952 -0.015722 0.999467 0
-0.0268318 -0.0159359 0.999513 0
-0.02573 -0.0162448 0.999537 0
-0.0281662 -0.0164287 0.999468 0
-0.0306433 -0.0165244 0.999394 0.00176365
-0.0267041 -0.0166774 0.999504 0.0002825
-0.0294864 -0.0167496 0.999425 0
-0.0305219 -0.0168828 0.999391 0
-0.0302063 -0.017021 0.999399 0
-0.0281107 -0.0171444 0.999458 0
-0.0291345 -0.0170889 0.999429 0
-0.0293608 -0.0170232 0.999424 0
-0.0285859 -0.0170329 0.999446 0
-0.0297813 -0.0169097 0.999413 0
-0.0331325 -0.0167555 0.99931 0
-0.0298878 -0.0167603 0.999413 0.00102138
-0.0317975 -0.0168132 0.999353 0.00629699
-0.0326865 -0.017013 0.999321 0.0062763
-0.0357849 -0.0169023 0.999217 0.00783731
-0.0372203 -0.0166724 0.999168 0.00674507
-0.0395963 -0.0166916 0.999076 0.0132545
-0.0417537 -0.0163793 0.998994 0.0111569
-0.0406992 -0.0162785 0.999039 0.0103368
-0.0437672 -0.016098 0.998912 0.0131802
-0.0427218 -0.0160469 0.998958 0.00948205
-0.0412671 -0.0159801 0.99902 0.0052379
-0.0434621 -0.0160542 0.998926 0.00822144
-0.0390914 -0.0159779 0.999108 0
-0.0364384 -0.0158935 0.999209 0
-0.0418951 -0.015828 0.998997 0.00019533
-0.0434422 -0.0157427 0.998932 0.00206021
-0.0457392 -0.0156174 0.998831 0.00475327
-0.0442897 -0.0158991 0.998892 0.0069778
-0.0437417 -0.0162385 0.998911 0.0112414
-0.0460997 -0.0161108 0.998807 0.0121309
-0.043038 -0.0160461 0.998945 0.00617637
-0.044778 -0.0160442 0.998868 0.00526641
-0.0468389 -0.0164844 0.998766 0.00652893
-0.0467996 -0.0169241 0.998761 0.00667981
-0.0512478 -0.0170227 0.998541 0.0116431
-0.0508152 -0.0171481 0.998561 0.00902991
-0.0511018 -0.0170465 0.998548 0.0105082
-0.0508026 -0.0173122 0.998559 0.00950551
-0.0475635 -0.0175715 0.998714 0.00409917
-0.0447823 -0.0178013 0.998838 0
-0.043323 -0.0180549 0.998898 0
-0.0458824 -0.0181345 0.998782 0
-0.0439695 -0.0183913 0.998864 0
-0.0434781 -0.0186159 0.998881 0.000452562
-0.0414286 -0.0188026 0.998965 0
-0.0392174 -0.0191827 0.999047 0
-0.0411541 -0.0193422 0.998966 0
-0.0410365 -0.0196694 0.998964 0.00176864
-0.0409357 -0.0198087 0.998965 0.000821096
-0.0386052 -0.0199947 0.999054 0
-0.0371317 -0.0201043 0.999108 0
-0.0347304 -0.0202851 0.999191 0
-0.0363037 -0.0201379 0.999138 0
-0.0315746 -0.0205983 0.999289 0
-0.0341577 -0.0206261 0.999204 0
-0.0333943 -0.0208554 0.999225 0
-0.0342267 -0.0209347 0.999195 0.000585351
-0.0312865 -0.0211457 0.999287 0
-0.0314103 -0.0210458 0.999285 0
-0.0326311 -0.0210373 0.999246 0
-0.0320491 -0.0210039 0.999266 0
-0.0326452 -0.0210437 0.999245 0.00112798
-0.03461 -0.0210964 0.999178 0.00209188
-0.0336726 -0.0206821 0.999219 0.000385816
-0.0351705 -0.0203046 0.999175 0.0042654
-0.0379313 -0.0199056 0.999082 0.00498783
-0.0390254 -0.0200909 0.999036 0.0061145
-0.0376619 -0.0203277 0.999084 0.0039951
-0.0379244 -0.0204435 0.999071 0.00646113
-0.0392661 -0.0207029 0.999014 0.0135976
-0.0387967 -0.0206393 0.999034 0.0106501
-0.0399332 -0.0205885 0.99899 0.0111573
-0.0381918 -0.0206489 0.999057 0.0114255
-0.0394243 -0.0207431 0.999007 0.013487
-0.0435782 -0.0206642 0.998836 0.0160495
-0.0412798 -0.0209974 0.998927 0.0138911
-0.0416463 -0.0215101 0.998901 0.0169066
-0.0412255 -0.0219041 0.99891 0.0126308
-0.0425787 -0.0223123 0.998844 0.0140912
-0.0397112 -0.0227276 0.998953 0.00622607
-0.0430653 -0.0230252 0.998807 0.00945497
-0.0399135 -0.0234849 0.998927 0.00843028
-0.0419824 -0.0236824 0.998838 0.00838797
-0.040775 -0.023917 0.998882 0.00567483
-0.0405792 -0.0241847 0.998884 0.00324278
-0.040242 -0.0247633 0.998883 0.00596064
-0.0417044 -0.025093 0.998815 0.00936132
-0.0372811 -0.025386 0.998982 0.00422206
-0.0395045 -0.0257294 0.998888 0.00749739
-0.0363276 -0.0263273 0.998993 0.0033866
-0.033849 -0.0268883 0.999065 0
-0.0382767 -0.0271141 0.998899 0.00451561
-0.0367912 -0.0273184 0.998949 0.00511314
-0.0367262 -0.027139 0.998957 0.00296515
-0.0372008 -0.0271681 0.998938 0.00722861
-0.0307635 -0.0274633 0.999149 0.00469521
-0.031503 -0.02731 0.99913 0.00406858
-0.0290661 -0.027471 0.9992 0
-0.0274227 -0.0275483 0.999244 0.000580186
-0.0270917 -0.0278976 0.999244 0
-0.0268479 -0.028163 0.999243 0
-0.0258513 -0.0285495 0.999258 0
-0.0279414 -0.0285121 0.999203 0
-0.0308798 -0.0283691 0.99912 0
-0.0280512 -0.0286847 0.999195 0
-0.0262346 -0.028848 0.999239 0
-0.0286581 -0.0287425 0.999176 0
-0.0259636 -0.0291044 0.999239 0
-0.0261066 -0.0291488 0.999234 0
-0.0275901 -0.0290894 0.999196 0
-0.0292469 -0.0292113 0.999145 0
-0.0303455 -0.0291391 0.999115 0.000533843
-0.0277516 -0.0298313 0.99917 0.00125777
-0.0294874 -0.0298419 0.99912 0.00165974
-0.0288282 -0.0299883 0.999134 0
-0.0279956 -0.0299863 0.999158 0
-0.0258094 -0.0304361 0.999203 0
-0.026848 -0.0303944 0.999177 0.000815776
-0.024791 -0.030507 0.999227 9.69843e-05
-0.0261258 -0.0305135 0.999193 0.0021461
-0.0265022 -0.0311179 0.999164 0.00392981
-0.0286895 -0.0312895 0.999098 0.00426767
-0.0316475 -0.0309458 0.99902 0.00417456
-0.0311269 -0.0308475 0.999039 0.00678236
-0.0315089 -0.0306215 0.999034 0.005934
-0.0312603 -0.030509 0.999045 0.00646362
-0.0329136 -0.0303913 0.998996 0.00612995
-0.0326551 -0.0304235 0.999004 0.00777201
-0.0315459 -0.0304599 0.999038 0.00804333
-0.0332671 -0.0301485 0.998992 0.00877496
-0.0319468 -0.0300227 0.999039 0.00900067
-0.031375 -0.0298048 0.999063 0.00842769
-0.0285749 -0.0299008 0.999144 0.00728312
-0.0288353 -0.0298395 0.999139 0.00912848
-0.0280776 -0.0295592 0.999169 0.0102383
-0.0307954 -0.0289291 0.999107 0.0117955
-0.0316592 -0.0285211 0.999092 0.0111072
-0.0326777 -0.0281766 0.999069 0.0129229
-0.0312464 -0.0279929 0.99912 0.0112307
-0.0311986 -0.0277343 0.999128 0.0111735
-0.0296234 -0.0274669 0.999184 0.00846029
-0.0311871 -0.0269289 0.999151 0.00693354
-0.0319916 -0.0264777 0.999137 0.00768131
-0.0308965 -0.0261922 0.999179 0.00700993
-0.0294634 -0.0260018 0.999228 0.00523898
-0.0289967 -0.0256357 0.999251 0.00475432
-0.0298602 -0.0251065 0.999239 0.00514195
-0.0313127 -0.0249063 0.999199 0.00793575
-0.0302909 -0.024375 0.999244 0.00734972
-0.0283139 -0.0240527 0.99931 0.00658216
-0.027367 -0.0239565 0.999338 0.00466115
-0.0258056 -0.023951 0.99938 0.00693877
-0.0225864 -0.0240951 0.999454 0.00191117
-0.0228705 -0.0240795 0.999448 0.000222277
-0.0239017 -0.0243966 0.999417 0
-0.0244348 -0.0244769 0.999402 0.000938546
-0.0248181 -0.0241283 0.999401 0.00343629
-0.0279469 -0.0241274 0.999318 0.00463191
-0.0249631 -0.0244701 0.999389 0.00222585
-0.0256906 -0.0245399 0.999369 0.00233027
-0.0234174 -0.0247537 0.999419 0.00237346
-0.022515 -0.0250575 0.999432 0.00294445
-0.0198553 -0.0254655 0.999479 0.000766553
-0.0195101 -0.0255361 0.999483 0.0021436
-0.0175715 -0.0259041 0.99951 0.000740961
-0.0214166 -0.0259555 0.999434 0.00729234
-0.02019 -0.0263276 0.999449 0.00578772
-0.0211634 -0.0266803 0.99942 0.00790207
-0.0190143 -0.0271553 0.99945 0.00613862
-0.0173942 -0.0274517 0.999472 0.00444095
-0.0181075 -0.0276148 0.999455 0.00636515
-0.0173968 -0.02783 0.999461 0.0074991
-0.0173663 -0.0281169 0.999454 0.00679942
-0.0165247 -0.0282554 0.999464 0.00737248
-0.0177431 -0.028723 0.99943 0.00890544
-0.0167503 -0.0290563 0.999437 0.00693377
-0.0188555 -0.0285881 0.999413 0.00878938
-0.0175841 -0.0285028 0.999439 0.00826565
-0.0171257 -0.0283061 0.999453 0.00617829
-0.0179687 -0.0280855 0.999444 0.00524711
-0.016322 -0.0279813 0.999475 0.00223562
-0.0183967 -0.0278031 0.999444 0.00337044
-0.0199187 -0.0275977 0.999421 0.00121087
-0.0196268 -0.0272623 0.999436 0.00374454
-0.0176432 -0.0271457 0.999476 0.00299429
-0.0196973 -0.0263812 0.999458 0.00208465
-0.0198999 -0.0259586 0.999465 0.0050224
-0.0196154 -0.0255793 0.99948 0.00424275
-0.0186632 -0.0249285 0.999515 0.00507398
-0.0193125 -0.0249915 0.999501 0.00350136
-0.0185456 -0.0252212 0.99951 0.00401831
-0.0210862 -0.0251061 0.999462 0.00588611
-0.0192952 -0.0250437 0.9995 0.00770491
-0.0210446 -0.025171 0.999462 0.0103193
-0.0200823 -0.0249614 0.999487 0.00997371
-0.0206133 -0.0250563 0.999474 0.0107427
-0.0189342 -0.0245418 0.999519 0.00817208
-0.0183852 -0.0249578 0.999519 0.00894421
-0.0163798 -0.0252839 0.999546 0.00981068
-0.0152769 -0.0253764 0.999561 0.00807864
-0.0126822 -0.026036 0.999581 0.00598313
-0.0122234 -0.0262414 0.999581 0.00612962
-0.0143768 -0.0260743 0.999557 0.00575515
-0.0154768 -0.0259907 0.999542 0.00834597
-0.0162987 -0.0258558 0.999533 0.00898828
-0.0162393 -0.0255288 0.999542 0.00782679
-0.0176989 -0.0252329 0.999525 0.00724466
-0.0159441 -0.0251369 0.999557 0.00426084
-0.0150989 -0.0250194 0.999573 0.00591926
-0.0145867 -0.0248762 0.999584 0.008286
-0.0131195 -0.0249348 0.999603 0.00832883
-0.0133938 -0.0247968 0.999603 0.00681251
-0.0121574 -0.0242851 0.999631 0.00537998
-0.0111595 -0.0243637 0.999641 0.0061565
-0.0117054 -0.0242126 0.999638 0.0070818
-0.0119139 -0.0240676 0.999639 0.0051486
-0.0116407 -0.0240932 0.999642 0.00503243
-0.0124916 -0.0238879 0.999637 0.00402391
-0.0125748 -0.0236342 0.999642 0.00417322
-0.0107324 -0.0237507 0.99966 0.00179563
-0.010691 -0.0235614 0.999665 0.00379533
-0.0118101 -0.0231951 0.999661 0.00303557
-0.0114213 -0.022959 0.999671 0.00213771
-0.0106492 -0.0231686 0.999675 0.00123107
-0.0100722 -0.0235257 0.999673 0.0027594
-0.00884994 -0.0233726 0.999688 0.00187117
-0.00965247 -0.0232647 0.999683 0.00280732
-0.00697904 -0.0235472 0.999698 0
-0.00513878 -0.023671 0.999707 0
-0.00342991 -0.023908 0.999708 0
-0.00372184 -0.0233621 0.99972 0
-0.00154778 -0.0232384 0.999729 0
-0.00323316 -0.0228005 0.999735 0
-0.00359696 -0.0226276 0.999738 0
-0.000824622 -0.0226557 0.999743 0
-0.000927012 -0.0224449 0.999748 0
-0.00326967 -0.02238 0.999744 0
-0.00213574 -0.0225427 0.999744 0
-0.000884741 -0.0223411 0.99975 0
0.000402702 -0.0224201 0.999749 0
0.000239447 -0.0224327 0.999748 0
-0.00331207 -0.0218857 0.999755 0
-0.00556666 -0.0213495 0.999757 0.000761943
-0.00512835 -0.0211561 0.999763 0.00174955
-0.00568576 -0.0206352 0.999771 0.00305277
-0.00574719 -0.0208737 0.999766 0.00597737
-0.00788403 -0.0207737 0.999753 0.00789262
-0.0102323 -0.0204384 0.999739 0.00935861
-0.0134787 -0.0198418 0.999712 0.00936491
-0.0128032 -0.0195116 0.999728 0.00772793
-0.0109113 -0.0197191 0.999746 0.00718862
-0.0104717 -0.0193775 0.999757 0.00624902
-0.0109785 -0.0191092 0.999757 0.00574877
-0.00892074 -0.0191792 0.999776 0.00506389
-0.00912578 -0.0188233 0.999781 0.00433666
-0.00929498 -0.0185111 0.999785 0.00456216
-0.00985685 -0.0184385 0.999781 0.00367268
-0.00773581 -0.0183196 0.999802 0
-0.00604991 -0.0182393 0.999815 0
-0.00463959 -0.0178814 0.999829 0
-0.00348913 -0.0176808 0.999838 0
-0.0046428 -0.0172102 0.999841 0
-0.00377026 -0.0171758 0.999845 0
-0.00307469 -0.0175994 0.99984 0
-0.00338228 -0.0175453 0.99984 0
-0.00086986 -0.0177492 0.999842 0
-0.000532203 -0.0175834 0.999845 0
-0.000690542 -0.0176809 0.999843 0
0.000181191 -0.0176802 0.999844 0
0.000396298 -0.0177656 0.999842 0
0.00224359 -0.0179245 0.999837 0
0.00511861 -0.0181619 0.999822 0
0.00610968 -0.0179493 0.99982 0
0.00536465 -0.0174564 0.999833 0.000252889
0.00473939 -0.0171495 0.999842 0.000423401
0.00338821 -0.0170866 0.999848 0
0.00372637 -0.0169779 0.999849 0
0.00247152 -0.0169477 0.999853 0
0.000737527 -0.0169143 0.999857 0.00265176
0.00328781 -0.0172742 0.999845 0.00275471
0.00603769 -0.0174957 0.999829 0.00208935
0.00578788 -0.0175355 0.99983 0.000798268
0.00212474 -0.0174679 0.999845 0.00243413
0.000510235 -0.0176319 0.999844 0.00405507
-0.000513863 -0.0177949 0.999842 0.0042042
0.00174324 -0.0184712 0.999828 0.00131596
0.00303 -0.0188558 0.999818 0.00141214
0.00238254 -0.0191692 0.999813 0.00197406
0.00425782 -0.0197685 0.999795 0.00163897
0.00427673 -0.0203467 0.999784 0.00246509
0.00492365 -0.0208486 0.999771 0.00326395
0.00466833 -0.0213933 0.99976 0.00446215
0.00278637 -0.0219519 0.999755 0.00724927
0.00510219 -0.0228762 0.999725 0.00471957
0.0041196 -0.0235191 0.999715 0.00401759
0.00405418 -0.0241736 0.9997 0.0089906
0.00136132 -0.0245129 0.999699 0.00711595
0.000689178 -0.0248974 0.99969 0.00676003
-0.000658236 -0.0254195 0.999677 0.00774409
0.00113982 -0.0264942 0.999648 0.00515186
-5.70963e-05 -0.0270705 0.999634 0.00613366
-0.0007988 -0.0273262 0.999626 0.00689158
0.00026258 -0.0278241 0.999613 0.00829504
0.00121195 -0.0282953 0.999599 0.00582596
0.00128527 -0.0285158 0.999592 0.00812635
0.00133698 -0.0289271 0.999581 0.00909885
0.00219233 -0.0294582 0.999564 0.00751146
0.00510958 -0.0302005 0.999531 0.00578422
0.0040622 -0.0306996 0.99952 0.00901331
0.00492387 -0.0312388 0.9995 0.00978739
0.00386445 -0.0317037 0.99949 0.0104362
0.00405078 -0.0321762 0.999474 0.00976686
0.00521739 -0.0327339 0.99945 0.00879665
0.00454875 -0.0331131 0.999441 0.00895969
0.00358402 -0.0333044 0.999439 0.0110429
0.00266183 -0.0339751 0.999419 0.0131002
0.00123256 -0.0342378 0.999413 0.0135243
0.00355322 -0.0352234 0.999373 0.0115502
0.00210348 -0.0356207 0.999363 0.0121514
0.00184389 -0.0360946 0.999347 0.0104379
0.00240986 -0.036807 0.999319 0.0119177
0.00490838 -0.0373505 0.99929 0.0106839
0.00520618 -0.0403784 0.999171 0.00900259
0.00930219 -0.0409504 0.999118 0.0072517
0.0105873 -0.0410821 0.9991 0.00995293
0.0122942 -0.0412364 0.999074 0.00728666
0.0119962 -0.0414139 0.99907 0.00732871
0.014137 -0.0414411 0.999041 0.00646456
0.0135091 -0.0412048 0.999059 0.00789186
0.0167401 -0.0416558 0.998992 0.007472
0.0184898 -0.041489 0.998968 0.00270832
0.0177887 -0.0415605 0.998978 0.00397718
0.0215499 -0.0426049 0.99886 0.00569707
0.0232069 -0.0426834 0.998819 0.00781702
0.0242151 -0.0427492 0.998792 0.0053048
0.0279191 -0.0433402 0.99867 0.00406343
0.00248347 -0.017715 0.99984 0.00442084
-0.00113833 -0.0184552 0.999829 0.00827637
-0.000837158 -0.0195035 0.999809 0.00537631
-0.0033986 -0.0205757 0.999783 0.00582671
-0.00172571 -0.0200438 0.999798 0.00753293
-0.00115243 -0.0190204 0.999818 0
0.000297102 -0.0182083 0.999834 0.00150845
-0.00104063 -0.0203038 0.999793 0.00411606
-0.00171879 -0.021303 0.999772 0.00713636
-0.000715918 -0.0199749 0.9998 0.00246706
0.00116402 -0.0192388 0.999814 0
-0.00147676 -0.0215384 0.999767 0
-0.0025002 -0.0226432 0.99974 0
-0.00211715 -0.023247 0.999727 0
6.13424e-05 -0.0229433 0.999737 0
0.000809821 -0.0229547 0.999736 0
0.00139636 -0.0235194 0.999722 0
0.00275935 -0.0238567 0.999712 0
0.00290684 -0.0244958 0.999696 0
0.00173349 -0.0246753 0.999694 0
0.00237187 -0.0250504 0.999683 0
0.0023188 -0.0252021 0.99968 0
0.00274117 -0.0254153 0.999673 0
0.00230265 -0.0259171 0.999661 0
0.0027482 -0.0260571 0.999657 0
0.00299748 -0.0261072 0.999655 0
0.0032139 -0.0262827 0.999649 0
0.00243991 -0.0269493 0.999634 0.00114868
0.00213905 -0.0270441 0.999632 0.00213244
0.00391089 -0.0268044 0.999633 0.000829185
0.0045934 -0.026437 0.99964 0.000227188
0.00529825 -0.0267307 0.999629 0
0.00340963 -0.0275461 0.999615 0.00288135
0.00343631 -0.0272347 0.999623 0.000463195
0.00346249 -0.0272043 0.999624 0
0.00456562 -0.0267786 0.999631 0
0.00654016 -0.0264636 0.999628 0
0.00305007 -0.0270775 0.999629 0.00169759
0.00609528 -0.0262875 0.999636 0
0.00615735 -0.0261131 0.99964 0.000728571
0.00375317 -0.0260969 0.999652 0.00204843
0.00431402 -0.0257613 0.999659 0.00313649
0.00484685 -0.0252445 0.99967 0.00206199
0.00491044 -0.0250891 0.999673 0.000122636
0.00685966 -0.0251714 0.99966 0.00224025
0.00616469 -0.0252201 0.999663 0.00255853
0.00648498 -0.0249006 0.999669 0.00294241
0.00932345 -0.0246127 0.999654 0.000346086
0.00437236 -0.0245497 0.999689 0.000188051
0.00856187 -0.0241198 0.999672 0
0.00648683 -0.0240497 0.99969 0
0.00946913 -0.0238883 0.99967 0
0.0111293 -0.0232893 0.999667 0
0.0121102 -0.0230364 0.999661 0
0.0130922 -0.0230539 0.999649 0
0.011158 -0.0229076 0.999675 0
0.0112888 -0.0227958 0.999676 0
0.0122799 -0.0228272 0.999664 0
0.0150729 -0.0229623 0.999623 0
0.011975 -0.0227789 0.999669 0
0.0106984 -0.0227071 0.999685 0
0.0120277 -0.0228776 0.999666 0
0.0103869 -0.0226313 0.99969 0
0.0107769 -0.0225503 0.999688 0
0.0138338 -0.0223871 0.999654 0
0.0117149 -0.0220823 0.999688 0
0.0135662 -0.021904 0.999668 0
0.00858044 -0.0212752 0.999737 0
0.00744869 -0.0212148 0.999747 0
0.0071719 -0.0210047 0.999754 0
0.00430381 -0.0208253 0.999774 0
0.00351117 -0.02066 0.99978 0
0.00162359 -0.0203727 0.999791 0
0.00440842 -0.0201466 0.999787 0
0.00526351 -0.0197913 0.99979 0
0.00217397 -0.0194008 0.999809 0
0.000555963 -0.0191808 0.999816 0
-0.00347229 -0.018559 0.999822 0
-0.00401606 -0.0186499 0.999818 0
-0.00442735 -0.0189188 0.999811 0.00415796
-0.00204384 -0.0188843 0.99982 0.00248056
-0.0035509 -0.0187359 0.999818 0.00015578
-0.00645975 -0.0183976 0.99981 0.0019085
-0.00220512 -0.018026 0.999835 0
-0.00311022 -0.0177146 0.999838 0
-0.00458158 -0.0173553 0.999839 0.00319832
-0.00377498 -0.0173773 0.999842 0.00193882
-0.00340422 -0.0174645 0.999842 0.00334978
-0.00177627 -0.0176198 0.999843 0.0032937
-0.000637197 -0.0172279 0.999851 0.00131784
-0.00303764 -0.0172198 0.999847 0.00298737
-0.00205809 -0.0174426 0.999846 0.00220468
-0.0032463 -0.0173171 0.999845 0.00529311
-0.00633192 -0.0171283 0.999833 0.00344637
-0.00712185 -0.0169451 0.999831 0.0041172
-0.00782678 -0.0165066 0.999833 0.00382228
-0.00204395 -0.0164257 0.999863 0.00128357
-0.00848873 -0.0160681 0.999835 0.00778934
-0.0085122 -0.0160566 0.999835 0.00677999
-0.00884845 -0.0156664 0.999838 0.00807982
-0.00325865 -0.0152771 0.999878 0.00108386
-0.00506518 -0.0149064 0.999876 0.00458724
-0.00507096 -0.0144899 0.999882 0.00470658
-0.00351742 -0.0143447 0.999891 0.00382299
-0.000678375 -0.0141382 0.9999 0.000252721
-0.00500949 -0.0135955 0.999895 0.00452279
-0.00774768 -0.0130834 0.999884 0.00435463
-0.0113118 -0.0127386 0.999855 0.0100177
-0.0120899 -0.0122567 0.999852 0.0111988
-0.0128929 -0.01196 0.999845 0.0118994
-0.0123899 -0.0115111 0.999857 0.0102141
-0.0125866 -0.011046 0.99986 0.00669931
-0.0162534 -0.0109598 0.999808 0.00896349
-0.0109508 -0.0107108 0.999883 0.00511572
-0.0168068 -0.0104715 0.999804 0.00902706
-0.0136408 -0.00990685 0.999858 0.00796683
-0.00800594 -0.00937665 0.999924 0.0032337
-0.0111016 -0.00908225 0.999897 0.00788383
-0.00964398 -0.00884752 0.999914 0.0074592
-0.0103674 -0.00821078 0.999913 0.0026271
-0.00626737 -0.00788234 0.999949 0
-0.0110814 -0.00736829 0.999911 0.00266663
-0.0144545 -0.00706838 0.99987 0.00311412
-0.010775 -0.00669099 0.99992 0
-0.0127903 -0.00654807 0.999897 0
-0.0171877 -0.00669058 0.99983 0.00323403
-0.0168445 -0.00636937 0.999838 0.00248671
-0.0160671 -0.00586186 0.999854 0
-0.0153733 -0.00602793 0.999864 0
-0.0182523 -0.00598372 0.999815 0.00288091
-0.0158045 -0.00534528 0.999861 0.000603915
-0.0161841 -0.00539195 0.999855 0.000700264
-0.0184329 -0.00553786 0.999815 0.000881307
-0.0137057 -0.00561746 0.99989 0
-0.0168297 -0.00567938 0.999842 0
-0.0157801 -0.00569378 0.999859 0
-0.0167216 -0.00586371 0.999843 0
-0.0204501 -0.00623421 0.999771 0
-0.0172885 -0.00656595 0.999829 0
-0.0146514 -0.00688898 0.999869 0
-0.0175203 -0.00734747 0.99982 0
-0.0183395 -0.007559 0.999803 0
-0.0181608 -0.00788677 0.999804 0
-0.0176861 -0.00839256 0.999808 0
-0.0202884 -0.00859264 0.999757 0
-0.0225919 -0.00877126 0.999706 0
-0.0245162 -0.00901558 0.999659 0.0024375
-0.0268309 -0.00955612 0.999594 0
-0.0247763 -0.00991917 0.999644 0
-0.0264982 -0.0102855 0.999596 0
-0.0248071 -0.0105528 0.999637 0
-0.0247617 -0.0103187 0.99964 0
-0.0282589 -0.0103586 0.999547 0
-0.0266287 -0.0102664 0.999593 0.00173196
-0.0304555 -0.0104815 0.999481 0.00504239
-0.0262467 -0.010569 0.9996 0.00558572
-0.0304434 -0.0105025 0.999481 0.00417169
-0.0340116 -0.0107018 0.999364 0.00923124
-0.026995 -0.010767 0.999578 0.00241233
-0.0249917 -0.0110631 0.999626 0.00119889
-0.0255627 -0.0114122 0.999608 0.002434
-0.0303471 -0.0115205 0.999473 0.00177901
-0.0316579 -0.0119256 0.999428 0.00553064
-0.0338582 -0.0121214 0.999353 0.00332809
-0.033405 -0.0122225 0.999367 0.00382127
-0.0387768 -0.0123956 0.999171 0.00419326
-0.037778 -0.0127141 0.999205 0.00346751
-0.0370156 -0.0128528 0.999232 0.00144197
-0.0340794 -0.0131895 0.999332 0
-0.0313293 -0.0133956 0.999419 0
-0.0362387 -0.0136117 0.99925 0
-0.033622 -0.0137928 0.99934 0
-0.0324167 -0.0140567 0.999376 0
-0.0338422 -0.0141343 0.999327 0
-0.0333854 -0.0140381 0.999344 0
-0.0362913 -0.0141683 0.999241 0.000623482
-0.0378338 -0.0145259 0.999178 0.00060869
-0.0331669 -0.0148327 0.99934 0
-0.0323198 -0.0149438 0.999366 0
-0.0307747 -0.0150345 0.999413 0
-0.0354377 -0.0150388 0.999259 9.19463e-05
-0.0407782 -0.0151708 0.999053 0.00377133
-0.0386877 -0.0153297 0.999134 0.00179362
-0.0383271 -0.0154417 0.999146 0
-0.0407211 -0.0156328 0.999048 0.00178579
-0.0396408 -0.0157223 0.99909 0.001061
-0.042267 -0.0157656 0.998982 0.00487847
-0.0432722 -0.0155663 0.998942 0.0016668
-0.0388845 -0.015623 0.999122 0
-0.0398763 -0.0155538 0.999084 0.0027089
-0.0397905 -0.0154995 0.999088 0.00240422
-0.0396091 -0.015446 0.999096 0.00318532
-0.0428481 -0.0153781 0.998963 0.00947768
-0.0443724 -0.0153926 0.998896 0.0110886
-0.0466005 -0.0155283 0.998793 0.0130751
-0.0480278 -0.0154675 0.998726 0.0140267
-0.0428677 -0.0153276 0.998963 0.00611414
-0.0417997 -0.0152025 0.99901 0.0031584
-0.0476429 -0.0149737 0.998752 0.00473673
-0.0465166 -0.0147266 0.998809 0.00279987
-0.0500143 -0.0146425 0.998641 0.00646232
-0.0555241 -0.0146566 0.99835 0.0100135
-0.0521599 -0.0146725 0.998531 0.00556514
-0.0501699 -0.0147069 0.998632 0.00248653
-0.0483218 -0.0148897 0.998721 0
-0.0452459 -0.0147791 0.998867 0
-0.0459004 -0.0146578 0.998838 0
-0.0485571 -0.0148177 0.998711 0.00342292
-0.0492069 -0.0149721 0.998676 0.00324704
-0.0509651 -0.0148833 0.99859 0.00444805
-0.0532915 -0.0150587 0.998465 0.00790487
-0.0576575 -0.0151303 0.998222 0.00878735
-0.0596695 -0.0152202 0.998102 0.0101796
-0.0571464 -0.0154049 0.998247 0.00868361
-0.0581378 -0.0157012 0.998185 0.00784954
-0.0561181 -0.0155238 0.998303 0.00190637
-0.0570531 -0.0157266 0.998247 0.000413823
-0.0602112 -0.0160155 0.998057 0.00440743
-0.0587164 -0.01629 0.998142 0.00331548
-0.0547144 -0.016689 0.998363 0
-0.0563903 -0.016773 0.998268 0
-0.0518247 -0.0172508 0.998507 0
-0.0492689 -0.0177278 0.998628 0
-0.0526102 -0.0176338 0.998459 0
-0.0525111 -0.0177506 0.998463 0
-0.0487565 -0.0181293 0.998646 0
-0.0511965 -0.018257 0.998522 0
-0.0533474 -0.0183199 0.998408 0.00346418
-0.0534725 -0.0186659 0.998395 0.00198067
-0.0490239 -0.019171 0.998614 0.00237291
-0.0492232 -0.0191944 0.998603 0.0031619
-0.0473234 -0.0193252 0.998693 0.00156473
-0.0452952 -0.0193566 0.998786 0
-0.0443434 -0.0194834 0.998826 0.000678439
-0.0409231 -0.0197366 0.998967 0
-0.0431689 -0.0196574 0.998874 0
-0.0451419 -0.0198317 0.998784 0.000836618
-0.0426816 -0.020221 0.998884 0.000439445
-0.0439804 -0.020321 0.998826 0.00162874
-0.0411551 -0.0203261 0.998946 0.00233904
-0.0406457 -0.0203017 0.998967 0.00260259
-0.04288 -0.0204262 0.998871 0.00460087
-0.038905 -0.0207465 0.999028 0.00405068
-0.0416568 -0.020318 0.998925 0.00458759
-0.0382342 -0.0200933 0.999067 0.00483054
-0.042926 -0.0195825 0.998886 0.00869016
-0.0457705 -0.0195036 0.998762 0.00757643
-0.0453085 -0.0194502 0.998784 0.00783061
-0.0486096 -0.0194596 0.998628 0.00924807
-0.051019 -0.0194043 0.998509 0.0109471
-0.0553336 -0.0193897 0.99828 0.0136751
-0.0559328 -0.0194211 0.998246 0.0152836
-0.0559894 -0.01936 0.998244 0.0164429
-0.0532589 -0.019895 0.998383 0.0131058
-0.0535706 -0.0198979 0.998366 0.0128522
-0.0544478 -0.0201318 0.998314 0.0139108
-0.0545153 -0.0204275 0.998304 0.0144484
-0.0539218 -0.020787 0.998329 0.0157199
-0.053485 -0.0211427 0.998345 0.0155882
-0.0530081 -0.0216031 0.99836 0.0141831
-0.0515059 -0.0221058 0.998428 0.0126358
-0.0551335 -0.0223064 0.99823 0.0125458
-0.0554566 -0.0226929 0.998203 0.0152328
-0.0543213 -0.022831 0.998263 0.0118435
-0.055213 -0.0232448 0.998204 0.0124889
-0.0525342 -0.0237488 0.998337 0.0110338
-0.049973 -0.0242035 0.998457 0.00794961
-0.0500362 -0.0246029 0.998444 0.00738801
-0.0518213 -0.0248182 0.998348 0.00589302
-0.0518468 -0.0248599 0.998346 0.00454014
-0.0477914 -0.025499 0.998532 0.0027847
-0.0461627 -0.0261744 0.998591 0.00289038
-0.0448929 -0.0268046 0.998632 0.00235748
-0.0473405 -0.0269229 0.998516 0.00497576
-0.0457089 -0.0270558 0.998588 0.00297946
-0.0490355 -0.0265727 0.998443 0.0039249
-0.0490823 -0.0265975 0.998441 0.0042381
-0.0413717 -0.0270386 0.998778 0.00182418
-0.0411049 -0.0270272 0.998789 0.00186528
-0.0362257 -0.0274083 0.998968 0
-0.036238 -0.027418 0.998967 0.000769241
-0.037495 -0.0275362 0.998917 0
-0.0370386 -0.0277762 0.998928 0
-0.0376405 -0.0279182 0.998901 0
-0.0385738 -0.0279623 0.998864 0
-0.0365755 -0.0281302 0.998935 0
-0.0353984 -0.0282602 0.998974 0
-0.0354095 -0.0283548 0.998971 0
-0.0364265 -0.0283848 0.998933 0
-0.0339633 -0.028631 0.999013 0
-0.0387168 -0.0283915 0.998847 0
-0.0393466 -0.0285263 0.998818 0
-0.0379445 -0.0288409 0.998864 0
-0.0418272 -0.0286165 0.998715 0.00028472
-0.0448305 -0.0286299 0.998584 0.00376077
-0.0427774 -0.0290127 0.998663 0.00416557
-0.0414596 -0.0293082 0.99871 0.00292746
-0.0383781 -0.0294324 0.99883 0.000643791
-0.0394281 -0.0293861 0.99879 0.000564543
-0.0416538 -0.0292909 0.998703 0.00247705
-0.0391567 -0.0296245 0.998794 0.00354706
-0.0367147 -0.0303406 0.998865 0.00420532
-0.0367663 -0.0308335 0.998848 0.00553818
-0.0405307 -0.0304795 0.998713 0.00801748
-0.0399447 -0.0306445 0.998732 0.0088038
-0.0426444 -0.0301909 0.998634 0.00813795
-0.044357 -0.029743 0.998573 0.00748936
-0.0417136 -0.0299936 0.998679 0.00520502
-0.0412468 -0.0300504 0.998697 0.00680783
-0.0397129 -0.0300574 0.998759 0.00466538
-0.040732 -0.0296925 0.998729 0.00508172
-0.0398386 -0.0295057 0.99877 0.0065902
-0.0413052 -0.0290174 0.998725 0.00875209
-0.0411319 -0.0290031 0.998733 0.0115905
-0.0421885 -0.0285597 0.998701 0.0122493
-0.0397928 -0.0281993 0.99881 0.00853326
-0.0391618 -0.0279572 0.998842 0.0102706
-0.0427179 -0.027415 0.998711 0.014013
-0.0422838 -0.0271468 0.998737 0.0145863
-0.043642 -0.0267456 0.998689 0.0166757
-0.0438868 -0.0263115 0.99869 0.014392
-0.0432447 -0.0260535 0.998725 0.0126083
-0.0387783 -0.0259266 0.998911 0.011346
-0.0397488 -0.0254555 0.998885 0.00984351
-0.0423692 -0.0248408 0.998793 0.01036
-0.0371648 -0.0249118 0.998999 0.0058792
-0.0349806 -0.024662 0.999084 0.00299338
-0.0347005 -0.0243231 0.999102 0.00489372
-0.0344353 -0.0244464 0.999108 0.00397095
-0.0376831 -0.0236723 0.999009 0.00348244
-0.0353156 -0.0232633 0.999105 0.00080926
-0.035717 -0.0234269 0.999087 8.71939e-05
-0.0355079 -0.0235021 0.999093 0.00239437
-0.0366642 -0.0232444 0.999057 0.00165881
-0.0343169 -0.0234633 0.999136 0.000276649
-0.0318715 -0.0238006 0.999209 0.000526272
-0.0360483 -0.0239662 0.999063 0.00603764
-0.0325742 -0.0263623 0.999122 0.00853323
-0.0305344 -0.0269874 0.999169 0.00846006
-0.0305011 -0.0272113 0.999164 0.00924672
-0.0306847 -0.0272258 0.999158 0.0100725
-0.0302907 -0.02748 0.999163 0.0128545
-0.0316447 -0.0249965 0.999187 0.00702962
-0.028095 -0.0251554 0.999289 0.00727158
-0.0300841 -0.0250518 0.999233 0.0108174
-0.0262428 -0.0250244 0.999342 0.00791505
-0.0268313 -0.0253154 0.999319 0.00757004
-0.0248892 -0.0255478 0.999364 0.00849316
-0.0234061 -0.0260218 0.999387 0.00731802
-0.0226333 -0.0261635 0.999401 0.00856127
-0.0238034 -0.0264496 0.999367 0.0084186
-0.024493 -0.0264787 0.999349 0.00596723
-0.0223934 -0.0266496 0.999394 0.00305641
-0.0216077 -0.0265201 0.999415 0.0025246
-0.0255162 -0.0262108 0.999331 0.0062187
-0.0256477 -0.0258846 0.999336 0.00521093
-0.0228385 -0.0258346 0.999405 0.00295563
-0.023764 -0.0254879 0.999393 0.00545557
-0.0236729 -0.0254572 0.999396 0.0075404
-0.0223933 -0.0251991 0.999432 0.00731193
-0.0198169 -0.0253319 0.999483 0.00819424
-0.0201834 -0.0251826 0.999479 0.00992174
-0.0210728 -0.0248143 0.99947 0.00819527
-0.0168361 -0.025058 0.999544 0.00700614
-0.015678 -0.0248679 0.999568 0.00701531
-0.0187968 -0.0245915 0.999521 0.00882603
-0.0229996 -0.0239934 0.999448 0.0119817
-0.0211385 -0.0237694 0.999494 0.0089423
-0.0195463 -0.0242156 0.999516 0.00756689
-0.0181343 -0.024248 0.999541 0.00502416
-0.0173244 -0.0239723 0.999563 0.00172359
-0.0146695 -0.0236322 0.999613 0
-0.016565 -0.0237052 0.999582 0.0024518
-0.016694 -0.0237087 0.999579 0.00284486
-0.0168635 -0.0237072 0.999577 0.0038442
-0.0150218 -0.0236891 0.999607 0.00245154
-0.0121693 -0.0239866 0.999638 0
-0.0106192 -0.0227507 0.999685 0
-0.00951641 -0.0223355 0.999705 0
-0.00575361 -0.0224906 0.99973 0
-0.00630179 -0.0227633 0.999721 0
-0.00798285 -0.0224395 0.999716 0
-0.00793681 -0.0221152 0.999724 0
-0.00686861 -0.0220841 0.999733 0
-0.00843665 -0.0211923 0.99974 0.000943857
-0.00896084 -0.021114 0.999737 0.00179536
-0.0108077 -0.0210589 0.99972 0.00219227
-0.0125966 -0.0206313 0.999708 0.00642314
-0.0164841 -0.0204853 0.999654 0.00791036
-0.0176418 -0.0204882 0.999634 0.00826941
-0.0132976 -0.020479 0.999702 0.00680524
-0.0138308 -0.0197583 0.999709 0.00563238
-0.0143098 -0.019693 0.999704 0.0049752
-0.0175226 -0.0189436 0.999667 0.00787977
-0.0147263 -0.0177098 0.999735 0
-0.010974 -0.0172233 0.999791 0
-0.0103164 -0.0171448 0.9998 0
-0.0107017 -0.0177529 0.999785 0
-0.00681352 -0.0175078 0.999824 0
-0.00481197 -0.017481 0.999836 0
-0.00318761 -0.0175261 0.999841 0
-0.00393975 -0.0173164 0.999842 0
-0.00462287 -0.0168809 0.999847 0
-0.00340374 -0.0169778 0.99985 0
-0.00498763 -0.0164502 0.999852 0
-0.00438181 -0.0160337 0.999862 0.000113355
-0.00657073 -0.0156232 0.999856 0.00343345
-0.00805212 -0.0151871 0.999852 0.00152928
-0.00374815 -0.0158351 0.999868 0.000540478
-0.00296705 -0.0160959 0.999866 0
-0.00409462 -0.0160581 0.999863 0
-0.00424945 -0.0166439 0.999852 0
-0.00445149 -0.0175132 0.999837 0
-0.00555829 -0.0175591 0.99983 0
-0.00667978 -0.0186671 0.999803 0.00524905
-0.00329312 -0.0194625 0.999805 0.00353448
-0.00585418 -0.019839 0.999786 0.00630749
-0.00458456 -0.0204401 0.999781 0.00476165
-0.00460012 -0.0211394 0.999766 0.0047036
-0.00463976 -0.0218673 0.99975 0.00420071
-0.00664352 -0.0222262 0.999731 0.00495778
-0.00631706 -0.0230613 0.999714 0.00659236
-0.00600411 -0.0235869 0.999704 0.00741842
-0.00734869 -0.0240666 0.999683 0.00874061
-0.00700149 -0.0245573 0.999674 0.00875477
-0.00620244 -0.026906 0.999619 0.00925883
-0.00830848 -0.0272508 0.999594 0.00909978
-0.00717301 -0.0278639 0.999586 0.00782186
-0.00658171 -0.0281484 0.999582 0.00797821
-0.00918075 -0.0281412 0.999562 0.0105909
-0.00766792 -0.028735 0.999558 0.00967394
-0.00426372 -0.0297444 0.999548 0.00581405
-0.00541667 -0.0302863 0.999527 0.00624815
-0.00208266 -0.0311889 0.999511 0.00618228
-0.00356021 -0.0312315 0.999506 0.00585252
-0.00235811 -0.0319817 0.999486 0.00607361
-0.00473194 -0.0320578 0.999475 0.00964166
-0.00384988 -0.0323918 0.999468 0.0103927
-0.00125386 -0.0334219 0.999441 0.0102928
-0.00203966 -0.0339567 0.999421 0.00998609
-0.00226991 -0.0344326 0.999404 0.0114219
-0.00255126 -0.0350695 0.999382 0.0111163
-0.00186239 -0.0358512 0.999355 0.0100352
-0.0012494 -0.0368856 0.999319 0.0112533
-0.000723788 -0.0376974 0.999289 0.0110369
-0.00077281 -0.038358 0.999264 0.0144118
-3.10626e-05 -0.0389969 0.999239 0.0138812
0.000439438 -0.0395834 0.999216 0.0100195
0.00237184 -0.0401564 0.999191 0.00736183
-0.0045784 -0.0178074 0.999831 0
-0.00794405 -0.0195832 0.999777 0.0017397
-0.00752874 -0.0193785 0.999784 0.00171542
-0.00878526 -0.0206327 0.999749 0.00513289
-0.00913369 -0.0213181 0.999731 0.0106771
-0.00853909 -0.0209672 0.999744 0.00611463
-0.00782238 -0.0217371 0.999733 0.00657539
-0.00864047 -0.0232593 0.999692 0.0054293
-0.0094573 -0.0231399 0.999688 0.00553385
-0.00491292 -0.0214927 0.999757 0
-0.00551359 -0.0227229 0.999727 0
-0.00773144 -0.0243503 0.999674 0.00132501
-0.00534192 -0.0236479 0.999706 0
-0.00265276 -0.0236143 0.999718 0
-0.00340863 -0.0243617 0.999697 0
-0.00495864 -0.0254619 0.999663 0
-0.00396525 -0.0256293 0.999664 0.000841256
-0.00335528 -0.0257999 0.999661 0
-0.00190219 -0.0256106 0.99967 0
-0.0031441 -0.026076 0.999655 0
-0.00199835 -0.0261899 0.999655 0
-0.000351557 -0.0258962 0.999665 0
-0.00128545 -0.0263467 0.999652 0
-0.000329397 -0.026386 0.999652 0
-0.0010788 -0.0270563 0.999633 0
-0.00126867 -0.0274267 0.999623 0.00115741
0.000926376 -0.0271979 0.99963 0
-0.000322203 -0.027318 0.999627 0.00171783
0.000595444 -0.0275667 0.99962 0.00338965
0.00325333 -0.026665 0.999639 0.00163269
0.0028671 -0.0271081 0.999628 0.00123061
0.00463088 -0.0270511 0.999623 0.00185113
0.00251215 -0.0279746 0.999606 0.00415789
0.000448723 -0.0282542 0.999601 0.00306985
0.000457145 -0.0276531 0.999617 0.00164122
0.00177159 -0.0269812 0.999634 0
0.00247869 -0.0269359 0.999634 0.00210982
0.00257318 -0.0269353 0.999634 0.00277507
0.0032384 -0.0262302 0.999651 0.000413218
0.003691 -0.0262868 0.999648 0.00216372
0.00118119 -0.0261071 0.999658 0.00338464
0.00236099 -0.0257423 0.999666 0.0028025
0.00175972 -0.0251871 0.999681 0.00125174
0.0010868 -0.0247912 0.999692 0.00112389
0.00201442 -0.0246472 0.999694 0.000500605
0.00325152 -0.024588 0.999692 0.000847843
-0.000699639 -0.0244531 0.999701 0.00174161
0.00151624 -0.0242473 0.999705 0.0017323
-0.000988123 -0.0238588 0.999715 0.00120246
-0.000202318 -0.0237277 0.999718 0
0.00321417 -0.0234375 0.99972 0
0.00559939 -0.0232154 0.999715 0
0.00569041 -0.0230038 0.999719 0
0.00402087 -0.0228263 0.999731 0
0.00433062 -0.0226272 0.999735 0
0.0067615 -0.0222945 0.999729 0
0.00580596 -0.0222809 0.999735 0
0.00913516 -0.0224047 0.999707 0
0.00879189 -0.0224208 0.99971 0
0.00759693 -0.0222845 0.999723 0
0.00593103 -0.0222167 0.999736 0
0.00829889 -0.0220629 0.999722 0
0.00557807 -0.0216504 0.99975 0
0.00457965 -0.0217283 0.999753 0
0.00515106 -0.0216292 0.999753 0
0.00547047 -0.0214314 0.999755 0
0.0106658 -0.0212215 0.999718 0
0.00738366 -0.0206006 0.999761 0
0.00345111 -0.0204182 0.999786 0
-5.323e-05 -0.0200498 0.999799 0
-0.000903687 -0.0204444 0.999791 0
-0.000438874 -0.0201437 0.999797 0
-0.000417356 -0.0198295 0.999803 0
-0.00205218 -0.0192996 0.999812 0
-0.00249641 -0.0189209 0.999818 0
-0.00424446 -0.0186091 0.999818 0
-0.00863399 -0.0181496 0.999798 0
-0.00909918 -0.017972 0.999797 0
-0.0100302 -0.0180533 0.999787 0
-0.00760519 -0.0180724 0.999808 0
-0.00704397 -0.0180122 0.999813 0
-0.00788534 -0.0178924 0.999809 0
-0.00865997 -0.0176995 0.999806 0.00170161
-0.0048613 -0.017394 0.999837 0.00075228
-0.00627991 -0.0167994 0.999839 0.00065295
-0.00387778 -0.0168558 0.99985 0
-0.00268868 -0.0168575 0.999854 0
-0.00210417 -0.0170459 0.999852 0.00196104
-0.00163665 -0.0169046 0.999856 0.0029827
-0.00388639 -0.0164552 0.999857 0.00136882
-0.00282648 -0.0166485 0.999857 0.00153192
-0.0019726 -0.0169221 0.999855 0.00250209
-0.00403575 -0.0168705 0.99985 0.00463994
-0.00704342 -0.0164266 0.99984 0.00506599
-0.0107055 -0.0163439 0.999809 0.00743429
-0.0160494 -0.0162954 0.999738 0.0114176
-0.0138491 -0.016032 0.999776 0.0101882
-0.0142937 -0.0153872 0.999779 0.00892306
-0.0147356 -0.0151333 0.999777 0.00786417
-0.0129681 -0.0149207 0.999805 0.00721997
-0.0116532 -0.0144761 0.999827 0.0041385
-0.0121653 -0.0140936 0.999827 0.00462348
-0.0111798 -0.0139117 0.999841 0.00667074
-0.0123597 -0.013596 0.999831 0.00733204
-0.0131713 -0.013217 0.999826 0.00551927
-0.0131569 -0.0128346 0.999831 0.00584873
-0.0138113 -0.0124489 0.999827 0.0078118
-0.0155132 -0.011881 0.999809 0.00977044
-0.0148629 -0.0114254 0.999824 0.00817768
-0.0175239 -0.011073 0.999785 0.0115232
-0.0209103 -0.010548 0.999726 0.0108167
-0.0194544 -0.0103274 0.999757 0.00822629
-0.0197413 -0.0103855 0.999751 0.00784217
-0.0180287 -0.00994969 0.999788 0.00569893
-0.0166946 -0.00941244 0.999816 0.00495272
-0.019256 -0.0089068 0.999775 0.00508545
-0.0197177 -0.00849057 0.99977 0.00502745
-0.0153716 -0.00797682 0.99985 0.00382704
-0.0205493 -0.00762064 0.99976 0.0050145
-0.0196454 -0.00737069 0.99978 0.00706334
-0.0190439 -0.00682953 0.999795 0.00323612
-0.0199329 -0.00646589 0.99978 0.00306137
-0.0163842 -0.00612939 0.999847 0.00184201
-0.0168283 -0.00588326 0.999841 8.53649e-05
-0.0187577 -0.00546454 0.999809 0.000552385
-0.0211379 -0.00553892 0.999761 0.0015023
-0.0241531 -0.00521963 0.999695 0.000198863
-0.0230674 -0.00493311 0.999722 0
-0.0240348 -0.00484882 0.999699 0.000341766
-0.0241714 -0.00462856 0.999697 0
-0.0206352 -0.00438663 0.999777 0
-0.0209175 -0.00394538 0.999773 0
-0.019442 -0.00403231 0.999803 0
-0.0206958 -0.00422744 0.999777 0
-0.0203547 -0.00432281 0.999784 0
-0.0224868 -0.00453509 0.999737 0
-0.024768 -0.00479965 0.999682 0
-0.024278 -0.00515281 0.999692 0
-0.0270901 -0.00545376 0.999618 0
-0.0224666 -0.00570644 0.999731 0
-0.0227243 -0.00607091 0.999723 0
-0.0218529 -0.00647621 0.99974 0
-0.0224171 -0.00692103 0.999725 7.18042e-05
-0.0252898 -0.00733849 0.999653 0.00052565
-0.0267178 -0.00725342 0.999617 0.000782825
-0.0309586 -0.00739665 0.999493 0.00208556
-0.0336322 -0.00792527 0.999403 0.00259958
-0.0348627 -0.00841724 0.999357 0.00279321
-0.0352432 -0.00892378 0.999339 0.000849527
-0.0319255 -0.00911568 0.999449 0.00059967
-0.0333247 -0.00895226 0.999404 0.000101243
-0.0323488 -0.00890246 0.999437 0.00057517
-0.0345392 -0.00869158 0.999366 0.000465617
-0.0319477 -0.00875575 0.999451 0
-0.0353786 -0.00880692 0.999335 0.00279506
-0.0349116 -0.00891796 0.999351 0.00410978
-0.0354832 -0.00893378 0.99933 0.00625402
-0.0341905 -0.00931911 0.999372 0.00509807
-0.0352153 -0.00970954 0.999333 0.00612839
-0.0367029 -0.0100294 0.999276 0.00652646
-0.0366567 -0.0101385 0.999277 0.00491768
-0.0358086 -0.0105135 0.999303 0.0056941
-0.0362756 -0.0108949 0.999282 0.00627506
-0.0375803 -0.0110524 0.999232 0.00349927
-0.038736 -0.0112725 0.999186 0.00172024
-0.0398667 -0.0114302 0.99914 0.00121299
-0.0375237 -0.0116271 0.999228 0.00118895
-0.0440412 -0.0117579 0.998961 0.000727801
-0.0350447 -0.012127 0.999312 0
-0.0411366 -0.0124308 0.999076 0.000261745
-0.0389199 -0.0127319 0.999161 0
-0.0388041 -0.0130066 0.999162 0
-0.0426074 -0.0132632 0.999004 1.28842e-05
-0.0422263 -0.0131526 0.999021 0.00157926
-0.0431039 -0.0130129 0.998986 0.000206971
-0.0422849 -0.0131577 0.999019 0
-0.0395673 -0.0137229 0.999123 0
-0.0355333 -0.0140503 0.99927 0
-0.0365183 -0.0139489 0.999236 0
-0.0387246 -0.0141795 0.999149 0
-0.0384367 -0.0142329 0.99916 0
-0.042476 -0.0143393 0.998995 0.000165466
-0.0431867 -0.0145325 0.998961 0.00269631
-0.0446054 -0.0147406 0.998896 0.00416482
-0.0412327 -0.0149891 0.999037 0.000166886
-0.0471903 -0.0151391 0.998771 0.00411188
-0.0509435 -0.0151078 0.998587 0.00765705
-0.0476348 -0.0151993 0.998749 0.00435466
-0.0457974 -0.0152585 0.998834 0.00441552
-0.0461564 -0.015235 0.998818 0.006364
-0.0479612 -0.0150608 0.998736 0.00796595
-0.0454811 -0.0149994 0.998853 0.00292219
-0.044274 -0.0149668 0.998907 0.00580561
-0.0464029 -0.0148725 0.998812 0.00482309
-0.0498975 -0.0147231 0.998646 0.00718123
-0.0480778 -0.0150782 0.99873 0.00749433
-0.050419 -0.0148655 0.998618 0.00826262
-0.0504144 -0.0147828 0.998619 0.00854508
-0.0485588 -0.014576 0.998714 0.00652874
-0.0522628 -0.0140244 0.998535 0.00228956
-0.0543122 -0.0139928 0.998426 0.000255572
-0.0529216 -0.0140918 0.998499 0
-0.0546094 -0.0141735 0.998407 0.000496005
-0.056826 -0.0142236 0.998283 0.00403467
-0.0551032 -0.013982 0.998383 0.00202756
-0.0491061 -0.0143042 0.998691 0
-0.0492789 -0.0146636 0.998677 0
-0.0652651 -0.0149791 0.997756 0.00451536
-0.0655327 -0.0153685 0.997732 0.00211729
-0.0656759 -0.0157247 0.997717 0.00449594
-0.0656957 -0.0163775 0.997705 0.001473
-0.059981 -0.0169371 0.998056 0
-0.0618531 -0.0171198 0.997938 0
-0.0587315 -0.0175503 0.99812 0
-0.0558791 -0.0177662 0.998279 0
-0.0592665 -0.0177038 0.998085 0
-0.0556307 -0.0188664 0.998273 0
-0.0493975 -0.0193581 0.998592 0
-0.0522561 -0.019229 0.998449 0
-0.0526634 -0.0192677 0.998426 0
-0.0553165 -0.0192731 0.998283 0.000342627
-0.0507917 -0.0197505 0.998514 0
-0.05063 -0.0200403 0.998516 0
-0.0477234 -0.0203804 0.998653 0.00468722
-0.048285 -0.0201256 0.998631 0.00480354
-0.0455532 -0.0198175 0.998765 0.0030186
-0.0450136 -0.019582 0.998794 0.00373622
-0.0479004 -0.0193782 0.998664 0.00707871
-0.047578 -0.0195611 0.998676 0.00947626
-0.0534038 -0.0193205 0.998386 0.0130145
-0.0562073 -0.0193727 0.998231 0.0128575
-0.0539763 -0.0195652 0.998351 0.0123403
-0.0574896 -0.0195166 0.998155 0.0155018
-0.0566177 -0.019543 0.998205 0.0149524
-0.0636035 -0.0192914 0.997789 0.0153276
-0.068878 -0.0191558 0.997441 0.0189542
-0.0674042 -0.0197413 0.99753 0.0179715
-0.0632783 -0.0201203 0.997793 0.0165295
-0.0634283 -0.0204015 0.997778 0.0169396
-0.0636742 -0.0205469 0.997759 0.016641
-0.0604159 -0.0209888 0.997953 0.0147837
-0.0602895 -0.0213079 0.997953 0.0140533
-0.058818 -0.0216565 0.998034 0.0115479
-0.0579174 -0.0221217 0.998076 0.0107243
-0.0609068 -0.0225069 0.99789 0.0127373
-0.0586118 -0.0228575 0.998019 0.0141758
-0.0549357 -0.0235043 0.998213 0.0108744
-0.0584981 -0.0234081 0.998013 0.0105342
-0.0586617 -0.023884 0.997992 0.00819287
-0.0578577 -0.0239947 0.998036 0.0097673
-0.0552723 -0.0247175 0.998165 0.00794838
-0.0524977 -0.0251145 0.998305 0.00208984
-0.0537608 -0.025019 0.99824 0.00302232
-0.0550036 -0.0259862 0.998148 0.00287161
-0.0535688 -0.0268095 0.998204 0.00310972
-0.0521533 -0.0271169 0.998271 0.00180477
-0.0509847 -0.0266906 0.998343 0
-0.0487655 -0.0267544 0.998452 0
-0.0415178 -0.0277063 0.998754 0
-0.0460084 -0.0282215 0.998542 0
-0.0452429 -0.0284452 0.998571 0
-0.049901 -0.028259 0.998354 0.000563999
-0.0516285 -0.0283267 0.998264 0.00181909
-0.0491989 -0.0287151 0.998376 0.000456709
-0.0457145 -0.0293227 0.998524 0.00017198
-0.0471081 -0.0288526 0.998473 0.00179852
-0.0478407 -0.0296426 0.998415 0.00434383
-0.0455724 -0.0300546 0.998509 0.00609478
-0.0488454 -0.030057 0.998354 0.00746934
-0.0517209 -0.0296222 0.998222 0.0084273
-0.0490779 -0.0298098 0.99835 0.00786772
-0.0467746 -0.0297856 0.998461 0.0053846
-0.0429542 -0.0301413 0.998622 0.00718177
-0.0524325 -0.0286166 0.998214 0.0121444
-0.0494563 -0.0288027 0.998361 0.0125535
-0.0492971 -0.0281444 0.998388 0.0126768
-0.048868 -0.0282579 0.998405 0.0121848
-0.0450412 -0.0282386 0.998586 0.00869887
-0.0478444 -0.0277038 0.99847 0.0125384
-0.0463071 -0.0269645 0.998563 0.00989156
-0.0494532 -0.0264349 0.998427 0.0113624
-0.0458202 -0.0264528 0.998599 0.010534
-0.0470042 -0.0259531 0.998558 0.0105437
-0.0456879 -0.025359 0.998634 0.00845828
-0.0461684 -0.0252313 0.998615 0.00703685
-0.0461657 -0.024647 0.99863 0.00684295
-0.0466988 -0.0243441 0.998612 0.00602603
-0.0452789 -0.0241308 0.998683 0.00536411
-0.0449984 -0.0236983 0.998706 0.00572736
-0.0455713 -0.0235427 0.998684 0.00644543
-0.0448223 -0.0231321 0.998727 0.00468553
-0.0452678 -0.022642 0.998718 0.00627674
-0.0461819 -0.0225146 0.998679 0.00519966
-0.0463313 -0.0228747 0.998664 0.00440474
-0.0442791 -0.0230081 0.998754 0.00422301
-0.0424868 -0.0232868 0.998826 0.00267828
-0.0428942 -0.0234166 0.998805 0
-0.0390553 -0.0239182 0.998951 0
-0.0410588 -0.0234168 0.998882 0.00139871
-0.0432794 -0.0234481 0.998788 0.00443986
-0.0441702 -0.0234263 0.998749 0.00553168
-0.045174 -0.023389 0.998705 0.0035969
-0.0443592 -0.0238083 0.998732 0.00510258
-0.0394961 -0.0243929 0.998922 0.00232688
-0.0395079 -0.0247202 0.998913 0.00253536
-0.0376286 -0.0251827 0.998974 0.000248742
-0.0374393 -0.025821 0.998965 0.000722492
-0.0385576 -0.026103 0.998915 0.00430143
-0.036289 -0.0267399 0.998984 0.00416653
-0.0369709 -0.0271759 0.998947 0.0071762
-0.0381183 -0.0270631 0.998907 0.00974699
-0.0355555 -0.027398 0.998992 0.00686283
-0.0379567 -0.0277261 0.998895 0.0117151
-0.0395163 -0.0277677 0.998833 0.011068
-0.0361014 -0.0284134 0.998944 0.00899162
-0.0389928 -0.0283786 0.998836 0.0127674
-0.0371609 -0.028491 0.998903 0.0145711
-0.0384349 -0.0282268 0.998862 0.0108611
-0.0408162 -0.0280147 0.998774 0.011503
-0.0379022 -0.0282141 0.998883 0.00708002
-0.0377142 -0.0279266 0.998898 0.00413219
-0.0374494 -0.0277453 0.998913 0.00413065
-0.037654 -0.0277514 0.998905 0.000823056
-0.040381 -0.0271999 0.998814 0.00487187
-0.0403332 -0.0269831 0.998822 0.00570879
-0.0417703 -0.0267587 0.998769 0.0068452
-0.0408768 -0.0256256 0.998836 0.00885365
-0.0400511 -0.0251478 0.998881 0.00772235
-0.0373268 -0.0255835 0.998976 0.00522376
-0.03741 -0.025799 0.998967 0.00803101
-0.0396608 -0.0256064 0.998885 0.0096836
-0.0361037 -0.0257727 0.999016 0.00850769
-0.0329886 -0.0258428 0.999122 0.00590953
-0.0320126 -0.0255898 0.99916 0.00417814
-0.0342624 -0.0256388 0.999084 0.00720788
-0.0328423 -0.0251647 0.999144 0.00819993
-0.0301668 -0.0258078 0.999212 0.00748316
-0.0343456 -0.0254926 0.999085 0.0117676
-0.0355811 -0.0255593 0.99904 0.0116098
-0.0366021 -0.0258906 0.998994 0.0119927
-0.0358939 -0.025696 0.999025 0.00948765
-0.0336393 -0.0257638 0.999102 0.00670874
-0.0324662 -0.0260334 0.999134 0.00384964
-0.0329584 -0.025585 0.999129 0.00483089
-0.0352222 -0.0256808 0.99905 0.00859904
-0.0337704 -0.0253812 0.999107 0.00753984
-0.0294591 -0.0252857 0.999246 0.00392372
-0.0297758 -0.025226 0.999238 0.0053076
-0.0276447 -0.0252465 0.999299 0.00330179
-0.0240801 -0.0252966 0.99939 0.00235058
-0.0239406 -0.0249832 0.999401 0.0045532
-0.0244221 -0.0247768 0.999395 0.00559243
-0.0124669 -0.0165852 0.999785 0
-0.0149271 -0.0184954 0.999717 0.000442413
-0.0166053 -0.0200271 0.999661 0.00486259
-0.0169606 -0.0197255 0.999662 0.00038933
-0.0136696 -0.0190083 0.999726 0
-0.0158001 -0.0214775 0.999644 0
-0.0152516 -0.0221421 0.999638 0
-0.0136447 -0.0217886 0.999669 0.00241527
-0.0131807 -0.0224446 0.999661 0.000640549
-0.00887714 -0.0215951 0.999727 0
-0.00969432 -0.0225559 0.999699 0
-0.00874277 -0.0230451 0.999696 0
-0.00817574 -0.0232334 0.999697 0
-0.00990568 -0.0247089 0.999646 0.00117427
-0.0107792 -0.0258006 0.999609 0.00215033
-0.0112368 -0.0260873 0.999597 0.000751137
-0.0101142 -0.0266456 0.999594 0.00477499
-0.00763802 -0.0262956 0.999625 0.00233054
-0.0082256 -0.0270425 0.9996 0.00711244
-0.00571072 -0.0266346 0.999629 0.00397265
-0.00721428 -0.027296 0.999601 0.00366136
-0.00661585 -0.0275901 0.999597 0.00511136
-0.00583078 -0.0271551 0.999614 0.00143916
-0.00555581 -0.0274284 0.999608 0.00306967
-0.00425044 -0.0271912 0.999621 0.0026222
-0.00476525 -0.027689 0.999605 0.0035831
-0.00621077 -0.0278603 0.999592 0.0012594
-0.0042644 -0.027185 0.999621 0
-0.00482682 -0.0279899 0.999596 0.00179336
-0.00153751 -0.0267604 0.999641 0
