-0.0696433 -0.00548628 0.997557 0.00562489
-0.0709391 -0.00526103 0.997467 0.00534156
-0.070407 -0.00461529 0.997508 0.00377758
-0.0702151 -0.00436541 0.997522 0.00347244
-0.0696019 -0.00431597 0.997566 0.00375952
-0.0697315 -0.00441536 0.997556 0.00198586
-0.0702068 -0.00454491 0.997522 0.000627914
-0.0698883 -0.00446673 0.997545 0
-0.0674968 -0.00423284 0.997711 0
-0.0654936 -0.00408781 0.997845 0
-0.0647527 -0.00422806 0.997892 0
-0.0669673 -0.0046229 0.997745 0.000513364
-0.0674985 -0.00493835 0.997707 0
-0.0714413 -0.00533939 0.997431 0
-0.0712987 -0.00549403 0.99744 0
-0.0711468 -0.0057644 0.997449 0
-0.07167 -0.00606149 0.99741 0
-0.0730913 -0.00646756 0.997304 0.000790264
-0.0743643 -0.00693542 0.997207 0.00319944
-0.0743337 -0.00728744 0.997207 0.00149393
-0.0765705 -0.00772038 0.997034 0.00120293
-0.0749808 -0.0080046 0.997153 0
-0.0756727 -0.00849369 0.997097 0
-0.0750303 -0.00880436 0.997142 0
-0.0771263 -0.00920158 0.996979 0
-0.0760759 -0.00952173 0.997057 0
-0.0783107 -0.00995194 0.996879 0.00393504
-0.0767165 -0.0101485 0.997001 0.00541405
-0.0757909 -0.0105019 0.997068 0.00639565
-0.0778007 -0.0107683 0.996911 0.00803541
-0.0767893 -0.0108559 0.996988 0.00724074
-0.0765374 -0.0108052 0.997008 0.00434394
-0.0769475 -0.0109945 0.996974 0.00784038
-0.0762566 -0.0111182 0.997026 0.00855887
-0.0774332 -0.0110295 0.996937 0.00719644
-0.0781543 -0.0110759 0.99688 0.00818986
-0.0761663 -0.010926 0.997035 0.00744193
-0.0770566 -0.0108821 0.996967 0.00516112
-0.076393 -0.0108141 0.997019 0.00248563
-0.0754134 -0.0108298 0.997094 0.00268519
-0.0757802 -0.0108951 0.997065 0.00446537
-0.0740839 -0.0108878 0.997193 0.00238228
-0.0742373 -0.0109635 0.99718 0.0036558
-0.0745871 -0.0109568 0.997154 0.001644
-0.0745522 -0.0109525 0.997157 0.00069325
-0.0746048 -0.0109033 0.997154 0
-0.0731941 -0.0108515 0.997259 0.000816904
-0.0732494 -0.0107273 0.997256 0
-0.0749945 -0.0106135 0.997127 0.00200942
-0.0767392 -0.0104567 0.996996 0.00300336
-0.0776399 -0.0102204 0.996929 0.00335517
-0.0764096 -0.0100093 0.997026 0.0026996
-0.0771169 -0.00982883 0.996974 0.00658364
-0.0762879 -0.00943912 0.997041 0.00622867
-0.0770401 -0.009001 0.996987 0.00652702
-0.0765362 -0.00857504 0.99703 0.00670578
-0.073088 -0.00787988 0.997294 0.00449794
-0.0729814 -0.00716056 0.997308 0.00265081
-0.0758018 -0.00669992 0.9971 0.0021702
-0.0741919 -0.00571114 0.997228 0.00139728
-0.0734982 -0.0046392 0.997285 0.00435221
-0.0733941 -0.00373445 0.997296 0.00483981
-0.0735629 -0.002797 0.997287 0.00370926
-0.0721149 -0.00166223 0.997395 0.000521603
-0.0721199 -0.0004879 0.997396 0
-0.0714799 0.000870547 0.997442 0.000869025
-0.0694328 0.00213978 0.997584 0
-0.0695849 0.00371694 0.997569 0
-0.0709205 0.00531987 0.997468 0
-0.0701389 0.00698151 0.997513 0
-0.0701739 0.00877238 0.997496 0
-0.070294 0.0101108 0.997475 0
-0.07097 0.011792 0.997409 0
-0.0702502 0.0136579 0.997436 0.000271463
-0.0710272 0.0150381 0.997361 0.000686798
-0.0718453 0.0170531 0.99727 0.00172572
-0.0713713 0.0195639 0.997258 0.00427127
-0.0705997 0.0220705 0.997261 0.0032744
-0.0683234 0.024193 0.99737 0
-0.0680836 0.0267395 0.997321 0
-0.0692937 0.0290923 0.997172 0.000363726
-0.0697848 0.03098 0.997081 0
-0.0687216 0.0333255 0.997079 0
-0.0688624 0.0350448 0.99701 0
-0.0702716 0.036987 0.996842 0
-0.0691087 0.038644 0.99686 0
-0.0699796 0.0405964 0.996722 0
-0.0689535 0.0424233 0.996718 0
-0.0689027 0.044157 0.996646 0
-0.069228 0.0457897 0.996549 0
-0.0674249 0.0474003 0.996598 0
-0.06865 0.0497942 0.996397 0.00233718
-0.0689309 0.051331 0.9963 0.00239469
-0.0683536 0.05335 0.996234 0.00213746
-0.0677018 0.0550639 0.996185 0.00212103
-0.0667748 0.0574326 0.996114 0.00316653
-0.0658595 0.0593959 0.99606 0.0022626
-0.0656005 0.0611916 0.995968 0.00139959
-0.067084 0.063221 0.995742 0.00300112
-0.069494 0.0651418 0.995453 0.00358096
-0.0680318 0.0669388 0.995435 0.00308005
-0.0678701 0.0685816 0.995334 0.00261408
-0.0682266 0.0701944 0.995197 0.00224149
-0.0683799 0.0718257 0.99507 0.00113175
-0.0681823 0.0738959 0.994932 0.00201851
-0.0673955 0.0755485 0.994862 0.000418697
-0.0672022 0.0775224 0.994723 0
-0.0668183 0.0791504 0.994621 0
-0.0674935 0.0807667 0.994445 0
-0.0675337 0.0823167 0.994315 0
-0.0681666 0.0845516 0.994085 0.000974181
-0.0694222 0.0876904 0.993726 0.0031682
-0.069322 0.0900699 0.99352 0.00500259
-0.0692886 0.0907736 0.993458 0.00245119
-0.0681953 0.0918292 0.993437 0
-0.0688001 0.0942013 0.993173 0.000858805
-0.0696401 0.0964088 0.992903 0.00101842
-0.0692792 0.0985806 0.992715 0.000394148
-0.0695474 0.100741 0.992479 0.000308503
-0.0691364 0.102877 0.992288 0
-0.0687946 0.105772 0.992008 0.00118412
-0.0688944 0.108138 0.991746 0.00139372
-0.0680441 0.110661 0.991526 0.00141978
-0.0682666 0.112745 0.991276 0.00105723
-0.068418 0.116044 0.990885 0.00242667
-0.0689908 0.120135 0.990358 0.00393205
-0.0725605 -0.0521651 0.995999 0
-0.0736766 -0.0507254 0.995991 0
-0.073533 -0.0488072 0.996098 0
-0.0732818 -0.0469099 0.996207 0
-0.0730265 -0.0450213 0.996313 0
-0.0725842 -0.0432298 0.996425 0
-0.0726037 -0.0414381 0.9965 0
-0.0730476 -0.0400163 0.996525 0
-0.0725015 -0.0382076 0.996636 0
-0.0727229 -0.0366869 0.996677 0
-0.0724368 -0.035252 0.99675 0
-0.0720974 -0.0336894 0.996828 0
-0.0725668 -0.0324996 0.996834 0
-0.0718538 -0.0311457 0.996929 0
-0.0718404 -0.0299473 0.996966 0
-0.0722833 -0.0288107 0.996968 0
-0.0712433 -0.0271923 0.997088 0
-0.0707054 -0.0259971 0.997158 0
-0.0700503 -0.0248209 0.997235 0
-0.0701005 -0.0237521 0.997257 0
-0.0693497 -0.0220742 0.997348 0
-0.0683818 -0.0208916 0.99744 0
-0.0680312 -0.0192358 0.997498 0
-0.0683625 -0.0181087 0.997496 0
-0.0684694 -0.0169063 0.99751 0
-0.0699011 -0.0162464 0.997422 0
-0.0705572 -0.0156778 0.997384 0
-0.0700797 -0.0149589 0.997429 0
-0.0697922 -0.0144841 0.997456 0
-0.06947 -0.0137468 0.997489 0
-0.0693814 -0.0130947 0.997504 0
-0.0689856 -0.0126645 0.997537 0
-0.0695778 -0.012465 0.997499 0.000380725
-0.068834 -0.0118139 0.997558 0
-0.0687675 -0.0111282 0.997571 0
-0.0682294 -0.0105837 0.997613 0
-0.0676814 -0.0103169 0.997654 0.000381621
-0.0679273 -0.0100732 0.997639 0
-0.06791 -0.00999986 0.997641 0
-0.0683923 -0.0101171 0.997607 0
-0.0685651 -0.0101083 0.997595 0.000893726
-0.0669449 -0.0094302 0.997712 0
-0.0651297 -0.00911374 0.997835 0
-0.0655983 -0.00921647 0.997804 0
-0.0649296 -0.00924516 0.997847 0
-0.0632653 -0.00915027 0.997955 0
-0.0630663 -0.00920524 0.997967 0
-0.0642468 -0.00924957 0.997891 0
-0.0642728 -0.00915 0.99789 0
-0.0648582 -0.00881411 0.997856 0.00109268
-0.0644307 -0.00848989 0.997886 0.00135775
-0.0643132 -0.00787372 0.997899 0
-0.0647024 -0.00749951 0.997876 0
-0.0633973 -0.00656204 0.997967 0.000367943
-0.0644734 -0.00587111 0.997902 0.000881344
-0.0642462 -0.00494953 0.997922 0.000227203
-0.0636274 -0.00416964 0.997965 0
-0.0628812 -0.00331891 0.998015 0
-0.0644151 -0.00264029 0.99792 0
-0.0657619 -0.00215488 0.997833 0
-0.066732 -0.00182656 0.997769 0
-0.0666881 -0.00159001 0.997773 0.00146497
-0.0661365 -0.0014517 0.997809 0
-0.0659693 -0.00125366 0.997821 0
-0.0686086 -0.00132109 0.997643 0.00212774
-0.068234 -0.00133217 0.997668 0.00273942
-0.0689254 -0.00150326 0.997621 7.00358e-05
-0.0686214 -0.00166244 0.997641 0
-0.0690071 -0.00188801 0.997614 0
-0.0696639 -0.00217551 0.997568 0
-0.0687833 -0.00254967 0.997628 0
-0.0672123 -0.00308497 0.997734 0
-0.0671656 -0.00364951 0.997735 8.98674e-05
-0.0679762 -0.00406548 0.997679 0
-0.0703113 -0.00480721 0.997514 0.000781839
-0.0703429 -0.00544444 0.997508 0.00198817
-0.0686006 -0.00601313 0.997626 0.00187249
-0.0711499 -0.00658597 0.997444 0.002247
-0.0719386 -0.0070914 0.997384 0.00179761
-0.0704421 -0.0074906 0.997488 0
-0.0700021 -0.00778474 0.997516 6.60727e-05
-0.0692675 -0.00807363 0.997565 0.000880369
-0.0701655 -0.00827588 0.997501 0.00175089
-0.0698209 -0.00830209 0.997525 0
-0.0713441 -0.00833575 0.997417 0.0015441
-0.0710904 -0.00822556 0.997436 0.00102
-0.0698273 -0.00804511 0.997527 0
-0.070645 -0.00794856 0.99747 0.00295501
-0.0712006 -0.00784741 0.997431 0.00413228
-0.0726237 -0.00773361 0.997329 0.00476412
-0.0706757 -0.00757433 0.997471 0.00240481
-0.0696762 -0.00751594 0.997541 0.00227378
-0.071134 -0.00749792 0.997439 0.00433437
-0.072904 -0.00745977 0.997311 0.0042451
-0.0725695 -0.00740209 0.997336 0.00521527
-0.0720858 -0.00726724 0.997372 0.00471993
-0.07024 -0.00708057 0.997505 0.00147745
-0.0706583 -0.00694285 0.997476 0
-0.0705239 -0.00679589 0.997487 0
-0.0723823 -0.00672483 0.997354 0.00024417
-0.0735061 -0.00657584 0.997273 0.000183789
-0.0735158 -0.00646077 0.997273 0
-0.0738973 -0.00642251 0.997245 0.00141679
-0.0735614 -0.00634055 0.997271 0
-0.0722178 -0.00627219 0.997369 0
-0.0719364 -0.0060839 0.997391 0
-0.0711179 -0.00571524 0.997451 0
-0.071796 -0.00548945 0.997404 0
-0.072551 -0.00505681 0.997352 0
-0.0738424 -0.00475882 0.997259 0
-0.0728618 -0.00413729 0.997334 0
-0.0734295 -0.00343021 0.997294 0
-0.0738357 -0.00253973 0.997267 0
-0.0746113 -0.00159179 0.997211 0
-0.075394 -0.0005404 0.997154 0
-0.0762728 0.000691527 0.997087 0
-0.0740049 0.00173991 0.997256 0
-0.0760509 0.0028782 0.9971 0
-0.0760391 0.00453557 0.997095 0.000211568
-0.0771646 0.0061597 0.996999 0.00129637
-0.0775729 0.00810681 0.996954 0.00395889
-0.0783223 0.0101276 0.996877 0.00390655
-0.0764931 0.0115478 0.997003 0.00244676
-0.0792194 0.013016 0.996772 0.00577326
-0.0779129 0.0153142 0.996843 0.0022267
-0.0771517 0.0176367 0.996863 0.00362488
-0.0761477 0.0194407 0.996907 0.00310989
-0.076829 0.021246 0.996818 0.00260405
-0.0770233 0.0231748 0.99676 0.00466556
-0.0759978 0.0249494 0.996796 0.00386122
-0.0775274 0.0265485 0.996637 0.00600413
-0.0774914 0.0282039 0.996594 0.00516771
-0.0758633 0.030124 0.996663 0.00386651
-0.0738951 0.031624 0.996764 0.00132633
-0.0736525 0.0332261 0.99673 0.000915183
-0.0749567 0.0350707 0.99657 0.00257315
-0.076353 0.0370484 0.996392 0.00444456
-0.0767223 0.0390053 0.996289 0.0047057
-0.0764688 0.040325 0.996256 0.00386922
-0.0759665 0.0419464 0.996228 0.00191869
-0.0757121 0.0439343 0.996161 0.00259404
-0.0753981 0.04616 0.996085 0.00188738
-0.0755915 0.0476539 0.996 0.00107399
-0.0746351 0.0496006 0.995977 0
-0.0748649 0.0518064 0.995847 0.00112335
-0.07435 0.0537036 0.995785 0.000531763
-0.0757774 0.0564968 0.995523 0.00337587
-0.0766352 0.0588855 0.995319 0.00432164
-0.0768379 0.0614891 0.995146 0.00536523
-0.076974 0.0639351 0.994981 0.00616595
-0.0759218 0.0654595 0.994963 0.00399628
-0.0758096 0.0673216 0.994847 0.00276144
-0.0760176 0.0694923 0.994682 0.00332347
-0.0760175 0.0719447 0.994508 0.00398275
-0.0757614 0.073953 0.99438 0.00502456
-0.0748142 0.0754835 0.994337 0.00424331
-0.0751334 0.0776429 0.994146 0.00381528
-0.0741871 0.0789316 0.994116 0.00240207
-0.0738648 0.0809999 0.993973 0.00192524
-0.0737925 0.0828117 0.993829 0.00011593
-0.0729646 0.0848904 0.993715 0
-0.0724282 0.0867927 0.99359 0
-0.0735764 0.0888954 0.99332 0
-0.0735446 0.0912857 0.993105 0.000979319
-0.0726623 0.0927244 0.993037 0.000208028
-0.071289 0.0949006 0.992931 0.00027873
-0.0710323 0.0964745 0.992798 0
-0.0718224 0.0992215 0.99247 0.00158864
-0.0713197 0.101304 0.992296 0.00119921
-0.0711414 0.103423 0.99209 0.00132271
-0.0710543 0.104979 0.991933 0.000276239
-0.0697198 0.107188 0.991791 0.000656144
-0.0696138 0.109436 0.991553 0.00077535
-0.0691815 0.111203 0.991387 0
-0.0805367 -0.0759943 0.99385 0.00593837
-0.079454 -0.0726835 0.994185 0.00610524
-0.0797327 -0.0692589 0.994407 0.00553855
-0.0800126 -0.0657898 0.99462 0.00245026
-0.0814207 -0.0639902 0.994623 0.00420698
-0.0798868 -0.0614492 0.994908 0.00493451
-0.0790825 -0.0592607 0.995105 0.00521587
-0.0804561 -0.0569573 0.995129 0.00452232
-0.079092 -0.0543143 0.995387 0.00407743
-0.0793712 -0.0519743 0.995489 0.00236252
-0.0777729 -0.049828 0.995725 0.00210273
-0.0790175 -0.0486184 0.995687 0.00471108
-0.0774184 -0.0468332 0.995898 0.00509565
-0.0770605 -0.0454705 0.995989 0.00707009
-0.0750836 -0.0434733 0.996229 0.00526104
-0.0755391 -0.0423449 0.996243 0.00576995
-0.0746847 -0.0407341 0.996375 0.00369694
-0.0757493 -0.0398327 0.996331 0.00491642
-0.0744719 -0.0382633 0.996489 0.0028121
-0.0722309 -0.0367285 0.996711 0.00108937
-0.0736966 -0.0360736 0.996628 0.00272845
-0.0729401 -0.0344754 0.99674 0
-0.0729174 -0.0332337 0.996784 0
-0.0733556 -0.0315802 0.996806 0.000659176
-0.0735411 -0.0299323 0.996843 1.55173e-05
-0.0734344 -0.0288027 0.996884 0.000500976
-0.0740142 -0.0274868 0.996878 0
-0.0757448 -0.0265153 0.996775 0.00333664
-0.0747437 -0.0248799 0.996892 0.00228692
-0.073317 -0.0235527 0.997031 0.00149196
-0.0735224 -0.0222774 0.997045 0
-0.072652 -0.0214812 0.997126 0.00191517
-0.0745319 -0.0211624 0.996994 0.00473107
-0.0740211 -0.0204675 0.997047 0.0038741
-0.0743118 -0.0195787 0.997043 0.00540012
-0.0737978 -0.018732 0.997097 0.00564682
-0.072476 -0.0178249 0.997211 0.00365873
-0.0718184 -0.0172664 0.997268 0.00500682
-0.06927 -0.0164785 0.997462 0.00200667
-0.068753 -0.0158892 0.997507 0.00154113
-0.0700052 -0.0152156 0.997431 0.00105918
-0.0694776 -0.0146309 0.997476 0.000553255
-0.0711975 -0.0143017 0.99736 0.00202669
-0.0679304 -0.0136999 0.997596 0
-0.0690201 -0.0135854 0.997523 0.00155202
-0.0665671 -0.013351 0.997693 0
-0.0670175 -0.013338 0.997663 0.00151297
-0.0685762 -0.013374 0.997556 0.00117044
-0.0716342 -0.0135119 0.997339 0.00120407
-0.0712301 -0.013265 0.997372 0.000504445
-0.068809 -0.0128667 0.997547 0
-0.0684309 -0.0128737 0.997573 0
-0.0656604 -0.0127645 0.99776 0.000544939
-0.0665449 -0.012774 0.997702 0.00054333
-0.0678269 -0.0128135 0.997615 0.00387149
-0.0699639 -0.0128966 0.997466 0.00728263
-0.0698439 -0.0125538 0.997479 0.00675496
-0.0721398 -0.0124483 0.997317 0.00823946
-0.0719455 -0.0124365 0.997331 0.00928853
-0.0697726 -0.0122263 0.997488 0.00773921
-0.0660149 -0.0122047 0.997744 0.00631164
-0.0679532 -0.0121018 0.997615 0.00775292
-0.0700484 -0.011723 0.997475 0.00759604
-0.0699133 -0.0109815 0.997493 0.00972373
-0.0698693 -0.0102178 0.997504 0.0116574
-0.0694458 -0.00924807 0.997543 0.0125213
-0.067917 -0.00801684 0.997659 0.0101907
-0.0673257 -0.00642499 0.99771 0.00834977
-0.0664804 -0.00536943 0.997773 0.00632736
-0.0663498 -0.00438656 0.997787 0.00702649
-0.0675076 -0.00347755 0.997713 0.00657538
-0.0662209 -0.00283159 0.997801 0.00718793
-0.0679857 -0.00230281 0.997684 0.00669846
-0.0674663 -0.0020208 0.99772 0.00450388
-0.066668 -0.0017345 0.997774 0.00434785
-0.0671997 -0.00177322 0.997738 0.0089515
-0.0678203 -0.00184958 0.997696 0.00998819
-0.0674116 -0.00202342 0.997723 0.00766908
-0.066913 -0.0022374 0.997756 0.00669498
-0.0670944 -0.00249896 0.997743 0.00388455
-0.0672597 -0.00286643 0.997731 0.00349598
-0.0679261 -0.00326234 0.997685 0.00221368
-0.0657624 -0.00367663 0.997829 0.00218562
-0.0647249 -0.0041161 0.997895 0.00250755
-0.0664757 -0.00443705 0.997778 0.00170092
-0.066518 -0.00477078 0.997774 0.00192953
-0.0629867 -0.00505678 0.998002 0
-0.0648163 -0.00527675 0.997883 0.000939035
-0.0660331 -0.00550422 0.997802 0.00267287
-0.066942 -0.00555279 0.997741 0.003774
-0.0653489 -0.00562404 0.997847 0.002865
-0.062667 -0.00566515 0.998019 0.00101486
-0.0640007 -0.00563594 0.997934 0.00308177
-0.063643 -0.0055227 0.997957 0.000901835
-0.0628093 -0.00534904 0.998011 0
-0.0640142 -0.00513213 0.997936 0
-0.0645922 -0.00492624 0.9979 0
-0.0642725 -0.00486421 0.997921 0
-0.0653826 -0.00480822 0.997849 0
-0.0654059 -0.00474798 0.997847 0
-0.0688203 -0.00472837 0.997618 0
-0.0684061 -0.0046954 0.997647 0
-0.0671118 -0.00466457 0.997735 0
-0.0681067 -0.00455559 0.997668 0
-0.0709871 -0.00446033 0.997467 0.00410981
-0.0711717 -0.00433553 0.997455 0.00588979
-0.0717512 -0.00413991 0.997414 0.00832428
-0.071603 -0.00389423 0.997426 0.00942765
-0.0743166 -0.00366168 0.997228 0.0126582
-0.0723527 -0.00336968 0.997373 0.00804894
-0.0720162 -0.00311648 0.997399 0.00941075
-0.075332 -0.00275728 0.997155 0.00950003
-0.0749864 -0.00246645 0.997181 0.00922137
-0.0715245 -0.00218331 0.997437 0.00584625
-0.0703478 -0.00178582 0.997521 0.00461926
-0.0710128 -0.00163465 0.997474 0.00457158
-0.0745475 -0.00128979 0.997217 0.00629756
-0.0732438 -0.000781046 0.997314 0.00694156
-0.074157 -0.00013502 0.997247 0.00670544
-0.0741309 0.000653197 0.997248 0.00665478
-0.0747411 0.0014808 0.997202 0.00365631
-0.0736951 0.00251896 0.997278 0.00431129
-0.0754397 0.0031714 0.997145 0.00520278
-0.0777217 0.0045445 0.996965 0.00661112
-0.0766581 0.00615751 0.997038 0.00852394
-0.0777213 0.00727243 0.996949 0.00982214
-0.0783079 0.00911624 0.996888 0.00846012
-0.075376 0.0107693 0.997097 0.00597693
-0.0732729 0.0130118 0.997227 0.00444522
-0.0750808 0.0148208 0.997067 0.00528625
-0.0773463 0.0168338 0.996862 0.00496483
-0.0764294 0.0187114 0.996899 0.00588155
-0.0788905 0.0204098 0.996674 0.00843745
-0.0799099 0.022045 0.996558 0.00833623
-0.0769496 0.0235413 0.996757 0.00436651
-0.0788582 0.0251428 0.996569 0.0089488
-0.0781778 0.0261183 0.996597 0.00571911
-0.0764336 0.0272596 0.996702 0.00236652
-0.0777746 0.028641 0.99656 0.00296447
-0.0810482 0.030218 0.996252 0.00785162
-0.0790455 0.0309463 0.996391 0.00576441
-0.0782471 0.0322378 0.996413 0.00574388
-0.0787344 0.0337214 0.996325 0.00752976
-0.0774136 0.0346489 0.996397 0.00663648
-0.0776881 0.0360922 0.996324 0.00565113
-0.0783908 0.0372745 0.996226 0.00748459
-0.0774191 0.0384036 0.996259 0.00446327
-0.0787127 0.0399146 0.996098 0.00545524
-0.077255 0.0406389 0.996183 0.00334871
-0.0775229 0.0423195 0.996092 0.00416178
-0.0753442 0.0434778 0.996209 0.00359935
-0.0748065 0.0447725 0.996193 0.0025306
-0.0739675 0.0460366 0.996197 0.000804256
-0.0728173 0.047601 0.996209 0.000199886
-0.0719278 0.0493141 0.99619 0
-0.0705385 0.0512536 0.996192 0
-0.0693429 0.0529535 0.996186 0
-0.0693256 0.0550027 0.996077 0
-0.0691245 0.0572492 0.995964 0
-0.0680363 0.0590389 0.995934 0
-0.0682713 0.0610349 0.995798 0
-0.0673696 0.0630917 0.995731 0
-0.0678371 0.0651822 0.995565 0
-0.0673637 0.0668704 0.995485 0
-0.0696873 0.0690853 0.995174 0
-0.0689635 0.0707304 0.995109 0
-0.0691977 0.0724859 0.994966 0
-0.068262 0.0741743 0.994906 0
-0.068801 0.0757925 0.994747 0
-0.0697625 0.077732 0.99453 0
-0.0694861 0.0797032 0.994394 0
-0.0697613 0.0819147 0.994195 0
-0.0690031 0.0837997 0.994091 0
-0.0684604 0.0859854 0.993941 0
-0.06865 0.0880145 0.993751 0
-0.0691067 0.0901559 0.993527 0
-0.068999 0.0924774 0.993321 0
-0.0689431 0.094281 0.993156 0
-0.0701433 0.0965864 0.99285 0
-0.0712147 0.0989706 0.992539 0
-0.0714812 0.100594 0.992356 0
-0.0725751 0.102356 0.992097 0
-0.072552 0.104395 0.991886 0
-0.0720419 0.10617 0.991735 0
-0.0718465 0.108279 0.991521 0
-0.0717101 0.11087 0.991244 0
-0.0726445 0.114041 0.990817 0
-0.0707128 0.117069 0.990603 0
-0.0705796 0.119913 0.990272 0
-0.0695123 0.123965 0.989849 0
-0.0699329 0.12719 0.98941 0
-0.0690853 0.130386 0.989053 0
-0.068814 0.134183 0.988564 0
-0.0704505 0.140416 0.987583 0.00249535
-0.0686901 0.142492 0.98741 0
-0.0804826 -0.0730174 0.994078 0.00975897
-0.0786993 -0.0680755 0.994571 0.00375383
-0.0799156 -0.0649643 0.994682 0.00540943
-0.0806939 -0.0633101 0.994726 0.00991718
-0.0801417 -0.0605997 0.99494 0.00804061
-0.0791255 -0.0574255 0.995209 0.00684102
-0.0782444 -0.0547632 0.995429 0.00481251
-0.0798167 -0.052917 0.995404 0.00714876
-0.0785428 -0.0506161 0.995625 0.0060159
-0.0799535 -0.0488061 0.995603 0.00716114
-0.0788056 -0.0466812 0.995796 0.00561315
-0.0789409 -0.0452647 0.995851 0.0072233
-0.0788732 -0.0437093 0.995926 0.00699646
-0.079157 -0.0420648 0.995974 0.00537251
-0.0774478 -0.0400502 0.996192 0.00390246
-0.0779963 -0.0386534 0.996204 0.00678605
-0.0766097 -0.037372 0.99636 0.00499361
-0.0760642 -0.0362009 0.996445 0.00710172
-0.0751515 -0.0345536 0.996573 0.00568868
-0.0740658 -0.0334905 0.996691 0.00642445
-0.0726697 -0.0322413 0.996835 0.00555499
-0.0728039 -0.0309128 0.996867 0.00519762
-0.0711781 -0.0295914 0.997025 0.00546651
-0.0714244 -0.0281181 0.99705 0.00305108
-0.0720283 -0.0269332 0.997039 0.00357848
-0.0712428 -0.0257512 0.997127 0.00216658
-0.0697373 -0.0247638 0.997258 0.00318395
-0.069748 -0.0231228 0.997297 0.000895309
-0.0709848 -0.0224818 0.997224 0.00515598
-0.0712155 -0.021359 0.997232 0.00504437
-0.0705691 -0.0204593 0.997297 0.00413106
-0.0701277 -0.019876 0.99734 0.00477574
-0.0710717 -0.0193461 0.997284 0.00602924
-0.0709586 -0.0188427 0.997301 0.00417902
-0.0701694 -0.018357 0.997366 0.00349136
-0.0715147 -0.0182123 0.997273 0.0056634
-0.0674542 -0.0175301 0.997568 0
-0.067588 -0.0173465 0.997563 0
-0.0682874 -0.0171239 0.997519 0
-0.067444 -0.0168459 0.997581 0
-0.0686122 -0.0165895 0.997505 0
-0.0681959 -0.0160323 0.997543 0
-0.0673989 -0.0156379 0.997604 0
-0.0666992 -0.0151686 0.997658 0
-0.0666459 -0.0144988 0.997671 0
-0.0657564 -0.0139808 0.997738 0
-0.0644425 -0.0136728 0.997828 0
-0.0657741 -0.0134512 0.997744 0
-0.068343 -0.0134733 0.997571 0
-0.0678606 -0.0134959 0.997604 0
-0.0668365 -0.0136143 0.997671 0
-0.0660607 -0.0137691 0.997721 0
-0.0664412 -0.0139062 0.997693 0
-0.0692329 -0.0137356 0.997506 0.00117416
-0.0703176 -0.0136236 0.997432 0.0010182
-0.0727051 -0.0139315 0.997256 0.00579841
-0.07059 -0.0137691 0.99741 0.00453538
-0.0706833 -0.0136442 0.997405 0.00388129
-0.0710764 -0.0135672 0.997379 0.00543769
-0.0707453 -0.0135115 0.997403 0.00552515
-0.0680171 -0.012978 0.9976 0.00102062
-0.068598 -0.0124237 0.997567 0
-0.0681221 -0.0122215 0.997602 0.000550903
-0.0678178 -0.0120013 0.997626 6.8463e-05
-0.0668182 -0.0115123 0.997699 0
-0.0657248 -0.0110935 0.997776 0
-0.0656094 -0.00965816 0.997799 0
-0.0644895 -0.00791126 0.997887 0
-0.0649144 -0.0064924 0.99787 0
-0.0656137 -0.00551636 0.99783 0
-0.0659589 -0.00440382 0.997813 0
-0.066386 -0.00329547 0.997789 0
-0.0646191 -0.00284826 0.997906 0
-0.0645769 -0.00221877 0.99791 0
-0.0631557 -0.0019845 0.998002 0
-0.0662736 -0.00191886 0.9978 0
-0.0650302 -0.00192049 0.997881 0
-0.0662755 -0.00206982 0.997799 0
-0.0655417 -0.00233496 0.997847 0
-0.0675591 -0.00266548 0.997712 0
-0.0673441 -0.00307682 0.997725 0
-0.0679532 -0.00354821 0.997682 0
-0.0662556 -0.00399408 0.997795 0
-0.0670715 -0.00447054 0.997738 0
-0.0680338 -0.00489206 0.997671 0
-0.0665077 -0.00526958 0.997772 0
-0.0664468 -0.00550529 0.997775 0
-0.064058 -0.00562533 0.99793 0
-0.0616744 -0.00557702 0.998081 0
-0.063969 -0.00556207 0.997936 0
-0.0628954 -0.00552843 0.998005 0
-0.0642729 -0.00534459 0.997918 0
-0.0646241 -0.00518094 0.997896 0
-0.0640407 -0.00503998 0.997935 0
-0.0642866 -0.00485349 0.99792 0
-0.0653031 -0.00465609 0.997855 0
-0.0644954 -0.00449731 0.997908 0
-0.064718 -0.004436 0.997894 0
-0.0672986 -0.00432603 0.997723 0
-0.0688586 -0.00425774 0.997617 0
-0.0657254 -0.0042099 0.997829 0
-0.0669713 -0.00419007 0.997746 0.000940869
-0.0689545 -0.00406489 0.997612 0.000713707
-0.0717719 -0.00394102 0.997413 0.00544312
-0.0709565 -0.0037939 0.997472 0.00675036
-0.0702484 -0.00359022 0.997523 0.00704327
-0.0707048 -0.00338976 0.997492 0.00587447
-0.0699739 -0.0030823 0.997544 0.00603033
-0.0693123 -0.00280093 0.997591 0.00237743
-0.0690072 -0.0025517 0.997613 0.00133206
-0.0718814 -0.0021911 0.997411 0.00256896
-0.072368 -0.00197899 0.997376 0.00301712
-0.0703102 -0.00159295 0.997524 0.00093207
-0.0694094 -0.00123951 0.997588 0.00175198
-0.0720682 -0.000776134 0.997399 0.00251114
-0.069442 -0.000439135 0.997586 0.000325938
-0.06927 2.54508e-05 0.997598 0.000520094
-0.0699863 0.000778124 0.997548 0.000714448
-0.0737257 0.00152613 0.997277 0.000624751
-0.0721497 0.00221192 0.997391 0.000546138
-0.0699039 0.00319652 0.997549 0.000552901
-0.0711024 0.00420934 0.99746 0.000203901
-0.0739151 0.00571522 0.997248 0.00222663
-0.0718873 0.00694308 0.997389 0.003564
-0.0733249 0.00853504 0.997272 0.00539714
-0.0739514 0.0104099 0.997208 0.00507309
-0.076386 0.0124218 0.997001 0.00706246
-0.0728997 0.0142685 0.997237 0.00525823
-0.0738023 0.0164534 0.997137 0.00808176
-0.072835 0.0180672 0.99718 0.00673481
-0.073714 0.0205349 0.997068 0.00750573
-0.0750789 0.0226752 0.99692 0.00567455
-0.0742807 0.0239778 0.996949 0.00562566
-0.075843 0.0254666 0.996795 0.00649003
-0.0746177 0.0265623 0.996858 0.00548734
-0.0793801 0.0279902 0.996451 0.00882556
-0.0792203 0.0287369 0.996443 0.00745785
-0.0760589 0.0293691 0.996671 0.00240437
-0.0788958 0.0307584 0.996408 0.00651086
-0.0785335 0.0319315 0.9964 0.00446911
-0.0780253 0.0329654 0.996406 0.00582022
-0.0780214 0.0339231 0.996374 0.00535769
-0.0775055 0.0345037 0.996395 0.00410872
-0.0751309 0.0357487 0.996533 0.00444579
-0.0737943 0.036626 0.996601 0.00425417
-0.0746481 0.0374874 0.996505 0.00400703
-0.0789959 0.0385616 0.996129 0.00767837
-0.0761294 0.039345 0.996321 0.00437534
-0.0765037 0.0406522 0.99624 0.00728569
-0.0737202 0.0417073 0.996406 0.00672823
-0.0740966 0.0430292 0.996322 0.00563649
-0.0746197 0.0444111 0.996223 0.00752892
-0.0757114 0.0460127 0.996068 0.00990535
-0.0747799 0.0476427 0.996061 0.0107153
-0.0733984 0.0489394 0.996101 0.00929048
-0.0705262 0.0500014 0.996256 0.00424012
-0.0693414 0.0514576 0.996265 0.00263952
-0.0705577 0.0535276 0.99607 0.00519994
-0.0694889 0.0552038 0.996054 0.00470496
-0.0688199 0.0569943 0.996 0.00422377
-0.06831 0.0581189 0.99597 0.000375143
-0.067742 0.0598089 0.995909 0
-0.068306 0.0615522 0.995764 0
-0.0670821 0.0633109 0.995737 0
-0.0679843 0.0651114 0.995559 0
-0.0694295 0.066914 0.99534 0
-0.0698609 0.0687767 0.995183 0
-0.0706444 0.0708732 0.994981 0
-0.0700705 0.072761 0.994885 0
-0.0705458 0.074686 0.994709 0
-0.0681559 0.0767606 0.994717 0
-0.0694567 0.0787599 0.994471 0
-0.0678467 0.0810106 0.994401 0
-0.0670133 0.0834601 0.994255 0
-0.0674231 0.085547 0.99405 0
-0.0674386 0.0882964 0.993809 0
-0.0664138 0.0900567 0.99372 0
-0.0668111 0.0925693 0.993462 0
-0.0685537 0.0943285 0.993178 0
-0.0677 0.096107 0.993066 0
-0.0674016 0.0983177 0.99287 0
-0.0666254 0.10043 0.992711 0
-0.0681325 0.102586 0.992388 0
-0.0669265 0.104654 0.992254 0
-0.0695233 0.107232 0.9918 0
-0.070211 0.109437 0.991511 0
-0.0701103 0.112769 0.991145 0
-0.0708245 0.115345 0.990797 0
-0.0713344 0.118359 0.990405 0
-0.0701691 0.121965 0.990051 0
-0.0697018 0.125773 0.989607 0.000908406
-0.0701222 0.130605 0.988952 0.00363227
-0.0690998 0.134132 0.988551 0.00258119
-0.0694145 0.137865 0.988016 0.000268405
-0.0793052 -0.0760657 0.993944 0.00415206
-0.0782861 -0.0721974 0.994313 0.00239239
-0.0770023 -0.0688785 0.994649 0.00222151
-0.0762917 -0.0662879 0.99488 0.00277791
-0.0737648 -0.0632807 0.995266 0.00119566
-0.0750081 -0.0606312 0.995338 0.00330768
-0.0741644 -0.0584541 0.995531 0.00324344
-0.073717 -0.0557487 0.99572 0.00502626
-0.0737082 -0.0524238 0.995901 0.0018965
-0.0744242 -0.0501045 0.995967 0.00254477
-0.0753278 -0.0477222 0.996016 0.00313547
-0.0749649 -0.0457081 0.996138 0.00277957
-0.0747125 -0.0439147 0.996238 0.00443218
-0.0736902 -0.0421527 0.99639 0.00370224
-0.0728778 -0.0404751 0.996519 0.00332539
-0.0747049 -0.0395661 0.996421 0.00583904
-0.0737744 -0.0377769 0.996559 0.00447872
-0.0731733 -0.0364752 0.996652 0.00420756
-0.0732142 -0.0352662 0.996693 0.00298714
-0.0732384 -0.0342036 0.996728 0.00428096
-0.0741623 -0.0330768 0.996697 0.00523554
-0.0753193 -0.0320176 0.996645 0.00573055
-0.0739095 -0.0306452 0.996794 0.00323968
-0.0746565 -0.0291662 0.996783 0.00491614
-0.0727315 -0.0271605 0.996982 0.00102081
-0.0727051 -0.0259754 0.997015 0
-0.0707535 -0.0245556 0.997191 0
-0.0702246 -0.0233429 0.997258 0
-0.0689941 -0.0222258 0.997369 0
-0.0704101 -0.021504 0.997286 0.00181162
-0.0692493 -0.0207068 0.997384 0.00256706
-0.0673751 -0.0200017 0.997527 0.00156259
-0.0661374 -0.0194069 0.997622 0.000621307
-0.0672051 -0.0192447 0.997554 0.00167988
-0.0655759 -0.0189431 0.997668 0
-0.0654235 -0.018613 0.997684 0
-0.0642482 -0.0183419 0.997765 0
-0.0642625 -0.0181106 0.997769 0
-0.0623831 -0.0177888 0.997894 0
-0.0629157 -0.01755 0.997865 0
-0.0642187 -0.0171936 0.997788 0
-0.0644277 -0.0166254 0.997784 0
-0.0666016 -0.016199 0.997648 0
-0.0641982 -0.0157034 0.997814 0
-0.0642581 -0.0154439 0.997814 0
-0.0653333 -0.0147394 0.997755 0
-0.0652757 -0.014277 0.997765 0
-0.0677958 -0.0138941 0.997602 0
-0.0684392 -0.0136951 0.997561 0
-0.0684802 -0.0137936 0.997557 0
-0.0692161 -0.0138864 0.997505 0
-0.0690666 -0.0142343 0.99751 0
-0.067832 -0.0142989 0.997594 0
-0.0684054 -0.0145076 0.997552 0
-0.0705499 -0.0147568 0.997399 0.000865644
-0.0714083 -0.0148763 0.997336 0.00210426
-0.070869 -0.0147341 0.997377 0.00383474
-0.0698118 -0.0144202 0.997456 0.00164361
-0.0707967 -0.0144035 0.997387 0.0025945
-0.0683615 -0.0139787 0.997563 0
-0.0663502 -0.0135932 0.997704 0
-0.0680219 -0.0132739 0.997595 0
-0.0689438 -0.0127549 0.997539 0
-0.0701494 -0.0125495 0.997458 0
-0.0670943 -0.0122788 0.997671 0
-0.0660786 -0.0121104 0.997741 0
-0.0654259 -0.0120107 0.997785 0
-0.064025 -0.0104286 0.997894 0
-0.0622846 -0.00863329 0.998021 0
-0.0623605 -0.00734168 0.998027 0
-0.0613706 -0.00605118 0.998097 0
-0.063235 -0.00484272 0.997987 0
-0.0654447 -0.00387953 0.997849 0
-0.0656725 -0.00299762 0.997837 0
-0.0632201 -0.00250882 0.997996 0
-0.0631935 -0.00214195 0.997999 0
-0.0638936 -0.00185793 0.997955 0
-0.0628603 -0.00177104 0.998021 0
-0.0633433 -0.00189366 0.99799 0
-0.0663399 -0.00208013 0.997795 0
-0.0650746 -0.00244392 0.997877 0
-0.0678835 -0.00287681 0.997689 0
-0.0676486 -0.00339727 0.997703 0
-0.0671686 -0.00394067 0.997734 0
-0.0648478 -0.00443136 0.997885 0
-0.0628646 -0.00503983 0.998009 0
-0.0620607 -0.0054212 0.998058 0
-0.0646561 -0.00567646 0.997891 0
-0.062424 -0.00583816 0.998033 0
-0.0634038 -0.00585366 0.997971 0
-0.0637041 -0.00580844 0.997952 0
-0.064817 -0.00566619 0.997881 0
-0.0649895 -0.00537645 0.997872 0
-0.0663537 -0.00514699 0.997783 0
-0.0663724 -0.00488584 0.997783 0
-0.064442 -0.00466577 0.997911 0
-0.0658269 -0.00442194 0.997821 0
-0.066279 -0.0042427 0.997792 0.000305613
-0.065157 -0.00410971 0.997867 0
-0.0665802 -0.00404194 0.997773 0
-0.0672816 -0.00400575 0.997726 0.000304563
-0.0661991 -0.00400782 0.997798 0
-0.0645875 -0.00405864 0.997904 0.00238962
-0.0657115 -0.00397888 0.997831 0.00021227
-0.0660817 -0.00389798 0.997807 0.00397093
-0.0669107 -0.00374522 0.997752 0.00851255
-0.0668987 -0.00348832 0.997754 0.00773579
-0.0677147 -0.00317347 0.9977 0.00388317
-0.0684002 -0.00285586 0.997654 0.00546795
-0.0662762 -0.00249943 0.997798 0.000952022
-0.0674307 -0.00219495 0.997722 0.00139346
-0.0733796 -0.00169915 0.997303 0.00237662
-0.0722065 -0.00140224 0.997389 0.00452334
-0.0680313 -0.00102497 0.997683 0
-0.0674018 -0.000677007 0.997726 0
-0.0669964 -0.000301498 0.997753 0
-0.0669799 7.54605e-05 0.997754 0
-0.0666965 0.000566112 0.997773 0
-0.0694948 0.00124008 0.997582 0
-0.0704812 0.00201067 0.997511 0
-0.0693572 0.00280169 0.997588 0
-0.0699457 0.0034967 0.997545 0.000407682
-0.0721294 0.00481316 0.997384 0.00352724
-0.0727802 0.00618709 0.997329 0.00728099
-0.0738347 0.00794317 0.997239 0.00649956
-0.0716073 0.00943441 0.997388 0.00737636
-0.0695459 0.011225 0.997516 0.00362377
-0.0728199 0.013351 0.997256 0.0061662
-0.0703794 0.0155414 0.997399 0.00533898
-0.0701825 0.017387 0.997383 0.00473985
-0.0695671 0.0192647 0.997391 0.00505398
-0.066596 0.0214605 0.997549 0.000805256
-0.0664547 0.0233812 0.997515 0
-0.0671553 0.0246569 0.997438 0
-0.0673898 0.0257827 0.997393 0.000656229
-0.0691737 0.0271724 0.997235 0.00195816
-0.0711567 0.0282007 0.997066 0.0027441
-0.0706446 0.0293394 0.99707 0.003604
-0.0699479 0.0301658 0.997094 0.00308964
-0.0713351 0.0313646 0.996959 0.00306123
-0.0730708 0.0322985 0.996804 0.00362897
-0.071125 0.0330357 0.99692 0.00233051
-0.0728459 0.0342689 0.996754 0.00437891
-0.0723533 0.0351221 0.99676 0.00448812
-0.073023 0.0360434 0.996679 0.00498109
-0.0721949 0.0369324 0.996707 0.00495168
-0.0718533 0.0376625 0.996704 0.0045812
-0.0741327 0.0387208 0.996496 0.00668253
-0.0738946 0.0396673 0.996477 0.00631343
-0.0726621 0.0403946 0.996538 0.00524533
-0.0711558 0.0411771 0.996615 0.00470782
-0.0713363 0.0421272 0.996562 0.00458786
-0.0714176 0.0434538 0.9965 0.00670069
-0.0715547 0.0448139 0.996429 0.00673139
-0.0703777 0.0462965 0.996445 0.00702144
-0.0688101 0.0477756 0.996485 0.00624056
-0.0665784 0.0493176 0.996562 0.00513819
-0.0674052 0.0513672 0.996403 0.00759478
-0.0675186 0.052882 0.996316 0.00633855
-0.0668114 0.0543519 0.996284 0.004219
-0.0673382 0.0562965 0.996141 0.0038611
-0.0676645 0.0577809 0.996034 0.00231507
-0.0654323 0.0591779 0.996101 0
-0.066825 0.0609412 0.995902 0
-0.0682137 0.0625828 0.995706 0.00131982
-0.0672753 0.0642691 0.995662 0
-0.0668528 0.0662244 0.995563 0
-0.0654953 0.067897 0.99554 0
-0.067119 0.069696 0.995308 0
-0.065934 0.071779 0.995239 0
-0.0680634 0.073705 0.994955 0
-0.0682613 0.075476 0.994808 0
-0.0695763 0.0773719 0.994572 0
-0.067719 0.0796625 0.994519 0
-0.0672721 0.0815671 0.994395 0
-0.0674632 0.0836503 0.994209 0
-0.0659314 0.0862261 0.994092 0
-0.0670991 0.088303 0.993831 0
-0.0675482 0.0907913 0.993576 0
-0.0669584 0.0931334 0.9934 0
-0.0666133 0.095477 0.9932 0
-0.0675808 0.0976581 0.992923 0
-0.0670414 0.100006 0.992726 0
-0.0656241 0.102482 0.992568 0
-0.0655456 0.105357 0.992272 0
-0.0652598 0.108127 0.991993 0
-0.0671443 0.111779 0.991462 0
-0.0666501 0.114858 0.991143 0
-0.0674012 0.117581 0.990773 0
-0.0680554 0.12037 0.990394 0
-0.0698446 0.123445 0.98989 0
-0.0737964 0.126712 0.989191 0
-0.0735481 0.130609 0.988702 0.000626952
-0.0730271 0.134121 0.988271 0
-0.0734625 0.139775 0.987454 0.00229949
-0.079844 -0.0760477 0.993902 0.00813809
-0.0793556 -0.0711993 0.9943 0.00453089
-0.0772066 -0.0674765 0.994729 0.000709358
-0.0763237 -0.064204 0.995014 0.000193398
-0.0757013 -0.0617484 0.995217 0.00148429
-0.0763581 -0.0587543 0.995348 0.00214053
-0.076252 -0.0557907 0.995527 0.00237109
-0.0737683 -0.0536605 0.995831 0.00305109
-0.0731482 -0.0511053 0.996011 0.00184111
-0.073429 -0.0485638 0.996117 0.0016204
-0.072914 -0.046549 0.996251 0.00182817
-0.0720227 -0.0448825 0.996393 0.00116716
-0.0710945 -0.0434799 0.996521 0.00249982
-0.0711903 -0.0422304 0.996568 0.00335924
-0.0721452 -0.0408937 0.996556 0.00445961
-0.0717242 -0.0394553 0.996644 0.00284718
-0.0707966 -0.0384402 0.99675 0.00233187
-0.0707139 -0.037433 0.996794 0.00154593
-0.0702515 -0.0365028 0.996861 0.00103463
-0.0715951 -0.0350701 0.996817 0.00225062
-0.0693839 -0.0340403 0.997009 0
-0.0696476 -0.0329255 0.997028 0
-0.0702514 -0.0315122 0.997031 0.000463138
-0.0700333 -0.0302491 0.997086 0.000514453
-0.0702112 -0.0295082 0.997096 0.000575424
-0.0678649 -0.0282929 0.997293 0
-0.0680437 -0.0270941 0.997314 0
-0.0674986 -0.0260458 0.997379 0.000580491
-0.067989 -0.0252059 0.997368 0.000717855
-0.0663384 -0.0243551 0.9975 0
-0.0662899 -0.0229562 0.997536 0.000179133
-0.0656928 -0.0220656 0.997596 0
-0.0632788 -0.0213298 0.997768 0
-0.0646604 -0.0204479 0.997698 0
-0.063826 -0.0193406 0.997774 0
-0.0633493 -0.0183723 0.997822 0
-0.0621759 -0.0175526 0.997911 0
-0.0624509 -0.0169622 0.997904 0
-0.0623681 -0.0165918 0.997915 0
-0.0639585 -0.0160249 0.997824 0
-0.0639291 -0.0156364 0.997832 0.000520947
-0.0654687 -0.0152449 0.997738 0
-0.0651481 -0.0150645 0.997762 0.000427818
-0.0639 -0.0148216 0.997846 0
-0.067531 -0.014615 0.99761 0
-0.0683086 -0.0145454 0.997558 0
-0.0682178 -0.0146013 0.997564 0
-0.0683306 -0.0147453 0.997554 0
-0.0673306 -0.0146771 0.997623 0
-0.0666286 -0.0146475 0.99767 0
-0.0673229 -0.0146817 0.997623 0
-0.0686652 -0.0150487 0.997526 0
-0.0681702 -0.0150919 0.99756 0
-0.066779 -0.0152912 0.997651 0
-0.0689161 -0.0153468 0.997504 0
-0.0682504 -0.0154878 0.997548 0
-0.0706415 -0.0154013 0.997383 0
-0.0706545 -0.0153077 0.997383 0
-0.0705191 -0.014865 0.9974 0
-0.0705061 -0.0146892 0.997403 0
-0.0694475 -0.014244 0.997484 0
-0.0688873 -0.0138736 0.997528 0
-0.0682935 -0.0135272 0.997574 0
-0.0656423 -0.0133233 0.997754 0
-0.0651358 -0.0127801 0.997795 0
-0.0662784 -0.0124456 0.997724 0
-0.0652699 -0.0121667 0.997793 0
-0.0639666 -0.0105654 0.997896 0
-0.0627409 -0.00913221 0.997988 0
-0.0630501 -0.00742271 0.997983 0
-0.0657801 -0.00625278 0.997815 0
-0.0680576 -0.00488144 0.997669 0.000335142
-0.0670933 -0.00387628 0.997739 0
-0.0646198 -0.00318563 0.997905 0
-0.062318 -0.0025892 0.998053 0
-0.0611766 -0.00227359 0.998124 0
-0.0652229 -0.00195353 0.997869 0
-0.0650077 -0.00185373 0.997883 0
-0.0622945 -0.00195934 0.998056 0
-0.062711 -0.00216215 0.998029 0
-0.0645969 -0.0024404 0.997908 0
-0.0640661 -0.00281902 0.997942 0
-0.0628298 -0.00327465 0.998019 0
-0.0584449 -0.00383414 0.998283 0
-0.0591549 -0.00438376 0.998239 0
-0.0618303 -0.00489303 0.998075 0
-0.0624157 -0.00532108 0.998036 0
-0.0627203 -0.0056876 0.998015 0
-0.0613975 -0.00597126 0.998096 0
-0.0623292 -0.00610236 0.998037 0
-0.0651274 -0.00609676 0.997858 0
-0.0642702 -0.00599758 0.997914 0
-0.064865 -0.00582859 0.997877 0
-0.0661025 -0.00559628 0.997797 0
-0.0641287 -0.00529055 0.997928 0
-0.0681749 -0.00493527 0.997661 0
-0.0690042 -0.00458 0.997606 0
-0.0700833 -0.00429526 0.997532 0
-0.068199 -0.00411596 0.997663 0.000395788
-0.0652872 -0.00403357 0.997858 0
-0.0637147 -0.0039552 0.99796 0
-0.0634312 -0.00389689 0.997979 0
-0.0597942 -0.00390892 0.998203 0
-0.0612968 -0.00383591 0.998112 0
-0.0601357 -0.00376107 0.998183 0
-0.0617412 -0.00361096 0.998086 0.00292447
-0.0630131 -0.00339697 0.998007 0.00407153
-0.0597619 -0.00324734 0.998207 0
-0.0595743 -0.00293575 0.99822 0.000815959
-0.0638099 -0.00253691 0.997959 0.00255041
-0.0654375 -0.00211034 0.997854 0.00207047
-0.0640081 -0.00174509 0.997948 0.00113051
-0.0648417 -0.00133342 0.997895 0.00215269
-0.0620591 -0.000913965 0.998072 0
-0.0635992 -0.000537514 0.997975 0.000410841
-0.0628801 -2.46518e-05 0.998021 0.000496521
-0.0601467 0.000302225 0.99819 0
-0.0621919 0.000750714 0.998064 0
-0.0633007 0.00112964 0.997994 0
-0.0690529 0.00200243 0.997611 0.00280198
-0.0690683 0.00285565 0.997608 0.002407
-0.069172 0.00410618 0.997596 0.00427555
-0.0670866 0.00506576 0.997734 0.00549777
-0.0669648 0.00666764 0.997733 0.0050918
-0.0694841 0.00847814 0.997547 0.00663524
-0.06742 0.0101323 0.997673 0.00586541
-0.0660113 0.0117452 0.99775 0.00363168
-0.0657846 0.0137908 0.997739 0.00419354
-0.0635387 0.0153619 0.997861 0.000356508
-0.0666284 0.017216 0.997629 0.00338341
-0.0622385 0.0196144 0.997869 0.00101214
-0.0629252 0.0220866 0.997774 0.0016809
-0.0590231 0.0234858 0.99798 0
-0.0598319 0.0252853 0.997888 0
-0.0612577 0.0263293 0.997775 0
-0.0610629 0.0274575 0.997756 0
-0.0613894 0.0286218 0.997703 0
-0.062094 0.0297648 0.997626 0
-0.0634986 0.0304749 0.997517 0
-0.064252 0.0315255 0.997436 0
-0.063724 0.0326104 0.997435 0
-0.066197 0.0334851 0.997245 0.0016751
-0.067447 0.0342943 0.997133 0.00174909
-0.0665823 0.0350622 0.997165 0.000273816
-0.06655 0.0356602 0.997146 0
-0.0663169 0.0366314 0.997126 0
-0.070235 0.0374956 0.996826 0.00462107
-0.0689657 0.0379858 0.996896 0.00320686
-0.0684791 0.0387061 0.996901 0.00458264
-0.0675755 0.0396756 0.996925 0.0070412
-0.0661057 0.0403332 0.996997 0.00459261
-0.0670167 0.0412025 0.996901 0.00515877
-0.0664126 0.0419461 0.99691 0.00199867
-0.0648971 0.0434384 0.996946 0.00249428
-0.0647647 0.0447655 0.996896 0.00157444
-0.0613498 0.0464082 0.997037 0
-0.0592986 0.0481594 0.997078 0
-0.0594637 0.049895 0.996983 0
-0.059973 0.051585 0.996866 0
-0.0608397 0.0535351 0.996711 0
-0.0609227 0.0556567 0.99659 0
-0.0620442 0.057618 0.996409 0.00107429
-0.063409 0.0599341 0.996186 0.00369655
-0.0647717 0.0616396 0.995995 0.00439353
-0.0637134 0.063534 0.995944 0.000801293
-0.0606636 0.0654839 0.996008 0
-0.0604201 0.0670923 0.995916 0
-0.0611533 0.0687041 0.995761 0
-0.0629078 0.0703842 0.995534 0
-0.0619064 0.0722546 0.995463 0
-0.0646631 0.0738833 0.995168 0
-0.0638906 0.0762428 0.99504 0
-0.0638214 0.0786408 0.994858 0
-0.064577 0.0804445 0.994665 0
-0.0635485 0.0829202 0.994528 0
-0.0658002 0.0849976 0.994206 0
-0.0663672 0.0873333 0.993966 0
-0.0654821 0.0895767 0.993825 0
-0.0669741 0.0915109 0.993549 0
-0.0660837 0.0934131 0.993432 0
-0.0681453 0.0948875 0.993153 0
-0.0666363 0.0969787 0.993053 0
-0.067856 0.0987136 0.9928 0
-0.0675245 0.100699 0.992623 0
-0.0675916 0.102964 0.992386 0
-0.0678177 0.10604 0.992047 0
-0.0667382 0.109504 0.991743 0
-0.0663697 0.113026 0.991373 0
-0.0690534 0.115801 0.990869 0
-0.0698687 0.118919 0.990443 0
-0.069683 0.121865 0.990098 0
-0.0690694 0.125743 0.989656 0
-0.0696052 0.129006 0.989198 0
-0.0687645 0.134101 0.988579 0
-0.0688463 0.138441 0.987975 0
-0.0701975 0.14139 0.987462 0
-0.0697536 -0.0771844 0.994574 0
-0.0710603 -0.0728295 0.99481 0
-0.0697929 -0.069846 0.995113 0
-0.0698743 -0.0656954 0.99539 0
-0.0708104 -0.0623128 0.995542 0
-0.0711694 -0.0592907 0.995701 0
-0.0720451 -0.0570804 0.995767 0
-0.0713832 -0.0546309 0.995952 0
-0.0725538 -0.0523266 0.995991 0.00206685
-0.0719446 -0.0502557 0.996142 0.00238264
-0.0717572 -0.0481357 0.99626 0.00106875
-0.0714549 -0.0463882 0.996365 0.00135848
-0.0722071 -0.0449938 0.996374 0.00390764
-0.0710138 -0.0435662 0.996523 0.00363269
-0.0710572 -0.0427246 0.996557 0.0064344
-0.0703849 -0.0417386 0.996646 0.0069558
-0.0698977 -0.0407238 0.996723 0.00612454
-0.0689797 -0.0395634 0.996833 0.00547743
-0.0695972 -0.038192 0.996844 0.00373354
-0.0696426 -0.0376914 0.99686 0.00540955
-0.0706788 -0.0355855 0.996864 0.00460109
-0.0694602 -0.0342776 0.996996 0.00331749
-0.0690328 -0.0322102 0.997094 0
-0.0694533 -0.0307846 0.99711 0.00165819
-0.0693927 -0.0299184 0.997141 0.00275264
-0.0698279 -0.0285461 0.997151 0.00307203
-0.0688035 -0.0270779 0.997263 0.00126775
-0.0701182 -0.0260454 0.997199 0.00447623
-0.0703013 -0.025232 0.997207 0.00576022
-0.0700927 -0.0237432 0.997258 0.00547142
-0.0666703 -0.022799 0.997515 6.34773e-05
-0.0661402 -0.0217664 0.997573 0
-0.0664035 -0.0206846 0.997578 0.000222109
-0.0662789 -0.0201208 0.997598 0.00116501
-0.0649349 -0.0198794 0.997691 0
-0.0645301 -0.0194781 0.997726 0
-0.0648674 -0.0190096 0.997713 0.00120367
-0.0637634 -0.0182235 0.997799 0.00116288
-0.0656828 -0.017339 0.99769 0.00198514
-0.0653944 -0.0167967 0.997718 0.000943071
-0.0642656 -0.0161921 0.997801 0
-0.0638555 -0.0159959 0.997831 0
-0.0640415 -0.0156645 0.997824 0
-0.0655679 -0.0153465 0.99773 0
-0.0668281 -0.0151915 0.997649 0
-0.0670308 -0.015086 0.997637 0
-0.0678738 -0.0151792 0.997579 0
-0.0685001 -0.0154203 0.997532 0.00274224
-0.0662144 -0.0155904 0.997684 0
-0.0651064 -0.0158737 0.997752 0
-0.0653943 -0.0161031 0.99773 0
-0.0673732 -0.0162819 0.997595 0
-0.0683009 -0.0159791 0.997537 0
-0.0681953 -0.0158804 0.997546 0
-0.0676908 -0.0157366 0.997582 0
-0.066712 -0.0156195 0.99765 0
-0.0642751 -0.0155888 0.99781 0
-0.0660996 -0.015463 0.997693 0
-0.062919 -0.0153696 0.9979 0
-0.0639878 -0.015147 0.997836 0
-0.0621664 -0.0149239 0.997954 0
-0.0637261 -0.014383 0.997864 0
-0.0625806 -0.0140067 0.997942 0
-0.0645764 -0.0136912 0.997819 0
-0.065725 -0.0134393 0.997747 0
-0.064824 -0.0132881 0.997808 0
-0.0614866 -0.0127599 0.998026 0
-0.0609333 -0.0111636 0.998079 0
-0.0608781 -0.00972126 0.998098 0
-0.0594895 -0.00798737 0.998197 0
-0.0609799 -0.00646834 0.998118 0
-0.0641152 -0.00520312 0.997929 0
-0.063332 -0.00423817 0.997984 0
-0.0598265 -0.00335423 0.998203 0
-0.0589098 -0.00274762 0.99826 0
-0.0595832 -0.00239371 0.99822 0
-0.0618674 -0.00210617 0.998082 0
-0.0631877 -0.0020391 0.998 0
-0.0643974 -0.00209626 0.997922 0
-0.0632079 -0.00232294 0.997998 0
-0.0656331 -0.00258953 0.99784 0
-0.0658363 -0.00297729 0.997826 0
-0.0642458 -0.00345084 0.997928 0
-0.0658944 -0.00393074 0.997819 0
-0.0636204 -0.004434 0.997964 0
-0.0654293 -0.00484159 0.997846 0
-0.0647175 -0.0051939 0.99789 0
-0.063382 -0.00555713 0.997974 0
-0.0639035 -0.00578369 0.997939 0
-0.0652536 -0.006054 0.99785 0.00028869
-0.0649899 -0.00611505 0.997867 0
-0.0664092 -0.00612957 0.997774 0
-0.064876 -0.00607389 0.997875 0.000715938
-0.0652808 -0.00587182 0.99785 0.000363474
-0.0649698 -0.00565384 0.997871 0
-0.0699695 -0.00528047 0.997535 0.00195809
-0.0697444 -0.00489075 0.997553 0.0020632
-0.0696005 -0.00460273 0.997564 0.00301001
-0.066377 -0.00443112 0.997785 0.000174778
-0.0675747 -0.00428279 0.997705 0.00135147
-0.06387 -0.00416476 0.99795 0
-0.0616151 -0.00406029 0.998092 0.000454441
-0.0611659 -0.00399497 0.99812 0.000549552
-0.0618335 -0.00386667 0.998079 0.00132985
-0.0632362 -0.00370441 0.997992 0.00217857
-0.0640839 -0.00351755 0.997938 0.00196115
-0.0649457 -0.00326485 0.997883 0.00568348
-0.061408 -0.00303653 0.998108 0.00306613
-0.0629217 -0.00271587 0.998015 0.00501239
-0.0643828 -0.00236131 0.997922 0.00338547
-0.0631167 -0.00203525 0.998004 0.00230224
-0.0639279 -0.00182274 0.997953 0.00151178
-0.0618504 -0.00139839 0.998084 0.00103048
-0.0599297 -0.000911531 0.998202 0
-0.0625714 -0.000331413 0.99804 0
-0.0631585 2.52577e-06 0.998004 0
-0.0625912 0.000515525 0.998039 0.000973852
-0.0630287 0.00120899 0.998011 0.000296236
-0.0651923 0.00201446 0.997871 0.00371001
-0.0632357 0.00274852 0.997995 0
-0.0646391 0.00359155 0.997902 0.0022409
-0.0626047 0.00463849 0.998028 0.00316916
-0.0612499 0.00587954 0.998105 0.0018677
-0.0610576 0.00744834 0.998106 0.00379129
-0.0616622 0.00903454 0.998056 0.00454869
-0.0620728 0.0109337 0.998012 0.00685976
-0.0630971 0.0128767 0.997924 0.00763709
-0.060963 0.0145077 0.998035 0.00855462
-0.0601397 0.016455 0.998054 0.00806986
-0.0614006 0.0183293 0.997945 0.00649118
-0.0632707 0.0204673 0.997787 0.00611452
-0.0594197 0.0229802 0.997968 0.00199836
-0.0561533 0.0242788 0.998127 0.00123009
-0.0556344 0.0257876 0.998118 0
-0.0584714 0.0271813 0.997919 0
-0.0592895 0.0283836 0.997837 0
-0.0611131 0.0294388 0.997697 0
-0.0582669 0.0301981 0.997844 0
-0.0585045 0.0313262 0.997796 0
-0.0594772 0.0320985 0.997714 0
-0.0566768 0.0330299 0.997846 0
-0.0578925 0.0340196 0.997743 0
-0.0576293 0.0347902 0.997732 0
-0.0567374 0.0355669 0.997755 0
-0.0575641 0.0363052 0.997681 0
-0.0587233 0.0368767 0.997593 0
-0.0588391 0.0376169 0.997559 0
-0.0611693 0.0382791 0.997393 0.000671962
-0.0615146 0.0391982 0.997336 0.00236309
-0.0616508 0.0400077 0.997296 0.00298275
-0.0643809 0.0408758 0.997088 0.00350473
-0.0644801 0.0419221 0.997038 0.00193497
-0.0626396 0.0434742 0.997089 0.00334114
-0.0621397 0.0445185 0.997074 0.00205049
-0.061594 0.0458842 0.997046 0.000425073
-0.0629921 0.0477263 0.996872 0.00300491
-0.0640907 0.0496873 0.996706 0.00454437
-0.0614828 0.0512254 0.996793 0.00204063
-0.0617242 0.0524354 0.996715 0
-0.0658836 0.0544225 0.996342 0.00423966
-0.0633779 0.0561685 0.996408 0.00255299
-0.063103 0.0583725 0.996298 0.00422263
-0.0641745 0.0601002 0.996127 0.00502714
-0.0648167 0.0620724 0.995965 0.00506776
-0.065056 0.0632371 0.995876 0.00309039
-0.0648815 0.0653541 0.995751 0.00321881
-0.0636294 0.067307 0.995701 0.000836794
-0.0622038 0.0691271 0.995667 0
-0.0601931 0.0711901 0.995645 0
-0.0607112 0.0730114 0.995482 0
-0.0622199 0.0751867 0.995226 0
-0.0625588 0.0771105 0.995058 0
-0.0624454 0.0795276 0.994875 0
-0.0625759 0.0820521 0.994662 0
-0.0639372 0.0843397 0.994384 0
-0.062218 0.0867369 0.994287 0
-0.0624107 0.0891559 0.99406 0
-0.0633587 0.0911146 0.993823 0
-0.0624803 0.0931528 0.993689 0
-0.0623445 0.0951238 0.993511 0
-0.0626423 0.0969155 0.993319 0
-0.0627888 0.098882 0.993116 0
-0.0628985 0.100894 0.992907 0
-0.0632671 0.10381 0.992583 0
-0.0637022 0.106452 0.992275 0
-0.0631034 0.109516 0.99198 0
-0.0610293 0.112953 0.991724 0
-0.0618316 0.115279 0.991407 0
-0.0617052 0.118931 0.990983 0
-0.0616487 0.122699 0.990527 0
-0.0620489 0.126114 0.990073 0
-0.0599386 0.129889 0.989715 0
-0.0586575 0.134543 0.98917 0
-0.060554 0.138672 0.988485 0
-0.0618957 0.142127 0.987911 0
-0.0598394 0.147266 0.987285 0
-0.0712803 -0.0758515 0.994568 0
-0.0711228 -0.0724461 0.994833 0
-0.0702039 -0.0698548 0.995084 0
-0.0703247 -0.0669874 0.995272 0
-0.0694317 -0.0649611 0.995469 0
-0.0689943 -0.062863 0.995634 0
-0.0691538 -0.0609739 0.995741 0.0013769
-0.0695085 -0.0581358 0.995886 0.00202084
-0.0688705 -0.0555268 0.996079 0.00130023
-0.0692478 -0.0527766 0.996202 0
-0.0695135 -0.0505522 0.996299 0
-0.0688563 -0.0489678 0.996424 0
-0.0677064 -0.0474587 0.996576 0
-0.068134 -0.0461051 0.99661 0.000237531
-0.0675518 -0.0451589 0.996693 0.000550021
