-0.516713 0.253796 0.817676 0.0153851
-0.488631 0.251545 0.835443 0.00475534
-0.563863 0.246316 0.788281 0.0370243
-0.57088 0.24363 0.784054 0.0432819
-0.524513 0.232884 0.818933 0.0264419
-0.541816 0.234198 0.807209 0.0375796
-0.562505 0.231583 0.793699 0.0441824
-0.529822 0.240167 0.813394 0.0389488
-0.515082 0.234488 0.824443 0.0336032
-0.51367 0.233915 0.825486 0.0301511
-0.471038 0.218639 0.854588 0.0263328
-0.450252 0.222551 0.864722 0.0189044
-0.448964 0.224275 0.864946 0.0288499
-0.463688 0.214811 0.859563 0.0280652
-0.438484 0.212815 0.873179 0.0207684
-0.44465 0.210851 0.870533 0.0256049
-0.506654 0.207421 0.836826 0.0450572
-0.496932 0.208882 0.842275 0.0385011
-0.508462 0.197562 0.838114 0.0482043
-0.526414 0.205651 0.824983 0.054161
-0.511251 0.204736 0.834689 0.0494649
-0.500306 0.197569 0.843007 0.0402169
-0.509347 0.194028 0.838402 0.0450089
-0.484123 0.191865 0.853706 0.0392298
-0.500989 0.18488 0.845476 0.0424097
-0.465248 0.189578 0.864641 0.031252
-0.466972 0.191094 0.863377 0.0281053
-0.497929 0.185663 0.847111 0.0432754
-0.47823 0.185064 0.858515 0.0295792
-0.478318 0.188165 0.857791 0.0299759
-0.481252 0.187257 0.856348 0.0252262
-0.480404 0.179325 0.858519 0.0271125
-0.455983 0.172811 0.87305 0.0151122
-0.452969 0.173521 0.874477 0.0158477
-0.431525 0.169014 0.886127 0.00182908
-0.423272 0.175049 0.888931 0
-0.427867 0.163503 0.88893 0
-0.425524 0.154408 0.891677 0
-0.416427 0.152764 0.896243 0
-0.396895 0.15338 0.904958 0
-0.407108 0.137712 0.902939 0
-0.39486 0.134406 0.908857 0
-0.409226 0.125529 0.903757 0
-0.393277 0.121234 0.911392 0
-0.379982 0.114237 0.917912 0
-0.388967 0.100656 0.915736 0
-0.39313 0.0746419 0.916448 0
-0.390304 0.0724088 0.917834 0
-0.395 0.06073 0.916672 0.00149493
-0.393022 0.0567124 0.917779 0
-0.391546 0.0370244 0.919413 0
-0.409812 0.0300808 0.911674 0.0090774
-0.390141 0.0236514 0.920451 0
-0.39576 0.0188009 0.918162 0
-0.392663 0.0178329 0.919509 0
-0.392981 0.0179791 0.919371 0
-0.417689 0.00812469 0.908554 0.011579
-0.424769 0.00756889 0.90527 0.0144119
-0.482379 -0.016636 0.875805 0.0335659
-0.492545 -0.0240786 0.869954 0.038975
-0.483944 -0.0313233 0.874538 0.0315027
-0.488083 -0.0409072 0.871838 0.0353146
-0.474861 -0.0452242 0.878898 0.0247965
-0.47094 -0.0483991 0.880837 0.0263553
-0.453241 -0.0482273 0.890082 0.0157368
-0.448064 -0.0567209 0.8922 0.0136716
-0.457046 -0.0786437 0.885959 0.0160862
-0.456849 -0.0841923 0.885551 0.0133411
-0.441542 -0.0840684 0.893294 0.00846281
-0.460242 -0.0842931 0.883783 0.0159043
-0.438661 -0.0762546 0.895411 0.00274544
-0.431191 -0.0873962 0.898018 0.00398836
-0.476048 -0.113185 0.872105 0.0167628
-0.446189 -0.103693 0.888911 0.00766052
-0.471486 -0.111848 0.874752 0.0127224
-0.484942 -0.121462 0.86607 0.0172161
-0.446559 -0.11849 0.886874 0.00689926
-0.481745 -0.119233 0.868162 0.0195534
-0.462404 -0.127093 0.877514 0.0142576
-0.421041 -0.115657 0.899638 0
-0.413271 -0.119275 0.902763 0
-0.425592 -0.135611 0.894696 0.00492494
-0.415458 -0.124381 0.901068 0
-0.413479 -0.122217 0.902274 0
-0.422925 -0.139925 0.895296 0
-0.426228 -0.140142 0.893694 0
-0.448581 -0.159276 0.879435 0.00508399
-0.436822 -0.144487 0.887868 0.000286315
-0.48524 -0.174133 0.856866 0.00644987
-0.488424 -0.171767 0.855534 0.0140024
-0.511069 -0.187624 0.838812 0.0119515
-0.486742 -0.179389 0.854928 0.00592567
-0.495728 -0.182049 0.849183 0.00428078
-0.503566 -0.18997 0.842813 0.00959757
-0.489056 -0.184087 0.852606 0
-0.490899 -0.18086 0.852237 0.000244054
-0.51135 -0.195444 0.836853 0.00952809
-0.510602 -0.195697 0.83725 0.0032688
-0.492534 -0.185973 0.850191 0
-0.533544 -0.201255 0.821478 0.00877723
-0.508413 -0.195166 0.838705 0.00578663
-0.526349 -0.207212 0.824633 0.00655955
-0.542875 -0.208273 0.813578 0.00997228
-0.522215 -0.206829 0.827353 0.00380698
-0.520158 -0.209251 0.82804 0.00350165
-0.511041 -0.204337 0.834915 0
-0.520548 -0.208732 0.827926 0.00305014
-0.523404 -0.212302 0.825213 0.000111306
-0.521417 -0.222989 0.82365 0
-0.52164 -0.222882 0.823539 0
-0.523923 -0.227804 0.820738 0.00186071
-0.515977 -0.224109 0.826767 0
-0.532956 -0.227705 0.814928 0.00317126
-0.559828 -0.235169 0.794536 0.00743287
-0.547017 -0.229217 0.805129 0
-0.557052 -0.227467 0.798719 0
-0.511022 0.239512 0.825524 0
-0.521282 0.24907 0.816229 0
-0.500777 0.257089 0.826515 0
-0.495563 0.265939 0.826858 0
-0.499223 0.260821 0.826286 0
-0.499354 0.25565 0.827821 0
-0.497646 0.257173 0.828378 0
-0.493685 0.260028 0.829856 0
-0.496932 0.271071 0.824366 0
-0.505825 0.269281 0.81953 0
-0.509792 0.273011 0.815829 0
-0.507494 0.271756 0.817679 0
-0.501522 0.279496 0.818754 0
-0.486015 0.285911 0.82586 0
-0.485409 0.280006 0.828236 0
-0.512023 0.269455 0.815614 0
-0.496097 0.261868 0.827836 0
-0.497943 0.257731 0.828027 0
-0.507388 0.256387 0.822693 0.00213004
-0.525375 0.252126 0.812658 0.0154941
-0.509234 0.251644 0.823017 0.0143265
-0.48613 0.252329 0.836664 0.00338548
-0.47278 0.243543 0.846856 7.30884e-05
-0.476627 0.245427 0.844152 0.0043376
-0.497883 0.245271 0.831838 0.0146239
-0.524632 0.245895 0.815044 0.0256626
-0.545315 0.252954 0.799153 0.0339744
-0.544133 0.2321 0.806256 0.0375026
-0.52116 0.235575 0.820303 0.0360382
-0.514009 0.228973 0.826659 0.03733
-0.517372 0.234948 0.822876 0.0383959
-0.503976 0.231655 0.832072 0.0415091
-0.484509 0.224481 0.845493 0.0357748
-0.477907 0.227593 0.848414 0.0343285
-0.435327 0.222656 0.872304 0.0233854
-0.428218 0.217597 0.877087 0.0206786
-0.411503 0.22314 0.883671 0.00344018
-0.448044 0.219943 0.866534 0.0264009
-0.489662 0.216682 0.844559 0.0390861
-0.464285 0.219254 0.858118 0.0258313
-0.456746 0.215718 0.863046 0.0250123
-0.480086 0.210173 0.851672 0.0321937
-0.5152 0.206724 0.831766 0.0504453
-0.48824 0.204228 0.848477 0.0439827
-0.489327 0.199507 0.848973 0.0446836
-0.477591 0.194848 0.856703 0.0375601
-0.490842 0.188815 0.850543 0.0404853
-0.478821 0.177147 0.859854 0.0358191
-0.469072 0.185651 0.863426 0.0306178
-0.47448 0.177051 0.862277 0.0314778
-0.441988 0.168909 0.880975 0.0134866
-0.43699 0.169631 0.883326 0.00522827
-0.41913 0.166655 0.8925 0
-0.409707 0.169049 0.896417 0.0010325
-0.392316 0.169139 0.904146 0
-0.405267 0.160159 0.90006 0
-0.406235 0.155843 0.900381 0
-0.401969 0.147989 0.903615 0
-0.388986 0.141562 0.910302 0
-0.393967 0.129824 0.90991 0
-0.399197 0.125182 0.908279 0
-0.3916 0.134517 0.91025 0
-0.388797 0.125468 0.91274 0
-0.389258 0.122525 0.912944 0
-0.384906 0.11423 0.91586 0
-0.38451 0.102593 0.917402 0
-0.387022 0.121083 0.914086 0
-0.383192 0.112378 0.916807 0
-0.394411 0.100761 0.913393 0.00280946
-0.408205 0.0982155 0.907592 0.0133379
-0.391082 0.0908142 0.915864 0
-0.386472 0.0790549 0.918907 0.000144896
-0.410776 0.0771373 0.908467 0.0116276
-0.393163 0.0688745 0.916886 0.00187176
-0.390753 0.0583881 0.918642 0
-0.394185 0.0560699 0.917319 0
-0.390813 0.0427742 0.919476 0
-0.393262 0.0390976 0.918595 0
-0.390709 0.0381825 0.919722 0
-0.397211 0.0243982 0.917403 0.00582684
-0.404933 0.020966 0.914106 0.00708812
-0.407883 0.0245726 0.912704 0.0071975
-0.391488 0.0194592 0.919977 0
-0.395708 0.0148452 0.918256 0.00177426
-0.398243 0.00450204 0.917269 0.00737046
-0.402313 -0.000647823 0.915502 0.00133846
-0.407326 -0.00159357 0.913281 0.0100052
-0.421798 -0.0108179 0.906625 0.0199558
-0.419206 -0.0155476 0.907758 0.0153459
-0.476044 -0.0232676 0.879114 0.0343332
-0.424844 -0.0195423 0.905056 0.0152651
-0.435375 -0.0346756 0.899581 0.0266478
-0.471773 -0.0461974 0.880509 0.0348467
-0.449959 -0.0449347 0.891918 0.0255478
-0.441914 -0.0420545 0.896071 0.0228459
-0.463389 -0.0477569 0.884867 0.0280545
-0.456744 -0.051382 0.888113 0.0262146
-0.438476 -0.0536138 0.897142 0.0203075
-0.457171 -0.0533664 0.887776 0.0226256
-0.475659 -0.0631977 0.877357 0.0353496
-0.453234 -0.0592649 0.889419 0.0294882
-0.464934 -0.066516 0.882843 0.0230862
-0.455791 -0.0706939 0.887275 0.023543
-0.439858 -0.0585103 0.896159 0.0179141
-0.461823 -0.0778085 0.883553 0.0208721
-0.452791 -0.0761646 0.888357 0.0213509
-0.461965 -0.0865712 0.882663 0.0142874
-0.45782 -0.080865 0.88536 0.016217
-0.436912 -0.0834729 0.895623 0.00321914
-0.434536 -0.0770105 0.897356 0.00382699
-0.436545 -0.0967519 0.894465 0.00204213
-0.428059 -0.0901308 0.899245 0
-0.434114 -0.102218 0.89504 0.00242525
-0.421869 -0.0993847 0.901193 0.00094586
-0.45461 -0.112684 0.883534 0.0104595
-0.428727 -0.119132 0.895545 0
-0.452445 -0.137076 0.881195 0.0139023
-0.450888 -0.140264 0.881491 0.0154317
-0.41598 -0.127704 0.900362 0
-0.446641 -0.138797 0.883882 0.0109679
-0.431935 -0.143595 0.890401 0
-0.430112 -0.13716 0.892295 0
-0.458668 -0.153707 0.875213 0.00891221
-0.450027 -0.160488 0.878476 0.00510279
-0.470423 -0.167968 0.866308 0.00773896
-0.48441 -0.180647 0.855987 0.0116454
-0.492942 -0.182134 0.850785 0.0198423
-0.482352 -0.180335 0.857214 0.00600586
-0.506894 -0.188238 0.841205 0.0155106
-0.489368 -0.190066 0.851113 0.0063976
-0.49394 -0.184438 0.849709 0.00786657
-0.504186 -0.190755 0.842264 0.0097582
-0.511498 -0.198147 0.836127 0.0114119
-0.508637 -0.203316 0.836631 0.0048183
-0.508155 -0.20958 0.835377 0.0107354
-0.503154 -0.203789 0.839825 0.00927184
-0.508564 -0.204734 0.836329 0.00676267
-0.503866 -0.204861 0.839137 0.00817931
-0.513836 -0.203941 0.833295 0.00353396
-0.512961 -0.202791 0.834114 0.00849325
-0.540579 -0.211382 0.814305 0.0103799
-0.560939 -0.219038 0.798354 0.01736
-0.51163 -0.207683 0.833728 0.00197368
-0.516641 -0.206877 0.830833 0.00525934
-0.525946 -0.211182 0.823883 0.00354781
-0.536192 -0.216646 0.81582 0.00673312
-0.521211 -0.216017 0.825636 0.00153903
-0.520465 -0.221559 0.824638 0
-0.516621 -0.215496 0.828652 0
-0.509442 -0.221753 0.831442 0
-0.505534 -0.207807 0.837407 0
-0.527685 -0.23462 0.816396 0.00265447
-0.519142 -0.223942 0.824828 0
-0.540575 -0.236593 0.807343 0.00153658
-0.525961 -0.229153 0.819056 0
-0.548426 -0.229582 0.804065 0
-0.543376 -0.230427 0.807246 0
-0.564909 -0.229818 0.792503 0
-0.544589 -0.230286 0.806468 0
-0.586383 -0.233856 0.775543 0.00779307
-0.585155 -0.231662 0.777127 0.00739231
-0.598647 -0.232439 0.766546 0.0124551
-0.574329 0.154659 0.803882 0.0109393
-0.592562 0.160192 0.789435 0.0220299
-0.571659 0.189076 0.798408 0.0130829
-0.566655 0.200792 0.799115 0.0119381
-0.53157 0.211819 0.820101 0
-0.529067 0.219634 0.819664 0
-0.52231 0.221905 0.823377 0.00279189
-0.519566 0.227058 0.823709 0.00468393
-0.515197 0.236342 0.823841 0
-0.520072 0.250348 0.81661 0
-0.50085 0.257353 0.826389 0
-0.490123 0.260926 0.831683 0
-0.486734 0.259335 0.834167 0
-0.48267 0.267603 0.833918 0
-0.488974 0.256402 0.833764 0
-0.488172 0.252065 0.835554 0
-0.484347 0.259831 0.835401 0
-0.482955 0.261973 0.835538 0
-0.488986 0.273763 0.828219 0
-0.481303 0.281577 0.830098 0
-0.487916 0.277076 0.827748 0
-0.48565 0.279957 0.828111 0
-0.479376 0.270907 0.83475 0
-0.480641 0.266977 0.835289 0
-0.493399 0.259531 0.830181 0
-0.491494 0.253753 0.833092 0
-0.492004 0.254263 0.832636 0.000264204
-0.517312 0.25647 0.816463 0.0155254
-0.506875 0.260957 0.821571 0.0179969
-0.465101 0.246442 0.850263 0.00441865
-0.457993 0.253219 0.852128 0
-0.466818 0.261176 0.844907 0.00752587
-0.502317 0.249956 0.827768 0.017893
-0.516154 0.249922 0.819221 0.0259795
-0.488746 0.252392 0.83512 0.0197768
-0.527568 0.239519 0.815048 0.0331992
-0.50782 0.240956 0.827079 0.0316837
-0.48996 0.24363 0.837009 0.0228502
-0.520792 0.229746 0.822188 0.0417234
-0.506256 0.232957 0.830323 0.0366695
-0.460292 0.240695 0.854516 0.0202765
-0.509024 0.233192 0.828563 0.0386639
-0.4889 0.230198 0.841419 0.0347933
-0.457918 0.234049 0.857632 0.0184978
-0.444476 0.24296 0.862213 0.0150541
-0.480142 0.233556 0.845527 0.0304526
-0.460759 0.234482 0.85599 0.0257104
-0.45672 0.224096 0.860923 0.0226209
-0.449837 0.220885 0.865365 0.0193915
-0.466878 0.215047 0.857776 0.0291136
-0.447679 0.210225 0.869131 0.017802
-0.473037 0.209466 0.85578 0.0322782
-0.469037 0.204187 0.859251 0.0311379
-0.480067 0.189788 0.856456 0.0369003
-0.485498 0.191678 0.852966 0.0419883
-0.499425 0.191605 0.844904 0.0525367
-0.489611 0.188169 0.851395 0.0477729
-0.465128 0.176937 0.867381 0.0378881
-0.476383 0.187549 0.859002 0.0362518
-0.473614 0.174789 0.863214 0.0383659
-0.459011 0.173389 0.871347 0.0296978
-0.466902 0.169697 0.867874 0.026813
-0.452288 0.172148 0.8751 0.0253224
-0.429708 0.161537 0.888401 0.0126978
-0.437017 0.170386 0.883168 0.00927366
-0.430469 0.166155 0.88718 0.0100785
-0.409861 0.167192 0.896694 0
-0.414532 0.164649 0.895016 0
-0.423148 0.159636 0.891887 0.00835779
-0.402479 0.161251 0.901115 0
-0.412047 0.169523 0.895254 0
-0.407394 0.169892 0.897311 0
-0.403088 0.159534 0.901149 0
-0.402185 0.151741 0.902897 0
-0.395775 0.144876 0.906848 0
-0.395148 0.143055 0.90741 0
-0.388708 0.146922 0.909571 0
-0.390884 0.130468 0.911146 0
-0.390212 0.12393 0.912347 0
-0.392471 0.123093 0.911491 0
-0.399425 0.11016 0.910123 0.000601201
-0.400762 0.111652 0.909353 0.000697571
-0.412008 0.0921704 0.906507 0.0161409
-0.397905 0.0919557 0.912807 0.00472202
-0.399495 0.0855569 0.912734 0
-0.398573 0.068331 0.914588 0
-0.395085 0.0682432 0.916106 0
-0.396469 0.0684614 0.915492 0
-0.39648 0.0565085 0.916303 0
-0.397766 0.0549076 0.915843 0
-0.398296 0.0575004 0.915453 0
-0.399186 0.0314062 0.916332 0
-0.403704 0.0369929 0.914141 0.00263546
-0.396058 0.0409554 0.917312 0
-0.421302 0.0177421 0.906747 0.0153692
-0.415215 0.024547 0.909392 0.00871292
-0.41361 0.0319373 0.909894 0.00757069
-0.407163 0.00957611 0.913305 0.00642272
-0.398434 0.0127326 0.917109 0
-0.397463 0.0138125 0.917514 0.00192583
-0.411839 -0.00222472 0.911254 0.0126251
-0.39024 -0.00156623 0.920712 0.00112059
-0.394586 0.000547275 0.918859 0.00577116
-0.421426 -0.0165912 0.906711 0.0175526
-0.414494 -0.0167937 0.909897 0.0130483
-0.407083 -0.0169758 0.913234 0.0105836
-0.424158 -0.025174 0.905238 0.0176024
-0.430351 -0.0360068 0.901943 0.0169806
-0.423732 -0.0257179 0.905423 0.0199272
-0.444273 -0.0401338 0.894992 0.0275882
-0.416176 -0.0379239 0.908493 0.0154551
-0.41531 -0.0362328 0.908958 0.0145952
-0.449001 -0.0603422 0.891492 0.0292981
-0.439385 -0.0550063 0.896613 0.0259063
-0.425326 -0.0491284 0.903706 0.0233894
-0.464815 -0.0682829 0.882771 0.0363728
-0.467554 -0.0681481 0.881334 0.0402906
-0.448545 -0.066743 0.891265 0.0328189
-0.433662 -0.0609332 0.899013 0.0204836
-0.45581 -0.0690626 0.887394 0.036056
-0.464261 -0.0740102 0.882601 0.0387591
-0.443131 -0.0749523 0.893318 0.0189113
-0.454523 -0.0785492 0.887265 0.0273569
-0.45767 -0.0811394 0.885412 0.0189102
-0.461223 -0.0829938 0.883394 0.0253888
-0.467663 -0.0889566 0.879419 0.0325507
-0.424838 -0.0841579 0.901349 0.001442
-0.449615 -0.0851427 0.889155 0.019825
-0.426962 -0.0977548 0.89897 0.00152261
-0.413773 -0.0962785 0.905275 0
-0.41506 -0.0954582 0.904772 0.00399774
-0.421691 -0.100258 0.90118 0
-0.425026 -0.111547 0.898282 0
-0.430881 -0.124162 0.893826 0
-0.427355 -0.125599 0.895317 0.00594681
-0.443682 -0.136102 0.885789 0.0134648
-0.444053 -0.145071 0.884178 0.0113665
-0.454901 -0.142175 0.87912 0.018204
-0.47059 -0.150105 0.86949 0.0223465
-0.469198 -0.159485 0.868572 0.0212104
-0.454887 -0.143708 0.878878 0.0146047
-0.46502 -0.15488 0.871647 0.0204078
-0.453974 -0.152955 0.877788 0.00654933
-0.461228 -0.152707 0.874042 0.0117486
-0.45387 -0.163797 0.875884 0.00509875
-0.451445 -0.15844 0.87812 0.00591807
-0.461075 -0.181909 0.868515 0.00765432
-0.496746 -0.192089 0.846372 0.0149542
-0.476299 -0.185471 0.8595 0.0127678
-0.516122 -0.193647 0.834337 0.0161816
-0.51234 -0.195972 0.836123 0.0154197
-0.492668 -0.196618 0.847714 0.00423098
-0.492216 -0.203269 0.846407 0.00411119
-0.508805 -0.205271 0.836051 0.00917821
-0.509109 -0.20652 0.835558 0.00812761
-0.499905 -0.204683 0.841546 0.00712945
-0.486022 -0.202105 0.850256 0.00405966
-0.503223 -0.207544 0.838864 0.0087393
-0.534182 -0.20687 0.819667 0.0155122
-0.533396 -0.219148 0.816984 0.0192477
-0.542341 -0.214312 0.812365 0.0162527
-0.537056 -0.213647 0.816042 0.0142503
-0.501027 -0.203778 0.841099 0
-0.514861 -0.220396 0.828459 0.00575286
-0.498484 -0.205351 0.842226 0
-0.486869 -0.209113 0.848075 0
-0.503417 -0.213536 0.837242 0
-0.502608 -0.212084 0.838096 0
-0.516847 -0.219502 0.827459 0
-0.508801 -0.215235 0.833544 0
-0.521239 -0.22181 0.824082 0.00173645
-0.512601 -0.217929 0.83051 0
-0.544214 -0.230343 0.806705 0.00249743
-0.526707 -0.225327 0.819639 0
-0.547287 -0.227326 0.805481 0
-0.536152 -0.225151 0.81354 0
-0.548557 -0.231239 0.803501 0
-0.543009 -0.230587 0.807447 0
-0.548472 -0.240651 0.800791 0
-0.572786 -0.238723 0.784173 0.00897485
-0.596312 -0.233431 0.768063 0.0135864
-0.597504 -0.232059 0.767553 0.01193
-0.600321 -0.236739 0.763917 0.0173942
-0.587037 -0.222399 0.778413 0.00781722
-0.595893 -0.226264 0.77053 0.0148127
-0.516219 -0.091418 0.851564 0.0015959
-0.554211 -0.105969 0.825603 0.0121325
-0.519566 -0.0876132 0.849927 0
-0.517999 -0.0737221 0.852198 0.00328006
-0.54131 -0.0687929 0.838004 0.0078242
-0.541975 -0.0715261 0.837345 0.002172
-0.580155 0.0485579 0.813058 0.0178244
-0.585848 0.0437718 0.809238 0.0192172
-0.56719 0.0633283 0.821149 0.0141688
-0.543358 0.0671177 0.836814 0.00699115
-0.561889 0.0662214 0.824557 0.0100275
-0.554667 0.0754536 0.828644 0.0113501
-0.520413 0.0972504 0.848359 0.000159929
-0.55398 0.105666 0.825797 0.0149138
-0.557913 0.108551 0.82277 0.00891223
-0.574799 0.116165 0.810007 0.0161442
-0.540684 0.129933 0.831131 0.00597371
-0.601846 0.13929 0.786371 0.0187742
-0.619417 0.147823 0.771019 0.0247003
-0.615065 0.147392 0.774578 0.0270401
-0.582267 0.15166 0.798727 0.0141623
-0.6093 0.148937 0.778827 0.0275319
-0.607062 0.157016 0.778987 0.0252445
-0.577448 0.173459 0.797788 0.0173024
-0.610279 0.179403 0.771605 0.0258401
-0.560584 0.201945 0.803096 0.0153467
-0.556919 0.21189 0.803084 0.0160073
-0.531454 0.224043 0.816922 0.0052362
-0.567406 0.216967 0.79434 0.0196047
-0.547135 0.218826 0.807935 0.0113339
-0.536653 0.22123 0.814286 0.00953125
-0.526847 0.224216 0.819853 0.0087068
-0.496803 0.238093 0.834565 0
-0.494134 0.245007 0.834148 0
-0.489754 0.255767 0.833501 0
-0.482409 0.261948 0.835862 0
-0.483431 0.265619 0.834111 0
-0.48171 0.278954 0.830747 0
-0.477499 0.270177 0.836061 0
-0.4642 0.269025 0.843886 0
-0.487555 0.260167 0.833429 0
-0.481315 0.266272 0.835126 0
-0.4758 0.263411 0.839183 0
-0.477062 0.266203 0.837584 0
-0.482971 0.266707 0.83403 0
-0.475262 0.27212 0.836706 0
-0.476674 0.270309 0.836489 0
-0.47585 0.287428 0.831235 0
-0.469737 0.280396 0.837093 0
-0.479073 0.267276 0.836094 0
-0.481732 0.263271 0.835837 0
-0.465363 0.25543 0.847463 0
-0.476894 0.262852 0.838738 0
-0.492298 0.261198 0.830312 0.0153001
-0.477075 0.248956 0.842864 0.0105119
-0.445987 0.254001 0.858242 0
-0.472437 0.252875 0.844309 0.0106302
-0.463088 0.252259 0.849656 0.00881474
-0.456046 0.261554 0.850654 0.0134165
-0.474272 0.257919 0.841751 0.0107684
-0.467611 0.258463 0.845303 0.0163038
-0.436045 0.257175 0.862395 0.00215232
-0.471074 0.256277 0.844045 0.0149425
-0.475486 0.249723 0.843535 0.0186768
-0.453645 0.24913 0.855652 0.0170566
-0.48074 0.251551 0.840007 0.0215435
-0.490047 0.243313 0.83705 0.0312041
-0.447954 0.243536 0.860248 0.0147299
-0.466296 0.239342 0.851636 0.0192582
-0.451672 0.244409 0.858054 0.0168286
-0.439385 0.23849 0.866062 0.0118849
-0.446405 0.247066 0.860047 0.01848
-0.432392 0.24872 0.866704 0.0126947
-0.457916 0.245191 0.854514 0.0266191
-0.469007 0.229896 0.852748 0.0279799
-0.486382 0.22489 0.844308 0.0359577
-0.46192 0.216338 0.860133 0.0230988
-0.46285 0.209477 0.86133 0.0278349
-0.457644 0.192367 0.868076 0.0260786
-0.48429 0.188869 0.854279 0.0437699
-0.488516 0.194689 0.850558 0.0475378
-0.486159 0.190154 0.852931 0.0412172
-0.468323 0.186825 0.86358 0.0373729
-0.483785 0.178862 0.856715 0.0484736
-0.475212 0.181258 0.860999 0.0433446
-0.447312 0.177035 0.876682 0.0335991
-0.435209 0.171874 0.883772 0.0207851
-0.413441 0.173271 0.893892 0.0120664
-0.439218 0.169068 0.882328 0.0178806
-0.426488 0.162756 0.889729 0.0160319
-0.403348 0.167884 0.899514 0.00315574
-0.409737 0.165712 0.897026 0
-0.404891 0.163109 0.899699 0
-0.397757 0.170548 0.9015 0
-0.402659 0.173005 0.898852 0
-0.392163 0.175283 0.903042 0
-0.385453 0.185389 0.903912 0
-0.401853 0.157794 0.902006 0
-0.38963 0.167546 0.905603 0
-0.379968 0.164986 0.910167 0
-0.397822 0.145018 0.905929 0
-0.396172 0.151477 0.905595 0
-0.385511 0.136882 0.912494 0
-0.392746 0.15114 0.907143 0
-0.389149 0.138871 0.910647 0
-0.385999 0.133999 0.912715 0
-0.390157 0.118379 0.913107 0
-0.39112 0.111585 0.91355 0
-0.395121 0.104793 0.912632 0
-0.395767 0.104311 0.912408 0
-0.387858 0.111708 0.914925 0
-0.397528 0.0934636 0.912818 0
-0.391162 0.100677 0.914799 0
-0.391441 0.0809918 0.916632 0
-0.39526 0.0804487 0.91504 0
-0.397631 0.0605391 0.915546 0
-0.399771 0.0624826 0.914483 0
-0.395942 0.0430435 0.917266 0
-0.393456 0.0467031 0.918156 0
-0.405366 0.0245957 0.913824 0.0048769
-0.389502 0.0298183 0.920543 0.00194994
-0.403053 0.0107952 0.915113 0.00921423
-0.406975 0.0137453 0.913336 0.0135933
-0.396599 0.0125939 0.917906 0.00896627
-0.390676 0.00188163 0.920526 0.00374901
-0.397362 -0.00329361 0.917656 0.0113391
-0.40398 -0.00738934 0.914738 0.0177308
-0.398369 -0.0110631 0.917159 0.00969332
-0.410691 -0.0108526 0.91171 0.0203481
-0.405916 -0.0139529 0.913804 0.0171405
-0.40724 -0.0227117 0.913038 0.0121288
-0.407509 -0.0197104 0.912989 0.0131933
-0.397435 -0.0224195 0.917356 0.0105076
-0.407315 -0.0403336 0.912397 0.0136534
-0.395013 -0.0347485 0.918018 0.00480033
-0.415247 -0.0483318 0.908424 0.0165409
-0.417313 -0.0508995 0.907336 0.01664
-0.41972 -0.0594725 0.905703 0.0257921
-0.451147 -0.0741282 0.889366 0.0328851
-0.463515 -0.0821163 0.882276 0.042237
-0.470828 -0.080197 0.878572 0.0416473
-0.479116 -0.0798148 0.874115 0.0492091
-0.460304 -0.0856757 0.883618 0.0316953
-0.470841 -0.0820507 0.878394 0.0380353
-0.467442 -0.086109 0.87982 0.041137
-0.465984 -0.0881192 0.880394 0.0314207
-0.462417 -0.0915683 0.881922 0.0336678
-0.467088 -0.098116 0.87875 0.039067
-0.465121 -0.0909863 0.880559 0.0284615
-0.45505 -0.0984164 0.885011 0.0300463
-0.46871 -0.109655 0.87652 0.0407807
-0.416913 -0.104206 0.902953 0
-0.417031 -0.0969155 0.903711 0
-0.44454 -0.106455 0.889411 0.0217852
-0.452772 -0.123616 0.883016 0.033252
-0.430784 -0.120614 0.894359 0.0050639
-0.417416 -0.11442 0.901483 0
-0.441149 -0.133298 0.887479 0.0211106
-0.448783 -0.131822 0.883865 0.0322137
-0.438231 -0.128249 0.889666 0.00938794
-0.452706 -0.140407 0.880536 0.0192335
-0.470289 -0.153011 0.869146 0.0305995
-0.461513 -0.15549 0.873401 0.0199754
-0.464388 -0.160752 0.87092 0.0214283
-0.482313 -0.17644 0.858046 0.0285621
-0.441173 -0.158316 0.883347 0.00499167
-0.446294 -0.166339 0.879291 0.00702362
-0.450549 -0.164469 0.877471 0.00661426
-0.442381 -0.177682 0.87905 0.00240632
-0.465071 -0.169603 0.868875 0.0135045
-0.461715 -0.17585 0.869423 0.0142634
-0.441946 -0.170776 0.880636 0.0013342
-0.465103 -0.180344 0.866692 0.0106304
-0.479077 -0.194431 0.855968 0.0224776
-0.439397 -0.185154 0.879004 0.00153107
-0.487846 -0.189272 0.852163 0.0135654
-0.483796 -0.202487 0.851434 0.0186521
-0.496287 -0.19745 0.845407 0.0166879
-0.486625 -0.199049 0.850632 0.0155264
-0.478179 -0.197338 0.855805 0.00163219
-0.473863 -0.192895 0.859212 0.0026687
-0.506922 -0.201921 0.838008 0.00983499
-0.479983 -0.195983 0.855106 0.00377804
-0.517225 -0.214912 0.828427 0.0170666
-0.520778 -0.217044 0.82564 0.0126836
-0.528333 -0.215262 0.821296 0.0143313
-0.53439 -0.214128 0.817665 0.0144041
-0.531396 -0.217006 0.818857 0.0175993
-0.511958 -0.217443 0.831034 0.0100809
-0.516473 -0.211408 0.829797 0.0100111
-0.51365 -0.211689 0.831476 0.0101526
-0.48873 -0.20946 0.846918 0
-0.500294 -0.212683 0.839328 0.0041884
-0.510935 -0.219151 0.831215 0.010351
-0.497096 -0.208723 0.842217 0
-0.502094 -0.21035 0.838841 0
-0.510005 -0.209594 0.834246 0
-0.511675 -0.221389 0.830166 0
-0.511774 -0.217912 0.831024 0
-0.52312 -0.218059 0.823891 0
-0.520242 -0.22004 0.825185 0
-0.519764 -0.213156 0.82729 0
-0.531676 -0.22636 0.816138 0
-0.524199 -0.228468 0.820376 0
-0.513488 -0.224433 0.828227 0
-0.540851 -0.232828 0.808252 0
-0.543191 -0.234486 0.806201 0
-0.542222 -0.240096 0.805201 0.000248999
-0.555044 -0.239107 0.796714 0.00605101
-0.56891 -0.233157 0.788657 0.00639966
-0.566287 -0.237739 0.789176 0.00798963
-0.58573 -0.232762 0.776365 0.0121994
-0.588142 -0.232827 0.77452 0.015454
-0.593862 -0.232291 0.770304 0.0165074
-0.577169 -0.23104 0.78326 0.0133092
-0.596548 -0.228398 0.769392 0.0153475
-0.608444 -0.227571 0.760267 0.0189514
-0.617191 -0.223274 0.754469 0.0210191
-0.614524 -0.207128 0.761222 0.0226289
-0.612523 -0.203268 0.763871 0.0226825
-0.611944 -0.198178 0.76567 0.0201722
-0.518272 -0.0946946 0.849957 0
-0.504773 -0.0765956 0.859847 0
-0.50248 -0.0784854 0.861019 0
-0.531842 -0.0988943 0.84105 0.00117004
-0.520131 -0.08362 0.849983 0
-0.539008 -0.0790371 0.838584 0.00423144
-0.535469 -0.0868428 0.840078 0
-0.547459 -0.0700067 0.833899 0.00960172
-0.547166 -0.0720775 0.833915 0
-0.557244 -0.0807174 0.826416 0.00524705
-0.556482 -0.0638431 0.828403 0.00160057
-0.566372 -0.0871607 0.819528 0.00103646
-0.582331 0.0136007 0.812838 0.0139383
-0.566653 0.0344896 0.823234 0.0115058
-0.600182 0.0283025 0.799363 0.0221298
-0.559756 0.0449261 0.827439 0.0112792
-0.564763 0.0572549 0.823265 0.0176406
-0.557131 0.0692638 0.827531 0.0127294
-0.53753 0.0819695 0.839251 0.0057116
-0.5633 0.0797693 0.822393 0.0136108
-0.528657 0.102193 0.842661 0.00516034
-0.556335 0.0845085 0.82665 0.00932296
-0.553427 0.0975801 0.827162 0.0143088
-0.552291 0.101961 0.827393 0.0128889
-0.570959 0.105461 0.814176 0.0168638
-0.580494 0.109313 0.806894 0.0219692
-0.584832 0.124645 0.80152 0.0214218
-0.605196 0.133437 0.784813 0.0248776
-0.602069 0.142852 0.785561 0.0249753
-0.606778 0.150039 0.780582 0.0295322
-0.585133 0.151293 0.796699 0.0273209
-0.584201 0.160846 0.795511 0.0238418
-0.569769 0.170745 0.803871 0.0173324
-0.55281 0.176161 0.814474 0.00921361
-0.569169 0.185086 0.801118 0.0174309
-0.571975 0.192164 0.797445 0.0186417
-0.587692 0.20078 0.783776 0.0237127
-0.526757 0.206779 0.824481 0.0113218
-0.540401 0.221218 0.811806 0.014328
-0.538759 0.210992 0.815611 0.0188539
-0.514948 0.223077 0.827687 0.0103165
-0.516512 0.21819 0.828015 0.0139197
-0.528404 0.218959 0.820272 0.0136334
-0.503861 0.223893 0.834264 0.00711173
-0.500593 0.224325 0.836113 0.00398105
-0.495145 0.234898 0.836453 0.00342877
-0.489321 0.237783 0.839062 0.000202512
-0.475356 0.260519 0.840337 0
-0.470291 0.261597 0.842848 0
-0.487346 0.26143 0.833156 0
-0.473103 0.274064 0.837295 0
-0.465053 0.266361 0.844261 0
-0.465675 0.266867 0.843759 0
-0.479144 0.262014 0.837717 0
-0.474368 0.258392 0.841551 0
-0.472189 0.260531 0.842117 0
-0.474296 0.268723 0.83835 0
-0.478786 0.275011 0.833746 0
-0.479015 0.270029 0.835242 0
-0.471001 0.277 0.837514 0
-0.476229 0.264681 0.83854 0
-0.459977 0.262449 0.848258 0
-0.464746 0.264471 0.845024 0
-0.462012 0.258076 0.848494 0
-0.499958 0.252358 0.828467 0.0203511
-0.462876 0.26493 0.845906 0
-0.472741 0.257778 0.842654 0.00579216
-0.470859 0.251654 0.845554 0.0127503
-0.475748 0.263899 0.83906 0.0107208
-0.445092 0.257912 0.85754 0
-0.435551 0.251936 0.86419 0
-0.461112 0.258683 0.848799 0.0154981
-0.453484 0.25775 0.853181 0.0158008
-0.438652 0.260067 0.860204 0.00989534
-0.435308 0.263392 0.86089 0.00943724
-0.423461 0.263246 0.866823 0
-0.408052 0.253772 0.87698 0
-0.42749 0.254012 0.8676 0
-0.441694 0.252766 0.860823 0.0107047
-0.423787 0.249908 0.870604 0.0131357
-0.458219 0.25144 0.852534 0.026586
-0.447193 0.24018 0.861587 0.0206889
-0.446306 0.248593 0.859658 0.0257181
-0.456009 0.248454 0.854591 0.0262571
-0.447741 0.243756 0.860297 0.0246435
-0.454979 0.242988 0.85671 0.0332133
-0.451869 0.246491 0.857355 0.0256386
-0.463051 0.242794 0.852429 0.0335554
-0.502256 0.233642 0.832556 0.0500816
-0.501148 0.231561 0.833805 0.051577
-0.474125 0.231191 0.849563 0.0407291
-0.480016 0.21303 0.851001 0.0408161
-0.460762 0.213095 0.861562 0.0312133
-0.451592 0.210424 0.867056 0.0266961
-0.47056 0.206313 0.857909 0.0396294
-0.467308 0.205822 0.859802 0.0381959
-0.458168 0.205641 0.864751 0.0350232
-0.472091 0.196217 0.859435 0.0403695
-0.461852 0.190149 0.866335 0.0404943
-0.446287 0.193719 0.873671 0.0330103
-0.452201 0.183806 0.872771 0.0362809
-0.420026 0.185138 0.888427 0.0196498
-0.415523 0.190153 0.889485 0.0181108
-0.416135 0.180023 0.891304 0.0124422
-0.394177 0.183545 0.90052 0.00302755
-0.38225 0.182525 0.905853 0.0038246
-0.41584 0.167307 0.893916 0.0107396
-0.390281 0.179293 0.90307 0
-0.375855 0.181547 0.908721 0
-0.392321 0.176733 0.90269 0
-0.384806 0.18281 0.904713 0
-0.377164 0.185007 0.90748 0.00382581
-0.376217 0.192664 0.906279 0
-0.375937 0.192325 0.906467 0
-0.37962 0.177338 0.907987 0
-0.381985 0.164511 0.909408 0
-0.376388 0.169165 0.910887 0
-0.380668 0.147842 0.912817 0
-0.389476 0.138503 0.910563 0.00981452
-0.379216 0.149942 0.913079 0.00918775
-0.386875 0.134046 0.912337 0
-0.383621 0.135159 0.913546 0
-0.388141 0.136562 0.911426 0.0081915
-0.377345 0.138585 0.915644 0.00224944
-0.391112 0.121874 0.912238 0
-0.380156 0.127022 0.916158 0
-0.380744 0.133759 0.914955 0
-0.376523 0.125007 0.917934 0
-0.383449 0.12448 0.915135 0
-0.384454 0.109528 0.916624 0.00276778
-0.376435 0.103845 0.920605 0.00166325
-0.395305 0.0919297 0.913938 0
-0.383188 0.101577 0.918068 0
-0.383133 0.0950149 0.918794 0.00420792
-0.382092 0.0840479 0.920294 0.00564675
-0.391017 0.088756 0.916094 0
-0.393115 0.0820949 0.915817 0.00375964
-0.387825 0.0801667 0.91824 0.00260666
-0.380869 0.0855696 0.920661 0
-0.394768 0.0643537 0.916524 0
-0.383608 0.0677207 0.92101 0
-0.388036 0.064251 0.919402 0.00688334
-0.387524 0.0564244 0.920131 0
-0.389461 0.0571536 0.919268 0.00165344
-0.390981 0.0462682 0.919235 0.00859295
-0.395739 0.0390302 0.917533 0.00990586
-0.395496 0.0430983 0.917456 0.0104588
-0.395939 0.0363286 0.917558 0.0121333
-0.391572 0.0277333 0.919729 0.00644458
-0.384133 0.0338064 0.922659 0.00254066
-0.384472 0.0293391 0.92267 0.00300626
-0.397222 0.00499242 0.917709 0.0141278
-0.39052 0.0108528 0.920531 0.0103303
-0.378036 -0.0103602 0.925733 0
-0.378788 -0.0091174 0.925438 0.0010934
-0.401504 -0.0262436 0.915481 0.016832
-0.408347 -0.0355458 0.912134 0.0191241
-0.391852 -0.0385085 0.919222 0.0053199
-0.405655 -0.0434759 0.912992 0.0178304
-0.409542 -0.055091 0.910627 0.0186986
-0.41452 -0.0589616 0.908128 0.0213856
-0.418229 -0.0660235 0.905939 0.0261267
-0.443467 -0.0690777 0.893625 0.0374267
-0.445695 -0.0757326 0.891976 0.04164
-0.434212 -0.0780418 0.897424 0.037248
-0.452451 -0.0751355 0.888618 0.0425161
-0.453991 -0.0814492 0.887276 0.0476967
-0.437518 -0.0797058 0.89567 0.0411239
-0.467675 -0.0977108 0.878483 0.0501894
-0.457951 -0.104227 0.882846 0.0496696
-0.450628 -0.109792 0.885935 0.0481917
-0.462852 -0.106791 0.879979 0.0438777
-0.470952 -0.114395 0.874711 0.0552624
-0.465618 -0.118253 0.877049 0.051913
-0.475558 -0.116512 0.871934 0.0460745
-0.484372 -0.127757 0.865484 0.0533461
-0.471849 -0.127658 0.872389 0.051884
-0.457034 -0.127748 0.880227 0.0373972
-0.47576 -0.137202 0.868808 0.0503495
-0.466267 -0.138192 0.873784 0.048522
-0.463079 -0.148509 0.873786 0.0340892
-0.462402 -0.149772 0.873929 0.0396763
-0.478746 -0.169606 0.861415 0.0351923
-0.459389 -0.161823 0.87337 0.0306445
-0.455806 -0.1641 0.874821 0.0304738
-0.483363 -0.179576 0.856804 0.0321687
-0.45848 -0.18006 0.870273 0.0221706
-0.449794 -0.177278 0.875361 0.00744657
-0.451818 -0.182102 0.873327 0.0130236
-0.44268 -0.185536 0.877275 0.000541845
-0.441301 -0.190338 0.876941 0.000352538
-0.444403 -0.186984 0.876095 0.00765477
-0.487389 -0.19512 0.851105 0.0249643
-0.477475 -0.202459 0.855002 0.0166905
-0.467754 -0.206866 0.85931 0.0101188
-0.459817 -0.205154 0.863991 0.00929578
-0.485675 -0.206124 0.84949 0.026552
-0.463862 -0.205503 0.861743 0.0155395
-0.467657 -0.210367 0.858512 0.0166003
-0.456864 -0.204005 0.865828 0.0116647
-0.461923 -0.204978 0.862908 0.0165729
-0.48574 -0.20287 0.850235 0.0210222
-0.470437 -0.203788 0.85858 0.0143531
-0.481108 -0.196476 0.854361 0.012314
-0.454055 -0.197787 0.868743 0.0040272
-0.469876 -0.194392 0.861063 0
-0.464502 -0.197737 0.863214 0
-0.48741 -0.204036 0.849 0.00881138
-0.483499 -0.201031 0.851948 0.00559898
-0.476134 -0.20216 0.85582 0.00413793
-0.495438 -0.215544 0.841476 0.0126307
-0.46852 -0.204892 0.859365 0
-0.503075 -0.216407 0.83671 0.0164724
-0.495596 -0.217475 0.840886 0.0173151
-0.519345 -0.225778 0.8242 0.0183914
-0.519992 -0.218682 0.825704 0.0143503
-0.504042 -0.210352 0.837671 0.00699481
-0.505189 -0.214685 0.83588 0.00868727
-0.506922 -0.21646 0.834371 0
-0.503271 -0.218607 0.83602 0
-0.510553 -0.215787 0.832329 0
-0.50334 -0.220925 0.835369 0
-0.50992 -0.21473 0.83299 0
-0.511205 -0.226789 0.828997 0
-0.513936 -0.221743 0.828674 0
-0.503958 -0.219349 0.835411 0
-0.524594 -0.22971 0.819777 0
-0.519603 -0.232451 0.82218 0
-0.53493 -0.234546 0.811688 0
-0.539625 -0.242087 0.806349 0
-0.528204 -0.240978 0.814205 0
-0.549202 -0.238246 0.801009 0.00612023
-0.558334 -0.242047 0.793521 0.0078215
-0.564707 -0.234127 0.791385 0.00711328
-0.58991 -0.233154 0.773075 0.0163942
-0.597886 -0.236532 0.765888 0.0183705
-0.588871 -0.230108 0.774778 0.0160694
-0.597091 -0.228305 0.768999 0.0196929
-0.590657 -0.229434 0.773618 0.0171919
-0.608273 -0.231564 0.759199 0.0241069
-0.623468 -0.217402 0.751015 0.0231461
-0.602574 -0.225955 0.765408 0.0200415
-0.634423 -0.21033 0.74382 0.0289794
-0.62376 -0.210214 0.752817 0.0252441
-0.592526 -0.204796 0.779084 0.0175387
-0.603972 -0.203222 0.770661 0.0192357
-0.600545 -0.200046 0.774162 0.0209642
-0.603841 -0.188707 0.774445 0.0210293
-0.594433 -0.185359 0.78249 0.0132189
-0.568826 -0.177103 0.803164 0
-0.572358 -0.172839 0.801582 0
-0.504571 -0.0785579 0.859789 0
-0.480783 -0.0589101 0.874858 0
-0.470071 -0.0675135 0.880043 0
-0.508723 -0.0664453 0.858362 0
-0.505428 -0.0738911 0.859699 0
-0.523769 -0.06285 0.849538 0
-0.508671 -0.0539001 0.859272 0
-0.565447 -0.0862369 0.820264 0.0140741
-0.532142 -0.0601579 0.844515 0
-0.546398 -0.064162 0.835064 0.00148028
-0.563294 -0.0628735 0.823861 0.0019689
-0.563401 -0.065349 0.823595 0.0112895
-0.556144 -0.0408172 0.830083 0
-0.572192 -0.0617211 0.817794 0.00601528
-0.550646 -0.0226388 0.834432 0
-0.551816 -0.0278025 0.833502 0
-0.56396 -0.022966 0.825483 0
-0.570765 -0.0267265 0.820678 0
-0.57402 -0.0236581 0.818499 0.00404429
-0.578756 -0.000831243 0.8155 0.0136496
-0.562382 0.0251475 0.826495 0.0104344
-0.549638 0.0438429 0.834251 0.00795887
-0.527539 0.0533338 0.847855 0
-0.515299 0.0649899 0.854543 0.0013412
-0.553912 0.0678397 0.829807 0.014634
-0.554356 0.0735 0.829028 0.00921142
-0.556283 0.0823969 0.826898 0.0122919
-0.574538 0.0900982 0.813504 0.022113
-0.571008 0.0969827 0.815196 0.0210521
-0.575577 0.10698 0.81072 0.0239921
-0.613962 0.121115 0.779989 0.0322702
-0.600335 0.135353 0.788211 0.032809
-0.600602 0.126054 0.789549 0.0345873
-0.595436 0.143616 0.790462 0.0296522
-0.591376 0.139413 0.794253 0.0298951
-0.584094 0.15405 0.796934 0.0280805
-0.575373 0.154941 0.803081 0.0264622
-0.562804 0.166643 0.809618 0.0190993
-0.554029 0.17937 0.812944 0.0193161
-0.542234 0.18283 0.820095 0.0126433
-0.54421 0.186857 0.817876 0.0153041
-0.553606 0.202925 0.807677 0.0207461
-0.534023 0.211704 0.818536 0.0171901
-0.503322 0.215858 0.836703 0.00386356
-0.532473 0.213952 0.818961 0.0214865
-0.527768 0.222062 0.819847 0.0181776
-0.506899 0.225321 0.832036 0.0149076
-0.499938 0.22183 0.83717 0.00866947
-0.494931 0.225596 0.839136 0
-0.498562 0.229741 0.835856 0
-0.499726 0.234278 0.833899 0.0054136
-0.49503 0.233988 0.836776 0.00364915
-0.486066 0.232549 0.842413 0
-0.473543 0.246918 0.845452 0
-0.4778 0.247316 0.842937 0
-0.464657 0.259849 0.846506 0
-0.47205 0.258253 0.842896 0
-0.468385 0.271325 0.840832 0
-0.467816 0.257435 0.845503 0
-0.473904 0.269795 0.838228 0
-0.475698 0.268559 0.837608 0
-0.49563 0.266463 0.826648 0.0126173
-0.481058 0.256832 0.838224 0.00102661
-0.479747 0.262137 0.837334 0.00429452
-0.469943 0.263103 0.842574 0.00141218
-0.467167 0.270799 0.841678 0
-0.46905 0.277842 0.838329 0
-0.468559 0.278153 0.838501 0
-0.471724 0.268011 0.840028 0
-0.467838 0.265459 0.843006 0
-0.461792 0.255613 0.849359 0
-0.458246 0.262499 0.849179 0
-0.454101 0.269458 0.849226 0
-0.46231 0.254649 0.849366 0
-0.470899 0.259082 0.843286 0.00463409
-0.450037 0.254333 0.856027 0
-0.4715 0.250148 0.845644 0.0151156
-0.443444 0.252924 0.859876 0
-0.429488 0.253173 0.866858 0
-0.413941 0.268472 0.869814 0
-0.417973 0.256269 0.871565 0.00810678
-0.404053 0.259517 0.87715 0
-0.392367 0.255926 0.883488 0
-0.411599 0.248689 0.876778 0.00897874
-0.391789 0.252161 0.884825 0.000796894
-0.381017 0.247611 0.890795 0
-0.413557 0.248793 0.875827 0.00785087
-0.390587 0.250306 0.885883 0
-0.387971 0.24347 0.888933 0.00436985
-0.43006 0.254691 0.86613 0.0187538
-0.406306 0.256947 0.876866 0.0143377
-0.41429 0.25721 0.873045 0.0198021
-0.458904 0.252796 0.851763 0.0318961
-0.432753 0.25004 0.866144 0.0213786
-0.436476 0.24367 0.866091 0.0289159
-0.446226 0.244061 0.860997 0.0291165
-0.441661 0.249395 0.861822 0.0285601
-0.449613 0.24968 0.857618 0.0373911
-0.46574 0.239296 0.851953 0.038853
-0.447366 0.236794 0.862434 0.0300391
-0.438194 0.234635 0.867717 0.0240349
-0.458185 0.227036 0.859373 0.0314929
-0.450355 0.226134 0.863739 0.0291718
-0.44668 0.225112 0.865911 0.0273207
-0.444901 0.212814 0.869927 0.0247061
-0.427919 0.210303 0.87901 0.0197815
-0.452194 0.20878 0.86714 0.0298628
-0.450673 0.200864 0.869797 0.0332739
-0.440651 0.205321 0.873882 0.0320785
-0.449578 0.200293 0.870495 0.0355327
-0.44363 0.203088 0.872896 0.0369269
-0.408069 0.193878 0.892127 0.0129114
-0.414234 0.193118 0.889447 0.0256341
-0.421015 0.189529 0.887031 0.0328823
-0.394044 0.197077 0.897714 0.0172834
-0.412235 0.191172 0.890795 0.0146637
-0.390338 0.187095 0.901461 0.0100865
-0.40012 0.186759 0.897232 0.017103
-0.383604 0.19601 0.902457 0.011008
-0.379329 0.194734 0.904538 0.00666725
-0.371147 0.179901 0.910981 0.000792805
-0.37843 0.192051 0.905487 0.00718728
-0.375152 0.187714 0.907758 0.00407092
-0.371258 0.187434 0.909415 0
-0.367774 0.190682 0.910155 0
-0.363084 0.183393 0.91353 0
-0.361838 0.180111 0.914677 0
-0.357259 0.180788 0.916342 0
-0.366109 0.164219 0.915967 0.00219141
-0.367579 0.174688 0.913438 0
-0.367487 0.166117 0.915073 0.00212674
-0.364651 0.158174 0.917611 0
-0.379902 0.150832 0.912647 0.0036681
-0.375131 0.155198 0.913887 0.00103425
-0.374571 0.150515 0.9149 0
-0.377057 0.147234 0.914412 0.00685054
-0.378077 0.151565 0.913283 0.00779245
-0.376458 0.126683 0.917731 0
-0.373145 0.125848 0.919198 0.00159653
-0.387667 0.0957517 0.916813 0.0110963
-0.386663 0.0980547 0.916994 0.00950855
-0.381029 0.0944117 0.91973 0.0180531
-0.385903 0.0853277 0.918585 0.00849177
-0.376607 0.0886761 0.922119 0.0142842
-0.382422 0.0832463 0.92023 0.00668552
-0.375717 0.0778876 0.923456 0.0154718
-0.395369 0.0608445 0.916505 0.0342431
-0.402525 0.0457648 0.914264 0.035448
-0.406858 0.0330937 0.912892 0.0337098
-0.399164 0.0120082 0.916801 0.0290615
-0.386151 0.00235095 0.922432 0.00951524
-0.407258 -0.00628567 0.913292 0.0301215
-0.40077 -0.0147347 0.91606 0.0259351
-0.390822 -0.0185532 0.920279 0.0138352
-0.399009 -0.0195336 0.916739 0.0247572
-0.383684 -0.0224779 0.923191 0.00691983
-0.397623 -0.0417856 0.916597 0.0152825
-0.402562 -0.0404887 0.914497 0.0197057
-0.404238 -0.0494548 0.913316 0.0156956
-0.40135 -0.050187 0.914549 0.0156615
-0.404527 -0.0511754 0.913093 0.0251025
-0.418054 -0.0659758 0.906023 0.0284106
-0.406802 -0.0582951 0.911655 0.0198466
-0.429191 -0.078394 0.899805 0.0372356
-0.43444 -0.0820083 0.896959 0.0430975
-0.448087 -0.0921635 0.889227 0.0469139
-0.437229 -0.0967703 0.894129 0.0443014
-0.441537 -0.108365 0.890675 0.0457606
-0.437922 -0.113431 0.891829 0.0404967
-0.464186 -0.124368 0.876963 0.0499827
-0.461608 -0.128088 0.877788 0.0517477
-0.44532 -0.123733 0.886781 0.0445278
-0.464314 -0.128316 0.876326 0.0467153
-0.455533 -0.137506 0.879535 0.0454632
-0.428804 -0.129252 0.894103 0.0352011
-0.465344 -0.153105 0.871788 0.0458392
-0.446402 -0.144362 0.883111 0.0407617
-0.43771 -0.156988 0.885305 0.030525
-0.451222 -0.164472 0.877125 0.0344221
-0.428162 -0.151166 0.890969 0.0266433
-0.42583 -0.153955 0.891609 0.0229295
-0.437929 -0.161811 0.884327 0.0224355
-0.417379 -0.161952 0.894185 0.0132913
-0.448346 -0.171632 0.877228 0.0223274
-0.430646 -0.177616 0.884871 0.0142534
-0.423524 -0.17138 0.889526 0.0178965
-0.442018 -0.189397 0.876783 0.014867
-0.429092 -0.189472 0.883165 0.011677
-0.422303 -0.175516 0.8893 0.0144271
-0.453919 -0.197392 0.868904 0.0144323
-0.448898 -0.194989 0.872049 0.0178606
-0.462354 -0.207744 0.862016 0.012944
-0.452678 -0.217448 0.864754 0.0167917
-0.461775 -0.208798 0.862071 0.014902
-0.454298 -0.214025 0.864758 0.0122788
-0.447963 -0.217261 0.867252 0.0122086
-0.458562 -0.211269 0.863184 0.0146626
-0.453562 -0.214482 0.865031 0.0129695
-0.444113 -0.212658 0.870368 0.0121699
-0.451304 -0.217321 0.865504 0.016681
-0.454314 -0.20652 0.866573 0.0111963
-0.456277 -0.217182 0.862927 0.0135381
-0.44713 -0.219327 0.867162 0.0114589
-0.464904 -0.204823 0.861343 0.0128303
-0.446054 -0.212529 0.869407 0.00509525
-0.465498 -0.204925 0.860998 0.00554962
-0.451154 -0.20559 0.868443 0
-0.456023 -0.2139 0.86388 0.00210584
-0.476067 -0.198939 0.856612 0.00872822
-0.476798 -0.213297 0.852741 0.00713972
-0.484573 -0.21281 0.84847 0.0136238
-0.479101 -0.20923 0.852458 0.0124823
-0.480069 -0.213674 0.85081 0.00820084
-0.4817 -0.2059 0.851804 0.0094105
-0.50681 -0.215873 0.834592 0.0145712
-0.490519 -0.218689 0.843544 0.00797407
-0.483562 -0.217852 0.847766 0.00797553
-0.515121 -0.221315 0.828052 0.0210097
-0.504467 -0.224371 0.833769 0.0170748
-0.518879 -0.229064 0.823586 0.018383
-0.516117 -0.236561 0.823203 0.0207731
-0.492997 -0.230143 0.83904 0.00767315
-0.504139 -0.234932 0.831054 0.0116626
-0.505615 -0.227756 0.832155 0
-0.504778 -0.23246 0.831361 0
-0.503913 -0.225172 0.833888 0
-0.504937 -0.225942 0.83306 0
-0.520488 -0.234539 0.821026 0
-0.519855 -0.238508 0.820283 0
-0.54351 -0.243386 0.803343 0
-0.526966 -0.23963 0.815404 0
-0.563655 -0.244294 0.789059 0.00839827
-0.563479 -0.242512 0.789733 0.00981649
-0.586007 -0.239743 0.774028 0.0170676
-0.572319 -0.237667 0.784835 0.0154319
-0.577827 -0.236959 0.781004 0.0186242
-0.588637 -0.234166 0.773739 0.0181452
-0.580824 -0.240211 0.77778 0.018379
-0.600638 -0.227112 0.766586 0.0217043
-0.59495 -0.22901 0.770448 0.0267476
-0.606722 -0.230905 0.760638 0.0241673
-0.593717 -0.217209 0.774803 0.0198159
-0.593195 -0.221215 0.77407 0.0232519
-0.596972 -0.216704 0.772441 0.0229601
-0.587473 -0.21404 0.780425 0.0206296
-0.595084 -0.20839 0.776175 0.0222407
-0.581716 -0.200638 0.788258 0.016488
-0.574292 -0.189094 0.796513 0.0137221
-0.597708 -0.192698 0.778211 0.0210134
-0.585286 -0.18276 0.789961 0.0095043
-0.579771 -0.18368 0.793806 0.00902411
-0.576348 -0.172683 0.798751 0
-0.563799 -0.173348 0.807515 0
-0.570076 -0.164124 0.805032 0
-0.582916 -0.166207 0.795352 0
-0.581022 -0.152216 0.799527 0
-0.590191 -0.149138 0.793368 0
-0.592439 -0.136848 0.793907 0
-0.463671 -0.0643494 0.883668 0
-0.485469 -0.0635139 0.871944 0.00297861
-0.472055 -0.0716345 0.878654 0
-0.466555 -0.0694729 0.881759 0
-0.495716 -0.0547198 0.866759 0
-0.502387 -0.0714808 0.861683 0.00882286
-0.54254 -0.0749076 0.836683 0.0097195
-0.510134 -0.0567825 0.858218 0
-0.492604 -0.035026 0.869548 0
-0.535415 -0.0626559 0.842262 0.00431715
-0.544206 -0.0793593 0.83519 0.0149405
-0.544719 -0.0647952 0.836112 0.00303983
-0.553125 -0.0775229 0.829484 0.0121539
-0.574246 -0.0802688 0.814738 0.0127625
-0.566838 -0.0760164 0.820315 0.0139801
-0.569372 -0.0647459 0.819526 0.00929795
-0.546899 -0.022955 0.836884 0
-0.57327 -0.0562476 0.817433 0.0119625
-0.552046 -0.0235156 0.833482 0
-0.572947 -0.0270667 0.819145 0.00812899
-0.576908 -0.0108268 0.816737 0.0120755
-0.570625 0.010348 0.821145 0.00979541
-0.559433 0.01711 0.828699 0.00768739
-0.545144 0.0370557 0.837523 0.00188774
-0.536361 0.051046 0.842443 0.0059473
-0.520608 0.0652232 0.851301 0
-0.520661 0.0645559 0.851319 0.00222678
-0.543185 0.0699997 0.83669 0.0107653
-0.538747 0.0690869 0.83963 0.00838707
-0.566158 0.0649806 0.821732 0.0187926
-0.548959 0.0864671 0.831365 0.0121776
-0.57699 0.089614 0.81182 0.0255332
-0.562251 0.1022 0.820627 0.0217838
-0.572346 0.0982382 0.814106 0.0235709
-0.560921 0.102002 0.821561 0.0233349
-0.566718 0.108184 0.816778 0.0208195
-0.561548 0.12395 0.818108 0.0197048
-0.577402 0.118653 0.807792 0.0304912
-0.573458 0.135766 0.807907 0.028688
-0.624921 0.124042 0.770771 0.0402428
-0.601965 0.134499 0.787114 0.0351009
-0.548855 0.158953 0.820666 0.0187118
-0.503127 0.183616 0.844481 0.00417759
-0.506569 0.187446 0.841577 0.00943462
-0.520711 0.18595 0.833236 0.0100282
-0.486008 0.191024 0.852823 0.00440914
-0.547215 0.187476 0.815726 0.0191742
-0.511911 0.204926 0.834238 0.0126364
-0.517405 0.203291 0.831243 0.0154395
-0.522148 0.206827 0.827396 0.0122374
-0.535107 0.206732 0.819099 0.0175753
-0.53902 0.206582 0.816567 0.019864
-0.525028 0.213854 0.823779 0.0168708
-0.537493 0.210088 0.816679 0.0242699
-0.501913 0.215776 0.83757 0.0133207
-0.507824 0.210994 0.835222 0.0147597
-0.489706 0.227346 0.841725 0.00019429
-0.48033 0.231618 0.845953 0
-0.492454 0.235659 0.837827 0
-0.476292 0.237557 0.846589 0
-0.48831 0.236105 0.840123 0.00249741
-0.474014 0.237797 0.847799 0
-0.472887 0.247305 0.845706 0
-0.46502 0.252923 0.848402 0
-0.470187 0.242483 0.848603 0
-0.467752 0.249424 0.847936 0
-0.459491 0.252515 0.85153 0
-0.470793 0.251654 0.845591 0
-0.455142 0.262492 0.850849 0
-0.467635 0.267872 0.842355 0.00490401
-0.461467 0.267916 0.845736 0
-0.48984 0.266025 0.830234 0.0121024
-0.460574 0.270827 0.845295 0
-0.472784 0.265085 0.84036 0.00362487
-0.47034 0.270162 0.840115 0.00364751
-0.46757 0.26477 0.843371 0.00626288
-0.464184 0.27488 0.842006 0
-0.459472 0.268782 0.846547 0
-0.463228 0.269995 0.84411 0
-0.457947 0.265471 0.848416 0.00294411
-0.450606 0.27434 0.849525 0
-0.431092 0.266651 0.862008 0
-0.448898 0.272644 0.850974 0
-0.433143 0.255598 0.864324 0
-0.430428 0.257222 0.865198 0
-0.424201 0.261229 0.867071 0
-0.417495 0.26321 0.869723 0
-0.414391 0.271567 0.868638 0
-0.424998 0.269438 0.864164 0
-0.411455 0.271338 0.870104 0
-0.407736 0.267252 0.873114 0
-0.407227 0.263049 0.874626 0
-0.397952 0.262048 0.879184 0
-0.38926 0.264747 0.882262 0
-0.387385 0.260585 0.884324 0
-0.382496 0.259654 0.886722 0
-0.376328 0.255302 0.890616 0
-0.387439 0.249403 0.887518 0.005299
-0.375496 0.247096 0.893278 0
-0.372465 0.25065 0.893557 0
-0.392096 0.246029 0.886415 0.00947388
-0.393377 0.247255 0.885505 0.0124698
-0.402756 0.238779 0.883613 0.0174531
-0.39982 0.242178 0.884021 0.0171219
-0.407469 0.241529 0.8807 0.0184903
-0.404337 0.244294 0.881381 0.0202144
-0.4161 0.24558 0.875529 0.0211117
-0.43449 0.246391 0.86632 0.0333063
-0.402431 0.252298 0.879997 0.0180068
-0.425958 0.248596 0.869919 0.0218578
-0.411832 0.24837 0.876759 0.0198259
-0.404078 0.240295 0.882598 0.00670104
-0.401425 0.234139 0.885458 0.00291359
-0.428577 0.225995 0.874784 0.0195961
-0.415709 0.229391 0.880094 0.01566
-0.406637 0.220683 0.886535 0.0206568
-0.419406 0.217135 0.881449 0.0170661
-0.40785 0.214898 0.887399 0.0197639
-0.42144 0.216349 0.880671 0.0318889
-0.422818 0.217046 0.879838 0.026796
-0.410232 0.213165 0.886719 0.0240738
-0.390004 0.224583 0.893006 0.0113102
-0.395252 0.223348 0.891006 0.0190315
-0.419352 0.2085 0.883556 0.0271513
-0.411343 0.216957 0.885283 0.030549
-0.392258 0.22541 0.891809 0.0187856
-0.41698 0.196 0.887531 0.0280179
-0.400038 0.204999 0.893277 0.0203653
-0.37841 0.208748 0.901793 0.00700303
-0.377373 0.199751 0.904261 0.00122842
-0.38042 0.198805 0.903192 0.00761881
-0.380858 0.197325 0.903333 0.0115999
-0.37361 0.198247 0.906153 0.0070093
-0.36214 0.211578 0.907794 0
-0.365162 0.186304 0.912112 0
-0.363115 0.181488 0.913898 0
-0.36412 0.171548 0.915417 0.00434346
