# .PCD v0.7 - Point Cloud Data file format
VERSION 0.7
FIELDS x y z
SIZE 4 4 4
TYPE F F F
COUNT 1 1 1
WIDTH 1377
HEIGHT 1
VIEWPOINT 0 0 0 1 0 0 0
POINTS 1377
DATA ascii
-0.10910667 -0.25465965 -0.39798602
-0.108879 -0.25467101 -0.39799201
-0.108771 -0.25464052 -0.39795899
-0.108526 -0.25461099 -0.39795101
-0.1082635 -0.25466049 -0.39796501
-0.1081335 -0.25463051 -0.39794651
-0.10789967 -0.25464332 -0.39797068
-0.1074585 -0.25470501 -0.3978835
-0.10727526 -0.2547065 -0.39785552
-0.1070915 -0.25471872 -0.39785951
-0.106915 -0.25470522 -0.397865
-0.10669867 -0.25470132 -0.39788267
-0.1064755 -0.25475502 -0.39787602
-0.10633525 -0.25475875 -0.397861
-0.106089 -0.254733 -0.39780748
-0.105889 -0.25474149 -0.397809
-0.097932503 -0.25478551 -0.39784402
-0.097702749 -0.25470227 -0.39793599
-0.110675 -0.25442901 -0.39799801
-0.110256 -0.25444698 -0.39799699
-0.110083 -0.25444999 -0.39798748
-0.1098678 -0.25449222 -0.39794081
-0.10967843 -0.25447771 -0.39792755
-0.10946566 -0.25448433 -0.39791334
-0.10932884 -0.25448933 -0.39790067
-0.10910389 -0.25450113 -0.39787123
-0.10887633 -0.25451234 -0.39787665
-0.108767 -0.25448251 -0.39786851
-0.10852399 -0.25449151 -0.39787
-0.10826 -0.254502 -0.397854
-0.108132 -0.25451151 -0.397856
-0.10791517 -0.25451067 -0.39787534
-0.107799 -0.25448599 -0.39785901
-0.1075 -0.25458801 -0.39783001
-0.097638249 -0.254509 -0.39788303
-0.097543001 -0.25449833 -0.39798999
-0.111232 -0.254233 -0.39798501
-0.111052 -0.25424901 -0.39799401
-0.1108842 -0.25428382 -0.3979786
-0.110708 -0.25429431 -0.39794299
-0.110476 -0.25431752 -0.39794701
-0.11025234 -0.25428966 -0.39789915
-0.1100795 -0.25429252 -0.39788601
-0.10987344 -0.25430378 -0.39787424
-0.1097037 -0.25429329 -0.39784074
-0.109461 -0.254327 -0.397834
-0.1093245 -0.25433248 -0.397816
-0.108521 -0.25437301 -0.39780501
-0.097603001 -0.254334 -0.39783999
-0.097508334 -0.25429001 -0.39794037
-0.111976 -0.25404 -0.397975
-0.111721 -0.25407523 -0.39796072
-0.111494 -0.25411052 -0.39795899
-0.11122701 -0.25411552 -0.39796099
-0.11104733 -0.25409099 -0.39791632
-0.11089356 -0.25409368 -0.39787954
-0.11072084 -0.2541087 -0.39787051
-0.11047033 -0.25411999 -0.39784732
-0.1102485 -0.254132 -0.3978115
-0.110075 -0.25413549 -0.39780551
-0.10986833 -0.25414601 -0.39781234
-0.109759 -0.25415 -0.39781901
-0.097470999 -0.2541275 -0.39785999
-0.09736333 -0.25410631 -0.39794335
-0.112422 -0.25386399 -0.39798701
-0.1122825 -0.25390577 -0.39796001
-0.112166 -0.25391352 -0.39795649
-0.11197167 -0.25388265 -0.39789033
-0.11172955 -0.25389665 -0.39787132
-0.11148733 -0.25391367 -0.39788899
-0.111219 -0.25391936 -0.39790735
-0.1110395 -0.25389498 -0.397856
-0.1109004 -0.25390482 -0.39782858
-0.1107695 -0.25390702 -0.39781499
-0.097356007 -0.2539095 -0.397881
-0.113099 -0.253663 -0.39798301
-0.11264725 -0.253676 -0.39797148
-0.11249755 -0.253703 -0.39793229
-0.112276 -0.25371 -0.39788082
-0.11216 -0.25371835 -0.39787269
-0.111966 -0.25372499 -0.397827
-0.1117505 -0.25373751 -0.39781302
-0.111482 -0.25375599 -0.39781901
-0.11120967 -0.253685 -0.39784899
-0.1110335 -0.25373849 -0.39781499
-0.110954 -0.253777 -0.397816
-0.097347997 -0.25371301 -0.39782932
-0.097149 -0.25364801 -0.39798501
-0.113095 -0.25358501 -0.39798301
-0.112982 -0.25343701 -0.397991
-0.1126675 -0.25349849 -0.39792073
-0.11248984 -0.25350717 -0.3978765
-0.1122685 -0.25351375 -0.397825
-0.112154 -0.25356099 -0.397816
-0.097142994 -0.25348964 -0.39793634
-0.096638002 -0.25344399 -0.39798501
-0.096579999 -0.25344601 -0.39799201
-0.1130805 -0.253313 -0.39798301
-0.11297667 -0.25327933 -0.39793301
-0.11265918 -0.25330317 -0.39787567
-0.11249213 -0.25332123 -0.39783609
-0.112309 -0.253396 -0.39780399
-0.097135499 -0.25329399 -0.397865
-0.096859999 -0.25330752 -0.39797199
-0.096631341 -0.25328633 -0.39794731
-0.096519127 -0.25327986 -0.39796388
-0.096318997 -0.253259 -0.39798048
-0.096179001 -0.25322601 -0.39799899
-0.11349251 -0.25306481 -0.39797637
-0.113263 -0.25305566 -0.39798701
-0.11310301 -0.25310299 -0.39796638
-0.112967 -0.253084 -0.39791501
-0.112703 -0.253106 -0.397865
-0.11254349 -0.25313324 -0.39780927
-0.096854992 -0.25311032 -0.39786568
-0.096623003 -0.25308999 -0.39790499
-0.096502997 -0.25309417 -0.39792618
-0.096312746 -0.25310123 -0.39794147
-0.096129753 -0.25311276 -0.39796448
-0.095992997 -0.25307801 -0.39799201
-0.11370049 -0.25285852 -0.39799249
-0.1134865 -0.2529085 -0.39793518
-0.11327299 -0.25291225 -0.3979345
-0.113103 -0.25288519 -0.3978982
-0.11295833 -0.25289035 -0.39788535
-0.11269466 -0.25291035 -0.39782333
-0.096849002 -0.25295499 -0.39782101
-0.096614994 -0.25289431 -0.3978487
-0.096495003 -0.25289777 -0.3978751
-0.096303828 -0.25290599 -0.39791036
-0.096120507 -0.25291684 -0.39793885
-0.095985331 -0.25292167 -0.39797834
-0.11386933 -0.25268534 -0.39797702
-0.11369444 -0.25270256 -0.39796269
-0.11348762 -0.25272349 -0.39790425
-0.11328415 -0.25270531 -0.39787611
-0.11309551 -0.25268924 -0.39783147
-0.1129505 -0.25269449 -0.39783299
-0.112688 -0.25275499 -0.397802
-0.096608996 -0.25273699 -0.39781001
-0.096474394 -0.25270981 -0.39784262
-0.096295506 -0.25270924 -0.39787149
-0.096110493 -0.25268182 -0.39789215
-0.095975667 -0.25268632 -0.39792433
-0.11386 -0.25248998 -0.39795202
-0.11368567 -0.25250718 -0.39793265
-0.11350567 -0.25248051 -0.39787734
-0.11329956 -0.25248194 -0.39785111
-0.11308601 -0.25249484 -0.39781833
-0.096416503 -0.2525475 -0.397825
-0.096286662 -0.252514 -0.39783666
-0.096101753 -0.25248575 -0.39785603
-0.095967501 -0.25248998 -0.397879
-0.113851 -0.25229499 -0.39793101
-0.11367655 -0.25231254 -0.3979122
-0.113496 -0.25228426 -0.39785701
-0.113308 -0.25229421 -0.3978464
-0.113159 -0.25229549 -0.3978155
-0.096085206 -0.25230661 -0.39782122
-0.095958002 -0.25229502 -0.39786401
-0.095712006 -0.25230601 -0.39796531
-0.11430526 -0.25213599 -0.39798748
-0.11418966 -0.25212166 -0.39798167
-0.113841 -0.25209999 -0.39792001
-0.11366001 -0.25208989 -0.39788678
-0.11348633 -0.25209033 -0.39784566
-0.113325 -0.25209183 -0.39783335
-0.11319067 -0.25209501 -0.39780799
-0.096041001 -0.25213799 -0.39781001
-0.095948502 -0.2520985 -0.39783901
-0.095703006 -0.25211 -0.39794201
-0.095544502 -0.25204849 -0.39797401
-0.11431467 -0.25188318 -0.39797398
-0.11417899 -0.25188768 -0.39795169
-0.113832 -0.25190601 -0.39790198
-0.11366286 -0.25190073 -0.39787942
-0.11347625 -0.25189501 -0.39784348
-0.1133155 -0.25189701 -0.39781898
-0.095941499 -0.25194198 -0.39781499
-0.095693998 -0.25191465 -0.397921
-0.095497333 -0.25187868 -0.39796901
-0.114305 -0.25168824 -0.39796448
-0.114169 -0.251692 -0.397939
-0.1138225 -0.25171149 -0.39788699
-0.1136597 -0.25169885 -0.39788046
-0.1134985 -0.25169063 -0.39784449
-0.1133152 -0.25171819 -0.39781418
-0.095683001 -0.25167933 -0.39789367
-0.095527671 -0.25169602 -0.39793766
-0.11441234 -0.25149098 -0.39799532
-0.11429501 -0.25149384 -0.39795485
-0.114158 -0.25149834 -0.39795199
-0.11381266 -0.25151703 -0.39787731
-0.1136595 -0.25149176 -0.39786801
-0.11350035 -0.25150502 -0.39783618
-0.11334001 -0.25150698 -0.39782202
-0.095673993 -0.25148401 -0.39786202
-0.095478326 -0.251513 -0.39795801
-0.095398001 -0.251461 -0.39797401
-0.11428425 -0.25129876 -0.39796051
-0.11414801 -0.25130349 -0.397948
-0.1138025 -0.251322 -0.397872
-0.11367086 -0.25128397 -0.39786187
-0.1134901 -0.25131112 -0.39782703
-0.11329868 -0.25128701 -0.39780602
-0.095663004 -0.25128803 -0.39787734
-0.095508665 -0.25130466 -0.39790702
-0.095389664 -0.25130436 -0.39797536
-0.11427367 -0.25110501 -0.39796999
-0.114138 -0.25110868 -0.39793599
-0.11368984 -0.25109765 -0.39786503
-0.11347814 -0.25109985 -0.39781928
-0.11333775 -0.25106025 -0.39781126
-0.113134 -0.25100699 -0.39780301
-0.095652506 -0.251093 -0.39788198
-0.095497504 -0.251109 -0.39792299
-0.11426375 -0.25090951 -0.39796948
-0.11412799 -0.25091499 -0.39794001
-0.1136791 -0.25090244 -0.39787477
-0.11353326 -0.25091976 -0.39783576
-0.113305 -0.25088534 -0.397818
-0.11312699 -0.25088948 -0.39781201
-0.095642664 -0.25089666 -0.39787164
-0.095487334 -0.25091299 -0.39791703
-0.095319994 -0.25086167 -0.39799401
-0.11421 -0.25071403 -0.397957
-0.114117 -0.25071999 -0.39795199
-0.11370475 -0.25070351 -0.39788526
-0.1135215 -0.25069448 -0.39784104
-0.11331872 -0.25067955 -0.39782187
-0.11309475 -0.250678 -0.39781523
-0.095632493 -0.25070149 -0.397863
-0.095477507 -0.25071698 -0.39791501
-0.095335998 -0.25073066 -0.39798903
-0.114201 -0.25055799 -0.39796099
-0.1141398 -0.25046799 -0.39797977
-0.11369366 -0.2505095 -0.39790452
-0.11352772 -0.25050455 -0.39787298
-0.1133265 -0.25049499 -0.39785099
-0.11310834 -0.25050232 -0.39782333
-0.112939 -0.25047001 -0.39781001
-0.095622003 -0.250505 -0.39787033
-0.095466666 -0.25052133 -0.39791667
-0.095348328 -0.25052097 -0.39797568
-0.11409301 -0.25029099 -0.397982
-0.1136682 -0.2502926 -0.3979252
-0.11350623 -0.25029445 -0.39788902
-0.11331534 -0.25030014 -0.39786664
-0.11309734 -0.25030768 -0.39783657
-0.11290325 -0.250296 -0.39781252
-0.095612004 -0.25031 -0.397865
-0.095453329 -0.25028697 -0.39794168
-0.095335998 -0.25028634 -0.39798164
-0.114087 -0.25017399 -0.397991
-0.113683 -0.25010341 -0.3979494
-0.113495 -0.25010034 -0.39791167
-0.113304 -0.25010648 -0.39789799
-0.1131034 -0.25011921 -0.39786142
-0.11289787 -0.250074 -0.39784047
-0.11254551 -0.25006902 -0.397811
-0.095887005 -0.25006351 -0.3978155
-0.095603004 -0.25015402 -0.39787352
-0.09549433 -0.25007233 -0.39791599
-0.095326997 -0.250128 -0.39799801
-0.113722 -0.24988098 -0.39796767
-0.11352146 -0.24990799 -0.39794025
-0.11330772 -0.24990013 -0.39791557
-0.11311717 -0.24991448 -0.39789215
-0.1129174 -0.24989641 -0.39787203
-0.112799 -0.249854 -0.397865
-0.1124815 -0.24987824 -0.39782351
-0.1123735 -0.249844 -0.39782798
-0.096014999 -0.24993999 -0.397802
-0.095878243 -0.24990751 -0.39782602
-0.095550247 -0.24990299 -0.39790025
-0.113713 -0.249725 -0.39798099
-0.11353583 -0.24970369 -0.39797935
-0.113318 -0.24971567 -0.39793816
-0.1130952 -0.24969602 -0.3979218
-0.11293282 -0.24969183 -0.39793268
-0.112789 -0.24969701 -0.39790568
-0.1124808 -0.2497056 -0.39786702
-0.112307 -0.24968421 -0.39782518
-0.096092597 -0.24968381 -0.39780557
-0.095885992 -0.24970014 -0.39783457
-0.095524669 -0.24967568 -0.39791298
-0.113511 -0.24956365 -0.39798665
-0.11329599 -0.2495437 -0.3979724
-0.11309275 -0.24952449 -0.39797026
-0.1129205 -0.24949776 -0.3979795
-0.1127765 -0.24950251 -0.39795199
-0.11245733 -0.24948783 -0.39788929
-0.11230215 -0.249507 -0.39787671
-0.11210286 -0.24948156 -0.397834
-0.11193851 -0.2494745 -0.39782199
-0.096129 -0.249502 -0.39781499
-0.09590099 -0.24951398 -0.39784801
-0.095488168 -0.24949534 -0.39794734
-0.113219 -0.249366 -0.398
-0.1129024 -0.24931821 -0.39798841
-0.11276501 -0.249308 -0.39797768
-0.112498 -0.2492905 -0.39794898
-0.11233567 -0.24929799 -0.39790598
-0.11211161 -0.24931578 -0.39787
-0.111945 -0.2492775 -0.39784327
-0.1117305 -0.2492495 -0.39782649
-0.1115135 -0.2492225 -0.39780501
-0.096246004 -0.24930133 -0.39780769
-0.096117832 -0.24930699 -0.39783898
-0.095916279 -0.2493287 -0.39786127
-0.095798001 -0.249282 -0.39788401
-0.095504336 -0.24930966 -0.397944
-0.112756 -0.249152 -0.39799601
-0.11248666 -0.24909501 -0.39797166
-0.112324 -0.24910434 -0.39793766
-0.11212701 -0.24911235 -0.39790401
-0.1119592 -0.24910399 -0.39787903
-0.1117215 -0.249093 -0.39785099
-0.11148961 -0.24909899 -0.39782339
-0.11123566 -0.24908467 -0.39783299
-0.110968 -0.24909033 -0.39783469
-0.11075866 -0.249052 -0.39782369
-0.096415997 -0.249061 -0.397802
-0.096285403 -0.2490956 -0.39781818
-0.096106753 -0.249111 -0.39785302
-0.095913395 -0.24909762 -0.39787582
-0.095786996 -0.24908467 -0.39790332
-0.095544674 -0.24909566 -0.39793101
-0.095389664 -0.249111 -0.39798132
-0.112477 -0.24893899 -0.39799801
-0.11231216 -0.248909 -0.3979713
-0.112104 -0.24889441 -0.39793682
-0.11193851 -0.248886 -0.39791819
-0.111709 -0.24889834 -0.39789233
-0.11146711 -0.24891223 -0.3978616
-0.111223 -0.24889 -0.397881
-0.11095551 -0.2488945 -0.397892
-0.11069766 -0.24891083 -0.39784649
-0.1105216 -0.2488668 -0.39782301
-0.110193 -0.248825 -0.39781001
-0.0964045 -0.2488655 -0.397818
-0.096286222 -0.24890791 -0.39785057
-0.096095502 -0.2489145 -0.39786801
-0.095920607 -0.24890859 -0.39789218
-0.095774993 -0.248889 -0.39793748
-0.095532507 -0.248899 -0.39796799
-0.095380999 -0.248954 -0.39798599
-0.11230467 -0.24879199 -0.39799401
-0.11210325 -0.24872275 -0.39796951
-0.1119265 -0.24869125 -0.3979575
-0.111697 -0.248704 -0.397928
-0.11146317 -0.24870466 -0.39791033
-0.11128521 -0.2486748 -0.39790982
-0.110943 -0.24869967 -0.39794067
-0.11068588 -0.24871653 -0.39788198
-0.11051475 -0.248687 -0.39786774
-0.1103815 -0.2487005 -0.397829
-0.110186 -0.248706 -0.39783001
-0.096895501 -0.24867901 -0.39781299
-0.096623003 -0.248652 -0.39781001
-0.096304998 -0.24871074 -0.397861
-0.096072592 -0.24869461 -0.3979094
-0.095899172 -0.24868917 -0.39790916
-0.095764339 -0.24869268 -0.39794433
-0.095521338 -0.24870266 -0.397989
-0.112045 -0.248567 -0.397989
-0.1119195 -0.24857399 -0.3979795
-0.11168467 -0.24850802 -0.39797333
-0.1114736 -0.248504 -0.39794919
-0.11132467 -0.248505 -0.39794168
-0.111196 -0.24845999 -0.39797401
-0.110932 -0.24854299 -0.397984
-0.11070917 -0.2484805 -0.39794651
-0.11053278 -0.24848901 -0.39791235
-0.11036866 -0.24850534 -0.39788231
-0.110131 -0.248533 -0.39784926
-0.10989871 -0.24850129 -0.39782017
-0.109511 -0.24846201 -0.397809
-0.109061 -0.24840701 -0.397809
-0.1089195 -0.2484145 -0.39781249
-0.097115502 -0.2485145 -0.39782572
-0.096882999 -0.248483 -0.39784536
-0.096612334 -0.248495 -0.39785531
-0.096312806 -0.24852169 -0.39787918
-0.096113995 -0.24849816 -0.39792699
-0.095886499 -0.248493 -0.39795703
-0.0957525 -0.248496 -0.39797598
-0.11144967 -0.248339 -0.39798269
-0.11137467 -0.24829201 -0.397984
-0.111191 -0.248382 -0.39799401
-0.11069775 -0.24828476 -0.39797649
-0.11052116 -0.24829382 -0.39793932
-0.11035749 -0.24831 -0.397903
-0.1101625 -0.24831599 -0.39788902
-0.10989723 -0.24828821 -0.39785957
-0.10966867 -0.24829799 -0.39782915
-0.10950167 -0.24830487 -0.39783743
-0.10934175 -0.24828374 -0.39782149
-0.10909849 -0.2482895 -0.3978225
-0.1089125 -0.24829726 -0.39783025
-0.10875032 -0.248294 -0.39781368
-0.108439 -0.248209 -0.39781901
-0.108197 -0.248255 -0.39783001
-0.097629003 -0.24821401 -0.397809
-0.097545996 -0.248219 -0.39781001
-0.097273342 -0.24828817 -0.39782083
-0.097104169 -0.24831851 -0.39785731
-0.096871495 -0.24828601 -0.39788198
-0.096602999 -0.248339 -0.39787799
-0.096597999 -0.24825899 -0.39789
-0.096313171 -0.24831735 -0.39790234
-0.096100658 -0.24828431 -0.39795575
-0.095875502 -0.24829601 -0.39797601
-0.0957435 -0.248339 -0.39798999
-0.1106475 -0.24812901 -0.39799201
-0.11050933 -0.24809855 -0.39797434
-0.11034533 -0.24811433 -0.39793703
-0.11015 -0.24811999 -0.39793301
-0.10988484 -0.24809366 -0.39790598
-0.1096565 -0.24810351 -0.3978675
-0.10948984 -0.24811016 -0.39787698
-0.10932916 -0.24808817 -0.39786899
-0.10908566 -0.24809434 -0.39788017
-0.10890017 -0.2481025 -0.397881
-0.1087235 -0.24811266 -0.39786315
-0.10849659 -0.24810839 -0.3978532
-0.108187 -0.248099 -0.397865
-0.1078795 -0.2480725 -0.397809
-0.10769951 -0.2480465 -0.39782801
-0.1075135 -0.248016 -0.39782
-0.1071115 -0.24803901 -0.39780349
-0.106788 -0.24805 -0.39781299
-0.106123 -0.248007 -0.39780399
-0.099009998 -0.248059 -0.39781001
-0.098920003 -0.24807 -0.39781401
-0.098637998 -0.24804801 -0.39780402
-0.098442003 -0.248013 -0.39780101
-0.098307997 -0.24802801 -0.39780402
-0.098150998 -0.24803101 -0.397816
-0.097928196 -0.248105 -0.3978222
-0.097664505 -0.2480935 -0.39782524
-0.097538501 -0.248101 -0.397845
-0.097280137 -0.24810001 -0.39785385
-0.097090162 -0.24808268 -0.39788517
-0.096859001 -0.24808967 -0.39791432
-0.096588999 -0.24810199 -0.39791533
-0.096301116 -0.24812078 -0.39793599
-0.096107401 -0.2480956 -0.39798418
-0.0959545 -0.24809399 -0.39798751
-0.110504 -0.247942 -0.39799452
-0.11033399 -0.2479185 -0.397962
-0.11013534 -0.24788533 -0.39798966
-0.10991266 -0.24789667 -0.39795801
-0.109721 -0.24791257 -0.39792356
-0.10949853 -0.24790554 -0.39792207
-0.10931724 -0.24789199 -0.39790398
-0.10907375 -0.24789751 -0.39791653
-0.10888775 -0.247906 -0.39792401
-0.10871125 -0.24791649 -0.39790276
-0.10847217 -0.24788947 -0.39790034
-0.108175 -0.24790233 -0.39790964
-0.10786933 -0.2479165 -0.39785433
-0.1076895 -0.24788901 -0.397865
-0.10750575 -0.24789676 -0.39784902
-0.10710067 -0.2478805 -0.39784884
-0.10691649 -0.24788249 -0.39783597
-0.10673267 -0.247894 -0.39784583
-0.10650674 -0.24789639 -0.39782852
-0.1062635 -0.24788299 -0.397825
-0.10608333 -0.24787933 -0.39782134
-0.10593 -0.247858 -0.39781001
-0.105455 -0.24780101 -0.39780599
-0.105094 -0.24782901 -0.39781201
-0.099084601 -0.2479054 -0.39782819
-0.098895878 -0.24790387 -0.39783949
-0.098673746 -0.2478895 -0.39782399
-0.098490998 -0.247896 -0.39782503
-0.098306574 -0.24790514 -0.39781931
-0.098102748 -0.24791449 -0.39783752
-0.097923331 -0.24788482 -0.3978667
-0.097652502 -0.24789716 -0.39786014
-0.097526997 -0.24790533 -0.39786935
-0.097302996 -0.24791813 -0.39787656
-0.097101793 -0.247878 -0.39792162
-0.096846998 -0.24789301 -0.39795101
-0.096576497 -0.247906 -0.39795202
-0.096287571 -0.24788491 -0.39796543
-0.096166998 -0.247968 -0.397989
-0.110324 -0.247761 -0.397993
-0.1099025 -0.247739 -0.397993
-0.10972875 -0.24770501 -0.39796227
-0.10948534 -0.24770424 -0.39796078
-0.10930482 -0.24769616 -0.39795199
-0.1090708 -0.24771681 -0.39796603
-0.10887516 -0.24770983 -0.3979685
-0.10869851 -0.24772 -0.397957
-0.10845975 -0.247694 -0.39794302
-0.108162 -0.24770701 -0.39796001
-0.1078458 -0.24769759 -0.39791781
-0.10767666 -0.24769367 -0.39792085
-0.10749299 -0.24770133 -0.39789847
-0.107088 -0.247684 -0.39789549
-0.1069035 -0.247686 -0.39789
-0.1067205 -0.24769749 -0.39787751
-0.10650483 -0.2477095 -0.39787135
-0.106251 -0.24768598 -0.39786968
-0.106055 -0.24769551 -0.39786837
-0.10592001 -0.24769999 -0.39784732
-0.10571817 -0.24771218 -0.39783001
-0.10551549 -0.2476815 -0.39783847
-0.105291 -0.247667 -0.39780501
-0.10512701 -0.24770901 -0.39782825
-0.1049176 -0.24772501 -0.39782241
-0.10474519 -0.247673 -0.39782679
-0.10451967 -0.24764834 -0.39781865
-0.103111 -0.247628 -0.39780799
-0.100414 -0.24761 -0.39780599
-0.100053 -0.24763051 -0.3978065
-0.099877506 -0.24763951 -0.3978115
-0.099653997 -0.247648 -0.39782101
-0.099451497 -0.24769101 -0.39782199
-0.099270597 -0.24769878 -0.39781278
-0.099112503 -0.2477085 -0.39785701
-0.098915592 -0.24772139 -0.39785963
-0.09869425 -0.24768001 -0.39788386
-0.098477669 -0.24769783 -0.39787963
-0.098298907 -0.24771944 -0.39786518
-0.098105572 -0.24770556 -0.3978872
-0.097911254 -0.247688 -0.39790154
-0.097681999 -0.247697 -0.39790499
-0.097555995 -0.24770601 -0.39791
-0.097293794 -0.2476968 -0.39793962
-0.097105503 -0.2476985 -0.3979736
-0.096840002 -0.247775 -0.397971
-0.096567497 -0.247748 -0.39797503
-0.096308 -0.2477275 -0.3979795
-0.1097215 -0.247587 -0.39798552
-0.10948434 -0.2475595 -0.39798713
-0.10931133 -0.24751265 -0.39798966
-0.108643 -0.247565 -0.39798799
-0.108506 -0.24757101 -0.39797699
-0.108398 -0.24758001 -0.397984
-0.108155 -0.24758901 -0.397975
-0.10788766 -0.24752134 -0.39795268
-0.10770816 -0.24749382 -0.39797232
-0.1074805 -0.24750449 -0.39794949
-0.10707533 -0.24748798 -0.39794669
-0.1068905 -0.24749 -0.39794564
-0.10670783 -0.24750181 -0.39793363
-0.10652028 -0.24752399 -0.397919
-0.106316 -0.24748349 -0.39793199
-0.106091 -0.24749801 -0.39792001
-0.105951 -0.24750274 -0.39790002
-0.1056964 -0.24749342 -0.3978774
-0.105503 -0.24748583 -0.39788398
-0.105281 -0.24751101 -0.39784035
-0.105115 -0.24751349 -0.39786401
-0.104934 -0.24751985 -0.3978695
-0.10474175 -0.247492 -0.39787549
-0.10448951 -0.2475055 -0.39786327
-0.10426567 -0.24748433 -0.39783898
-0.1040832 -0.24747562 -0.39783302
-0.10394651 -0.2474595 -0.397818
-0.103765 -0.247425 -0.39783001
-0.103526 -0.24744301 -0.39781901
-0.103351 -0.24745899 -0.397809
-0.1031015 -0.24751134 -0.39782569
-0.102871 -0.24748075 -0.39782098
-0.1027016 -0.24747381 -0.39781919
-0.10251075 -0.24745876 -0.39782149
-0.102327 -0.247436 -0.39780399
-0.102058 -0.247445 -0.39781401
-0.101884 -0.247449 -0.39780101
-0.101795 -0.247454 -0.39780301
-0.101355 -0.247403 -0.39780101
-0.101129 -0.24741501 -0.39782199
-0.1009405 -0.2474605 -0.39782301
-0.100732 -0.24745899 -0.39782834
-0.10049875 -0.24748474 -0.39783302
-0.1002675 -0.24746251 -0.397818
-0.1001084 -0.24751642 -0.39782661
-0.099882998 -0.24749298 -0.39784315
-0.099644661 -0.24748968 -0.39785537
-0.09943933 -0.24749367 -0.39786267
-0.099269658 -0.24750856 -0.39785713
-0.099099837 -0.24751233 -0.39790532
-0.098931335 -0.24751501 -0.39791214
-0.098712206 -0.24750039 -0.3979314
-0.098491602 -0.24749319 -0.39794379
-0.098306336 -0.24751534 -0.39791703
-0.09811338 -0.24749139 -0.39793837
-0.097899169 -0.24749149 -0.39794454
-0.097669661 -0.2475 -0.39794934
-0.097543836 -0.24750984 -0.39795101
-0.097305194 -0.24750718 -0.39797041
-0.097176 -0.247532 -0.39798999
-0.107878 -0.247365 -0.39798799
-0.107605 -0.247382 -0.39799699
-0.107453 -0.247361 -0.39798534
-0.1070655 -0.24733201 -0.39797699
-0.1068805 -0.2473335 -0.39797997
-0.1066955 -0.24730575 -0.397982
-0.10652775 -0.24731651 -0.39796901
-0.10630366 -0.24728699 -0.39797083
-0.106078 -0.24730165 -0.39797568
-0.10593817 -0.24730633 -0.39795199
-0.1056998 -0.24730361 -0.39793199
-0.10549051 -0.24728924 -0.3979255
-0.10526849 -0.24731499 -0.397881
-0.10510276 -0.24731675 -0.39790398
-0.10491833 -0.2472835 -0.397935
-0.10472884 -0.24729483 -0.39792967
-0.10447616 -0.247308 -0.39792183
-0.1042535 -0.24728701 -0.39788401
-0.10406325 -0.247293 -0.39787477
-0.1039355 -0.247301 -0.39786899
-0.1037575 -0.24730599 -0.39786798
-0.10351566 -0.24728434 -0.39785835
-0.10328577 -0.24730343 -0.39784688
-0.10308934 -0.2473139 -0.39786112
-0.10286881 -0.24730679 -0.39786762
-0.10268125 -0.24729276 -0.39786449
-0.1025005 -0.24730076 -0.39785951
-0.102317 -0.24727933 -0.3978467
-0.102048 -0.24728866 -0.39784202
-0.10187367 -0.24729167 -0.397843
-0.1017055 -0.24729362 -0.397834
-0.10148959 -0.24729779 -0.39783221
-0.10134751 -0.2472855 -0.397829
-0.101121 -0.2472975 -0.39786398
-0.1009295 -0.2473035 -0.397872
-0.1006978 -0.24729399 -0.39786622
-0.10057801 -0.24728334 -0.39788401
-0.10030279 -0.24730222 -0.3978714
-0.10012134 -0.24731165 -0.39788151
-0.09991125 -0.24731112 -0.39789122
-0.099631995 -0.24729401 -0.39789999
-0.099426493 -0.2472975 -0.397921
-0.099286757 -0.24731275 -0.39790699
-0.099123836 -0.24731334 -0.39794183
-0.098907202 -0.24729462 -0.397982
-0.098728746 -0.24733225 -0.39798149
-0.098551497 -0.24734125 -0.39797425
-0.098319165 -0.24731423 -0.39797211
-0.098102331 -0.24731034 -0.39797798
-0.097888499 -0.2473335 -0.3979885
-0.097658999 -0.24734201 -0.39799401
-0.097531997 -0.24731249 -0.39798149
-0.097285494 -0.24736601 -0.39799052
-0.1065205 -0.2471965 -0.39799151
-0.1062945 -0.2471295 -0.39799249
-0.1059285 -0.24714801 -0.3979865
-0.1056795 -0.24712275 -0.3979845
-0.10548025 -0.24713126 -0.39797375
-0.10525566 -0.24711834 -0.39794302
-0.1050982 -0.2471348 -0.39796561
-0.10488967 -0.24709968 -0.39798436
-0.104718 -0.2471375 -0.39798
-0.1044655 -0.2471505 -0.3979685
-0.10428 -0.24708676 -0.3979485
-0.10405067 -0.24709733 -0.39791867
-0.10392234 -0.24710433 -0.39793333
-0.10374434 -0.24711001 -0.39792132
-0.10350201 -0.247088 -0.39792198
-0.10327318 -0.24710768 -0.3978945
-0.10311825 -0.247116 -0.3979075
-0.102921 -0.24709527 -0.3979356
-0.10269988 -0.24708425 -0.39793402
-0.10248715 -0.24710417 -0.39791933
-0.1023045 -0.2470835 -0.397901
-0.102035 -0.24709201 -0.397892
-0.101861 -0.24709499 -0.397892
-0.10172625 -0.2471045 -0.397888
-0.1015205 -0.24711549 -0.39787534
-0.101334 -0.247088 -0.397894
-0.10110734 -0.24710034 -0.39792737
-0.10091633 -0.24710633 -0.39793167
-0.1007024 -0.24710281 -0.39792481
-0.100565 -0.24708501 -0.39793801
-0.10028967 -0.24710417 -0.39792836
-0.10010825 -0.24711324 -0.39794898
-0.099910997 -0.24709415 -0.39795026
-0.099689595 -0.24707739 -0.39795762
-0.099413663 -0.24709968 -0.39796934
-0.099273838 -0.24711531 -0.39795366
-0.099133 -0.24717501 -0.39797723
-0.098232001 -0.247162 -0.39798999
-0.105245 -0.24696 -0.397991
-0.105119 -0.246961 -0.398
-0.10423 -0.246934 -0.39797801
-0.1040795 -0.24690351 -0.39798599
-0.1039525 -0.246904 -0.39797801
-0.1037315 -0.246913 -0.39797801
-0.10348934 -0.24689133 -0.39797369
-0.10326788 -0.24692112 -0.39794499
-0.10311872 -0.24690671 -0.39796475
-0.10294501 -0.24689834 -0.39798832
-0.10267775 -0.24691725 -0.39798325
-0.102474 -0.24690674 -0.39798099
-0.10229101 -0.24688531 -0.39795664
-0.10202134 -0.24689431 -0.39796734
-0.101849 -0.2469365 -0.39796349
-0.101713 -0.24690716 -0.39794919
-0.10150722 -0.24691789 -0.3979398
-0.10132051 -0.24689099 -0.39794999
-0.1010965 -0.246904 -0.39794898
-0.1009035 -0.24691001 -0.39797902
-0.10069666 -0.246934 -0.39798769
-0.100556 -0.246967 -0.397984
-0.10026016 -0.24693549 -0.39797333
-0.1000995 -0.24699551 -0.3979885
-0.099263504 -0.2469565 -0.39799201
-0.10348 -0.24673399 -0.39799699
-0.10325 -0.24675401 -0.39798301
-0.10319351 -0.24671701 -0.39798701
-0.102282 -0.246729 -0.39798501
-0.10149633 -0.24676101 -0.39798632
-0.101313 -0.246774 -0.39798599
-0.101088 -0.246787 -0.397989
-0.095632002 -0.23546 -0.398
-0.095273666 -0.235449 -0.39797166
-0.095101401 -0.2354676 -0.39797658
-0.094826005 -0.235494 -0.39797768
-0.094673663 -0.23550999 -0.39796734
-0.094483554 -0.23551314 -0.39796555
-0.095907003 -0.23520701 -0.397973
-0.095654331 -0.23530532 -0.39795652
-0.09549623 -0.23530923 -0.39796555
-0.095291808 -0.23530419 -0.39793557
-0.09510275 -0.23529024 -0.39793426
-0.094818503 -0.235302 -0.397926
-0.094664 -0.23527832 -0.39791334
-0.094513662 -0.2352795 -0.39791584
-0.094393998 -0.23528534 -0.39790964
-0.094031997 -0.23529868 -0.397971
-0.093707196 -0.23529589 -0.39797395
-0.093590997 -0.23531766 -0.39797366
-0.099250004 -0.235065 -0.39799401
-0.098984003 -0.235074 -0.39798599
-0.097010002 -0.235002 -0.39797199
-0.096885502 -0.2350485 -0.397984
-0.096694499 -0.23506051 -0.39796299
-0.096514337 -0.23506884 -0.39797866
-0.096361332 -0.23510933 -0.39796767
-0.096173666 -0.235119 -0.39796066
-0.095901504 -0.235093 -0.39794552
-0.095640197 -0.23509061 -0.3979024
-0.095487334 -0.23507993 -0.39789647
-0.095274173 -0.23508967 -0.39787915
-0.095095165 -0.23509835 -0.39788365
-0.094810002 -0.23510902 -0.39788333
-0.094656006 -0.2350865 -0.39786801
-0.094506249 -0.23508823 -0.39786053
-0.094386503 -0.2350935 -0.39785999
-0.0940255 -0.235108 -0.397908
-0.0936988 -0.2350955 -0.39792681
-0.093506329 -0.23509002 -0.39793801
-0.093240999 -0.23505449 -0.39798802
-0.101976 -0.234852 -0.39799699
-0.101269 -0.23483168 -0.39797497
-0.1010765 -0.23485401 -0.39797851
-0.100901 -0.2348225 -0.397984
-0.100268 -0.234854 -0.39798599
-0.100049 -0.234906 -0.39797127
-0.099921495 -0.23491049 -0.39798152
-0.099670596 -0.2348756 -0.3979508
-0.09949933 -0.23489822 -0.39796621
-0.099287666 -0.23490816 -0.39795366
-0.099156998 -0.23491533 -0.39795002
-0.098978996 -0.23492301 -0.39793098
-0.09867584 -0.23489167 -0.39797652
-0.098502502 -0.23485699 -0.39798
-0.098263502 -0.23490201 -0.39797652
-0.098073326 -0.23487949 -0.39795864
-0.097894505 -0.23484826 -0.39794952
-0.097675256 -0.2348385 -0.39796424
-0.097501993 -0.23484549 -0.39796099
-0.097323 -0.23487301 -0.39794803
-0.0971184 -0.234907 -0.397937
-0.096880496 -0.234897 -0.39792123
-0.096688494 -0.234907 -0.39792299
-0.096499369 -0.23488888 -0.3979187
-0.096352994 -0.234881 -0.39789
-0.096164338 -0.23488899 -0.39789668
-0.095893331 -0.234899 -0.39790598
-0.095644198 -0.23490581 -0.39785558
-0.095480166 -0.23488884 -0.39783883
-0.095266506 -0.23489824 -0.39782524
-0.095087498 -0.234907 -0.3978295
-0.094802499 -0.23491749 -0.39783201
-0.0946505 -0.2349335 -0.39782
-0.094500251 -0.23493424 -0.39782274
-0.094377667 -0.23489968 -0.39782599
-0.094016671 -0.23491466 -0.3978667
-0.093711101 -0.23490801 -0.39789268
-0.093498498 -0.23489726 -0.39788949
-0.0932355 -0.2349025 -0.397939
-0.093062997 -0.23490551 -0.39798701
-0.103083 -0.23463 -0.398
-0.102843 -0.23464701 -0.398
-0.102613 -0.234667 -0.39799601
-0.10228325 -0.23464325 -0.39797524
-0.1020904 -0.23467441 -0.39796782
-0.10193067 -0.23470032 -0.39795852
-0.10169721 -0.23469619 -0.39796537
-0.10129325 -0.23469275 -0.3979255
-0.10107151 -0.23470324 -0.39791501
-0.10089825 -0.23471001 -0.39792746
-0.1007254 -0.2346942 -0.39794821
-0.10045167 -0.23469234 -0.39796999
-0.10026333 -0.23470266 -0.39792404
-0.100064 -0.23473175 -0.39792275
-0.099947408 -0.23470441 -0.39791062
-0.099675246 -0.23469976 -0.39788449
-0.099492334 -0.23470934 -0.39789665
-0.099280663 -0.23468316 -0.39784884
-0.099149667 -0.234689 -0.39785334
-0.098970331 -0.23469333 -0.39785969
-0.098706834 -0.23470116 -0.39788881
-0.098530665 -0.23470712 -0.39790612
-0.098300666 -0.23471178 -0.39790931
-0.098067254 -0.2346905 -0.39787799
-0.097891249 -0.23470101 -0.39785776
-0.097685836 -0.23470919 -0.39787415
-0.097515002 -0.23467833 -0.39786121
-0.097318001 -0.23468667 -0.39784682
-0.097140506 -0.23471375 -0.39785147
-0.096905254 -0.23469612 -0.3978464
-0.096682005 -0.23471801 -0.39785001
-0.09651114 -0.23470557 -0.39784557
-0.096345998 -0.23469049 -0.39782399
-0.096160002 -0.23473801 -0.39782301
-0.095886499 -0.23470849 -0.39784801
-0.095661998 -0.23476601 -0.39781499
-0.095475666 -0.23477232 -0.39780834
-0.094008505 -0.234722 -0.39782602
-0.093699627 -0.23470135 -0.3978346
-0.093476795 -0.23472281 -0.39783558
-0.093228005 -0.23471166 -0.39787701
-0.09305533 -0.23471333 -0.39793634
-0.1034985 -0.2344615 -0.39798552
-0.10328434 -0.23449433 -0.39797866
-0.10307767 -0.23447834 -0.39795065
-0.10283767 -0.23449565 -0.39794335
-0.10263484 -0.23451282 -0.39793634
-0.10248566 -0.23451835 -0.39795744
-0.1022785 -0.2344925 -0.39791399
-0.10209275 -0.23449875 -0.39791
-0.101924 -0.23451051 -0.39789325
-0.1016912 -0.23450041 -0.39788318
-0.10133025 -0.23452026 -0.39787173
-0.10109825 -0.23450212 -0.39784113
-0.1008852 -0.2345378 -0.39784619
-0.100743 -0.234512 -0.39786723
-0.100446 -0.23450449 -0.39788699
-0.100257 -0.23451349 -0.39785153
-0.1000785 -0.23452249 -0.39784199
-0.099950746 -0.234532 -0.39782798
-0.099669248 -0.23454851 -0.397836
-0.099487506 -0.23455817 -0.3978323
-0.098700248 -0.23451199 -0.39781776
-0.0985118 -0.2345262 -0.39783078
-0.098294802 -0.234533 -0.39782721
-0.098063499 -0.23457751 -0.39783251
-0.097887002 -0.23458651 -0.39782202
-0.097714998 -0.23456568 -0.39781901
-0.096827 -0.234558 -0.397802
-0.093717001 -0.23453601 -0.397802
-0.09341 -0.234558 -0.397802
-0.093222 -0.234559 -0.39783499
-0.093047 -0.23448366 -0.39786533
-0.092785992 -0.23447667 -0.39797533
-0.10529333 -0.23420966 -0.39798734
-0.105041 -0.2342595 -0.3979845
-0.10491399 -0.23422849 -0.39798
-0.104575 -0.234254 -0.397993
-0.104281 -0.234264 -0.39797699
-0.1041315 -0.23426601 -0.39797801
-0.103924 -0.23428284 -0.39795169
-0.103724 -0.23425049 -0.39796501
-0.10349333 -0.23431098 -0.39793149
-0.10329267 -0.23431683 -0.39790782
-0.103071 -0.23428851 -0.39788151
-0.1028315 -0.2343075 -0.39787
-0.1026338 -0.234302 -0.397843
-0.10249059 -0.23428579 -0.39784542
-0.1022828 -0.234319 -0.39783961
-0.10208616 -0.23431015 -0.39783517
-0.10191925 -0.23436075 -0.397827
-0.101757 -0.23432267 -0.39783967
-0.101368 -0.23435 -0.39780799
-0.100846 -0.23436899 -0.39781499
-0.100726 -0.2343775 -0.39782
-0.100442 -0.234392 -0.397834
-0.100253 -0.2344 -0.39780501
-0.093041003 -0.234331 -0.39782399
-0.092689507 -0.23429351 -0.39795482
-0.092579 -0.234263 -0.39797801
-0.106224 -0.23400301 -0.39799401
-0.10604 -0.234014 -0.39798799
-0.105886 -0.23408659 -0.39797658
-0.10574125 -0.23407 -0.39796501
-0.10553267 -0.23412435 -0.39795601
-0.10530801 -0.23410383 -0.397946
-0.10509033 -0.23409434 -0.39791831
-0.1049006 -0.23409259 -0.39791998
-0.10472567 -0.23407935 -0.39794531
-0.10450783 -0.23410232 -0.39792767
-0.10431951 -0.23410715 -0.39794281
-0.10412651 -0.23411451 -0.39792398
-0.10391825 -0.23409501 -0.39787027
-0.1037195 -0.23410049 -0.397894
-0.1034714 -0.2340996 -0.39784297
-0.10328624 -0.234128 -0.39783049
-0.103068 -0.23417599 -0.39782301
-0.1028255 -0.23415551 -0.39782301
-0.102473 -0.23414166 -0.39780366
-0.092681989 -0.23410143 -0.39790419
-0.092529997 -0.23409785 -0.3979533
-0.10712 -0.2338085 -0.3979775
-0.1068985 -0.23384351 -0.3979755
-0.106704 -0.233826 -0.39798701
-0.106403 -0.233925 -0.398
-0.1062936 -0.2338814 -0.39795163
-0.10608225 -0.23389901 -0.397939
-0.10589299 -0.23389161 -0.39788958
-0.10573533 -0.23388183 -0.39788052
-0.10552566 -0.23389967 -0.39785299
-0.10532884 -0.23390682 -0.39786199
-0.1051115 -0.23391666 -0.39784765
-0.1049132 -0.2339108 -0.39784783
-0.10472 -0.23389149 -0.39785701
-0.10448066 -0.23392566 -0.39786133
-0.10431249 -0.23388167 -0.397845
-0.10412051 -0.233926 -0.39784673
-0.10393766 -0.233954 -0.39782199
-0.103714 -0.2339485 -0.39783651
-0.092674673 -0.23391032 -0.39784634
-0.092522249 -0.23388913 -0.39789426
-0.092350997 -0.23387299 -0.397995
-0.108273 -0.233604 -0.397964
-0.1080894 -0.23364201 -0.3979786
-0.107912 -0.23366049 -0.397962
-0.10772201 -0.23370983 -0.39796081
-0.107422 -0.23368049 -0.39797598
-0.107116 -0.233696 -0.39793751
-0.10688372 -0.23369728 -0.39790457
-0.10669967 -0.233678 -0.39790735
-0.10630599 -0.23370075 -0.39788002
-0.10607684 -0.23371267 -0.39784634
-0.105941 -0.23372 -0.39783099
-0.105731 -0.23373249 -0.39781499
-0.10552 -0.23374701 -0.39780501
-0.105372 -0.23375501 -0.39781001
-0.104716 -0.233778 -0.397818
-0.104434 -0.233799 -0.397829
-0.092650503 -0.2337555 -0.39781702
-0.092492506 -0.23372525 -0.39786211
-0.092312396 -0.23370481 -0.39796019
-0.109108 -0.23340867 -0.397964
-0.10888025 -0.23345651 -0.39796248
-0.10868737 -0.23346612 -0.39797062
-0.108502 -0.233519 -0.39796665
-0.108323 -0.23350939 -0.39794603
-0.1081285 -0.233496 -0.39792526
-0.10795251 -0.23350751 -0.3978985
-0.107714 -0.23348217 -0.39788166
-0.10741667 -0.233494 -0.39787969
-0.10711 -0.23350851 -0.39785567
-0.10692149 -0.23353499 -0.39784169
-0.1066935 -0.23348951 -0.39783201
-0.10630134 -0.23355132 -0.39781368
-0.106117 -0.233557 -0.39780101
-0.092436746 -0.23351325 -0.397834
-0.092294998 -0.2334895 -0.39791214
-0.092157997 -0.23340499 -0.397984
-0.109671 -0.23322301 -0.39798999
-0.1095625 -0.2332755 -0.39796299
-0.1093665 -0.23328051 -0.39797199
-0.10910467 -0.23329633 -0.39791635
-0.10887575 -0.2333065 -0.39789599
-0.108672 -0.23329529 -0.3978855
-0.10849401 -0.23329233 -0.39788333
-0.108307 -0.23329835 -0.39786318
-0.10812234 -0.23330766 -0.39784467
-0.1079554 -0.23333421 -0.39783162
-0.10771 -0.2333335 -0.39780402
-0.107411 -0.23334099 -0.39782801
-0.107148 -0.233354 -0.39780301
-0.092287749 -0.2332975 -0.39785451
-0.092153504 -0.23329049 -0.39795852
-0.10989675 -0.23309451 -0.39798003
-0.10972017 -0.233106 -0.39795032
-0.109557 -0.23308933 -0.39787197
-0.10935933 -0.23309131 -0.39790598
-0.10909767 -0.23310678 -0.39785188
-0.10887881 -0.23313239 -0.3978284
-0.1087144 -0.2331548 -0.39782739
-0.108525 -0.23311602 -0.39781666
-0.108347 -0.233147 -0.39780399
-0.092238665 -0.23310535 -0.39782396
-0.092146002 -0.23309802 -0.39791104
-0.110616 -0.23286401 -0.398
-0.1105645 -0.23290899 -0.39797199
-0.11037534 -0.23288132 -0.39797401
-0.110107 -0.23284751 -0.39794999
-0.10989066 -0.23290665 -0.39790383
-0.109714 -0.23291786 -0.39787278
-0.109552 -0.23293801 -0.397818
-0.1093535 -0.2329025 -0.39782798
-0.109132 -0.232953 -0.39781201
-0.092231996 -0.23295 -0.39780399
-0.092138499 -0.23290849 -0.39784801
-0.091949999 -0.23286401 -0.39798999
-0.11107799 -0.2326065 -0.39797151
-0.11085234 -0.23269801 -0.3979567
-0.11063617 -0.23270965 -0.39795032
-0.11055867 -0.23272167 -0.39789298
-0.1103695 -0.23269549 -0.39788949
-0.1101025 -0.2326995 -0.39788401
-0.10988475 -0.2327195 -0.39782351
-0.10969425 -0.23274875 -0.39781678
-0.092133999 -0.232793 -0.397816
-0.091944665 -0.23271501 -0.39792666
-0.1114775 -0.23247275 -0.3979685
-0.11129501 -0.23250835 -0.39796364
-0.11109921 -0.23248461 -0.39792442
-0.110846 -0.23250949 -0.39788002
-0.11062917 -0.23248552 -0.39784968
-0.1105515 -0.2325325 -0.39783299
-0.110364 -0.2325425 -0.397838
-0.110097 -0.23254749 -0.39783001
-0.091935001 -0.23248465 -0.39786732
-0.1119175 -0.232244 -0.39799201
-0.111603 -0.2323125 -0.39794898
-0.11147117 -0.23228532 -0.39788815
-0.1113345 -0.23229218 -0.39789215
-0.11110977 -0.23230232 -0.3978599
-0.110841 -0.23235899 -0.39782301
-0.110648 -0.232329 -0.39780799
-0.091930002 -0.23233201 -0.39782101
-0.09174633 -0.232325 -0.3979713
-0.11207759 -0.2320706 -0.39796519
-0.11191249 -0.23209484 -0.39793417
-0.11152717 -0.23211749 -0.39784613
-0.11134267 -0.232116 -0.39782968
-0.1111435 -0.2321485 -0.39780849
-0.09170001 -0.23209198 -0.39793286
-0.1124955 -0.23183599 -0.39798951
-0.11228725 -0.23190925 -0.39796451
-0.11207975 -0.23189551 -0.39790824
-0.11190575 -0.23190525 -0.3978695
-0.111591 -0.23197301 -0.397825
-0.091692746 -0.2319015 -0.39787251
-0.091581665 -0.231875 -0.39797434
-0.1126965 -0.2316595 -0.39798599
-0.11250456 -0.23168372 -0.39793441
-0.11229057 -0.23169357 -0.39788222
-0.112082 -0.2317214 -0.39784101
-0.111918 -0.23176666 -0.397818
-0.091647662 -0.23170699 -0.39784703
-0.0915315 -0.23169191 -0.39794868
-0.113098 -0.231401 -0.39797699
-0.11269084 -0.23150717 -0.39793515
-0.1125257 -0.23150656 -0.39788827
-0.11232675 -0.2315025 -0.39783373
-0.091505557 -0.23149544 -0.39791298
-0.11327 -0.23123901 -0.398
-0.1131395 -0.23128375 -0.39795426
-0.1126704 -0.23129702 -0.3978616
-0.11253417 -0.23132451 -0.39783487
-0.112363 -0.231387 -0.39780799
-0.091497198 -0.23131652 -0.39786327
-0.11341876 -0.23107651 -0.39797676
-0.11330217 -0.23108667 -0.39794734
-0.11313268 -0.231095 -0.39788949
-0.11269999 -0.23115332 -0.39781103
-0.091437332 -0.23114233 -0.39782834
-0.091362998 -0.23107301 -0.39795801
-0.1135065 -0.23088402 -0.39796439
-0.11332867 -0.23089398 -0.39789999
-0.11314199 -0.23091768 -0.39783099
-0.091329396 -0.23090561 -0.39790982
-0.11365867 -0.23069067 -0.39797997
-0.11351054 -0.23069125 -0.39790452
-0.113331 -0.23071276 -0.39784449
-0.113167 -0.23078699 -0.39780501
-0.091277994 -0.23069067 -0.39788267
-0.113885 -0.230417 -0.39799401
-0.11366367 -0.23051333 -0.39793029
-0.11354015 -0.23050472 -0.39786842
-0.113385 -0.23054799 -0.39780399
-0.091270998 -0.2305 -0.39782602
-0.091178998 -0.2304845 -0.397966
-0.1138805 -0.230304 -0.397955
-0.11365533 -0.23028649 -0.39785966
-0.11354867 -0.23029417 -0.39781952
-0.091263995 -0.23034501 -0.39780301
-0.091172993 -0.230298 -0.39788803
-0.1141315 -0.230049 -0.397966
-0.113873 -0.23011301 -0.39791098
-0.113659 -0.230106 -0.39782667
-0.113564 -0.230138 -0.39780501
-0.091164 -0.23010349 -0.397856
-0.11426675 -0.22987275 -0.39797798
-0.11412551 -0.22989699 -0.39792198
-0.113864 -0.22988467 -0.3978453
-0.091154993 -0.229908 -0.39783633
-0.11446349 -0.229644 -0.39797324
-0.11430651 -0.22969766 -0.39793614
-0.114118 -0.22970735 -0.39786997
-0.091147996 -0.229755 -0.39780501
-0.11466 -0.229433 -0.397989
-0.11449157 -0.22950356 -0.39795229
-0.11431328 -0.22951315 -0.3978827
-0.11417001 -0.22948001 -0.39782897
-0.091035999 -0.22946149 -0.39793599
-0.11465333 -0.229279 -0.39795831
-0.11447578 -0.22929801 -0.39789557
-0.11432467 -0.22931655 -0.39782774
-0.114194 -0.22932801 -0.39780301
-0.091031499 -0.229313 -0.39786202
-0.114911 -0.229026 -0.39799801
-0.1146455 -0.2290895 -0.39791051
-0.11446816 -0.2291075 -0.39784765
-0.091021001 -0.22911501 -0.397863
-0.114937 -0.22889233 -0.3979927
-0.114638 -0.22889866 -0.39786664
-0.1144922 -0.2289284 -0.39781943
-0.091009326 -0.22887866 -0.3978503
-0.090910003 -0.228866 -0.397989
-0.11507 -0.228626 -0.39798501
-0.11494584 -0.22871386 -0.39795616
-0.114632 -0.22874799 -0.39782199
-0.091002002 -0.228724 -0.397829
-0.090926498 -0.2286945 -0.39792651
-0.11506667 -0.22847967 -0.39790168
-0.11493833 -0.22849017 -0.39786232
-0.090951197 -0.22849719 -0.39787561
-0.115081 -0.22826235 -0.39794865
-0.11492825 -0.22829451 -0.39785948
-0.090947002 -0.22831933 -0.39789566
-0.11507799 -0.22809538 -0.39794141
-0.1149185 -0.22809882 -0.39784718
-0.0909665 -0.22811651 -0.39790601
-0.1150858 -0.22790781 -0.3979302
-0.11490875 -0.22790352 -0.39783677
-0.090951674 -0.22790532 -0.39798436
-0.11525033 -0.22767901 -0.39797732
-0.11506733 -0.22769101 -0.3979038
-0.11494734 -0.22770433 -0.39783332
-0.091036499 -0.22764799 -0.397827
-0.090944 -0.227714 -0.397937
-0.11524101 -0.227485 -0.39795852
-0.11505875 -0.22749975 -0.39786547
-0.11494 -0.22755 -0.39780799
-0.091024503 -0.2274805 -0.39788902
-0.090931334 -0.22750901 -0.39797533
-0.1152575 -0.22728725 -0.39794648
-0.11504918 -0.22730534 -0.3978487
-0.091065206 -0.22729461 -0.39789161
-0.1152838 -0.22710939 -0.39795461
-0.11505366 -0.22712134 -0.3978453
-0.114997 -0.22707701 -0.39780399
-0.091109 -0.22706266 -0.39789632
-0.115403 -0.226868 -0.397989
-0.1152635 -0.22689332 -0.39793047
-0.11507066 -0.22691034 -0.39785001
-0.114993 -0.226997 -0.397802
-0.091245249 -0.22688374 -0.39783198
-0.091140248 -0.22690874 -0.39793503
-0.1152535 -0.226697 -0.39792299
-0.11506 -0.226713 -0.39785302
-0.091305993 -0.22669201 -0.39788327
-0.091185004 -0.2267465 -0.397948
-0.1152945 -0.22652701 -0.39797401
-0.1151205 -0.22651102 -0.3978838
-0.11496601 -0.226485 -0.39780551
-0.091445498 -0.22651151 -0.39785251
-0.091330998 -0.226514 -0.39795649
-0.11528 -0.22628701 -0.398
-0.11510974 -0.22631225 -0.39789301
-0.091609001 -0.22626251 -0.39784402
-0.091432497 -0.22633749 -0.39794201
-0.11509851 -0.22611284 -0.39791116
-0.11490325 -0.22608951 -0.39782801
-0.0917795 -0.22608951 -0.397845
-0.091593504 -0.2260825 -0.39796799
-0.115087 -0.22591275 -0.39793277
-0.11489183 -0.2258895 -0.39784515
-0.1147535 -0.225862 -0.397809
-0.092110991 -0.22582968 -0.3978343
-0.091898002 -0.22592226 -0.39787251
-0.091769002 -0.225959 -0.397917
-0.1150908 -0.2257278 -0.39795059
-0.11490381 -0.2256784 -0.39788318
-0.11474299 -0.22569799 -0.397852
-0.092264801 -0.2256836 -0.39786199
-0.092105329 -0.22572233 -0.39791182
-0.091963001 -0.225742 -0.39798051
-0.11488151 -0.22550684 -0.3979353
-0.11473066 -0.22549599 -0.39788631
-0.11484166 -0.225317 -0.39798102
-0.1147165 -0.2252875 -0.397953
-0.1144505 -0.225318 -0.39783698
-0.11429299 -0.2252515 -0.39781401
-0.11443666 -0.22511135 -0.39789832
-0.114257 -0.22509217 -0.39783397
-0.114424 -0.224941 -0.39797401
-0.1142705 -0.22491926 -0.397921
-0.11411492 -0.22489601 -0.39787933
-0.11392466 -0.22485399 -0.39785835
-0.11426049 -0.22479001 -0.39798552
-0.1140962 -0.22470701 -0.397973
-0.1138965 -0.22469375 -0.39794752
-0.113586 -0.22460601 -0.39784199
-0.113842 -0.22456899 -0.397975
-0.1135765 -0.2244795 -0.397903
-0.113386 -0.22445799 -0.39783001
-0.113269 -0.22435035 -0.39786851
-0.11311157 -0.22428401 -0.39789885
-0.11290567 -0.22428118 -0.39786351
-0.112725 -0.224243 -0.39787799
-0.112809 -0.224143 -0.397982
-0.11272 -0.22416 -0.397908
-0.1123085 -0.224154 -0.39782751
-0.1121136 -0.2240946 -0.39786521
-0.11190881 -0.22408421 -0.39785162
-0.1116705 -0.22406299 -0.39783502
-0.111886 -0.223969 -0.39788401
-0.101053 -0.25540799 -0.3977735
-0.103427 -0.25520301 -0.39776099
-0.10329866 -0.25523332 -0.39774367
-0.1031045 -0.255218 -0.39774299
-0.102923 -0.25522548 -0.39775401
-0.1027425 -0.2552835 -0.39776
-0.102473 -0.255252 -0.39773801
-0.10223967 -0.25528702 -0.39774632
-0.102074 -0.25527251 -0.3977325
-0.10190933 -0.25525299 -0.39774367
-0.101771 -0.25525099 -0.3977415
-0.101548 -0.25526398 -0.39771998
-0.101359 -0.25526899 -0.39767402
-0.10110672 -0.25530142 -0.39769083
-0.1008235 -0.25530148 -0.39772001
-0.10068674 -0.25531226 -0.397699
-0.10049524 -0.25529173 -0.39769813
-0.100286 -0.25529301 -0.39770135
-0.100063 -0.255263 -0.39767098
-0.099854 -0.25522801 -0.39771599
-0.099696204 -0.2552762 -0.39773759
-0.099513501 -0.255252 -0.39778051
-0.104667 -0.25505301 -0.39778399
-0.10447749 -0.25506002 -0.39776498
-0.10435 -0.25506699 -0.397762
-0.104172 -0.25507301 -0.39774299
-0.1039315 -0.25505048 -0.397715
-0.10369625 -0.25510052 -0.39771163
-0.10351726 -0.25510925 -0.39771524
-0.10328 -0.25508851 -0.39764851
-0.10310275 -0.25509799 -0.3976475
-0.102921 -0.25510725 -0.39766848
-0.1027405 -0.25512451 -0.39763951
-0.102471 -0.25513452 -0.397636
-0.10226733 -0.255153 -0.39764532
-0.10207175 -0.25515375 -0.39765203
-0.101928 -0.255146 -0.39764902
-0.10177 -0.25513199 -0.39763799
-0.101546 -0.25514501 -0.39762101
-0.100822 -0.255182 -0.39761499
-0.100656 -0.25519401 -0.397616
-0.100594 -0.25519899 -0.39761499
-0.099854 -0.25514799 -0.39762801
-0.09966775 -0.25514498 -0.397634
-0.099512249 -0.25513172 -0.39766902
-0.099340834 -0.25509667 -0.39769951
-0.09911643 -0.25509301 -0.39774141
-0.098926 -0.25504601 -0.39778
-0.1055055 -0.25484601 -0.397773
-0.105345 -0.25487834 -0.39773834
-0.10514151 -0.25490275 -0.39768475
-0.10490667 -0.25490233 -0.39772034
-0.1046655 -0.25493449 -0.39767998
-0.1044838 -0.2549172 -0.39765257
-0.104349 -0.25494802 -0.397652
-0.104171 -0.2549535 -0.39765
-0.103929 -0.25492999 -0.397643
-0.1037275 -0.254949 -0.39760852
-0.1035455 -0.25495949 -0.397618
-0.099382997 -0.25493199 -0.39760199
-0.099070713 -0.25489202 -0.39765117
-0.098865002 -0.25488919 -0.39770749
-0.098705225 -0.2549029 -0.39771789
-0.098511994 -0.25487098 -0.39774063
-0.098294497 -0.2548435 -0.39777797
-0.106953 -0.254612 -0.39779401
-0.106473 -0.25463599 -0.39779201
-0.106333 -0.25463998 -0.39777249
-0.10608751 -0.25465298 -0.39775598
-0.105887 -0.25466251 -0.39776
-0.10566566 -0.25468531 -0.39769998
-0.10550267 -0.25468817 -0.39766085
-0.1053334 -0.25471058 -0.3976506
-0.105151 -0.25475731 -0.39763033
-0.104884 -0.25479698 -0.39763951
-0.098880254 -0.254711 -0.39761549
-0.098701 -0.25474533 -0.3976357
-0.098508 -0.25471285 -0.39764965
-0.098290831 -0.25468531 -0.39767697
-0.098059677 -0.25469533 -0.39772567
-0.097931504 -0.25466573 -0.3977325
-0.107984 -0.254403 -0.39779601
-0.107797 -0.25440699 -0.39779899
-0.1074452 -0.25449139 -0.39773923
-0.10727101 -0.25450885 -0.39772263
-0.10708683 -0.25452065 -0.39773902
-0.10691725 -0.25449201 -0.3977285
-0.1066945 -0.25450349 -0.39774999
-0.10647 -0.2545175 -0.39772898
-0.10632917 -0.25448266 -0.39768136
-0.1060835 -0.25449568 -0.39766833
-0.10588384 -0.254504 -0.39765534
-0.098242 -0.25453001 -0.39761099
-0.098054498 -0.25449848 -0.39761901
-0.097926497 -0.25450775 -0.39766026
-0.097725496 -0.25444299 -0.39775997
-0.109459 -0.25424799 -0.39778101
-0.1093225 -0.25425351 -0.39777702
-0.10909883 -0.25430432 -0.39776
-0.108871 -0.25431448 -0.39776
-0.10876267 -0.25428566 -0.397746
-0.108518 -0.25425452 -0.39773399
-0.10825667 -0.25430402 -0.39771137
-0.10812783 -0.25431398 -0.39771917
-0.1079425 -0.25428525 -0.39770749
-0.107795 -0.25428849 -0.3977145
-0.107448 -0.25431049 -0.39767101
-0.10726301 -0.25431299 -0.3976725
-0.10708819 -0.25430077 -0.39765659
-0.106905 -0.25431103 -0.39764482
-0.1067052 -0.25432122 -0.39765519
-0.1064655 -0.2543605 -0.397652
-0.106281 -0.25432599 -0.39760399
-0.097878002 -0.25435448 -0.397627
-0.097680666 -0.25427568 -0.39773333
-0.110291 -0.254051 -0.397769
-0.110115 -0.25405565 -0.39776835
-0.10986633 -0.25406697 -0.39776766
-0.109719 -0.25408226 -0.39774749
-0.109526 -0.25408849 -0.39771736
-0.10931783 -0.25409648 -0.39769697
-0.10910337 -0.25411725 -0.3976914
-0.10889925 -0.25409749 -0.39766225
-0.108757 -0.25408798 -0.39764601
-0.108513 -0.25409749 -0.397659
-0.108252 -0.254145 -0.39762399
-0.1081235 -0.25415599 -0.3976295
-0.107938 -0.25412801 -0.39763075
-0.107791 -0.25413048 -0.39763001
-0.1074875 -0.254154 -0.397614
-0.1072858 -0.25416285 -0.3976174
-0.097718 -0.25416899 -0.39763099
-0.097570196 -0.25408462 -0.39773899
-0.110814 -0.25386399 -0.39779899
-0.1106605 -0.25391752 -0.39774901
-0.110463 -0.253885 -0.39774999
-0.110286 -0.25389332 -0.39769998
-0.11011034 -0.25389868 -0.39769867
-0.10986925 -0.25391963 -0.39769164
-0.10974267 -0.25389218 -0.3976835
-0.109519 -0.25389275 -0.39764249
-0.10931025 -0.25390074 -0.39764249
-0.10912875 -0.25390977 -0.39763975
-0.10895034 -0.25393233 -0.39761302
-0.1087505 -0.253932 -0.3976115
-0.108509 -0.25398099 -0.39761999
-0.097519495 -0.25390717 -0.39771935
