# .PCD v0.7 - Point Cloud Data file format
VERSION 0.7
FIELDS x y z
SIZE 4 4 4
TYPE F F F
COUNT 1 1 1
WIDTH 1397
HEIGHT 1
VIEWPOINT 0 0 0 1 0 0 0
POINTS 1397
DATA ascii
-0.039678499 0.152347 -0.234992
-0.034090664 0.15237334 -0.23498434
-0.033919331 0.15231234 -0.23498635
-0.033762001 0.152339 -0.23499301
-0.033501111 0.15229324 -0.23496634
-0.033274334 0.152279 -0.23493551
-0.033087999 0.15230329 -0.23493658
-0.032938667 0.15231 -0.23490034
-0.0327085 0.15229049 -0.234909
-0.032492109 0.15231611 -0.23491433
-0.032268334 0.15230484 -0.23488916
-0.032053333 0.152292 -0.23488766
-0.031815667 0.15227699 -0.234868
-0.031691 0.152307 -0.23484525
-0.031364001 0.15229499 -0.23482001
-0.031103 0.15226734 -0.23480368
-0.017681001 0.15230501 -0.23488466
-0.042457331 0.15248366 -0.23499
-0.042338997 0.15250568 -0.23497899
-0.042098001 0.1525145 -0.23496133
-0.041890334 0.15249801 -0.23493266
-0.041634336 0.15248699 -0.234927
-0.04145667 0.15247734 -0.23492233
-0.041330799 0.15248919 -0.2349138
-0.041125167 0.15250067 -0.23491932
-0.040962502 0.152491 -0.234914
-0.040693499 0.1525165 -0.23492168
-0.040465668 0.15250434 -0.23494351
-0.040294833 0.152496 -0.23495017
-0.040084083 0.15248442 -0.23497467
-0.039912857 0.15249571 -0.23496628
-0.03971675 0.15250251 -0.23498376
-0.039538503 0.15253 -0.23499501
-0.039269999 0.152592 -0.23499
-0.034108222 0.15250155 -0.23498133
-0.033912502 0.152502 -0.234974
-0.033756502 0.152491 -0.234983
-0.033494141 0.15249899 -0.2349557
-0.033285145 0.15251829 -0.23492073
-0.033095885 0.15249933 -0.23492032
-0.032947671 0.15248866 -0.23490115
-0.0327015 0.15248084 -0.23489566
-0.032485832 0.15250583 -0.23489267
-0.032260999 0.15249476 -0.2348865
-0.032045666 0.15252 -0.23486967
-0.031807002 0.152505 -0.23486
-0.031683832 0.1524965 -0.23484384
-0.031356331 0.152484 -0.234824
-0.017758001 0.15250251 -0.234862
-0.042478334 0.15268467 -0.23498733
-0.042338401 0.152667 -0.234988
-0.042090997 0.15270451 -0.2349595
-0.041883498 0.152688 -0.23492099
-0.041627001 0.152715 -0.23490267
-0.041448336 0.152705 -0.234915
-0.041313499 0.1527005 -0.23490034
-0.041118886 0.15268989 -0.23489577
-0.040957332 0.15267999 -0.23487134
-0.040778503 0.1527105 -0.234872
-0.040505666 0.15269633 -0.23490667
-0.040279798 0.15270759 -0.23491339
-0.040083639 0.15270527 -0.234945
-0.039908499 0.1527092 -0.23493862
-0.039711166 0.1526925 -0.2349465
-0.039514571 0.15267071 -0.23497628
-0.0393105 0.15270834 -0.2349745
-0.039145 0.152738 -0.235
-0.038932998 0.15269066 -0.23498566
-0.038712502 0.1527935 -0.2349855
-0.034090415 0.15270358 -0.23497798
-0.033906002 0.15269201 -0.23496366
-0.03374967 0.15268032 -0.234973
-0.033541601 0.15269122 -0.2349498
-0.033304002 0.15269952 -0.23491633
-0.033081856 0.15270528 -0.23489258
-0.032939333 0.1527165 -0.23488419
-0.032694668 0.15270901 -0.23485518
-0.032520168 0.152697 -0.23489535
-0.032300778 0.15268734 -0.23487912
-0.032037999 0.152711 -0.23486799
-0.031801 0.152657 -0.234859
-0.031689003 0.15271251 -0.23483883
-0.031348001 0.15271233 -0.23481166
-0.031067001 0.152621 -0.234805
-0.01783875 0.15271375 -0.234878
-0.017748 0.15261699 -0.234979
-0.042472001 0.15283699 -0.23499
-0.042315248 0.15292725 -0.23497
-0.042083997 0.15289301 -0.23494901
-0.041876335 0.152877 -0.23491168
-0.041620001 0.152904 -0.23489
-0.041441999 0.15289351 -0.234891
-0.041307002 0.15289025 -0.23487549
-0.041110888 0.1529171 -0.23487565
-0.0409525 0.15286851 -0.234824
-0.040771663 0.15289967 -0.23486198
-0.040499669 0.152885 -0.2348792
-0.040291 0.15289021 -0.2348834
-0.040096667 0.1529025 -0.23489951
-0.039919 0.15289152 -0.23489887
-0.039695002 0.152904 -0.2349236
-0.039526835 0.15290934 -0.23493133
-0.039304003 0.15289801 -0.23495878
-0.039083112 0.15288788 -0.23496278
-0.038926776 0.15288001 -0.23496369
-0.038708601 0.15291479 -0.23498181
-0.036966503 0.15292901 -0.234997
-0.036632001 0.152987 -0.234991
-0.035310499 0.152959 -0.23499101
-0.035088003 0.15295359 -0.23498678
-0.034975003 0.15290333 -0.23496467
-0.034797497 0.15292901 -0.234993
-0.034454003 0.15287633 -0.23499
-0.034095284 0.15288799 -0.23497443
-0.033923 0.15292175 -0.23494649
-0.033742666 0.15290834 -0.23494101
-0.033525836 0.15290366 -0.23492517
-0.033297669 0.15288888 -0.23489958
-0.033087999 0.15288925 -0.23489614
-0.032932751 0.15290651 -0.2348675
-0.032686502 0.15289849 -0.2348655
-0.032504402 0.1529098 -0.23487361
-0.032320146 0.15290657 -0.23485944
-0.032098196 0.15291899 -0.23485442
-0.031721249 0.15288988 -0.23482738
-0.01792375 0.15289076 -0.23487075
-0.042459998 0.153139 -0.23499399
-0.042330999 0.15309951 -0.234969
-0.042075831 0.15311985 -0.23493485
-0.041868001 0.15310434 -0.234897
-0.041614 0.15309334 -0.234861
-0.041435331 0.15308332 -0.23487766
-0.041300669 0.15307949 -0.23485416
-0.041104667 0.15310667 -0.23484868
-0.0409435 0.1530965 -0.234815
-0.040766001 0.15308949 -0.234825
-0.040492106 0.15311244 -0.23484918
-0.040276166 0.15310167 -0.23484667
-0.040090553 0.15309177 -0.23487224
-0.039912749 0.15308051 -0.2348696
-0.039706804 0.15308759 -0.23489639
-0.039521001 0.1531 -0.23489274
-0.039285284 0.15310299 -0.23491715
-0.03907489 0.15311533 -0.23494744
-0.038918778 0.15310733 -0.234944
-0.038702779 0.15309668 -0.23496588
-0.038247 0.15307534 -0.23497866
-0.038115751 0.1531245 -0.23498774
-0.037916169 0.1531045 -0.23498969
-0.037712749 0.15315825 -0.23498476
-0.037580997 0.15314901 -0.23498699
-0.037310999 0.15317599 -0.234992
-0.037110999 0.1531685 -0.2349945
-0.036961336 0.15308 -0.23497851
-0.0366285 0.1531 -0.23497149
-0.036454 0.15313201 -0.234999
-0.036254 0.15312268 -0.23499
-0.036095999 0.15319 -0.23498601
-0.035910666 0.153102 -0.23497967
-0.035263252 0.15310925 -0.234983
-0.035082329 0.15309884 -0.23495917
-0.0349705 0.153092 -0.234908
-0.034791332 0.15312 -0.23496933
-0.034445334 0.15310466 -0.23497701
-0.034104221 0.15308446 -0.23495868
-0.033952802 0.15309221 -0.2349374
-0.033735499 0.153098 -0.23492801
-0.033519499 0.15309374 -0.23490074
-0.033301122 0.15310825 -0.2348775
-0.0330864 0.1531157 -0.23487911
-0.03292517 0.15309666 -0.23486583
-0.032678995 0.153089 -0.23487067
-0.032514598 0.1530938 -0.23487401
-0.032332748 0.15310949 -0.23484726
-0.032109 0.1530955 -0.2348395
-0.031749003 0.153036 -0.23480651
-0.018060001 0.153014 -0.23485
-0.017942499 0.153009 -0.23494101
-0.042455502 0.153253 -0.23499501
-0.042323004 0.1532895 -0.23498218
-0.04206875 0.15330949 -0.234927
-0.041860998 0.153293 -0.23489299
-0.041605666 0.15332033 -0.23484433
-0.041427668 0.15330933 -0.23484968
-0.041292999 0.15330517 -0.23483235
-0.041098557 0.15329488 -0.23482156
-0.040936664 0.15328501 -0.23481135
-0.040759001 0.15327767 -0.23481135
-0.04053 0.1533035 -0.23482001
-0.040312834 0.153293 -0.234823
-0.040083334 0.15331888 -0.23483412
-0.039905749 0.15330768 -0.23483217
-0.0396915 0.15329866 -0.23485868
-0.039514668 0.15328835 -0.2348755
-0.039303627 0.15328713 -0.234873
-0.039069504 0.15330467 -0.23490667
-0.0389135 0.1532965 -0.23490268
-0.038685251 0.15331413 -0.23493764
-0.038239669 0.153303 -0.23494466
-0.038094331 0.15329555 -0.23496288
-0.03790975 0.15328267 -0.23495398
-0.037708249 0.15331049 -0.23495576
-0.0375765 0.15330151 -0.2349585
-0.037308 0.15328901 -0.23497
-0.037080668 0.1533168 -0.23497489
-0.03695317 0.1533075 -0.23495901
-0.036666665 0.15329149 -0.23497002
-0.036508001 0.15330575 -0.2349885
-0.036297251 0.1533155 -0.23497601
-0.036109 0.15331219 -0.2349766
-0.035932664 0.15329283 -0.23496984
-0.035738666 0.15332234 -0.23498534
-0.035256501 0.1532985 -0.23496117
-0.035075445 0.15328854 -0.23495068
-0.03496233 0.153282 -0.23493166
-0.034785502 0.15331 -0.23493201
-0.0344395 0.153294 -0.23494899
-0.034096446 0.15331213 -0.23493269
-0.03393567 0.15330416 -0.23490684
-0.033729333 0.15328833 -0.23490767
-0.033512667 0.15328349 -0.23488717
-0.033326998 0.15330899 -0.23486476
-0.033099376 0.153299 -0.23485687
-0.032908998 0.1533082 -0.2348378
-0.032671336 0.15331617 -0.2348495
-0.032498166 0.1533055 -0.23485899
-0.032326166 0.1532985 -0.23483033
-0.032102499 0.15328434 -0.23481584
-0.031776998 0.153341 -0.234804
-0.042314831 0.15351699 -0.23497283
-0.042061333 0.15349917 -0.23492666
-0.041853998 0.15348233 -0.23488998
-0.041600998 0.15347099 -0.234832
-0.041480336 0.153515 -0.23482966
-0.041286252 0.15349449 -0.2348175
-0.041083001 0.15351214 -0.23481749
-0.040754002 0.153429 -0.234805
-0.040477999 0.15341499 -0.23480999
-0.040224001 0.153402 -0.234807
-0.040066201 0.15349999 -0.234817
-0.039892334 0.15345834 -0.23480701
-0.039685998 0.1534875 -0.23482075
-0.039507497 0.15351583 -0.23483318
-0.039311141 0.1534953 -0.23484199
-0.039088361 0.15350127 -0.23486038
-0.038907997 0.15348546 -0.23485787
-0.038702283 0.153497 -0.23489486
-0.038234003 0.153492 -0.23491299
-0.038079377 0.153513 -0.23492563
-0.037902832 0.15350966 -0.23491299
-0.037702002 0.1534995 -0.23493683
-0.037570331 0.15349068 -0.23493899
-0.037301335 0.15347899 -0.23495233
-0.037074666 0.15350632 -0.23494416
-0.03694725 0.153497 -0.2349335
-0.036658671 0.15351866 -0.23495384
-0.036480501 0.15351349 -0.23497601
-0.036290336 0.153505 -0.23496436
-0.036091555 0.15349367 -0.23496056
-0.035926111 0.15348221 -0.23494633
-0.0357325 0.15351149 -0.23495901
-0.035241 0.1535102 -0.2349426
-0.035067219 0.15351611 -0.23493534
-0.034952998 0.15351 -0.234933
-0.034778666 0.15349968 -0.23492734
-0.034432668 0.153485 -0.23493433
-0.034090165 0.15350218 -0.23490834
-0.033929247 0.153494 -0.23488851
-0.033721332 0.15351599 -0.23488434
-0.033504996 0.15351133 -0.23486365
-0.033320166 0.15349866 -0.23484749
-0.033092916 0.1534885 -0.23483916
-0.032921802 0.15349159 -0.23481901
-0.032680333 0.15349366 -0.23481767
-0.032493003 0.153495 -0.2348185
-0.032319501 0.15348825 -0.234815
-0.032094166 0.15351249 -0.23480867
-0.042307504 0.15370551 -0.23497501
-0.042071667 0.15367633 -0.23493867
-0.041883748 0.15371375 -0.23489074
-0.041503001 0.15369383 -0.23483066
-0.041329503 0.15365 -0.234805
-0.0410535 0.1537105 -0.23480675
-0.040022001 0.15361799 -0.234804
-0.039726 0.153606 -0.234804
-0.039459001 0.153666 -0.234809
-0.039308999 0.15368266 -0.234815
-0.039065883 0.15370435 -0.23483025
-0.038900558 0.15371267 -0.23483123
-0.038708571 0.15369214 -0.23486145
-0.038598999 0.15373701 -0.234863
-0.038228001 0.15368167 -0.23488165
-0.038091857 0.15369643 -0.23488344
-0.037897129 0.15369913 -0.23487912
-0.037696 0.15368925 -0.23490849
-0.037563998 0.15371765 -0.23488234
-0.037294667 0.15370667 -0.23491032
-0.037068557 0.15369566 -0.234919
-0.036940999 0.15368684 -0.23491001
-0.036651749 0.15370849 -0.23494001
-0.036474001 0.15370275 -0.2349585
-0.036284253 0.15369475 -0.23494199
-0.036083892 0.15372112 -0.23493777
-0.035918444 0.15370966 -0.23492087
-0.035726335 0.15370101 -0.23493433
-0.035264753 0.15367875 -0.23492
-0.035080288 0.15371214 -0.23492612
-0.034946501 0.15369949 -0.23491299
-0.034771502 0.1536895 -0.234926
-0.034424003 0.15371267 -0.234926
-0.03408356 0.1536919 -0.2348929
-0.033923335 0.15368333 -0.23485684
-0.033715002 0.15370551 -0.2348575
-0.0334985 0.1537005 -0.23483951
-0.033303201 0.1537106 -0.23483761
-0.033092365 0.15370974 -0.23482555
-0.032969002 0.15370832 -0.23480801
-0.032674 0.15367033 -0.23480801
-0.03244267 0.15368167 -0.23480801
-0.032363001 0.153604 -0.23481099
-0.042277999 0.1538745 -0.23498125
-0.042099666 0.15388034 -0.23493533
-0.041931003 0.15388599 -0.23490839
-0.041477401 0.15390481 -0.23481901
-0.038835 0.153862 -0.23483101
-0.0387205 0.1538925 -0.23482451
-0.038594998 0.153888 -0.23481899
-0.038221333 0.15390833 -0.234834
-0.038076114 0.15390122 -0.23484856
-0.037891246 0.15388824 -0.23484616
-0.037691165 0.15387867 -0.23485084
-0.037557498 0.153907 -0.234863
-0.0372875 0.1538955 -0.23489949
-0.037054252 0.15391262 -0.2348955
-0.036934167 0.1539135 -0.23485951
-0.036656205 0.15388241 -0.23489502
-0.036487572 0.15390328 -0.23490544
-0.036277335 0.15388417 -0.23492467
-0.036077164 0.1539105 -0.23491816
-0.035912499 0.153899 -0.234896
-0.035719998 0.15389049 -0.234915
-0.035278331 0.153907 -0.23488867
-0.035107099 0.15389 -0.23490171
-0.034963399 0.1539062 -0.23489442
-0.034764331 0.153879 -0.23491366
-0.034418002 0.15390199 -0.23489501
-0.034068748 0.153909 -0.23486586
-0.033914998 0.15391101 -0.23484518
-0.033709332 0.15389501 -0.23482466
-0.033492167 0.15389016 -0.23482184
-0.0333152 0.1538934 -0.23482379
-0.033091597 0.15389919 -0.23481901
-0.032995999 0.1539005 -0.23480499
-0.018517332 0.15387833 -0.23487099
-0.042247001 0.154082 -0.23499301
-0.042089667 0.154107 -0.234954
-0.041906998 0.15409599 -0.23491317
-0.041577663 0.15407734 -0.23481698
-0.041398503 0.15410501 -0.23480999
-0.038757 0.154008 -0.23480099
-0.038217001 0.15406001 -0.23480999
-0.038057603 0.15408221 -0.2348164
-0.037904877 0.154089 -0.234817
-0.037712 0.15411624 -0.23482351
-0.037550669 0.15409701 -0.23485167
-0.037282337 0.15408565 -0.23485132
-0.037063573 0.15409744 -0.23486359
-0.036927748 0.15410376 -0.23484349
-0.036686502 0.15408799 -0.23486599
-0.036504999 0.15412046 -0.23488134
-0.036270168 0.15411101 -0.23489134
-0.036071338 0.1540999 -0.23488611
-0.03590611 0.15408823 -0.23487255
-0.035713669 0.15407999 -0.23488568
-0.035272501 0.15409699 -0.234863
-0.035102569 0.15410256 -0.23485227
-0.034963001 0.15411849 -0.23486084
-0.034758002 0.15410633 -0.23487099
-0.034412336 0.154091 -0.23486634
-0.034078714 0.15409328 -0.23484801
-0.033908501 0.15410025 -0.23482224
-0.033700999 0.15412234 -0.23481834
-0.033485252 0.15407975 -0.2348115
-0.033321999 0.15408826 -0.2348125
-0.033036001 0.154018 -0.234816
-0.032990001 0.154052 -0.23480301
-0.018603999 0.154036 -0.234815
-0.0185505 0.154112 -0.2349295
-0.042081498 0.15429699 -0.23496801
-0.041882601 0.1543072 -0.2349226
-0.041568 0.154304 -0.23483367
-0.041391 0.154294 -0.23480968
-0.038006 0.154201 -0.234805
-0.037678499 0.15425551 -0.23480649
-0.037545003 0.154286 -0.234814
-0.037074666 0.15430467 -0.23482966
-0.036955144 0.15427171 -0.23482344
-0.036679666 0.154277 -0.234843
-0.0364995 0.1543095 -0.23484583
-0.036263503 0.15430075 -0.2348745
-0.036064666 0.15428935 -0.23486869
-0.035898108 0.15431577 -0.23484834
-0.035706669 0.15430701 -0.23486066
-0.035265666 0.154286 -0.23484133
-0.035115249 0.15428662 -0.23484112
-0.03495675 0.1543075 -0.23482925
-0.034752 0.154295 -0.234834
-0.034404669 0.15431833 -0.23483567
-0.034046002 0.15428586 -0.23482201
-0.033953 0.15429433 -0.23480965
-0.033693999 0.154312 -0.234808
-0.033339001 0.15425999 -0.23480199
-0.018675501 0.15430799 -0.23490399
-0.018540001 0.15430549 -0.23499599
-0.042074502 0.154449 -0.23499301
-0.041905202 0.15449341 -0.23495622
-0.041560501 0.154494 -0.234842
-0.041382331 0.154522 -0.234806
-0.036673501 0.15446651 -0.23482201
-0.036482498 0.15448913 -0.23482099
-0.036258001 0.15448983 -0.23483799
-0.036066122 0.15446925 -0.23483925
-0.035909664 0.15450667 -0.23482233
-0.035699502 0.154497 -0.234852
-0.035257999 0.15451367 -0.23482333
-0.035099499 0.15449449 -0.23482062
-0.0349572 0.1544826 -0.23481381
-0.034745336 0.154485 -0.23481531
-0.034027502 0.1544475 -0.23480901
-0.033972502 0.154484 -0.23480451
-0.033684 0.154578 -0.23480301
-0.018808499 0.15454251 -0.234825
-0.018750999 0.15450166 -0.234887
-0.041804001 0.154697 -0.23493166
-0.041552667 0.15468435 -0.23485033
-0.041374497 0.15471199 -0.23482001
-0.036403999 0.15464699 -0.234806
-0.036254 0.154641 -0.23480499
-0.036046997 0.154668 -0.23481649
-0.035941999 0.15465321 -0.2348094
-0.035693001 0.15468633 -0.23482899
-0.035253 0.15466499 -0.234804
-0.035169002 0.15466 -0.23480301
-0.034973502 0.154689 -0.23481101
-0.018848 0.154735 -0.234834
-0.0188 0.15466 -0.234909
-0.041795 0.1548855 -0.234965
-0.041541997 0.15491167 -0.23487835
-0.041331399 0.1549156 -0.2348288
-0.034968998 0.15480299 -0.23480099
-0.019045001 0.154975 -0.234817
-0.018928999 0.15486984 -0.23490417
-0.041790001 0.155 -0.23499
-0.041533001 0.15510151 -0.234909
-0.04131525 0.15509 -0.23484001
-0.041172002 0.155196 -0.23480199
-0.019079 0.15509349 -0.234869
-0.041524667 0.155292 -0.23493367
-0.041306499 0.1552805 -0.23486616
-0.041166998 0.15531 -0.23480999
-0.041514333 0.15552066 -0.23496532
-0.041296668 0.15550883 -0.234891
-0.041099854 0.155508 -0.23482214
-0.040952999 0.15556499 -0.23481201
-0.041506 0.155711 -0.2349845
-0.041288249 0.15569925 -0.23490725
-0.041072164 0.155687 -0.23484434
-0.040959749 0.15573774 -0.2348225
-0.0412785 0.15589 -0.2349555
-0.041097835 0.15587784 -0.23487484
-0.040967252 0.15590751 -0.234823
-0.041226 0.15611733 -0.23495901
-0.041086834 0.15610699 -0.23491584
-0.040924627 0.15610613 -0.23485175
-0.041076999 0.15629725 -0.234972
-0.040890999 0.15630186 -0.2348983
-0.040639665 0.15631033 -0.23483832
-0.040460333 0.15630101 -0.23482001
-0.040335 0.15634532 -0.23482601
-0.040192999 0.156363 -0.23480099
-0.041026503 0.1564475 -0.23498401
-0.040896859 0.1564777 -0.23494385
-0.0406285 0.1565015 -0.23490849
-0.040449999 0.1564925 -0.234887
-0.040303603 0.1565074 -0.23488799
-0.040127832 0.15653834 -0.23484017
-0.039930001 0.15657699 -0.2348035
-0.040902998 0.15663099 -0.23498601
-0.0407256 0.1566824 -0.2349622
-0.0404405 0.15664551 -0.23495901
-0.040316999 0.156652 -0.23496033
-0.040089834 0.15670317 -0.2348965
-0.039908804 0.1566976 -0.2348382
-0.040101502 0.15687799 -0.23497126
-0.039916668 0.15688233 -0.23488708
-0.039752997 0.156928 -0.23481074
-0.039889 0.15710302 -0.23494561
-0.039731111 0.15709901 -0.23484999
-0.039588001 0.157132 -0.23481101
-0.039857499 0.1572825 -0.23497726
-0.039721169 0.15729016 -0.23490034
-0.03955625 0.15733925 -0.23484775
-0.039704747 0.15747239 -0.2349605
-0.0395265 0.15750875 -0.23486724
-0.039397001 0.157535 -0.234804
-0.039677002 0.1576345 -0.23499149
-0.039516997 0.15770034 -0.23492186
-0.0393534 0.1577028 -0.23483041
-0.039464001 0.1578875 -0.23495001
-0.039300751 0.1579065 -0.23487975
-0.039154999 0.15798399 -0.2348395
-0.039457999 0.158003 -0.23498601
-0.039308999 0.15809567 -0.23493735
-0.0391226 0.158104 -0.2348624
-0.039095443 0.15828745 -0.2349159
-0.038877334 0.15831165 -0.23483498
-0.038718 0.158342 -0.234808
-0.038450666 0.15830334 -0.23482399
-0.039043002 0.15843901 -0.234965
-0.038878798 0.15850589 -0.23492832
-0.038711891 0.15849577 -0.23487401
-0.038495224 0.15848623 -0.23490855
-0.038041499 0.15850151 -0.23484901
-0.038690198 0.1586812 -0.2349592
-0.038540002 0.15866832 -0.23497634
-0.038030338 0.15869467 -0.23492266
-0.037896875 0.15869312 -0.23484039
-0.037779 0.15875299 -0.234818
-0.03802 0.158887 -0.234975
-0.037877221 0.15891457 -0.23491335
-0.03772125 0.15892026 -0.23484224
-0.037825998 0.15909268 -0.23496799
-0.037685998 0.1590915 -0.23488925
-0.037525199 0.1591492 -0.23484941
-0.037687834 0.15925983 -0.23496167
-0.037514169 0.15931201 -0.23492099
-0.037348501 0.159299 -0.234835
-0.037454337 0.15945266 -0.23496366
-0.037337333 0.15949233 -0.23491
-0.037071001 0.15947866 -0.234864
-0.036872 0.1595075 -0.2348235
-0.036793999 0.159536 -0.23481999
-0.036472 0.15959699 -0.234846
-0.036269572 0.15951543 -0.2348803
-0.03608625 0.15952626 -0.23484351
-0.023665 0.159494 -0.23482201
-0.023556 0.159412 -0.23481899
-0.03706 0.15963601 -0.234964
-0.036861502 0.15966475 -0.2349135
-0.036731336 0.15969244 -0.23492056
-0.036465 0.159676 -0.23492
-0.036287501 0.1596355 -0.23496449
-0.036067665 0.15968867 -0.234926
-0.035906799 0.15969519 -0.23485641
-0.035779331 0.15976767 -0.23482001
-0.035901874 0.1598735 -0.23493925
-0.035719 0.15991172 -0.23487358
-0.035489 0.15992901 -0.234806
-0.024896 0.159941 -0.23481099
-0.024720669 0.15988149 -0.23486634
-0.035829999 0.160035 -0.23497701
-0.035675377 0.16007014 -0.23494124
-0.035479665 0.160087 -0.234888
-0.034696002 0.160197 -0.234842
-0.034520999 0.160189 -0.234845
-0.034177501 0.16013551 -0.23483899
-0.025269335 0.16016465 -0.23485732
-0.025061 0.160065 -0.23485601
-0.024889 0.160023 -0.23490299
-0.035468001 0.160245 -0.234997
-0.035027999 0.16029601 -0.23490733
-0.034890145 0.16027601 -0.23489915
-0.034744713 0.16030443 -0.23492399
-0.034511499 0.160308 -0.234952
-0.034167998 0.16029251 -0.23491201
-0.033871751 0.16033 -0.23484826
-0.033741497 0.1603775 -0.2348195
-0.025821 0.16036899 -0.234833
-0.0256825 0.16036126 -0.234863
-0.0254994 0.16030881 -0.23488219
-0.025318 0.160275 -0.234938
-0.033844002 0.16050476 -0.23493651
-0.033708401 0.16050079 -0.23487739
-0.033448 0.160587 -0.23482101
-0.027011 0.160584 -0.234805
-0.026842 0.16057301 -0.234843
-0.026735 0.1605265 -0.23483899
-0.026571 0.160559 -0.234881
-0.026299 0.1605465 -0.2348675
-0.026092669 0.16051768 -0.23489833
-0.025906399 0.1604898 -0.234919
-0.025674749 0.16044424 -0.234962
-0.033803999 0.16062 -0.23498701
-0.033684667 0.16061001 -0.23492533
-0.0335165 0.160714 -0.23492399
-0.033268001 0.16074 -0.234843
-0.032991 0.160795 -0.234807
-0.032426499 0.1607345 -0.234828
-0.032296252 0.16072975 -0.23482725
-0.032168001 0.16071799 -0.234808
-0.028287001 0.16074026 -0.2348375
-0.028074 0.1607475 -0.23485
-0.027898999 0.16073975 -0.23483351
-0.0277375 0.160732 -0.23484799
-0.026835 0.16065501 -0.23492099
-0.026725 0.160649 -0.23495001
-0.026564 0.16064 -0.234971
-0.026341001 0.160633 -0.234973
-0.033431001 0.160827 -0.234997
-0.033257332 0.16089766 -0.234935
-0.033123501 0.16088717 -0.23489965
-0.032901667 0.16091301 -0.23488301
-0.032717999 0.16090201 -0.23486
-0.032496501 0.16088951 -0.234855
-0.032279599 0.16090539 -0.23485342
-0.032115497 0.16094875 -0.23484574
-0.031978998 0.160981 -0.234827
-0.029281501 0.16099849 -0.2348585
-0.029089002 0.16096701 -0.23486932
-0.0289695 0.1609465 -0.23486
-0.028715249 0.16087699 -0.234879
-0.028592002 0.1609295 -0.23490101
-0.0283176 0.16085041 -0.23492721
-0.0280635 0.16087 -0.234971
-0.027889 0.160861 -0.23494199
-0.032851502 0.16103351 -0.23499501
-0.032707334 0.16102366 -0.23497432
-0.03248525 0.161048 -0.234956
-0.032276001 0.16108175 -0.234965
-0.032105003 0.16110824 -0.23494099
-0.031925999 0.16109501 -0.2348675
-0.031708501 0.1611585 -0.234862
-0.031468999 0.16118 -0.23484699
-0.031390999 0.16117699 -0.23482101
-0.030706249 0.16114424 -0.23482876
-0.030506499 0.1611325 -0.2348185
-0.030166499 0.161158 -0.234844
-0.029900333 0.1611495 -0.23487365
-0.029713249 0.16113651 -0.234887
-0.029486431 0.161109 -0.23489816
-0.029274 0.1610795 -0.23494449
-0.0290945 0.16107599 -0.23497
-0.032058001 0.161222 -0.234971
-0.031901333 0.161239 -0.23494966
-0.0317 0.16127899 -0.23495001
-0.031461 0.161301 -0.234929
-0.031337749 0.16129175 -0.23489651
-0.031009 0.161282 -0.234907
-0.030696625 0.16126612 -0.23493525
-0.030499751 0.1612515 -0.23487401
-0.030156 0.16128001 -0.234964
-0.029890334 0.16127034 -0.23498333
-0.0279985 0.13534451 -0.234768
-0.028184 0.135537 -0.234787
-0.027991999 0.13549751 -0.2347675
-0.026511002 0.1355488 -0.23478261
-0.026283376 0.135518 -0.23477538
-0.026023 0.1355315 -0.234772
-0.025852 0.135524 -0.234767
-0.025683001 0.13554834 -0.23479234
-0.028134165 0.13568917 -0.23476815
-0.027941748 0.13570198 -0.2347815
-0.027705001 0.135737 -0.23479199
-0.027270999 0.1357525 -0.23478299
-0.027071798 0.13572299 -0.23478799
-0.02688225 0.13571724 -0.23478049
-0.026702801 0.1356969 -0.2347827
-0.026527286 0.13569628 -0.23475416
-0.026289335 0.13570385 -0.23472933
-0.026019 0.1356865 -0.234732
-0.025845667 0.13571833 -0.23473366
-0.02567889 0.13570456 -0.23475102
-0.025576001 0.13569434 -0.23476499
-0.025363 0.135756 -0.234791
-0.028125001 0.13591801 -0.23476918
-0.027892498 0.13590866 -0.23476733
-0.0277 0.135892 -0.23477165
-0.027539669 0.13588166 -0.23478
-0.027265999 0.13590725 -0.234763
-0.027074751 0.13590126 -0.23476025
-0.0268985 0.13589375 -0.23475325
-0.026695164 0.13591334 -0.23475127
-0.026511889 0.13590589 -0.23472111
-0.0263265 0.13590033 -0.23469816
-0.026104501 0.13588683 -0.23470099
-0.0258395 0.135911 -0.23471001
-0.025672833 0.13589817 -0.23471884
-0.025571 0.13589001 -0.23471451
-0.025358334 0.135911 -0.234767
-0.025074 0.135977 -0.234786
-0.024961248 0.13590974 -0.23477076
-0.024586 0.13594 -0.2348
-0.028118001 0.13610899 -0.23476499
-0.027913334 0.13608898 -0.23476833
-0.02771825 0.136124 -0.234767
-0.027532334 0.13611366 -0.234743
-0.027259665 0.13610083 -0.23473482
-0.027068501 0.1360945 -0.23472983
-0.026892168 0.13608751 -0.23472132
-0.026688876 0.13610649 -0.234723
-0.026505666 0.1360985 -0.23469669
-0.0263205 0.13609301 -0.23466575
-0.0260798 0.1361028 -0.23465881
-0.025834 0.13610534 -0.23465998
-0.025666665 0.13609232 -0.23468955
-0.025565 0.13608333 -0.23467799
-0.025353 0.136105 -0.23471999
-0.025072001 0.136096 -0.2347395
-0.024888571 0.13609514 -0.23475172
-0.0247175 0.13612349 -0.23477276
-0.024534376 0.136104 -0.2347625
-0.0243384 0.13609841 -0.23477021
-0.024125 0.13610649 -0.2347815
-0.028411999 0.136388 -0.234799
-0.028110502 0.136299 -0.23476116
-0.027961999 0.13629799 -0.23475432
-0.027751002 0.1362958 -0.23474681
-0.027525499 0.136305 -0.2347315
-0.027252998 0.13629201 -0.23471649
-0.027062001 0.1362865 -0.23471001
-0.026883999 0.13631733 -0.23470651
-0.026682332 0.13629873 -0.23470426
-0.026499221 0.136291 -0.23467289
-0.026313668 0.13628566 -0.23465133
-0.026139 0.13627699 -0.23462775
-0.025885001 0.13631533 -0.23462433
-0.025653001 0.13630143 -0.23465344
-0.025558 0.13631634 -0.23463465
-0.025348 0.13630067 -0.23467201
-0.025066333 0.13629033 -0.23469166
-0.024936 0.1362924 -0.23469719
-0.02474075 0.13630074 -0.23472449
-0.024522169 0.13629 -0.23470818
-0.0243336 0.1363034 -0.2346966
-0.024121001 0.13630499 -0.23470934
-0.023929665 0.13629 -0.23475534
-0.023763999 0.136356 -0.234779
-0.028407499 0.136502 -0.23479401
-0.028103251 0.13649 -0.23475724
-0.027955499 0.136491 -0.2347295
-0.027732501 0.13650967 -0.23473282
-0.027518667 0.13649701 -0.23471999
-0.027295666 0.136485 -0.23472534
-0.027102111 0.13647933 -0.23470378
-0.026877001 0.136509 -0.23469199
-0.026701333 0.13649167 -0.23469083
-0.02650889 0.13649701 -0.23465167
-0.0263154 0.13650121 -0.23462519
-0.026176667 0.13651 -0.23461366
-0.025992667 0.13649833 -0.23461699
-0.025655 0.13647828 -0.23462155
-0.0255515 0.13650849 -0.234615
-0.025342001 0.1364945 -0.234625
-0.02506 0.136483 -0.234668
-0.024920501 0.13651016 -0.23465216
-0.024735667 0.13649683 -0.23467118
-0.024517445 0.13648587 -0.23464625
-0.0243458 0.13649181 -0.23464641
-0.024116 0.13650051 -0.234648
-0.023924999 0.1364875 -0.234685
-0.023686834 0.13650817 -0.23474483
-0.028396999 0.136768 -0.2348
-0.028096 0.13668083 -0.2347555
-0.027948335 0.13668166 -0.23471999
-0.02772525 0.13670075 -0.23472399
-0.0275115 0.13668799 -0.234707
-0.027287001 0.13671367 -0.23472267
-0.027093776 0.13670966 -0.23468322
-0.026870668 0.13670149 -0.23467083
-0.026694555 0.13668333 -0.23467554
-0.026528111 0.136678 -0.23463042
-0.0263445 0.13671049 -0.234612
-0.026171001 0.13666201 -0.234607
-0.025986999 0.13665 -0.234607
-0.0256705 0.13674949 -0.2346095
-0.025547 0.13662399 -0.234603
-0.025334999 0.136685 -0.23461832
-0.025053667 0.13667633 -0.234641
-0.024914 0.13670149 -0.23463401
-0.024729501 0.13669001 -0.23464024
-0.024503376 0.13670726 -0.23461875
-0.024346666 0.13665833 -0.23460799
-0.024112001 0.13665649 -0.234612
-0.02392 0.13668133 -0.234641
-0.023682 0.13670374 -0.23468651
-0.023432 0.13668251 -0.23476401
-0.023269 0.136748 -0.23476601
-0.023140667 0.13675301 -0.23478067
-0.028391333 0.13692133 -0.23478867
-0.028087666 0.13691001 -0.23474568
-0.027939335 0.13690966 -0.23472166
-0.027718166 0.13689201 -0.23471834
-0.027503999 0.13687867 -0.23471065
-0.0272805 0.1369065 -0.234703
-0.027131999 0.1369015 -0.234671
-0.026908001 0.13689466 -0.23466367
-0.02668611 0.136913 -0.23466343
-0.026504418 0.13690633 -0.23462351
-0.02634 0.136825 -0.234604
-0.025673335 0.13688834 -0.23461168
-0.025326999 0.136915 -0.23460765
-0.0250475 0.136869 -0.234611
-0.024910498 0.13681799 -0.234611
-0.02472475 0.1368445 -0.23461649
-0.023662802 0.13688281 -0.23463599
-0.023426333 0.13687901 -0.23471266
-0.023265 0.136903 -0.2347295
-0.023121001 0.136896 -0.23474149
-0.022980334 0.13691966 -0.23477232
-0.028384499 0.137113 -0.234779
-0.028080251 0.13710025 -0.23473698
-0.027931999 0.13710099 -0.234722
-0.0276994 0.137104 -0.23471498
-0.027496001 0.13710833 -0.23468566
-0.027272999 0.13709567 -0.23470633
-0.027124666 0.13709199 -0.23466682
-0.026901552 0.13708656 -0.23464844
-0.026679335 0.13710482 -0.23464668
-0.026497375 0.13709763 -0.23461102
-0.025686 0.137018 -0.234606
-0.025320999 0.137069 -0.23460799
-0.02346525 0.137097 -0.23463149
-0.023259999 0.1371 -0.23466367
-0.023115667 0.13709083 -0.2346905
-0.022976 0.13711551 -0.2347075
-0.022795999 0.137144 -0.234769
-0.022451 0.137196 -0.23478501
-0.028376998 0.13730299 -0.23477833
-0.028072834 0.13729151 -0.2347405
-0.027924666 0.137291 -0.23472166
-0.027713399 0.1372882 -0.23472221
-0.0274875 0.137298 -0.2347105
-0.027263334 0.13732368 -0.23471099
-0.0271155 0.13731967 -0.2346735
-0.026892668 0.13731477 -0.23464622
-0.026672889 0.13729689 -0.23463055
-0.026508298 0.13728128 -0.23460801
-0.0263595 0.13732049 -0.2346085
-0.023415999 0.13726801 -0.234611
-0.023255 0.1372945 -0.234616
-0.023099598 0.1373082 -0.23464081
-0.022970999 0.13731067 -0.23465334
-0.022727 0.13729601 -0.23474717
-0.022449 0.13731501 -0.23474151
-0.022247 0.13730501 -0.23476648
-0.028369501 0.137493 -0.23478501
-0.028063999 0.13751949 -0.23473816
-0.027915334 0.137519 -0.23472799
-0.027694 0.13750049 -0.23472534
-0.027480999 0.13748835 -0.23469467
-0.027256001 0.137514 -0.23471099
-0.027107751 0.1375095 -0.2346825
-0.02692825 0.1375075 -0.23466325
-0.026685199 0.1375116 -0.23463412
-0.026532199 0.1374886 -0.23460738
-0.0263725 0.13749225 -0.23461324
-0.023055 0.137476 -0.23461001
-0.022964999 0.1375055 -0.234612
-0.022721998 0.137492 -0.23468649
-0.022444 0.13750966 -0.23469199
-0.022287002 0.13750367 -0.23469867
-0.022153502 0.13749333 -0.23472883
-0.021918001 0.13751951 -0.234754
-0.028364999 0.13760699 -0.23479
-0.0280555 0.13770801 -0.23476399
-0.0279075 0.13770799 -0.23473501
-0.0276752 0.13771281 -0.23471999
-0.027471334 0.13771565 -0.23470502
-0.027248999 0.137704 -0.23471034
-0.027100334 0.13769968 -0.23468299
-0.026920835 0.13769767 -0.23466383
-0.026702901 0.1376957 -0.2346364
-0.0265035 0.13767001 -0.23460451
-0.026386 0.137665 -0.234606
-0.022704801 0.13767138 -0.2346364
-0.022438999 0.1377065 -0.234631
-0.022282001 0.13769999 -0.234635
-0.02214925 0.13769101 -0.23465675
-0.021913668 0.13771699 -0.23467867
-0.021708749 0.13771175 -0.23474675
-0.021525666 0.13775401 -0.23478599
-0.028057599 0.13788381 -0.23476279
-0.027924251 0.13791475 -0.23476449
-0.0276892 0.13789621 -0.23473601
-0.027463499 0.13790551 -0.234715
-0.0272415 0.137895 -0.23470899
-0.0270925 0.1378895 -0.23469001
-0.02691325 0.13788849 -0.234661
-0.026710223 0.13791001 -0.23464057
-0.026552571 0.13791157 -0.23462114
-0.022647999 0.13783801 -0.234615
-0.022279 0.137817 -0.234603
-0.022103 0.137804 -0.23461901
-0.021909 0.13791251 -0.234623
-0.021677749 0.13788876 -0.23467951
-0.021522334 0.13791288 -0.23472288
-0.021345001 0.13797501 -0.234797
-0.0280845 0.138089 -0.2347735
-0.027932201 0.13810819 -0.23477659
-0.027669333 0.13810784 -0.2347495
-0.027456 0.13809599 -0.23472367
-0.027233332 0.13808466 -0.23471701
-0.027084669 0.13807884 -0.23470251
-0.026904834 0.13807748 -0.234685
-0.026702667 0.13810067 -0.23464333
-0.026508002 0.13810472 -0.234623
-0.026365001 0.138197 -0.234607
-0.021661598 0.1380668 -0.2346482
-0.021517666 0.13810851 -0.234661
-0.021342 0.13809201 -0.23475999
-0.028077001 0.13828 -0.23477967
-0.027945798 0.1382916 -0.2347798
-0.027661499 0.1382965 -0.23476325
-0.027448 0.13828599 -0.23472899
-0.027224334 0.13831334 -0.23472333
-0.027074168 0.1383055 -0.23473299
-0.026895167 0.1383045 -0.23469985
-0.026694333 0.13828923 -0.23466232
-0.026518444 0.13829611 -0.23463535
-0.026360501 0.138311 -0.23460901
-0.021611501 0.138274 -0.234616
-0.021505499 0.13827734 -0.23462568
-0.021338001 0.13828899 -0.23468699
-0.0211595 0.1383125 -0.234771
-0.028069001 0.138468 -0.23479301
-0.0279168 0.13848901 -0.2347836
-0.027680751 0.13846925 -0.234777
-0.027503202 0.13849279 -0.23475599
-0.0272165 0.138503 -0.234742
-0.027066501 0.138494 -0.23474652
-0.026887501 0.13849451 -0.23470874
-0.026685111 0.13851666 -0.23466799
-0.026496416 0.13850683 -0.23463576
-0.026352333 0.138501 -0.23461999
-0.021333 0.138484 -0.234632
-0.021155668 0.13850899 -0.23469967
-0.027866501 0.13869351 -0.234795
-0.027698332 0.13871866 -0.23478167
-0.027510002 0.13870583 -0.23477216
-0.027208665 0.13869266 -0.23474334
-0.027059497 0.13868584 -0.23473383
-0.026879998 0.13868549 -0.23470116
-0.026678002 0.13870899 -0.23465617
-0.026490001 0.1386985 -0.2346205
-0.026345499 0.13869101 -0.23461899
-0.021151001 0.138706 -0.23462901
-0.0208745 0.13875851 -0.23477399
-0.0276905 0.138908 -0.23479101
-0.027476333 0.138882 -0.23477365
-0.027202001 0.138843 -0.23475499
-0.027100001 0.13891672 -0.23473743
-0.026889428 0.1389247 -0.23470615
-0.026679248 0.13888949 -0.23466651
-0.026491078 0.13889423 -0.23463146
-0.026306201 0.1388966 -0.234615
-0.020871501 0.13891649 -0.234698
-0.027846999 0.139189 -0.234797
-0.027683333 0.13909934 -0.23478834
-0.027478 0.13910061 -0.23478122
-0.02714175 0.139109 -0.23474249
-0.026907502 0.13910401 -0.23471266
-0.026697248 0.13909201 -0.23466675
-0.02652275 0.139119 -0.23463982
-0.026324667 0.1391111 -0.23461191
-0.020867998 0.13911401 -0.23462231
-0.020628 0.13909034 -0.23471934
-0.02048675 0.13908975 -0.23474088
-0.027406 0.13931 -0.23477535
-0.027134167 0.13929884 -0.23474716
-0.026899666 0.13929388 -0.23472013
-0.026689833 0.13928217 -0.23466818
-0.026515126 0.13930887 -0.23464376
-0.026316999 0.13930134 -0.23461898
-0.020623501 0.1392855 -0.23464799
-0.020475334 0.13931377 -0.23466079
-0.020294333 0.13929367 -0.23473567
-0.027398001 0.13949999 -0.234788
-0.027114799 0.1395102 -0.23476882
-0.026901877 0.139512 -0.23473001
-0.026697142 0.13952215 -0.23468041
-0.026507499 0.13949883 -0.23465367
-0.026309334 0.13949023 -0.23462823
-0.026143 0.139561 -0.234604
-0.020621 0.139403 -0.234607
-0.020473 0.13947001 -0.2346115
-0.020290501 0.1394915 -0.234653
-0.020003 0.13955149 -0.23475349
-0.019913999 0.13958099 -0.23478
-0.027390666 0.13969 -0.23478699
-0.0271274 0.13969341 -0.23477741
-0.026927 0.13971201 -0.23474076
-0.026713334 0.13970418 -0.23468702
-0.0265 0.13968849 -0.23465338
-0.026299888 0.13971879 -0.2346348
-0.026115 0.13973075 -0.23460449
-0.020288 0.139608 -0.234611
-0.020001 0.139668 -0.23471101
-0.019890402 0.13970439 -0.23474741
-0.019721 0.139798 -0.23477601
-0.0276515 0.1399 -0.234796
-0.027381001 0.139918 -0.23479366
-0.027109502 0.139907 -0.23476882
-0.026919 0.139902 -0.23474665
-0.026705556 0.13989411 -0.23469554
-0.026492253 0.13987876 -0.23465814
-0.026292333 0.139908 -0.23464201
-0.026086001 0.1399 -0.23461799
-0.019904334 0.13989399 -0.23467165
-0.01967725 0.13991125 -0.23475176
-0.019577 0.13994201 -0.234798
-0.027101751 0.1400965 -0.23477949
-0.02691175 0.14009249 -0.2347455
-0.026686376 0.14011063 -0.234708
-0.026482418 0.14010607 -0.23467666
-0.026284112 0.14009778 -0.23465556
-0.0260708 0.14009039 -0.2346116
-0.025851499 0.140117 -0.23460901
-0.025513001 0.14013501 -0.23460899
-0.01982975 0.14010099 -0.23463526
-0.019672833 0.14010699 -0.23468615
-0.019514333 0.14010999 -0.23475923
-0.027094001 0.140287 -0.23477884
-0.026904499 0.14028317 -0.23474182
-0.026700715 0.14029615 -0.23471813
-0.026474498 0.14029551 -0.23468749
-0.026276499 0.14028732 -0.23466301
-0.026087714 0.14032885 -0.23463656
-0.025844 0.14030667 -0.23460765
-0.02553175 0.1403095 -0.234603
-0.019667501 0.1403015 -0.2346345
-0.019479001 0.14030719 -0.234726
-0.019365501 0.14035201 -0.23476
-0.0270845 0.140514 -0.23479399
-0.026893834 0.1405095 -0.23477668
-0.026690623 0.14049274 -0.23472251
-0.026501501 0.14049441 -0.23470262
-0.026335334 0.14047955 -0.23467878
-0.026105335 0.14050934 -0.23465216
-0.025836501 0.140495 -0.2346215
-0.025523333 0.14051718 -0.23461318
-0.019624 0.140415 -0.234614
-0.0194949 0.14049689 -0.23465481
-0.019332249 0.14050424 -0.23473948
-0.027059667 0.14071566 -0.23479564
-0.0268865 0.14069951 -0.23477775
-0.026711749 0.14069499 -0.23473451
-0.026501911 0.14070855 -0.23470844
-0.026326222 0.14070767 -0.23467967
-0.026097445 0.1406991 -0.23465866
-0.025829 0.14068633 -0.23462133
-0.0255155 0.14070725 -0.23461825
-0.019459 0.14069377 -0.23462465
-0.019289779 0.14069501 -0.23471045
-0.027060602 0.1408796 -0.23478839
-0.026878834 0.14089051 -0.23477967
-0.026704336 0.14088583 -0.2347355
-0.026512556 0.14089566 -0.234698
-0.026318833 0.14089799 -0.23468733
-0.026090167 0.14088933 -0.23465967
-0.02586475 0.1409355 -0.23462901
-0.025645999 0.140983 -0.234605
-0.025496716 0.14090757 -0.23461629
-0.019242 0.14090841 -0.23468642
-0.019119332 0.14091267 -0.23475933
-0.0273355 0.1411 -0.234787
-0.027051801 0.14110859 -0.23478501
-0.026870333 0.14111917 -0.23477417
-0.026695499 0.14111416 -0.23473217
-0.026494501 0.14109717 -0.23471017
-0.026311887 0.1410889 -0.23467657
-0.0261255 0.14108151 -0.23467065
-0.025903501 0.14110801 -0.23464251
-0.025477 0.141049 -0.23460799
-0.0192455 0.14107901 -0.23464601
-0.0190675 0.14110275 -0.2347385
-0.027325001 0.141366 -0.234798
-0.027064601 0.1412926 -0.23478679
-0.0268635 0.14131099 -0.2347625
-0.026688 0.14130399 -0.23473425
-0.026478112 0.14129944 -0.23470968
-0.026302446 0.14131734 -0.23467833
-0.026116999 0.14131068 -0.23466201
-0.025896331 0.14129917 -0.23463166
-0.019106777 0.14130045 -0.23467435
-0.027096666 0.14150865 -0.23477931
-0.026903 0.14150187 -0.23476468
-0.026681 0.141496 -0.234725
-0.0264949 0.14147869 -0.23471501
-0.026310429 0.14151357 -0.23468041
-0.0261095 0.14150125 -0.23465951
-0.025981501 0.14149499 -0.234631
-0.019056499 0.14148974 -0.23465452
-0.027310001 0.141747 -0.234787
-0.027089 0.141698 -0.23479
-0.026895165 0.141692 -0.23476565
-0.0266644 0.14170799 -0.23471639
-0.026496779 0.14170766 -0.23471123
-0.026314167 0.14169915 -0.23468558
-0.026101999 0.14169116 -0.23466152
-0.025973335 0.14168601 -0.23463599
-0.025790999 0.14167601 -0.23460801
-0.019005001 0.14167999 -0.23463298
-0.027305499 0.14186099 -0.23479
-0.027081 0.14188866 -0.234798
-0.026913714 0.141872 -0.23476757
-0.026709426 0.14190085 -0.23472588
-0.026489332 0.14189833 -0.23471217
-0.026306875 0.14189 -0.23468252
-0.026093001 0.141919 -0.2346705
-0.025963666 0.14191233 -0.23465466
-0.02573825 0.141922 -0.2346115
-0.025493499 0.141929 -0.23460799
-0.018730333 0.14188968 -0.23477466
-0.027296999 0.14208999 -0.23478201
-0.027072333 0.14211799 -0.23479067
-0.026923999 0.142112 -0.23476948
-0.026701778 0.14210767 -0.23472278
-0.026482332 0.14208944 -0.23469833
-0.026299832 0.14208108 -0.23467098
-0.026086001 0.1421105 -0.2346555
-0.0259565 0.142104 -0.23464799
-0.025717666 0.14207999 -0.23461498
-0.025486 0.14211899 -0.234604
-0.018722666 0.14211966 -0.23474632
-0.027555 0.14237501 -0.23479199
-0.027289666 0.142281 -0.23478466
-0.027065501 0.14230901 -0.23478299
-0.0269165 0.1423025 -0.23476601
-0.026694169 0.14229867 -0.23472099
-0.026473667 0.1423181 -0.23469645
-0.026299637 0.142303 -0.23466435
-0.026095999 0.142313 -0.23465458
-0.025949666 0.14229535 -0.23463368
-0.025766999 0.1422855 -0.234604
-0.025461333 0.14232066 -0.23460768
-0.018718001 0.14231351 -0.23469
-0.0275505 0.14249 -0.23478949
-0.027281001 0.14251 -0.23477499
-0.027058333 0.14249967 -0.234773
-0.026909335 0.14249367 -0.23476084
-0.026711855 0.1424797 -0.2347347
-0.026498625 0.142511 -0.23470812
-0.026313335 0.14250167 -0.23466866
-0.026112333 0.14249334 -0.23465617
-0.025940999 0.14252333 -0.23462534
-0.025757998 0.14251333 -0.23460734
-0.025447501 0.14245975 -0.23460874
-0.018712999 0.14250766 -0.23463333
-0.027709 0.14273149 -0.23478901
-0.027490001 0.142637 -0.234795
-0.0272735 0.142701 -0.234778
-0.027051 0.14269051 -0.23477501
-0.026901165 0.14272167 -0.23475118
-0.0267215 0.14272016 -0.23472635
-0.026492001 0.14270183 -0.23469526
-0.026306111 0.14269143 -0.23466676
-0.026105557 0.14268412 -0.2346409
-0.0259335 0.14271399 -0.23463
-0.025750499 0.142704 -0.234616
-0.018463001 0.14279 -0.23478501
-0.0278075 0.142884 -0.23479301
-0.027701333 0.14292133 -0.23478933
-0.027534001 0.14290801 -0.23479468
-0.027265333 0.14288899 -0.23479301
-0.027044667 0.14288168 -0.23475568
-0.0268935 0.14291249 -0.23475049
-0.0267145 0.142911 -0.2347225
-0.026497142 0.14288773 -0.23469315
-0.026315546 0.14292747 -0.23466629
-0.026096111 0.14291167 -0.23465353
-0.025926 0.14290333 -0.23463
-0.025744502 0.14285651 -0.2346105
-0.025425801 0.14289279 -0.2346082
-0.018459499 0.14290601 -0.23475499
-0.018371001 0.14289901 -0.23478851
-0.027695 0.14307401 -0.234798
-0.027489999 0.143108 -0.23479401
-0.027257333 0.14311899 -0.23477733
-0.027035 0.14310867 -0.23476134
-0.026887001 0.1431035 -0.23473318
-0.0267075 0.14310233 -0.23471133
-0.026505999 0.14308457 -0.23468757
-0.026315501 0.14311099 -0.2346655
-0.026089167 0.14310266 -0.23464517
-0.025919 0.143095 -0.234621
-0.025447333 0.14310767 -0.23461235
-0.0253985 0.143066 -0.23460799
-0.018455001 0.14310066 -0.23468333
-0.018326713 0.14309929 -0.23475628
-0.027685 0.143341 -0.23479
-0.0274764 0.1432856 -0.23478422
-0.027250499 0.14331 -0.23476151
-0.027028501 0.1433005 -0.2347475
-0.026879501 0.14329425 -0.23472776
-0.0267005 0.14329299 -0.2347025
-0.026497222 0.14331323 -0.2346801
-0.026308417 0.1433019 -0.23465826
-0.026124666 0.14329468 -0.23465
-0.025953999 0.14328717 -0.234625
-0.025442 0.143261 -0.23460101
-0.018451 0.14329499 -0.234611
-0.018300375 0.14330788 -0.23468788
-0.018193999 0.14338499 -0.234791
-0.027679499 0.143493 -0.23477601
-0.027468601 0.14349881 -0.234773
-0.027282499 0.14352176 -0.23476149
-0.027021 0.14349 -0.23475499
-0.026871836 0.14348416 -0.23473567
-0.026693167 0.14348216 -0.23469865
-0.026489833 0.14350332 -0.23467468
-0.02630125 0.14349225 -0.23464838
-0.026108801 0.1435082 -0.2346404
-0.025967002 0.143498 -0.23461974
-0.018447001 0.143409 -0.234602
-0.018310284 0.14349744 -0.23462386
-0.018191501 0.14350149 -0.234742
-0.027868001 0.14361 -0.234798
-0.027671665 0.143683 -0.23479168
-0.0275035 0.14370799 -0.23478
-0.027315252 0.14369525 -0.23476726
-0.027011335 0.14371866 -0.23476434
-0.026862666 0.14371151 -0.23474234
-0.026684001 0.14371149 -0.23470485
-0.026482778 0.14369434 -0.23467422
-0.026294 0.14368258 -0.23464765
-0.026117599 0.14369039 -0.2346406
-0.025980499 0.14370701 -0.234611
-0.018255748 0.14368001 -0.23462975
-0.018153999 0.14370801 -0.2347146
-0.027855501 0.143953 -0.234777
-0.027663333 0.14391233 -0.23477633
-0.027496999 0.14389832 -0.23476899
-0.027307667 0.14388517 -0.234773
-0.027004499 0.14390799 -0.234752
-0.026856 0.143903 -0.23472774
-0.0266765 0.14390126 -0.2347005
-0.026465751 0.14391251 -0.2346656
-0.026284918 0.14391093 -0.23464791
-0.026101833 0.14390349 -0.23463385
-0.025931001 0.14389649 -0.234603
-0.018087624 0.1439095 -0.23472212
-0.027851 0.144067 -0.23478299
-0.027708249 0.14410275 -0.234781
-0.0274905 0.14409 -0.234753
-0.027299667 0.14411466 -0.23474884
-0.027000999 0.144024 -0.234734
-0.026914665 0.14409566 -0.23473351
-0.026701249 0.14410125 -0.23471425
-0.026508998 0.1440938 -0.23467021
-0.026313774 0.14409889 -0.23464642
-0.026114602 0.14410201 -0.23463801
-0.025914002 0.1441088 -0.23460941
-0.0180762 0.14408721 -0.234694
-0.027840499 0.144333 -0.234786
-0.027700499 0.14429301 -0.23478265
-0.027482333 0.14427967 -0.23475766
-0.027292749 0.14430475 -0.234743
-0.026939999 0.1442875 -0.2347355
-0.026703779 0.14432022 -0.23470934
-0.026493667 0.1443065 -0.23466401
-0.026320668 0.14429432 -0.23463976
-0.026121555 0.14428554 -0.2346341
-0.025923198 0.14429221 -0.2346164
-0.018026249 0.14428125 -0.23465624
-0.017866999 0.1443018 -0.23473978
-0.027833 0.14452367 -0.23478299
-0.027692499 0.14452201 -0.23476715
-0.027474001 0.144509 -0.23474966
-0.027284667 0.14449467 -0.23475499
-0.026932999 0.14447834 -0.23472883
-0.026696501 0.14451034 -0.23470885
-0.026485749 0.1444965 -0.234669
-0.026305456 0.14451537 -0.23464164
-0.026112888 0.14451379 -0.2346341
-0.025910001 0.14442849 -0.234613
-0.017843399 0.1445026 -0.23464561
-0.017689001 0.14452949 -0.23472551
-0.027825501 0.144715 -0.234782
-0.02768575 0.14471251 -0.234751
-0.0274665 0.14469799 -0.23474699
-0.027304666 0.14467333 -0.23474967
-0.027197 0.144759 -0.234694
-0.026924333 0.14470701 -0.23472548
-0.026700499 0.14469175 -0.23470901
-0.026495859 0.14469957 -0.23466744
-0.026312444 0.14470056 -0.234644
-0.026105501 0.14470465 -0.23462801
-0.025913 0.14470865 -0.23461699
-0.017649667 0.14468999 -0.23466234
-0.0280775 0.14495599 -0.23479101
-0.027819334 0.14490533 -0.23475833
-0.027678667 0.14490367 -0.23474349
-0.027459666 0.14489 -0.23473768
-0.027349666 0.14488 -0.23475599
-0.027191 0.14491101 -0.23470101
-0.026918251 0.144898 -0.234697
-0.026727499 0.14489326 -0.23467976
-0.02650125 0.14490888 -0.23465963
-0.026296414 0.144903 -0.23464626
-0.026098445 0.14489478 -0.23462398
-0.025908001 0.14483534 -0.23461168
-0.017616 0.1448545 -0.234626
-0.017437499 0.14491451 -0.234761
-0.028072499 0.145109 -0.23476899
-0.0278125 0.14509651 -0.23474
-0.027671751 0.1450945 -0.234731
-0.027451331 0.14511834 -0.234726
-0.027342001 0.14510934 -0.23473234
-0.027182668 0.14510067 -0.23471667
-0.026910834 0.14508884 -0.23469317
-0.02672 0.145083 -0.23468465
-0.026516428 0.14509599 -0.23465072
-0.0262895 0.14509374 -0.23464036
-0.026080286 0.14510156 -0.234614
-0.017433332 0.14510866 -0.23468934
-0.017294001 0.14513549 -0.23477851
-0.0284655 0.14528599 -0.2348
-0.028341999 0.145316 -0.234797
-0.028065667 0.14529933 -0.23475468
-0.027805666 0.14528701 -0.23472799
-0.027664168 0.14528517 -0.23473084
-0.027445499 0.145311 -0.2346915
-0.0273355 0.145301 -0.234712
-0.027177 0.145292 -0.23468199
-0.026901664 0.14531684 -0.23469917
-0.026711332 0.14531232 -0.23467582
-0.026496777 0.14530167 -0.23464555
-0.026282499 0.14528409 -0.23462735
-0.026092874 0.1452855 -0.23461349
-0.017428 0.1453 -0.23464701
-0.017259857 0.14530315 -0.23472898
-0.017166 0.145394 -0.23476499
-0.028623 0.14548101 -0.234797
-0.028493501 0.14555299 -0.23479301
-0.028059501 0.14548999 -0.23473701
-0.027703 0.14551412 -0.23471856
-0.027438 0.14550035 -0.23469633
-0.027327999 0.14549166 -0.23470502
-0.027169332 0.14548267 -0.23468499
-0.026893999 0.14550699 -0.23469949
-0.026704 0.14550251 -0.23467249
-0.026477573 0.14550686 -0.23464727
-0.026280455 0.14550637 -0.23462881
-0.026097445 0.14550465 -0.23461244
-0.025998 0.145577 -0.23460899
-0.017423499 0.1454545 -0.234613
-0.017267751 0.14549036 -0.23467387
-0.0171615 0.14550799 -0.23476601
-0.028488332 0.14570583 -0.23478268
-0.028327666 0.145696 -0.23479033
-0.028051334 0.14568067 -0.23475333
-0.0277455 0.14570549 -0.23471551
-0.0275135 0.145697 -0.23469874
-0.027319999 0.14571866 -0.23470001
-0.027159998 0.14570999 -0.23469067
-0.026887333 0.14569734 -0.23468584
-0.026696498 0.14569233 -0.23467217
-0.026491124 0.14569236 -0.2346455
-0.026290335 0.14570402 -0.23462917
-0.026094332 0.14568199 -0.23461168
-0.025993999 0.14569101 -0.23460549
-0.0172495 0.1457005 -0.23463623
-0.017136 0.14571801 -0.234743
-0.0284805 0.14589551 -0.234788
-0.02832 0.145886 -0.234789
-0.028042333 0.145908 -0.23474599
-0.027737834 0.14589532 -0.23471801
-0.0275065 0.14588766 -0.23469366
-0.0273115 0.14590949 -0.23471001
-0.027154 0.1459015 -0.23466501
-0.02688 0.14588749 -0.234688
-0.026687667 0.14592066 -0.234671
-0.026512666 0.14591402 -0.23463632
-0.026311254 0.14589608 -0.23462725
-0.026066501 0.14584699 -0.234604
-0.025988501 0.145844 -0.234603
-0.017247999 0.14590074 -0.23463224
-0.017129401 0.14589879 -0.23471579
-0.028602 0.14601301 -0.234799
-0.028472833 0.14608485 -0.23479383
-0.028313002 0.14607666 -0.234782
-0.028035499 0.146098 -0.23473799
-0.027720999 0.1461086 -0.2347126
-0.0274975 0.14611501 -0.23469301
-0.027305001 0.1461 -0.23469067
-0.027146667 0.146091 -0.23466134
-0.026873665 0.14607851 -0.2346615
-0.026680499 0.14611024 -0.23466399
-0.0265055 0.14610401 -0.23463474
-0.0263019 0.14612341 -0.23462009
-0.026053 0.14618701 -0.234602
-0.017260998 0.14609267 -0.23468782
-0.017141124 0.146072 -0.23473349
-0.028464502 0.14631434 -0.23478483
-0.028304001 0.14630499 -0.23477733
-0.028027333 0.14628799 -0.23475099
-0.0277318 0.1462906 -0.23471399
