-0.0376517 0.014446 0.999186 0.0163771
-0.0371404 0.014474 0.999205 0.0149135
-0.0362959 0.0143283 0.999238 0.0138595
-0.036911 0.014944 0.999207 0.0149527
-0.0363075 0.0157893 0.999216 0.0160495
-0.0362347 0.0163531 0.999209 0.0162627
-0.03672 0.0169711 0.999182 0.0163088
-0.0377388 0.0182362 0.999121 0.0201729
-0.0381772 0.0193951 0.999083 0.0214282
-0.0374898 0.0200389 0.999096 0.0240309
-0.0360264 0.0199913 0.999151 0.0187567
-0.0361156 0.0213383 0.99912 0.0195275
-0.0357448 0.0224767 0.999108 0.0192578
-0.0357077 0.023902 0.999076 0.0217729
-0.034667 0.0242807 0.999104 0.0185368
-0.0357118 0.0262777 0.999017 0.0215277
-0.0355462 0.0259955 0.99903 0.0203956
-0.0346706 0.02588 0.999064 0.0188447
-0.0356571 0.0275458 0.998984 0.0204769
-0.0355713 0.0295707 0.99893 0.0196427
-0.0356334 0.031009 0.998884 0.019148
-0.036139 0.0332523 0.998793 0.020188
-0.0345927 0.0345273 0.998805 0.019822
-0.0352774 0.0356565 0.998741 0.0181502
-0.0347577 0.0382825 0.998662 0.0192372
-0.03482 0.0403065 0.99858 0.0171482
-0.0498289 -0.232976 0.971205 0.0139945
-0.0501078 -0.225697 0.972908 0.0163476
-0.0492243 -0.213402 0.975724 0.0128416
-0.048271 -0.20728 0.97709 0.0141422
-0.0471604 -0.195619 0.979545 0.00878396
-0.0470432 -0.187892 0.981062 0.00667898
-0.0470823 -0.182022 0.982167 0.00788132
-0.0469591 -0.178378 0.982841 0.0108446
-0.0452593 -0.171735 0.984103 0.0083464
-0.045513 -0.167972 0.98474 0.00959117
-0.0446583 -0.162767 0.985653 0.00862181
-0.0458018 -0.15961 0.986117 0.0108771
-0.0453021 -0.154937 0.986885 0.0105
-0.0454238 -0.15222 0.987302 0.013318
-0.0466042 -0.148619 0.987796 0.0141781
-0.0465842 -0.144722 0.988375 0.0147538
-0.0473963 -0.142757 0.988622 0.0189733
-0.0472323 -0.138913 0.989178 0.01881
-0.0466033 -0.133553 0.989945 0.0156925
-0.0464652 -0.130695 0.990333 0.0168681
-0.0462573 -0.125493 0.991015 0.013553
-0.0470082 -0.123036 0.991288 0.0157659
-0.044658 -0.118126 0.991994 0.0102748
-0.0433742 -0.11544 0.992367 0.010872
-0.0438624 -0.112689 0.992662 0.011321
-0.0433004 -0.108872 0.993112 0.00751216
-0.0429505 -0.106332 0.993403 0.00709032
-0.0423899 -0.103113 0.993766 0.00488223
-0.0433074 -0.1001 0.994034 0.00308142
-0.0434523 -0.0983661 0.994201 0.00412502
-0.042919 -0.0959467 0.994461 0.00313537
-0.0418895 -0.0932768 0.994759 0.00066874
-0.0416936 -0.0910033 0.994977 0.00148433
-0.0409602 -0.0885746 0.995227 0
-0.0416368 -0.0868314 0.995353 0
-0.0405018 -0.0849018 0.995566 0
-0.0398086 -0.0833799 0.995722 0
-0.0390192 -0.0816845 0.995894 0
-0.0390677 -0.0800854 0.996022 0
-0.0391922 -0.0779382 0.996188 0
-0.0388664 -0.0763731 0.996321 0.00131744
-0.0389764 -0.0747023 0.996444 0.000900814
-0.0400013 -0.0730361 0.996527 0.00261268
-0.040083 -0.0709984 0.996671 0
-0.0414186 -0.069541 0.996719 0.00112533
-0.0412451 -0.0674 0.996873 0
-0.0386675 -0.0658179 0.997082 0
-0.0375483 -0.0641302 0.997235 0
-0.0380164 -0.062619 0.997313 0
-0.0384232 -0.061282 0.997381 0
-0.0400861 -0.0594918 0.997424 0
-0.0391616 -0.0578935 0.997554 0
-0.0405967 -0.0559934 0.997605 0
-0.0414391 -0.0543413 0.997662 0
-0.0396293 -0.0523898 0.99784 0
-0.0397283 -0.0498297 0.997967 0
-0.0427366 -0.0480984 0.997928 0.00351382
-0.0399665 -0.0459397 0.998144 0.00124122
-0.0420262 -0.0437803 0.998157 0.00243871
-0.0399164 -0.041698 0.998333 0.00199345
-0.0417778 -0.0395083 0.998345 0.00692412
-0.0393965 -0.0376444 0.998514 0.0053686
-0.0397738 -0.0342882 0.99862 0.00155014
-0.0392077 -0.0312334 0.998743 0
-0.0398334 -0.0286164 0.998796 0
-0.0392743 -0.0266004 0.998874 0
-0.0382298 -0.023179 0.999 0
-0.0403153 -0.0194855 0.998997 0.000533625
-0.042198 -0.0166226 0.998971 0.00284988
-0.0435126 -0.01398 0.998955 0.00238062
-0.0439994 -0.0116962 0.998963 0.00242645
-0.0443439 -0.00926385 0.998973 0.00644229
-0.0458669 -0.00715429 0.998922 0.00942667
-0.0467988 -0.00527086 0.99889 0.0045711
-0.0472652 -0.00332503 0.998877 0
-0.047075 -0.00159101 0.99889 0
-0.0438786 -0.000204148 0.999037 0
-0.0438292 0.00127128 0.999038 0
-0.0442095 0.00228847 0.99902 0.00127265
-0.0464725 0.00335289 0.998914 0.00142419
-0.0470103 0.00422926 0.998885 0.00408662
-0.0455448 0.00489353 0.99895 0.00152865
-0.0450597 0.00554889 0.998969 0.00119888
-0.0453204 0.00611569 0.998954 0.00300516
-0.0475035 0.0067792 0.998848 0.00881689
-0.0456211 0.00684309 0.998935 0.00515804
-0.0440589 0.00706631 0.999004 0.00151588
-0.0430877 0.00711634 0.999046 0.00061786
-0.042627 0.00710121 0.999066 0
-0.0426251 0.00700285 0.999067 0
-0.0459627 0.00706594 0.998918 0.0013216
-0.0458485 0.00722894 0.998922 0.00469496
-0.0466817 0.00727537 0.998883 0.00725043
-0.0482316 0.00715232 0.998811 0.00564248
-0.048096 0.00709874 0.998818 0.00903782
-0.0510173 0.00735923 0.998671 0.0153429
-0.0502804 0.00741807 0.998708 0.0177568
-0.0478259 0.00721744 0.99883 0.0170351
-0.0477903 0.00716212 0.998832 0.0186431
-0.0489647 0.00681484 0.998777 0.0145823
-0.0502521 0.00665845 0.998714 0.0145498
-0.0456144 0.00630738 0.998939 0.00587725
-0.0466925 0.0062807 0.99889 0.00540335
-0.0439305 0.00605737 0.999016 0.000979594
-0.0445486 0.00613891 0.998988 0
-0.0450184 0.00620235 0.998967 0
-0.0447505 0.00598542 0.99898 0.000260448
-0.0463422 0.00586407 0.998908 0.00144363
-0.0460381 0.00589607 0.998922 0.000393314
-0.046045 0.00584921 0.998922 0
-0.0474985 0.00598854 0.998853 0.000342111
-0.048548 0.00601082 0.998803 0.00864448
-0.0477766 0.00568052 0.998842 0.00938753
-0.0476705 0.00551074 0.998848 0.00560117
-0.0450538 0.00522014 0.998971 0.00025779
-0.0432162 0.00483361 0.999054 0
-0.0423892 0.00467198 0.99909 0
-0.0420668 0.00448874 0.999105 0
-0.0428032 0.00432937 0.999074 0
-0.0430851 0.00410662 0.999063 0
-0.0427659 0.00394826 0.999077 0
-0.0418696 0.00359506 0.999117 0
-0.0408829 0.00356222 0.999158 0
-0.0389243 0.00373159 0.999235 0
-0.0387869 0.00330226 0.999242 0
-0.0400989 0.00321826 0.999191 0
-0.0415609 0.00349262 0.99913 0
-0.0427906 0.00361206 0.999078 0.00319711
-0.0428342 0.0037339 0.999075 0.00818457
-0.0431163 0.00349601 0.999064 0.00810974
-0.0414888 0.00328952 0.999134 0.00509437
-0.0422515 0.00337424 0.999101 0.00691041
-0.0438859 0.00302432 0.999032 0.00964379
-0.0447697 0.00271512 0.998994 0.00964671
-0.0462827 0.00221343 0.998926 0.00895028
-0.0452298 0.00194058 0.998975 0.00889654
-0.0434054 0.00122869 0.999057 0.00322422
-0.0427113 0.00075051 0.999087 0.00626692
-0.0416686 0.000238905 0.999131 0.00475265
-0.0427008 -0.000437847 0.999088 0.0014772
-0.0435514 -0.00113901 0.999051 0
-0.0424312 -0.00200061 0.999097 0
-0.04174 -0.00285906 0.999124 0
-0.0403468 -0.00354394 0.999179 0
-0.0390087 -0.00439124 0.999229 0
-0.0390775 -0.00524556 0.999222 0
-0.0390876 -0.00605165 0.999217 0
-0.0389935 -0.00689247 0.999216 0
-0.0407255 -0.00762425 0.999141 0
-0.0412316 -0.00836576 0.999115 0
-0.0410883 -0.0088498 0.999116 0.00107069
-0.0419037 -0.00965484 0.999075 0
-0.0427602 -0.0101451 0.999034 0.00203146
-0.0411733 -0.0108636 0.999093 0.00452544
-0.0395692 -0.0115018 0.999151 0.00482399
-0.0360194 -0.012039 0.999279 0.00440651
-0.0361493 -0.0122031 0.999272 0.00812119
-0.0339137 -0.0126131 0.999345 0
-0.0329614 -0.0127489 0.999375 0
-0.0303586 -0.0128955 0.999456 0
-0.0300506 -0.0127672 0.999467 0
-0.0301475 -0.0121283 0.999472 0
-0.0307253 -0.0115955 0.999461 0
-0.0272752 -0.0104787 0.999573 0
-0.0296828 -0.00971914 0.999512 0.00232825
-0.0320515 -0.0088931 0.999447 0.00484186
-0.0326835 -0.00783636 0.999435 0.00736502
-0.032009 -0.00708877 0.999462 0.00401364
-0.0297135 -0.00613249 0.99954 0.000721249
-0.028842 -0.00513419 0.999571 0.002338
-0.0296145 -0.00396819 0.999554 0.00384733
-0.0283657 -0.00263078 0.999594 0.00703856
-0.0288695 -0.00167588 0.999582 0.00934754
-0.0297381 -0.000436005 0.999558 0.0100465
-0.0290585 0.00032651 0.999578 0.00739533
-0.0297762 0.000993595 0.999556 0.00603788
-0.0305762 0.00181887 0.999531 0.00666205
-0.0306515 0.00245245 0.999527 0.0045029
-0.0306853 0.00337409 0.999523 0.00432393
-0.0296652 0.00353127 0.999554 0
-0.0303551 0.00414481 0.999531 0.00181774
-0.0317556 0.00512167 0.999483 0.00570127
-0.0302519 0.00545134 0.999528 0.00363947
-0.0291957 0.00522656 0.99956 0.000464311
-0.0302826 0.00637157 0.999521 0.00353244
-0.0305341 0.00630893 0.999514 0.00230255
-0.0319865 0.00648953 0.999467 0.00337985
-0.0312702 0.00684995 0.999487 0.00197092
-0.030782 0.00704893 0.999501 0.0025035
-0.0316261 0.00751597 0.999471 0.0022693
-0.032635 0.00822406 0.999433 0.00255424
-0.0321971 0.00881521 0.999443 0.00349425
-0.0318258 0.00878755 0.999455 0.00278378
-0.0318885 0.00937501 0.999447 0.00200239
-0.0320575 0.00944929 0.999441 0.0030321
-0.0319713 0.00951627 0.999443 0.0014127
-0.0317578 0.00961034 0.999449 0.00247388
-0.031566 0.00963053 0.999455 0.00504602
-0.0319513 0.00949638 0.999444 0.00538926
-0.031659 0.00989547 0.99945 0.0078493
-0.0320033 0.0104776 0.999433 0.00943075
-0.0310585 0.0104144 0.999463 0.0088285
-0.0320709 0.0107256 0.999428 0.00917721
-0.0324016 0.0106661 0.999418 0.00924867
-0.0320737 0.0110419 0.999424 0.0107806
-0.0321633 0.0112629 0.999419 0.0091313
-0.0309196 0.0121463 0.999448 0.00976598
-0.0315493 0.012616 0.999423 0.00885976
-0.0304095 0.0128161 0.999455 0.00973269
-0.0295642 0.013275 0.999475 0.0106809
-0.0293716 0.0142848 0.999467 0.00952316
-0.0282873 0.0143919 0.999496 0.00777817
-0.0278857 0.0147372 0.999502 0.00580398
-0.0278721 0.0149736 0.999499 0.0043962
-0.0277562 0.0157639 0.99949 0.0033436
-0.0270127 0.0170119 0.99949 0.003122
-0.0270433 0.0174496 0.999482 0
-0.0269606 0.0183077 0.999469 0.00118185
-0.0268191 0.0203751 0.999433 0.0027258
-0.0254388 0.021132 0.999453 0.000351404
-0.0254754 0.0221053 0.999431 0
-0.0256734 0.0228489 0.999409 0.00131817
-0.0260283 0.0249658 0.999349 0.0048819
-0.0255839 0.0269047 0.999311 0.00579918
-0.02679 0.0278546 0.999253 0.00750147
-0.0265105 0.030672 0.999178 0.00827546
-0.0256983 0.0333445 0.999113 0.00809857
-0.0259722 0.0360676 0.999012 0.00988744
-0.0468158 -0.228387 0.972444 0.0153993
-0.0457698 -0.220459 0.974322 0.0173046
-0.0451564 -0.210823 0.976481 0.0157922
-0.0452861 -0.203131 0.978104 0.0161739
-0.0438925 -0.19274 0.980268 0.0135513
-0.0430426 -0.184306 0.981926 0.0110338
-0.0424547 -0.178283 0.983063 0.010872
-0.0423722 -0.17564 0.983542 0.0146988
-0.0434823 -0.172112 0.984117 0.0170753
-0.0435982 -0.167243 0.984951 0.0174307
-0.0445099 -0.1648 0.985322 0.0212557
-0.0445869 -0.161493 0.985866 0.0237454
-0.0445562 -0.155532 0.986825 0.021713
-0.0449274 -0.150674 0.987562 0.0221671
-0.0453429 -0.148029 0.987943 0.0247388
-0.0448201 -0.142768 0.988741 0.0214165
-0.0451559 -0.139183 0.989237 0.0221589
-0.0446184 -0.13501 0.989839 0.02031
-0.043584 -0.130617 0.990475 0.0179576
-0.0442805 -0.12606 0.991034 0.0159853
-0.04427 -0.121502 0.991603 0.0117728
-0.0433033 -0.11769 0.992106 0.0106393
-0.0425402 -0.115064 0.992447 0.0102734
-0.0413439 -0.110791 0.992983 0.00573546
-0.0418939 -0.107442 0.993328 0.0037541
-0.0424679 -0.105314 0.993532 0.00487158
-0.0420699 -0.102938 0.993798 0.00517314
-0.0409611 -0.100461 0.994097 0.00425493
-0.0408294 -0.0989972 0.99425 0.00759921
-0.041628 -0.0971195 0.994402 0.00956667
-0.0406857 -0.093739 0.994765 0.00522339
-0.0400819 -0.0918932 0.994962 0.00654773
-0.0399106 -0.0893439 0.995201 0.00388406
-0.0392204 -0.0873657 0.995404 0.00391726
-0.039331 -0.0850301 0.995602 0.00245339
-0.0392825 -0.0829767 0.995777 8.18108e-05
-0.0390375 -0.0812131 0.995932 0
-0.0383496 -0.0793007 0.996113 0
-0.0372993 -0.0778724 0.996265 0
-0.0369395 -0.0762106 0.996407 0
-0.0371993 -0.0745012 0.996527 0
-0.0371016 -0.0730305 0.996639 0
-0.0361835 -0.0714575 0.996787 0
-0.0355522 -0.069966 0.996916 0
-0.0358602 -0.0680899 0.997034 0
-0.0363674 -0.0664987 0.997124 0
-0.0359008 -0.0651046 0.997232 0
-0.0366856 -0.0631919 0.997327 0
-0.0379498 -0.0612465 0.997401 0.000369871
-0.0389471 -0.059927 0.997443 0.0017079
-0.0377221 -0.0579023 0.997609 0
-0.0379204 -0.0564101 0.997687 0
-0.0371831 -0.0543101 0.997832 0
-0.0373675 -0.0527435 0.997909 0
-0.0372247 -0.0513105 0.997989 0.00180189
-0.0382639 -0.0494124 0.998045 0.0039574
-0.0387297 -0.0477525 0.998108 0.00613044
-0.0365612 -0.0449668 0.998319 0
-0.0376684 -0.0432753 0.998353 0.00300936
-0.0361784 -0.0408845 0.998509 0.00063871
-0.0363137 -0.0383886 0.998603 0.004421
-0.0358136 -0.0354859 0.998728 0.00178699
-0.0356514 -0.0332809 0.99881 9.8706e-05
-0.0377176 -0.0305276 0.998822 0
-0.0362198 -0.0272673 0.998972 0
-0.0351205 -0.0254118 0.99906 0
-0.0347697 -0.0221627 0.99915 0
-0.0359611 -0.0194081 0.999165 0
-0.0370032 -0.0159761 0.999187 0
-0.0388411 -0.0135498 0.999153 0
-0.0395935 -0.0111313 0.999154 0
-0.0449974 -0.00837708 0.998952 0.00533539
-0.0460472 -0.00629383 0.998919 0.00683961
-0.0472547 -0.00412618 0.998874 0.0138539
-0.0487948 -0.00244738 0.998806 0.0102908
-0.0466238 -0.000883496 0.998912 0.00298095
-0.043507 0.000330247 0.999053 0
-0.0408731 0.00135645 0.999163 0
-0.0409445 0.00263234 0.999158 0
-0.0406357 0.00371088 0.999167 0
-0.0442282 0.00460656 0.999011 0
-0.0469866 0.00541061 0.998881 0.00491477
-0.0474997 0.00603736 0.998853 0.00366927
-0.046421 0.00658156 0.9989 0.00413103
-0.0460415 0.00690241 0.998916 0
-0.0472112 0.00718211 0.998859 0
-0.0471227 0.00736749 0.998862 0
-0.0447731 0.00762671 0.998968 0.00296061
-0.0448509 0.00768253 0.998964 0.00540939
-0.0482359 0.00789809 0.998805 0.0112928
-0.0497766 0.0081145 0.998727 0.0147252
-0.0506055 0.00811014 0.998686 0.0166225
-0.047645 0.00804029 0.998832 0.014192
-0.0482674 0.00775346 0.998804 0.0122406
-0.0458451 0.0073118 0.998922 0.00505318
-0.0463318 0.00736864 0.998899 0.00629141
-0.0460441 0.00740951 0.998912 0.0086775
-0.0456215 0.00745706 0.998931 0.0107485
-0.0486006 0.00739178 0.998791 0.0147601
-0.0477757 0.0070368 0.998833 0.0113956
-0.0456271 0.00683124 0.998935 0.00661046
-0.0447233 0.00663032 0.998977 0.00405074
-0.0437082 0.00625911 0.999025 0
-0.0455144 0.0064545 0.998943 0.00533116
-0.0479416 0.00653405 0.998829 0.00888472
-0.0457733 0.00659126 0.99893 0.00923042
-0.0445764 0.0067388 0.998983 0.0104027
-0.0438921 0.00644276 0.999016 0.00612159
-0.0423059 0.0062182 0.999085 0.00272271
-0.0429507 0.00618846 0.999058 0.00561216
-0.0431996 0.0057832 0.99905 0.00362305
-0.0437881 0.00565512 0.999025 0.000928678
-0.0446163 0.00528508 0.99899 0
-0.0444114 0.00520921 0.999 0
-0.0442674 0.00490509 0.999008 0
-0.0431121 0.00469294 0.999059 0
-0.0449669 0.00468834 0.998977 0.00154582
-0.0452327 0.00474201 0.998965 0.0047163
-0.043803 0.00451295 0.99903 0.00226381
-0.0438521 0.00468024 0.999027 0.00272346
-0.0429706 0.00438964 0.999067 0
-0.0399664 0.00399823 0.999193 0
-0.039776 0.00377268 0.999202 0
-0.0401264 0.00383838 0.999187 0
-0.0393125 0.00360236 0.99922 0
-0.0413227 0.00376826 0.999139 0
-0.0408213 0.00390693 0.999159 0
-0.040434 0.00374536 0.999175 0
-0.0407244 0.0035105 0.999164 0
-0.0424784 0.00333605 0.999092 0
-0.0391817 0.003272 0.999227 0
-0.0404771 0.0031457 0.999176 0
-0.0420813 0.00316242 0.999109 0
-0.0405744 0.00297417 0.999172 0
-0.0404259 0.00255327 0.999179 0.000770538
-0.0406923 0.00214158 0.999169 0
-0.0416326 0.00159883 0.999132 0
-0.0416897 0.00123125 0.99913 0
-0.0407007 0.000436928 0.999171 0.00125279
-0.0408585 -0.000340294 0.999165 0
-0.0443586 -0.000733221 0.999015 0.00641284
-0.0442439 -0.0012997 0.99902 0.00872177
-0.0429054 -0.00210495 0.999077 0.00347614
-0.0413261 -0.00301326 0.999141 0
-0.0384642 -0.00397576 0.999252 0
-0.0377437 -0.00472607 0.999276 0
-0.038478 -0.00565747 0.999243 0
-0.0377413 -0.00657649 0.999266 0
-0.0362448 -0.0073168 0.999316 0
-0.0361206 -0.00788164 0.999316 0
-0.0347015 -0.00858191 0.999361 0
-0.0361096 -0.0090023 0.999307 0
-0.0357292 -0.00955041 0.999316 0
-0.0347746 -0.00973579 0.999348 0
-0.0367002 -0.00990539 0.999277 0.00556365
-0.0383927 -0.0102498 0.99921 0.00958295
-0.0346033 -0.0103694 0.999347 0.00339153
-0.0321269 -0.0105092 0.999429 0.00139446
-0.0314925 -0.0100848 0.999453 0.000864981
-0.0300215 -0.00976793 0.999501 0
-0.0294381 -0.00970148 0.99952 0
-0.0295426 -0.0090545 0.999523 0
-0.029065 -0.00831816 0.999543 0.00378049
-0.0296385 -0.00775678 0.999531 0.00665791
-0.0272946 -0.00706327 0.999602 0.00444475
-0.0251701 -0.00638188 0.999663 0.00481376
-0.0257514 -0.00559226 0.999653 0.00150337
-0.0276469 -0.00477396 0.999606 0.00765754
-0.0272363 -0.00399443 0.999621 0.00247237
-0.0229677 -0.0033929 0.99973 0
-0.0232042 -0.00298895 0.999726 0.000761788
-0.0245077 -0.00245109 0.999697 0.00305261
-0.0262364 -0.00174952 0.999654 0.00451149
-0.0244982 -0.00151402 0.999699 0.00359385
-0.0237299 -0.000570632 0.999718 0.00401223
-0.0235077 -9.96243e-06 0.999724 0.0028265
-0.025459 0.00030056 0.999676 0.00472954
-0.0255969 0.00122396 0.999672 0.00198468
-0.0244116 0.00183065 0.9997 0
-0.0246233 0.00255133 0.999694 0
-0.0243011 0.00276159 0.999701 0
-0.023185 0.00319936 0.999726 0
-0.0242964 0.00367502 0.999698 0
-0.02445 0.00406673 0.999693 0
-0.0252702 0.00448913 0.999671 0
-0.0256612 0.00488811 0.999659 0
-0.0261222 0.0051086 0.999646 0
-0.0262996 0.00585556 0.999637 0
-0.0263399 0.00649226 0.999632 0
-0.02718 0.00712445 0.999605 0
-0.0258141 0.00716506 0.999641 0.000911871
-0.0259555 0.00751885 0.999635 0.00165082
-0.0272573 0.007858 0.999598 0.00640557
-0.0278868 0.00803552 0.999579 0.00892318
-0.0284048 0.00837864 0.999561 0.0100892
-0.0281638 0.00837957 0.999568 0.00932501
-0.0282664 0.00802756 0.999568 0.0077618
-0.0274451 0.00798166 0.999591 0.00554369
-0.0271856 0.00846189 0.999595 0.00555642
-0.0270437 0.00803556 0.999602 0.00478547
-0.0280734 0.00866934 0.999568 0.00629012
-0.0285999 0.00854323 0.999554 0.00630462
-0.0286525 0.00873451 0.999551 0.00297791
-0.0295978 0.00930305 0.999519 0.00443544
-0.0276824 0.00910933 0.999575 0.0019433
-0.0276712 0.0101036 0.999566 0.00292049
-0.0271991 0.0106655 0.999573 0.00185938
-0.0278604 0.0110699 0.999551 0.00310094
-0.0273494 0.0114843 0.99956 0.00298288
-0.0260215 0.0113327 0.999597 0
-0.0270199 0.0121489 0.999561 0.00310974
-0.025564 0.0131996 0.999586 0.00186118
-0.0244257 0.01399 0.999604 0.00222861
-0.0235066 0.0150148 0.999611 0
-0.0223145 0.0150413 0.999638 0
-0.0212561 0.0165514 0.999637 0
-0.0207465 0.0171012 0.999638 0
-0.0198653 0.0179283 0.999642 0
-0.0195976 0.0196462 0.999615 0
-0.0188633 0.0215927 0.999589 0
-0.0182743 0.0229398 0.99957 0
-0.0174745 0.0239058 0.999561 0
-0.0186354 0.0251217 0.999511 0.00102414
-0.0178697 0.026671 0.999484 0.00381913
-0.0181485 0.0283655 0.999433 0.00597083
-0.0168477 0.0319221 0.999348 0.00744609
-0.0170185 0.0344782 0.99926 0.00662459
-0.0155243 0.0358862 0.999235 0.00177261
-0.0496226 -0.230367 0.971838 0.0285066
-0.0500496 -0.220563 0.974088 0.0290849
-0.049793 -0.211928 0.976016 0.0301637
-0.0491029 -0.205374 0.977451 0.0309621
-0.0474226 -0.195584 0.97954 0.0297919
-0.0488552 -0.18743 0.981062 0.0279823
-0.0494685 -0.181444 0.982156 0.0288745
-0.0490803 -0.174413 0.983449 0.0263721
-0.0488478 -0.165082 0.98507 0.0191462
-0.0489563 -0.159287 0.986018 0.0183269
-0.0485032 -0.15372 0.986923 0.0156786
-0.0489676 -0.152502 0.987089 0.0211752
-0.0473363 -0.147934 0.987864 0.019606
-0.0474098 -0.141092 0.988861 0.0140654
-0.0482808 -0.136434 0.989472 0.0120584
-0.0483276 -0.132244 0.990038 0.0102999
-0.0485245 -0.128568 0.990513 0.0102741
-0.0488242 -0.125135 0.990938 0.0107006
-0.0484062 -0.122252 0.991318 0.0122604
-0.0490095 -0.117822 0.991825 0.00973145
-0.0486632 -0.115519 0.992113 0.0121967
-0.0479939 -0.112341 0.99251 0.0104182
-0.0468757 -0.108708 0.992968 0.0075762
-0.0457449 -0.105431 0.993374 0.00486055
-0.0438123 -0.101875 0.993832 0
-0.0440177 -0.099528 0.994061 0
-0.0433504 -0.0973533 0.994305 0
-0.0424462 -0.0948765 0.994584 0
-0.0425646 -0.092735 0.994781 0
-0.0423978 -0.0905124 0.994992 0
-0.0425535 -0.0883271 0.995182 0
-0.0433956 -0.0863081 0.995323 0
-0.0429768 -0.0844352 0.995502 0
-0.0419078 -0.082908 0.995676 0
-0.0412325 -0.081128 0.99585 0
-0.0414052 -0.079403 0.995982 0
-0.0405199 -0.0775267 0.996167 0
-0.0392302 -0.0761049 0.996328 0
-0.0390229 -0.0744754 0.996459 0
-0.0403883 -0.0726019 0.996543 0
-0.0390542 -0.0711152 0.996703 0
-0.0389181 -0.0698314 0.996799 0
-0.0387212 -0.0681497 0.996923 0
-0.0386799 -0.066428 0.997041 0
-0.0374609 -0.0647392 0.997199 0
-0.0374235 -0.0629256 0.997316 0
-0.0376917 -0.0614637 0.997397 0
-0.0369924 -0.0594508 0.997546 0
-0.0346243 -0.0576308 0.997737 0
-0.0342412 -0.0565778 0.997811 0
-0.0348072 -0.0548322 0.997889 0
-0.0359627 -0.0531605 0.997938 0
-0.0357172 -0.0518087 0.998018 0
-0.034926 -0.0502209 0.998127 0
-0.0344746 -0.0484803 0.998229 0
-0.0344287 -0.0472966 0.998287 0
-0.0352148 -0.045445 0.998346 0
-0.0340738 -0.0439535 0.998452 0
-0.034293 -0.0415138 0.998549 0
-0.0323585 -0.0386799 0.998728 0
-0.0324384 -0.0368151 0.998795 0
-0.0327804 -0.0350145 0.998849 0
-0.0327616 -0.0325751 0.998932 0
-0.0337829 -0.0296472 0.998989 0
-0.0333396 -0.0265661 0.999091 0
-0.0344934 -0.0236726 0.999125 0
-0.0356253 -0.0212424 0.999139 0
-0.0369757 -0.0181039 0.999152 0.00033231
-0.0392008 -0.0149461 0.99912 0.00114847
-0.0396621 -0.012604 0.999134 0
-0.03871 -0.0101112 0.999199 0
-0.0407621 -0.00764014 0.99914 0
-0.0448833 -0.00553374 0.998977 0.00268041
-0.0444613 -0.00379941 0.999004 0
-0.0436887 -0.0019433 0.999043 9.97265e-05
-0.0428912 -0.000475395 0.99908 0
-0.0445246 0.000940061 0.999008 0.00134826
-0.0443774 0.00213533 0.999013 0.000472112
-0.0413425 0.00301345 0.999141 0
-0.0404539 0.00410556 0.999173 0
-0.0433286 0.00493936 0.999049 0
-0.0413993 0.00563141 0.999127 0
-0.0409594 0.00616808 0.999142 0
-0.0419264 0.00675301 0.999098 0
-0.041678 0.00716989 0.999105 0
-0.044598 0.00763081 0.998976 0.000229929
-0.0479978 0.00823658 0.998813 0.00916481
-0.048778 0.00837819 0.998775 0.0136174
-0.045232 0.00828998 0.998942 0.00759618
-0.0493885 0.00845977 0.998744 0.0120735
-0.0475399 0.0083513 0.998834 0.0105408
-0.0492431 0.00832219 0.998752 0.0138389
-0.0468544 0.00794676 0.99887 0.00770787
-0.0428249 0.00770519 0.999053 0.00306952
-0.0402834 0.00739831 0.999161 0
-0.0406618 0.00726996 0.999147 0
-0.0437288 0.00726955 0.999017 0.000941321
-0.0440129 0.00716824 0.999005 0.00293652
-0.0439456 0.00715603 0.999008 0.00484027
-0.0420689 0.00689662 0.999091 0.00356365
-0.0427391 0.00695649 0.999062 0.00557056
-0.0450677 0.00697139 0.99896 0.00949039
-0.0462543 0.00685186 0.998906 0.00700263
-0.0459322 0.00693115 0.998921 0.00754736
-0.045041 0.00699757 0.998961 0.00660672
-0.0440074 0.00674747 0.999008 0.00317937
-0.0455756 0.00659445 0.998939 0.00259827
-0.0469334 0.00658691 0.998876 0.00440239
-0.0439906 0.00620431 0.999013 0.000963855
-0.0428109 0.00596018 0.999065 0
-0.0453544 0.00612699 0.998952 0.00543706
-0.0458166 0.00589141 0.998932 0.00825451
-0.0477333 0.00586198 0.998843 0.00982413
-0.0462621 0.00560567 0.998914 0.00511952
-0.0426377 0.00509659 0.999078 0.000572106
-0.0415658 0.00466064 0.999125 0
-0.0396096 0.00455733 0.999205 0.000922573
-0.0409461 0.00430685 0.999152 0
-0.040845 0.00414981 0.999157 0
-0.0386577 0.00381316 0.999245 0
-0.0399108 0.00407446 0.999195 0
-0.0400094 0.00404861 0.999191 0
-0.0421582 0.00411101 0.999103 0
-0.0422891 0.00433765 0.999096 0
-0.043482 0.00435399 0.999045 0
-0.0434402 0.0042357 0.999047 0
-0.0419812 0.00400439 0.99911 0
-0.0407485 0.00393551 0.999162 0
-0.0411806 0.00383073 0.999144 0
-0.0380753 0.00378747 0.999268 0
-0.0381538 0.00346234 0.999266 0
-0.0400543 0.00338987 0.999192 0
-0.0413527 0.00334874 0.999139 0
-0.0397078 0.00315009 0.999206 0
-0.0360275 0.00264763 0.999347 0
-0.0388792 0.00225395 0.999241 0
-0.0386718 0.00166948 0.999251 0
-0.0400613 0.00107678 0.999197 0
-0.0404701 0.00037725 0.999181 0
-0.0375711 -0.000276269 0.999294 0
-0.0359961 -0.000891751 0.999352 0
-0.0354375 -0.00192654 0.99937 0
-0.038553 -0.00259755 0.999253 0
-0.0368592 -0.00321568 0.999315 0
-0.035343 -0.00406653 0.999367 0
-0.0357773 -0.00463648 0.999349 0
-0.0361103 -0.00505886 0.999335 0
-0.0377879 -0.00562122 0.99927 0
-0.0372919 -0.0059571 0.999287 0
-0.0344126 -0.00623191 0.999388 0
-0.0349426 -0.00662894 0.999367 0
-0.0334903 -0.00695685 0.999415 0
-0.0365879 -0.00705483 0.999306 0
-0.0368212 -0.00761532 0.999293 0
-0.0349444 -0.0077866 0.999359 0
-0.0342291 -0.0079091 0.999383 0
-0.0305388 -0.00821554 0.9995 0
-0.0297112 -0.00848861 0.999523 0
-0.0275872 -0.00812474 0.999586 0
-0.0284635 -0.00718704 0.999569 0
-0.0276505 -0.00641976 0.999597 0
-0.0282059 -0.00537538 0.999588 0.00188895
-0.031221 -0.00509998 0.9995 0.00660503
-0.0280578 -0.0040245 0.999598 0.00277616
-0.0267507 -0.00361567 0.999636 0
-0.0236676 -0.00301115 0.999715 0
-0.0241436 -0.00287152 0.999704 0
-0.0238059 -0.00282357 0.999713 0
-0.0245976 -0.00247222 0.999694 0.00367192
-0.0253852 -0.00225185 0.999675 0.00592496
-0.0235878 -0.00251068 0.999719 0.00344953
-0.0225987 -0.00243283 0.999742 0.00376717
-0.0240156 -0.00204066 0.999709 0.00520659
-0.0238118 -0.00196381 0.999715 0
-0.0238069 -0.0013599 0.999716 0
-0.0231189 -0.000728487 0.999732 0.00159211
-0.0218478 -0.000517988 0.999761 0
-0.0220095 -0.000268082 0.999758 0
-0.02348 0.00023048 0.999724 0.00217057
-0.0240839 0.000694227 0.99971 0.000991245
-0.0238853 0.00118386 0.999714 0.00315372
-0.0232388 0.00144357 0.999729 0
-0.023066 0.00196934 0.999732 0
-0.0246398 0.00249916 0.999693 0
-0.0244128 0.00289179 0.999698 0.000167842
-0.0247275 0.00375244 0.999687 0
-0.0248928 0.00403805 0.999682 0
-0.0246528 0.0041082 0.999688 0
-0.0251356 0.00425896 0.999675 0
-0.0249719 0.00459328 0.999678 0
-0.0251992 0.00469814 0.999671 0
-0.0264039 0.00538976 0.999637 0
-0.0268616 0.00552528 0.999624 0.000341218
-0.0256585 0.00587387 0.999654 0
-0.0260113 0.00620868 0.999642 0
-0.0258833 0.00645118 0.999644 0
-0.0257918 0.0069206 0.999643 0
-0.0263418 0.00709376 0.999628 0.000500626
-0.0262077 0.00735741 0.999629 0
-0.0265617 0.00742196 0.99962 0
-0.0257685 0.00747946 0.99964 0
-0.0272568 0.00827015 0.999594 0.00351694
-0.0264589 0.00870323 0.999612 0.00123433
-0.025555 0.00899802 0.999633 0
-0.0256052 0.00911385 0.999631 0
-0.0256478 0.009197 0.999629 0.00025336
-0.0252363 0.00969426 0.999635 0.00538139
-0.0239927 0.0100689 0.999661 0.00150759
-0.0232467 0.00985749 0.999681 0.0012236
-0.0239807 0.010176 0.999661 0
-0.0236112 0.0108588 0.999662 0.00379752
-0.0232337 0.0113332 0.999666 0.00590103
-0.0233453 0.0127289 0.999646 0.00657259
-0.0212556 0.0133723 0.999685 0.00264025
-0.0208749 0.0133942 0.999692 0.0022206
-0.0205616 0.014483 0.999684 0.000636584
-0.0183792 0.0163531 0.999697 0.00299042
-0.0169 0.0173353 0.999707 0
-0.0154346 0.0184098 0.999711 0.000718811
-0.0158087 0.0189338 0.999696 0
-0.0166618 0.0204456 0.999652 0.000761786
-0.0158949 0.0218434 0.999635 0.00154453
-0.015689 0.0243676 0.99958 0.00692611
-0.0146597 0.0267517 0.999535 0.00851421
-0.0498821 -0.221129 0.973968 0.0225494
-0.0491817 -0.211505 0.976139 0.0213314
-0.0497817 -0.203108 0.97789 0.0222461
-0.0488412 -0.194827 0.979621 0.0199538
-0.0506905 -0.186712 0.981106 0.0237679
-0.0513349 -0.181102 0.982124 0.0255192
-0.0514959 -0.174559 0.983299 0.0246424
-0.0521804 -0.169307 0.984181 0.0246407
-0.0502091 -0.160419 0.985771 0.0173605
-0.0505515 -0.152538 0.987004 0.0110851
-0.0494175 -0.148002 0.987752 0.010466
-0.0503048 -0.142685 0.988489 0.00954575
-0.0484922 -0.137387 0.98933 0.00510668
-0.0490543 -0.135705 0.989534 0.0110737
-0.0485326 -0.132186 0.990036 0.0108056
-0.0482098 -0.12744 0.990674 0.00897376
-0.0471009 -0.123033 0.991284 0.00509323
-0.0463997 -0.119417 0.991759 0.00470095
-0.0460871 -0.114613 0.992341 0
-0.0463337 -0.111597 0.992673 0
-0.045322 -0.108592 0.993053 0
-0.0454083 -0.105807 0.993349 0
-0.0464587 -0.103064 0.993589 0
-0.0452653 -0.100978 0.993858 0.00057862
-0.0459443 -0.0985546 0.994071 0
-0.0451852 -0.0962107 0.994335 0.000670179
-0.0436217 -0.0943087 0.994587 0
-0.043111 -0.0921183 0.994814 0
-0.0427034 -0.090022 0.995024 0
-0.0402279 -0.0887359 0.995242 0
-0.040281 -0.0866392 0.995425 0
-0.0395154 -0.0845077 0.995639 0
-0.0393878 -0.0822796 0.995831 0
-0.0383434 -0.0801705 0.996043 0
-0.039484 -0.0785114 0.996131 0
-0.0390828 -0.0765382 0.9963 0
-0.0388139 -0.0750699 0.996423 0
-0.0379637 -0.0732221 0.996593 0
-0.0366966 -0.0714063 0.996772 0
-0.0368131 -0.0700601 0.996863 0
-0.0361775 -0.0683003 0.997009 0
-0.0343741 -0.0667425 0.997178 0
-0.0348836 -0.0654195 0.997248 0
-0.0345109 -0.0638869 0.99736 0
-0.0348639 -0.061879 0.997475 0
-0.0344005 -0.0604061 0.997581 0
-0.0336912 -0.0587366 0.997705 0
-0.0333668 -0.0571883 0.997806 0
-0.0330824 -0.055823 0.997892 0
-0.0332035 -0.0542699 0.997974 0
-0.0335928 -0.0525429 0.998053 0
-0.0321904 -0.0510985 0.998175 0
-0.0333418 -0.0495489 0.998215 0
-0.033688 -0.0484075 0.998259 0
-0.0337113 -0.0462657 0.99836 0
-0.0325358 -0.0449928 0.998457 0
-0.0318511 -0.0433836 0.998551 0
-0.0310591 -0.0421321 0.998629 0
-0.0303887 -0.0405681 0.998715 0
-0.0299853 -0.0392888 0.998778 0
-0.0300974 -0.0375722 0.998841 0
-0.0283907 -0.0362425 0.99894 0
-0.0297765 -0.0342978 0.998968 0
-0.0295737 -0.0325147 0.999034 0
-0.0304622 -0.0296004 0.999098 0
-0.0304597 -0.0266405 0.999181 0
-0.0305666 -0.0231923 0.999264 0
-0.0325618 -0.0208242 0.999253 0
-0.0314848 -0.0177116 0.999347 0
-0.0307937 -0.0149931 0.999413 0
-0.031166 -0.0126018 0.999435 0
-0.0328627 -0.0104183 0.999406 0
-0.0334286 -0.00796609 0.999409 0
-0.0343344 -0.00581036 0.999394 0
-0.0341427 -0.00384183 0.99941 0
-0.0349386 -0.00207442 0.999387 0
-0.0365086 -0.00051582 0.999333 0
-0.0376977 0.000798997 0.999289 0
-0.0380999 0.00197481 0.999272 0
-0.0385558 0.00321306 0.999251 0
-0.0387664 0.00419437 0.99924 0
-0.040798 0.00509391 0.999154 0
-0.0416516 0.00599439 0.999114 0
-0.040257 0.00681802 0.999166 0
-0.0395126 0.00745329 0.999191 0
-0.0387402 0.00783555 0.999219 0
-0.0390792 0.00809571 0.999203 0
-0.0400113 0.00835076 0.999164 0
-0.0387664 0.0083798 0.999213 0
-0.038175 0.00852085 0.999235 0
-0.0388983 0.00846789 0.999207 0
-0.040311 0.0084139 0.999152 0
-0.0410486 0.00826304 0.999123 0
-0.0432139 0.00817121 0.999032 0
-0.0432258 0.00795153 0.999034 0
-0.0419575 0.00785154 0.999089 0
-0.0420182 0.00774567 0.999087 0
-0.0426923 0.00759322 0.999059 0
-0.041519 0.00733099 0.999111 0
-0.0423428 0.00727114 0.999077 0
-0.0421412 0.00718476 0.999086 0
-0.0433884 0.00720038 0.999032 0.000399826
-0.0433637 0.00702705 0.999035 0
-0.0424611 0.00686283 0.999075 0
-0.0420178 0.00671368 0.999094 0
-0.0416078 0.00661573 0.999112 0
-0.0437061 0.00640278 0.999024 0
-0.0438694 0.00637033 0.999017 0
-0.0426363 0.00621453 0.999071 0
-0.0432983 0.00626416 0.999043 0
-0.0436636 0.00629894 0.999026 0.000980063
-0.0440066 0.00624542 0.999012 0.000408336
-0.04456 0.00599805 0.998989 0
-0.0438723 0.00565452 0.999021 0
-0.0428113 0.00555768 0.999068 0
-0.0426762 0.00526289 0.999075 0
-0.041196 0.00510019 0.999138 0
-0.0430773 0.00500557 0.999059 0
-0.042991 0.00462876 0.999065 0
-0.0431748 0.00421584 0.999059 0
-0.0420244 0.00439548 0.999107 0
-0.0414163 0.00447434 0.999132 0
-0.0417427 0.00424014 0.999119 0
-0.0416467 0.00415742 0.999124 0
-0.0408585 0.00433843 0.999156 0
-0.0399623 0.0043071 0.999192 0
-0.0404177 0.00440317 0.999173 0
-0.0399199 0.00446418 0.999193 0
-0.041385 0.00437957 0.999134 0
-0.0404521 0.00434771 0.999172 0
-0.0402648 0.0045014 0.999179 0
-0.0397087 0.00449006 0.999201 0
-0.0390163 0.00461867 0.999228 0
-0.0395394 0.00448811 0.999208 0
-0.0393559 0.00428647 0.999216 0
-0.0403627 0.00361424 0.999179 0
-0.0387906 0.00340814 0.999242 0
-0.0373078 0.00266051 0.9993 0
-0.0373035 0.00222849 0.999302 0
-0.0360616 0.00154498 0.999348 0
-0.0358827 0.00108387 0.999355 0
-0.0360617 0.000410809 0.999349 0
-0.0353999 -0.000137822 0.999373 0
-0.0359338 -0.000504725 0.999354 0
-0.0361344 -0.00117465 0.999346 0
-0.0361821 -0.00168033 0.999344 0
-0.0374432 -0.00206015 0.999297 0
-0.0371884 -0.00251377 0.999305 0
-0.0358461 -0.00273192 0.999354 0
-0.0370001 -0.00282665 0.999311 0
-0.0367108 -0.00278377 0.999322 0
-0.0355318 -0.00292424 0.999364 0
-0.0345524 -0.00277812 0.999399 0
-0.0350055 -0.00269122 0.999384 0
-0.0332367 -0.00293976 0.999443 0
-0.0335171 -0.00274909 0.999434 0
-0.0337223 -0.00245293 0.999428 0
-0.0313801 -0.00212953 0.999505 0
-0.0294903 -0.00151294 0.999564 0
-0.0279811 -0.000576284 0.999608 0
-0.0285861 -0.000325948 0.999591 0
-0.0274306 -0.000123076 0.999624 0
-0.0263791 0.00144511 0.999651 0
-0.0265912 0.00258194 0.999643 0
-0.0257113 0.002367 0.999667 0
-0.0261182 0.00173549 0.999657 0
-0.0252713 0.00137435 0.99968 0
-0.0240943 0.00110143 0.999709 0
-0.023696 0.000745081 0.999719 0
-0.0247316 0.000598639 0.999694 0
-0.0249498 0.000230189 0.999689 0
-0.0251392 -8.17156e-05 0.999684 0
-0.0242584 -0.000481279 0.999706 0
-0.0235183 -0.000682804 0.999723 0
-0.0239261 -0.000745221 0.999713 0.000303152
-0.0229341 -0.000793237 0.999737 0.00112278
-0.0214615 -0.000945417 0.999769 0
-0.023274 -0.000896797 0.999729 0
-0.0216646 -0.000582327 0.999765 0
-0.0212074 -0.000549326 0.999775 0.000453268
-0.0199135 -0.000429063 0.999802 0
-0.0214499 -0.000182139 0.99977 0
-0.0219911 0.000193622 0.999758 0.00131127
-0.0227616 1.65624e-05 0.999741 0.000670326
-0.02128 0.000185265 0.999774 0.00159092
-0.0210636 0.000858856 0.999778 0.00126676
-0.0205009 0.00106023 0.999789 0
-0.0184218 0.00150989 0.999829 0
-0.0185809 0.00174867 0.999826 0
-0.0185517 0.00225649 0.999825 0
-0.0187085 0.00280955 0.999821 0
-0.0194325 0.00298742 0.999807 0
-0.0184532 0.00341061 0.999824 0
-0.0174968 0.0036335 0.99984 0
-0.0178895 0.00416594 0.999831 0
-0.0178446 0.00401612 0.999833 0
-0.0179003 0.0041727 0.999831 0
-0.0195862 0.0047792 0.999797 0
-0.0187525 0.00550905 0.999809 0
-0.0193584 0.00621288 0.999793 0
-0.0197082 0.00643522 0.999785 0
-0.0194396 0.00690209 0.999787 0.00261566
-0.0192892 0.00745247 0.999786 0.00255017
-0.0206646 0.00716203 0.999761 0.00443636
-0.0206707 0.00800719 0.999754 0.00518368
-0.0208357 0.00801092 0.999751 0.0075651
-0.0220005 0.00850657 0.999722 0.00848292
-0.0223822 0.00823485 0.999716 0.00867842
-0.0221354 0.0088129 0.999716 0.00655947
-0.021046 0.00933704 0.999735 0.00533786
-0.0194468 0.00916784 0.999769 0.00660639
-0.0175353 0.00983634 0.999798 0.00702146
-0.017235 0.0105776 0.999796 0.0091797
-0.014489 0.011236 0.999832 0.0064473
-0.0129524 0.0115736 0.999849 0.00199721
-0.0121461 0.0126172 0.999847 0.00174781
-0.0122811 0.0133488 0.999835 0.00105775
-0.0100199 0.0148522 0.999839 0.00257633
-0.0111327 0.0161273 0.999808 0.0113322
-0.0100002 0.0175307 0.999796 0.0132948
-0.00719312 0.0192136 0.99979 0.0102139
-0.0063922 0.0203147 0.999773 0.0122523
-0.00495912 0.0216242 0.999754 0.00995409
-0.0048899 0.0231161 0.999721 0.0129017
-0.00421505 0.0250994 0.999676 0.0141057
-0.00253973 0.0271893 0.999627 0.0132165
-0.00077307 0.0307937 0.999525 0.015562
-0.049277 -0.212208 0.975981 0.0136003
-0.0509878 -0.205312 0.977368 0.0156457
-0.0528012 -0.198496 0.978678 0.0184933
-0.0521699 -0.189241 0.980544 0.0169802
-0.051734 -0.178393 0.982598 0.0124133
-0.050692 -0.170311 0.984086 0.0100351
-0.0508994 -0.165194 0.984947 0.0112345
-0.0522031 -0.162014 0.985407 0.0151607
-0.0512649 -0.157698 0.986156 0.0151921
-0.0530575 -0.155484 0.986412 0.0209083
-0.052406 -0.147159 0.987724 0.0158051
-0.0522725 -0.142184 0.988459 0.0142367
-0.0516872 -0.136335 0.989313 0.00893394
-0.0511281 -0.130193 0.99017 0.00319899
-0.0524231 -0.128243 0.990356 0.0063209
-0.0517485 -0.123854 0.99095 0.00431477
-0.0507624 -0.118659 0.991637 0.000617287
-0.0505018 -0.114898 0.992093 0
-0.0505093 -0.111615 0.992467 0
-0.0506719 -0.108419 0.992813 0
-0.0510496 -0.105397 0.993119 0
-0.0494502 -0.102538 0.993499 0
-0.0496195 -0.0997548 0.993774 0
-0.0493978 -0.0973259 0.994026 0
-0.0487778 -0.0951647 0.994266 0
-0.0500318 -0.0930536 0.994403 0
-0.0495859 -0.0905331 0.994658 0
-0.0480438 -0.0881922 0.994944 0
-0.047193 -0.0859582 0.99518 0
-0.0447616 -0.0843842 0.995427 0
-0.044018 -0.0824204 0.995625 0
-0.0443549 -0.0806668 0.995754 0
-0.044328 -0.078367 0.995939 0
-0.0443166 -0.0761954 0.996108 0
-0.0440207 -0.0743672 0.996259 0
-0.0438026 -0.0731057 0.996362 0.000923415
-0.0434262 -0.0712265 0.996514 0
-0.0427614 -0.0699813 0.996631 0
-0.0423915 -0.0684896 0.996751 0
-0.0424031 -0.0671405 0.996842 0
-0.0414639 -0.0654141 0.996996 0
-0.040626 -0.0638138 0.997135 0
-0.0390752 -0.0627055 0.997267 0
-0.0379925 -0.0613533 0.997393 0
-0.0377987 -0.0598182 0.997493 0
-0.0369572 -0.0578981 0.997638 0
-0.0377403 -0.0562451 0.997703 0
-0.0375328 -0.0545388 0.997806 0
-0.0370356 -0.053356 0.997889 0
-0.0372053 -0.0518561 0.997961 0
-0.0360303 -0.0506791 0.998065 0
-0.0352344 -0.0496107 0.998147 0
-0.0342606 -0.0480916 0.998255 0
-0.0334861 -0.0463212 0.998365 0
-0.0324271 -0.0447804 0.99847 0
-0.031781 -0.043637 0.998542 0
-0.0310016 -0.0425978 0.998611 0
-0.0304814 -0.041291 0.998682 0
-0.0298569 -0.0397051 0.998765 0
-0.0276233 -0.0386604 0.998871 0
-0.0287561 -0.0374435 0.998885 0
-0.0276832 -0.035977 0.998969 0
-0.0277661 -0.0345411 0.999018 0
-0.0280636 -0.0329253 0.999064 0
-0.0284302 -0.0306922 0.999124 0
-0.0294325 -0.0269606 0.999203 0
-0.0289436 -0.0249021 0.999271 0
-0.029859 -0.0215679 0.999321 0
-0.0297912 -0.0183439 0.999388 0
-0.0297093 -0.0151371 0.999444 0
-0.0306709 -0.0129293 0.999446 0
-0.0309739 -0.0113058 0.999456 0
-0.03137 -0.00888628 0.999468 0
-0.0322594 -0.00659989 0.999458 0
-0.0332195 -0.00446025 0.999438 0
-0.0333328 -0.00256208 0.999441 0
-0.0335823 -0.000959102 0.999436 0
-0.033613 0.000421876 0.999435 0
-0.0337862 0.0017216 0.999428 0
-0.0351788 0.00305985 0.999376 0
-0.0350282 0.00384256 0.999379 0
-0.0357076 0.00489779 0.99935 0
-0.0351224 0.00575819 0.999366 0
-0.0355684 0.00640085 0.999347 0
-0.0370928 0.00707816 0.999287 0
-0.0381232 0.00773439 0.999243 0
-0.0376035 0.0080497 0.99926 0
-0.03869 0.0083176 0.999217 0
-0.0381617 0.00842672 0.999236 0
-0.0372079 0.00841398 0.999272 0
-0.0380537 0.00834207 0.999241 0
-0.0374002 0.0082416 0.999266 0
-0.0371838 0.00808163 0.999276 0
-0.0368081 0.00779845 0.999292 0
-0.0373428 0.00775676 0.999272 0
-0.0368283 0.00769552 0.999292 0
-0.0379022 0.00761321 0.999252 0
-0.0402097 0.00761395 0.999162 0
-0.0407056 0.00755209 0.999143 0
-0.0407414 0.00738313 0.999142 0
-0.0402561 0.00725884 0.999163 0
-0.0398863 0.00723443 0.999178 0
-0.0402145 0.00713186 0.999166 0.000248593
-0.0402809 0.00689288 0.999165 0.00112824
-0.0406736 0.00659188 0.999151 0
-0.0409981 0.00644282 0.999138 0
-0.041323 0.00641496 0.999125 0
-0.0415973 0.00636087 0.999114 0
-0.0411117 0.00614184 0.999136 0
-0.041561 0.00614387 0.999117 0
-0.0424135 0.00611996 0.999081 0
-0.042991 0.00596614 0.999058 0
-0.0421486 0.00564314 0.999095 0
-0.0430629 0.00529681 0.999058 0
-0.0424063 0.00512601 0.999087 0
-0.0416098 0.00495723 0.999122 0
-0.0425853 0.00488144 0.999081 0
-0.042671 0.00478563 0.999078 0
-0.0422932 0.00471601 0.999094 0
-0.0420197 0.00435259 0.999107 0
-0.0423309 0.00428403 0.999094 0
-0.0417987 0.00431115 0.999117 0
-0.0413428 0.00440184 0.999135 0
-0.0414252 0.00440497 0.999132 0
-0.041712 0.00454752 0.999119 0
-0.0405402 0.00463698 0.999167 0
-0.0396259 0.00463814 0.999204 0
-0.0401691 0.00496374 0.999181 0
-0.0399662 0.00494776 0.999189 0
-0.0391141 0.00510418 0.999222 0
-0.0385127 0.00501443 0.999246 0
-0.0386903 0.00523552 0.999237 0
-0.0385549 0.00508511 0.999244 0
-0.038226 0.0048803 0.999257 0
-0.0383627 0.00470359 0.999253 0
-0.0390079 0.00423458 0.99923 0
-0.040045 0.00390821 0.99919 0
-0.0386314 0.00368049 0.999247 0
-0.0384555 0.00301733 0.999256 0
-0.0374453 0.00239249 0.999296 0
-0.0371247 0.00196359 0.999309 0
-0.0366734 0.00152818 0.999326 0
-0.0361663 0.00101673 0.999345 0
-0.0367112 0.000444356 0.999326 0
-0.036568 -0.000223189 0.999331 0
-0.0362512 -0.000643773 0.999343 0
-0.0358712 -0.00106147 0.999356 0
-0.0373466 -0.00137588 0.999301 0
-0.0372544 -0.0014934 0.999305 0
-0.0361851 -0.00154188 0.999344 0
-0.0359841 -0.00123919 0.999352 0
-0.0362264 -0.0011905 0.999343 0
-0.0360706 -0.000978268 0.999349 0
-0.036245 -0.000559315 0.999343 0
-0.0351969 -4.97921e-05 0.99938 0
-0.0345127 0.000215771 0.999404 0
-0.0335503 0.000326703 0.999437 0
-0.0342646 0.000657642 0.999413 0
-0.0336476 0.001103 0.999433 0
-0.0320576 0.00188404 0.999484 0
-0.031685 0.00294654 0.999494 0
-0.0314297 0.00384042 0.999499 0
-0.0299737 0.00413565 0.999542 0
-0.0282403 0.00490858 0.999589 0
-0.0292504 0.00507103 0.999559 0
-0.0283019 0.0044038 0.99959 0
-0.0274904 0.00329024 0.999617 0
-0.0274837 0.0029519 0.999618 0
-0.0267999 0.00269957 0.999637 0
-0.02701 0.00226061 0.999633 0
-0.0259489 0.00180248 0.999662 0
-0.0260204 0.0014574 0.99966 0
-0.0264977 0.0016001 0.999648 0
-0.0266747 0.00115225 0.999644 0.00224895
-0.0256032 0.000644518 0.999672 0.000975755
-0.0243172 0.000395353 0.999704 0.00173606
-0.0236727 0.000388451 0.99972 9.96482e-05
-0.0228177 0.00011128 0.99974 0
-0.0223169 0.000238514 0.999751 0
-0.0225526 0.00020694 0.999746 0.00171305
-0.0229298 0.000593604 0.999737 0.00223553
-0.0221198 0.000590828 0.999755 0.00147859
-0.0210498 0.000353925 0.999778 0.00158369
-0.0210531 0.000437262 0.999778 0.00320454
-0.0205436 0.000410115 0.999789 0.00213213
-0.0212228 0.000737011 0.999775 0.00260161
-0.0203175 0.000912102 0.999793 0.00144446
-0.0197953 0.000999147 0.999804 0.00207654
-0.0203867 0.00113122 0.999792 0.00296369
-0.0193231 0.000802467 0.999813 0.000491395
-0.0198158 0.00050608 0.999804 0.00170211
-0.0188981 0.000666466 0.999821 0
-0.0195488 0.00182311 0.999807 0.00349781
-0.0200674 0.0018671 0.999797 0.00323572
-0.0207079 0.00235917 0.999783 0.00870263
-0.0204249 0.00230537 0.999789 0.00894587
-0.019425 0.00202836 0.999809 0.00608662
-0.0203456 0.00186559 0.999791 0.00723978
-0.0203973 0.00218065 0.99979 0.00540756
-0.0197851 0.0023322 0.999802 0.00320464
-0.0213547 0.00299973 0.999767 0.00686207
-0.0204608 0.00289199 0.999786 0.000900274
-0.0201263 0.00350164 0.999791 0.00360479
-0.0196319 0.00346544 0.999801 0.00333127
-0.021003 0.0037253 0.999772 0.0054275
-0.0199204 0.00388222 0.999794 0.00394177
-0.0183602 0.00449008 0.999821 0.00195588
-0.0183045 0.00518808 0.999819 0.00197761
-0.018661 0.00640941 0.999805 0.00445337
-0.0190229 0.00650641 0.999798 0.00643522
-0.0181908 0.00727575 0.999808 0.00784588
-0.0178737 0.00726469 0.999814 0.0107417
-0.01695 0.00758284 0.999828 0.00800489
-0.0166882 0.00884922 0.999822 0.0090016
-0.0160738 0.00902647 0.99983 0.00853402
-0.0157435 0.00997819 0.999826 0.0102007
-0.0150099 0.0104485 0.999833 0.00947667
-0.0146185 0.0107839 0.999835 0.0116129
-0.012162 0.0118521 0.999856 0.00569462
-0.0119864 0.0129366 0.999844 0.0103025
-0.0103303 0.0135195 0.999855 0.00831714
-0.0096516 0.0161039 0.999824 0.0145096
-0.00820281 0.0173593 0.999816 0.0114886
-0.00669334 0.0183634 0.999809 0.0123714
-0.00492323 0.0202475 0.999783 0.0151974
-0.0023596 0.0222615 0.999749 0.0167837
-0.000406621 0.0239542 0.999713 0.0146211
-0.000533719 0.0263048 0.999654 0.0158991
-0.052905 -0.208516 0.976587 0.00961456
-0.05447 -0.201743 0.977923 0.0105039
-0.0547566 -0.196276 0.979019 0.0113726
-0.0553031 -0.188467 0.980521 0.0130627
-0.0558738 -0.179458 0.982178 0.0124098
-0.0552085 -0.172237 0.983507 0.0117505
-0.053879 -0.167857 0.984338 0.0141605
-0.0540126 -0.16144 0.985403 0.0130432
-0.0538047 -0.15663 0.986191 0.0127405
-0.0538994 -0.151023 0.98706 0.0117799
-0.0532333 -0.147005 0.987702 0.0132005
-0.0521754 -0.140524 0.988702 0.00928564
-0.0531353 -0.136888 0.98916 0.0109537
-0.0534415 -0.131777 0.989838 0.00799138
-0.0519918 -0.127464 0.99048 0.00480755
-0.052533 -0.123301 0.990978 0.00468612
-0.0530113 -0.1195 0.991418 0.00493904
-0.0528142 -0.113983 0.992078 0
-0.0531983 -0.110632 0.992437 0
-0.0516591 -0.107747 0.992835 0
-0.0521849 -0.104331 0.993173 0
-0.0506347 -0.101457 0.993551 0
-0.0511191 -0.0988988 0.993784 0
-0.0509046 -0.0968174 0.994 0.00203883
-0.0512516 -0.0944094 0.994213 0.00119669
-0.0516615 -0.0920917 0.994409 0.00114425
-0.0508729 -0.0893819 0.994697 0
-0.0494037 -0.0867493 0.995004 0
-0.0476135 -0.0845424 0.995282 0
-0.0473652 -0.0819759 0.995508 0
-0.0471734 -0.0799169 0.995685 0
-0.0465654 -0.0778335 0.995878 0
-0.0471269 -0.0762738 0.995973 0.00120996
-0.0469067 -0.0747432 0.996099 0.00317744
-0.0475794 -0.0730039 0.996196 0.00379209
-0.047656 -0.0710069 0.996337 0.00168017
-0.0471511 -0.0694636 0.99647 0.00312959
-0.0458752 -0.0677513 0.996647 0.00074876
-0.0459006 -0.0659319 0.996768 0
-0.0432643 -0.0646742 0.996968 0
-0.0424556 -0.0635467 0.997075 0
-0.0422783 -0.0622279 0.997166 0
-0.041036 -0.0604749 0.997326 0
-0.0411899 -0.058697 0.997426 0
-0.0395694 -0.0575137 0.99756 0
-0.0398289 -0.0559847 0.997637 0
-0.0392674 -0.0544464 0.997744 0
-0.03986 -0.0533144 0.997782 0
-0.0387739 -0.0521971 0.997884 0
-0.0382884 -0.050612 0.997984 0
-0.0378607 -0.0490876 0.998077 0
-0.0367037 -0.0474149 0.998201 0
-0.0356335 -0.0460354 0.998304 0
-0.0349868 -0.0449398 0.998377 0
-0.0334375 -0.0436201 0.998488 0
-0.0338432 -0.0425287 0.998522 0
-0.0332596 -0.0413676 0.99859 0
-0.0323105 -0.0402288 0.998668 0
-0.0308332 -0.0388615 0.998769 0
-0.0299232 -0.0379235 0.998833 0
-0.0296253 -0.0365042 0.998894 0
-0.0294805 -0.0354044 0.998938 0
-0.0308128 -0.0340714 0.998944 0
-0.0294041 -0.0327538 0.999031 0
-0.0294301 -0.0308361 0.999091 0
-0.0301392 -0.0280765 0.999151 0
-0.0287788 -0.0253403 0.999265 0
-0.0292891 -0.0218697 0.999332 0
-0.0299188 -0.0190392 0.999371 0
-0.0293848 -0.0160121 0.99944 0
-0.0295619 -0.0142352 0.999462 0
-0.0303967 -0.0116507 0.99947 0
-0.0295071 -0.00930256 0.999521 0
-0.0300058 -0.00698783 0.999525 0
-0.0318396 -0.00462061 0.999482 0
-0.0309585 -0.00277302 0.999517 0
-0.0318891 -0.00129401 0.999491 0
-0.0321004 0.000286447 0.999485 0
-0.0324467 0.00137955 0.999473 0
-0.0319744 0.00268956 0.999485 0
-0.0331931 0.00377754 0.999442 0
-0.0336662 0.00472971 0.999422 0
-0.0331988 0.00562481 0.999433 0
-0.0334281 0.00616432 0.999422 0
-0.0341411 0.00683429 0.999394 0
-0.033217 0.00732978 0.999421 0
-0.0351562 0.00772588 0.999352 0
-0.035892 0.00808305 0.999323 0
-0.0348433 0.00825001 0.999359 0
-0.0359109 0.00818523 0.999321 0
-0.0351813 0.00807809 0.999348 0
-0.0362942 0.00803894 0.999309 0
-0.0365501 0.00796861 0.9993 0
-0.0357438 0.00772108 0.999331 0
-0.036778 0.00752523 0.999295 0
-0.0367382 0.00757279 0.999296 0
-0.0368905 0.00745726 0.999291 0
-0.0375773 0.00728951 0.999267 0
-0.038374 0.00721186 0.999237 0
-0.0381241 0.00717154 0.999247 0
-0.0381528 0.0070378 0.999247 0
-0.038534 0.00689397 0.999233 0.000806908
-0.0386752 0.00676974 0.999229 0.00176784
-0.0413046 0.0067655 0.999124 0.00384462
-0.0408716 0.0064544 0.999144 0.00376192
-0.0405025 0.0062359 0.99916 0.00226809
-0.0403324 0.00600367 0.999168 0.00135645
-0.0406885 0.00601355 0.999154 0.00260123
-0.0406269 0.00595562 0.999157 0.00184874
-0.0401703 0.00578668 0.999176 0.000771119
-0.0405571 0.00562411 0.999161 0
-0.0410651 0.00533496 0.999142 0
-0.0410669 0.0052497 0.999143 0
-0.0402937 0.00523574 0.999174 0
-0.0401323 0.00507867 0.999182 0
-0.0392809 0.00478188 0.999217 0
-0.0395214 0.0045138 0.999209 0
-0.0385056 0.00446039 0.999248 0
-0.0391842 0.00429753 0.999223 0
-0.0405507 0.00433107 0.999168 0
-0.0403505 0.0042497 0.999177 0
-0.039707 0.00405862 0.999203 0
-0.0401532 0.00420398 0.999185 0
-0.0398175 0.00421255 0.999198 0
-0.0381196 0.00434205 0.999264 0
-0.0384739 0.0044363 0.99925 0
-0.0393291 0.00490891 0.999214 0
-0.0395343 0.00500921 0.999206 0
-0.0403419 0.00507046 0.999173 0.000933325
-0.0401624 0.00507326 0.99918 0.000265215
-0.0389743 0.00500585 0.999228 0
-0.0396212 0.00482216 0.999203 0
-0.0381996 0.00449169 0.99926 0
-0.0380676 0.00442243 0.999265 0
-0.0390975 0.00461424 0.999225 0
-0.0397493 0.00419215 0.999201 0
-0.0392154 0.0036542 0.999224 0
-0.0382249 0.00337023 0.999263 0
-0.0380834 0.00326459 0.999269 0
-0.0369227 0.00280951 0.999314 0
-0.0372696 0.00253502 0.999302 0
-0.0350497 0.00205702 0.999383 0
-0.0358865 0.00163953 0.999355 0
-0.035932 0.00113206 0.999354 0
-0.0356371 0.000735581 0.999365 0
-0.0363743 0.000305057 0.999338 0
-0.0360621 -0.000221786 0.99935 0
-0.0363496 -0.000495033 0.999339 0
-0.0372197 -0.000781364 0.999307 0
-0.0377511 -0.000653356 0.999287 0
-0.0362645 -0.000411005 0.999342 0
-0.0378461 -0.000104697 0.999284 0
-0.0380565 0.000123216 0.999276 0
