-0.504964 0.138188 0.852006 0.0218133
-0.498929 0.131675 0.856582 0.0105927
-0.521052 0.145084 0.841103 0.0352168
-0.502796 0.143668 0.852382 0.0197738
-0.503934 0.158836 0.849012 0.0245876
-0.495716 0.15456 0.854621 0.0176553
-0.49911 0.158411 0.851936 0.0245881
-0.493048 0.170652 0.853101 0.0207778
-0.468675 0.153962 0.86985 0.00645628
-0.453785 0.158213 0.876954 0.00418902
-0.484296 0.163746 0.859445 0.0152494
-0.472498 0.148952 0.868654 0.0149567
-0.447732 0.156445 0.880376 0.0070216
-0.436316 0.160667 0.885333 0
-0.427929 0.143828 0.892295 0.00118738
0.382253 -0.36166 0.850344 0.00447886
0.393243 -0.37384 0.840002 0.00905904
0.390764 -0.36408 0.845429 0.00453464
0.396468 -0.361857 0.843726 0.00782711
-0.235658 -0.239625 0.941831 0
-0.232664 -0.238921 0.942754 0
0.387381 -0.350008 0.852895 0.00158751
0.389831 -0.341957 0.855042 0
0.401399 -0.334592 0.8526 0.00404996
-0.275893 -0.173198 0.945455 0
-0.269604 -0.157558 0.949995 0
-0.265502 -0.186931 0.945815 0
-0.255666 -0.210388 0.943595 0
-0.250366 -0.259017 0.93286 0
-0.237579 -0.231971 0.943263 0
-0.234389 -0.256549 0.937681 0
0.395262 -0.357794 0.846021 0.00594527
0.407143 -0.330765 0.851369 0.010828
-0.282199 -0.175314 0.943201 0
-0.277959 -0.184437 0.942721 0
0.410879 -0.327909 0.850678 0.0184108
0.414397 -0.323965 0.850483 0.0136071
0.40703 -0.295993 0.864127 0.00705863
0.433596 -0.314452 0.844461 0.0220906
-0.318909 -0.168189 0.932743 0.0101142
-0.316344 -0.187118 0.930007 0.0104929
-0.311202 -0.201649 0.928704 0.00457615
0.418184 -0.308833 0.854251 0.0160731
0.443386 -0.305847 0.842536 0.0293402
-0.331968 -0.153938 0.930645 0.0116364
-0.324181 -0.155513 0.933125 0.00824884
-0.327007 -0.180913 0.927543 0.0130448
-0.329509 -0.201488 0.922403 0.0228035
0.425998 -0.309559 0.850117 0.0231617
0.4364 -0.299911 0.848297 0.0223198
0.471204 -0.300386 0.829298 0.0271592
-0.329941 -0.136563 0.934071 0
-0.328459 -0.155233 0.931675 0.00333332
-0.332898 -0.163919 0.928606 0.0134045
-0.337303 -0.196107 0.920744 0.0217874
-0.330677 -0.19338 0.923719 0.0181987
0.420083 -0.30363 0.855184 0.0197926
0.422299 -0.267538 0.866075 0.0134592
0.439784 -0.264991 0.85812 0.0187491
0.46122 -0.277046 0.842924 0.0238847
-0.337375 -0.146425 0.929913 0
-0.333894 -0.155933 0.929624 0.0033883
0.426251 -0.298329 0.853997 0.0254567
0.411902 -0.261043 0.873037 0.00571868
0.427486 -0.250637 0.868583 0.0135424
0.457705 -0.268083 0.847725 0.022999
-0.350977 -0.129737 0.927353 0
-0.342326 -0.127976 0.930825 0
-0.349489 -0.151505 0.92461 0.00910584
0.419978 -0.272451 0.865672 0.0220349
0.435788 -0.276627 0.856485 0.0224765
0.436954 -0.262114 0.860446 0.0222556
0.466663 -0.270913 0.841921 0.0304761
-0.35548 -0.126681 0.926059 0
-0.352586 -0.126937 0.92713 0.000440883
-0.356537 -0.145066 0.92295 0.0140804
-0.363417 -0.11863 0.924043 0
-0.35749 -0.119937 0.926184 0
-0.357459 -0.134859 0.924141 0.00618703
-0.366441 -0.111322 0.923758 0
-0.361266 -0.106237 0.926391 0
-0.378302 -0.11688 0.918274 0.00210878
-0.392822 -0.124172 0.911193 0.0120964
-0.374948 -0.111328 0.920337 0.00829648
-0.387736 -0.102552 0.916048 0.00351171
-0.38749 -0.111502 0.915106 0.00842658
-0.396911 -0.0941932 0.913011 0.00605921
-0.396711 -0.104856 0.911935 0.00698728
-0.409069 -0.0949248 0.907553 0.0157744
-0.405319 -0.112305 0.907251 0.0101273
-0.404539 -0.0842538 0.910631 0.0086392
-0.405724 -0.0959479 0.908945 0.0123743
-0.386862 -0.104159 0.916236 0
-0.398958 -0.0699931 0.914294 0.00451549
-0.407585 -0.0869163 0.909021 0.0105435
-0.411783 -0.0801795 0.907748 0.0102653
-0.4165 -0.0879064 0.904876 0.0167409
-0.412894 -0.0593235 0.908845 0.00875004
-0.410428 -0.0719008 0.909054 0.0103782
-0.406749 -0.0343141 0.912895 0.00781095
-0.409504 -0.0418079 0.91135 0.00924874
-0.404521 -0.0222435 0.914258 0.00285929
-0.422261 -0.0481774 0.905193 0.0135179
-0.430177 -0.0226629 0.90246 0.0128282
-0.457242 -0.0425941 0.888322 0.029108
-0.443167 -0.0112698 0.896368 0.0185258
-0.439156 -0.0153171 0.89828 0.0192742
0.461093 -0.150031 0.874577 0.0137196
-0.422938 0.0143647 0.906045 0.00489981
-0.427644 0.0101555 0.90389 0.00916737
-0.443531 0.0129843 0.896165 0.0113951
-0.429809 0.0118419 0.902842 0.00918925
-0.46658 0.0126894 0.884388 0.0174035
-0.434379 0.018994 0.90053 0.00532705
-0.4859 0.0196685 0.873793 0.0221177
-0.463717 0.0166283 0.885828 0.0174953
-0.505091 0.0312773 0.862499 0.0322098
-0.49211 0.0286621 0.870061 0.0307466
-0.497786 0.057412 0.865397 0.026922
-0.477057 0.0514372 0.877366 0.023058
-0.453452 0.0790576 0.887767 0.00406178
-0.442356 0.0737703 0.8938 0.00537041
-0.457849 0.0815654 0.88528 0.0137767
-0.437468 0.0879848 0.894919 0.00741096
-0.46757 0.0907444 0.879286 0.017648
-0.457181 0.0880735 0.885002 0.0177868
-0.452344 0.100938 0.886113 0.00628242
-0.431081 0.0937323 0.897431 0
-0.439721 0.11303 0.890994 0
-0.429605 0.122286 0.894699 0
-0.427921 0.134629 0.893733 0
-0.425732 0.131978 0.895173 0
-0.418664 0.138534 0.897513 0
-0.425709 0.144087 0.893314 0
-0.419777 0.142135 0.896429 0
-0.430594 0.141862 0.891327 0
-0.416371 0.144749 0.897598 0
-0.408783 0.143002 0.901358 0
-0.421308 0.154236 0.893706 0
-0.417628 0.156467 0.895045 0
-0.406862 0.155423 0.900171 0
-0.420197 0.150439 0.894876 0
-0.412686 0.154796 0.897624 0
-0.432369 0.151305 0.888912 0
-0.428362 0.150655 0.89096 0
-0.441065 0.150235 0.884811 0
-0.43164 0.1523 0.889096 0
-0.433942 0.141703 0.889727 0
-0.434197 0.141328 0.889663 0.00343235
-0.435463 0.139473 0.889336 0
-0.423231 0.143448 0.894594 0
-0.434334 0.147125 0.888655 0
-0.425117 0.145896 0.893303 0
-0.435404 0.149163 0.887792 0
-0.429292 0.147726 0.891002 0
-0.429853 0.149557 0.890426 0
-0.420011 0.153319 0.894474 0
-0.424895 0.140489 0.894274 0
-0.424457 0.132516 0.895698 0
-0.416302 0.126315 0.900409 0
-0.41393 0.127715 0.901305 0
-0.414841 0.115814 0.902493 0
-0.406145 0.120193 0.90587 0
-0.413073 0.120277 0.90272 0
-0.406815 0.130581 0.904129 0
-0.404099 0.125807 0.906023 0
-0.404023 0.138888 0.904144 0
-0.398185 0.137918 0.906878 0
-0.406103 0.131919 0.904255 0
-0.400432 0.121707 0.908208 0
-0.408218 0.118277 0.90519 0
-0.397721 0.115381 0.910223 0
-0.39739 0.126769 0.908851 0
-0.401727 0.11876 0.908026 0
-0.399859 0.106764 0.910338 0
-0.404306 0.106858 0.90836 0
-0.399161 0.106753 0.910645 0
-0.401709 0.106077 0.909603 0
-0.398227 0.110186 0.910645 0
-0.406515 0.1044 0.90766 0
-0.399796 0.105214 0.910546 0
-0.406735 0.0991193 0.908153 0
-0.402372 0.102125 0.909762 0
-0.396109 0.0986881 0.912885 0.00376486
-0.404193 0.105474 0.908572 0
-0.402271 0.103524 0.909649 0
-0.393425 0.105111 0.913328 0
-0.403572 0.0906072 0.91045 0
-0.408007 0.0908845 0.908444 0.00953033
-0.404367 0.0922146 0.909936 0.00902193
-0.420369 0.0841534 0.903442 0.0143781
-0.424551 0.0830508 0.901587 0.0221197
-0.406469 0.0870913 0.909504 0.00492606
-0.415055 0.0813887 0.906148 0.0139774
-0.426325 0.0758124 0.901388 0.0217703
-0.417528 0.0787949 0.905241 0.0207996
-0.438687 0.0655778 0.896244 0.0285671
-0.42341 0.0678725 0.903392 0.0236507
-0.425917 0.0664254 0.902321 0.0179882
-0.408267 0.0606652 0.910845 0.0114849
-0.413354 0.0621377 0.908448 0.0107829
-0.414919 0.0672707 0.907368 0.00900081
-0.41025 0.0634318 0.909765 0.00742044
-0.426557 0.065112 0.902114 0.0195316
-0.413038 0.0656377 0.908346 0.00963736
-0.408475 0.0637455 0.910541 0.00681705
-0.435523 0.0418502 0.899204 0.0251539
-0.428841 0.0424137 0.902384 0.0194581
-0.413764 0.000194203 0.910384 0.00633675
-0.404432 -0.00691296 0.914542 0
-0.405801 -0.00899675 0.913917 0
-0.410791 -0.0101541 0.911673 0
-0.427427 -0.0174081 0.903882 0.0118923
-0.413421 -0.0199173 0.910322 0.00360927
-0.409658 -0.0118329 0.912163 0
-0.412871 -0.0100902 0.910734 0
-0.412286 -0.0177398 0.910882 0
-0.416768 -0.0273289 0.908602 0
-0.413123 -0.0231349 0.910381 0
-0.431342 -0.0427384 0.901176 0.0105624
-0.425052 -0.0377013 0.904383 0.00843347
-0.42389 -0.0536413 0.904124 0.00865197
-0.413917 -0.065449 0.907959 0
-0.409551 -0.0681203 0.909741 0.000208057
-0.41275 -0.0731719 0.907901 0.000326552
-0.408287 -0.0686969 0.910265 0
-0.415805 -0.0806982 0.905866 0
-0.412619 -0.0923667 0.906208 0.0046215
-0.413578 -0.083888 0.906596 0
-0.403927 -0.08037 0.911254 0
-0.41279 -0.0791937 0.907377 0
-0.405521 -0.0819201 0.910407 0
-0.414725 -0.0909268 0.905392 0
-0.409958 -0.0918117 0.907472 0
-0.4368 -0.101945 0.893763 0.0110521
-0.416788 -0.0972745 0.903784 0.00209909
-0.452844 -0.11376 0.884302 0.0146675
-0.434177 -0.112212 0.893811 0.00672724
-0.433352 -0.108158 0.894711 0.00880092
-0.4477 -0.115368 0.88671 0.00941813
-0.434703 -0.120509 0.892475 0.00701392
-0.437787 -0.103545 0.893097 0.00334744
-0.443883 -0.112012 0.889056 0.011129
-0.465665 -0.113472 0.877656 0.0144358
-0.442204 -0.110326 0.890103 0.00521508
-0.470172 -0.116862 0.874804 0.0162673
-0.449019 -0.11065 0.886645 0.0113602
-0.478882 -0.113821 0.870469 0.0198995
-0.480835 -0.105901 0.870392 0.0183732
-0.476358 -0.1023 0.87328 0.0123216
-0.472019 -0.11148 0.874511 0.012081
-0.484635 -0.106209 0.868245 0.0138695
-0.470087 -0.119117 0.874545 0.0112561
-0.51643 -0.112102 0.84896 0.0282984
-0.494343 -0.108657 0.862449 0.0171915
-0.520605 -0.120736 0.845218 0.0249251
-0.493285 -0.108818 0.863034 0.00828434
-0.493034 -0.10613 0.863513 0.00512063
-0.528046 -0.106479 0.842514 0.015188
-0.493658 -0.102394 0.863607 0.00362595
-0.53577 -0.113264 0.836733 0.019588
-0.511852 -0.118947 0.850799 0.00922265
-0.502248 -0.10237 0.858643 0
-0.503669 -0.111787 0.856634 0.00375436
-0.507345 -0.101326 0.855765 0
-0.499345 -0.0950654 0.861172 0
-0.504545 -0.0886463 0.858823 0
-0.502276 -0.0902512 0.859985 0
-0.510711 -0.0958806 0.854389 0
-0.515756 -0.0920454 0.851777 0
-0.519031 -0.0918169 0.84981 0
-0.520246 -0.0979242 0.848384 0
-0.523037 -0.0929708 0.847224 0
-0.521942 -0.0982386 0.847305 0
-0.526215 -0.0925116 0.845304 0.000329979
-0.526461 -0.0961562 0.844744 0.00181003
-0.53609 -0.0879671 0.839565 0.00281935
-0.530943 -0.0904805 0.842563 0.00383745
-0.5444 -0.0759512 0.83538 0
-0.552917 -0.0809108 0.829298 0.00814123
-0.551857 -0.0633517 0.831529 0
-0.584835 -0.0635484 0.808659 0.013604
-0.574235 -0.0459831 0.817398 0.0077618
-0.577842 -0.0367878 0.815319 0.00751179
-0.585963 -0.0329827 0.809667 0.00922444
-0.563944 -0.0303701 0.825255 0.00580742
-0.591244 -0.0340502 0.805773 0.0138188
-0.591241 -0.0325892 0.805836 0.0186735
-0.578212 -0.0280198 0.815405 0.0124716
-0.552294 -0.0264091 0.833231 0.00457828
-0.567705 -0.00991976 0.823173 0.00932865
-0.541165 -0.0198943 0.840681 0.0036505
-0.559145 -0.00354771 0.829062 0.00473604
-0.553414 0.0100369 0.832846 0.00346827
-0.559339 0.0171244 0.828762 0.0105552
-0.566139 0.0148572 0.824176 0.0199037
-0.552924 0.0201849 0.832987 0.0151937
-0.550825 0.0304618 0.834065 0.0159662
-0.550727 0.0286996 0.834192 0.0150249
-0.532856 0.0424143 0.845142 0.0102919
-0.53126 0.0502182 0.845719 0.0134566
-0.537161 0.0534983 0.841781 0.0158435
-0.538332 0.0650492 0.840219 0.0219979
-0.523772 0.0671123 0.849211 0.0179582
-0.501113 0.0830393 0.861389 0
-0.501314 0.0867165 0.860909 0.00221437
-0.493147 0.0975504 0.864459 0
-0.496238 0.0982374 0.86261 0
-0.492267 0.106714 0.863878 0
-0.510819 0.128572 0.850019 0.0140893
-0.507251 0.137876 0.850698 0.015988
-0.506317 0.137723 0.851279 0.0191943
-0.488404 0.139383 0.861414 0.0129055
-0.492064 0.135925 0.859882 0.0118193
-0.50726 0.143725 0.849724 0.0300416
-0.514853 0.160749 0.842073 0.0319757
-0.5221 0.165639 0.836645 0.037529
-0.504893 0.162942 0.847663 0.0237057
-0.49767 0.168952 0.850752 0.0205043
-0.479052 0.175015 0.860162 0.00781038
-0.494532 0.180417 0.850228 0.0207554
-0.471102 0.168134 0.865906 0.00345587
-0.454873 0.166894 0.874778 0
-0.461646 0.162113 0.872125 3.5173e-05
-0.456991 0.159073 0.875131 0.010047
-0.45356 0.172384 0.874395 0.0140993
-0.445058 0.15187 0.88253 0.00844582
-0.44049 0.173231 0.880886 0.00853521
0.374077 -0.332403 0.86578 0.0023121
0.385834 -0.370264 0.845007 0.00938859
0.384002 -0.346019 0.856045 0.00600774
-0.268421 -0.221254 0.937548 0
-0.256197 -0.249086 0.93398 0.00509798
-0.24747 -0.223603 0.942741 0.00248659
-0.236739 -0.214225 0.947662 0.0016559
-0.232284 -0.251447 0.939584 0
0.384686 -0.338351 0.858799 0.00995834
0.390424 -0.338822 0.856019 0.00720273
-0.278323 -0.195414 0.940399 0
-0.273182 -0.168009 0.947177 0
-0.269633 -0.22286 0.93682 0.00205618
-0.262167 -0.235424 0.935865 0.005256
-0.250413 -0.233979 0.93944 0.00590266
-0.245841 -0.262285 0.93315 0.0200685
-0.234406 -0.235679 0.943138 0.00661028
-0.2173 -0.237507 0.946769 0.00354074
0.388413 -0.337586 0.857421 0.0100124
0.388705 -0.307425 0.868561 0.00961001
0.390949 -0.303581 0.868906 0.00615443
-0.285998 -0.185814 0.940042 0
-0.280111 -0.20115 0.938657 0
-0.277833 -0.181382 0.94335 0
-0.271896 -0.204673 0.940309 0.00390855
0.390606 -0.301325 0.869845 0.010035
0.406018 -0.325185 0.854052 0.0220461
-0.288924 -0.2003 0.936164 0
-0.288304 -0.191593 0.938175 0
-0.28271 -0.193874 0.939408 0
0.406764 -0.327928 0.852647 0.0192529
0.408982 -0.305049 0.860046 0.0136828
-0.328893 -0.190023 0.925052 0.0242767
-0.318502 -0.188669 0.928957 0.0163706
0.415165 -0.3267 0.849062 0.0293934
0.414242 -0.307059 0.856807 0.0197027
-0.327479 -0.168799 0.929658 0.0159796
-0.326869 -0.182271 0.927326 0.0189113
-0.32711 -0.188613 0.925972 0.0176108
0.408731 -0.313097 0.857268 0.0241335
-0.343397 -0.175566 0.922635 0.0190352
-0.335523 -0.165253 0.927424 0.013207
-0.330213 -0.173591 0.927807 0.0116872
-0.326167 -0.15782 0.932045 0.0134256
0.421799 -0.306013 0.853488 0.0329499
-0.34308 -0.147972 0.927578 0.0102118
-0.347834 -0.168806 0.922234 0.0138626
-0.333955 -0.158804 0.929116 0.00816504
-0.332668 -0.162913 0.928866 0.0165925
0.410198 -0.275165 0.869495 0.0245059
0.428833 -0.269747 0.862171 0.0196383
0.455746 -0.280355 0.844806 0.0347047
0.473182 -0.274497 0.837108 0.0393332
-0.35791 -0.148844 0.921817 0.0161047
-0.362694 -0.160554 0.917973 0.0275767
-0.335617 -0.14742 0.930392 0.00999554
0.42361 -0.281505 0.860994 0.0281602
0.438459 -0.269109 0.857516 0.0313157
0.45343 -0.263297 0.851514 0.0331255
0.461389 -0.255354 0.849655 0.0297616
-0.363672 -0.148191 0.919664 0.0143203
-0.355729 -0.135209 0.924757 0.0176078
0.422593 -0.249577 0.871278 0.0268939
0.427219 -0.250283 0.868817 0.0175641
0.455487 -0.252095 0.853803 0.0289454
-0.370307 -0.118907 0.921268 0.00834936
-0.376921 -0.129504 0.917147 0.0151709
-0.374096 -0.137842 0.917089 0.0245521
-0.381952 -0.117531 0.916678 0.0134174
-0.369561 -0.11538 0.922015 0.0104753
-0.376092 -0.119445 0.918851 0.0205833
-0.383212 -0.104781 0.917698 0.00239838
-0.374503 -0.108348 0.920874 0.00310594
-0.376238 -0.108643 0.920131 0.00882699
-0.380977 -0.115359 0.91736 0.0202394
-0.387408 -0.0983044 0.916652 0.00249828
-0.376054 -0.101834 0.920985 0
-0.366235 -0.0899003 0.92617 0.00230227
-0.389249 -0.103734 0.915273 0.000445638
-0.385663 -0.101909 0.916994 0.00110062
-0.373799 -0.0903717 0.923096 0
-0.382668 -0.0915611 0.919338 0.000155826
-0.379409 -0.0888298 0.920955 0.00507674
-0.39241 -0.0857921 0.915781 0.00261949
-0.395218 -0.088656 0.914299 0.0111155
-0.411418 -0.091925 0.906799 0.0168128
-0.385725 -0.0789942 0.919226 0.00274502
-0.416774 -0.073809 0.906009 0.0148366
-0.403691 -0.0807021 0.911329 0.0092369
-0.413577 -0.0911896 0.905891 0.0169309
-0.411768 -0.0603892 0.909285 0.0129109
-0.403426 -0.0684495 0.912448 0.00941505
-0.415816 -0.0535668 0.90787 0.0140531
-0.410518 -0.0536867 0.910271 0.0112866
-0.448151 -0.0520789 0.89244 0.0281487
-0.434465 -0.0482303 0.899396 0.02511
-0.434874 -0.0219516 0.900224 0.0167522
-0.429662 -0.0213699 0.902737 0.0205183
-0.409671 0.000974367 0.912233 0.00310986
-0.415684 -0.00228015 0.909506 0.0115011
0.469033 -0.145614 0.871094 0.0164073
-0.417088 0.0191361 0.908664 0.00596914
-0.407277 0.0194934 0.913097 0.0029713
0.471238 -0.127511 0.87274 0.0227996
-0.418545 0.0161877 0.908052 0.00168324
-0.419083 0.0181941 0.907765 0.00722031
0.451716 -0.114054 0.884841 0.0208258
-0.460613 0.0074553 0.88757 0.02024
-0.427855 0.0166571 0.903694 0.00825714
-0.414552 0.0248272 0.909687 0.00596488
0.407422 -0.0977483 0.907994 0.00164409
-0.457822 0.0305724 0.888518 0.0226504
-0.442032 0.0193949 0.89679 0.023414
-0.446258 0.044376 0.893803 0.0165457
-0.42619 0.0305292 0.904118 0.0147093
-0.416785 0.0658849 0.906614 0
-0.408114 0.0509918 0.911506 0.000290728
-0.418039 0.0765146 0.905201 0
-0.409082 0.0715606 0.909687 0
-0.442098 0.0848667 0.892943 0.0123394
-0.414457 0.0848504 0.906105 0
-0.429042 0.094636 0.898313 0
-0.416688 0.101196 0.903399 0
-0.403799 0.093512 0.910056 0
-0.427224 0.117624 0.896462 0
-0.419165 0.117281 0.900303 0
-0.40573 0.104439 0.908006 0
-0.417299 0.119841 0.900833 0
-0.405393 0.115616 0.906802 0
-0.412214 0.12949 0.901838 0
-0.40287 0.126731 0.906441 0
-0.414518 0.134846 0.899995 0
-0.405858 0.137365 0.903554 0
-0.402942 0.13769 0.904809 0
-0.392367 0.145444 0.908237 0
-0.399419 0.15315 0.903886 0
-0.397305 0.14666 0.905892 0
-0.40614 0.144084 0.90238 0
-0.416666 0.147841 0.896958 0
-0.424107 0.147769 0.893475 0
-0.406193 0.149018 0.901555 0
-0.422781 0.144428 0.894649 0
-0.408675 0.134325 0.902741 0
-0.415342 0.135886 0.899459 0
-0.402583 0.131854 0.905837 0
-0.415921 0.149006 0.89711 0
-0.408462 0.138513 0.902205 0
-0.421967 0.14797 0.894454 0
-0.408516 0.14703 0.900831 0
-0.406923 0.152606 0.900625 0
-0.397943 0.149917 0.905078 0
-0.409932 0.141027 0.901148 0
-0.405581 0.135261 0.903996 0
-0.402051 0.129426 0.906424 0
-0.415921 0.135702 0.899219 0
-0.403997 0.125372 0.906128 0
-0.402038 0.1209 0.907606 0
-0.40392 0.127734 0.905832 0
-0.394009 0.127211 0.910261 0
-0.401618 0.125879 0.907115 0
-0.398763 0.127 0.908218 0
-0.390995 0.127558 0.911511 0
-0.399217 0.11948 0.909038 0
-0.392741 0.120235 0.911755 0
-0.390087 0.129427 0.911636 0
-0.396216 0.120504 0.910215 0
-0.39235 0.130873 0.910458 0
-0.389768 0.126525 0.91218 0
-0.39472 0.138886 0.908244 0
-0.38611 0.132021 0.912957 0
0.312268 -0.0470605 0.948828 0.00750303
-0.391759 0.126753 0.911295 0
-0.388485 0.129555 0.912302 0
0.351833 -0.0630293 0.933938 0.0220031
-0.393433 0.127171 0.910515 0
-0.392051 0.121736 0.911853 0
-0.391993 0.113508 0.912939 0
-0.388908 0.110519 0.914623 0
-0.393192 0.105074 0.913433 0
-0.391082 0.10604 0.914227 0
-0.393358 0.0924372 0.914726 0
-0.39875 0.0974379 0.911869 0.00278748
-0.386992 0.0705612 0.919379 0.0228857
-0.392706 0.0728077 0.916777 0.028952
-0.384953 0.0734659 0.920007 0.018544
-0.382431 0.060654 0.921991 0.013904
-0.38825 0.0573429 0.919768 0.0185392
-0.376863 0.060613 0.924283 0.00795587
-0.393486 0.0558071 0.917635 0.0165964
-0.407094 0.0493964 0.91205 0.0290069
-0.400401 0.0571119 0.914559 0.023582
-0.379821 0.0565619 0.923329 0.00201291
-0.377938 0.060986 0.92382 0.00400083
-0.392004 0.0501649 0.918595 0.0127766
-0.371367 0.04929 0.927177 0
-0.390681 0.0484546 0.91925 0.0131736
-0.389135 0.0411393 0.920261 0.0134761
-0.392012 0.0485674 0.918677 0.00946655
-0.383671 0.0404316 0.922584 0.0036416
-0.394103 0.034744 0.918409 0.0112042
-0.389634 0.034184 0.920335 0.0112214
-0.4029 0.0120451 0.915165 0.0210008
-0.397866 0.00816527 0.917407 0.0187454
-0.369149 0.0142838 0.92926 0.00269394
-0.41625 -0.00325622 0.909244 0.0297313
-0.406977 -0.00596919 0.913419 0.0302419
-0.38364 -0.000978242 0.923482 0.016354
-0.413745 -1.97898e-05 0.910393 0.0285915
-0.412328 -0.00426847 0.911026 0.0318466
-0.395041 -0.00283538 0.918659 0.0235526
-0.418576 -0.0109071 0.908116 0.0332073
-0.415331 -0.00909637 0.909625 0.0347682
-0.398282 -0.0118597 0.917186 0.02837
-0.406172 -0.0253167 0.913446 0.0280757
-0.38607 -0.0200741 0.922251 0.0223058
-0.415718 -0.0171757 0.909332 0.0315407
-0.386627 -0.0189033 0.922042 0.0250131
-0.402403 -0.0175205 0.915295 0.0223892
-0.394721 -0.017151 0.918641 0.0259146
-0.400643 -0.0109319 0.916169 0.0190096
-0.388384 -0.0199693 0.921281 0.0199704
-0.388739 -0.0124794 0.921263 0.00916022
-0.386959 -0.0178384 0.921925 0.0181774
-0.382957 -0.0253231 0.923419 0.00905215
-0.372497 -0.0180452 0.927858 0.00605067
-0.379181 -0.0162199 0.92518 0
-0.379229 -0.0315058 0.924766 0.00751336
-0.381495 -0.0295328 0.923899 0
-0.375634 -0.0338722 0.926149 0.00135843
-0.380171 -0.0338417 0.924297 0
-0.377062 -0.0408858 0.925285 0.00147407
-0.379764 -0.0297525 0.924605 0
-0.375472 -0.0459052 0.925696 0
-0.37485 -0.0477312 0.925856 0
-0.382008 -0.0589494 0.922277 0
-0.380234 -0.0587421 0.923023 0.00215188
-0.373089 -0.0786968 0.924452 0
-0.367818 -0.0854041 0.925967 0
-0.400274 -0.0772079 0.913137 0
-0.402073 -0.0895573 0.911217 0
-0.407492 -0.0928776 0.908474 7.95862e-06
-0.411912 -0.105423 0.905105 0
-0.407973 -0.0965431 0.907875 0
-0.433587 -0.107572 0.894668 0.0114581
-0.41765 -0.105013 0.902519 0.00409669
-0.424993 -0.108472 0.898674 0.00201776
-0.427601 -0.110406 0.8972 0.00596153
-0.433195 -0.118263 0.893508 0.0148771
-0.440447 -0.117285 0.890085 0.0132276
-0.436561 -0.122196 0.891338 0.0102364
-0.438054 -0.124801 0.890243 0.015489
-0.453822 -0.122274 0.882663 0.0165196
-0.437052 -0.126069 0.890557 0.0086545
-0.439749 -0.131105 0.8885 0.0154176
-0.445058 -0.112426 0.888416 0.00843369
-0.447366 -0.121811 0.886017 0.01116
-0.435912 -0.122993 0.891546 0.00804815
-0.452507 -0.11138 0.884778 0.0113753
-0.451052 -0.12034 0.884347 0.0111176
-0.437984 -0.124514 0.890318 0.00920709
-0.458759 -0.106743 0.882126 0.0131064
-0.438434 -0.109524 0.892065 0.00190518
-0.453076 -0.115862 0.883911 0.00612786
-0.478092 -0.121892 0.869811 0.0174858
-0.474893 -0.0999365 0.874351 0.0133706
-0.467595 -0.103737 0.877835 0.0118498
-0.468309 -0.0996808 0.877924 0.0050158
-0.477086 -0.105094 0.87255 0.0149545
-0.500405 -0.111036 0.858642 0.0199295
-0.476865 -0.103576 0.872853 0.00320775
-0.48304 -0.103554 0.869453 0.0113303
-0.483319 -0.108942 0.868639 0.00477274
-0.485276 -0.105155 0.868015 0.008783
-0.497778 -0.111353 0.860127 0.0100495
-0.483089 -0.105067 0.869244 0.00424896
-0.503185 -0.120892 0.855681 0.00804392
-0.477051 -0.112091 0.871698 0
-0.509704 -0.11068 0.853201 0.00957529
-0.489823 -0.101765 0.865862 0.00186726
-0.500266 -0.0992945 0.86016 0
-0.496429 -0.0853011 0.863876 0
-0.488615 -0.0952221 0.867288 0
-0.501646 -0.0939297 0.859958 0
-0.503138 -0.0982957 0.858598 0
-0.511261 -0.0947094 0.854191 0
-0.5184 -0.100645 0.849195 0.00311042
-0.508556 -0.0936182 0.855924 0.00163475
-0.523587 -0.104219 0.845574 0.00213663
-0.51767 -0.0971833 0.850043 0
-0.523939 -0.102609 0.845553 0
-0.534535 -0.103179 0.838825 0.00694714
-0.528148 -0.0888095 0.844495 0.00178214
-0.535408 -0.0971286 0.83899 0.00753364
-0.556321 -0.0836084 0.826751 0.0114893
-0.549033 -0.0826057 0.831708 0.0111593
-0.557198 -0.0741607 0.827061 0.0064927
-0.549576 -0.0715591 0.832373 0.00681686
-0.563606 -0.0587789 0.82395 0.0112448
-0.555894 -0.0642078 0.82877 0.0099906
-0.54721 -0.0383751 0.836115 0
-0.539907 -0.0359604 0.840956 0
-0.550297 -0.0323796 0.834341 0
-0.536766 -0.0274845 0.843283 0
-0.567222 -0.043796 0.822399 0.0142243
-0.558152 -0.0276305 0.829278 0.00678994
-0.533327 -0.024289 0.84556 0.0015267
-0.534592 -0.0205862 0.84486 0
-0.524404 -0.0201828 0.85123 0
-0.537914 -0.0182819 0.842801 0.0042799
-0.519095 -0.0173975 0.854539 0
-0.553281 -0.0065837 0.832968 0.0101735
-0.552871 -0.0159739 0.833114 0.0173053
-0.575899 0.00397995 0.817511 0.0229872
-0.546502 0.0175462 0.837274 0.00457519
-0.549444 0.0140708 0.835412 0.0123746
-0.519293 0.0372528 0.853784 0
-0.532977 0.0425726 0.845058 0.00997662
-0.516319 0.0508416 0.854886 0.00367384
-0.505817 0.067608 0.859987 0.00499357
-0.507262 0.0551666 0.860024 0.00541704
-0.51251 0.048408 0.857316 0.0135603
-0.496611 0.0747044 0.864752 0.00379584
-0.499686 0.077944 0.862693 0.00346014
-0.498267 0.0877109 0.862576 0
-0.496508 0.102482 0.861961 0
-0.491476 0.110019 0.863914 0
-0.490689 0.110264 0.86433 0.00280198
-0.48119 0.10892 0.869823 0.000282118
-0.493442 0.117542 0.8618 0.00507742
-0.495188 0.13174 0.858739 0.00978129
-0.493474 0.137837 0.858769 0.0135092
-0.497537 0.139444 0.856162 0.0238895
-0.492499 0.141113 0.858797 0.017094
-0.498211 0.144067 0.855003 0.0249017
-0.499003 0.147576 0.853942 0.0226834
-0.505631 0.166685 0.846495 0.0282281
-0.493101 0.161922 0.85477 0.0229057
-0.488503 0.164091 0.856994 0.0162326
-0.468617 0.171292 0.866636 0.0043443
-0.461485 0.172493 0.870217 0.00528354
-0.459517 0.175753 0.870606 0
-0.456761 0.171371 0.872927 0.00721996
-0.445195 0.17051 0.879049 0.00763454
-0.441459 0.170263 0.880979 0.00716849
-0.425367 0.168499 0.889197 0.00343523
-0.419926 0.183983 0.888714 0.00120007
-0.419309 0.157614 0.894057 0
-0.412322 0.169174 0.895193 0.000948811
-0.407776 0.175087 0.896138 0.00768881
0.365263 -0.334805 0.868613 0.0118864
-0.147516 -0.312904 0.938259 0.0120919
-0.113584 -0.241619 0.963701 0.0188198
0.359508 -0.320489 0.87638 0.00857679
0.369457 -0.328522 0.869238 0.003941
0.377527 -0.341569 0.8607 0.00448696
-0.196122 -0.239035 0.950999 0
-0.184884 -0.245206 0.951678 0
-0.152986 -0.312246 0.937602 0.0106774
-0.140743 -0.278881 0.949956 0.0126706
0.370622 -0.32272 0.870914 0.00664479
0.38447 -0.332117 0.861325 0.0138814
-0.247061 -0.237463 0.939453 0.0109767
-0.241707 -0.246098 0.938623 0.010338
-0.237256 -0.259244 0.936217 0.0166894
-0.216435 -0.244462 0.945195 0
-0.207136 -0.217658 0.953793 0.00127551
-0.195969 -0.209794 0.957905 0
-0.186289 -0.212315 0.95928 0
-0.179002 -0.213855 0.960325 0
0.383004 -0.320864 0.86623 0.0151016
0.379331 -0.300984 0.874938 0.00525052
-0.281452 -0.19197 0.940177 0
-0.275889 -0.181429 0.943912 0.000503312
-0.268437 -0.202752 0.941718 0.00168719
-0.260731 -0.212554 0.941722 0.00934533
-0.249813 -0.210449 0.945148 0.0138334
-0.245883 -0.236621 0.939974 0.0187471
-0.235566 -0.237636 0.942358 0.0102545
0.382928 -0.309895 0.870248 0.014285
0.393452 -0.314711 0.863801 0.017434
-0.287435 -0.194613 0.93782 0
-0.283557 -0.196712 0.938562 0
-0.276105 -0.182689 0.943605 0.00222456
-0.271983 -0.207517 0.939661 0.00664621
-0.259394 -0.194631 0.945956 0.00771459
0.408125 -0.333414 0.849864 0.0308287
-0.292282 -0.201281 0.93491 0
-0.289147 -0.189905 0.938259 0
-0.290742 -0.203548 0.9349 0.00816885
-0.278741 -0.1807 0.943213 0.00308788
0.399946 -0.314081 0.861044 0.0238527
-0.291298 -0.172465 0.940958 0
0.403162 -0.305469 0.862641 0.0287807
-0.322222 -0.166834 0.931847 0.0111575
-0.323804 -0.169285 0.930856 0.0130978
-0.297981 -0.170946 0.939141 0.00668773
0.394951 -0.283085 0.874 0.0218069
-0.327156 -0.154632 0.932233 0.00693776
-0.321423 -0.141196 0.93635 0.0107919
-0.327538 -0.163715 0.930547 0.0174295
0.399193 -0.277413 0.873892 0.0250436
-0.333133 -0.151135 0.930688 0.0074336
-0.327723 -0.145546 0.933496 0.0137195
-0.326501 -0.145844 0.933877 0.0152792
0.40754 -0.263045 0.874482 0.0267392
-0.357056 -0.127528 0.925336 0.0222497
-0.358494 -0.156555 0.920311 0.0239574
-0.351949 -0.16089 0.922088 0.0226567
-0.330514 -0.128299 0.93504 0.00780288
-0.333201 -0.14268 0.931998 0.018553
0.409399 -0.25141 0.877032 0.0309376
0.414243 -0.239089 0.878202 0.0260087
0.420943 -0.240753 0.874554 0.0199373
0.428801 -0.232082 0.873079 0.0153659
-0.366972 -0.138029 0.919934 0.019411
-0.360021 -0.126809 0.924286 0.0213159
-0.340873 -0.134798 0.930395 0.00881812
-0.342875 -0.134715 0.929671 0.0202437
0.404161 -0.230025 0.885292 0.0266757
0.413382 -0.232666 0.88033 0.0259675
0.444495 -0.240438 0.86291 0.0361584
0.442831 -0.237785 0.864499 0.0253973
-0.365339 -0.11308 0.923981 0.0184271
-0.346905 -0.106986 0.931779 0.011648
0.40334 -0.222006 0.887711 0.0248975
0.445865 -0.239326 0.862512 0.039038
0.46129 -0.24303 0.853316 0.0393308
-0.371718 -0.10499 0.92239 0.0159075
-0.378768 -0.131666 0.916078 0.0284933
0.442013 -0.234748 0.865747 0.0409535
0.448755 -0.229273 0.863744 0.0393762
-0.369105 -0.096106 0.924405 0.0105272
-0.36889 -0.102879 0.923762 0.0222512
-0.360718 -0.0858938 0.928712 0
-0.379174 -0.100865 0.919812 0.0226736
-0.394632 -0.0982327 0.913573 0.0199851
-0.379356 -0.0940045 0.920463 0.0101824
-0.37631 -0.102619 0.920793 0.0115436
-0.379394 -0.104926 0.919267 0.0193752
-0.395281 -0.0937634 0.913762 0.012867
-0.398601 -0.10663 0.910905 0.0176458
-0.403912 -0.109051 0.908275 0.0269083
-0.391079 -0.0799036 0.916882 0.00874889
-0.407084 -0.0973053 0.908193 0.0220357
-0.409404 -0.119733 0.904462 0.0286894
-0.415857 -0.0951784 0.904436 0.0214786
-0.40251 -0.0884564 0.911132 0.0176689
-0.410782 -0.0746514 0.908672 0.0153252
-0.386078 -0.0678868 0.919965 0.00583537
-0.405398 -0.0603175 0.912148 0.0131077
-0.405029 -0.0675174 0.911807 0.0156524
-0.438454 -0.0590563 0.896811 0.0293073
-0.422974 -0.0581898 0.904271 0.0231874
-0.418544 -0.0312272 0.90766 0.0161812
-0.408862 -0.031981 0.912036 0.0160196
-0.39418 -0.0256349 0.918676 0.0122366
-0.41034 -0.0120324 0.911853 0.0114411
-0.398172 -0.00752017 0.91728 0.00825628
-0.390574 -0.00640176 0.920549 0.00925952
-0.402924 0.0134464 0.915134 0.0073417
-0.388022 0.00817067 0.921614 0.00292923
-0.399582 0.0233344 0.9164 0.00330149
-0.387561 0.0217929 0.921586 0
-0.409093 0.025565 0.912134 0.00912616
-0.392783 0.0220951 0.919365 0
-0.40068 0.0272638 0.915812 0.00108663
-0.386566 0.0279887 0.921837 0
-0.399507 0.0368675 0.915989 0
-0.380479 0.0444333 0.923722 0
-0.399625 0.0406197 0.915778 0
-0.389683 0.0502315 0.919578 0
-0.39043 0.0675194 0.918153 0
-0.393168 0.0834751 0.91567 0
-0.400314 0.089668 0.911981 0
-0.387667 0.0935066 0.917045 0
-0.401592 0.104287 0.909861 0
-0.394077 0.10482 0.913081 0
-0.386855 0.109293 0.915641 0
-0.401178 0.121202 0.907946 0
-0.39886 0.115854 0.909664 0
-0.384743 0.118358 0.915404 0
-0.397746 0.119686 0.909656 0
-0.394393 0.119385 0.911154 0
-0.387298 0.128052 0.913019 0
-0.397664 0.134423 0.907631 0
-0.390044 0.132937 0.91115 0
-0.394548 0.135702 0.9088 0
-0.388279 0.136098 0.911437 0
-0.391415 0.126818 0.911434 0
-0.382298 0.131052 0.914699 0
-0.394684 0.135148 0.908823 0
-0.388704 0.13406 0.911558 0
-0.400179 0.144665 0.904947 0
-0.387203 0.138492 0.911534 0
-0.405408 0.146629 0.9023 0
-0.386885 0.14118 0.911257 0
-0.395149 0.143107 0.907402 0
-0.38415 0.146218 0.911619 0
-0.391365 0.147647 0.908314 0
-0.383051 0.153097 0.910952 0
-0.391728 0.139525 0.90944 0
-0.388346 0.147192 0.909682 0
-0.393743 0.147078 0.907378 0
-0.386438 0.142672 0.911214 0
-0.381017 0.136218 0.914479 0
0.376151 -0.0453103 0.92545 0.0434756
-0.397395 0.145625 0.906019 0
-0.390068 0.136144 0.910666 0
-0.379874 0.136784 0.914869 0
0.350498 -0.0391345 0.935745 0.0334632
-0.394224 0.128213 0.910027 0
-0.386023 0.127349 0.913657 0
0.34392 -0.0370309 0.938268 0.0363383
-0.399211 0.122138 0.908688 0
-0.393076 0.120918 0.911521 0
-0.397797 0.121769 0.909357 0.0025173
-0.390148 0.1261 0.912076 0
-0.387491 0.132681 0.912276 0
-0.387911 0.137628 0.911363 0
0.315311 -0.0463015 0.947858 0.0211459
-0.387037 0.129111 0.91298 0
0.323166 -0.042969 0.945366 0.0254074
0.343768 -0.0447793 0.937986 0.0253245
0.315988 -0.0517036 0.947353 0.0169022
0.318034 -0.0531833 0.946587 0.0199349
-0.367416 0.128271 0.921169 0
0.314889 -0.0562448 0.947461 0.0150016
-0.364204 0.111903 0.924572 0
-0.361814 0.121456 0.924305 0
0.313519 -0.0543354 0.948026 0.0144496
0.318432 -0.0588661 0.946116 0.00804481
-0.373742 0.106684 0.921377 0.00925559
-0.368017 0.104017 0.923983 0.0101905
0.30084 -0.052384 0.952235 0.00783663
0.300436 -0.0518946 0.952389 0
-0.36381 0.110728 0.924868 0.00197161
-0.355853 0.113512 0.927623 0.000492474
0.296412 -0.0575306 0.953326 0.00749734
0.287968 -0.0546266 0.956081 0.000464874
-0.358495 0.101908 0.927953 0
-0.354316 0.0991222 0.929858 0
0.287116 -0.0436494 0.956901 0
-0.360166 0.0929335 0.928248 0
-0.352297 0.0876758 0.931772 0
-0.347578 0.0861667 0.933683 0
0.287101 -0.0451556 0.956835 0
-0.367852 0.0927176 0.92525 0.00315442
-0.363335 0.0840351 0.927861 0.00492883
-0.358028 0.0870662 0.929642 0.0113536
0.283477 -0.0588213 0.957173 0
-0.36693 0.0865868 0.92621 0.00342403
-0.367747 0.0780933 0.926641 0.00866419
-0.359158 0.0827728 0.929599 0.0141375
-0.352524 0.0812336 0.93227 0.0119086
0.283756 -0.0686699 0.956435 8.49542e-05
-0.375409 0.0723587 0.924031 0.0180594
-0.373056 0.0807757 0.924286 0.0231401
-0.357165 0.0728813 0.931194 0.0177508
0.278457 -0.062245 0.958429 0
-0.386028 0.0800388 0.919008 0.0254476
-0.374467 0.0710736 0.924513 0.0246677
-0.368963 0.0642857 0.927218 0.0255911
-0.380332 0.0725721 0.921998 0.0157831
-0.369291 0.076265 0.926179 0.0151878
-0.368909 0.0810912 0.925921 0.0205001
-0.369446 0.0779132 0.92598 0.0286052
-0.381588 0.0628937 0.92219 0.0163919
-0.376424 0.0614986 0.924404 0.0206453
-0.377237 0.0729397 0.92324 0.027663
-0.372343 0.070069 0.925446 0.0291947
-0.374535 0.0607153 0.925223 0.00950593
-0.376541 0.0590779 0.924514 0.0190368
-0.373356 0.0619109 0.92562 0.0234962
-0.365121 0.0637356 0.928776 0.0257317
-0.386646 0.0546114 0.92061 0.0154836
-0.376932 0.0552599 0.924591 0.0168411
-0.361318 0.0649977 0.930175 0.0126786
-0.361534 0.0614473 0.930332 0.0139322
-0.38752 0.0639399 0.919641 0.0133763
-0.386461 0.062741 0.920169 0.0217116
-0.378346 0.0553499 0.924008 0.0233565
-0.372372 0.0609276 0.926082 0.026556
-0.401117 0.0504376 0.914637 0.0313048
-0.384925 0.0485308 0.921671 0.0258273
-0.370079 0.0553265 0.927351 0.020975
-0.386346 0.046555 0.921178 0.0212047
-0.36801 0.0500583 0.928473 0.0113056
-0.365896 0.0507931 0.929269 0.0143045
-0.354616 0.0457362 0.933893 0.0140536
-0.366767 0.0605559 0.92834 0
-0.360545 0.0463882 0.931587 0.00137894
-0.359216 0.0457893 0.932131 0.0100376
-0.346396 0.0420351 0.937146 0.00913472
-0.361416 0.0507236 0.931024 0
-0.34856 0.0537148 0.935746 0
-0.365349 0.0394414 0.930035 0
-0.354972 0.0475763 0.933666 0
-0.364392 0.0402226 0.930376 0
-0.354634 0.0348417 0.934356 0
-0.342203 0.0309999 0.939114 0
-0.364634 0.020225 0.930931 0
-0.352699 0.0149945 0.935617 0
-0.341022 0.0265526 0.93968 0
-0.364779 0.0125459 0.931009 0
-0.365501 0.00636773 0.930789 0.0103494
-0.348018 0.00876006 0.937447 0.00311908
-0.386235 -0.00458846 0.922389 0.0202725
-0.378126 -0.00721884 0.925726 0.0211553
-0.364083 -0.00874217 0.931325 0.0190134
-0.352978 -0.00238523 0.935628 0.015813
-0.390761 -0.00613788 0.920472 0.0243614
-0.388507 -0.01749 0.92128 0.029906
-0.374481 -0.0204691 0.927008 0.0273497
-0.359084 -0.0130076 0.933214 0.0221367
-0.391315 -0.0167339 0.920105 0.0263591
-0.386786 -0.0208544 0.921934 0.0295089
-0.362388 -0.0130085 0.931937 0.0131672
-0.353195 -0.00957133 0.935501 0.00962104
-0.392799 -0.0213807 0.919376 0.0308087
-0.377102 -0.0214746 0.925923 0.0244392
-0.36953 -0.0289528 0.928768 0.0247147
-0.353144 -0.0206621 0.935341 0.0184547
-0.387961 -0.0201313 0.921456 0.0270889
-0.369765 -0.0215922 0.928874 0.0164044
-0.347026 -0.00974899 0.937805 0.0050445
-0.355127 -0.0160424 0.93468 0.0180805
-0.368564 -0.013796 0.9295 0.0187998
-0.353005 -0.0213516 0.935378 0.0143746
-0.369991 -0.0135055 0.928937 0.013602
-0.348063 -0.0118913 0.937396 0.00770419
-0.340144 -0.0154419 0.940246 0.00881238
-0.379291 -0.0275878 0.924866 0.0214909
-0.355886 -0.0231286 0.934243 0.0144451
-0.386706 -0.0260026 0.921836 0.0206481
-0.377827 -0.0317426 0.925332 0.0206294
-0.360112 -0.0372599 0.932165 0.0132732
-0.379422 -0.0387234 0.924413 0.014429
-0.369782 -0.0419448 0.928171 0.0127807
-0.354513 -0.0393495 0.934223 0.00659732
-0.342788 -0.0424649 0.938453 0.00235147
-0.369902 -0.0421602 0.928114 0.00501511
-0.364162 -0.0467165 0.930163 0.00443362
-0.354741 -0.052344 0.933498 0.00131911
-0.376326 -0.0417949 0.925544 0
-0.364435 -0.0450603 0.930138 0
-0.355524 -0.0454977 0.933559 0
-0.375663 -0.0465242 0.925588 0.000977985
-0.363049 -0.051254 0.930359 0
-0.358062 -0.0597519 0.931784 0
-0.372007 -0.0492561 0.926922 0
-0.363047 -0.0590052 0.929901 0
-0.370851 -0.0599681 0.926754 0
-0.358704 -0.0701638 0.930811 0
-0.366136 -0.0844746 0.926719 0
-0.361323 -0.090946 0.927995 0
-0.367811 -0.0838796 0.92611 0
-0.363188 -0.0912379 0.927238 0
-0.376996 -0.0944289 0.921389 0
-0.372523 -0.0962844 0.923015 0
-0.365071 -0.0983784 0.925767 0
-0.373494 -0.0916928 0.92309 0
-0.372305 -0.093047 0.923434 0
-0.388069 -0.102239 0.915942 0.00826389
-0.378307 -0.0939155 0.920904 0.00239071
-0.388562 -0.101206 0.915848 0.00738712
-0.383095 -0.0908933 0.919226 0.00688981
-0.380422 -0.101596 0.919216 0.00208426
-0.371284 -0.097943 0.923339 0
-0.381678 -0.106481 0.918142 0
-0.379746 -0.111799 0.91831 0
-0.392088 -0.117474 0.912396 0.0081348
-0.437581 -0.129384 0.889821 0.0133992
-0.431424 -0.126974 0.893169 0.00834336
-0.426821 -0.124724 0.895694 0.000943069
-0.428927 -0.120049 0.895327 0.00459917
-0.444668 -0.119009 0.887754 0.0112876
-0.43573 -0.129458 0.890719 0.00867376
-0.456565 -0.119713 0.881599 0.0119432
-0.444144 -0.119642 0.887931 0.00764735
-0.44206 -0.125498 0.888163 0.0145953
-0.452233 -0.123831 0.883261 0.00899732
-0.449178 -0.122623 0.884987 0.0110581
-0.446155 -0.124352 0.886274 0.0153634
-0.463009 -0.106769 0.8799 0.0135061
-0.471407 -0.115638 0.874302 0.0251811
-0.466813 -0.110887 0.877377 0.013455
-0.448917 -0.10972 0.886811 0.00836524
-0.484051 -0.119939 0.866781 0.0215504
-0.466284 -0.122834 0.876066 0.015275
-0.472107 -0.116702 0.873782 0.0121314
-0.487056 -0.113901 0.865911 0.0126757
-0.479035 -0.112264 0.870587 0.0100239
-0.493315 -0.113035 0.862475 0.00810207
-0.485966 -0.11165 0.866817 0.0123062
-0.492479 -0.105457 0.863912 0.00738996
-0.483086 -0.110349 0.868591 0.0080437
-0.486093 -0.0957439 0.868647 0.000375486
-0.471535 -0.101696 0.875964 0.00233456
-0.482546 -0.0972677 0.870453 0
-0.486442 -0.0939206 0.86865 0
-0.495238 -0.0939138 0.863667 0
-0.502707 -0.0961395 0.859094 0
-0.502705 -0.0922433 0.859522 0.00251195
-0.511976 -0.0872914 0.854553 0.00500808
-0.507698 -0.093961 0.856396 0.00391912
-0.541319 -0.107869 0.833869 0.0144568
-0.538804 -0.102412 0.836183 0.0112948
-0.533586 -0.102602 0.839499 0.00899593
-0.527939 -0.0999041 0.843386 0.0067705
-0.536191 -0.0904946 0.839232 0.00671237
-0.522318 -0.0893291 0.848059 0.00341553
-0.552487 -0.0780908 0.829855 0.0120499
-0.548251 -0.0512685 0.834741 0.00573396
-0.544929 -0.0549336 0.836681 0.0081129
-0.531616 -0.0350534 0.84626 0
-0.539288 -0.0347839 0.841403 0.00486582
-0.531468 -0.0284087 0.846602 0
-0.52376 -0.0260901 0.851466 0
-0.530402 -0.0333617 0.84709 0.000475935
-0.521175 -0.0252236 0.853077 0
-0.528531 -0.034057 0.84823 0.00306982
-0.51829 -0.0240805 0.854866 0
-0.516552 -0.0252871 0.855882 0
-0.509767 -0.0261553 0.859915 0
-0.51279 -0.0188663 0.858307 0.001392
-0.509614 -0.0155782 0.860262 0.00347025
-0.528906 -0.0118715 0.848597 0.0122439
-0.516614 -0.0112485 0.856145 0.0117376
-0.542601 -0.00101648 0.83999 0.0187704
-0.523652 0.00405442 0.851923 0.0116534
-0.516027 0.0129779 0.856474 0.00136983
-0.509115 0.0126443 0.860606 0.00377503
-0.505066 0.0395411 0.862174 0
-0.504543 0.0274244 0.862951 0
-0.516028 0.053832 0.854878 0.00328373
-0.497565 0.0582865 0.865466 0
-0.504787 0.0612465 0.861068 0
-0.491617 0.0704115 0.86796 0.00131472
-0.487856 0.0703652 0.870084 0.00218555
-0.489652 0.087843 0.867482 0.00375438
-0.493776 0.0921617 0.864691 0
-0.480151 0.0992276 0.871556 0
-0.496835 0.0966358 0.862448 0
-0.479362 0.103653 0.871475 0
-0.479532 0.104103 0.871328 0.000547409
-0.477686 0.11556 0.870897 0
-0.47968 0.116227 0.869712 0.00203887
-0.487113 0.121816 0.864801 0.00938859
-0.476573 0.12109 0.870756 0.00210164
-0.491183 0.128675 0.8615 0.0142902
-0.469673 0.145197 0.870818 0
-0.477285 0.13214 0.868756 0.000924447
-0.469603 0.149536 0.870122 0
-0.473208 0.15757 0.866744 0.00335318
-0.47894 0.161553 0.862854 0.00656637
-0.468168 0.162707 0.86853 0.000284216
-0.458132 0.169479 0.872578 0
-0.468536 0.156681 0.86944 0.0108824
-0.45081 0.167833 0.8767 0.00175104
-0.445385 0.17398 0.878273 0.00903824
-0.454462 0.170211 0.874353 0.00511869
-0.444911 0.160074 0.881153 0.0123872
-0.446128 0.17596 0.877501 0.0124971
-0.428885 0.169531 0.887309 0.00339055
-0.419415 0.189004 0.887901 0.00181812
-0.419401 0.190865 0.88751 0.00437686
-0.416088 0.193835 0.888425 0.0148723
-0.409884 0.185508 0.893075 0.0137138
-0.395113 0.190956 0.898566 0.00355309
-0.353397 0.261229 0.898259 0.0112566
0.309991 -0.292065 0.904767 0
-0.119086 -0.281619 0.952108 0.0128902
-0.113555 -0.25337 0.960681 0.0114909
-0.108069 -0.207721 0.9722 0.0142043
-0.10403 -0.205012 0.973215 0.00605457
-0.0882719 -0.310806 0.946366 0.0110406
-0.0881826 -0.294475 0.951582 0.00249698
-0.0853136 -0.298896 0.950464 0.010465
-0.0833842 -0.282082 0.95576 0.0105724
-0.154507 -0.276918 0.94839 0.0058742
-0.149773 -0.289096 0.945511 0.0155251
-0.143571 -0.264815 0.953551 0.0111704
-0.131901 -0.229099 0.964425 0.00538859
-0.117931 -0.281336 0.952335 0.0178282
-0.111575 -0.242502 0.963714 0.0114216
-0.107531 -0.231188 0.966948 0.0121952
0.356631 -0.303676 0.883513 0.0183747
0.365404 -0.313614 0.876428 0.0141242
-0.192526 -0.183992 0.963888 0
-0.180364 -0.156441 0.971079 0
-0.175625 -0.171315 0.969436 0
-0.17128 -0.19575 0.96558 0
-0.162557 -0.227643 0.96008 0
-0.152341 -0.260926 0.953263 0.0117234
-0.147062 -0.254427 0.955845 0.0132664
-0.139761 -0.220017 0.965432 0.00823498
-0.128435 -0.239841 0.962279 0.0166598
0.354524 -0.295192 0.887229 0.0180477
0.370117 -0.311852 0.875078 0.0141362
0.376753 -0.308521 0.873425 0.0174665
-0.24405 -0.232114 0.941575 0.024911
-0.238211 -0.237374 0.941759 0.0199302
-0.217271 -0.220933 0.950779 0.00540938
-0.205837 -0.202549 0.957395 0.000590849
-0.195007 -0.168828 0.966162 0
-0.184116 -0.156828 0.970313 0
0.379099 -0.314577 0.870244 0.0245449
0.385894 -0.323307 0.864036 0.0197354
-0.274136 -0.217653 0.936737 0.0175063
-0.258144 -0.210897 0.942807 0.0111183
-0.251583 -0.215247 0.943597 0.019138
-0.250076 -0.219319 0.94306 0.0253184
-0.237573 -0.217507 0.946705 0.0182634
-0.214511 -0.187191 0.958616 0
-0.205662 -0.184472 0.961079 0
0.380038 -0.301805 0.874348 0.0173779
0.394173 -0.310288 0.865072 0.0252683
-0.285448 -0.184408 0.940486 0.00364137
-0.273056 -0.163271 0.948042 0.000948968
-0.271338 -0.194 0.94273 0.00999403
-0.257858 -0.20019 0.945216 0.00937683
-0.258909 -0.228815 0.938408 0.0214613
-0.248854 -0.222919 0.942539 0.0217308
-0.239242 -0.203405 0.949415 0.0194446
0.389966 -0.30957 0.867233 0.0272804
0.395394 -0.3102 0.864546 0.0255143
-0.294968 -0.183081 0.937803 0.00747778
-0.285966 -0.177523 0.941652 0.00878938
-0.280886 -0.183042 0.942124 0.0096773
-0.26153 -0.160226 0.951804 0
-0.261851 -0.192349 0.945746 0.0107412
0.39361 -0.291421 0.871863 0.02513
-0.302876 -0.180932 0.935698 0.0130212
-0.286419 -0.163403 0.944068 0.00335376
-0.279896 -0.141672 0.94952 0.012123
0.391252 -0.276433 0.877785 0.0219244
-0.296519 -0.159035 0.941692 0.00156482
-0.283249 -0.138986 0.948922 0
0.384168 -0.261215 0.88554 0.018522
0.393358 -0.27061 0.878658 0.0241897
-0.311235 -0.158355 0.937047 0.0203207
0.391729 -0.258227 0.883101 0.0208818
-0.323129 -0.120422 0.938662 0.00754357
0.382701 -0.23845 0.89257 0.016837
-0.333682 -0.117524 0.935331 0.0131078
-0.317058 -0.109978 0.942008 0.0010617
0.384579 -0.223765 0.89556 0.0169605
-0.339298 -0.0931634 0.936054 0.0110163
-0.336222 -0.102719 0.936164 0.0137839
-0.324403 -0.105021 0.940071 0.00556293
0.393329 -0.22555 0.891302 0.0246933
0.399459 -0.220379 0.889868 0.0263019
-0.348019 -0.092528 0.93291 0.0162167
-0.341419 -0.101952 0.934366 0.0132598
-0.344243 -0.108198 0.932625 0.0228732
0.392185 -0.225848 0.891731 0.0277695
0.411426 -0.222886 0.883771 0.0323292
0.441228 -0.234902 0.866105 0.044035
0.459386 -0.233176 0.857085 0.0418125
-0.367366 -0.112833 0.923207 0.0261325
-0.352073 -0.097723 0.930857 0.020903
-0.35498 -0.0983539 0.929686 0.0303972
0.410616 -0.216331 0.885774 0.0327206
0.441873 -0.223803 0.868712 0.0417726
0.434017 -0.217965 0.87414 0.031583
-0.365099 -0.100656 0.925511 0.0207979
-0.371542 -0.114669 0.921307 0.0297898
-0.36106 -0.108026 0.926265 0.0257034
0.425817 -0.201225 0.88215 0.0333441
0.440056 -0.205107 0.874232 0.0351096
-0.373341 -0.105037 0.921729 0.0173448
-0.36156 -0.0936817 0.92763 0.0166592
-0.357392 -0.0947868 0.929132 0.0174716
0.439184 -0.208641 0.873834 0.0412978
0.457365 -0.20943 0.864266 0.0472688
-0.380302 -0.0906928 0.920405 0.0210622
-0.367218 -0.0944212 0.92533 0.0211115
0.462363 -0.21034 0.861381 0.0471216
-0.407804 -0.110146 0.906401 0.027819
-0.389463 -0.0996693 0.915633 0.0238971
-0.382062 -0.0936937 0.919375 0.0232114
-0.405534 -0.0922659 0.909412 0.0270709
-0.395298 -0.0839414 0.914709 0.0258335
-0.390473 -0.0908018 0.916125 0.0249939
-0.411993 -0.080554 0.907619 0.0280978
-0.398974 -0.0752964 0.913865 0.0246965
-0.383975 -0.0673234 0.920886 0.018215
-0.405884 -0.0637438 0.911699 0.0179751
-0.397831 -0.0688433 0.914872 0.0134684
-0.396315 -0.0733263 0.915182 0.017747
-0.408318 -0.0829038 0.909068 0.0350452
-0.408659 -0.0495673 0.91134 0.0179869
-0.395745 -0.0423765 0.917382 0.0131517
-0.387702 -0.0526605 0.920279 0.0135732
-0.383087 -0.0453772 0.922597 0.0184753
-0.378601 -0.0268816 0.92517 0.00371901
-0.377241 -0.0382818 0.925324 0.00907459
-0.378374 -0.0411172 0.924739 0.0122061
-0.38689 -0.0101069 0.92207 0.0105247
-0.394002 -0.024748 0.918776 0.0189997
-0.361388 -0.0170825 0.932259 0
-0.38022 -0.00206822 0.924894 0
-0.375805 0.00309396 0.926693 0.000909919
-0.378479 -0.00266742 0.925606 0.0126023
-0.380663 0.0193493 0.924511 0
-0.373588 0.0216771 0.927341 0
-0.364033 0.0203364 0.931164 0
-0.384776 0.0223018 0.922741 0
-0.379288 0.017918 0.925105 0
-0.366848 0.0268846 0.929893 0
-0.385149 0.0277573 0.922437 0
-0.379612 0.0288803 0.924695 4.64317e-05
-0.375722 0.0347201 0.926082 0
-0.375692 0.0464135 0.925582 0
-0.367646 0.0465218 0.928801 0
-0.370207 0.0512691 0.927534 0
-0.370852 0.0543361 0.927101 0
-0.369808 0.0593258 0.927212 0
-0.374202 0.0677225 0.924871 0
-0.366938 0.0677672 0.927774 0
-0.367097 0.0628939 0.928054 0
-0.368463 0.0811294 0.926096 0
-0.366355 0.0815751 0.926892 0
-0.366007 0.074708 0.927609 0
-0.381094 0.0923028 0.919917 0
-0.380271 0.085706 0.920895 0
-0.37168 0.0869905 0.924276 0
-0.392184 0.0960763 0.914856 0
-0.382641 0.100912 0.918369 0
-0.378929 0.0937567 0.920664 0
-0.376118 0.101236 0.921025 0
-0.390497 0.0998332 0.915175 0
-0.381365 0.0882489 0.920202 0
-0.379318 0.0980042 0.920061 0
-0.378861 0.124615 0.917025 0
-0.382312 0.112517 0.917157 0
-0.375641 0.105407 0.920752 0
-0.383324 0.123472 0.915323 0
-0.380295 0.122675 0.916693 0
-0.373302 0.121596 0.919707 0
-0.382478 0.127725 0.915094 0
-0.378598 0.121325 0.917575 0
-0.384534 0.134216 0.913301 0
-0.38009 0.131031 0.915621 0
-0.384085 0.138101 0.912911 0
-0.379406 0.133654 0.915526 0
-0.383659 0.13553 0.913476 0
-0.379707 0.136312 0.915009 0
-0.378398 0.141441 0.914773 0
-0.370153 0.136726 0.918854 0
-0.37867 0.139282 0.914992 0
-0.374792 0.136467 0.91701 0
-0.352937 0.134001 0.926002 0
0.347731 -0.0460319 0.936464 0.0296285
-0.373672 0.158874 0.913853 0
-0.373605 0.145282 0.91614 0
0.347234 -0.0445718 0.936719 0.0306801
-0.383401 0.14868 0.911536 0
-0.380571 0.151792 0.912209 0
-0.36053 0.142697 0.921768 0
0.331715 -0.0277097 0.942972 0.0228125
0.392799 -0.0441666 0.918563 0.0452835
0.358968 -0.0414873 0.932427 0.0373971
0.371624 -0.0447479 0.927304 0.039561
-0.349257 0.134444 0.927332 0
0.326122 -0.0358622 0.944647 0.0345019
0.334018 -0.0376837 0.941813 0.0330014
-0.349401 0.137646 0.926808 0
0.337389 -0.0416041 0.940445 0.0467632
0.347818 -0.0444839 0.936506 0.0444622
-0.35849 0.133728 0.923906 0
0.317784 -0.0368215 0.947448 0.0398951
0.326466 -0.0378846 0.944449 0.0327236
-0.353259 0.141383 0.92478 0
-0.351435 0.138237 0.92595 0
0.306673 -0.0386242 0.951031 0.0351103
0.329219 -0.0447023 0.943195 0.0351143
-0.355643 0.129368 0.925625 0
-0.346441 0.140355 0.927512 0
0.314081 -0.0496736 0.948096 0.03542
-0.355761 0.129152 0.92561 0
-0.353748 0.132029 0.925976 0
-0.347563 0.150933 0.925429 0
0.300502 -0.0470341 0.952621 0.0247996
-0.35766 0.143704 0.922729 0
-0.354897 0.138949 0.924522 0
-0.354624 0.139803 0.924498 0.00531536
0.29792 -0.039492 0.953774 0.0293685
-0.359168 0.14432 0.922047 0
-0.357581 0.143965 0.922719 0
-0.352035 0.148365 0.924153 0
-0.339384 0.147945 0.928941 0
0.276202 -0.0380714 0.960345 0.0110035
-0.363082 0.130254 0.922608 0
-0.350669 0.138495 0.926202 0
-0.339237 0.136188 0.930791 0
-0.357137 0.119652 0.926357 0
-0.347613 0.122552 0.929595 0
-0.34239 0.119414 0.931938 0
-0.328992 0.12344 0.93623 0
-0.368003 0.106199 0.92374 0.0107531
