# .PCD v0.7 - Point Cloud Data file format
VERSION 0.7
FIELDS x y z
SIZE 4 4 4
TYPE F F F
COUNT 1 1 1
WIDTH 1330
HEIGHT 1
VIEWPOINT 0 0 0 1 0 0 0
POINTS 1330
DATA ascii
-0.059138998 -0.25163099 -0.39498901
-0.058910999 -0.25164601 -0.394997
-0.058626 -0.25165299 -0.39498699
-0.058110252 -0.25166675 -0.39496398
-0.057969999 -0.25169334 -0.394972
-0.057616998 -0.25171301 -0.39494267
-0.057483334 -0.2517145 -0.39494264
-0.057338331 -0.25172034 -0.39495268
-0.057117499 -0.25169498 -0.394934
-0.056888163 -0.25168118 -0.39493883
-0.056718331 -0.25168067 -0.39493868
-0.056508601 -0.2517086 -0.39493242
-0.056256 -0.25169149 -0.39493474
-0.056081165 -0.25172266 -0.39491019
-0.055917162 -0.25169432 -0.39490548
-0.05569075 -0.25170675 -0.39490047
-0.055555668 -0.25167966 -0.39489365
-0.055240333 -0.25169936 -0.39492333
-0.055108417 -0.2517145 -0.39491263
-0.054784 -0.251652 -0.39493299
-0.054255001 -0.25164849 -0.3949765
-0.054073002 -0.251701 -0.39497301
-0.05392383 -0.25167131 -0.39497149
-0.05371625 -0.25168025 -0.39497325
-0.053585 -0.251652 -0.39498901
-0.060084 -0.25146699 -0.39498901
-0.059893001 -0.25143999 -0.39498499
-0.05967525 -0.25148174 -0.39496699
-0.059486248 -0.25148797 -0.39495525
-0.059295248 -0.251495 -0.3949585
-0.059133999 -0.25151551 -0.39496201
-0.058905002 -0.25149199 -0.39495635
-0.058653198 -0.25148618 -0.39497536
-0.058502335 -0.25148499 -0.39498296
-0.058290109 -0.25152078 -0.39495409
-0.058129001 -0.2514925 -0.39492249
-0.057962 -0.25150102 -0.39492202
-0.057607334 -0.25148335 -0.39489102
-0.057474166 -0.25148368 -0.3948755
-0.057330001 -0.25148666 -0.39486334
-0.057110336 -0.25150099 -0.39486197
-0.056881003 -0.251488 -0.39487901
-0.05671075 -0.25148875 -0.39488897
-0.056569502 -0.25149798 -0.39488199
-0.056331664 -0.251524 -0.39486864
-0.056113143 -0.25148657 -0.3948327
-0.055909891 -0.25150046 -0.39483798
-0.055683505 -0.251513 -0.39483067
-0.0555485 -0.251486 -0.39483601
-0.055234 -0.25150299 -0.39483702
-0.055092908 -0.25149047 -0.3948366
-0.054778997 -0.25149599 -0.39486834
-0.054250002 -0.25149149 -0.39490402
-0.054102503 -0.251504 -0.39491099
-0.053906139 -0.25150245 -0.39492702
-0.053708166 -0.25148851 -0.39492381
-0.053531002 -0.25150481 -0.3949587
-0.053323142 -0.25150058 -0.39497113
-0.053135499 -0.25146699 -0.394995
-0.061050497 -0.25122499 -0.3949835
-0.06089 -0.25123101 -0.39499003
-0.060258333 -0.25129065 -0.39498031
-0.0601192 -0.25130358 -0.39496878
-0.059887003 -0.25128266 -0.39492965
-0.059667837 -0.25128916 -0.39490888
-0.059478831 -0.25129583 -0.39490017
-0.059287667 -0.25130233 -0.39490733
-0.059126664 -0.25132236 -0.39489999
-0.058897503 -0.2512995 -0.39489698
-0.058654997 -0.25130799 -0.39492249
-0.058472198 -0.2512964 -0.3949188
-0.058280554 -0.25129056 -0.39490011
-0.058121171 -0.25130215 -0.39488199
-0.057953998 -0.25131002 -0.39487532
-0.057601999 -0.25132701 -0.39482701
-0.057512332 -0.25130033 -0.39480868
-0.057324 -0.25133201 -0.39481699
-0.057105001 -0.25134501 -0.394802
-0.056888003 -0.25134501 -0.39482331
-0.056705751 -0.25133225 -0.39482149
-0.0565635 -0.25134349 -0.3948355
-0.056391999 -0.251389 -0.39482301
-0.056194 -0.251329 -0.39481199
-0.055909999 -0.25134599 -0.394802
-0.055629998 -0.25136501 -0.394802
-0.055544 -0.25137299 -0.39481199
-0.055227499 -0.25135249 -0.3948195
-0.0551304 -0.25132522 -0.39481461
-0.054774001 -0.25134099 -0.39480299
-0.054242332 -0.25129965 -0.39485434
-0.054095 -0.25131235 -0.39485836
-0.053919248 -0.251315 -0.39487249
-0.053700998 -0.25129625 -0.39486951
-0.05352325 -0.25131249 -0.39490452
-0.053304441 -0.25129202 -0.39491332
-0.053129334 -0.25131249 -0.39495203
-0.052886002 -0.25125399 -0.39499599
-0.061914999 -0.25102448 -0.39499649
-0.061690599 -0.25106302 -0.39498478
-0.061523497 -0.25107902 -0.39498299
-0.061280999 -0.25108999 -0.394961
-0.061099872 -0.25110328 -0.39494228
-0.0609212 -0.25109181 -0.39495164
-0.060707834 -0.25108615 -0.394954
-0.0602425 -0.25111285 -0.39493653
-0.060121998 -0.25111845 -0.3949188
-0.059879001 -0.25109398 -0.394894
-0.0596595 -0.2511 -0.3948755
-0.059471 -0.25110525 -0.3948555
-0.059265595 -0.251091 -0.3948752
-0.059117332 -0.25109401 -0.39485201
-0.058890332 -0.25110766 -0.39484
-0.058648165 -0.25111452 -0.3948555
-0.058481604 -0.25111121 -0.3948752
-0.058272164 -0.25110033 -0.39486682
-0.058112253 -0.25111175 -0.39484701
-0.057944667 -0.25107932 -0.39481899
-0.057507999 -0.251176 -0.39480099
-0.054235999 -0.251147 -0.39481601
-0.054088999 -0.251158 -0.39480901
-0.053888194 -0.25114122 -0.3948206
-0.053692997 -0.2511045 -0.39482436
-0.053516667 -0.25111884 -0.39483464
-0.053297501 -0.25109914 -0.39485237
-0.053109996 -0.2510992 -0.39489439
-0.052880663 -0.25109833 -0.39493167
-0.052681752 -0.25108951 -0.39496827
-0.062619001 -0.25082901 -0.394977
-0.062422 -0.25084201 -0.39499101
-0.0622085 -0.2508865 -0.39498699
-0.061910503 -0.250911 -0.394968
-0.061690249 -0.2508876 -0.39493462
-0.061515998 -0.25088599 -0.39492598
-0.061273336 -0.25089851 -0.39491132
-0.061092082 -0.25091225 -0.39489451
-0.0609308 -0.25090617 -0.39489561
-0.060700253 -0.250893 -0.39489651
-0.060232997 -0.25088215 -0.39487648
-0.060112555 -0.25088856 -0.39486298
-0.059870999 -0.25090203 -0.39484397
-0.0596614 -0.25092357 -0.39484119
-0.059481859 -0.25090358 -0.39482769
-0.059282202 -0.25090799 -0.3948524
-0.059108499 -0.2509045 -0.394824
-0.058878999 -0.250882 -0.39482966
-0.058684498 -0.25092101 -0.39480701
-0.058494497 -0.2509205 -0.39481899
-0.058271751 -0.2509205 -0.39483827
-0.058143605 -0.25091881 -0.39482439
-0.0535095 -0.250967 -0.39481351
-0.05327975 -0.25091961 -0.39482701
-0.053123999 -0.25091138 -0.3948476
-0.052872501 -0.250907 -0.39489099
-0.052651837 -0.25088117 -0.39492986
-0.052487332 -0.25084701 -0.39498663
-0.062648602 -0.25069299 -0.39497659
-0.062415 -0.250691 -0.39496601
-0.062204 -0.250772 -0.39496499
-0.062197998 -0.25066 -0.39496201
-0.061902002 -0.25072113 -0.394936
-0.061705004 -0.25070444 -0.39490956
-0.061507002 -0.250698 -0.394907
-0.061286334 -0.25071967 -0.39488468
-0.061105229 -0.25068423 -0.39487791
-0.060924999 -0.25068456 -0.394871
-0.060710598 -0.2507174 -0.39485878
-0.060600001 -0.25063199 -0.394844
-0.0602515 -0.2506915 -0.39484102
-0.060127627 -0.25069812 -0.39483523
-0.059860002 -0.25067735 -0.39482701
-0.059688669 -0.25068036 -0.39480832
-0.059547499 -0.2507605 -0.394813
-0.059283335 -0.25074634 -0.39483437
-0.059197001 -0.25069901 -0.39480299
-0.058871999 -0.25073099 -0.39480901
-0.05841 -0.25067401 -0.394802
-0.058325 -0.25075799 -0.39480099
-0.058171 -0.25076449 -0.39481401
-0.053131752 -0.25071499 -0.39481375
-0.052864667 -0.25071564 -0.39484033
-0.052644253 -0.25069049 -0.394887
-0.052464999 -0.25070775 -0.3949455
-0.063607 -0.250404 -0.394997
-0.063296497 -0.250458 -0.39499649
-0.062942401 -0.25050321 -0.39498243
-0.06270463 -0.25051486 -0.39495689
-0.062407501 -0.25049949 -0.394914
-0.062190503 -0.25051051 -0.39495099
-0.061891168 -0.25049534 -0.39491034
-0.061726835 -0.25049832 -0.39488831
-0.061546832 -0.25050667 -0.39488384
-0.061318334 -0.25051701 -0.39487365
-0.061121251 -0.25049412 -0.39486074
-0.060934167 -0.25050533 -0.39484167
-0.060772002 -0.25050849 -0.39482647
-0.060595497 -0.25051701 -0.3948195
-0.060241997 -0.25050369 -0.39482832
-0.060125362 -0.25051758 -0.394831
-0.059850998 -0.25048798 -0.394813
-0.052857999 -0.25056401 -0.39481601
-0.052677665 -0.25049734 -0.39484498
-0.052502558 -0.250512 -0.39488801
-0.052228 -0.25046301 -0.39500001
-0.06363 -0.25027701 -0.39498934
-0.063429996 -0.250267 -0.39499301
-0.063289247 -0.25030774 -0.3949815
-0.063130006 -0.25025874 -0.39497375
-0.062920667 -0.25029084 -0.3949385
-0.062729172 -0.25029334 -0.39490548
-0.062547252 -0.25032073 -0.3948915
-0.0623965 -0.25027198 -0.394887
-0.062181998 -0.250321 -0.39492467
-0.061882503 -0.25030625 -0.39488724
-0.061718501 -0.25030899 -0.3948575
-0.0615278 -0.25029421 -0.3948454
-0.0613105 -0.25032651 -0.39482799
-0.061133124 -0.25032961 -0.39481911
-0.060898401 -0.25034636 -0.39481321
-0.060764998 -0.250357 -0.39480799
-0.060230002 -0.25027966 -0.39482799
-0.06013222 -0.250285 -0.39482388
-0.059843503 -0.25033951 -0.39480698
-0.052668497 -0.25030851 -0.394824
-0.0525405 -0.25028017 -0.39484033
-0.052309003 -0.2503005 -0.39491549
-0.052111 -0.25024 -0.39499599
-0.063987002 -0.25001499 -0.39499801
-0.063723996 -0.25009868 -0.39497748
-0.063509226 -0.25010866 -0.39495355
-0.063281506 -0.25011635 -0.3949275
-0.063143499 -0.25011051 -0.39491209
-0.062913001 -0.25009951 -0.39488751
-0.062720753 -0.25010377 -0.39487076
-0.0625875 -0.25010902 -0.39485401
-0.062387664 -0.25008431 -0.394869
-0.062170338 -0.25009832 -0.39492369
-0.061873499 -0.25011766 -0.39486399
-0.061719 -0.25013581 -0.39483643
-0.061539203 -0.25011161 -0.3948108
-0.060221002 -0.25009251 -0.39481801
-0.060121667 -0.25009966 -0.39483401
-0.052531749 -0.25009051 -0.39481503
-0.052282602 -0.25008899 -0.39488021
-0.052104998 -0.25008667 -0.39496002
-0.0640295 -0.249902 -0.39499849
-0.063917495 -0.24990381 -0.39498866
-0.063715003 -0.24990951 -0.394952
-0.063488998 -0.24989215 -0.39491674
-0.063270666 -0.24988984 -0.39489937
-0.063127331 -0.24989533 -0.39489233
-0.062904 -0.24991132 -0.39486918
-0.06271217 -0.24991433 -0.39483801
-0.062578663 -0.24991965 -0.39482367
-0.062379502 -0.24989399 -0.39482701
-0.062160499 -0.249911 -0.39491802
-0.061862335 -0.24989434 -0.39485833
-0.061718751 -0.24987599 -0.39481527
-0.060215 -0.24998 -0.39480701
-0.0601012 -0.24990711 -0.39483601
-0.052263666 -0.24992234 -0.39484599
-0.052097499 -0.2498945 -0.394907
-0.051603001 -0.24989399 -0.394995
-0.051600002 -0.249816 -0.394979
-0.064665005 -0.24970749 -0.394988
-0.06402 -0.24971533 -0.39499068
-0.063908234 -0.2497171 -0.39497483
-0.063706331 -0.24972183 -0.39493585
-0.063502289 -0.24970973 -0.39491099
-0.063261747 -0.24970199 -0.39488301
-0.063110001 -0.24969316 -0.39487872
-0.06289316 -0.24968617 -0.39484385
-0.062723741 -0.24970776 -0.394822
-0.062572002 -0.249769 -0.394811
-0.062374 -0.249781 -0.39481199
-0.062155001 -0.2498 -0.39491701
-0.061852001 -0.2497085 -0.39486524
-0.061703667 -0.24972133 -0.39481434
-0.060090799 -0.2496978 -0.39482689
-0.059997 -0.249661 -0.39482099
-0.052141998 -0.2497025 -0.39486066
-0.051535998 -0.249694 -0.39496598
-0.065027505 -0.24942601 -0.39497352
-0.064900748 -0.24945275 -0.39498198
-0.064700164 -0.24951684 -0.39496985
-0.064009003 -0.24949066 -0.394981
-0.063896663 -0.24949281 -0.39496881
-0.063694827 -0.24949749 -0.39492384
-0.063522667 -0.24950416 -0.39489818
-0.063301116 -0.24951243 -0.39485767
-0.063114747 -0.24951001 -0.39485836
-0.062884755 -0.24949701 -0.39481649
-0.062736005 -0.24950051 -0.394804
-0.061843667 -0.24951933 -0.3948338
-0.061726 -0.249594 -0.394804
-0.0600705 -0.249542 -0.39482099
-0.059990998 -0.249549 -0.394811
-0.052106 -0.24949574 -0.3948375
-0.051499665 -0.24951816 -0.39493766
-0.051316999 -0.249458 -0.39499301
-0.065074801 -0.24931379 -0.3949638
-0.0649058 -0.24928097 -0.3949421
-0.064690001 -0.24928983 -0.394936
-0.064204663 -0.24932401 -0.39496699
-0.064050004 -0.24929875 -0.39498675
-0.063903712 -0.24929957 -0.39494827
-0.063685998 -0.24930924 -0.39489901
-0.06351167 -0.24927884 -0.39487815
-0.063301504 -0.24929751 -0.39484075
-0.063108191 -0.24928661 -0.39483401
-0.062907502 -0.249327 -0.39480752
-0.062133498 -0.2493055 -0.39481902
-0.052072 -0.24932501 -0.39481199
-0.0515076 -0.24930461 -0.39489761
-0.051282145 -0.24929559 -0.39496216
-0.051130001 -0.249244 -0.39499101
-0.066744 -0.249029 -0.39500001
-0.066487335 -0.24911501 -0.39499131
-0.065640002 -0.249011 -0.39499101
-0.065522 -0.2490772 -0.39498222
-0.065369003 -0.249102 -0.39497831
-0.065084495 -0.24911635 -0.394945
-0.064911775 -0.24910389 -0.39491931
-0.0646815 -0.24910074 -0.39490175
-0.064109661 -0.24910289 -0.39494634
-0.063906826 -0.24911608 -0.39492998
-0.063676499 -0.24912201 -0.39488983
-0.063502751 -0.24909151 -0.39486098
-0.063324258 -0.24910098 -0.39483726
-0.063125998 -0.24910986 -0.39482042
-0.051568002 -0.24909499 -0.3948445
-0.051299572 -0.24909957 -0.39493769
-0.051119331 -0.24906667 -0.39497384
-0.067037001 -0.248862 -0.39499801
-0.066957332 -0.24889235 -0.39499268
-0.066737331 -0.24887867 -0.39497635
-0.066476338 -0.24889033 -0.39497766
-0.066203505 -0.2488665 -0.3949725
-0.066135496 -0.24887049 -0.394986
-0.065954499 -0.24885599 -0.3949815
-0.065663666 -0.24888666 -0.39497998
-0.065505251 -0.24890549 -0.39495701
-0.065360501 -0.248913 -0.39493948
-0.065073825 -0.2488905 -0.39491701
-0.064908184 -0.24891073 -0.39489564
-0.064691141 -0.24890128 -0.39487714
-0.064091429 -0.24889715 -0.39489585
-0.063929446 -0.2488891 -0.39491469
-0.063708559 -0.24889711 -0.39488178
-0.063493997 -0.24890234 -0.39483181
-0.063319504 -0.248987 -0.39481598
-0.051558331 -0.248908 -0.39484501
-0.0513466 -0.2489076 -0.39489841
-0.051098373 -0.24890475 -0.39496902
-0.0509605 -0.24884349 -0.39498752
-0.067086875 -0.24869713 -0.39498851
-0.066932835 -0.24871801 -0.39497247
-0.066727504 -0.24869099 -0.394968
-0.066467501 -0.248703 -0.39495099
-0.066097818 -0.24869162 -0.3949441
-0.065926857 -0.24871556 -0.3949587
-0.065701753 -0.2487005 -0.39495197
-0.065496996 -0.24871551 -0.39491948
-0.065352 -0.24872465 -0.39491466
-0.06506525 -0.24870275 -0.39489302
-0.06491486 -0.24869916 -0.39486971
-0.064705998 -0.24868509 -0.39485243
-0.064091571 -0.24872129 -0.39485189
-0.063923337 -0.24869566 -0.3948305
-0.063700832 -0.24870716 -0.39483666
-0.063529 -0.24874701 -0.39481401
-0.051547002 -0.24868302 -0.39482799
-0.0513275 -0.24869718 -0.39488032
-0.051096093 -0.24870881 -0.39495346
-0.050953001 -0.248693 -0.39497599
-0.068201996 -0.24856099 -0.39499301
-0.068144754 -0.24849075 -0.39499426
-0.067970999 -0.248432 -0.394995
-0.067456 -0.248456 -0.394997
-0.067076869 -0.248491 -0.39497635
-0.066922329 -0.24849169 -0.39494717
-0.066719331 -0.24850233 -0.39493465
-0.066458002 -0.24851601 -0.39495
-0.066108003 -0.24850644 -0.39490658
-0.06594 -0.24851349 -0.39491251
-0.06570255 -0.24848334 -0.39491466
-0.065486833 -0.24848934 -0.39488253
-0.065342002 -0.24849766 -0.39487532
-0.065056503 -0.24851365 -0.39486635
-0.064919002 -0.24851637 -0.39483911
-0.064696997 -0.24849683 -0.39483437
-0.064045504 -0.2485725 -0.39482
-0.063895002 -0.24853739 -0.3948088
-0.063735835 -0.24851882 -0.39482096
-0.051537998 -0.248495 -0.394815
-0.05131875 -0.24850824 -0.39485502
-0.0510948 -0.2484962 -0.39492258
-0.050964396 -0.2484878 -0.3949708
-0.067963667 -0.24828367 -0.39498702
-0.067668244 -0.24826075 -0.3949855
-0.067492664 -0.24830516 -0.39498019
-0.067352004 -0.24831165 -0.39496732
-0.067092001 -0.24830744 -0.39495087
-0.066913247 -0.2483045 -0.39492249
-0.066708662 -0.24827667 -0.39490804
-0.06644734 -0.24829067 -0.39492401
-0.066088416 -0.24830757 -0.39489022
-0.065931834 -0.24832435 -0.39487183
-0.065693326 -0.24829601 -0.39489698
-0.065477252 -0.248303 -0.39487651
-0.065332994 -0.24831 -0.394849
-0.06506975 -0.24830401 -0.39484924
-0.06492009 -0.2482921 -0.39481801
-0.064713858 -0.24831888 -0.39481926
-0.064597994 -0.2482765 -0.394813
-0.051532 -0.248382 -0.39480799
-0.051309001 -0.248321 -0.39485118
-0.051096171 -0.24829882 -0.39489999
-0.050955199 -0.24829081 -0.39494258
-0.068262003 -0.24811 -0.39500001
-0.068062998 -0.24811034 -0.3949922
-0.067954496 -0.248096 -0.39497602
-0.067651793 -0.24808881 -0.39496678
-0.067481995 -0.24808015 -0.39495733
-0.067341328 -0.24808668 -0.394941
-0.067078374 -0.24811463 -0.39493963
-0.066917568 -0.24810615 -0.39491472
-0.066698998 -0.24809 -0.39489949
-0.066438004 -0.24810401 -0.39491951
-0.066093303 -0.24808982 -0.39488381
-0.065939873 -0.248088 -0.39485738
-0.065709434 -0.24811971 -0.39488798
-0.065500125 -0.24810463 -0.3948639
-0.065323673 -0.24812435 -0.39484835
-0.065082505 -0.24809551 -0.39484298
-0.064907722 -0.248108 -0.39481229
-0.0647306 -0.24809818 -0.39480641
-0.051297832 -0.24809615 -0.39483729
-0.051086221 -0.24811199 -0.39489865
-0.050956599 -0.24811061 -0.39494318
-0.068294495 -0.24784726 -0.39499199
-0.068091504 -0.24788788 -0.39499027
-0.067969836 -0.24790584 -0.3949717
-0.067659996 -0.2479082 -0.39495221
-0.067472249 -0.2478935 -0.39495075
-0.067332 -0.24789999 -0.39492899
-0.067082204 -0.24789318 -0.39492321
-0.06692522 -0.24789146 -0.39490423
-0.066689998 -0.247904 -0.39489567
-0.066428661 -0.24791633 -0.39489898
-0.066093333 -0.24789466 -0.39488518
-0.065929003 -0.24788339 -0.39485514
-0.065715834 -0.24788584 -0.39488217
-0.065499991 -0.24788965 -0.39485976
-0.065311998 -0.24790032 -0.39484534
-0.065073997 -0.24790633 -0.394806
-0.064982504 -0.247958 -0.39481199
-0.051288247 -0.2479085 -0.394831
-0.051075444 -0.24788567 -0.39487469
-0.050941002 -0.24790001 -0.39492771
-0.068901494 -0.24766949 -0.39498851
-0.068605006 -0.247685 -0.39499301
-0.068494245 -0.24770799 -0.3949945
-0.068287998 -0.24769601 -0.3949655
-0.068091504 -0.24770899 -0.39496684
-0.067958497 -0.24768132 -0.39496002
-0.067662746 -0.24771774 -0.39495173
-0.067496374 -0.24769688 -0.39494374
-0.067322336 -0.24771301 -0.39492869
-0.067095198 -0.24771181 -0.3949118
-0.066915996 -0.24770516 -0.39489302
-0.066678673 -0.247679 -0.39488101
-0.066417001 -0.24769334 -0.39489365
-0.066083446 -0.24771002 -0.394894
-0.065932706 -0.24770455 -0.39487687
-0.065706 -0.24770051 -0.39488599
-0.065490164 -0.24770367 -0.39486066
-0.065301001 -0.247676 -0.39482701
-0.065067001 -0.247759 -0.39480799
-0.051278997 -0.24772084 -0.39481798
-0.051066 -0.24769817 -0.39486882
-0.050925396 -0.24769001 -0.39491281
-0.0688935 -0.24752051 -0.39499402
-0.068673998 -0.24742199 -0.39499399
-0.068506852 -0.24751286 -0.39498642
-0.068277664 -0.24751149 -0.39498034
-0.068082228 -0.24752191 -0.39495501
-0.067949504 -0.247494 -0.39494401
-0.067673996 -0.247509 -0.39493299
-0.067496777 -0.24748124 -0.39493054
-0.067310996 -0.24748933 -0.39491901
-0.067073502 -0.24750383 -0.39490449
-0.066906892 -0.24751721 -0.39487857
-0.066669002 -0.24749351 -0.394878
-0.066407993 -0.24750701 -0.39489102
-0.066071779 -0.24748598 -0.39488801
-0.065915108 -0.24750201 -0.39486277
-0.0656965 -0.24751349 -0.39487788
-0.065525174 -0.24751203 -0.39483848
-0.065352403 -0.2475086 -0.39482921
-0.051267501 -0.2474965 -0.39481631
-0.051073283 -0.24752115 -0.39486188
-0.050946858 -0.2474997 -0.39489299
-0.068882003 -0.247298 -0.3949855
-0.068668 -0.247308 -0.3949835
-0.068519428 -0.24726772 -0.39498588
-0.068266332 -0.24728782 -0.39497164
-0.068070561 -0.24729854 -0.39495113
-0.067940168 -0.247307 -0.39493403
-0.067663997 -0.24732535 -0.39494768
-0.067505598 -0.24730138 -0.39491901
-0.067334004 -0.24728768 -0.39490131
-0.067062333 -0.24728017 -0.39488897
-0.066895328 -0.24729344 -0.3948701
-0.066660337 -0.24730533 -0.39485332
-0.066402003 -0.24739499 -0.39488399
-0.066395998 -0.247284 -0.39488202
-0.066062175 -0.24730033 -0.39488399
-0.065898009 -0.24728787 -0.39484614
-0.065686166 -0.2472875 -0.39484736
-0.065513663 -0.24728917 -0.39483187
-0.065332167 -0.24729998 -0.39481699
-0.051257249 -0.2473105 -0.394822
-0.051074166 -0.24728383 -0.39483547
-0.05093611 -0.24729654 -0.39488557
-0.068872668 -0.24710999 -0.39497635
-0.068698339 -0.24712001 -0.39498401
-0.068529747 -0.24709001 -0.39497077
-0.068284601 -0.24710819 -0.39497739
-0.068069838 -0.247099 -0.39494535
-0.067945123 -0.24707325 -0.39494127
-0.067651995 -0.24710132 -0.394941
-0.067521669 -0.24710833 -0.39492652
-0.067341171 -0.24711281 -0.39490151
-0.067072339 -0.247104 -0.39487898
-0.066901572 -0.24710071 -0.39487058
-0.066648334 -0.24708234 -0.39485368
-0.066386335 -0.24709767 -0.39488232
-0.066082336 -0.2471105 -0.39486599
-0.065930597 -0.24710898 -0.39484856
-0.065676749 -0.24710076 -0.39483675
-0.065504 -0.24710324 -0.39483076
-0.065340005 -0.24712433 -0.39480734
-0.051257402 -0.24713778 -0.39481941
-0.051091801 -0.2470872 -0.39482179
-0.05091814 -0.24709442 -0.39488629
-0.068860665 -0.246888 -0.39497831
-0.068686999 -0.24689634 -0.3949815
-0.068520166 -0.24690334 -0.39496398
-0.068305127 -0.24692225 -0.39497212
-0.068106331 -0.24689816 -0.39494982
-0.067941003 -0.24689765 -0.39495102
-0.067640662 -0.24687833 -0.39493835
-0.067510329 -0.24688368 -0.39492139
-0.067328669 -0.24689001 -0.39490983
-0.067097001 -0.246904 -0.39489898
-0.066940337 -0.24691767 -0.39487776
-0.066732801 -0.2469136 -0.39485699
-0.066374332 -0.246875 -0.39488664
-0.066071332 -0.246886 -0.39485201
-0.065924399 -0.24689391 -0.39484471
-0.065667666 -0.24691384 -0.39482298
-0.065494992 -0.2469155 -0.39481387
-0.065360002 -0.24685 -0.394802
-0.051281001 -0.24689633 -0.39481401
-0.051099781 -0.24690825 -0.39483419
-0.050923001 -0.24691238 -0.39487889
-0.068852 -0.2467 -0.39495799
-0.068668 -0.2466892 -0.39498001
-0.068508998 -0.2466795 -0.39495364
-0.068327837 -0.24668783 -0.394972
-0.068109661 -0.24669889 -0.39495486
-0.067931555 -0.24671109 -0.39494455
-0.067631006 -0.246692 -0.39493001
-0.067500502 -0.24669799 -0.3949205
-0.067318752 -0.24670501 -0.394916
-0.067085676 -0.24667901 -0.39488232
-0.066928655 -0.24669446 -0.39487344
-0.066706665 -0.24670601 -0.39485168
-0.066365004 -0.2466875 -0.39488
-0.066061243 -0.2467005 -0.3948535
-0.065891095 -0.24668752 -0.3948496
-0.065655664 -0.24669117 -0.39482519
-0.065482832 -0.24669349 -0.39481965
-0.065351337 -0.246702 -0.39480901
-0.051272001 -0.24671 -0.39480901
-0.051099502 -0.24669263 -0.39482611
-0.050914299 -0.24669011 -0.3948755
-0.068895005 -0.2464952 -0.39497241
-0.068674199 -0.24650979 -0.39498419
-0.068499252 -0.246494 -0.39495575
-0.068318248 -0.246502 -0.39496452
-0.068088621 -0.24648626 -0.39495286
-0.067920119 -0.24648754 -0.39493597
-0.067621998 -0.24650501 -0.39491799
-0.067490496 -0.24651283 -0.39492235
-0.067309335 -0.24651916 -0.39491317
-0.067076996 -0.246493 -0.39486599
-0.066910997 -0.24649414 -0.39487511
-0.066695005 -0.24648334 -0.39485332
-0.066356003 -0.24650133 -0.39486432
-0.066051163 -0.2465155 -0.394858
-0.065896548 -0.24650523 -0.3948541
-0.065645501 -0.2465065 -0.39483601
-0.065472998 -0.24650851 -0.3948265
-0.065289333 -0.24648182 -0.39480984
-0.0512635 -0.24655899 -0.39480901
-0.051121503 -0.24649349 -0.39481777
-0.050910223 -0.24649811 -0.39487422
-0.068830006 -0.24629299 -0.39497301
-0.068655163 -0.24630167 -0.39498052
-0.068488836 -0.24630882 -0.39496768
-0.068308175 -0.24631618 -0.39496899
-0.068100289 -0.24630585 -0.39495471
-0.067909665 -0.24630232 -0.39494786
-0.067610003 -0.246282 -0.39492202
-0.067479335 -0.24628901 -0.39491299
-0.067298166 -0.24629517 -0.39489582
-0.067066997 -0.24630733 -0.39487132
-0.066914625 -0.24631351 -0.394878
-0.066685006 -0.24629699 -0.39485249
-0.066344 -0.246278 -0.39486536
-0.066039659 -0.2462915 -0.39485499
-0.065885372 -0.24631372 -0.39484856
-0.065707006 -0.2463015 -0.39484099
-0.065507114 -0.24632078 -0.39481944
-0.065279499 -0.24629675 -0.39481175
-0.05125 -0.24629933 -0.39480963
-0.051111668 -0.24630718 -0.39482352
-0.050915994 -0.24631582 -0.39487484
-0.068819001 -0.246108 -0.39498699
-0.068644166 -0.24607885 -0.39497384
-0.068477169 -0.24608617 -0.3949708
-0.0682965 -0.24609382 -0.39497268
-0.068088129 -0.246114 -0.39496049
-0.067909807 -0.24610858 -0.39494729
-0.067602001 -0.24613599 -0.394934
-0.067494601 -0.24609558 -0.39492822
-0.067287743 -0.24610975 -0.3949075
-0.067054667 -0.246086 -0.39488235
-0.066896781 -0.24610199 -0.39488664
-0.066714503 -0.24612924 -0.39486501
-0.066596001 -0.246079 -0.39485002
-0.066334501 -0.24609201 -0.394858
-0.066063002 -0.246105 -0.39486501
-0.065910459 -0.24608801 -0.3948597
-0.065727167 -0.24609466 -0.39484397
-0.065494776 -0.24609944 -0.39483634
-0.065260001 -0.2461268 -0.39481822
-0.063937999 -0.246039 -0.39480099
-0.051240001 -0.246112 -0.39481351
-0.051099166 -0.24608451 -0.39484084
-0.050897669 -0.24609925 -0.39487395
-0.068810008 -0.24592267 -0.39498666
-0.068673506 -0.245892 -0.39499301
-0.068509497 -0.24589898 -0.39497498
-0.068286248 -0.24590901 -0.39498052
-0.068102993 -0.24588199 -0.39498234
-0.067913339 -0.24589384 -0.3949672
-0.06750267 -0.24591677 -0.39493033
-0.067277834 -0.24592467 -0.39491251
-0.067044005 -0.245901 -0.39489102
-0.06687963 -0.24588788 -0.39488336
-0.066740662 -0.245885 -0.39486733
-0.06658601 -0.245894 -0.39485666
-0.066323996 -0.24590766 -0.39487267
-0.066054009 -0.24591899 -0.39485967
-0.065916106 -0.2459071 -0.39487287
-0.06571725 -0.24590901 -0.39484525
-0.065498501 -0.24590033 -0.39484116
-0.065288574 -0.24586602 -0.39483601
-0.051229998 -0.24592501 -0.39480799
-0.051089503 -0.2458975 -0.39483672
-0.050876301 -0.24589129 -0.39488453
-0.050471667 -0.24590135 -0.39497831
-0.068801001 -0.245775 -0.394999
-0.068793997 -0.245626 -0.39499301
-0.068499669 -0.24571334 -0.39497244
-0.068322994 -0.245721 -0.39498165
-0.068093002 -0.24569601 -0.39498475
-0.067894891 -0.2456962 -0.39496523
-0.067502871 -0.24570201 -0.39492488
-0.067284428 -0.24569128 -0.39492658
-0.067033999 -0.24571466 -0.39489636
-0.066883288 -0.24570727 -0.39488643
-0.066731006 -0.2457 -0.39486998
-0.066575006 -0.2457085 -0.39487201
-0.066312008 -0.24568467 -0.39488235
-0.066041671 -0.24569635 -0.3948687
-0.065897413 -0.24570884 -0.3948628
-0.065707333 -0.24572299 -0.39484635
-0.065525994 -0.24571161 -0.39484879
-0.065341502 -0.2456985 -0.39484498
-0.065197006 -0.24570701 -0.39483202
-0.064952999 -0.245601 -0.394804
-0.051217999 -0.24570198 -0.39481732
-0.051079333 -0.24571018 -0.39483848
-0.050896667 -0.24571599 -0.39487779
-0.050797999 -0.245658 -0.39487201
-0.050459668 -0.24567699 -0.39498267
-0.068786003 -0.24547799 -0.394995
-0.068500854 -0.24551199 -0.39498386
-0.068340667 -0.24549699 -0.39498964
-0.068090804 -0.2454952 -0.3949852
-0.067899458 -0.24551491 -0.39497736
-0.067525499 -0.24550548 -0.39493275
-0.067310877 -0.2454875 -0.39493975
-0.067067005 -0.24547175 -0.39490923
-0.066864774 -0.24550724 -0.39489865
-0.066720665 -0.24551301 -0.39487299
-0.066565 -0.245524 -0.39488366
-0.066301495 -0.245501 -0.394903
-0.066029668 -0.24547499 -0.39487433
-0.065885417 -0.24548674 -0.39486966
-0.065695323 -0.24550082 -0.39485466
-0.065506168 -0.24550433 -0.39484799
-0.065331995 -0.24551201 -0.39484116
-0.065187 -0.24552135 -0.39483902
-0.064946994 -0.24549 -0.39480251
-0.064664498 -0.24540401 -0.394804
-0.063906997 -0.245445 -0.39480099
-0.051248997 -0.24547675 -0.39482376
-0.051067665 -0.24548699 -0.39484167
-0.050891336 -0.24549967 -0.39487955
-0.050790001 -0.24550898 -0.39487997
-0.068358667 -0.24527366 -0.39498866
-0.068051502 -0.245307 -0.39498526
-0.067837998 -0.245334 -0.39498037
-0.0675155 -0.24532084 -0.39494696
-0.067334995 -0.2452915 -0.3949565
-0.067102998 -0.2453035 -0.39493302
-0.066859499 -0.24529351 -0.39490676
-0.066731498 -0.24527225 -0.39488575
-0.066553675 -0.24529999 -0.39487067
-0.066289999 -0.24531734 -0.39493465
-0.066018999 -0.24529 -0.394898
-0.065885283 -0.24530642 -0.39490142
-0.065710627 -0.24526976 -0.39487886
-0.065493338 -0.24528234 -0.39487168
-0.065319665 -0.24528985 -0.39485779
-0.065174334 -0.24529867 -0.39485201
-0.064865753 -0.24529751 -0.39481801
-0.064716712 -0.24530615 -0.39480928
-0.063899003 -0.24529533 -0.39480504
-0.051373001 -0.245359 -0.394811
-0.051103666 -0.24529701 -0.39483702
-0.050874144 -0.24529658 -0.39487702
-0.050778333 -0.24528366 -0.39486766
-0.068515003 -0.245194 -0.39500001
-0.068320669 -0.24512601 -0.394997
-0.0680205 -0.24510351 -0.39498001
-0.067795001 -0.245086 -0.39498734
-0.067502171 -0.24509983 -0.39497602
-0.067324169 -0.24510683 -0.3949742
-0.067111596 -0.24513218 -0.39495221
-0.066894397 -0.24508563 -0.39489561
-0.066746749 -0.24510475 -0.39488548
-0.066540666 -0.24507968 -0.39490166
-0.066279002 -0.24509335 -0.394925
-0.066008337 -0.24510533 -0.39491263
-0.065889105 -0.24511367 -0.39491645
-0.0657105 -0.24509369 -0.39489102
-0.065482751 -0.24509799 -0.39489353
-0.065308504 -0.2451065 -0.39488199
-0.065162003 -0.24507733 -0.39487532
-0.064877331 -0.2450915 -0.39484099
-0.064696804 -0.24509761 -0.39481181
-0.064432003 -0.24511667 -0.39480934
-0.063878827 -0.24508917 -0.39481935
-0.063679993 -0.245048 -0.39480701
-0.063594997 -0.245021 -0.394806
-0.051355999 -0.245021 -0.39480299
-0.051121287 -0.24511944 -0.39483401
-0.050900299 -0.24510971 -0.39489588
-0.050767001 -0.2450995 -0.39490399
-0.068461999 -0.24497201 -0.39499399
-0.067786999 -0.244936 -0.39499101
-0.067478336 -0.244928 -0.39498702
-0.067303792 -0.2449002 -0.3949922
-0.067173004 -0.24493 -0.39499497
-0.066900775 -0.24490823 -0.39493555
-0.066735335 -0.24492116 -0.39492068
-0.066530004 -0.244895 -0.3949255
-0.066268504 -0.24490701 -0.39493001
-0.065906331 -0.24489044 -0.39493635
-0.065729134 -0.24491814 -0.39490727
-0.065503374 -0.24490374 -0.39491397
-0.065297499 -0.24492151 -0.3949115
-0.065151006 -0.244892 -0.394894
-0.064855598 -0.2448864 -0.39486998
-0.06472189 -0.24488224 -0.39483523
-0.064507 -0.24489045 -0.39483312
-0.063903369 -0.24491675 -0.39482787
-0.063722998 -0.24490026 -0.39481199
-0.063485004 -0.244875 -0.39481899
-0.063282996 -0.24488498 -0.39482069
-0.063153505 -0.244858 -0.394815
-0.051349498 -0.24491 -0.3948085
-0.051128667 -0.24488451 -0.39483801
-0.050891008 -0.24490011 -0.39489451
-0.050756335 -0.24491334 -0.3949227
-0.06688711 -0.24468867 -0.39498278
-0.066722006 -0.24470001 -0.39495251
-0.066519 -0.244711 -0.394954
-0.066258334 -0.24472199 -0.39494202
-0.065886222 -0.2446942 -0.394954
-0.065737337 -0.24468483 -0.39493015
-0.065501556 -0.24469222 -0.39494121
-0.065283827 -0.24470116 -0.39495251
-0.065139674 -0.244709 -0.39492765
-0.064864203 -0.2447062 -0.39488798
-0.064711004 -0.24469768 -0.39485899
-0.064496659 -0.24470533 -0.39484701
-0.063883454 -0.24470398 -0.39483178
-0.063714117 -0.244716 -0.39482334
-0.063519664 -0.24471486 -0.39483681
-0.063297197 -0.2446914 -0.39484483
-0.063093752 -0.24471 -0.39482075
-0.062828004 -0.244609 -0.39481199
-0.061492667 -0.24463367 -0.39481997
-0.0613355 -0.24465249 -0.39480975
-0.051336002 -0.24465001 -0.39481199
-0.051118251 -0.24469826 -0.39484948
-0.050887112 -0.24469188 -0.39488956
-0.050765596 -0.24467102 -0.39492321
-0.066834003 -0.244545 -0.39499599
-0.066709496 -0.24447851 -0.39497635
-0.066507004 -0.244489 -0.39496469
-0.066246003 -0.24450068 -0.39495602
-0.065891817 -0.24451318 -0.39497155
-0.065727003 -0.24449949 -0.39494401
-0.065491162 -0.244507 -0.39495501
-0.06527134 -0.24447934 -0.39497384
-0.065126993 -0.24448667 -0.39495668
-0.06486775 -0.2445145 -0.39489925
-0.064718179 -0.24450399 -0.39486989
-0.06451229 -0.24452986 -0.3948617
-0.064397 -0.244487 -0.39484501
-0.063880123 -0.24448988 -0.39483938
-0.063711494 -0.24448602 -0.39483953
-0.063523166 -0.24450433 -0.39484766
-0.063305333 -0.24451166 -0.39484224
-0.063083999 -0.244524 -0.39482
-0.0628855 -0.24449125 -0.39480802
-0.062796503 -0.2445 -0.394811
-0.061877001 -0.244432 -0.39480999
-0.061616499 -0.24449351 -0.39481252
-0.061499503 -0.24449749 -0.3948245
-0.061327502 -0.2445035 -0.39481503
-0.061185502 -0.24450999 -0.39481401
-0.051326334 -0.24450099 -0.39483932
-0.051107835 -0.24451232 -0.39486536
-0.05090614 -0.24450341 -0.39489859
-0.050761249 -0.24450049 -0.394941
-0.066698998 -0.24429351 -0.39499199
-0.066496998 -0.244303 -0.39496899
-0.066234 -0.244278 -0.39496434
-0.065916285 -0.24430487 -0.39498845
-0.06573613 -0.24432276 -0.39497152
-0.065523997 -0.24432166 -0.39496985
-0.065318428 -0.24430558 -0.39496589
-0.065117002 -0.24430101 -0.394963
-0.064879999 -0.24430749 -0.39490801
-0.064712338 -0.24428892 -0.39489248
-0.064517163 -0.24429685 -0.39488879
-0.064386003 -0.24430199 -0.39486334
-0.06389375 -0.24429449 -0.39486596
-0.063716628 -0.2443065 -0.39485702
-0.063510835 -0.24428149 -0.39486003
-0.063292772 -0.24428967 -0.39485943
-0.063071668 -0.24430199 -0.39483547
-0.062893502 -0.24429561 -0.39481691
-0.062786996 -0.24431467 -0.39481035
-0.062547997 -0.24429201 -0.394813
-0.062084332 -0.24427502 -0.39481699
-0.061868001 -0.24428467 -0.39483699
-0.0616065 -0.2443465 -0.39486
-0.061504144 -0.24430244 -0.39486572
-0.061317001 -0.24431749 -0.39482164
-0.061175331 -0.24432534 -0.39482769
-0.051314 -0.24427833 -0.39485368
-0.051095665 -0.24428917 -0.39487132
-0.050884005 -0.24430354 -0.39493346
-0.050750669 -0.24431451 -0.3949565
-0.066740997 -0.24418101 -0.39499399
-0.066486336 -0.24411768 -0.39498234
-0.066222996 -0.244093 -0.394986
-0.065871328 -0.24412334 -0.39499831
-0.065722622 -0.24408126 -0.3949829
-0.065492004 -0.24411801 -0.394979
-0.065295339 -0.24410446 -0.39497069
-0.065106332 -0.24411599 -0.39497566
-0.064869337 -0.24412198 -0.394925
-0.064702004 -0.24410363 -0.394905
-0.064507499 -0.24411149 -0.394896
-0.064373337 -0.24407999 -0.39488164
-0.063883327 -0.24410951 -0.39488283
-0.063706338 -0.24412173 -0.39487123
-0.063500501 -0.2440975 -0.39487803
-0.063324749 -0.2441005 -0.39487523
-0.063104555 -0.24407877 -0.3948653
-0.062874883 -0.24408388 -0.39483956
-0.062746249 -0.24407551 -0.39481327
-0.062537998 -0.24410701 -0.39482331
-0.062274002 -0.244114 -0.39480299
-0.062073998 -0.24409001 -0.394824
-0.061856501 -0.244101 -0.39487898
-0.061514776 -0.24408966 -0.39487612
-0.061303664 -0.24409717 -0.39485982
-0.061161999 -0.24410398 -0.39486197
-0.060983669 -0.24410933 -0.39481068
-0.051793002 -0.24402501 -0.39481199
-0.0513025 -0.24409351 -0.39488399
-0.051084504 -0.24410374 -0.394903
-0.050863378 -0.24409014 -0.394943
-0.050738666 -0.24409068 -0.394961
-0.066477999 -0.24397101 -0.39500001
-0.066214994 -0.243945 -0.39499599
-0.065685332 -0.24392033 -0.39499533
-0.065460503 -0.24391249 -0.3949855
-0.065328747 -0.24391574 -0.39498678
-0.065144502 -0.24389116 -0.39498869
-0.064857326 -0.24389935 -0.39493236
-0.064692155 -0.24391733 -0.39490554
-0.064497672 -0.24392481 -0.3948935
-0.064364001 -0.243894 -0.39488399
-0.063870996 -0.24388683 -0.39489615
-0.063693576 -0.24389993 -0.39489135
-0.063490003 -0.24391116 -0.39488485
-0.063314162 -0.24391533 -0.39488754
-0.063142002 -0.24389249 -0.39489701
-0.062897369 -0.24389824 -0.39485949
-0.062696002 -0.2438896 -0.39483321
-0.06248267 -0.24388433 -0.39482367
-0.062306661 -0.24389082 -0.39482185
-0.062061001 -0.243908 -0.394896
-0.061844666 -0.24391633 -0.39491534
-0.061504334 -0.24390416 -0.39488283
-0.061283398 -0.2438896 -0.3948628
-0.061150331 -0.24388033 -0.39486036
-0.060882874 -0.24390288 -0.39482239
-0.060770001 -0.24385367 -0.39481333
-0.051783998 -0.24387699 -0.39482403
-0.051292669 -0.24390666 -0.3948853
-0.051074494 -0.24391766 -0.39490736
-0.050872426 -0.24390842 -0.39494443
-0.0507285 -0.24390349 -0.39496624
-0.065316498 -0.24369325 -0.3949945
-0.065118335 -0.24371834 -0.39498901
-0.064844668 -0.24367802 -0.39495468
-0.064679086 -0.24369584 -0.39493641
-0.064485162 -0.24370283 -0.39490914
-0.064353339 -0.24370933 -0.394896
-0.063860252 -0.24370225 -0.39491898
-0.063688457 -0.24368511 -0.39491254
-0.06349428 -0.24367812 -0.39491987
-0.063301995 -0.24369299 -0.39490032
-0.063133173 -0.24370499 -0.39487815
-0.062886827 -0.2437131 -0.39487576
-0.062708199 -0.24371061 -0.39485103
-0.062471755 -0.2437 -0.3948465
-0.062296249 -0.24370524 -0.39483777
-0.062045664 -0.243689 -0.39497504
-0.061832335 -0.24369366 -0.39492932
-0.061495557 -0.24371666 -0.39486375
-0.061292399 -0.2437094 -0.39485282
-0.061140001 -0.24369499 -0.39486
-0.060899001 -0.24370551 -0.39481652
-0.060781501 -0.24369499 -0.39481425
-0.051773999 -0.243691 -0.39483699
-0.051281001 -0.24368232 -0.39488435
-0.051062167 -0.24369432 -0.39491916
-0.050881337 -0.24370433 -0.39493132
-0.050743226 -0.24371542 -0.39498064
-0.064833999 -0.24349301 -0.39496899
-0.06467928 -0.24351513 -0.39494401
-0.064503007 -0.24347152 -0.39493728
-0.064341001 -0.243486 -0.39490733
-0.063875496 -0.2435355 -0.39494425
-0.063721128 -0.24349098 -0.39494202
-0.063507341 -0.24350183 -0.39494851
-0.063281201 -0.243487 -0.39492559
-0.063119501 -0.24348433 -0.39492118
-0.062902331 -0.24348889 -0.39488333
-0.062720329 -0.24350101 -0.39488414
-0.062461331 -0.24351518 -0.39486203
-0.062284831 -0.2435215 -0.39486751
-0.062036999 -0.243503 -0.3949545
-0.061823502 -0.243507 -0.39490348
-0.061494749 -0.24350289 -0.39485937
-0.06129086 -0.24348943 -0.39484885
-0.061130334 -0.24350834 -0.39486
-0.060888667 -0.24352001 -0.39482149
-0.060759 -0.24349199 -0.3948155
-0.051869001 -0.24346399 -0.39480999
-0.051764335 -0.24350433 -0.39483431
-0.0512705 -0.243497 -0.39489901
-0.051051751 -0.2435075 -0.39493674
-0.0508685 -0.24348085 -0.39494863
-0.050731108 -0.24349147 -0.39498678
-0.064675622 -0.24333362 -0.39496562
-0.064503171 -0.243297 -0.39496365
-0.064329505 -0.243303 -0.39494801
-0.063887 -0.243295 -0.3949717
-0.063710593 -0.24330574 -0.39496052
-0.063497216 -0.24331713 -0.39496553
-0.063287601 -0.24330878 -0.39495438
-0.063107744 -0.2433005 -0.3949565
-0.06289117 -0.24330467 -0.39491519
-0.062699877 -0.24328937 -0.39489204
-0.062448665 -0.24329351 -0.39488116
-0.062272504 -0.24329849 -0.39488602
-0.062028665 -0.24331398 -0.39491868
-0.061814666 -0.24331968 -0.39488697
-0.06151475 -0.24330699 -0.39486951
-0.061293148 -0.24329744 -0.39484188
-0.061118666 -0.243285 -0.39485899
-0.060876835 -0.24329717 -0.39482769
-0.060748503 -0.24330665 -0.39482418
-0.060510997 -0.24327034 -0.39480302
-0.059762001 -0.243209 -0.394806
-0.0520305 -0.2433075 -0.39481199
-0.051859003 -0.24327767 -0.3948063
-0.051752333 -0.24327968 -0.39483598
-0.051259998 -0.243311 -0.39491868
-0.051087666 -0.24331833 -0.39492369
-0.050917145 -0.24330816 -0.39495927
-0.050721169 -0.24330498 -0.39498833
-0.064637996 -0.24315365 -0.39499068
-0.064481139 -0.24313329 -0.39498416
-0.064318992 -0.24311768 -0.39495969
-0.063876495 -0.24311 -0.39498401
-0.063691452 -0.24309145 -0.39497888
-0.063509427 -0.24310371 -0.39498028
-0.063300245 -0.24309213 -0.39496663
-0.063097663 -0.24311566 -0.39496648
-0.062880665 -0.24311978 -0.39493567
-0.062708713 -0.24310873 -0.39491314
-0.0624815 -0.2431075 -0.39490151
-0.062292863 -0.24309672 -0.3948929
-0.062017996 -0.24309033 -0.39490268
-0.061804 -0.24313401 -0.3949095
-0.061797999 -0.24302299 -0.394912
-0.061504167 -0.2431215 -0.39488363
-0.061306376 -0.24311838 -0.39486164
-0.061108001 -0.243101 -0.39488202
-0.060866751 -0.243112 -0.39483649
-0.060718782 -0.24306045 -0.39482632
-0.060523201 -0.24309722 -0.39481822
-0.059835333 -0.24310733 -0.39480767
-0.0597535 -0.24308051 -0.39480802
-0.05202033 -0.24312098 -0.39481866
-0.051849 -0.243091 -0.39480603
-0.051741999 -0.243093 -0.39484701
-0.051247332 -0.24308866 -0.39493737
-0.051074337 -0.24309599 -0.39495301
-0.050893113 -0.24310623 -0.39496911
-0.050711252 -0.24312775 -0.39499426
-0.064338326 -0.242944 -0.39498797
-0.063866004 -0.242924 -0.3949945
-0.063662834 -0.24290051 -0.39497566
-0.063516498 -0.24290699 -0.39499602
-0.063299991 -0.24287809 -0.39497021
-0.063085832 -0.24289198 -0.39496815
-0.062876754 -0.24290675 -0.39494827
-0.062724121 -0.24290575 -0.39494485
-0.062520005 -0.24290481 -0.3949188
-0.062306747 -0.24291687 -0.39490575
-0.062008001 -0.24290401 -0.394907
-0.061792001 -0.24291199 -0.394914
-0.061492171 -0.242899 -0.39489016
-0.061327998 -0.24290299 -0.39486501
-0.061146498 -0.24291183 -0.39488581
-0.060919002 -0.24292134 -0.39484534
-0.06072275 -0.24289836 -0.39482951
-0.06052357 -0.24289526 -0.39483017
-0.059838999 -0.242834 -0.39480299
-0.059750378 -0.24292164 -0.39481401
-0.052009001 -0.24289733 -0.39481366
-0.051838998 -0.24290501 -0.39481735
-0.051732 -0.24290735 -0.39485133
-0.051237002 -0.242902 -0.394943
-0.051064 -0.242909 -0.39496899
-0.050924003 -0.24287935 -0.39497432
-0.05072511 -0.24290156 -0.39499623
-0.063858002 -0.24277499 -0.39499301
-0.063653223 -0.24271509 -0.39497989
-0.063506834 -0.24271999 -0.39499083
-0.063307799 -0.242699 -0.39497238
-0.063101001 -0.2426966 -0.39496979
-0.062880799 -0.24269 -0.39496177
-0.062743336 -0.24268045 -0.39496633
-0.062520675 -0.24269716 -0.39493585
-0.062327996 -0.24270248 -0.39492598
-0.0621465 -0.2427295 -0.394912
-0.061995499 -0.242682 -0.39491802
-0.061782002 -0.24272601 -0.39491534
-0.061473399 -0.2426904 -0.394898
-0.061315168 -0.24268132 -0.39488718
-0.061134998 -0.242689 -0.39488253
-0.060907003 -0.24269933 -0.39486265
-0.060726501 -0.24270539 -0.39486551
-0.060526002 -0.242714 -0.39482799
-0.060360998 -0.242691 -0.394811
-0.060182001 -0.24266399 -0.39480799
-0.059831005 -0.24268466 -0.39480901
-0.059745003 -0.24267828 -0.3948217
-0.052099999 -0.242704 -0.39482099
-0.051894803 -0.24269339 -0.3948366
-0.051720668 -0.24268401 -0.39484468
-0.051227998 -0.24271367 -0.39493069
-0.051052999 -0.24272268 -0.39498067
-0.050913498 -0.2426935 -0.3949855
-0.050711252 -0.24270701 -0.39498597
-0.063639 -0.24249434 -0.3949953
-0.063551664 -0.24251984 -0.39498436
-0.063323498 -0.24250467 -0.39498547
-0.063107558 -0.24251699 -0.39498445
-0.062886797 -0.24251159 -0.39497542
-0.062733166 -0.24249518 -0.394979
-0.0624968 -0.24248919 -0.39494699
-0.062316503 -0.24247833 -0.394923
-0.062181998 -0.24248566 -0.394936
-0.061985001 -0.24249601 -0.39493132
-0.061769664 -0.24250369 -0.39493033
-0.061478205 -0.24251202 -0.3949056
-0.061305001 -0.242495 -0.39489323
-0.061124749 -0.2425025 -0.39489248
-0.060894001 -0.242478 -0.39488864
-0.060698837 -0.24249108 -0.39487398
-0.060511999 -0.24250221 -0.39485091
-0.060350668 -0.24250567 -0.39482799
-0.060173333 -0.24251501 -0.39482534
-0.059821002 -0.242498 -0.39480948
-0.05969575 -0.24248725 -0.39481801
-0.059426501 -0.242448 -0.39482501
-0.05209 -0.24251734 -0.39482799
-0.051919002 -0.24251358 -0.3948482
-0.051709 -0.242498 -0.394878
-0.051215667 -0.24249034 -0.39494133
-0.051041666 -0.24249865 -0.394981
-0.050903831 -0.24250567 -0.39498135
-0.050694663 -0.24253231 -0.39498249
-0.063630998 -0.24234501 -0.39500001
-0.063581496 -0.242311 -0.39499152
-0.063334495 -0.2423005 -0.39499477
-0.06318 -0.242287 -0.39498901
-0.062867172 -0.24230367 -0.39498666
-0.062731333 -0.24232118 -0.39498353
-0.062511802 -0.24230981 -0.39495677
-0.062306002 -0.242293 -0.39493948
-0.062171001 -0.24230051 -0.39495498
-0.061975002 -0.24231 -0.394936
-0.061757665 -0.24228001 -0.39492869
-0.061458837 -0.2423055 -0.39493299
-0.061294336 -0.24230982 -0.39491415
-0.061113998 -0.24231781 -0.39491615
-0.060883 -0.242291 -0.39490598
-0.060679335 -0.24229448 -0.39489058
-0.060499668 -0.2422799 -0.39486632
-0.060338002 -0.242283 -0.39484432
-0.060160667 -0.24229233 -0.39484897
-0.059809331 -0.24231367 -0.39485002
-0.059691999 -0.24231373 -0.39485195
-0.059418 -0.24229901 -0.39484
-0.059246 -0.242265 -0.394806
-0.059101999 -0.2423075 -0.39481649
-0.058933333 -0.24222668 -0.39480934
-0.052097749 -0.24227451 -0.39483726
-0.051890001 -0.24230565 -0.39486936
-0.051697668 -0.24231298 -0.39491233
-0.051205002 -0.242304 -0.3949585
-0.051031001 -0.242312 -0.39498901
-0.050869003 -0.24230149 -0.3949855
-0.050725501 -0.24223626 -0.39499527
-0.062844664 -0.24213068 -0.39499032
-0.062700801 -0.24210279 -0.3949914
-0.062487666 -0.24210285 -0.39497185
-0.062295835 -0.24210717 -0.39494881
-0.062161338 -0.24211501 -0.39495599
-0.061964002 -0.24212433 -0.39495698
-0.0617465 -0.2420955 -0.3949635
-0.061446164 -0.24208301 -0.39495134
-0.061280999 -0.2420885 -0.39494869
-0.061101001 -0.24209601 -0.39494431
-0.060873002 -0.24210501 -0.39491701
-0.060693998 -0.24211879 -0.3948974
-0.060504716 -0.24208872 -0.39488104
-0.060327001 -0.242099 -0.394869
-0.060150001 -0.242108 -0.39486802
-0.059801001 -0.242165 -0.39486799
-0.059705924 -0.24209656 -0.39487851
-0.0594832 -0.24209459 -0.39484221
-0.059236333 -0.24211834 -0.39483765
-0.059091166 -0.2421235 -0.39484334
-0.058911499 -0.24209051 -0.39482802
-0.058692999 -0.2420685 -0.39480847
-0.058412999 -0.242017 -0.39480299
-0.053172499 -0.242039 -0.394806
-0.052110251 -0.24210601 -0.39483973
-0.051963001 -0.24207835 -0.39487335
-0.051738668 -0.24208833 -0.39491132
-0.051108167 -0.24212117 -0.39497483
-0.050881751 -0.2420955 -0.39499152
-0.050607 -0.24215201 -0.394999
-0.062650993 -0.241906 -0.39499599
-0.062488198 -0.24189481 -0.39499441
-0.062283169 -0.24188451 -0.39496532
-0.062148999 -0.24189167 -0.394963
-0.061951999 -0.24190266 -0.39496934
-0.061735336 -0.24191034 -0.39499435
-0.061448332 -0.24191 -0.39497033
-0.061295796 -0.2418948 -0.39496899
-0.061078798 -0.24188881 -0.39497417
-0.060859669 -0.24188368 -0.39494801
-0.060690999 -0.24189554 -0.3949331
-0.060505837 -0.24190766 -0.39489976
-0.060316 -0.24191368 -0.39489269
-0.060139 -0.24192233 -0.39489332
-0.05970411 -0.24189724 -0.3948783
-0.059584666 -0.24188201 -0.39487067
-0.059309501 -0.24189299 -0.39486802
-0.059078664 -0.24189998 -0.39485529
-0.058900829 -0.24190585 -0.39484832
-0.058693398 -0.24190459 -0.39482579
-0.058407001 -0.24190401 -0.394804
-0.058033999 -0.24188 -0.39480299
-0.0579 -0.24185202 -0.39481249
-0.057722874 -0.24188888 -0.39482149
-0.057516001 -0.24183899 -0.39481449
-0.053123999 -0.24193001 -0.39480501
-0.052983001 -0.24186701 -0.39480999
-0.052689001 -0.24181101 -0.39480999
-0.052584998 -0.2418655 -0.39480799
-0.052223001 -0.241836 -0.39480999
-0.052099664 -0.24191934 -0.39485049
-0.051954001 -0.241891 -0.39486098
-0.051728752 -0.241901 -0.39491451
-0.051095832 -0.24189717 -0.39498532
-0.050882198 -0.24192318 -0.39499018
-0.062258665 -0.24171233 -0.39498463
-0.062139001 -0.241706 -0.39497501
-0.061940998 -0.241717 -0.39499301
-0.061726999 -0.241761 -0.394997
-0.061466001 -0.241785 -0.394986
-0.061291572 -0.24173772 -0.39498401
-0.061088003 -0.24170959 -0.39498538
-0.060849 -0.24169999 -0.39497399
-0.060673144 -0.24169485 -0.39494815
-0.060525775 -0.24168465 -0.39492956
-0.060348671 -0.24168999 -0.39491868
-0.060127001 -0.24169999 -0.39490631
-0.059707914 -0.24171719 -0.39490306
-0.059573501 -0.241697 -0.3948985
-0.059299499 -0.24170725 -0.39487299
-0.059066165 -0.24167717 -0.39487216
-0.058887836 -0.24168317 -0.39487335
-0.058671165 -0.24169934 -0.39485765
-0.058401 -0.24179301 -0.39480999
-0.058394998 -0.24168199 -0.39481902
-0.058109999 -0.24168161 -0.39481038
-0.05789075 -0.24170449 -0.39484051
-0.057711571 -0.24169627 -0.39483759
-0.057519596 -0.24168821 -0.39481524
-0.053405002 -0.241615 -0.39480299
-0.053240001 -0.241662 -0.39480299
-0.053094666 -0.24165766 -0.39481768
-0.052935202 -0.241707 -0.3948248
-0.052700002 -0.24168468 -0.39482132
-0.052575003 -0.24168067 -0.39481667
-0.052302003 -0.24168432 -0.39482298
-0.052087501 -0.241696 -0.39486167
-0.051943332 -0.24170466 -0.39487132
-0.051718999 -0.24171484 -0.39490852
-0.051173002 -0.241706 -0.39496601
-0.050860167 -0.24168335 -0.39498636
-0.050584 -0.24170333 -0.39499268
-0.062219333 -0.24151532 -0.39498532
-0.062132001 -0.241594 -0.39499801
-0.061205 -0.24149632 -0.3949863
-0.061067503 -0.24150182 -0.39499319
-0.060839001 -0.241513 -0.39498165
-0.060675506 -0.24151401 -0.39495552
-0.060515329 -0.24149866 -0.394945
-0.060338251 -0.24150449 -0.39493349
-0.060113668 -0.24147634 -0.39492932
-0.059689 -0.24150173 -0.39492324
-0.059563 -0.24151033 -0.3949143
-0.059306402 -0.24153619 -0.39489761
-0.059083402 -0.241484 -0.39490443
-0.058876749 -0.24149749 -0.39490351
-0.058649004 -0.24149279 -0.39488658
-0.058384001 -0.24149567 -0.39483902
-0.058099553 -0.24150401 -0.39483491
-0.057880834 -0.24151833 -0.39485016
-0.057714254 -0.24151713 -0.39486051
-0.057497252 -0.24150349 -0.39483148
-0.057082001 -0.2414525 -0.39482599
-0.056963667 -0.24144 -0.39480868
-0.055870999 -0.241473 -0.394804
-0.055672001 -0.241412 -0.39480299
-0.055452 -0.241428 -0.394804
-0.053728998 -0.24152298 -0.39482298
-0.05350725 -0.2415005 -0.39481425
-0.053271748 -0.2414735 -0.39481199
-0.053099502 -0.24148266 -0.39482665
-0.052914996 -0.24149899 -0.39482102
-0.052728333 -0.24150999 -0.39483297
-0.052567001 -0.241531 -0.39481199
-0.052291498 -0.24149875 -0.39484
-0.052066602 -0.24148759 -0.39488482
-0.051929999 -0.241482 -0.394905
-0.051707 -0.24149048 -0.39491132
-0.051162332 -0.24152033 -0.39498332
-0.050850499 -0.24149725 -0.3949855
-0.05069875 -0.241506 -0.39499298
-0.061105002 -0.24133225 -0.394997
-0.06082667 -0.24129033 -0.39499065
-0.060657561 -0.24130136 -0.39498121
-0.060504332 -0.24131311 -0.39496714
-0.0603275 -0.24131817 -0.39495265
-0.060102999 -0.241291 -0.394943
-0.05967617 -0.24127875 -0.39494669
-0.059551001 -0.24128801 -0.39491966
-0.059360668 -0.24129768 -0.39494368
-0.059141163 -0.2413035 -0.39492202
-0.058909338 -0.24131113 -0.39491951
-0.058673501 -0.24132425 -0.3949075
-0.058598001 -0.24126101 -0.39488301
-0.058373 -0.241311 -0.39487201
-0.058098499 -0.241289 -0.39484248
