-0.185067 0.13075 0.973989 0.0169122
-0.183111 0.132939 0.974063 0.0150144
-0.179629 0.134202 0.974537 0.0141669
-0.178246 0.136051 0.974535 0.0117073
-0.174334 0.137429 0.975049 0.00808737
-0.169616 0.140001 0.975515 0.00789964
-0.17554 0.143907 0.973898 0.0108093
-0.174342 0.145926 0.973812 0.0101336
-0.173498 0.149285 0.973454 0.0116179
-0.16745 0.150743 0.974288 0.0102747
-0.168307 0.154522 0.973548 0.0128448
-0.165021 0.155986 0.973877 0.0113074
-0.163346 0.156505 0.974076 0.00867291
-0.157532 0.157045 0.974946 0.00375457
-0.158832 0.15999 0.974256 0.00355678
-0.161825 0.164353 0.973037 0.00729783
-0.162918 0.166296 0.972524 0.00628314
-0.162688 0.169946 0.971932 0.00811088
-0.162737 0.173595 0.971278 0.00906314
-0.166916 0.177448 0.969872 0.0120122
-0.171103 0.18279 0.968148 0.0160416
-0.170438 0.185041 0.967838 0.0150405
-0.169538 0.187325 0.967557 0.0126295
-0.169265 0.192133 0.966661 0.0153702
-0.17234 0.19619 0.965302 0.0163689
-0.171506 0.200125 0.964643 0.015241
-0.170323 0.203453 0.964156 0.015305
-0.165723 0.206053 0.964406 0.0144594
-0.161562 0.21007 0.964245 0.0138949
-0.164382 0.216675 0.962305 0.0170924
-0.161568 0.222345 0.961488 0.0192672
-0.160774 0.227051 0.960521 0.0180227
-0.157163 0.230615 0.960269 0.0166122
-0.159259 0.235926 0.958632 0.0163043
-0.159438 0.241949 0.9571 0.0160265
-0.160749 0.250522 0.954672 0.0196454
-0.160285 0.257894 0.952785 0.0214343
-0.159688 0.262788 0.951547 0.0190886
-0.16055 0.26921 0.949605 0.0204917
-0.155252 0.273896 0.949146 0.0191244
-0.156497 0.281291 0.946776 0.0213623
-0.154217 0.282316 0.946845 0.0185976
-0.154985 0.290139 0.944351 0.0195834
-0.152713 0.292024 0.94414 0.017645
-0.151851 0.296876 0.942765 0.0159851
-0.15304 0.304175 0.940243 0.0161966
-0.150879 0.309919 0.938715 0.0165248
-0.150608 0.314221 0.937327 0.0158909
-0.15087 0.319886 0.935367 0.0163679
-0.151339 0.326406 0.933036 0.0177974
-0.150777 0.33217 0.93109 0.0176524
-0.148827 0.335152 0.930335 0.015864
-0.149608 0.342834 0.927406 0.0169932
-0.149739 0.346785 0.925915 0.0154229
-0.147988 0.354952 0.923097 0.015336
-0.210394 0.0523678 0.976213 0.016457
-0.209166 0.0552855 0.976316 0.0146756
-0.208859 0.0585274 0.976193 0.0155534
-0.20954 0.0611945 0.975883 0.0155382
-0.210835 0.0652655 0.97534 0.0183322
-0.20872 0.0657989 0.975759 0.015847
-0.205303 0.0667993 0.976416 0.0126251
-0.206006 0.070429 0.976013 0.0155479
-0.205564 0.0708345 0.976077 0.0149875
-0.206347 0.0721084 0.975818 0.0164772
-0.206934 0.0736113 0.975582 0.0177518
-0.207853 0.0752253 0.975263 0.0186524
-0.206743 0.0757477 0.975459 0.0176532
-0.205555 0.0756054 0.975721 0.0163801
-0.205998 0.0762915 0.975574 0.0165805
-0.208344 0.0770953 0.975012 0.0190239
-0.206251 0.0766469 0.975493 0.016314
-0.206773 0.0773524 0.975326 0.0171645
-0.204581 0.0772444 0.975797 0.0151227
-0.204072 0.0772686 0.975902 0.0155528
-0.203527 0.0780221 0.975956 0.0140578
-0.204184 0.0789337 0.975745 0.0155279
-0.202562 0.0789478 0.976082 0.0140771
-0.203294 0.0795146 0.975884 0.0151001
-0.20533 0.0802552 0.975397 0.0179702
-0.206205 0.0803332 0.975206 0.0163469
-0.207201 0.0803585 0.974992 0.0167401
-0.204704 0.0790697 0.975625 0.0115992
-0.20333 0.0781943 0.975983 0.00913896
-0.20273 0.0773037 0.976179 0.00833028
-0.201253 0.0771607 0.976495 0.00730472
-0.201144 0.0764304 0.976575 0.00684649
-0.200017 0.0764924 0.976802 0.00669803
-0.200559 0.0763302 0.976704 0.00750787
-0.198982 0.0764251 0.977019 0.00582462
-0.203071 0.0763349 0.976184 0.00569672
-0.200053 0.0756868 0.976857 0.00497618
-0.198344 0.0754238 0.977226 0.00367569
-0.203082 0.0757541 0.976227 0.00758114
-0.202019 0.0753333 0.97648 0.0070504
-0.203278 0.0742828 0.976299 0.0065208
-0.205955 0.0743452 0.975733 0.00662313
-0.21109 0.075312 0.974561 0.0129433
-0.210669 0.0743092 0.974729 0.0107249
-0.206735 0.0732018 0.975655 0.00762876
-0.206216 0.0727547 0.975798 0.00725707
-0.205114 0.072246 0.976068 0.00648818
-0.204884 0.0715645 0.976167 0.0061748
-0.202502 0.071692 0.976654 0.00513033
-0.203265 0.071375 0.976519 0.00502891
-0.199762 0.0710139 0.977268 0.0030401
-0.202744 0.0700349 0.976724 0.00289897
-0.210608 0.0711717 0.974976 0.00867403
-0.210543 0.0714236 0.974972 0.00830447
-0.209136 0.071649 0.975258 0.00792659
-0.210348 0.0709653 0.975047 0.00631564
-0.213009 0.0705532 0.9745 0.00616137
-0.213611 0.0709011 0.974343 0.00775892
-0.207798 0.0703885 0.975636 0.00526059
-0.206357 0.0698317 0.975982 0.00470627
-0.209955 0.0702053 0.975187 0.00829786
-0.214679 0.0706793 0.974124 0.00924016
-0.213998 0.0706343 0.974277 0.00989412
-0.214194 0.0699605 0.974283 0.0110903
-0.216501 0.0693932 0.973813 0.0117448
-0.214227 0.0693311 0.97432 0.0132832
-0.214058 0.0698947 0.974317 0.0145679
-0.212931 0.0699335 0.974561 0.0146569
-0.212997 0.0698057 0.974556 0.0144889
-0.208509 0.0702725 0.975492 0.013649
-0.208763 0.0702831 0.975437 0.0140991
-0.207213 0.0706242 0.975743 0.0150969
-0.206353 0.0701736 0.975958 0.0146093
-0.202419 0.0686843 0.976887 0.0124742
-0.199922 0.0676607 0.977473 0.0107036
-0.195995 0.0652798 0.97843 0.00580842
-0.192806 0.0634143 0.979186 0.00434392
-0.194079 0.0618925 0.979032 0.0057262
-0.1952 0.0597929 0.978939 0.00506877
-0.19363 0.057946 0.979362 0.00468475
-0.190677 0.0554787 0.980084 0.00252234
-0.191343 0.0534531 0.980067 0
-0.191289 0.051762 0.980168 0
-0.191565 0.0492226 0.980245 0
-0.190347 0.0481411 0.980536 0
-0.189255 0.0463013 0.980836 0
-0.18944 0.0445527 0.980881 0
-0.186624 0.0422619 0.981522 0
-0.187045 0.0409232 0.981499 0
-0.187348 0.0396178 0.981494 0
-0.192327 0.0383223 0.980582 0
-0.194212 0.0370456 0.98026 0
-0.197749 0.0367907 0.979562 0.00351236
-0.197098 0.0348985 0.979762 0.00154709
-0.19637 0.0339739 0.979941 0.0021977
-0.193387 0.0332744 0.980558 0.00185711
-0.194897 0.0327766 0.980276 0.00332201
-0.198158 0.0310263 0.979679 0.00216043
-0.198426 0.030464 0.979642 0.00343003
-0.198985 0.0309276 0.979514 0.00548212
-0.192889 0.030496 0.980747 0.00392901
-0.193129 0.0300107 0.980714 0.00202997
-0.190623 0.0294703 0.981221 8.30168e-05
-0.192103 0.028919 0.980949 0
-0.19199 0.0289057 0.980971 0.00122468
-0.191772 0.0289636 0.981012 0.00182697
-0.192422 0.0292988 0.980875 0.00409774
-0.19785 0.0293555 0.979793 0.00571571
-0.193376 0.0293977 0.980684 0.0034472
-0.191903 0.0290014 0.980985 0.000237394
-0.191692 0.0296636 0.981007 0.000713071
-0.194107 0.0307843 0.980497 0.000185504
-0.194638 0.0313136 0.980375 3.94588e-05
-0.197953 0.0327067 0.979666 0.00172391
-0.200628 0.0342101 0.97907 0.00258961
-0.198196 0.0346734 0.979549 0.00148009
-0.197419 0.035481 0.979677 0
-0.19768 0.0376759 0.979542 0
-0.197701 0.0393707 0.979471 0
-0.194714 0.0409288 0.980006 0
-0.195485 0.043568 0.979739 7.11276e-05
-0.198 0.0460448 0.97912 0
-0.201567 0.0490534 0.978246 0.00105337
-0.19894 0.0520392 0.978629 0
-0.200536 0.0546778 0.978159 0
-0.199701 0.05766 0.978159 0.000367857
-0.197284 0.0598502 0.978518 0
-0.19921 0.0628993 0.977936 0.00160847
-0.196892 0.0660952 0.978195 0.00188969
-0.193288 0.0700681 0.978637 0.00136766
-0.197154 0.073352 0.977625 0.00288476
-0.194431 0.0769877 0.97789 0.00248306
-0.19836 0.0816278 0.976724 0.00444287
-0.198515 0.0851895 0.976388 0.00452644
-0.202491 0.0897069 0.975167 0.0078946
-0.203351 0.0935748 0.974624 0.00995047
-0.200979 0.0974806 0.974733 0.0087734
-0.200517 0.101118 0.974458 0.0120998
-0.203558 0.105096 0.973406 0.0146732
-0.197864 0.108274 0.974231 0.0150548
-0.1993 0.110565 0.973681 0.0156473
-0.199669 0.113082 0.973316 0.0154569
-0.200636 0.116892 0.972667 0.0157839
-0.19923 0.119803 0.972602 0.0152406
-0.196947 0.120438 0.972988 0.0133358
-0.200202 0.125253 0.971715 0.0166007
-0.193875 0.128111 0.972625 0.0141815
-0.189844 0.130298 0.97313 0.0119597
-0.186427 0.132214 0.973532 0.0118365
-0.181638 0.135052 0.974048 0.0117585
-0.182449 0.137385 0.97357 0.0117684
-0.182591 0.141086 0.973014 0.0129429
-0.182909 0.144679 0.972426 0.0122216
-0.184025 0.148451 0.971647 0.0147161
-0.182118 0.150321 0.971718 0.0130993
-0.180198 0.153667 0.971553 0.0152321
-0.17419 0.154696 0.972485 0.0124552
-0.176848 0.159975 0.97115 0.017064
-0.175511 0.163062 0.970879 0.0181078
-0.174807 0.165849 0.970534 0.0179223
-0.174608 0.168 0.9702 0.0174548
-0.17232 0.169467 0.970354 0.015017
-0.173178 0.173662 0.969459 0.0153109
-0.171069 0.176166 0.969382 0.0142323
-0.176759 0.181738 0.96733 0.0208343
-0.179967 0.185505 0.966023 0.0216407
-0.176763 0.186888 0.966348 0.0196057
-0.17531 0.189149 0.966173 0.0188516
-0.177402 0.193238 0.964981 0.019721
-0.178394 0.195676 0.964306 0.0176837
-0.17799 0.19802 0.963902 0.0165373
-0.172939 0.199681 0.964479 0.0139098
-0.174952 0.204505 0.963104 0.0160614
-0.174648 0.208382 0.962328 0.0163513
-0.172507 0.211434 0.962048 0.0151331
-0.16702 0.212426 0.962798 0.0101906
-0.167893 0.21965 0.961023 0.0131599
-0.170523 0.226176 0.959045 0.0152157
-0.171342 0.233837 0.957059 0.0183761
-0.171391 0.241754 0.955081 0.0199229
-0.168582 0.245386 0.954655 0.018657
-0.169154 0.254107 0.952269 0.0214805
-0.16769 0.259518 0.951068 0.0230543
-0.166118 0.264189 0.950057 0.0213974
-0.166661 0.270108 0.948296 0.0213595
-0.164446 0.274995 0.947278 0.0209963
-0.165084 0.283326 0.944708 0.0229035
-0.163319 0.287597 0.943724 0.0222299
-0.164181 0.29561 0.941095 0.0238604
-0.16216 0.296517 0.94116 0.0201634
-0.16046 0.301177 0.939971 0.0193554
-0.158966 0.305803 0.93873 0.017707
-0.157041 0.310867 0.93739 0.0171197
-0.158428 0.319297 0.934318 0.018151
-0.159109 0.324855 0.932284 0.0191935
-0.158847 0.329883 0.930561 0.0177306
-0.157489 0.332892 0.92972 0.0160996
-0.156403 0.336599 0.928568 0.014657
-0.156136 0.344134 0.925847 0.0158657
-0.1535 0.346986 0.925224 0.0126572
-0.15417 0.354329 0.922325 0.0140046
-0.2175 0.0434255 0.975094 0.0181447
-0.217989 0.0458623 0.974873 0.0159632
-0.214758 0.0504244 0.975365 0.0140763
-0.212943 0.0531773 0.975617 0.0118805
-0.210188 0.0554833 0.976085 0.00946409
-0.211211 0.060469 0.975568 0.0156724
-0.210394 0.0638328 0.975531 0.0140891
-0.20982 0.0654185 0.975549 0.0159928
-0.209318 0.0665606 0.97558 0.0154824
-0.209496 0.0686737 0.975395 0.0166271
-0.210444 0.0697808 0.975112 0.0162633
-0.211638 0.0708119 0.974779 0.0186013
-0.20904 0.0716725 0.975277 0.0173364
-0.210012 0.0732862 0.974948 0.0199414
-0.211938 0.0739625 0.97448 0.0202459
-0.211525 0.0745535 0.974525 0.0181575
-0.212672 0.0754311 0.974208 0.0189951
-0.211038 0.076135 0.974508 0.0179835
-0.210685 0.0770809 0.97451 0.0183018
-0.210261 0.0770428 0.974605 0.0171077
-0.211296 0.0767177 0.974407 0.0147917
-0.211743 0.0782942 0.974184 0.0159622
-0.210656 0.0785463 0.9744 0.0155496
-0.207005 0.0777162 0.975248 0.0119053
-0.205605 0.0778814 0.975531 0.0120473
-0.207418 0.0777098 0.975161 0.0125113
-0.207195 0.0770696 0.975259 0.0106511
-0.205958 0.0773637 0.975498 0.0102169
-0.202014 0.0769763 0.976353 0.00691172
-0.199547 0.0767572 0.976877 0.00398292
-0.200378 0.0769545 0.976692 0.00501523
-0.201222 0.0774013 0.976483 0.00662704
-0.198673 0.0777575 0.976976 0.00698701
-0.20007 0.0769864 0.976752 0.00656582
-0.198026 0.076952 0.977171 0.00449567
-0.200004 0.0767235 0.976787 0.00481527
-0.202374 0.0758243 0.976368 0.00497985
-0.207297 0.0769371 0.975248 0.00966822
-0.210264 0.0768906 0.974616 0.0116883
-0.210265 0.0763711 0.974657 0.0100536
-0.208888 0.074734 0.97508 0.00613798
-0.205272 0.0737576 0.975922 0.0030862
-0.203969 0.0734785 0.976216 0.00249826
-0.204903 0.0733628 0.976029 0.00192542
-0.206232 0.0738918 0.975709 0.0042962
-0.207196 0.0739322 0.975502 0.005092
-0.208701 0.0741551 0.975164 0.00478362
-0.209357 0.0738499 0.975046 0.00576261
-0.206542 0.0730228 0.975709 0.00243736
-0.206901 0.0735184 0.975596 0.00277636
-0.208549 0.0738643 0.975219 0.00483452
-0.209052 0.073896 0.975108 0.00488906
-0.215705 0.07457 0.973607 0.00850917
-0.216804 0.0741598 0.973394 0.00753192
-0.218861 0.074094 0.972939 0.00892546
-0.215054 0.073487 0.973833 0.00499392
-0.213775 0.0730727 0.974146 0.00426137
-0.214079 0.0739501 0.974013 0.0045225
-0.213405 0.0739003 0.974165 0.00557656
-0.211484 0.0733487 0.974625 0.00439063
-0.209686 0.0731763 0.975027 0.00550822
-0.208918 0.0730244 0.975203 0.0060111
-0.205917 0.0723976 0.975888 0.00682286
-0.20638 0.0723088 0.975797 0.00699147
-0.203707 0.0720735 0.976375 0.00753718
-0.203342 0.0713338 0.976506 0.00867704
-0.207296 0.0706343 0.975725 0.0119213
-0.208865 0.0707348 0.975383 0.0137311
-0.210458 0.0709248 0.975027 0.0146962
-0.208775 0.0705199 0.975418 0.0122996
-0.206433 0.0710508 0.975878 0.0130859
-0.207949 0.0709286 0.975565 0.0140088
-0.205231 0.0694423 0.976247 0.0113042
-0.202521 0.0687 0.976865 0.00941854
-0.199946 0.0672274 0.977498 0.00587786
-0.19873 0.0662409 0.977813 0.00653754
-0.191625 0.0641855 0.979367 0.00287493
-0.197609 0.0630364 0.978252 0.006024
-0.197748 0.0615954 0.978316 0.00624917
-0.192675 0.0594857 0.979458 0.006028
-0.194882 0.0580818 0.979105 0.00675891
-0.198975 0.0555589 0.978428 0.00460318
-0.196864 0.0537264 0.978958 0.00336072
-0.195045 0.0512752 0.979453 0.00203237
-0.196129 0.0498778 0.979309 0.00474015
-0.194604 0.0475104 0.97973 0.00148907
-0.194811 0.0456107 0.97978 0.000977548
-0.197828 0.0445963 0.979222 0.00363482
-0.197355 0.043425 0.97937 0.0027697
-0.195254 0.0419261 0.979856 0.00227798
-0.196467 0.0405719 0.979671 0.00145783
-0.19915 0.039143 0.979187 0.00322334
-0.20186 0.0380427 0.978675 0.00322273
-0.20141 0.0364605 0.978828 0.00186625
-0.201812 0.0354289 0.978783 0.00280582
-0.202622 0.0346194 0.978645 0.00490629
-0.205637 0.0336454 0.97805 0.00671704
-0.203101 0.0323832 0.978622 0.00683971
-0.204923 0.0315126 0.978271 0.00486609
-0.202008 0.0305113 0.978909 0.00478072
-0.201031 0.0302529 0.979118 0.00459695
-0.199397 0.0297672 0.979467 0.00273589
-0.200673 0.0296393 0.97921 0.00285854
-0.199982 0.029022 0.97937 0.00138383
-0.199022 0.028844 0.97957 0.000776505
-0.19611 0.0281651 0.980177 0.000278494
-0.192377 0.0282767 0.980914 0
-0.191959 0.0282632 0.980996 0
-0.193415 0.0284595 0.980704 0
-0.193408 0.0283355 0.980709 0
-0.189985 0.0291619 0.981354 0
-0.192267 0.029895 0.980887 0
-0.194661 0.0300138 0.980411 0
-0.194639 0.0299777 0.980417 0
-0.197366 0.0314073 0.979827 0
-0.194532 0.032478 0.980358 0
-0.197066 0.0342017 0.979793 0
-0.200131 0.0348524 0.979149 0
-0.204904 0.036464 0.978103 0
-0.204042 0.0383338 0.978211 0
-0.203371 0.0398967 0.978289 0
-0.20545 0.0424198 0.977748 0
-0.20623 0.0447561 0.977479 0
-0.206276 0.0474337 0.977343 0
-0.204929 0.0503719 0.97748 0
-0.208997 0.0529632 0.976481 0.00241724
-0.21091 0.0553497 0.975937 0.00125724
-0.211034 0.0581098 0.97575 0.000894662
-0.209896 0.0613668 0.975796 0.00203066
-0.208418 0.0649304 0.975882 0.00418304
-0.205486 0.0680903 0.976288 0.00455283
-0.203934 0.0716834 0.976357 0.00235278
-0.205652 0.0751424 0.975736 0.00255251
-0.204833 0.0780047 0.975684 0.000496306
-0.211175 0.0817629 0.974023 0.00370212
-0.212108 0.0849996 0.973543 0.00537175
-0.214935 0.0902033 0.972454 0.00784488
-0.214039 0.0928446 0.972403 0.00844442
-0.21316 0.0965386 0.972236 0.00957365
-0.212121 0.0998409 0.97213 0.00999968
-0.210707 0.102939 0.972114 0.0118794
-0.208982 0.106245 0.972131 0.0117098
-0.206488 0.10809 0.97246 0.00776974
-0.208806 0.11165 0.971563 0.0107989
-0.209919 0.114444 0.970998 0.0131836
-0.206322 0.117303 0.971427 0.011939
-0.205801 0.122106 0.970946 0.0134433
-0.207191 0.125599 0.970204 0.014891
-0.203254 0.128226 0.970694 0.015368
-0.202016 0.131821 0.97047 0.0148816
-0.204475 0.136161 0.969356 0.017326
-0.202273 0.139748 0.969307 0.0177768
-0.201907 0.141876 0.969074 0.0154943
-0.201063 0.145736 0.968677 0.0163917
-0.19644 0.14641 0.969523 0.0133283
-0.192534 0.149963 0.969764 0.0142965
-0.193166 0.15469 0.968895 0.0191222
-0.194075 0.158841 0.968042 0.0193258
-0.19101 0.161168 0.968267 0.0184876
-0.191559 0.16549 0.967429 0.0222321
-0.19235 0.16985 0.966516 0.0254159
-0.186997 0.17137 0.967297 0.0227992
-0.184241 0.172893 0.967555 0.0207807
-0.184543 0.176754 0.9668 0.0220405
-0.182559 0.179606 0.966651 0.0211104
-0.183905 0.1833 0.965702 0.0222447
-0.181017 0.184472 0.966024 0.0194383
-0.187557 0.189653 0.963771 0.0206878
-0.189505 0.192817 0.962761 0.0210307
-0.185418 0.196095 0.962895 0.0194883
-0.183499 0.198647 0.96274 0.0199949
-0.183726 0.202683 0.961855 0.0194675
-0.183759 0.20793 0.960728 0.0207497
-0.178384 0.208695 0.961574 0.0158053
-0.178749 0.211981 0.960788 0.0150651
-0.180997 0.216495 0.959359 0.0167452
-0.180804 0.22099 0.95837 0.018312
-0.180998 0.224838 0.957438 0.0190948
-0.178629 0.228993 0.956898 0.0185494
-0.177721 0.232964 0.956108 0.0181117
-0.175 0.237218 0.955564 0.0162271
-0.175028 0.244922 0.953613 0.0182086
-0.172884 0.248753 0.953013 0.017382
-0.171026 0.253098 0.952203 0.0171493
-0.172059 0.260489 0.950022 0.0181082
-0.17061 0.266754 0.948543 0.0176317
-0.166216 0.269932 0.948424 0.0155933
-0.161287 0.271235 0.948904 0.0110913
-0.161811 0.276717 0.94723 0.0119067
-0.163721 0.285128 0.944403 0.0138217
-0.163148 0.291546 0.942541 0.0144483
-0.161074 0.297845 0.940927 0.0160532
-0.161022 0.304091 0.938936 0.0170383
-0.165551 0.315363 0.934419 0.0203553
-0.165228 0.318962 0.933254 0.0197178
-0.16749 0.328477 0.929543 0.0205236
-0.166379 0.335492 0.927234 0.0209624
-0.166809 0.341302 0.925034 0.0200575
-0.16355 0.342739 0.925085 0.0174568
-0.161963 0.349341 0.922891 0.01728
-0.166302 0.363672 0.916562 0.0213441
-0.225492 0.039739 0.973434 0.0160844
-0.226305 0.0427884 0.973116 0.0162648
-0.223692 0.0466846 0.973541 0.014519
-0.225023 0.04964 0.973088 0.0174644
-0.220431 0.0528225 0.973971 0.0139967
-0.219442 0.0559708 0.974019 0.012654
-0.217572 0.0584475 0.974293 0.0138671
-0.215719 0.0592527 0.974656 0.0128654
-0.218055 0.0609266 0.974033 0.0163702
-0.219526 0.0632315 0.973555 0.0183334
-0.219484 0.0660543 0.973377 0.0189983
-0.21662 0.0676241 0.973911 0.0187857
-0.216125 0.0692762 0.973905 0.0194751
-0.216176 0.0697051 0.973863 0.0188903
-0.21836 0.0704092 0.973325 0.020428
-0.217654 0.0716041 0.973396 0.0196683
-0.216902 0.0722153 0.973519 0.0193751
-0.212725 0.0722187 0.97444 0.0149189
-0.215939 0.0735587 0.973632 0.0167253
-0.211876 0.0730842 0.97456 0.0108713
-0.21006 0.0738766 0.974893 0.0113573
-0.211204 0.0744528 0.974602 0.0116463
-0.210187 0.0754339 0.974747 0.0108662
-0.208941 0.0760263 0.974968 0.00983789
-0.207552 0.0768597 0.9752 0.0116186
-0.207013 0.0766341 0.975332 0.00926335
-0.209637 0.0766748 0.974768 0.0105263
-0.205869 0.0762651 0.975603 0.00611194
-0.204256 0.0761985 0.975947 0.00532279
-0.200825 0.0767705 0.976614 0.00456744
-0.204015 0.0769876 0.975936 0.00670195
-0.20883 0.0779989 0.974837 0.0103418
-0.208871 0.0772276 0.974889 0.00790257
-0.208602 0.0759591 0.975046 0.00526197
-0.206897 0.0764518 0.975371 0.00705531
-0.207638 0.0765226 0.975208 0.00775428
-0.211096 0.0757167 0.974528 0.00734699
-0.213314 0.0758487 0.974035 0.00952604
-0.213065 0.0760972 0.97407 0.00876497
-0.217335 0.0760715 0.973128 0.0107492
-0.216831 0.0769451 0.973172 0.00863936
-0.218052 0.0765071 0.972934 0.00700038
-0.21582 0.0764632 0.973435 0.00263132
-0.214595 0.0772483 0.973643 0.00411921
-0.214193 0.0769505 0.973756 0.00406702
-0.215757 0.07678 0.973424 0.00424689
-0.219116 0.0769394 0.972661 0.00454766
-0.216248 0.0769355 0.973303 0.00270115
-0.216326 0.0768168 0.973295 0.00135728
-0.213993 0.076404 0.973843 0.00103584
-0.213203 0.0765004 0.974008 0.00132327
-0.211308 0.0765142 0.97442 0
-0.21271 0.0762968 0.974132 0
-0.210999 0.0759604 0.97453 0
-0.214459 0.076475 0.973735 0
-0.21159 0.076914 0.974327 0.000517526
-0.210153 0.0772393 0.974613 0.00234204
-0.213371 0.0766017 0.973964 0.00499331
-0.214385 0.0760701 0.973783 0.005731
-0.212474 0.0753429 0.974258 0.00581687
-0.209296 0.0747508 0.974991 0.0045723
-0.207702 0.0748906 0.975321 0.00459973
-0.206547 0.0742659 0.975614 0.00692971
-0.206544 0.0733482 0.975684 0.00563875
-0.209392 0.0734551 0.975069 0.00860837
-0.208316 0.0724447 0.975375 0.00762658
-0.207838 0.0717068 0.975531 0.00998468
-0.20629 0.0705867 0.975942 0.00918623
-0.203505 0.069789 0.976584 0.00767203
-0.203857 0.0697814 0.97651 0.00817144
-0.198354 0.0687771 0.977714 0.00678611
-0.196276 0.0689187 0.978124 0.00766974
-0.19169 0.0677193 0.979117 0.00493749
-0.196227 0.0670068 0.978266 0.00624882
-0.200788 0.0661289 0.9774 0.00656601
-0.197531 0.0639677 0.978207 0.0040192
-0.197046 0.0628242 0.978379 0.00287331
-0.198619 0.0615596 0.978141 0.00229918
-0.195235 0.0594219 0.978955 0.000417156
-0.195166 0.0579196 0.979058 0.000116297
-0.199781 0.0573474 0.978161 0.00232491
-0.199062 0.0554361 0.978418 0.00386987
-0.198615 0.053618 0.97861 0.00515777
-0.201004 0.0520962 0.978204 0.0063464
-0.201465 0.0500316 0.978217 0.00622923
-0.196987 0.0477933 0.97924 0.00226708
-0.199011 0.0463581 0.9789 0.00269742
-0.200784 0.0450816 0.978598 0.00541434
-0.203531 0.0430124 0.978123 0.00436446
-0.205039 0.0420521 0.97785 0.00697693
-0.20916 0.0410748 0.977018 0.00876966
-0.215468 0.0400437 0.975689 0.0116175
-0.212545 0.0384185 0.976396 0.0104054
-0.216148 0.0374843 0.975641 0.0104119
-0.215016 0.0357715 0.975955 0.00943916
-0.213 0.034743 0.976434 0.00720589
-0.210785 0.0336895 0.976952 0.00486769
-0.2096 0.0325323 0.977246 0.00527232
-0.203423 0.0311799 0.978594 0.00287492
-0.203626 0.030253 0.978581 0.00142665
-0.205204 0.0296756 0.978269 0.000351414
-0.210665 0.0297719 0.977105 0.00444729
-0.20891 0.0288144 0.97751 0.00188562
-0.212117 0.0285696 0.976826 0.00200146
-0.207845 0.0280664 0.977759 0.001516
-0.206518 0.0279897 0.978042 0.00107163
-0.203504 0.027918 0.978676 0
-0.203346 0.0278509 0.978711 0
-0.203601 0.0277715 0.97866 0
-0.204011 0.0275493 0.978581 0
-0.205924 0.0285972 0.97815 0
-0.203264 0.0288066 0.9787 0
-0.200538 0.0297574 0.979234 0
-0.20348 0.0299145 0.978622 0
-0.203664 0.0305116 0.978565 0
-0.205883 0.0320516 0.978052 0
-0.206434 0.033597 0.977883 0
-0.20742 0.0353296 0.977614 0
-0.208711 0.0366955 0.977289 0
-0.210851 0.0383493 0.976766 0
-0.211443 0.0395646 0.976589 0
-0.211783 0.0422359 0.976404 0
-0.215005 0.0442178 0.975611 0
-0.218967 0.0469443 0.974602 0.00180613
-0.219172 0.0492724 0.974441 0.00220833
-0.219934 0.0517337 0.974142 0.00189145
-0.219593 0.0543979 0.974074 0.00163609
-0.219897 0.0582075 0.973785 0.00516605
-0.216213 0.0602756 0.974484 0.00289023
-0.218054 0.0636857 0.973857 0.00147555
-0.223485 0.0660625 0.972466 0.00125036
-0.225647 0.0699914 0.971692 0.00404789
-0.222929 0.0726132 0.972126 0.00311844
-0.220645 0.0757767 0.972406 0.00200851
-0.221394 0.0797199 0.97192 0.00382677
-0.216411 0.0823727 0.972821 0.000963947
-0.219974 0.0854866 0.971753 0.000613913
-0.216314 0.0891564 0.972244 7.60115e-05
-0.219238 0.0922135 0.971304 0.00338127
-0.225638 0.096118 0.969458 0.00747319
-0.22313 0.0989787 0.969751 0.00728229
-0.224159 0.102368 0.969161 0.00839349
-0.227046 0.1069 0.967999 0.0133756
-0.223823 0.109103 0.968504 0.0117403
-0.219134 0.111142 0.969344 0.0124088
-0.2228 0.115647 0.96798 0.0159825
-0.222742 0.119797 0.967489 0.0195644
-0.221269 0.123231 0.967396 0.0202957
-0.218654 0.126216 0.967605 0.0190736
-0.216401 0.128956 0.96775 0.0187289
-0.214027 0.131979 0.967871 0.0175899
-0.216106 0.137229 0.966678 0.0204777
-0.216021 0.140122 0.966282 0.0196681
-0.2117 0.142798 0.966846 0.0185359
-0.211701 0.146601 0.966277 0.0193788
-0.204238 0.148162 0.967644 0.0163711
-0.202871 0.150614 0.967553 0.0147758
-0.203676 0.155185 0.966661 0.0190092
-0.206765 0.160605 0.965119 0.0231502
-0.201794 0.163747 0.965643 0.023613
-0.204219 0.168206 0.964366 0.0242195
-0.202629 0.171261 0.964163 0.0212134
-0.200661 0.174069 0.964072 0.0193054
-0.202048 0.178093 0.963047 0.0219311
-0.202194 0.183253 0.962048 0.0234843
-0.197173 0.183676 0.963009 0.0195954
-0.192909 0.185422 0.963538 0.0177179
-0.193957 0.187746 0.962877 0.0161987
-0.193714 0.191511 0.962184 0.0163929
-0.191257 0.194048 0.962168 0.0155699
-0.192381 0.198508 0.961033 0.0182015
-0.191881 0.200812 0.960654 0.0182758
-0.187399 0.201477 0.961399 0.0157682
-0.188877 0.206612 0.960019 0.0189122
-0.187495 0.21089 0.95936 0.0191305
-0.184859 0.213227 0.959355 0.0182814
-0.187217 0.220233 0.957312 0.020818
-0.186839 0.225079 0.956259 0.0210228
-0.185978 0.228671 0.955574 0.020446
-0.178416 0.228211 0.957125 0.0151268
-0.180416 0.234953 0.955116 0.0150068
-0.179866 0.240452 0.953851 0.0151915
-0.176931 0.244545 0.953359 0.0137398
-0.176729 0.250983 0.951722 0.0153636
-0.174837 0.258027 0.950186 0.0167347
-0.173283 0.26267 0.949198 0.0164137
-0.177198 0.276801 0.944448 0.0220118
-0.169883 0.27827 0.94536 0.0158104
-0.168601 0.282082 0.944459 0.0143919
-0.169392 0.289152 0.942177 0.0151889
-0.169177 0.298522 0.939289 0.0172873
-0.164803 0.298488 0.940077 0.0146416
-0.16421 0.304541 0.938238 0.0153204
-0.165882 0.312223 0.935414 0.0170045
-0.170264 0.32095 0.931666 0.0185687
-0.166471 0.321248 0.932249 0.0144431
-0.164054 0.326291 0.930925 0.0128663
-0.163775 0.333766 0.92832 0.013298
-0.16257 0.339615 0.926408 0.0147264
-0.159687 0.339603 0.926914 0.0102896
-0.228115 0.0356375 0.972982 0.0203707
-0.230227 0.0388962 0.972359 0.0192905
-0.227543 0.0435359 0.972794 0.0159644
-0.226412 0.0476016 0.972868 0.0157551
-0.225448 0.0509263 0.972923 0.0144333
-0.223342 0.0524935 0.973326 0.0125094
-0.225074 0.0555916 0.972755 0.0156884
-0.223988 0.0583002 0.972847 0.0171905
-0.225239 0.0609663 0.972394 0.0190318
-0.226416 0.0620927 0.97205 0.0206937
-0.22818 0.0638906 0.97152 0.0234273
-0.224354 0.0655226 0.972302 0.020012
-0.225026 0.0672249 0.972031 0.022563
-0.227008 0.0682061 0.971501 0.0251258
-0.227929 0.0689627 0.971232 0.0261929
-0.226788 0.0695294 0.971459 0.0243794
-0.22489 0.0691334 0.971929 0.0202233
-0.226144 0.0701973 0.971561 0.0208651
-0.224189 0.0709178 0.971962 0.0201985
-0.22332 0.0709084 0.972163 0.0187443
-0.222565 0.0712434 0.972311 0.0172936
-0.220902 0.0721963 0.97262 0.0153316
-0.217437 0.072761 0.973359 0.0138837
-0.214392 0.0725249 0.974051 0.00876513
-0.218722 0.0737997 0.972992 0.0111099
-0.216208 0.0744857 0.973502 0.00914543
-0.217344 0.0742509 0.973267 0.00950787
-0.21422 0.0746707 0.973927 0.00624571
-0.219952 0.0755054 0.972584 0.0111908
-0.217167 0.0763343 0.973145 0.00834615
-0.215048 0.0771829 0.973549 0.00958165
-0.216445 0.0778544 0.973186 0.00933944
-0.216541 0.07792 0.973159 0.00782417
-0.219028 0.0782591 0.972575 0.00919291
-0.221426 0.0782695 0.972031 0.00922217
-0.223439 0.0787916 0.971528 0.0106759
-0.226025 0.0787281 0.970935 0.012962
-0.227107 0.078924 0.970667 0.0131763
-0.223375 0.0795723 0.971479 0.0113277
-0.228484 0.0802976 0.970231 0.0132193
-0.228137 0.0811499 0.970241 0.012853
-0.225551 0.0811999 0.970842 0.00847776
-0.222937 0.080856 0.971474 0.00522584
-0.225473 0.0808234 0.970891 0.00729851
-0.223951 0.0801801 0.971297 0.00610486
-0.227623 0.0794694 0.970501 0.00772855
-0.225491 0.0792775 0.971014 0.00767275
-0.226313 0.0789544 0.97085 0.00421359
-0.225242 0.0792134 0.971078 0.00247527
-0.218418 0.0789945 0.972653 0
-0.215132 0.0792281 0.973366 0
-0.215003 0.0793162 0.973387 0
-0.218576 0.0793001 0.972592 0
-0.216667 0.0787211 0.973066 0
-0.220439 0.0794495 0.97216 0.00228078
-0.220447 0.0787468 0.972215 0.00247063
-0.215249 0.0785705 0.973393 0.0033677
-0.218157 0.0780988 0.972784 0.00471029
-0.219809 0.0772033 0.972483 0.00582825
-0.220455 0.0762833 0.97241 0.00593302
-0.223485 0.075573 0.971773 0.00734659
-0.220869 0.0745308 0.972452 0.00550551
-0.214885 0.0732973 0.973885 0.00129399
-0.214726 0.0730617 0.973938 0.00251227
-0.21597 0.0729307 0.973673 0.00441587
-0.207109 0.0721552 0.975653 0.00391058
-0.207609 0.0713716 0.975605 0.00423755
-0.20767 0.07022 0.975675 0.00368791
-0.207931 0.0698063 0.975649 0.00494324
-0.199566 0.0688849 0.97746 0
-0.197783 0.0684196 0.977855 0.000412339
-0.194491 0.0676869 0.978566 0
-0.193384 0.0668693 0.978842 0
-0.197669 0.0662181 0.97803 0
-0.19761 0.0647245 0.978142 0
-0.197797 0.0633308 0.978195 3.41249e-05
-0.20033 0.0616798 0.977785 0
-0.202316 0.0604391 0.977454 0
-0.200616 0.0587955 0.977904 0.000280284
-0.202461 0.0580285 0.97757 0.000777161
-0.201314 0.0562392 0.977911 0.00183061
-0.206269 0.0552522 0.976934 0.0064
-0.204847 0.0531156 0.977352 0.00604403
-0.20471 0.0521967 0.97743 0.00877655
-0.202613 0.0500668 0.977978 0.00720307
-0.203931 0.0484016 0.977788 0.00716384
-0.20584 0.0466049 0.977475 0.0060397
-0.209073 0.0446904 0.976878 0.00591222
-0.211522 0.0434502 0.976407 0.00701112
-0.218114 0.0422712 0.975007 0.00804386
-0.219639 0.0407756 0.974729 0.00852686
-0.222038 0.0396014 0.974233 0.00872232
-0.220484 0.0380747 0.974647 0.00901489
-0.219842 0.0369423 0.974836 0.00842143
-0.221488 0.0354881 0.974517 0.00922642
-0.22331 0.0347982 0.974126 0.010361
-0.216255 0.033231 0.975771 0.00848209
-0.218183 0.0328677 0.975354 0.00797085
-0.218777 0.0324806 0.975234 0.00680303
-0.225449 0.0310717 0.973759 0.00658491
-0.225899 0.0308363 0.973663 0.00923734
-0.226777 0.029878 0.973488 0.00774415
-0.232399 0.0294367 0.972175 0.00969049
-0.231662 0.0290271 0.972363 0.00667094
-0.233477 0.0291114 0.971926 0.00916781
-0.225966 0.0280807 0.97373 0.00461963
-0.223619 0.0282538 0.974267 0.00588582
-0.217347 0.0273804 0.97571 0.000726764
-0.216399 0.0272931 0.975923 0
-0.21336 0.0274581 0.976588 0
-0.212365 0.0277247 0.976797 0
-0.214583 0.0282503 0.976297 0
-0.215564 0.0285155 0.976073 0
-0.217034 0.0288825 0.975737 0
-0.214426 0.029792 0.976286 0
-0.215919 0.0314099 0.975906 0
-0.220681 0.0330081 0.974787 0
-0.223487 0.0347843 0.974086 0
-0.224953 0.0368432 0.973673 0.00169423
-0.224779 0.0384744 0.97365 0.00175227
-0.227986 0.0401365 0.972837 0.00227333
-0.228351 0.0420436 0.97267 0.00184005
-0.233862 0.0447429 0.97124 0.00615005
-0.23194 0.0466159 0.971613 0.00528091
-0.235444 0.0498154 0.97061 0.00760876
-0.236603 0.0525613 0.970184 0.00585555
-0.234139 0.0554492 0.970621 0.00517842
-0.233339 0.0576596 0.970684 0.00553356
-0.23042 0.0595971 0.971264 0.0016554
-0.228781 0.0617247 0.971519 0.000554537
-0.22765 0.0647021 0.971591 0.00148507
-0.230782 0.0685565 0.970587 0.00410827
-0.228463 0.0712497 0.970942 0.00417051
-0.229133 0.0741687 0.970565 0.00184257
-0.231052 0.0781901 0.969794 0.00428339
-0.231993 0.0810094 0.969338 0.00512591
-0.236178 0.0847365 0.968008 0.00741466
-0.239101 0.0886547 0.966939 0.0101757
-0.239116 0.091303 0.966689 0.00954559
-0.235315 0.0939628 0.967366 0.00856134
-0.237296 0.0976809 0.966514 0.00997092
-0.24021 0.101393 0.965411 0.0104395
-0.236978 0.104102 0.965921 0.0120127
-0.236488 0.107009 0.965724 0.0131026
-0.234176 0.109566 0.966 0.0130687
-0.235492 0.113557 0.965219 0.0175323
-0.234968 0.116291 0.965022 0.0164839
-0.231194 0.118898 0.965615 0.0138406
-0.231434 0.12261 0.965093 0.0170724
-0.229199 0.125542 0.96525 0.0156673
-0.228814 0.128692 0.964926 0.0175591
-0.229273 0.131933 0.964379 0.018586
-0.227073 0.136404 0.964278 0.0196808
-0.227564 0.139944 0.963655 0.0196975
-0.223648 0.144035 0.963968 0.0202738
-0.227324 0.148685 0.962401 0.0203929
-0.229082 0.152515 0.961385 0.0232459
-0.220057 0.153784 0.963289 0.018884
-0.214686 0.155366 0.964247 0.0177023
-0.211341 0.157846 0.964583 0.0167112
-0.208682 0.162007 0.964472 0.0180189
-0.203199 0.163598 0.965373 0.0155426
-0.201858 0.1665 0.965159 0.0150205
-0.20283 0.170854 0.964193 0.0157429
-0.205317 0.176583 0.962633 0.0196842
-0.202788 0.181205 0.962311 0.0214363
-0.203922 0.186874 0.960986 0.023397
-0.20358 0.188432 0.960754 0.0212838
-0.205527 0.192749 0.959482 0.0214831
-0.207073 0.19909 0.957854 0.0241827
-0.205345 0.200649 0.957901 0.0234802
-0.203577 0.202269 0.957937 0.0224357
-0.202204 0.2052 0.957604 0.0211465
-0.194984 0.205496 0.959037 0.0178267
-0.194157 0.208189 0.958624 0.0177004
-0.192368 0.212268 0.95809 0.0169341
-0.19503 0.220203 0.955758 0.0203408
-0.197988 0.229203 0.95303 0.024446
-0.198032 0.233973 0.951861 0.0242
-0.197018 0.237088 0.951301 0.0225192
-0.193956 0.237619 0.951797 0.020886
-0.19252 0.24132 0.951158 0.0186393
-0.191093 0.24671 0.950062 0.0178523
-0.189803 0.251709 0.949009 0.0170878
-0.187582 0.256126 0.948268 0.0179073
-0.187377 0.261511 0.946838 0.017429
-0.183509 0.268793 0.945555 0.0187909
-0.184157 0.279223 0.942402 0.0204143
-0.183047 0.289451 0.939528 0.0191116
-0.176069 0.289147 0.940953 0.0155717
-0.173255 0.293046 0.940269 0.0146888
-0.171963 0.298102 0.938916 0.0159272
-0.171788 0.305299 0.936633 0.0165522
-0.16733 0.30624 0.937132 0.0132135
-0.165321 0.306681 0.937345 0.00912533
-0.16594 0.315189 0.934409 0.0126299
-0.164038 0.320769 0.932844 0.0125148
-0.162171 0.326563 0.931159 0.0121441
-0.240222 0.0352209 0.970079 0.0192363
-0.235942 0.0402094 0.970935 0.0190321
-0.233648 0.0455365 0.971254 0.0199316
-0.238122 0.0485738 0.97002 0.0243087
-0.234753 0.0505185 0.970741 0.0212682
-0.229254 0.0540395 0.971865 0.0213038
-0.227124 0.0573543 0.972175 0.022067
-0.227944 0.0579095 0.971951 0.022567
-0.229688 0.0587902 0.971487 0.0248223
-0.232892 0.0589724 0.970713 0.0238311
-0.22901 0.061337 0.97149 0.0200438
-0.230209 0.0627403 0.971117 0.0228071
-0.230338 0.0636419 0.971027 0.0217696
-0.228665 0.0647302 0.971351 0.0203219
-0.230126 0.0651544 0.970977 0.0218663
-0.229482 0.0677939 0.970949 0.0200429
-0.230006 0.0690934 0.970733 0.0193995
-0.232489 0.0694245 0.970118 0.0185634
-0.232991 0.0706576 0.969909 0.0184817
-0.233721 0.0717213 0.969655 0.0178745
-0.237917 0.0723824 0.968585 0.0197492
-0.235683 0.0730371 0.969082 0.0188864
-0.236232 0.0740521 0.968871 0.0164007
-0.235519 0.0740346 0.969046 0.0153723
-0.234251 0.0747133 0.969301 0.014426
-0.233199 0.0759806 0.969456 0.0166765
-0.231684 0.0761953 0.969802 0.0137573
-0.228813 0.0772104 0.970404 0.0116366
-0.233855 0.0785326 0.969095 0.0158561
-0.234128 0.078793 0.969008 0.0166302
-0.240091 0.0795746 0.967484 0.0189116
-0.235013 0.0809303 0.968617 0.0157511
-0.235392 0.0800506 0.968598 0.0143448
-0.238209 0.0792612 0.967974 0.014054
-0.23489 0.0800901 0.968717 0.0148617
-0.234115 0.0811961 0.968812 0.0157678
-0.232192 0.0817763 0.969226 0.0144433
-0.233544 0.0810301 0.968964 0.0121769
-0.235214 0.0816912 0.968504 0.0146065
-0.233435 0.0818298 0.968923 0.013782
-0.230538 0.0818509 0.969615 0.0130719
-0.231909 0.0827795 0.969209 0.0118702
-0.233785 0.0815938 0.968859 0.0103122
-0.23759 0.0818191 0.967914 0.0136908
-0.231833 0.0815618 0.96933 0.0102354
-0.228832 0.0814211 0.970055 0.00726968
-0.226608 0.0814291 0.970576 0.00635305
-0.223713 0.0822043 0.971182 0.00406977
-0.22195 0.0818024 0.971621 0.00271531
-0.221238 0.0818724 0.971777 0.00183482
-0.219444 0.0808089 0.972273 0
-0.220355 0.0799328 0.972139 0
-0.215797 0.0799008 0.973164 0
-0.221063 0.0793224 0.972028 0
-0.221398 0.0786648 0.972006 0
-0.217563 0.0784565 0.972888 0
-0.217738 0.0778476 0.972898 9.88115e-05
-0.224543 0.0779507 0.971341 0.00419459
-0.220269 0.0775452 0.972352 0.0029312
-0.224572 0.0762344 0.971471 0.00181863
-0.228855 0.075546 0.970525 0.00412192
-0.228529 0.0747473 0.970663 0.00543223
-0.219116 0.0731672 0.972952 0.00171125
-0.214021 0.0728986 0.974105 0.00245193
-0.216826 0.0715372 0.973586 0.00122336
-0.215516 0.0708443 0.973927 0.000510124
-0.214075 0.0695652 0.974337 0
-0.211959 0.0691384 0.97483 0
-0.209212 0.0682649 0.975485 0
-0.205309 0.0680976 0.976325 0
-0.200216 0.0671651 0.977447 0
-0.200914 0.066511 0.977348 0
-0.202971 0.0657949 0.976972 0
-0.200709 0.0638527 0.977568 0
-0.205607 0.0628978 0.976611 0
-0.200145 0.0613994 0.97784 0
-0.20235 0.0601217 0.977466 0
-0.203467 0.0586405 0.977324 0
-0.204597 0.0571239 0.977178 0.00186558
-0.20424 0.0561604 0.977309 0.00631132
-0.208339 0.054444 0.97654 0.00655668
-0.210277 0.0538634 0.976157 0.00909459
-0.213434 0.0518995 0.975578 0.00932019
-0.210703 0.0499816 0.976271 0.00956852
-0.209932 0.0483723 0.976519 0.00821972
-0.214847 0.0468382 0.975524 0.009547
-0.213257 0.0444693 0.975984 0.00452966
-0.216114 0.0429502 0.975423 0.00508163
-0.224885 0.0417714 0.973489 0.00772194
-0.229491 0.0409611 0.972449 0.0106985
-0.231759 0.039189 0.971984 0.00907047
-0.225908 0.0373273 0.973433 0.00686566
-0.230725 0.0356303 0.972367 0.00715731
-0.234376 0.0350409 0.971514 0.00934831
-0.241402 0.0344893 0.969812 0.0133828
-0.239333 0.0329034 0.97038 0.0111369
-0.241686 0.0321052 0.969823 0.0110989
-0.239688 0.0310095 0.970355 0.0112107
-0.235703 0.0305758 0.971344 0.0122663
-0.233536 0.0294771 0.971901 0.0111331
-0.235002 0.0291768 0.971557 0.00849594
-0.241361 0.0291339 0.969998 0.00824011
-0.234311 0.0269437 0.971788 0.00252306
-0.235827 0.0271115 0.971417 0.00352032
-0.229128 0.0267709 0.973028 0.000320964
-0.226815 0.0269966 0.973564 0
-0.223825 0.0267698 0.974262 0
-0.231214 0.0272476 0.972521 0
-0.225326 0.0279518 0.973882 0
-0.220021 0.0276705 0.975103 0
-0.219578 0.028441 0.97518 0
-0.221694 0.029375 0.974674 0
-0.22789 0.0308891 0.973197 0
-0.233352 0.0325613 0.971847 0.000441973
-0.233286 0.0339788 0.971814 0.00144106
-0.236827 0.0356512 0.970897 0.00342267
-0.239075 0.037935 0.97026 0.00525723
-0.239731 0.0398446 0.970021 0.00625012
-0.244837 0.0421206 0.968649 0.0082013
-0.246549 0.0442866 0.968118 0.00732543
-0.248724 0.0469977 0.967433 0.00815585
-0.24655 0.0493889 0.967871 0.00764341
-0.246297 0.0517754 0.96781 0.00715885
-0.245226 0.0541255 0.967954 0.00585356
-0.245897 0.0573124 0.9676 0.00584077
-0.241935 0.0595632 0.968463 0.00595526
-0.240371 0.0625862 0.968661 0.00509879
-0.236622 0.0638203 0.969503 0.00247414
-0.241831 0.0676104 0.96796 0.00560551
-0.246364 0.070705 0.966595 0.00822977
-0.250683 0.0743703 0.965208 0.0117026
-0.245741 0.0771707 0.966259 0.0102153
-0.242786 0.0812498 0.966671 0.0112226
-0.243002 0.0844967 0.966339 0.00944989
-0.252557 0.0884912 0.963527 0.0131255
-0.253622 0.0910882 0.963005 0.0126934
-0.253435 0.0942841 0.962747 0.0124603
-0.257115 0.0984259 0.961355 0.0157073
-0.256093 0.101482 0.961311 0.0148798
-0.254477 0.104551 0.961411 0.0156078
-0.252745 0.107015 0.961596 0.0160107
-0.255688 0.109963 0.960485 0.0166251
-0.253522 0.113367 0.960664 0.0187979
-0.249974 0.115649 0.961321 0.0163162
-0.25074 0.119927 0.960597 0.0197665
-0.244026 0.121113 0.962176 0.0168029
-0.238464 0.12331 0.963291 0.0149696
-0.24308 0.12727 0.961621 0.0162415
-0.238339 0.130208 0.962414 0.0179961
-0.23901 0.133434 0.961805 0.0173645
-0.238546 0.137074 0.961409 0.017978
-0.238742 0.141389 0.960735 0.0191857
-0.238669 0.145513 0.960137 0.0217663
-0.233918 0.148331 0.960875 0.019875
-0.224883 0.147769 0.963116 0.0143597
-0.219445 0.14994 0.964034 0.0130054
-0.219818 0.154139 0.963287 0.0150672
-0.213979 0.156758 0.964178 0.0141136
-0.210166 0.158819 0.96468 0.0137751
-0.212021 0.163568 0.963479 0.0171966
-0.21179 0.167958 0.962775 0.0172139
-0.214365 0.174345 0.961068 0.0201578
-0.218166 0.179608 0.959242 0.021697
-0.219239 0.186073 0.957764 0.0236406
-0.224149 0.192961 0.955261 0.0287501
-0.21859 0.194826 0.95617 0.0272966
-0.218835 0.198798 0.955296 0.0291744
-0.219964 0.20295 0.954163 0.0289432
-0.22057 0.207947 0.952946 0.029421
-0.217335 0.209725 0.9533 0.0280294
-0.219913 0.214487 0.951648 0.0283051
-0.219245 0.219579 0.95064 0.0296402
-0.214553 0.222615 0.951005 0.02892
-0.206503 0.222823 0.952736 0.0249967
-0.199387 0.223577 0.954075 0.0218781
-0.202739 0.232479 0.951236 0.025378
-0.198498 0.232455 0.952136 0.0211836
-0.197718 0.235237 0.951615 0.0212513
-0.198854 0.242545 0.949542 0.0217518
-0.195855 0.244756 0.949597 0.0195886
-0.193895 0.249412 0.948788 0.0163983
-0.191545 0.25573 0.947583 0.0155167
-0.189187 0.261961 0.946353 0.0163454
-0.188597 0.273875 0.943093 0.0197459
-0.186703 0.280573 0.941499 0.0186972
-0.187126 0.290698 0.938338 0.0200892
-0.17836 0.291548 0.93978 0.0173818
-0.173715 0.29459 0.939702 0.0163766
-0.170048 0.296159 0.939879 0.0134986
-0.169899 0.302054 0.938029 0.0130971
-0.167618 0.305528 0.937314 0.0107105
-0.16581 0.311481 0.935675 0.0125142
-0.162099 0.313046 0.935802 0.0100723
-0.253709 0.0468212 0.966147 0.0194361
-0.247317 0.0508435 0.9676 0.0145464
-0.248173 0.0538902 0.967216 0.0181415
-0.243378 0.0552781 0.968355 0.0181243
-0.246071 0.057491 0.967545 0.0198617
-0.242739 0.0608509 0.968181 0.0215227
-0.241997 0.0618672 0.968303 0.0198965
-0.237891 0.0641696 0.96917 0.0177797
-0.233773 0.0656404 0.970073 0.0143428
-0.234862 0.0666909 0.969738 0.0168242
-0.244957 0.0698772 0.967012 0.0213074
-0.249872 0.0703792 0.965718 0.0214124
-0.25054 0.0709025 0.965507 0.021211
-0.25088 0.0731088 0.965253 0.0218929
-0.252073 0.0747433 0.964818 0.0211474
-0.250389 0.076198 0.965142 0.0173308
-0.25094 0.0763241 0.964989 0.0175638
-0.251399 0.0766563 0.964843 0.0175692
-0.250952 0.0766004 0.964964 0.0156378
-0.25032 0.076898 0.965105 0.0151771
-0.251374 0.0774717 0.964785 0.0157423
-0.245723 0.0779044 0.966205 0.0140704
-0.247404 0.0778633 0.965779 0.0149418
-0.247867 0.0787884 0.965585 0.0139148
-0.251728 0.0796283 0.964517 0.0179529
-0.248068 0.0806789 0.965377 0.0161162
-0.249088 0.0815923 0.965038 0.0161701
-0.251723 0.0809876 0.964405 0.0156955
-0.248973 0.0819027 0.965041 0.0140815
-0.247101 0.0821879 0.965498 0.0127051
-0.24315 0.0814216 0.966565 0.00962063
-0.248983 0.0825835 0.964981 0.0143818
-0.254312 0.0823943 0.963606 0.0156993
-0.254094 0.082279 0.963673 0.0135283
-0.25146 0.0826877 0.964329 0.0124936
-0.247946 0.0824162 0.965262 0.00977915
-0.248195 0.0827616 0.965168 0.010806
-0.248633 0.0824286 0.965084 0.00962389
-0.247174 0.082879 0.96542 0.00918361
-0.244215 0.0831015 0.966154 0.00894679
-0.236093 0.083283 0.968155 0.00581022
-0.236551 0.0831479 0.968055 0.00673197
-0.23453 0.0823871 0.968611 0.00313329
-0.228521 0.0813045 0.970138 0
-0.22815 0.0814728 0.970211 0
-0.228959 0.0812756 0.970037 0
-0.231355 0.0807135 0.969515 0
-0.228411 0.0803635 0.970242 0
-0.22863 0.0804169 0.970186 0
-0.228003 0.0798757 0.970379 0
-0.228402 0.0795209 0.970314 0
-0.228292 0.0787322 0.970404 0
-0.230571 0.0777039 0.969948 0
-0.237821 0.0770233 0.96825 0.00340395
-0.234745 0.0765032 0.969042 0.00211642
-0.235778 0.0757925 0.968847 0.00206471
-0.233504 0.0753171 0.969434 0.00408232
-0.232659 0.0744514 0.969705 0.00255308
-0.22849 0.0730885 0.970799 0
-0.223229 0.0724928 0.972067 0
-0.218873 0.0713121 0.973144 0
-0.219708 0.0708412 0.97299 0
-0.214363 0.0698862 0.974251 0
-0.214251 0.0691784 0.974326 0
-0.211042 0.0685943 0.975067 0
-0.208617 0.0673684 0.975674 0
-0.209819 0.0668415 0.975453 0
-0.20979 0.065816 0.975529 0
-0.210662 0.0646199 0.975421 0
-0.204094 0.062819 0.976934 0
-0.205835 0.0615131 0.976651 0
-0.202805 0.0599439 0.977383 0
-0.206015 0.0581533 0.976819 0
-0.202103 0.0571777 0.977694 0
-0.212659 0.0565797 0.975487 0.00687759
-0.21619 0.0556919 0.974762 0.0089775
-0.217224 0.0538477 0.974635 0.010468
-0.218819 0.0517064 0.974394 0.00847594
-0.225295 0.0502291 0.972995 0.0094669
-0.22879 0.0490951 0.972237 0.0108786
-0.226892 0.0464254 0.972813 0.00793732
-0.228 0.0444962 0.972644 0.00647182
-0.2347 0.0437181 0.971084 0.00874815
-0.239309 0.0423145 0.970021 0.0106439
-0.238761 0.0404005 0.970237 0.010775
-0.238842 0.0383129 0.970302 0.0078472
-0.243471 0.0370887 0.969199 0.0124348
-0.239863 0.03472 0.970186 0.00846814
-0.244921 0.0338813 0.968951 0.011232
-0.246142 0.0328982 0.968675 0.0112363
-0.24708 0.0317457 0.968475 0.0114036
-0.244158 0.0308398 0.969245 0.00915389
-0.244955 0.0299098 0.969073 0.00941534
-0.241144 0.0289605 0.970057 0.00740894
-0.250363 0.0290803 0.967715 0.0104275
-0.243771 0.0281506 0.969424 0.00549022
-0.243957 0.027286 0.969402 0.00420011
-0.24625 0.0270055 0.96883 0.00572772
-0.247918 0.0265201 0.968418 0.00601872
-0.239567 0.0261755 0.970527 0.00139455
-0.243396 0.0262707 0.969571 0.00271189
-0.241638 0.0263795 0.970008 0.00217531
-0.2433 0.026563 0.969587 0.000786292
-0.23915 0.0269601 0.970608 0.000524361
-0.237462 0.027481 0.971008 0.000266552
-0.237164 0.0282073 0.97106 0
-0.247691 0.0302176 0.968368 0.00142658
-0.253489 0.0317412 0.966817 0.00431531
-0.259557 0.0338331 0.965135 0.0104303
-0.258443 0.0349642 0.965394 0.00935962
-0.252393 0.03615 0.966949 0.00631704
-0.255726 0.0381359 0.965997 0.00615293
-0.259564 0.0398595 0.964903 0.0062095
-0.267205 0.0421271 0.962718 0.00923733
-0.26995 0.044184 0.96186 0.00706878
-0.268195 0.0468847 0.962223 0.00832502
-0.271936 0.0499624 0.961018 0.00862349
-0.266107 0.0603039 0.962055 0.010571
-0.264263 0.0628026 0.962404 0.0101343
-0.264217 0.065121 0.962262 0.0096356
-0.260855 0.068243 0.962963 0.0115943
-0.265846 0.0712935 0.961376 0.0136613
-0.262838 0.0745387 0.961956 0.0116017
-0.268707 0.0781895 0.960043 0.0139503
-0.264336 0.0818023 0.960955 0.0128478
-0.261819 0.0848252 0.961382 0.0123429
-0.264357 0.087267 0.960469 0.0122397
-0.262124 0.0901765 0.960812 0.0113115
-0.266144 0.0933962 0.959398 0.0153193
-0.267125 0.0964081 0.958827 0.0154523
-0.268414 0.100536 0.958043 0.017699
-0.27256 0.104321 0.956467 0.0221512
-0.266178 0.106632 0.958008 0.0189965
-0.266771 0.110457 0.957409 0.0198915
-0.255834 0.110837 0.960346 0.0162745
-0.2532 0.113823 0.960694 0.016202
-0.258062 0.118801 0.958796 0.0185891
-0.253176 0.120754 0.959854 0.0169574
-0.255447 0.124653 0.958753 0.017638
-0.25604 0.127555 0.958214 0.0183028
-0.250068 0.130273 0.959424 0.0170079
-0.250223 0.13211 0.959132 0.0160506
-0.24772 0.134805 0.959407 0.0159163
-0.255527 0.141279 0.956424 0.0226451
-0.243255 0.141394 0.959601 0.0174094
-0.244004 0.144839 0.958897 0.0181855
-0.240404 0.147537 0.959395 0.0187583
-0.245294 0.153635 0.957198 0.0217662
-0.240679 0.156598 0.957889 0.0217282
-0.232704 0.157767 0.959666 0.0212871
-0.230891 0.161095 0.959551 0.0212891
-0.236636 0.167016 0.957136 0.0250128
-0.240238 0.17391 0.955008 0.0283914
-0.234908 0.178021 0.955577 0.0283857
-0.226876 0.179344 0.957268 0.0260844
-0.234998 0.186744 0.953888 0.0293759
-0.228915 0.18814 0.955092 0.0275579
-0.233476 0.194669 0.952677 0.0288572
-0.231346 0.19933 0.952232 0.0307593
-0.232132 0.203764 0.951102 0.031211
-0.222898 0.202196 0.953642 0.0247084
-0.227336 0.207498 0.951453 0.0270508
-0.220328 0.208051 0.95298 0.0225462
-0.2184 0.210741 0.952833 0.0223655
-0.217552 0.216278 0.951785 0.0229815
-0.216194 0.220267 0.95118 0.0232914
-0.214036 0.223457 0.950924 0.0231573
-0.209858 0.228293 0.950706 0.0242558
-0.212289 0.233397 0.948925 0.0232613
-0.210605 0.236886 0.948436 0.0233169
-0.208907 0.241213 0.947721 0.0222511
-0.20678 0.243959 0.947484 0.0216108
-0.205258 0.247541 0.946886 0.0189416
-0.201796 0.252431 0.946339 0.0167293
-0.197084 0.259077 0.945535 0.0147511
-0.19355 0.265628 0.944447 0.0161848
-0.191205 0.272475 0.942973 0.0155318
-0.185568 0.279798 0.941954 0.01359
-0.185357 0.286775 0.939895 0.0149908
-0.181423 0.290348 0.939566 0.0150817
-0.18061 0.294777 0.938343 0.0140603
-0.174338 0.29688 0.938865 0.0108271
-0.172051 0.299373 0.938496 0.00707772
-0.277062 0.0580402 0.959098 0.0233313
-0.269393 0.0601311 0.961151 0.0215912
-0.264692 0.0613176 0.962382 0.0204737
-0.263041 0.0624754 0.96276 0.0199933
-0.25738 0.0647796 0.964136 0.0186473
-0.25602 0.0661474 0.964406 0.0169709
-0.261955 0.0663363 0.962797 0.021381
-0.265433 0.0663448 0.961844 0.0233495
-0.265089 0.0676494 0.961848 0.0204559
-0.263881 0.0679426 0.962159 0.0200372
-0.262052 0.0686234 0.962611 0.0189633
-0.263445 0.0714575 0.962024 0.0173452
-0.268282 0.0727998 0.960586 0.0178049
-0.277442 0.0760985 0.957724 0.0206332
-0.275546 0.0766959 0.958223 0.0195744
-0.27314 0.0776479 0.958835 0.0188113
-0.266901 0.0785941 0.960514 0.0143034
-0.265469 0.0780551 0.960955 0.0118168
-0.262457 0.0781379 0.961775 0.010129
-0.259559 0.0784061 0.962539 0.00940365
-0.256898 0.0797023 0.963146 0.010823
-0.261279 0.0804915 0.961902 0.0140376
-0.264728 0.0804701 0.96096 0.0161891
-0.263313 0.0811294 0.961293 0.0147983
-0.261436 0.0814747 0.961776 0.0136738
-0.263927 0.0822822 0.961027 0.0139238
-0.260327 0.0836689 0.961889 0.0130676
-0.261893 0.0834163 0.961485 0.0114158
-0.263444 0.0834289 0.96106 0.0134947
-0.269956 0.0841627 0.959187 0.0161086
-0.268862 0.0836428 0.95954 0.0144497
-0.261703 0.0840418 0.961482 0.00959055
-0.26712 0.0848306 0.959922 0.0115535
-0.254768 0.0845589 0.963298 0.00378245
-0.257966 0.0849102 0.962416 0.00614841
-0.250666 0.0848482 0.964348 0.00429114
-0.25168 0.0844962 0.964115 0.00476092
-0.252341 0.0845236 0.96394 0.00459377
-0.253203 0.0844534 0.96372 0.00481403
