-0.0748765 -0.0530225 0.995782 0.0154356
-0.0684403 -0.0367065 0.99698 0.0122004
-0.0680958 -0.0172212 0.99753 0
-0.0668504 -0.0119487 0.997691 0
-0.0639019 -0.00900576 0.997916 0
-0.0627197 -0.0427506 0.997115 0
-0.0668253 -0.0277344 0.997379 0
0.234248 -0.0628795 0.970141 0.0150088
0.248638 -0.0622608 0.966593 0.0113194
-0.0572704 -0.0270568 0.997992 0.00596861
-0.0568717 -0.0218239 0.998143 0.00632941
-0.055761 -0.0218681 0.998205 0.00844494
-0.055796 -0.0272086 0.998071 0.0082333
-0.0611934 -0.0437197 0.997168 0.0204082
-0.0584203 -0.0527271 0.996899 0.0181398
-0.0645631 -0.0602321 0.996094 0.0316306
-0.0655031 -0.0428472 0.996932 0.00758369
-0.0647621 -0.0292479 0.997472 0
-0.0655567 -0.0319523 0.997337 0.00321925
-0.0675072 -0.0370706 0.99703 0.000803321
-0.0696287 -0.0414606 0.996711 0.0118141
-0.0635766 -0.0201872 0.997773 0
-0.0658777 -0.0230284 0.997562 0
-0.0678583 -0.0255111 0.997369 0
-0.0678337 -0.0157663 0.997572 0
-0.0618413 -0.0237907 0.997802 0
0.244435 -0.055952 0.96805 0.0131589
-0.0491104 -0.0232795 0.998522 0
-0.0590497 -0.0144929 0.99815 0
-0.0564183 -0.0155014 0.998287 0.00191055
-0.0541089 -0.00304557 0.99853 0.00321398
-0.0514362 0.000311958 0.998676 0
-0.0510295 -0.0151488 0.998582 0.00628745
-0.0592284 -0.030843 0.997768 0.0151435
-0.0625838 -0.0472805 0.996919 0.0270104
-0.0647856 -0.0292755 0.99747 0.0104471
-0.0640673 -0.00509566 0.997933 0
-0.0644811 -0.0162041 0.997787 0
-0.065928 -0.0381853 0.997093 0.00733348
-0.0652222 -0.0220281 0.997628 0
-0.0658807 -0.0200499 0.997626 0
-0.06539 -0.0202007 0.997655 0
-0.0672855 -0.00598908 0.997716 0
-0.0686293 -0.021963 0.9974 0
-0.0640879 -0.000109461 0.997944 0
0.23613 -0.0584781 0.96996 0.0243378
0.249687 -0.0531222 0.966868 0.0178972
-0.0480481 -0.0136901 0.998751 0
-0.0537218 0.000615675 0.998556 0
-0.0548445 0.0019908 0.998493 0
-0.0607495 -0.0195898 0.997961 0
-0.0574568 -0.0229049 0.998085 0
-0.0520208 0.0152151 0.99853 0
-0.0547348 0.0068257 0.998478 0.00882765
-0.0596718 -0.0216556 0.997983 0.0183387
-0.0620675 -0.0125271 0.997993 0.00984166
-0.0657661 -0.0276361 0.997452 0.00659944
-0.0616505 -0.0137472 0.998003 0
-0.0610857 -0.0176053 0.997977 0
-0.0636187 -0.0139576 0.997877 0
-0.0630095 -0.00632004 0.997993 0
-0.0644047 -0.0142956 0.997822 0
-0.0649549 -0.0144513 0.997784 0.00420731
-0.0682847 -0.0149253 0.997554 0.00762224
-0.062643 0.0143027 0.997933 0
0.229218 -0.0468621 0.972246 0.0155809
0.244937 -0.0561528 0.967911 0.0189917
-0.0522891 0.0155634 0.998511 0
-0.0510292 0.00158324 0.998696 0
-0.0562607 -0.0128383 0.998334 0
-0.0587706 -0.00955132 0.998226 0
-0.0600309 -0.0117372 0.998128 0.00333968
-0.0585315 -0.0042861 0.998276 0.0121803
-0.0596893 -0.02266 0.99796 0.016411
-0.066708 -0.0165307 0.997636 0.0113592
-0.0610593 -0.00957219 0.998088 0
-0.059474 0.00772011 0.9982 0
-0.0619909 -0.000490725 0.998077 0
-0.0638131 0.0113643 0.997897 0
-0.061924 0.00554103 0.998065 0
-0.0636669 0.0116225 0.997904 0
-0.0683348 0.0106132 0.997606 0.00387236
-0.0700217 0.00628358 0.997526 0.000285211
-0.0700713 0.00501307 0.997529 0.00100506
0.226079 -0.0361365 0.973439 0.00994292
0.22723 -0.0344522 0.973231 0.00636847
0.243351 -0.0455885 0.968866 0.022231
-0.0550186 0.00779531 0.998455 0.00668722
-0.0503372 0.0240549 0.998443 0
-0.0503632 0.0122505 0.998656 0
-0.0575737 -0.00276371 0.998337 0
-0.063267 -0.0132255 0.997909 0.000562601
-0.0564909 0.00707147 0.998378 0
-0.0575455 -0.00188276 0.998341 0.000302382
-0.0574014 0.00747216 0.998323 0
-0.0583733 -0.00557187 0.998279 0
-0.0581144 0.0161217 0.99818 0
-0.0607873 0.014892 0.99804 0
-0.0638105 0.030429 0.997498 0
-0.0647854 0.0110609 0.997838 0
-0.0630908 0.00661186 0.997986 0.00143116
-0.0646627 0.0100381 0.997857 0
-0.0637215 0.0185542 0.997795 0
-0.0715766 0.0165135 0.997298 0.00531109
-0.0667608 0.0119409 0.997698 0
0.21172 -0.0255144 0.976997 0
0.216307 -0.0286992 0.975904 0
0.233434 -0.0383146 0.971617 0.0139812
0.247231 -0.0536349 0.967471 0.0167421
-0.0547299 0.0161264 0.998371 0.00355622
-0.051383 0.0251217 0.998363 0
-0.0519107 0.051005 0.997348 0
-0.0553166 0.0189624 0.998289 0
-0.0526612 0.0270273 0.998247 0
-0.0582614 0.00578485 0.998285 0
-0.0595936 0.00634432 0.998203 0
-0.0606362 0.0162441 0.998028 0
-0.0649067 0.0114451 0.997826 0
-0.0595377 0.00801412 0.998194 0
-0.0623232 0.00834998 0.998021 0
-0.0622865 0.000545017 0.998058 0
-0.0624177 -0.00119583 0.998049 0
-0.0633016 0.0101467 0.997943 0
-0.065917 0.0268493 0.997464 0
-0.0680943 0.0293092 0.997248 0
-0.0642893 0.0258683 0.997596 0
-0.0664073 0.0245633 0.99749 0
-0.0668278 0.0226417 0.997508 0
0.212756 -0.0154191 0.976984 0
0.220282 -0.0204377 0.975222 0
0.229101 -0.0338034 0.972816 0.00579596
0.243975 -0.0363347 0.969101 0.00716706
-0.0545091 0.0448837 0.997504 0
-0.0547803 0.0354897 0.997868 0
-0.0599463 0.0187448 0.998026 0
-0.0625 0.0132153 0.997957 0
-0.0654508 0.018851 0.997678 0.00152427
-0.0665336 0.0269975 0.997419 0.00613489
-0.0635851 0.0249511 0.997664 0
-0.0615118 0.0369402 0.997423 0
-0.0618715 0.0160472 0.997955 0
-0.0631118 0.0146885 0.997898 0
-0.0688958 0.0342322 0.997036 0
-0.0646837 0.0457708 0.996856 0
-0.0661456 0.0410928 0.996963 0
-0.0644431 0.0361502 0.997266 0
-0.066715 0.0220033 0.997529 0
-0.0721921 0.0280731 0.996996 0.00340398
0.19394 -0.0182547 0.980844 0
0.202235 -0.0211792 0.979108 0
0.214052 -0.0226916 0.976559 0
0.226216 -0.0306613 0.973594 0.00797474
0.250039 -0.0390732 0.967447 0.0176164
-0.0517576 0.0473711 0.997536 0
-0.0602587 0.0321799 0.997664 0
-0.0619343 0.0232052 0.99781 0.00383449
-0.0651539 0.030514 0.997409 0.00484662
-0.0668562 0.0139896 0.997665 0.0112522
-0.0608371 0.0313083 0.997657 0
-0.0620465 0.0198856 0.997875 0.00359851
-0.0585938 0.0139819 0.998184 0
-0.0657296 0.0167412 0.997697 0
-0.0683286 0.0342338 0.997075 0
-0.0650906 0.0546457 0.996382 0
-0.0655167 0.0373936 0.997151 0
-0.0652969 0.0172512 0.997717 0
-0.0672122 0.0206568 0.997525 0
-0.068879 0.0285563 0.997216 0.00233399
0.187376 -0.0160975 0.982156 0.00147439
0.194805 -0.0153681 0.980722 0
0.20848 -0.0182699 0.977856 0.00601365
0.220586 -0.0254345 0.975036 0.0159458
0.248744 -0.0521366 0.967165 0.0304479
-0.060483 0.0312027 0.997681 0
-0.0644505 0.0281891 0.997523 0.0116822
-0.0624548 0.0322636 0.997526 0.0071403
-0.0606027 0.0157489 0.998038 0
-0.0645066 0.0229119 0.997654 0
-0.0657249 0.0161424 0.997707 0.00683208
-0.0654761 0.0181982 0.997688 0.0185606
-0.0609239 0.0409348 0.997303 0
-0.0599295 0.0573021 0.996557 0
-0.0585578 0.0737363 0.995557 0
-0.0629049 0.0508768 0.996722 0
-0.0639261 0.0359458 0.997307 0
-0.0640162 0.0454766 0.996912 0
-0.0668166 0.0427893 0.996847 0
-0.0721946 0.0269681 0.997026 0.0139252
-0.0733879 0.0359505 0.996655 0.015463
-0.0671384 0.0147773 0.997634 0.0178825
-0.0711588 0.0183495 0.997296 0.0282031
-0.0598397 0.0272523 0.997836 0.00345059
0.185329 -0.0168711 0.982532 0.0083117
0.195858 -0.0137827 0.980535 0.006276
0.208657 -0.0198231 0.977788 0.0216551
0.222687 -0.0319497 0.974366 0.028833
0.243613 -0.0475688 0.968705 0.0379519
-0.0607872 0.0488023 0.996957 0.00557777
-0.0625793 0.0267738 0.997681 0.00920476
-0.0591126 0.0219467 0.99801 0
-0.0602805 0.0277613 0.997795 0.00138436
-0.0596315 0.0423332 0.997322 0
-0.0627276 0.027351 0.997656 0.00802281
-0.0600267 0.039734 0.997406 0.00149168
-0.0568775 0.069304 0.995973 0
-0.061995 0.0632452 0.996071 0
-0.0614502 0.0498366 0.996865 0
-0.0625965 0.0616489 0.996133 0
-0.066013 0.0598725 0.996021 0
-0.0698076 0.0535119 0.996124 0.00429966
-0.0707905 0.0363236 0.99683 0.00598175
-0.0666051 0.0336293 0.997213 0.00938176
-0.0600184 0.0228865 0.997935 0.00609546
-0.0680747 0.0178081 0.997521 0.0182451
-0.0766279 0.0114806 0.996994 0.0301466
-0.0629256 0.0314474 0.997523 0.00660146
0.18757 -0.00879419 0.982212 0.0139647
0.197322 -0.0177594 0.980178 0.0207212
0.20642 -0.0213378 0.978231 0.0290514
0.218695 -0.0296843 0.975342 0.0370217
0.24302 -0.0375864 0.969293 0.0374629
-0.0593883 0.037891 0.997516 0.00971508
-0.0580256 0.0403114 0.997501 0
-0.0596423 0.0373695 0.99752 0
-0.0607948 0.0412741 0.997297 0
-0.057395 0.0563898 0.996758 0
-0.0532641 0.0612221 0.996702 0
-0.0534154 0.0725037 0.995937 0
-0.059676 0.0690577 0.995826 0
-0.059234 0.0655977 0.996086 0
-0.059807 0.0715561 0.995642 0
-0.065185 0.102107 0.992635 0
-0.0720811 0.05895 0.995655 0
-0.0701334 0.058083 0.995845 0.00275017
-0.0691622 0.0357244 0.996966 0.00466757
-0.0722397 0.0225999 0.997131 0.0154612
-0.0652968 0.0215446 0.997633 0.0179522
-0.0700115 0.0445806 0.99655 0.0306804
-0.0658679 0.03294 0.997285 0.018018
-0.0598137 0.0301503 0.997754 0.0116801
-0.0636444 0.0336867 0.997404 0.0132581
0.190479 4.07223e-05 0.981691 0.0319393
0.194444 -0.00454803 0.980903 0.0265019
0.199832 0.00217509 0.979828 0.0166792
0.208471 -0.0177549 0.977868 0.0195005
0.22924 -0.0215983 0.97313 0.0191352
-0.055718 0.05483 0.99694 0
-0.0600539 0.0507287 0.996905 0
-0.060596 0.0521145 0.996801 0
-0.0557695 0.0677478 0.996143 0
-0.0503496 0.0650572 0.996611 0
-0.0515072 0.0686077 0.996313 0
-0.0578419 0.0619378 0.996403 0
-0.0630174 0.0681729 0.995681 0.00223018
-0.0633462 0.0658738 0.995815 0
-0.0617434 0.0898154 0.994043 0
-0.0641099 0.059114 0.99619 0
-0.0661718 0.0569881 0.99618 0
-0.0678589 0.0412326 0.996843 0.00597447
-0.0662196 0.0465546 0.996718 0.00605666
-0.0703074 0.0205956 0.997313 0.0241943
-0.0682265 0.0314341 0.997175 0.0224737
-0.0698287 0.0340998 0.996976 0.0355571
-0.0621093 0.0326688 0.997535 0.0233002
-0.0606117 0.0423791 0.997261 0.00898575
0.153205 0.015277 0.988076 0.0199943
0.184648 0.00479035 0.982793 0.0287712
0.187517 0.00728542 0.982234 0.0199571
0.194018 0.00337601 0.980992 0.0144798
0.201793 -0.00807447 0.979395 0.0064087
0.215251 -0.0106684 0.976501 0
-0.0550591 0.0526136 0.997096 0.00320076
-0.0529145 0.064983 0.996482 0
-0.054173 0.0631222 0.996534 0
-0.0503787 0.0766905 0.995781 0
-0.0526925 0.0640375 0.996555 0
-0.0554523 0.0784915 0.995371 0
-0.05594 0.0891095 0.99445 0
-0.0562853 0.0984582 0.993548 0
-0.0555752 0.0922841 0.994181 0
-0.0575023 0.0886905 0.994398 0
-0.0630542 0.0588207 0.996275 0
-0.0603328 0.0472514 0.997059 0
-0.0663305 0.030907 0.997319 0.012022
-0.0680473 0.0308391 0.997205 0.025498
-0.0687799 0.0230954 0.997364 0.023442
-0.0636417 0.0436647 0.997017 0.0115613
-0.0597235 0.0627521 0.996241 0.00814371
-0.0608575 0.068675 0.995781 0.00338106
0.157038 0.0216134 0.987356 0.0330195
0.182201 0.00547951 0.983246 0.0292181
0.189144 -0.00207921 0.981947 0.0131768
0.194374 0.00577452 0.98091 0
0.206947 0.00354054 0.978346 0
-0.0526875 0.0775566 0.995595 0.000837157
-0.0566676 0.0924724 0.994101 0.00770881
-0.0564587 0.0967802 0.993703 0.00395957
-0.0516306 0.0706998 0.996161 9.4086e-05
-0.0512256 0.0862903 0.994952 0
-0.0512009 0.0943291 0.994224 0
-0.0536026 0.0823828 0.995158 0
-0.0506628 0.112291 0.992383 0
-0.0530142 0.10665 0.992882 0
-0.0528945 0.098155 0.993764 0
-0.0574468 0.0849483 0.994728 0
-0.0592775 0.0788279 0.995124 0
-0.0598016 0.0561116 0.996632 0
-0.0604152 0.0342886 0.997584 0.0154216
-0.0625077 0.0386476 0.997296 0.0105438
-0.0609679 0.0348551 0.997531 0.0156914
-0.058104 0.0475218 0.997179 0.014146
-0.0512098 0.0828068 0.995249 0
-0.0515491 0.0921151 0.994413 0.00458311
-0.0596332 0.0664083 0.996009 0.0294189
-0.0583156 0.0662566 0.996097 0.0308408
0.145198 0.0274367 0.989022 0.0187988
0.151098 0.0324795 0.987985 0.0215128
0.158267 0.0267135 0.987035 0.0141118
0.17583 0.0217504 0.98418 0.0154001
0.180456 0.015648 0.983459 0.00571119
0.187653 0.00853309 0.982198 0
0.203339 -0.00151577 0.979107 0.00335685
-0.0544038 0.0690228 0.996131 0
-0.0544093 0.0727601 0.995864 0.0024613
-0.0558641 0.102296 0.993184 0.0053297
-0.051842 0.0953552 0.994092 0
-0.0510496 0.102873 0.993384 0
-0.0477592 0.112936 0.992454 0
-0.0479237 0.0936696 0.994449 0
-0.0453623 0.129911 0.990487 0
-0.0553582 0.0996619 0.99348 0
-0.0517698 0.0930194 0.994317 0
-0.0505122 0.0924001 0.99444 0
-0.0556204 0.0775234 0.995438 0
-0.0625213 0.0397543 0.997252 0
-0.0564375 0.0566983 0.996795 0
-0.0585286 0.0597369 0.996497 0
-0.0597942 0.0610599 0.996341 0
-0.0574885 0.0707193 0.995838 0
-0.0546024 0.0892404 0.994512 0
-0.0533746 0.0848903 0.99496 0
-0.0594357 0.0505232 0.996953 0.014807
-0.05945 0.0579091 0.99655 0.0358624
0.130831 0.0267159 0.991045 0.0244069
0.137453 0.027532 0.990126 0.0269051
0.142263 0.0249014 0.989516 0.0173768
0.157782 0.0350988 0.98685 0.0189034
0.16817 0.027562 0.985373 0.00339922
0.178007 0.0151938 0.983912 0.00166682
0.180914 0.0152884 0.98338 0.0114053
-0.047974 0.118807 0.991758 0
-0.051575 0.124875 0.990831 0
-0.052699 0.0854767 0.994946 0
-0.0490726 0.0874977 0.994955 0
-0.0481505 0.0898535 0.99479 0
-0.0536334 0.0748198 0.995754 0
-0.0560306 0.0650689 0.996306 0
-0.0589929 0.0624871 0.996301 0
-0.0614523 0.0631994 0.996107 0
-0.0605516 0.0674351 0.995885 0
-0.0580826 0.078803 0.995197 0
-0.0555922 0.079181 0.995309 0
-0.055888 0.0778543 0.995397 0.00020426
-0.0607093 0.0557678 0.996596 0.0265819
-0.0617648 0.0591628 0.996336 0.0348023
-0.0524192 0.0579356 0.996943 0.0230898
0.124738 0.0274415 0.99181 0.0229744
0.132189 0.0269634 0.990858 0.0137973
0.139303 0.034506 0.989648 0.0108768
0.147499 0.0347202 0.988453 0.000984567
0.161294 0.0275828 0.986521 0.000377522
0.177704 0.0136311 0.98399 0.00691692
0.178877 0.0162884 0.983737 0.00658746
-0.0530488 0.092647 0.994285 0
-0.0494784 0.105759 0.99316 0
-0.043022 0.0980033 0.994256 0
-0.0499407 0.0874544 0.994916 0
-0.0520515 0.0738242 0.995912 0
-0.0537813 0.0667072 0.996322 0
-0.0501323 0.0659906 0.99656 0
-0.0564294 0.0633273 0.996396 0
-0.056571 0.060205 0.996582 0
-0.0550787 0.100749 0.993386 0
-0.0567408 0.0830477 0.994929 0
-0.0571785 0.062912 0.99638 0
-0.0623496 0.0507069 0.996765 0.013718
-0.0672167 0.0484086 0.996563 0.0369909
-0.0559089 0.055155 0.996911 0.0265241
-0.0559201 0.0537461 0.996988 0.02977
-0.0561666 0.0540468 0.996958 0.0419447
-0.0535399 0.0555944 0.997017 0.02951
-0.048108 0.0861748 0.995118 0.0376722
0.122919 0.0317866 0.991908 0.0365556
0.127261 0.0346715 0.991263 0.018319
0.138283 0.0528652 0.988981 0
0.146484 0.035298 0.988583 0.00734586
0.158292 0.0345321 0.986788 0
-0.0523864 0.078634 0.995526 0
-0.0544341 0.0766124 0.995574 0
-0.0545537 0.0788561 0.995392 0
-0.053401 0.077632 0.995551 0
-0.0523281 0.0813513 0.995311 0
-0.0510436 0.0809663 0.995409 0
-0.0546853 0.0845877 0.994914 0
-0.0571367 0.0924872 0.994073 0
-0.0534228 0.0890263 0.994596 0
-0.0582093 0.0763115 0.995383 0.00529761
-0.0589645 0.0650121 0.996141 0.0195336
-0.0542741 0.0674419 0.996246 0.0158151
-0.0597484 0.0664534 0.995999 0.0356558
-0.0582073 0.0475829 0.99717 0.0416431
-0.053359 0.0465689 0.997489 0.0401726
-0.0439288 0.0678129 0.996731 0.0335646
0.116751 0.0525846 0.991768 0.00714768
0.123854 0.0368513 0.991616 0.0171422
0.133719 0.0283388 0.990614 0.00986139
0.146032 0.0430041 0.988345 0
0.159335 0.0297397 0.986777 0.00399999
-0.0534174 0.0675003 0.996288 0
-0.0515829 0.0658072 0.996498 0
-0.0572716 0.0601161 0.996547 0
-0.0522485 0.0765347 0.995697 0
-0.0519022 0.0854381 0.994991 0
-0.0547577 0.0856456 0.99482 0
-0.0521272 0.0870752 0.994837 0
-0.0549258 0.081673 0.995145 0
-0.0589025 0.0685188 0.995909 0
-0.0615485 0.0552341 0.996575 0.0229776
-0.0600092 0.0606777 0.996352 0.02218
-0.0614123 0.0595001 0.996337 0.0363383
-0.0528439 0.0630894 0.996608 0.0344849
-0.0505173 0.0606771 0.996878 0.0367697
-0.04423 0.069591 0.996595 0.0303581
-0.0377524 0.0811943 0.995983 0.0236128
-0.0400821 0.0722788 0.996579 0.0342501
-0.0258408 0.0576399 0.998003 0.0161085
0.11726 0.0425724 0.992188 0
0.122864 0.0406819 0.991589 0
0.131761 0.0270695 0.990912 0.00445391
0.144819 0.0423288 0.988552 0
0.143622 0.0358 0.988985 0
0.158741 0.0296631 0.986875 0.00791181
-0.0544709 0.0546693 0.997018 0
-0.0521093 0.0590123 0.996896 0
-0.0503655 0.0647024 0.996633 0
-0.054122 0.0780788 0.995477 0
-0.052034 0.0875218 0.994803 0
-0.0548401 0.0805238 0.995243 0
-0.0527309 0.05966 0.996825 0
-0.054853 0.0685528 0.996138 0
-0.059031 0.0543323 0.996776 0.00994117
-0.0620911 0.045161 0.997048 0.0274005
-0.0563321 0.0577494 0.996741 0.0267804
-0.053955 0.0560741 0.996968 0.0300248
-0.048117 0.071661 0.996268 0.0238969
-0.0440863 0.0833947 0.995541 0.0224023
-0.0392811 0.0760891 0.996327 0.0281198
-0.0340281 0.0772797 0.996429 0.0185024
-0.031538 0.0681445 0.997177 0.0208718
-0.0226182 0.0660759 0.997558 0.0119166
-0.0156381 0.043018 0.998952 0.00195986
-0.00966423 0.0462026 0.998885 0
0.11617 0.0450519 0.992207 0
0.121852 0.0368329 0.991865 0
0.129884 0.0284815 0.99112 0
0.142295 0.0311598 0.989334 0.0123654
0.156136 0.030588 0.987262 0.0035164
-0.0531638 0.0774341 0.995579 0
-0.0574836 0.0713778 0.995792 0
-0.0546962 0.0581138 0.99681 0
-0.0569552 0.0381743 0.997647 0
-0.0603492 0.0441529 0.9972 0.00328033
-0.0622423 0.0381568 0.997331 0.0260852
-0.0525437 0.0529245 0.997215 0.0126473
-0.0487535 0.0555357 0.997266 0.015265
-0.0496046 0.0675622 0.996481 0.0249072
-0.0480135 0.0760594 0.995947 0.0256334
-0.0396603 0.0678188 0.996909 0.0312712
-0.0393903 0.0715333 0.99666 0.0281564
-0.0233784 0.0673647 0.997454 0.0188087
-0.017807 0.0732802 0.997152 0
-0.0130393 0.03228 0.999394 0
-0.0107946 0.0340798 0.999361 0
0.104976 0.0465867 0.993383 0
0.11381 0.0445402 0.992504 0
0.120613 0.0436527 0.991739 0
0.128587 0.0326075 0.991162 0
0.143689 0.0332783 0.989063 0
-0.0608393 0.0494708 0.996921 0
-0.0611257 0.0616714 0.996223 0
-0.0593119 0.0406695 0.997411 0.00304269
-0.0604529 0.0439096 0.997205 0.0116435
-0.0581744 0.0504561 0.997031 0.0110849
-0.0540615 0.062511 0.996579 0.0162974
-0.0459165 0.0619068 0.997025 0.0172677
-0.0463374 0.0893712 0.99492 0.0216733
-0.0339689 0.0562656 0.997838 0.0115328
-0.0356945 0.0693993 0.99695 0.0218766
-0.0270852 0.0695433 0.997211 0.0140585
-0.0163048 0.0573751 0.99822 0
-0.0128069 0.0411241 0.999072 0
-0.0080767 0.0385181 0.999225 0
-0.00452819 0.06067 0.998148 0
0.0324152 0.0483536 0.998304 0
0.0871159 0.04507 0.995178 0.0279197
0.105272 0.0532779 0.993015 0.00291314
0.113706 0.0562572 0.99192 0
0.121695 0.0524545 0.99118 0
0.127633 0.0374213 0.991115 0
0.146016 0.0369712 0.988591 0
0.160307 0.0461608 0.985987 0
-0.0603066 0.0506353 0.996895 0
-0.0596993 0.0433849 0.997273 0
-0.0603887 0.0405523 0.997351 0.00107717
-0.0582265 0.0287795 0.997889 0.0154062
-0.0548165 0.0434457 0.997551 0.0109736
-0.046453 0.0572141 0.997281 0.0094922
-0.0430872 0.0524849 0.997692 0.00598737
-0.0457988 0.078669 0.995848 0.0135386
-0.0323179 0.0573597 0.99783 0
-0.0287433 0.0624161 0.997636 0.00362839
-0.0257335 0.062674 0.997702 0
-0.0202252 0.0433349 0.998856 0
-0.0130044 0.0425746 0.999009 0
-0.00443741 0.04777 0.998848 0
-1.01066e-05 0.0453218 0.998972 0.00162974
0.00898677 0.0590821 0.998213 0
0.0337086 0.0707625 0.996924 0
0.0839258 0.0413117 0.995615 0.0216498
0.091024 0.0413527 0.99499 0.0232909
0.0994959 0.0497762 0.993792 0.00522549
0.106468 0.0555062 0.992766 0
0.113243 0.0655457 0.991403 0
0.11859 0.0533523 0.991509 0
0.131497 0.0412401 0.990458 0
0.147101 0.0499719 0.987858 0
-0.0626854 0.0445353 0.997039 0.00153357
-0.0603127 0.0406083 0.997353 0.0109966
-0.057435 0.037927 0.997629 0.0130775
-0.0471115 0.0292916 0.99846 0.00291827
-0.0448685 0.0540721 0.997528 0.000538613
-0.0442468 0.0623168 0.997075 0.0102275
-0.0331305 0.0553669 0.997916 0.00533925
-0.0274067 0.0618556 0.997709 0
-0.0226157 0.0357803 0.999104 0.0148385
-0.0204152 0.0514703 0.998466 0.00580542
-0.0168679 0.02117 0.999634 0.00870393
-0.010966 0.0388608 0.999184 0.0074385
-0.00334669 0.0372479 0.9993 0.0146445
0.0104445 0.0457772 0.998897 0
0.0331188 0.0540348 0.99799 0
0.0365851 0.0698985 0.996883 0
0.0383441 0.0508748 0.997969 0
0.0801475 0.0463021 0.995707 0.00795961
0.0888922 0.0486401 0.994853 0.0266541
0.097712 0.0455034 0.994174 0.0195039
0.103071 0.0643516 0.99259 0
0.10891 0.0579948 0.992358 0
0.116241 0.0603961 0.991383 0
0.131129 0.0617792 0.989438 0
0.154965 0.0700403 0.985434 0
-0.0530695 0.0408759 0.997754 0.00857405
-0.049968 0.0480488 0.997594 0.0132332
-0.0430787 0.0393001 0.998298 0
-0.0477186 0.0357937 0.998219 0.00452954
-0.0353167 0.0454361 0.998343 0.0053922
-0.0291441 0.0543308 0.998098 0.00947269
-0.0239939 0.040797 0.998879 0.0274424
-0.0182161 0.0298316 0.999389 0.0141886
-0.0117002 0.0352466 0.99931 0.0100193
-0.00484321 0.0356096 0.999354 0
-0.00185781 0.0319672 0.999487 0.00431764
0.00770511 0.0488171 0.998778 0.00365291
0.0288708 0.054841 0.998078 0
0.0328642 0.0608504 0.997606 0
0.0377921 0.0646357 0.997193 0
0.0442241 0.048038 0.997866 0
0.0629891 0.0559769 0.996443 0
0.07902 0.0537829 0.995421 0.00418017
0.0856341 0.0542175 0.99485 0.0110875
0.0965344 0.0556361 0.993773 0.0142786
0.10198 0.0658832 0.992602 0
0.110228 0.0566996 0.992288 0
0.115591 0.0480675 0.992133 0.000546105
0.127673 0.0685814 0.989442 0
0.156322 0.074702 0.984877 0
-0.0514103 0.047018 0.99757 0
-0.0534968 0.0431022 0.997637 0.00689531
-0.0473367 0.0311327 0.998394 0
-0.0410086 0.0403633 0.998343 0.00349067
-0.0351145 0.0449618 0.998371 0.00400841
-0.029308 0.0495394 0.998342 0.0162728
-0.0195832 0.0386923 0.999059 0.019737
-0.0186728 0.034709 0.999223 0.0141936
-0.013848 0.0126931 0.999824 0.0174708
-0.00891852 0.0265053 0.999609 0.0232984
-9.95118e-05 0.0540794 0.998537 0.0153358
0.0042466 0.0591151 0.998242 0.00736299
0.0258079 0.0734359 0.996966 0
0.0327562 0.0574535 0.997811 0
0.0366876 0.0454288 0.998294 0
0.0451492 0.0425788 0.998072 0
0.0577287 0.0500913 0.997075 0
0.0759828 0.0534206 0.995677 0.0037896
0.0821244 0.0670533 0.994364 0.00334444
0.0952829 0.0633429 0.993433 0.00837786
0.10087 0.0609242 0.993032 0.00957036
0.105703 0.063589 0.992362 0
0.116168 0.0707473 0.990707 0
0.127305 0.0866198 0.988074 0
-0.0497792 0.0358988 0.998115 0
-0.049479 0.0416307 0.997907 0
-0.0483509 0.047675 0.997692 0.00290744
-0.043359 0.0507785 0.997768 0.00774884
-0.0334925 0.0384662 0.998698 0.00380903
-0.0300655 0.024518 0.999247 0.0173288
-0.0228581 0.0316212 0.999239 0.00974026
-0.0160383 0.0259647 0.999534 0.00873903
-0.0138185 0.024934 0.999594 0.00766532
-0.00892426 0.0291518 0.999535 0.0295528
-0.00238037 0.0247371 0.999691 0.036697
0.00463398 0.0290129 0.999568 0.02619
0.0244426 0.0706874 0.997199 0
0.0291366 0.055962 0.998008 0
0.0377696 0.0477106 0.998147 0
0.0441773 0.0352146 0.998403 0
0.0566712 0.0455779 0.997352 0.00176997
0.0754549 0.0608805 0.995289 0.00103011
0.0830337 0.0678276 0.994236 0.00649316
0.0940217 0.0670958 0.993307 0
0.0992875 0.0560944 0.993476 0.0101354
0.106624 0.0660852 0.992101 0
0.113625 0.0786736 0.990404 0
0.130697 0.084959 0.987775 0
-0.0474885 0.0683891 0.996528 0
-0.045531 0.0491204 0.997755 0
-0.0516621 0.0268106 0.998305 0
-0.0497225 0.0468105 0.997666 0.00487049
-0.0475697 0.0532819 0.997446 0.0132581
-0.0374462 0.0523083 0.997929 0.013007
-0.0300371 0.0357134 0.998911 0.00123498
-0.0236796 0.0341053 0.999138 0.00373447
-0.0206013 0.0390748 0.999024 0.0121357
-0.0178768 0.0251005 0.999525 0.0293282
-0.0102517 0.0279891 0.999556 0.027182
-0.0076732 0.0294376 0.999537 0.0272403
0.00544513 0.0479419 0.998835 0.00734109
0.0198229 0.0467673 0.998709 0.00847286
0.0274624 0.0546317 0.998129 0.00552004
0.0339137 0.0419236 0.998545 0.00414358
0.0447886 0.049502 0.997769 0
0.0572595 0.0536562 0.996916 0.00672227
0.0754513 0.0532004 0.995729 0.0157666
0.0839068 0.0691152 0.994074 0.0119865
0.0920963 0.0683633 0.993401 0
0.0981895 0.0606934 0.993315 0.00623523
0.102975 0.06472 0.992576 0
0.11312 0.0864552 0.989813 0
-0.0439976 0.0527385 0.997639 0
-0.0427073 0.054158 0.997619 0
-0.0432188 0.0540786 0.997601 0
-0.041843 0.0368376 0.998445 0.0097838
-0.0309156 0.0515979 0.998189 0
-0.0302817 0.042036 0.998657 0
-0.0251684 0.0395113 0.998902 0
-0.0187225 0.0408538 0.99899 0.0120631
-0.0174706 0.0302819 0.999389 0.0163966
-0.0138528 0.0314271 0.99941 0.0181888
-0.0059512 0.0364091 0.999319 0.00464163
0.00487373 0.0372803 0.999293 0.00513591
0.00723566 0.0476164 0.998839 0
0.0253727 0.0407587 0.998847 0
0.0285149 0.0525927 0.998209 0
0.0342994 0.0686129 0.997054 0
0.0475838 0.0491041 0.99766 0
0.0588988 0.0608994 0.996405 0.0016491
0.0747988 0.041589 0.996331 0.0122957
0.0806491 0.0440853 0.995767 0.0140343
0.0888051 0.0615351 0.994146 0
0.101385 0.0698226 0.992394 0
0.105302 0.0827832 0.990989 0
0.11107 0.0735856 0.991085 0
-0.0432126 0.0759871 0.996172 0
-0.0398512 0.0572909 0.997562 0
-0.0395133 0.0465868 0.998132 0
-0.0330851 0.0613604 0.997567 0
-0.0278071 0.0550226 0.998098 0
-0.0238431 0.0449024 0.998707 0.00383
-0.0168391 0.0466657 0.998769 0.00379681
-0.0127047 0.0470745 0.998811 0.00470326
-0.0118614 0.0384188 0.999191 0.0160574
-0.00691321 0.0229169 0.999713 0.0207269
-0.00163699 0.0420937 0.999112 0.0100239
0.00502871 0.040954 0.999148 0.00360366
0.0218923 0.0344936 0.999165 0
0.0270991 0.0522033 0.998269 0
0.034319 0.0509417 0.998112 0
0.0471352 0.0497991 0.997646 0.00778208
0.0603264 0.0367539 0.997502 0.00592981
0.074379 0.0462354 0.996158 0
0.0814452 0.0487623 0.995484 0
0.0922652 0.0635784 0.993703 0
0.103626 0.0685878 0.992249 0
0.107239 0.0757981 0.99134 0
0.117206 0.0641516 0.991033 0
-0.0344102 0.058053 0.99772 0
-0.0298592 0.0577658 0.997883 0
-0.024927 0.0538299 0.998239 0
-0.0183983 0.0748581 0.997024 0
-0.0136817 0.0587885 0.998177 0
-0.0114332 0.0382517 0.999203 0
-0.00677382 0.0456648 0.998934 0.00666196
-0.00906568 0.0332476 0.999406 0.0347131
0.00086505 0.0559766 0.998432 0.0230578
0.0082927 0.0554221 0.998429 0.0109793
0.0200455 0.0393901 0.999023 0
0.0301798 0.0359372 0.998898 0
0.0369013 0.0515131 0.99799 0
0.0433717 0.0369418 0.998376 0.0213083
0.0565498 0.041004 0.997557 0.00542246
0.0764261 0.0407899 0.996241 0
0.084911 0.0415595 0.995521 0.000515405
0.0908199 0.0482029 0.9947 0
0.0985884 0.0612969 0.993239 0
0.104266 0.0622828 0.992597 0
0.113611 0.0657164 0.991349 0
-0.0251835 0.0772033 0.996697 0
-0.0194706 0.0687998 0.997441 0.00191901
-0.0116834 0.078286 0.996862 0
-0.00685052 0.0762806 0.997063 0
-0.00989319 0.0417687 0.999078 0.0116574
-0.00211949 0.0401591 0.999191 0.030895
0.00095153 0.047372 0.998877 0.0255319
0.0074955 0.0503587 0.998703 0.0223273
0.0219157 0.0508298 0.998467 0.00727821
0.0264119 0.0444354 0.998663 0
0.0367682 0.0485571 0.998143 0
0.0444177 0.0554529 0.997473 0.00193498
0.0585253 0.0309596 0.997806 0
0.0781685 0.0316923 0.996436 0.00382103
0.0825751 0.0380439 0.995858 0
0.0886546 0.0354588 0.995431 0.00568566
0.100244 0.0380572 0.994235 0.0118808
0.106971 0.0523283 0.992884 0
0.113687 0.0543073 0.992031 0
-0.014095 0.0634155 0.997888 0
-0.0121934 0.056451 0.998331 0.00020729
-0.00880475 0.0272455 0.99959 0.012496
-0.00591765 0.0263151 0.999636 0.0297827
0.00750904 0.0313169 0.999481 0.0241288
0.0105193 0.0445032 0.998954 0.0137244
0.0256992 0.0440988 0.998697 0.000245145
0.0361617 0.064026 0.997293 0
0.0481887 0.0625959 0.996875 0
0.0592664 0.0280188 0.997849 0.00286899
0.077533 0.0271999 0.996619 0.00258657
0.0876469 0.0231095 0.995883 0
0.0922715 0.0281929 0.995335 0.00572786
0.0983415 0.0289237 0.994732 0.0153304
0.106798 0.0363595 0.993616 0.00964709
0.115994 0.0424267 0.992343 0
-0.0148036 0.0548885 0.998383 0
-0.0137878 0.0601947 0.998091 0.0108696
-0.00853027 0.0265694 0.999611 0.0252877
-0.0022813 0.0334792 0.999437 0.027606
0.00804219 0.0302491 0.99951 0.0207096
0.0134041 0.0245263 0.999609 0.021698
0.0279579 0.0384639 0.998869 0.00719438
0.0353802 0.045997 0.998315 0
0.0420321 0.0371272 0.998426 0
0.057225 0.0176359 0.998205 0.013644
0.0801641 0.0248426 0.996472 0.00469119
0.0842332 0.0271429 0.996076 0
0.0900198 0.0211498 0.995715 0.0143602
0.097704 0.0157209 0.995091 0.0183475
0.110393 0.0289633 0.993466 0.0295404
-0.0153445 0.0583386 0.998179 0
-0.0114263 0.0502199 0.998673 0.0231322
-0.00690331 0.0463603 0.998901 0.0269642
-0.00113102 0.0364058 0.999336 0.0337149
5.65453e-05 0.020623 0.999787 0.0357015
0.00909893 0.0149009 0.999848 0.0309577
0.0275913 0.0440196 0.99865 0.00888183
0.0346486 0.0287503 0.998986 0.00365088
0.0429418 0.0293873 0.998645 0.00656204
0.0596478 0.0346972 0.997616 0.0104217
0.0760442 0.0158102 0.996979 0.0161495
0.0825047 0.029923 0.996141 0.00837894
0.089453 0.0129912 0.995906 0.0193992
0.099634 0.0150172 0.994911 0.0307122
0.112986 0.029172 0.993168 0.0295093
-0.0217562 0.0360463 0.999113 0
-0.013883 0.0479915 0.998751 0.010885
-0.0103796 0.0427188 0.999033 0.0230818
-0.0100032 0.0410517 0.999107 0.016731
0.000268147 0.0323939 0.999475 0.0286042
0.00387727 0.0228285 0.999732 0.028623
0.00589378 0.024987 0.99967 0.0274426
0.0265118 0.02267 0.999391 0.0178145
0.0356631 0.0290102 0.998943 0.0159534
0.0424632 0.0415779 0.998232 0.00515868
0.0593615 0.0303348 0.997776 0.0132537
0.0801603 0.0176974 0.996625 0.0105128
0.0851488 0.0220734 0.996124 0.0194298
0.0863666 0.024963 0.995951 0.015688
0.0965999 0.0230128 0.995057 0.0208285
-0.0172875 0.0295187 0.999415 0.00988978
-0.0129022 0.0276644 0.999534 0.0139596
-0.00797095 0.0255467 0.999642 0.0122237
-0.00404759 0.0325482 0.999462 0.0195294
0.00215002 0.0309949 0.999517 0.0238692
0.00892592 0.029466 0.999526 0.0307184
0.0276276 0.0170257 0.999473 0.0210598
0.0316255 0.0181768 0.999335 0.010827
0.0892643 0.0258907 0.995671 0.0215725
0.0881892 0.0327643 0.995565 0.0246588
-0.01961 0.017778 0.99965 0
-0.0191873 0.0220444 0.999573 0.0111197
-0.0102144 0.00759796 0.999919 0.0124635
-0.00393079 0.0127027 0.999912 0.019962
0.00119878 0.0304362 0.999536 0.0342467
0.0093684 0.038891 0.9992 0.026181
0.0201106 0.0202818 0.999592 0.0256333
0.0246224 0.00377885 0.99969 0.0338588
-0.0182945 0.0267872 0.999474 0
-0.0133055 0.025672 0.999582 0
-0.011133 0.0296136 0.999499 0.00868797
-0.00936895 0.0138414 0.99986 0.0304603
0.00382274 0.0322787 0.999472 0.0175773
0.0100565 0.035517 0.999318 0.0268754
0.0182148 0.00706742 0.999809 0.0292008
0.0264444 0.0222676 0.999402 0.0300877
-0.0228256 0.0315656 0.999241 0
-0.016427 0.0331499 0.999315 0
-0.0110285 0.0415618 0.999075 0
-0.00860861 0.016732 0.999823 0.0190614
0.000537977 0.0429378 0.999078 0.00149079
0.0105883 0.0429705 0.99902 0
0.0234515 0.010789 0.999667 0.0228124
0.0300945 0.0224467 0.999295 0.0126516
-0.0194891 0.0285282 0.999403 0
-0.0146987 0.0243816 0.999595 0
-0.0108429 0.0381812 0.999212 0
0.00110147 0.0337606 0.999429 0
0.00831101 0.0367102 0.999291 0
0.0254559 0.0292582 0.999248 0.0034889
-0.0222999 0.0305809 0.999283 0
-0.014358 0.0213965 0.999668 0
-0.00569618 0.0217965 0.999746 0
-0.00427542 0.0241191 0.9997 0
0.00809691 0.0256924 0.999637 0
0.0254163 0.0176967 0.99952 0
0.0269793 0.0151858 0.999521 0
-0.0241919 0.0281054 0.999312 0
-0.0132342 0.0159893 0.999785 0
0.00631361 0.0345197 0.999384 0
0.0270418 0.0201811 0.999431 0
-0.0051287 0.0263973 0.999638 0
0.00876143 0.0298744 0.999515 0
0.0261334 0.0303343 0.999198 0
-0.00730592 0.0141436 0.999873 0
0.0283761 0.0193832 0.999409 0
0.0335514 -0.0406305 0.998611 0.0153359
0.0303034 -0.043898 0.998576 0.0279599
0.00721605 -0.020764 0.999758 0
0.0271081 -0.0510573 0.998328 0.0241385
0.0333693 -0.0510811 0.998137 0.0343016
0.03681 -0.0506333 0.998039 0.0295758
0.00469648 -0.0324606 0.999462 0
0.026088 -0.0683244 0.997322 0.0345279
0.0319238 -0.0610065 0.997627 0.0309506
0.0330813 -0.0674354 0.997175 0.0378171
-0.00914549 -0.0168495 0.999816 0.00868806
-0.00409627 -0.0467229 0.9989 0.0247832
0.0270792 -0.0617402 0.997725 0.0353393
0.0296465 -0.0658619 0.997388 0.0361401
0.0382976 -0.0623464 0.99732 0.0367046
-0.00315718 -0.0442095 0.999017 0.0236756
0.0271207 -0.0535148 0.998199 0.0307366
0.0333428 -0.0537961 0.997995 0.0326651
0.038187 -0.0472097 0.998155 0.0288264
0.00021398 -0.0379778 0.999279 0.0234512
0.00856415 -0.0500942 0.998708 0.01621
0.0249064 -0.0511665 0.99838 0.0323043
0.0295184 -0.0493693 0.998344 0.0136579
0.0375388 -0.0561046 0.997719 0.0273674
-0.00541269 -0.00835443 0.99995 0
-0.00225416 -0.038192 0.999268 0.0120848
0.0079496 -0.0401268 0.999163 0.00297415
0.0241754 -0.0405428 0.998885 0.00794936
0.032751 -0.0591998 0.997709 0.00593153
0.0401836 -0.0446468 0.998194 0
0.0818827 -0.0592992 0.994876 0
-0.0148807 -0.0292999 0.99946 0
-0.00643259 -0.0337207 0.999411 0
-0.000332841 -0.0547351 0.998501 0.016498
0.00789005 -0.0479381 0.998819 0.00261063
0.0247136 -0.0398264 0.998901 0.00486893
0.0333036 -0.0516047 0.998112 0
0.0435443 -0.0399046 0.998254 0
0.070389 -0.0801984 0.994291 0
0.085229 -0.0541669 0.994888 0
-0.0299375 -0.0298242 0.999107 0.00940617
-0.0248194 -0.0232359 0.999422 0
-0.0131241 -0.0316702 0.999412 0
-0.0112074 -0.0428966 0.999017 0.00510873
-0.000721472 -0.0539674 0.998542 0.00441646
0.00613431 -0.0651363 0.997858 0.00810916
0.00798441 -0.0557195 0.998415 0.00103261
0.0279313 -0.0516862 0.998273 0.00838741
0.0361798 -0.0450245 0.99833 0
0.0395143 -0.0607764 0.997369 0
0.0524695 -0.0492455 0.997407 0
0.0629641 -0.0448631 0.997007 0
0.0769348 -0.0698108 0.994589 0
0.0830884 -0.0651622 0.99441 0
-0.0343063 -0.0474322 0.998285 0
-0.0320468 -0.0496329 0.998253 0.011147
-0.0263946 -0.0390386 0.998889 0.00620545
-0.0132448 -0.0605074 0.99808 0.0131764
-0.00347996 -0.0636645 0.997965 0.0104361
0.00206787 -0.0691055 0.997607 0.00569118
0.00894122 -0.0688773 0.997585 0.0112983
0.0250884 -0.0605623 0.997849 0
0.0375888 -0.0734914 0.996587 0
0.0398418 -0.0646052 0.997115 0
0.0499465 -0.0618854 0.996833 0
0.0619855 -0.0503433 0.996807 0
0.0770308 -0.0576396 0.995361 0
0.0837556 -0.0644184 0.994402 0.00400944
-0.0382496 -0.0592706 0.997509 0.00241973
-0.0339274 -0.0495832 0.998194 0
-0.0283661 -0.0678796 0.99729 0.00958192
-0.0180728 -0.0617538 0.997928 0.00604249
-0.0099209 -0.0637534 0.997916 0.00914702
-0.0031934 -0.0835692 0.996497 0.0111448
0.00251182 -0.0830959 0.996538 0.0107432
0.00958675 -0.0827974 0.99652 0.0034181
0.023175 -0.0628762 0.997752 0
0.0341952 -0.0693745 0.997004 0
0.0426535 -0.0672109 0.996827 0
0.0474755 -0.066361 0.996666 0
0.058431 -0.0624169 0.996338 0
0.0772838 -0.0522621 0.995638 0
0.082246 -0.0577095 0.99494 0
0.0824641 -0.0597347 0.994802 0
-0.0374315 -0.0520348 0.997943 0
-0.0372353 -0.0590272 0.997562 0
-0.0307167 -0.064284 0.997459 0
-0.0297867 -0.0432052 0.998622 0
-0.0283812 -0.0574023 0.997948 0
-0.0219149 -0.0780565 0.996708 0.0013297
-0.0172604 -0.0788103 0.99674 0.00762325
-0.00120536 -0.0819145 0.996639 0
0.00311421 -0.072707 0.997348 0
0.00955529 -0.0733941 0.997257 0
0.0282503 -0.0614109 0.997713 0
0.0341877 -0.0546062 0.997923 0
0.0358459 -0.0775178 0.996346 0
0.0474948 -0.0671224 0.996614 0
0.0555988 -0.0644587 0.99637 0
0.077013 -0.06545 0.99488 0
0.0801607 -0.066102 0.994588 0
0.080748 -0.0730393 0.994055 0
-0.0487176 -0.0499421 0.997563 0
-0.0424479 -0.0496153 0.997866 0
-0.0418714 -0.0605373 0.997287 0
-0.0392617 -0.0550141 0.997713 0
-0.034786 -0.0656896 0.997234 0
-0.0318712 -0.0608814 0.997636 0
-0.0285877 -0.0602199 0.997776 0
-0.0202129 -0.0719094 0.997206 0
-0.0119499 -0.0703717 0.997449 0
-0.00102083 -0.0687783 0.997631 0
0.00617646 -0.0794732 0.996818 0
0.0105065 -0.0656139 0.99779 0
0.0293678 -0.0532074 0.998151 0
0.0315252 -0.0709662 0.99698 0
0.0368771 -0.0740627 0.996572 0
0.0456651 -0.0629919 0.996969 0
0.0588144 -0.0654725 0.99612 0
0.0735086 -0.0648761 0.995182 0
0.0774953 -0.0517004 0.995651 0
0.0822774 -0.0607183 0.994758 0
-0.0485383 -0.05023 0.997558 0
-0.0434581 -0.0497877 0.997814 0
-0.0403636 -0.0572825 0.997542 0
-0.0353119 -0.0521547 0.998015 0
-0.0343785 -0.0506971 0.998122 0
-0.033864 -0.046206 0.998358 0
-0.0319175 -0.0575496 0.997832 0
-0.0283819 -0.0731259 0.996919 0
-0.0231057 -0.0778075 0.996701 0
-0.0105837 -0.0478976 0.998796 0
-0.000743238 -0.0503239 0.998733 0
0.00346802 -0.0550884 0.998475 0
0.0117502 -0.0652953 0.997797 0
0.0295754 -0.0599735 0.997762 0
0.0298916 -0.0717467 0.996975 0
0.033497 -0.0745731 0.996653 0
0.0410905 -0.07467 0.996361 0
0.055805 -0.0637786 0.996403 0
0.0713267 -0.0599393 0.99565 0
0.0758523 -0.0586235 0.995394 0
0.0768751 -0.082542 0.993618 0
0.0889701 -0.0702653 0.993553 0
-0.0476325 -0.0354911 0.998234 0
-0.0438412 -0.037983 0.998316 0
-0.0419108 -0.0458889 0.998067 0
-0.0408855 -0.0491071 0.997956 0
-0.036771 -0.046083 0.998261 0
-0.0351445 -0.0555076 0.99784 0
-0.0346967 -0.0560369 0.997826 0
-0.0316502 -0.0633082 0.997492 0
-0.0280275 -0.0671035 0.997352 0
-0.0247778 -0.071692 0.997119 0
-0.0109007 -0.0410705 0.999097 0
-0.00487068 -0.049193 0.998777 0
0.00617817 -0.053543 0.998546 0
0.0058097 -0.0688986 0.997607 0
0.0266126 -0.0546766 0.998149 0
0.0340525 -0.0611251 0.997549 0
0.0402091 -0.0894965 0.995175 0
0.0604174 -0.0608298 0.996318 0
0.0699446 -0.0695029 0.995127 0
0.0700973 -0.0731295 0.994856 0
0.0767278 -0.074406 0.994272 0
0.0871907 -0.0803807 0.992943 0
0.10388 -0.0778627 0.991537 0
0.119419 -0.0783231 0.98975 0
0.132627 -0.0560965 0.989577 0
-0.0487184 -0.0319 0.998303 0
-0.0453771 -0.0554274 0.997431 0
-0.0401501 -0.0421752 0.998303 0
-0.0367191 -0.0364875 0.998659 0
-0.0354193 -0.0487418 0.998183 0
-0.0362129 -0.0574879 0.997689 0
-0.0342794 -0.0547177 0.997913 0
-0.0316196 -0.0545386 0.998011 0
-0.0248417 -0.0693825 0.997281 0
-0.0176207 -0.0606057 0.998006 0
-0.0108549 -0.0349348 0.999331 0
-0.00182613 -0.031037 0.999517 0
0.00299659 -0.0627936 0.998022 0
0.00788195 -0.0668546 0.997732 0
0.0248518 -0.0637049 0.997659 0
0.0307781 -0.0782712 0.996457 0
0.0406109 -0.0731663 0.996493 0
0.0576471 -0.0612597 0.996456 0
0.0572333 -0.0601402 0.996548 0
0.0736622 -0.0584037 0.995572 0
0.0736224 -0.0717495 0.994702 0
0.0800333 -0.0670132 0.994537 0
0.0885638 -0.0704735 0.993574 0
0.1132 -0.0746785 0.990762 0
0.123204 -0.0829371 0.98891 0
-0.0482225 -0.0423815 0.997937 0
-0.0478583 -0.0575176 0.997197 0
-0.0416378 -0.0479408 0.997982 0
-0.038712 -0.0405179 0.998429 0
-0.034455 -0.0404397 0.998588 0
-0.035226 -0.0546481 0.997884 0
-0.0249293 -0.0595208 0.997916 0
-0.0231246 -0.0627163 0.997763 0
-0.0149319 -0.061616 0.997988 0
-0.0124806 -0.0550912 0.998403 0
-0.00727971 -0.0535671 0.998538 0
0.000511276 -0.0635044 0.997981 0
0.00566733 -0.0668272 0.997748 0
0.0255361 -0.0809179 0.996394 0
0.0316952 -0.0789084 0.996378 0
0.0395955 -0.0869325 0.995427 0.00253179
0.0553077 -0.0719449 0.995874 0
0.0725643 -0.0647819 0.995258 0
0.075625 -0.0715723 0.994564 0
0.0803431 -0.0755326 0.993901 0
0.0884225 -0.0722592 0.993459 0
0.103574 -0.0759788 0.991715 0
0.118179 -0.075488 0.990119 0
0.131873 -0.0795752 0.988068 0
-0.0547463 -0.044949 0.997488 0
-0.0483756 -0.0418179 0.997953 0
-0.0485951 -0.0574479 0.997165 0.00251944
-0.0459839 -0.0530758 0.997531 0
-0.037186 -0.0372504 0.998614 0
-0.0399913 -0.0467618 0.998105 0.00301669
-0.0329738 -0.0418968 0.998578 0
-0.034113 -0.0561718 0.997838 0.00141568
-0.0237071 -0.0566879 0.99811 0
-0.0194669 -0.0757559 0.996936 0
-0.018257 -0.0720528 0.997234 0
-0.0132159 -0.0631338 0.997918 0
-0.00478722 -0.0728962 0.997328 0
-0.000518944 -0.0705682 0.997507 0
0.00656604 -0.0699746 0.997527 0
0.0248026 -0.0831749 0.996226 0
0.0272087 -0.0860483 0.995919 0.0120534
0.0374296 -0.0794238 0.996138 0.00748572
0.053682 -0.0760652 0.995657 0.00249454
0.0712867 -0.0742639 0.994687 0
0.0739805 -0.0660957 0.995067 0
0.0796104 -0.0637104 0.994788 0
0.0891022 -0.0931783 0.991654 0
0.103119 -0.0827896 0.991218 0
0.115681 -0.085847 0.98957 0
0.13371 -0.0943167 0.986522 0.000706263
-0.0535223 -0.0482814 0.997399 0
-0.0527253 -0.0471261 0.997496 0
-0.0503686 -0.050434 0.997456 0
-0.0504095 -0.0588574 0.996993 0
-0.0452486 -0.048679 0.997789 0
-0.0446908 -0.0359545 0.998354 0
-0.0371819 -0.035847 0.998665 0.00574177
-0.0380257 -0.051652 0.997941 0.0127976
-0.0354046 -0.0606 0.997534 0.0215721
-0.0352446 -0.06088 0.997523 0.0163919
-0.0321679 -0.0684254 0.997137 0.0103521
-0.0203793 -0.0573285 0.998147 0
-0.0155435 -0.0589308 0.998141 0
-0.0183793 -0.0799782 0.996627 0
-0.00936059 -0.0758984 0.997072 0
-0.00338909 -0.060713 0.998149 0
0.00244288 -0.0809116 0.996718 0
0.00377321 -0.0805969 0.99674 0
0.0242505 -0.0991092 0.994781 0
0.0263782 -0.095399 0.99509 0.00597488
0.0399074 -0.0740852 0.996453 0
0.055974 -0.0802738 0.9952 0
0.0740611 -0.0649367 0.995137 0
0.0780247 -0.0613077 0.995065 0
0.0785541 -0.064098 0.994847 0
0.089385 -0.086658 0.99222 0
0.104195 -0.0954698 0.989964 0
0.122166 -0.0866627 0.988719 0
0.127279 -0.0886977 0.987893 0
0.136165 -0.106282 0.984969 0.00324288
-0.0518724 -0.0687091 0.996287 0
-0.0498676 -0.0571303 0.99712 0.00716963
-0.0551385 -0.0792826 0.995326 0.0129885
-0.0515258 -0.0669174 0.996427 0.0124316
-0.0448895 -0.0622397 0.997051 0.0105124
-0.0401457 -0.0433585 0.998253 0.0118324
-0.037015 -0.0358783 0.99867 0.00303314
-0.0354115 -0.046772 0.998278 0.0134015
-0.0307424 -0.0539618 0.99807 0.0125934
-0.0326558 -0.0577779 0.997795 0.0081313
-0.0253398 -0.0737471 0.996955 0
-0.0192841 -0.074899 0.997005 0
-0.018529 -0.0881954 0.995931 0
-0.0117253 -0.0916515 0.995722 0
-0.00461662 -0.0808782 0.996713 0
0.000215578 -0.0913969 0.995815 0
0.010526 -0.0869315 0.996159 0
0.0231904 -0.0883306 0.995821 0
0.0307118 -0.0801768 0.996307 0
0.0402818 -0.0662387 0.99699 0
0.0593835 -0.0676381 0.995941 0
0.0704366 -0.0750678 0.994688 0.0039804
0.0760936 -0.0744345 0.994318 0.00519234
0.0816212 -0.0685874 0.994301 0
0.0904898 -0.0923653 0.991605 0
0.106003 -0.0946235 0.989853 0
0.113814 -0.0964882 0.988806 0
0.124019 -0.0929409 0.987918 0
0.139468 -0.104585 0.984688 0.0129566
-0.0570681 -0.0832396 0.994894 0
-0.0548115 -0.0828062 0.995057 0.00341777
-0.052345 -0.0782531 0.995558 0.0167877
-0.0467377 -0.0656262 0.996749 0
-0.0493624 -0.0626887 0.996812 0.0172919
-0.0450107 -0.0710238 0.996459 0.0133728
-0.0437019 -0.0702518 0.996572 0.0141878
-0.0373691 -0.0455853 0.998261 0.00895265
-0.0343737 -0.0516275 0.998075 0.00839545
-0.0332882 -0.0487835 0.998255 0
-0.0243509 -0.0584668 0.997992 0
-0.0272942 -0.0690625 0.997239 0
-0.0221964 -0.0870612 0.995956 0
-0.0159548 -0.0857437 0.996189 0
-0.00789144 -0.0775115 0.99696 0
-0.00267702 -0.0827051 0.99657 0
0.00145601 -0.0840041 0.996464 0
0.00475659 -0.0854207 0.996334 0
0.0265446 -0.0832969 0.996171 0
0.0335537 -0.0831374 0.995973 0
0.0379968 -0.0836252 0.995773 0
0.0588791 -0.0687806 0.995893 0
0.0703722 -0.062292 0.995574 0
0.0719069 -0.0755021 0.99455 0.00340093
0.0782874 -0.0804579 0.993679 0.00835392
0.0912783 -0.0852034 0.992174 0.000559055
0.104432 -0.0962722 0.989861 0.00181635
0.112589 -0.0960444 0.988989 0.00507658
0.125656 -0.097248 0.987296 0.00406015
0.140394 -0.100298 0.985002 0.008768
-0.0579505 -0.0805246 0.995067 0
-0.0586913 -0.0875271 0.994432 0
-0.0550218 -0.0966173 0.9938 0
-0.0570433 -0.0824273 0.994963 0.0026769
-0.0577921 -0.0981728 0.99349 0.00960659
-0.054922 -0.0942442 0.994033 0.0151454
-0.0533943 -0.0880536 0.994684 0.0222476
-0.0486222 -0.0766957 0.995868 0.0178718
-0.0466083 -0.0749059 0.996101 0.0115926
-0.0403189 -0.0687763 0.996817 0.00717187
-0.0407413 -0.0584452 0.997459 0.010955
-0.0383313 -0.0535244 0.997831 0
-0.0356122 -0.0661351 0.997175 0
-0.0270634 -0.051445 0.998309 0
-0.0283147 -0.0683268 0.997261 0
-0.0222189 -0.0873441 0.99593 0
-0.0149886 -0.0845575 0.996306 0
-0.0096772 -0.0833883 0.99647 0.00187774
-0.00677273 -0.0905044 0.995873 0.00900423
0.00162909 -0.107268 0.994229 0
0.00376683 -0.112062 0.993694 0
0.0264677 -0.0800079 0.996443 0
0.0295277 -0.0851005 0.995935 0
0.0399221 -0.0852616 0.995559 0
0.055147 -0.0643101 0.996405 0
0.0703064 -0.076245 0.994607 0.00600173
0.0814353 -0.0776092 0.993652 0
0.0903006 -0.0870331 0.992104 0
0.101474 -0.102861 0.989506 0.0108403
0.112099 -0.108014 0.987809 0.0140026
0.125631 -0.102274 0.986791 0.00539769
0.143008 -0.110709 0.98351 0.0258268
-0.0570623 -0.0895155 0.994349 0
-0.0583357 -0.0842138 0.994739 0
-0.0566074 -0.102873 0.993082 0.00294666
-0.0563108 -0.0862298 0.994683 0.00330748
-0.0572082 -0.0948262 0.993849 0.00405547
-0.0531863 -0.0942734 0.994125 0.00922822
-0.0539803 -0.083688 0.995029 0.0143517
-0.0531079 -0.0772879 0.995593 0.0138212
-0.0483652 -0.0691433 0.996434 0.0138083
-0.0437925 -0.0751953 0.996207 0.00395576
-0.0409296 -0.0667043 0.996933 0.00217301
-0.0343692 -0.0681145 0.997085 0
-0.0343138 -0.0553381 0.997878 0
-0.029802 -0.0548532 0.99805 0
-0.0274677 -0.0643414 0.99755 0
-0.0308165 -0.0754569 0.996673 0
-0.0214355 -0.0769352 0.996806 0
-0.0129442 -0.0772516 0.996928 0
-0.0136728 -0.0814396 0.996584 0
-0.0135979 -0.101654 0.994727 0.00789036
0.000446661 -0.110556 0.99387 0
0.00461974 -0.11401 0.993469 0.00109051
0.02594 -0.0954166 0.995099 0
0.0296333 -0.0842935 0.996 0
0.0414641 -0.0829706 0.995689 0
0.0561226 -0.0596952 0.996638 0
0.0725237 -0.0711444 0.994826 0.00742356
0.0839668 -0.0791327 0.993322 0
0.0894225 -0.0889687 0.992012 0.0035869
0.10457 -0.0927834 0.99018 0.00231218
0.115326 -0.0963759 0.988641 0.00566657
0.12588 -0.0962487 0.987365 0.00174042
0.139663 -0.111081 0.983949 0.0123286
0.149991 -0.0867321 0.984876 0
-0.0605205 -0.0802184 0.994938 0
-0.0652758 -0.100572 0.992786 0
-0.0621421 -0.104199 0.992613 0
-0.0595409 -0.0992094 0.993284 0
-0.0583865 -0.0862443 0.994562 0
-0.0571057 -0.0953842 0.993801 0.0126242
-0.0531367 -0.0877855 0.994721 0.0116905
-0.0555239 -0.0866874 0.994687 0.0176071
-0.0490225 -0.0741496 0.996041 0.0140012
-0.0450459 -0.078283 0.995913 0.00420588
-0.0422628 -0.0936922 0.994704 0
-0.0350224 -0.0717192 0.99681 0
-0.0309308 -0.0661103 0.997333 0
-0.0299218 -0.0731326 0.996873 0
-0.0282987 -0.0678918 0.997291 0
-0.0296609 -0.0812812 0.99625 0
-0.0255108 -0.0811137 0.996378 0
-0.0189648 -0.0836294 0.996316 0
-0.0131235 -0.0971931 0.995179 0
-0.010821 -0.118598 0.992883 0.00881466
0.00592306 -0.10294 0.99467 0
0.0518991 -0.0796378 0.995472 0
0.0702668 -0.0763128 0.994605 0.00403501
0.0833372 -0.0891102 0.992529 0.00355684
0.0890812 -0.0915712 0.991806 0
0.103017 -0.0878079 0.990796 0
0.112844 -0.096017 0.988963 0
0.126163 -0.0984831 0.987109 0
0.139027 -0.100169 0.985209 0.00410817
0.149566 -0.0933884 0.984331 0
0.160314 -0.0945283 0.982529 0
0.177925 -0.0954956 0.979399 0
-0.0631981 -0.0885364 0.994066 0
-0.0651615 -0.087856 0.994 0
-0.065747 -0.0855988 0.994158 0
-0.0694157 -0.109501 0.99156 0.0115569
-0.0590585 -0.119195 0.991113 0.00784356
-0.057079 -0.0953133 0.99381 0.000200495
-0.0582397 -0.106516 0.992604 0.00851179
-0.0628427 -0.103782 0.992613 0.0254032
-0.0579592 -0.0966458 0.99363 0.0133014
-0.0452309 -0.0829335 0.995528 0.00171175
-0.0430911 -0.0794621 0.995906 0.00241683
-0.0456853 -0.071006 0.996429 0.0023746
-0.0407527 -0.0806378 0.99591 0
-0.0367081 -0.0824786 0.995917 0
-0.0358639 -0.0883889 0.99544 0
-0.0312086 -0.0771868 0.996528 0
-0.029405 -0.0855964 0.995896 0
-0.0306962 -0.0745741 0.996743 0
-0.025257 -0.0931449 0.995332 0
-0.0202796 -0.086121 0.996078 0
-0.0072074 -0.103471 0.994606 0.000492733
0.0704294 -0.0877261 0.993652 0.00744003
0.103959 -0.104376 0.98909 0
0.11877 -0.0884658 0.988973 0
0.126722 -0.0962423 0.987258 0
0.13824 -0.0942076 0.985908 0
0.154592 -0.106727 0.982197 0.01369
0.160312 -0.096374 0.98235 0
0.166257 -0.0927987 0.981706 0
0.178037 -0.0933763 0.979584 0
-0.0651602 -0.0751262 0.995043 0
-0.068845 -0.0952643 0.993069 0.00247158
-0.0665242 -0.101787 0.992579 0.000819015
-0.0623866 -0.105647 0.992445 0.0107392
-0.0599466 -0.106621 0.992491 0.00987389
-0.0629873 -0.112191 0.991688 0.0113356
-0.0591085 -0.0984716 0.993383 0.0113518
-0.0609439 -0.112061 0.991831 0.0157355
-0.0568359 -0.0866693 0.994615 0.00515903
-0.0445926 -0.0830146 0.99555 0
-0.0438507 -0.0877214 0.995179 0.00764202
-0.042334 -0.080348 0.995867 0
-0.0413126 -0.0731965 0.996462 0
-0.0368223 -0.0909957 0.99517 0.00025656
-0.0342539 -0.0807437 0.996146 0.00254613
-0.0326191 -0.0756269 0.996603 0
-0.0264832 -0.0784158 0.996569 0
0.10001 -0.102528 0.98969 0.00416994
0.110981 -0.0927063 0.989489 0
0.128103 -0.10367 0.986328 0.000115477
0.134831 -0.101998 0.985605 0
0.140261 -0.0997687 0.985075 0.00158747
0.153797 -0.10899 0.982073 0.007209
0.16 -0.0995839 0.982081 0.000791355
0.165638 -0.0995577 0.981148 0.000412715
0.176237 -0.0956036 0.979694 0
-0.0692277 -0.105653 0.99199 0.0101455
-0.0659461 -0.10876 0.991878 0.011285
-0.0645349 -0.0946913 0.993413 0.0108819
-0.0637363 -0.085945 0.994259 0.00965929
-0.0657199 -0.0897407 0.993795 0.0153498
-0.0611956 -0.103055 0.992791 0.0119412
-0.0628176 -0.119667 0.990825 0.0124852
