# .PCD v0.7 - Point Cloud Data file format
VERSION 0.7
FIELDS x y z
SIZE 4 4 4
TYPE F F F
COUNT 1 1 1
WIDTH 1321
HEIGHT 1
VIEWPOINT 0 0 0 1 0 0 0
POINTS 1321
DATA ascii
-0.080166005 -0.27268267 -0.39417768
-0.079819664 -0.27269068 -0.39416501
-0.079689667 -0.27269968 -0.3941305
-0.079478554 -0.27270842 -0.39410579
-0.079324335 -0.27271867 -0.39407882
-0.079166502 -0.2726925 -0.394045
-0.0789015 -0.2726965 -0.39404601
-0.078681 -0.27268115 -0.39403534
-0.078488007 -0.27269056 -0.39405453
-0.078303337 -0.27270618 -0.39404628
-0.078079008 -0.27272666 -0.39407101
-0.077907667 -0.27272466 -0.39405265
-0.077627003 -0.27270699 -0.3940185
-0.062101334 -0.27268985 -0.39409482
-0.061962999 -0.27263001 -0.39419401
-0.081293806 -0.27247983 -0.39417797
-0.081091553 -0.27248755 -0.39417452
-0.080875665 -0.27249435 -0.39416447
-0.080694497 -0.27250734 -0.39417663
-0.080560006 -0.27251002 -0.39415765
-0.080305912 -0.2725198 -0.3941519
-0.080157995 -0.27249998 -0.39415902
-0.079808675 -0.27247399 -0.39415336
-0.079678498 -0.27248314 -0.39412299
-0.079468109 -0.27249101 -0.39408755
-0.079314001 -0.27250084 -0.39405501
-0.07915733 -0.27251169 -0.394034
-0.078893334 -0.27251533 -0.39401767
-0.078628495 -0.27250001 -0.394014
-0.078453198 -0.2725006 -0.394025
-0.078357749 -0.27250275 -0.39403051
-0.07807 -0.27250567 -0.39402667
-0.077897333 -0.27250668 -0.39403868
-0.077621996 -0.272598 -0.39400399
-0.06209325 -0.272506 -0.39405802
-0.061957002 -0.27248168 -0.39414898
-0.082264997 -0.272221 -0.39418599
-0.08155033 -0.27232501 -0.39419499
-0.081307784 -0.27230811 -0.39416873
-0.081082501 -0.27230668 -0.39416182
-0.080865167 -0.272277 -0.39414236
-0.080684833 -0.27228799 -0.39413896
-0.080550335 -0.27229199 -0.394122
-0.080289669 -0.27230725 -0.3941094
-0.080149002 -0.27231801 -0.394137
-0.079801001 -0.27232999 -0.39415899
-0.079694599 -0.27229398 -0.3941288
-0.079480007 -0.27228758 -0.39408261
-0.079333447 -0.27228168 -0.39404979
-0.079147004 -0.27229467 -0.39401865
-0.078884006 -0.27233398 -0.39400399
-0.078621 -0.2723555 -0.39400452
-0.078403503 -0.27229199 -0.39400601
-0.078359 -0.272302 -0.394012
-0.078058995 -0.27228966 -0.394016
-0.077886 -0.272291 -0.39404067
-0.077602997 -0.27223799 -0.394005
-0.062066749 -0.27234349 -0.39405048
-0.061902251 -0.27230126 -0.39412299
-0.082250625 -0.27206662 -0.39417726
-0.082105793 -0.27206177 -0.39418659
-0.081539333 -0.27210799 -0.39418301
-0.081290163 -0.27211583 -0.39415416
-0.081113838 -0.27212548 -0.39414367
-0.08091557 -0.27210814 -0.39412355
-0.080676503 -0.27210599 -0.39411202
-0.080540001 -0.27207333 -0.39409232
-0.080286905 -0.27209535 -0.39407998
-0.080154002 -0.27208 -0.39409074
-0.079702549 -0.27212033 -0.39414436
-0.079489402 -0.27211398 -0.3940838
-0.079311855 -0.27208731 -0.39404944
-0.079135001 -0.27207932 -0.39402565
-0.078373745 -0.27215225 -0.394005
-0.078051001 -0.272145 -0.39401099
-0.077874333 -0.27207431 -0.39404035
-0.077594995 -0.27209601 -0.39401433
-0.062036667 -0.27210799 -0.3940343
-0.061893668 -0.27211782 -0.39410353
-0.0822578 -0.27190161 -0.39417118
-0.0821236 -0.27188879 -0.39417538
-0.081528336 -0.27189201 -0.39417467
-0.081295691 -0.27190539 -0.39414608
-0.081126623 -0.27189776 -0.39412239
-0.080905497 -0.27191985 -0.39410096
-0.080686435 -0.27191329 -0.3940956
-0.0805315 -0.27189201 -0.39406949
-0.080288999 -0.2718913 -0.39405802
-0.080159672 -0.27187917 -0.39407134
-0.079647169 -0.27190849 -0.39414537
-0.079468668 -0.27191401 -0.39409831
-0.079323754 -0.27191228 -0.39405882
-0.079126 -0.2719 -0.3940255
-0.077864498 -0.27189499 -0.394045
-0.077583008 -0.27188 -0.39402834
-0.062027499 -0.271927 -0.39401799
-0.0618825 -0.27190033 -0.39409947
-0.082311578 -0.27170658 -0.39417401
-0.08212778 -0.27171499 -0.39416432
-0.081969328 -0.27171999 -0.39419469
-0.081517331 -0.27167466 -0.39416799
-0.081295334 -0.27168092 -0.39413911
-0.081124112 -0.27168941 -0.39411414
-0.080928326 -0.27169231 -0.39409468
-0.080701672 -0.27170455 -0.39407924
-0.080522001 -0.27171001 -0.39406466
-0.080294251 -0.27171499 -0.39404213
-0.080151252 -0.27169725 -0.39404699
-0.079722501 -0.27168548 -0.39415869
-0.079503 -0.27169645 -0.39410201
-0.079302885 -0.27170578 -0.39405277
-0.079116665 -0.27171835 -0.39401665
-0.077854663 -0.27171466 -0.39404702
-0.077575997 -0.271734 -0.39400899
-0.062015001 -0.271671 -0.39400101
-0.061871666 -0.27168167 -0.39408335
-0.0823 -0.27149069 -0.39417577
-0.082117222 -0.27149805 -0.39415145
-0.081958331 -0.27150398 -0.39418998
-0.081767999 -0.27144301 -0.39419299
-0.081507996 -0.27149498 -0.394162
-0.081285998 -0.27150068 -0.39413166
-0.0811055 -0.2714825 -0.39410734
-0.080917664 -0.27147532 -0.39408299
-0.080702759 -0.27149659 -0.39406726
-0.080532998 -0.271476 -0.39405447
-0.080277003 -0.27150843 -0.39403701
-0.080142669 -0.2715157 -0.39402199
-0.079714 -0.27150351 -0.3941415
-0.079518855 -0.27148929 -0.39409417
-0.079311185 -0.2714811 -0.39405248
-0.079106003 -0.271503 -0.39400831
-0.077846497 -0.27153301 -0.39401999
-0.062007334 -0.27152699 -0.39400497
-0.061863001 -0.27149999 -0.39406776
-0.08228182 -0.2712827 -0.39417979
-0.082106665 -0.2712808 -0.39413023
-0.081949003 -0.27128565 -0.39414868
-0.081763998 -0.271373 -0.39419699
-0.081498332 -0.27131501 -0.39416537
-0.081276886 -0.27131993 -0.39412653
-0.081113577 -0.27130786 -0.39410615
-0.080908254 -0.27129474 -0.39407149
-0.08072675 -0.27130401 -0.39405626
-0.080545671 -0.27127632 -0.394045
-0.080266222 -0.271292 -0.39402744
-0.080131665 -0.27129933 -0.39402285
-0.079705 -0.271323 -0.39413416
-0.079528749 -0.27129799 -0.39409
-0.079309866 -0.27130651 -0.39404812
-0.079094 -0.27128634 -0.39401135
-0.061853498 -0.27131784 -0.39406216
-0.061636001 -0.27126199 -0.39418101
-0.082675003 -0.27118099 -0.394198
-0.082288228 -0.2711049 -0.39417377
-0.082097672 -0.27110001 -0.39412436
-0.0819415 -0.27110201 -0.39410299
-0.081750333 -0.27108133 -0.39417198
-0.081487663 -0.27109766 -0.39415002
-0.081265882 -0.27110299 -0.39411554
-0.081094995 -0.27111164 -0.3940872
-0.080899335 -0.27111432 -0.39406231
-0.080717832 -0.27112386 -0.39404818
-0.080536753 -0.271097 -0.39403698
-0.080279507 -0.27107468 -0.39403984
-0.080089994 -0.2710847 -0.39401066
-0.0796955 -0.27110347 -0.39408898
-0.079520665 -0.27111569 -0.39406082
-0.079336777 -0.27112246 -0.394041
-0.079085 -0.27110499 -0.39400551
-0.061889667 -0.27109766 -0.39403167
-0.061711833 -0.2711105 -0.39412618
-0.082284503 -0.2709198 -0.3941769
-0.082107276 -0.27091444 -0.39413965
-0.081931673 -0.27092299 -0.39410734
-0.081743002 -0.270899 -0.39412248
-0.081477337 -0.27087966 -0.39412799
-0.081255227 -0.27088624 -0.39410168
-0.081083775 -0.27089489 -0.39407924
-0.080888338 -0.27089766 -0.39405236
-0.080706507 -0.27090833 -0.39404634
-0.080527164 -0.2709153 -0.394032
-0.080270246 -0.270895 -0.39403498
-0.080139332 -0.27090117 -0.39400986
-0.079685494 -0.2708855 -0.39405382
-0.079510331 -0.27089834 -0.39403665
-0.079325885 -0.27090603 -0.39403334
-0.079073504 -0.27089 -0.39400601
-0.061924998 -0.27087849 -0.3940343
-0.061701 -0.27089217 -0.39411449
-0.082263604 -0.27072781 -0.3941828
-0.082103334 -0.27070585 -0.39414883
-0.081918992 -0.27070901 -0.39413333
-0.081734002 -0.27071765 -0.39411101
-0.081468999 -0.27069899 -0.39411002
-0.081256196 -0.270711 -0.39409283
-0.081094816 -0.27067181 -0.39407608
-0.080876671 -0.27068165 -0.39405981
-0.080695167 -0.27069131 -0.39404437
-0.080515496 -0.2706995 -0.39403686
-0.080260165 -0.27071518 -0.3940452
-0.080123007 -0.27073073 -0.39401263
-0.079677001 -0.27070403 -0.39403051
-0.079499669 -0.2706807 -0.39401469
-0.079314895 -0.27068853 -0.394021
-0.079067998 -0.27078199 -0.39400601
-0.061915502 -0.2706975 -0.39403176
-0.061673202 -0.27069062 -0.3941296
-0.082221001 -0.27048901 -0.39418268
-0.082123548 -0.27049124 -0.39416847
-0.081950501 -0.27049035 -0.39415002
-0.081721999 -0.27050233 -0.39412269
-0.081459671 -0.27051732 -0.39409801
-0.081260003 -0.27052182 -0.39410198
-0.081127331 -0.27049765 -0.39407483
-0.080910005 -0.27050135 -0.39406833
-0.080683 -0.27047634 -0.39405814
-0.080504 -0.27048418 -0.39404151
-0.080249332 -0.27049801 -0.39403847
-0.080118217 -0.27050567 -0.39401516
-0.079623997 -0.27052701 -0.39402235
-0.079505332 -0.27048734 -0.39400935
-0.079298377 -0.27048197 -0.39401373
-0.079051003 -0.27045801 -0.39400399
-0.061905667 -0.27051619 -0.39403865
-0.061765 -0.2705237 -0.39406899
-0.061595 -0.27050298 -0.39419901
-0.082212001 -0.27034399 -0.39419699
-0.082112662 -0.27027467 -0.39415747
-0.081938997 -0.27027431 -0.39415133
-0.081710003 -0.27028701 -0.39413202
-0.081448004 -0.27030167 -0.39410803
-0.081249006 -0.27030551 -0.39409497
-0.081117667 -0.27031755 -0.39407644
-0.080900669 -0.27032176 -0.39406869
-0.080673255 -0.27029651 -0.3940655
-0.080493748 -0.27030474 -0.39405549
-0.080237001 -0.27028334 -0.39405417
-0.080106549 -0.27028978 -0.39401999
-0.079656832 -0.27030635 -0.39401197
-0.079480998 -0.27032 -0.39401135
-0.079301424 -0.27030757 -0.39402315
-0.079044998 -0.27034801 -0.394003
-0.078304999 -0.27030218 -0.39400551
-0.062011998 -0.270217 -0.39401001
-0.061871998 -0.27031723 -0.39403373
-0.061753664 -0.27030501 -0.39406431
-0.061586004 -0.27032 -0.39418533
-0.082102172 -0.27009535 -0.39417684
-0.081928998 -0.27009499 -0.39416549
-0.081699997 -0.270107 -0.39414752
-0.081436001 -0.27008697 -0.39411297
-0.081236996 -0.27009118 -0.3941125
-0.081105448 -0.2701019 -0.39409009
-0.08091414 -0.2701157 -0.39408642
-0.080697119 -0.27010649 -0.39407751
-0.080483831 -0.27012548 -0.39406717
-0.080227256 -0.27010399 -0.39406347
-0.08009433 -0.27007511 -0.3940379
-0.079654597 -0.27010542 -0.3940298
-0.079487428 -0.27009311 -0.39401969
-0.079284221 -0.27011254 -0.3940278
-0.078420669 -0.27008867 -0.39400601
-0.078277424 -0.27008873 -0.39400771
-0.062006 -0.27011001 -0.39401698
-0.061900001 -0.27006999 -0.39402556
-0.061740998 -0.270089 -0.39408967
-0.061575666 -0.27010134 -0.39416933
-0.082093857 -0.26993701 -0.39418742
-0.081919171 -0.26991498 -0.39417031
-0.081690997 -0.269927 -0.39414397
-0.081425995 -0.269907 -0.39412799
-0.081221595 -0.26989079 -0.39411861
-0.081093669 -0.26988643 -0.3941029
-0.080921002 -0.26988852 -0.39409319
-0.080696777 -0.26989946 -0.39409512
-0.080472328 -0.26991034 -0.39407364
-0.080241002 -0.26992199 -0.39408198
-0.08012066 -0.26990589 -0.39405587
-0.079679504 -0.2699075 -0.394034
-0.079501443 -0.26988578 -0.39402914
-0.079272777 -0.26989675 -0.39402977
-0.079023004 -0.26991701 -0.39400101
-0.078489996 -0.269869 -0.39400199
-0.078266859 -0.26989284 -0.39400673
-0.061913166 -0.26989833 -0.3940393
-0.06172967 -0.26987299 -0.39409733
-0.061563332 -0.26988468 -0.39418533
-0.082058996 -0.2697725 -0.39419848
-0.081898808 -0.26971561 -0.39419204
-0.081678003 -0.26971233 -0.39417496
-0.081416003 -0.26972768 -0.39414367
-0.081238002 -0.26972699 -0.39413735
-0.081100896 -0.26969469 -0.39412269
-0.080908664 -0.26967415 -0.39410949
-0.080729999 -0.26968184 -0.39410833
-0.08050523 -0.26969248 -0.3940869
-0.080228999 -0.26970801 -0.39410233
-0.080101334 -0.26971543 -0.39406547
-0.079669997 -0.269728 -0.39403102
-0.079509601 -0.26971284 -0.39404079
-0.079286091 -0.26967362 -0.394036
-0.07901033 -0.26970202 -0.39401832
-0.078743994 -0.269669 -0.394005
-0.078457005 -0.26975 -0.39400664
-0.078296997 -0.2696918 -0.39400399
-0.061903339 -0.26971799 -0.39404976
-0.0617195 -0.269692 -0.39410502
-0.061553501 -0.26970398 -0.394189
-0.081854001 -0.26952299 -0.3941865
-0.081666663 -0.26949701 -0.39417699
-0.081406504 -0.26954752 -0.39414501
-0.081269495 -0.26949501 -0.39415628
-0.081108905 -0.26951918 -0.39413518
-0.080899 -0.2694945 -0.394122
-0.080720499 -0.26950151 -0.39411324
-0.080505125 -0.26948598 -0.39410201
-0.080262497 -0.26947102 -0.3941085
-0.080097087 -0.26950592 -0.39408138
-0.079999998 -0.26943299 -0.39407501
-0.079658002 -0.26951301 -0.39404765
-0.079525501 -0.26952502 -0.39406064
-0.079285748 -0.269501 -0.39405513
-0.079080001 -0.26949975 -0.39402026
-0.078997001 -0.26945099 -0.39402652
-0.078733332 -0.26949 -0.39402464
-0.078492254 -0.26949227 -0.39401075
-0.078302272 -0.26951292 -0.39401674
-0.062082004 -0.26948968 -0.394025
-0.061901998 -0.26951 -0.39407676
-0.061731249 -0.26949251 -0.39412674
-0.06154 -0.26945001 -0.3942
-0.081657998 -0.269355 -0.394196
-0.081302829 -0.269297 -0.39417017
-0.081097819 -0.26931691 -0.39414132
-0.080904432 -0.26930541 -0.39413187
-0.080710828 -0.26932183 -0.39411435
-0.080528006 -0.26929748 -0.3941195
-0.0802802 -0.26928678 -0.39412099
-0.080105096 -0.26928321 -0.3940998
-0.079991661 -0.26928934 -0.39409399
-0.079645 -0.26929769 -0.39407134
-0.079513334 -0.26931033 -0.39408553
-0.079291992 -0.269328 -0.39406589
-0.079145506 -0.26929551 -0.39404777
-0.078988999 -0.26930699 -0.39403901
-0.078722 -0.26927599 -0.39403832
-0.078503497 -0.26929402 -0.39401564
-0.078299895 -0.2693105 -0.39403316
-0.078153424 -0.26929656 -0.39401957
-0.062254 -0.269254 -0.39400199
-0.062113799 -0.269283 -0.39404058
-0.061921667 -0.26928285 -0.3940917
-0.061743334 -0.26929316 -0.39413702
-0.061535999 -0.26937801 -0.39418799
-0.081309602 -0.26909658 -0.3941814
-0.081116304 -0.26908532 -0.3941555
-0.080914333 -0.26910046 -0.39414424
-0.080698825 -0.26910684 -0.39413264
-0.080518 -0.26911768 -0.39412984
-0.080383003 -0.269122 -0.39412233
-0.080120251 -0.26910225 -0.39412189
-0.079979666 -0.26907399 -0.39410535
-0.079632998 -0.26908299 -0.39409101
-0.07950183 -0.26909399 -0.39408717
-0.079290114 -0.26910511 -0.39408123
-0.079135835 -0.26911548 -0.39405131
-0.078978993 -0.26912767 -0.39405099
-0.078711495 -0.26909548 -0.39404798
-0.078491837 -0.26907933 -0.39402834
-0.078298546 -0.26908633 -0.39404154
-0.078121454 -0.26909602 -0.39403293
-0.077889502 -0.26908451 -0.39402598
-0.062245335 -0.26911068 -0.39402449
-0.062125396 -0.26910681 -0.39405882
-0.061912 -0.26910248 -0.39410001
-0.061729666 -0.26907751 -0.39418134
-0.081369996 -0.26890299 -0.39419049
-0.081112273 -0.26888302 -0.39417675
-0.080902338 -0.26888487 -0.39416111
-0.080686331 -0.26889184 -0.39415717
-0.080505662 -0.26890233 -0.39415002
-0.080371 -0.268906 -0.39413634
-0.080110498 -0.26892272 -0.39413056
-0.079970002 -0.26889399 -0.39411551
-0.079622999 -0.26890299 -0.39410448
-0.07949017 -0.26887831 -0.39409134
-0.079278111 -0.26888889 -0.39409181
-0.079123162 -0.26890033 -0.39408016
-0.078966998 -0.26891232 -0.39406368
-0.078701332 -0.26891533 -0.39406434
-0.078481503 -0.2688995 -0.39404997
-0.078278124 -0.2688815 -0.39406785
-0.078102008 -0.26888731 -0.39404598
-0.077880003 -0.26890466 -0.39403367
-0.077708669 -0.26890233 -0.39401099
-0.062269855 -0.26889372 -0.39404243
-0.062116999 -0.26889357 -0.39407346
-0.061900664 -0.26892284 -0.39414397
-0.061766498 -0.268895 -0.39418203
-0.081057757 -0.26870149 -0.3941845
-0.08089184 -0.26870582 -0.39418101
-0.080674 -0.26867634 -0.39417735
-0.080494009 -0.26868781 -0.39416167
-0.080358334 -0.26869199 -0.39417037
-0.08009851 -0.2687071 -0.39414158
-0.079959661 -0.26871535 -0.39413133
-0.079613663 -0.26872301 -0.39410266
-0.079480499 -0.26869851 -0.39409351
-0.079273619 -0.26868325 -0.39412114
-0.079123005 -0.26867458 -0.39411172
-0.078954332 -0.26869667 -0.39408532
-0.07869 -0.26869968 -0.3940703
-0.078471333 -0.2687203 -0.3940638
-0.078286283 -0.26870769 -0.39408454
-0.078079894 -0.26868731 -0.39406973
-0.077867992 -0.26868999 -0.39404666
-0.077696666 -0.26868701 -0.39402202
-0.077417009 -0.26870933 -0.39401469
-0.077221997 -0.26866466 -0.39400935
-0.077151999 -0.26868999 -0.39400202
-0.062285595 -0.26868999 -0.39403421
-0.062123775 -0.26868576 -0.39409658
-0.061888501 -0.26870534 -0.39415169
-0.061756 -0.268713 -0.39419469
-0.081082001 -0.268594 -0.394198
-0.080864996 -0.26857972 -0.3941915
-0.080708504 -0.2684955 -0.39419401
-0.080473602 -0.2684868 -0.39417878
-0.080345996 -0.26847699 -0.39419666
-0.080085836 -0.26849207 -0.39416501
-0.079947673 -0.2685 -0.39414501
-0.079603493 -0.268545 -0.39412001
-0.079487853 -0.26850787 -0.39412409
-0.079286501 -0.268493 -0.3941375
-0.079118431 -0.26848975 -0.39412615
-0.078942001 -0.268482 -0.394106
-0.078677334 -0.26848501 -0.39409435
-0.078458838 -0.26850501 -0.39408183
-0.078285143 -0.26852229 -0.39409259
-0.078131899 -0.26851022 -0.39408851
-0.077912405 -0.2684828 -0.39406058
-0.077683993 -0.26847234 -0.39404866
-0.077407494 -0.268529 -0.39401501
-0.077248335 -0.26849267 -0.39400899
-0.07715743 -0.26849672 -0.39401546
-0.076747 -0.268457 -0.39400199
-0.076229997 -0.26840901 -0.39400601
-0.062283002 -0.26849428 -0.39404875
-0.062100284 -0.26849157 -0.3941097
-0.061883997 -0.2685028 -0.39418042
-0.061749 -0.268567 -0.39418799
-0.080473505 -0.26832849 -0.39419174
-0.080336496 -0.26829648 -0.39418951
-0.080075331 -0.26827767 -0.39417836
-0.079965495 -0.26828283 -0.39416882
-0.079501115 -0.26830113 -0.39414668
-0.079277337 -0.26831234 -0.39413452
-0.079130501 -0.26831377 -0.39413887
-0.078932002 -0.26830298 -0.39412302
-0.078667998 -0.26830399 -0.39408499
-0.078456797 -0.26830339 -0.39408758
-0.078302994 -0.26828429 -0.39410043
-0.078120001 -0.26830867 -0.39410281
-0.077930592 -0.26830718 -0.39407799
-0.077673495 -0.26829201 -0.394072
-0.077314503 -0.26827696 -0.39403
-0.077105336 -0.26829484 -0.39403081
-0.076910667 -0.26830634 -0.39402631
-0.076690502 -0.26829726 -0.39400497
-0.076561004 -0.26828399 -0.39400399
-0.076223999 -0.26830101 -0.394016
-0.076041006 -0.26823601 -0.39400336
-0.075953007 -0.268253 -0.39401799
-0.062272832 -0.268314 -0.39405981
-0.0621145 -0.2683135 -0.39411172
-0.061864503 -0.26827127 -0.39417577
-0.080692001 -0.26817 -0.3942
-0.080419004 -0.26815 -0.39419198
-0.080329001 -0.26815251 -0.39419597
-0.080038995 -0.26809999 -0.39419401
-0.07995525 -0.26810324 -0.39418703
-0.079499997 -0.26809311 -0.39417288
-0.079284005 -0.26808602 -0.39415741
-0.079108998 -0.2681087 -0.39415041
-0.078920998 -0.26812398 -0.39414334
-0.078657664 -0.26812533 -0.39410833
-0.078479998 -0.26807299 -0.39409435
-0.078312665 -0.26807889 -0.39412832
-0.078107245 -0.26809433 -0.3941305
-0.077904664 -0.26810816 -0.39410248
-0.077663995 -0.26811299 -0.39407602
-0.077303998 -0.26809752 -0.39405799
-0.077086002 -0.26808754 -0.39405262
-0.076898336 -0.26809064 -0.394043
-0.076679505 -0.26809934 -0.3940227
-0.076508 -0.26810715 -0.39401749
-0.076214001 -0.26812133 -0.39402166
-0.076050997 -0.26810399 -0.39401001
-0.075971499 -0.26810649 -0.39402175
-0.075795338 -0.26807702 -0.39401135
-0.075259 -0.26807299 -0.39400649
-0.062260669 -0.26809683 -0.39407802
-0.062091548 -0.26810679 -0.39413169
-0.061864 -0.26811141 -0.39416701
-0.079957999 -0.26797032 -0.39419699
-0.079507999 -0.26791534 -0.39419499
-0.079298444 -0.26788032 -0.39417809
-0.079096772 -0.2678929 -0.39416811
-0.078910001 -0.26790801 -0.39414933
-0.078645669 -0.26790968 -0.39412799
-0.078468502 -0.267894 -0.39412451
-0.078302667 -0.26789868 -0.39414668
-0.078089364 -0.26788583 -0.39414874
-0.077892162 -0.26789287 -0.39412484
-0.077651002 -0.26789799 -0.39410934
-0.077293165 -0.26791918 -0.39408365
-0.077091783 -0.26791152 -0.3940728
-0.076885998 -0.26787531 -0.39406499
-0.076666832 -0.26788467 -0.39404735
-0.076495834 -0.26789215 -0.39403602
-0.076203495 -0.26794201 -0.3940495
-0.076079249 -0.26790226 -0.39404798
-0.075960837 -0.2679275 -0.39404681
-0.075783998 -0.26786101 -0.39401799
-0.075423338 -0.2678813 -0.39402735
-0.075294502 -0.26788899 -0.39402053
-0.075138003 -0.26785901 -0.39400798
-0.06224883 -0.26788035 -0.39408466
-0.062122669 -0.26788518 -0.39415967
-0.061919998 -0.26791486 -0.39416084
-0.079471998 -0.26779699 -0.394198
-0.079334505 -0.26769999 -0.3941915
-0.079074435 -0.26769975 -0.39417729
-0.078897998 -0.267692 -0.39416099
-0.078633003 -0.26769501 -0.39415267
-0.078458004 -0.26771531 -0.39415801
-0.07829278 -0.26771921 -0.39414918
-0.078093559 -0.26770955 -0.39415801
-0.077867001 -0.26769298 -0.39414179
-0.077639662 -0.26768199 -0.39411366
-0.077297404 -0.26771823 -0.3941074
-0.077108003 -0.26771078 -0.39410073
-0.076946996 -0.26771501 -0.39408138
-0.076656751 -0.26770473 -0.39406574
-0.076483496 -0.26767683 -0.39406216
-0.076106995 -0.26770136 -0.39409351
-0.075947501 -0.26771268 -0.39408731
-0.075774334 -0.267719 -0.39405933
-0.075414002 -0.26770201 -0.39403901
-0.075274207 -0.26768801 -0.3940298
-0.075085998 -0.2676982 -0.39401883
-0.062281001 -0.267699 -0.39408702
-0.062141836 -0.26770267 -0.39412352
-0.061954752 -0.26770324 -0.39414525
-0.079316191 -0.26753378 -0.39419442
-0.078929596 -0.2674872 -0.39416537
-0.078621 -0.26747832 -0.39415598
-0.078446664 -0.267499 -0.39415431
-0.078281671 -0.2675029 -0.39414608
-0.07808245 -0.26752445 -0.39416325
-0.0779256 -0.26751399 -0.39414462
-0.077684999 -0.26749098 -0.39414033
-0.077348001 -0.26748699 -0.39410499
-0.077111252 -0.26750001 -0.39412716
-0.076924004 -0.26751402 -0.39409885
-0.07667125 -0.26754147 -0.39407599
-0.076514333 -0.26749536 -0.39408049
-0.076094501 -0.26748565 -0.39412084
-0.075935833 -0.267497 -0.39410165
-0.075760998 -0.26750401 -0.39408934
-0.075404666 -0.2675207 -0.39403066
-0.075283192 -0.26751381 -0.39403841
-0.075052805 -0.26748478 -0.39402142
-0.074813001 -0.26741499 -0.39400101
-0.062272329 -0.26751733 -0.39406133
-0.062132776 -0.26752087 -0.39410967
-0.061916001 -0.26750451 -0.39416122
-0.078941397 -0.26731378 -0.39417702
-0.078611001 -0.267299 -0.39418
-0.078434668 -0.26728266 -0.39416835
-0.078306168 -0.26728398 -0.39416334
-0.078113727 -0.26730528 -0.39417639
-0.077960499 -0.26730868 -0.39415684
-0.077705003 -0.26732287 -0.39414799
-0.077337995 -0.26730701 -0.39411902
-0.077099249 -0.2672838 -0.39413962
-0.076912008 -0.26729763 -0.3941097
-0.076682001 -0.26730633 -0.39409199
-0.076504119 -0.26731545 -0.39409652
-0.076085001 -0.26730499 -0.39412102
-0.075934716 -0.26727 -0.39410487
-0.075749665 -0.26728734 -0.39409336
-0.075305894 -0.26731071 -0.39404991
-0.075081497 -0.26732174 -0.39403901
-0.074853495 -0.26726851 -0.39401123
-0.074625 -0.26720199 -0.394012
-0.074137665 -0.26725066 -0.39400434
-0.073927 -0.267281 -0.39400399
-0.062261667 -0.267299 -0.39404866
-0.062120445 -0.26730448 -0.39413488
-0.061906666 -0.267324 -0.39416435
-0.078923002 -0.2671845 -0.39419198
-0.078602999 -0.26715499 -0.39418501
-0.078511506 -0.26709348 -0.394196
-0.078295752 -0.26710424 -0.39417776
-0.078093193 -0.2670998 -0.39419079
-0.077948503 -0.26709333 -0.39417565
-0.077692665 -0.26710749 -0.39417115
-0.077327006 -0.26712832 -0.39414701
-0.077077605 -0.26708481 -0.39415973
-0.076899998 -0.26708215 -0.39412618
-0.076669998 -0.26709199 -0.39411131
-0.076492108 -0.26709998 -0.39410847
-0.076155998 -0.26711601 -0.39413098
-0.075941168 -0.26709935 -0.39409867
-0.075739995 -0.26710701 -0.39409
-0.075294226 -0.26709476 -0.39406011
-0.075096004 -0.26710299 -0.39405236
-0.074989669 -0.26711601 -0.39403167
-0.074707001 -0.267093 -0.39402476
-0.074488506 -0.26706553 -0.39401251
-0.074100502 -0.26708618 -0.39403069
-0.073922001 -0.26707551 -0.39401034
-0.073542498 -0.2670415 -0.394003
-0.062249001 -0.26708299 -0.39407668
-0.062108558 -0.26708722 -0.39413977
-0.061924752 -0.26712275 -0.39413273
-0.078289501 -0.26699752 -0.394198
-0.077948995 -0.26692533 -0.39418599
-0.077770002 -0.26696399 -0.394196
-0.077594995 -0.26689067 -0.394169
-0.077315666 -0.26691234 -0.39415166
-0.077098452 -0.26691377 -0.39417511
-0.076911405 -0.2668944 -0.39414638
-0.076658003 -0.26687536 -0.39411935
-0.076521836 -0.26688167 -0.39412951
-0.076395325 -0.26688865 -0.39413333
-0.076144665 -0.2669 -0.394135
-0.075930566 -0.26691964 -0.3941198
-0.075731337 -0.26692632 -0.39407864
-0.075326003 -0.26687598 -0.39408281
-0.07513833 -0.2668862 -0.39407286
-0.074977003 -0.2669 -0.39405432
-0.074696504 -0.26691332 -0.39404687
-0.074479334 -0.2669225 -0.39404467
-0.074072003 -0.26688701 -0.3940582
-0.073900886 -0.26688454 -0.39402211
-0.073526397 -0.26689881 -0.39400858
-0.073224999 -0.26684001 -0.39400101
-0.062238 -0.266902 -0.394104
-0.062090427 -0.26689097 -0.39415511
-0.061940499 -0.26692301 -0.39415851
-0.077584997 -0.26671201 -0.3941845
-0.077303 -0.26669601 -0.39418468
-0.077101 -0.26672572 -0.39419013
-0.076916225 -0.26672143 -0.39416146
-0.076647997 -0.26669601 -0.39413601
-0.076512255 -0.26670176 -0.39413625
-0.076383002 -0.26667333 -0.3941457
-0.07613299 -0.266684 -0.39414534
-0.075918444 -0.26670435 -0.39413479
-0.075718664 -0.26671132 -0.39410964
-0.07531625 -0.26669574 -0.39408949
-0.0751158 -0.2666854 -0.3940964
-0.074965 -0.266684 -0.39407834
-0.074729003 -0.266716 -0.39407375
-0.074498996 -0.26669601 -0.39406288
-0.074161999 -0.266718 -0.39405832
-0.073917128 -0.26670349 -0.39404613
-0.073523164 -0.26668134 -0.39401197
-0.07339 -0.266615 -0.394003
-0.073036008 -0.266709 -0.39400434
-0.062228665 -0.26672134 -0.39410201
-0.062102567 -0.26672512 -0.39416242
-0.077292994 -0.266516 -0.394198
-0.077134997 -0.266518 -0.39419699
-0.076903991 -0.26650622 -0.39418578
-0.076637335 -0.266516 -0.39415798
-0.076501667 -0.2665225 -0.39416
-0.076372996 -0.26649401 -0.394162
-0.076122001 -0.26650399 -0.3941665
-0.075906672 -0.26648834 -0.39414656
-0.075705998 -0.266496 -0.39414099
-0.07530617 -0.26651636 -0.39410651
-0.075127594 -0.26651239 -0.3941226
-0.074954003 -0.26650548 -0.39410201
-0.074759997 -0.266482 -0.39409366
-0.074498445 -0.26648745 -0.39406765
-0.074149996 -0.26650199 -0.39407399
-0.073906831 -0.26652369 -0.39405915
-0.073513247 -0.26650152 -0.39402127
-0.073317714 -0.26646501 -0.39402214
-0.073023997 -0.26649299 -0.39401698
-0.062488001 -0.26644599 -0.39401099
-0.062216666 -0.26650402 -0.39411464
-0.062090568 -0.266518 -0.39418226
-0.076911665 -0.26628935 -0.39419115
-0.076667994 -0.26629901 -0.39417601
-0.076489501 -0.26630685 -0.39417699
-0.076362662 -0.26631334 -0.39418164
-0.07611233 -0.26632401 -0.39417398
-0.075888284 -0.26629329 -0.39415911
-0.075693674 -0.26628 -0.39415801
-0.075294338 -0.26630053 -0.39411965
-0.075105503 -0.26631102 -0.39413217
-0.074943997 -0.266325 -0.39411834
-0.074750006 -0.26630199 -0.39410099
-0.074505605 -0.26631361 -0.39408839
-0.074397996 -0.2662445 -0.39409202
-0.074137665 -0.26628566 -0.39409268
-0.073895082 -0.26630735 -0.3940711
-0.073502161 -0.26632249 -0.39405486
-0.073326997 -0.26629448 -0.39403498
-0.073084198 -0.26628619 -0.3940492
-0.072905377 -0.26627988 -0.39401889
-0.072766252 -0.26627675 -0.39402026
-0.072520003 -0.26623201 -0.39400801
-0.062479999 -0.26630098 -0.39401448
-0.062204 -0.26628768 -0.39413765
-0.076903999 -0.26610801 -0.39418602
-0.076670334 -0.26608202 -0.394189
-0.076477669 -0.26609018 -0.39418069
-0.076351009 -0.26609799 -0.39418164
-0.076099999 -0.26610801 -0.39419469
-0.075892754 -0.26611888 -0.39416939
-0.075683504 -0.26609999 -0.39416951
-0.075282499 -0.26608384 -0.39413002
-0.0750935 -0.26609501 -0.39414015
-0.074932337 -0.26610866 -0.39412132
-0.074739337 -0.26612198 -0.39412332
-0.07452067 -0.26612383 -0.39410567
-0.074389502 -0.26609999 -0.394113
-0.074127004 -0.266105 -0.39411199
-0.073899798 -0.26609853 -0.3940919
-0.073796004 -0.2660585 -0.394099
-0.073490165 -0.26610649 -0.39406916
-0.073316999 -0.2661145 -0.39404714
-0.073139504 -0.2661235 -0.39405024
-0.072899997 -0.26607966 -0.39403409
-0.072702378 -0.26608863 -0.39402026
-0.072533503 -0.26606703 -0.39401001
-0.072345003 -0.26613 -0.3940025
-0.072145998 -0.26606801 -0.39401299
-0.071982995 -0.26607701 -0.39400899
-0.062742002 -0.26611 -0.39400366
-0.062471002 -0.26612034 -0.39401665
-0.062194999 -0.26610649 -0.394133
-0.076894 -0.265928 -0.39419651
-0.076600999 -0.26586801 -0.39419901
-0.076458797 -0.2658886 -0.3941896
-0.076341003 -0.265917 -0.394187
-0.075874552 -0.26591215 -0.39418325
-0.075673997 -0.26592001 -0.39416635
-0.075272247 -0.26590425 -0.39414901
-0.075081997 -0.26587799 -0.39414966
-0.074920334 -0.26589265 -0.39413202
-0.074727334 -0.26590565 -0.39414001
-0.074508995 -0.2659075 -0.39411554
-0.074378997 -0.26592001 -0.39413002
-0.074117668 -0.26592568 -0.39411601
-0.073891751 -0.26588437 -0.39412397
-0.073785998 -0.26587701 -0.39411032
-0.07347817 -0.26589015 -0.39408183
-0.073304333 -0.26589799 -0.39407182
-0.073174 -0.26590201 -0.3940393
-0.072921589 -0.26591069 -0.39405718
-0.072725251 -0.265899 -0.39403278
-0.072547249 -0.26590401 -0.39401275
-0.072287604 -0.26586518 -0.39401221
-0.072108001 -0.26588896 -0.39401385
-0.071972825 -0.26589701 -0.39400983
-0.062730007 -0.265894 -0.39401436
-0.062461503 -0.26594001 -0.394014
-0.062184002 -0.26592532 -0.39415398
-0.076886997 -0.265784 -0.394198
-0.076513872 -0.26571825 -0.39419162
-0.075856119 -0.26569599 -0.39419413
-0.075662337 -0.26570335 -0.39417735
-0.075263001 -0.26572353 -0.39413902
-0.075072005 -0.26569876 -0.394155
-0.074909002 -0.26567635 -0.39414135
-0.074716002 -0.26568934 -0.39414132
-0.074496664 -0.26569152 -0.39413068
-0.074368328 -0.26570401 -0.39412066
-0.07410533 -0.26570934 -0.39413634
-0.073895857 -0.26570958 -0.39413831
-0.073776007 -0.26569748 -0.394115
-0.073458001 -0.26568881 -0.39409798
-0.073292337 -0.26568201 -0.39408585
-0.073161669 -0.26568601 -0.3940573
-0.072900333 -0.2657091 -0.3940554
-0.072714828 -0.26571885 -0.39405036
-0.072537504 -0.265724 -0.39402318
-0.072267756 -0.26569998 -0.39402598
-0.072098002 -0.26570776 -0.39402699
-0.071952574 -0.26567116 -0.39402431
-0.071794003 -0.265654 -0.3940115
-0.063001998 -0.26565701 -0.394003
-0.062716998 -0.26567701 -0.39404431
-0.062445998 -0.26568767 -0.39406034
-0.062140204 -0.26572341 -0.39415818
-0.076498002 -0.26558352 -0.394196
-0.075907998 -0.265551 -0.394196
-0.075650327 -0.265486 -0.39418802
-0.075250164 -0.265508 -0.39416966
-0.075061835 -0.26551849 -0.39417002
-0.074898496 -0.265495 -0.39415598
-0.074703336 -0.26547399 -0.39416134
-0.074484996 -0.26547548 -0.39413467
-0.074355997 -0.26548734 -0.39414033
-0.074092999 -0.26549301 -0.39415565
-0.073878676 -0.2655147 -0.39412978
-0.073766001 -0.265517 -0.39413765
-0.073465601 -0.26551521 -0.39410383
-0.073282503 -0.2655015 -0.39409351
-0.073152006 -0.265506 -0.39406499
-0.072888494 -0.26549307 -0.39406535
-0.072702833 -0.26550281 -0.39406466
-0.072525002 -0.265508 -0.39404568
-0.072258331 -0.26551986 -0.3940227
-0.072087996 -0.26552767 -0.39403382
-0.071920715 -0.26549658 -0.39401987
-0.071748503 -0.2654745 -0.394007
-0.063050002 -0.26554251 -0.39400399
-0.062964834 -0.26551583 -0.39402834
-0.062707007 -0.26549602 -0.39405799
-0.0624355 -0.26550698 -0.39408299
-0.062161669 -0.26549032 -0.39414397
-0.075279333 -0.26528969 -0.3941927
-0.075150669 -0.26529717 -0.3941758
-0.074941672 -0.26531014 -0.39417967
-0.074693501 -0.26529348 -0.39417398
-0.074474998 -0.26529503 -0.39414501
-0.074346006 -0.26530701 -0.3941505
-0.074082337 -0.26527736 -0.39414167
-0.073867001 -0.26529801 -0.39413533
-0.073753998 -0.26530099 -0.39414898
-0.073455796 -0.26532716 -0.39410442
-0.073290572 -0.26530999 -0.39410803
-0.073141001 -0.26532665 -0.39409003
-0.072897248 -0.26528475 -0.39407825
-0.072726563 -0.26528436 -0.39406469
-0.072513834 -0.26529083 -0.39403868
-0.072299004 -0.26530001 -0.39404798
-0.072115667 -0.2653099 -0.39403012
-0.071901664 -0.26532209 -0.3940281
-0.07173875 -0.26529449 -0.39401251
-0.063051 -0.26527175 -0.39402175
-0.062899582 -0.26530316 -0.39403787
-0.062697671 -0.26531568 -0.39405903
-0.062425334 -0.26532534 -0.39409301
-0.0621535 -0.26530898 -0.39412051
-0.075267665 -0.26507333 -0.39419332
-0.075139336 -0.26508051 -0.39417949
-0.074919805 -0.2651082 -0.39418522
-0.074683003 -0.265113 -0.39419135
-0.074465007 -0.26511398 -0.39415941
-0.074336 -0.26512599 -0.39415535
-0.074072495 -0.26509601 -0.39414501
-0.073855221 -0.26508155 -0.3941412
-0.073742993 -0.26508501 -0.39413834
-0.073477 -0.26509401 -0.39410165
-0.073304445 -0.26510334 -0.39411867
-0.073129997 -0.26511002 -0.3940897
-0.072902434 -0.26510873 -0.39407274
-0.072717167 -0.26510367 -0.3940618
-0.072501995 -0.26507536 -0.39404646
-0.072287001 -0.265084 -0.39406335
-0.072103232 -0.26509398 -0.39404571
-0.071889751 -0.26510569 -0.3940371
-0.071728669 -0.26511416 -0.39402235
-0.063046671 -0.26509598 -0.39403033
-0.062886916 -0.26508608 -0.39405754
-0.062685668 -0.26509798 -0.39407232
-0.062414002 -0.26510799 -0.394097
-0.062142 -0.26512769 -0.39416301
-0.075260997 -0.26493001 -0.39418301
-0.075129502 -0.26489949 -0.39418697
-0.074868001 -0.26495501 -0.39419499
-0.074671991 -0.26489601 -0.39418864
-0.074453168 -0.26489818 -0.39416301
-0.074324004 -0.26491001 -0.39416704
-0.074062333 -0.264916 -0.39416233
-0.073871002 -0.2649 -0.39414826
-0.073764004 -0.26490349 -0.39413825
-0.073464669 -0.264878 -0.3941277
-0.073293224 -0.26488611 -0.39411414
-0.073118001 -0.26489332 -0.39410034
-0.072884552 -0.26491368 -0.39407668
-0.072707109 -0.26492387 -0.39407524
-0.072492249 -0.26489401 -0.39406002
-0.072276995 -0.26490399 -0.39406601
-0.072091118 -0.26487711 -0.39406237
-0.071877673 -0.26488963 -0.39405206
-0.071716666 -0.26489818 -0.39403966
-0.07149633 -0.264902 -0.39402601
-0.070991002 -0.264853 -0.39400101
-0.063047826 -0.26492718 -0.39404652
-0.062888719 -0.26490986 -0.39406642
-0.0627224 -0.26486462 -0.39407063
-0.062403001 -0.26492751 -0.39411899
-0.062396001 -0.264819 -0.394153
-0.062129665 -0.26491165 -0.39418134
-0.075111002 -0.26473498 -0.39419419
-0.074660003 -0.26468 -0.39419699
-0.074463502 -0.26469874 -0.39417726
-0.074345805 -0.2646752 -0.39418441
-0.074051 -0.26469934 -0.39415565
-0.073860832 -0.26471949 -0.39415851
-0.073753998 -0.26472351 -0.39415649
-0.073454 -0.264698 -0.39414698
-0.07332699 -0.26470426 -0.3941355
-0.073150493 -0.26467466 -0.39409003
-0.072872005 -0.26469755 -0.39409634
-0.072694674 -0.26470789 -0.39409176
-0.072481833 -0.264714 -0.39407584
-0.072266996 -0.26472268 -0.39407334
-0.072081171 -0.26469633 -0.39407432
-0.071873382 -0.26469988 -0.39406884
-0.071728006 -0.26467085 -0.39405563
-0.071484663 -0.264685 -0.39402667
-0.071230337 -0.26470101 -0.39400268
-0.070958003 -0.26469374 -0.39400175
-0.063042402 -0.26472458 -0.39406341
-0.062903598 -0.264714 -0.3940841
-0.062725246 -0.26469851 -0.39409149
-0.062387332 -0.26467499 -0.39417168
-0.062118664 -0.26469299 -0.39417401
-0.075066 -0.264579 -0.394196
-0.074474007 -0.26450002 -0.39419502
-0.074335597 -0.26448721 -0.39419055
-0.074038997 -0.26448265 -0.394171
-0.073849171 -0.26450315 -0.39416668
-0.073741831 -0.26450703 -0.39417386
-0.073445 -0.26451668 -0.39413902
-0.073317833 -0.26452351 -0.39413467
-0.073140502 -0.26449451 -0.39410627
-0.072859891 -0.26448143 -0.39411601
-0.072682768 -0.26449075 -0.39410287
-0.072469831 -0.26449797 -0.3940905
-0.072255336 -0.26450601 -0.39408532
-0.072080754 -0.264525 -0.39407185
-0.071896441 -0.26450998 -0.39407647
-0.071726501 -0.26449868 -0.39405981
-0.071474999 -0.264505 -0.3940345
-0.071218334 -0.264485 -0.39401102
-0.0709332 -0.26451176 -0.3940084
-0.063076995 -0.26447448 -0.39404973
-0.062907502 -0.26450327 -0.39411566
-0.062714495 -0.26451734 -0.39411151
-0.062378 -0.26449299 -0.39416599
-0.06210633 -0.26447633 -0.39418498
-0.074464001 -0.264319 -0.394196
-0.074336 -0.2643275 -0.39419574
-0.074028499 -0.26430303 -0.39419001
-0.073837005 -0.26428649 -0.3941758
-0.073730342 -0.26429015 -0.39416984
-0.073432997 -0.26429999 -0.39414763
-0.073306836 -0.26430747 -0.39412498
-0.073130168 -0.26431432 -0.39411965
-0.072875999 -0.26429901 -0.39413702
-0.072729714 -0.26429287 -0.39411873
-0.072504438 -0.2642802 -0.39408982
-0.072243996 -0.26429 -0.39408866
-0.0720945 -0.26429915 -0.39407185
-0.071899243 -0.26430839 -0.39407441
-0.071717329 -0.26431879 -0.3940571
-0.071465001 -0.26432499 -0.39404133
-0.071208999 -0.26430452 -0.39400601
-0.07102 -0.26423901 -0.39400449
-0.070895433 -0.26427272 -0.39400974
-0.07070867 -0.264249 -0.39400998
-0.063068494 -0.26429299 -0.39403349
-0.062897168 -0.26428598 -0.39408937
-0.062703826 -0.26430014 -0.39409947
-0.062368002 -0.26431301 -0.3941783
-0.062096998 -0.26429501 -0.39418501
-0.074452996 -0.26410401 -0.39419749
-0.074285001 -0.264189 -0.39419699
-0.07401967 -0.26412201 -0.39417899
-0.073836334 -0.26411733 -0.39418769
-0.073737673 -0.26408532 -0.39418086
-0.073421001 -0.26408401 -0.39416
-0.073294334 -0.26409101 -0.39414516
-0.073119 -0.26409802 -0.39411882
-0.072866507 -0.26411781 -0.39413968
-0.072736621 -0.26411876 -0.39412099
-0.072494999 -0.26410067 -0.39408684
-0.072232664 -0.264074 -0.39408433
-0.072082669 -0.26408282 -0.39408016
-0.071887322 -0.2640925 -0.39408603
-0.071705446 -0.264103 -0.3940689
-0.071453996 -0.26410699 -0.39403501
-0.071203001 -0.26419601 -0.394007
-0.071104504 -0.26409099 -0.39401448
-0.070900753 -0.26410151 -0.39401928
-0.070730001 -0.26406974 -0.39401904
-0.070248999 -0.26409501 -0.39400664
-0.063393995 -0.26407501 -0.39400798
-0.063036993 -0.2640945 -0.394016
-0.062886879 -0.26410475 -0.39410725
-0.062707141 -0.26407117 -0.39411014
-0.062355999 -0.26409501 -0.394189
-0.062086999 -0.26411399 -0.39419103
-0.074441336 -0.26388732 -0.39419532
-0.074008331 -0.26390567 -0.39417434
-0.073847003 -0.26399699 -0.39419499
-0.073744141 -0.26390827 -0.39418682
-0.073412001 -0.26390451 -0.39415699
-0.073274598 -0.26388982 -0.39415181
-0.073106334 -0.26388219 -0.39414084
-0.072855838 -0.26390168 -0.39412403
-0.072718449 -0.26391166 -0.39411733
-0.072530009 -0.26391801 -0.39410636
-0.072325602 -0.26391101 -0.39409778
-0.072072491 -0.26390249 -0.39409274
-0.07186728 -0.26388338 -0.39409301
-0.071693555 -0.26388609 -0.3940798
-0.071442001 -0.26389101 -0.39405164
-0.071140997 -0.26390952 -0.39403024
-0.070906423 -0.26391056 -0.39402574
-0.070727997 -0.26389697 -0.39402536
-0.063383996 -0.26389468 -0.39402333
-0.0630612 -0.2638976 -0.39401463
-0.062903665 -0.26392123 -0.39412913
-0.06271866 -0.26390001 -0.39412799
-0.062345337 -0.26387799 -0.39416668
-0.062079001 -0.26396999 -0.394191
-0.074432001 -0.263706 -0.39419198
-0.074000999 -0.26376101 -0.39416999
-0.073940665 -0.26367101 -0.39418533
-0.073726781 -0.26371264 -0.39417732
-0.073403999 -0.26375899 -0.394153
-0.073302172 -0.26370499 -0.39415467
-0.073096499 -0.26370174 -0.39414352
-0.072843336 -0.26368567 -0.39415002
-0.072706223 -0.2636956 -0.39413249
-0.072518326 -0.26370099 -0.39411381
-0.072297662 -0.26370999 -0.39409664
-0.072062671 -0.26372185 -0.39409837
-0.071886875 -0.26371175 -0.39409363
-0.071699858 -0.26369971 -0.39408955
-0.071429998 -0.263675 -0.39406434
-0.071175329 -0.26369134 -0.394043
-0.070916556 -0.26370278 -0.39402387
-0.070718221 -0.26371723 -0.39402878
-0.070408002 -0.26365501 -0.39400801
-0.070227996 -0.263697 -0.394007
-0.063371666 -0.26367798 -0.39403465
-0.0630375 -0.26371378 -0.39404151
-0.062891774 -0.26370421 -0.39413893
-0.06270878 -0.26371846 -0.39413187
-0.062334999 -0.26369649 -0.39418751
-0.074423999 -0.26356199 -0.39419901
-0.073902994 -0.2634815 -0.3941935
-0.073715001 -0.26349556 -0.39417854
-0.073306233 -0.26351112 -0.394153
-0.073087662 -0.26352099 -0.39413717
-0.072826803 -0.26348418 -0.39415842
-0.072694667 -0.26347858 -0.39413798
-0.072506838 -0.26348531 -0.39411867
-0.072303794 -0.26350743 -0.39409959
-0.072072282 -0.26349416 -0.39409599
-0.071878552 -0.26351354 -0.39410001
-0.071702756 -0.26352376 -0.39409447
-0.071420506 -0.26349449 -0.394052
-0.071163669 -0.26347569 -0.39404166
-0.070905 -0.26348612 -0.394032
-0.07070633 -0.26350102 -0.39403614
-0.070403002 -0.263583 -0.394014
-0.070289806 -0.26350015 -0.39401639
-0.070129998 -0.263455 -0.39400899
-0.063630998 -0.2635245 -0.39400101
-0.063362494 -0.26349699 -0.394034
-0.063056201 -0.26349276 -0.39403337
-0.062892102 -0.26347932 -0.39413181
-0.062747166 -0.26349917 -0.39412019
-0.062596001 -0.26350632 -0.39418867
-0.062325001 -0.26351601 -0.39419103
-0.074410997 -0.26330966 -0.39419401
-0.073809676 -0.26327401 -0.39419267
-0.07370311 -0.26327977 -0.394187
-0.073294327 -0.26329499 -0.39416489
-0.07307566 -0.26330468 -0.39414015
-0.072849661 -0.26331934 -0.39416036
-0.072713003 -0.26329726 -0.39413899
-0.07249774 -0.26330501 -0.39411426
-0.072359003 -0.26327369 -0.39410964
-0.072137333 -0.26328418 -0.39409533
-0.071899004 -0.26329565 -0.39410305
-0.071723223 -0.26330665 -0.39410388
-0.071502171 -0.26331314 -0.39408198
-0.071153998 -0.26329452 -0.39405298
-0.070881858 -0.26329127 -0.39403814
-0.070695214 -0.26328358 -0.39403212
-0.070297502 -0.26329681 -0.39401332
-0.070122667 -0.26331034 -0.39400935
-0.069870666 -0.26332533 -0.39402166
-0.063871503 -0.26321352 -0.394003
-0.063619502 -0.26330751 -0.3940095
-0.063353665 -0.26331499 -0.394014
-0.063079 -0.26329699 -0.39404351
-0.062890448 -0.26329309 -0.39413565
-0.062735341 -0.263282 -0.39413118
-0.062585331 -0.26328865 -0.39417329
-0.062309999 -0.263226 -0.3942
-0.073881999 -0.2630845 -0.39419401
-0.073704995 -0.2630918 -0.39418879
-0.073325999 -0.26307616 -0.39416465
-0.073108561 -0.26308551 -0.39415014
-0.072838999 -0.26310268 -0.39414564
-0.07270325 -0.26311642 -0.39414009
-0.072488002 -0.26312384 -0.39411831
-0.072349504 -0.26309299 -0.39411551
-0.072127998 -0.26310301 -0.39409125
-0.071887754 -0.26307818 -0.39410302
-0.071712226 -0.26308924 -0.39410079
-0.071537249 -0.26311377 -0.39410025
-0.071397007 -0.26306149 -0.39407748
-0.071143664 -0.26311299 -0.39406905
-0.070929162 -0.26312166 -0.39403346
-0.070713371 -0.26310176 -0.39404124
-0.070377 -0.263078 -0.394012
-0.070138998 -0.26311299 -0.39401463
-0.069895796 -0.263091 -0.39401379
-0.069617331 -0.26312265 -0.39401269
-0.063867502 -0.26314151 -0.394007
-0.063654408 -0.2630738 -0.39403901
-0.063340999 -0.26309901 -0.39403334
-0.063070327 -0.26311567 -0.39403668
-0.062898643 -0.26311579 -0.39413211
-0.062725246 -0.26310122 -0.39414251
-0.062575504 -0.263107 -0.39417899
-0.062306002 -0.263154 -0.394198
-0.073954664 -0.26289499 -0.39418766
-0.073684111 -0.262918 -0.3941879
-0.0733165 -0.26289549 -0.39416927
-0.073085137 -0.26289028 -0.39415869
-0.072825998 -0.26288566 -0.39418098
-0.072700091 -0.26290584 -0.39414743
-0.072493434 -0.26289654 -0.39413473
-0.072339997 -0.26291299 -0.39410803
-0.0721175 -0.26292267 -0.39411083
-0.071877621 -0.26289824 -0.39411387
-0.071693137 -0.262894 -0.39410973
-0.071570665 -0.26287699 -0.39411199
-0.071387663 -0.26288131 -0.39406967
-0.071131997 -0.26289764 -0.3940703
-0.070917502 -0.26290467 -0.39403534
-0.070703328 -0.26292151 -0.39405239
-0.070366994 -0.26289701 -0.39401799
-0.070082493 -0.26287615 -0.39401433
-0.069894999 -0.26288781 -0.39400649
-0.069608003 -0.26294199 -0.39400899
-0.064669803 -0.26284221 -0.39403602
-0.063845664 -0.26287666 -0.39401332
-0.063719004 -0.26290399 -0.39402199
-0.063595667 -0.26287368 -0.39402899
-0.063328668 -0.26288167 -0.39406332
-0.063057661 -0.26289836 -0.394061
-0.062908888 -0.26290312 -0.39411414
-0.062741108 -0.26291779 -0.39415789
-0.062569 -0.262999 -0.39419201
-0.062291 -0.262862 -0.39419699
-0.073945001 -0.26271451 -0.39418751
-0.073714748 -0.26271924 -0.39419249
-0.073315196 -0.26272923 -0.39418182
-0.073113285 -0.26272401 -0.39417428
-0.072876334 -0.26268968 -0.39417267
-0.072709344 -0.26268223 -0.39415768
-0.072506554 -0.26268998 -0.39414057
-0.072327338 -0.26269701 -0.39414033
-0.072105341 -0.26270616 -0.39412633
-0.071891338 -0.26273254 -0.39412034
-0.071725726 -0.26270735 -0.39411867
-0.071560994 -0.26269701 -0.39412051
-0.071376994 -0.26270151 -0.39409602
-0.071120001 -0.26268166 -0.39408335
-0.070905499 -0.26268765 -0.39405
-0.070691429 -0.26270494 -0.39405909
-0.070358001 -0.262716 -0.39401802
-0.070118167 -0.26271635 -0.39401984
-0.069888398 -0.26268619 -0.39400902
-0.069591001 -0.26261601 -0.39400801
-0.064675331 -0.26274067 -0.39402166
-0.064449996 -0.26271099 -0.39400601
-0.063840203 -0.26272258 -0.39401779
-0.063708998 -0.26272336 -0.394032
-0.063585505 -0.26269251 -0.39405
-0.063319504 -0.2627005 -0.394045
-0.063046999 -0.26268199 -0.39404702
-0.06289766 -0.26268581 -0.39411357
-0.062729336 -0.26270035 -0.39416033
-0.073336996 -0.26249635 -0.39417768
-0.073120333 -0.26250732 -0.39418581
-0.072897337 -0.26251885 -0.39418581
-0.072699331 -0.26250184 -0.39416751
-0.072483003 -0.26249385 -0.39414614
-0.072315998 -0.26247901 -0.394137
-0.072093166 -0.26248953 -0.39414248
-0.07192383 -0.26249647 -0.39412317
-0.07172367 -0.26250923 -0.39412647
-0.071551003 -0.26251635 -0.39412832
-0.071367331 -0.26251999 -0.394097
-0.071110502 -0.26249999 -0.3940815
-0.070895255 -0.2625075 -0.394059
-0.070708223 -0.26248598 -0.3940686
-0.070592336 -0.26249298 -0.394086
-0.070345335 -0.26249999 -0.39403465
-0.070121996 -0.26251051 -0.39403334
-0.069923505 -0.26251489 -0.39401647
-0.069583334 -0.26247266 -0.39400968
-0.063828997 -0.26250538 -0.39401478
-0.063698001 -0.26250499 -0.39402398
-0.063576005 -0.26251164 -0.39403966
-0.06331066 -0.26251999 -0.39403534
-0.063036993 -0.26249999 -0.39404899
-0.062887333 -0.26250419 -0.39412317
-0.062718228 -0.26248243 -0.39415866
-0.073268667 -0.26228234 -0.39419666
-0.073087253 -0.262308 -0.39419502
-0.072976671 -0.26229501 -0.39418635
-0.072716087 -0.26231724 -0.3941749
-0.072530001 -0.26232716 -0.39417836
-0.0723515 -0.26229724 -0.39414251
-0.072071396 -0.26228762 -0.39414901
-0.071911335 -0.26228049 -0.39414167
-0.071711734 -0.2622925 -0.39413655
-0.071539007 -0.26229969 -0.39413264
-0.071355999 -0.26230401 -0.39410099
-0.071101665 -0.26232001 -0.39406899
-0.07088533 -0.26232716 -0.39406899
-0.070690714 -0.26229143 -0.394059
-0.070581995 -0.26227668 -0.39407301
-0.070333995 -0.2622827 -0.39403436
-0.070111506 -0.26229402 -0.3940165
-0.069888003 -0.26233384 -0.39401117
-0.069572002 -0.26225501 -0.39400199
-0.063801996 -0.262348 -0.39400601
-0.063741505 -0.26224548 -0.394005
-0.063564003 -0.26229468 -0.39405298
-0.063299663 -0.26230267 -0.39403
-0.063028 -0.26231867 -0.39403835
-0.062878221 -0.26232302 -0.39411813
-0.062708341 -0.26230201 -0.39416447
-0.073231503 -0.262104 -0.39419103
-0.073089398 -0.26208818 -0.39418781
-0.072966002 -0.26207903 -0.39417768
-0.072704248 -0.26210096 -0.39418277
-0.072519004 -0.26211035 -0.39417151
-0.072341166 -0.26211634 -0.39415383
-0.072083198 -0.262113 -0.39415604
-0.071902499 -0.2620995 -0.39413273
-0.071707912 -0.26209527 -0.39413461
-0.071556002 -0.26206881 -0.39413199
-0.071343996 -0.26208666 -0.39410666
-0.071089998 -0.26210269 -0.39407864
-0.070873998 -0.26211014 -0.39406833
-0.070695877 -0.26211575 -0.394061
-0.070573002 -0.262095 -0.394054
-0.070325501 -0.26210299 -0.39401752
-0.070120253 -0.26205751 -0.39401424
-0.069806665 -0.26209801 -0.39400265
-0.069564335 -0.26211101 -0.39400735
-0.063676998 -0.26210701 -0.394023
-0.063553996 -0.26207665 -0.39402136
-0.063286662 -0.262086 -0.39405897
-0.063015997 -0.26210201 -0.39405099
-0.062866777 -0.26210666 -0.39411712
-0.062697999 -0.26212013 -0.39417878
-0.073277675 -0.26191935 -0.39419499
-0.073089749 -0.26192799 -0.39418775
-0.072955996 -0.261897 -0.39418599
-0.072693422 -0.26188391 -0.39417282
-0.072507501 -0.26189366 -0.39417496
-0.072329998 -0.26190001 -0.3941505
-0.072061993 -0.26191148 -0.39415583
-0.071892999 -0.26191887 -0.39412817
-0.071724907 -0.26191479 -0.39413869
-0.071554005 -0.26190248 -0.394142
-0.071335003 -0.261906 -0.39410251
-0.071078338 -0.26188669 -0.39408031
-0.070863001 -0.26189414 -0.39406216
-0.070678994 -0.2619088 -0.39404845
-0.070563667 -0.26191601 -0.39404967
-0.070320003 -0.26199499 -0.39400199
-0.070090503 -0.26189798 -0.39401799
-0.06989 -0.26190901 -0.39400399
-0.069794998 -0.26188132 -0.39401364
-0.06955301 -0.26189432 -0.39400503
-0.063667327 -0.26192701 -0.39402601
-0.063543499 -0.26189649 -0.39404452
-0.063277498 -0.261904 -0.394054
-0.063005999 -0.26192099 -0.394068
-0.062901005 -0.26187661 -0.39410114
-0.062714078 -0.26190051 -0.39416862
-0.073298 -0.261774 -0.39419201
-0.073037997 -0.26178601 -0.39418599
-0.072946668 -0.261718 -0.39418364
-0.072683752 -0.26170373 -0.39417914
-0.072510287 -0.26166639 -0.39418313
-0.072318666 -0.26168367 -0.39414951
-0.072078004 -0.261711 -0.39416
-0.07191024 -0.26169214 -0.39413562
-0.071706668 -0.26171353 -0.39413249
-0.071543992 -0.26172149 -0.39414835
-0.071325004 -0.26172599 -0.39410666
-0.071068004 -0.26170599 -0.39410049
-0.070851661 -0.26167667 -0.39405382
-0.070666879 -0.26169178 -0.39406145
-0.070551999 -0.26169935 -0.39406237
-0.070304327 -0.26170501 -0.39401701
-0.070080332 -0.26171669 -0.39403149
-0.069914006 -0.26172599 -0.39401636
-0.069784999 -0.2617 -0.39402351
-0.069541663 -0.26167735 -0.39401034
-0.063657008 -0.26170999 -0.39400467
-0.063533999 -0.26171499 -0.39404598
-0.063267 -0.261724 -0.39407334
-0.062915988 -0.26170585 -0.39407083
