# .PCD v0.7 - Point Cloud Data file format
VERSION 0.7
FIELDS x y z
SIZE 4 4 4
TYPE F F F
COUNT 1 1 1
WIDTH 1419
HEIGHT 1
VIEWPOINT 0 0 0 1 0 0 0
POINTS 1419
DATA ascii
-0.076921001 0.089929 -0.22746301
-0.076917998 0.090000004 -0.227487
-0.076915003 0.090070002 -0.227492
-0.076912001 0.090141997 -0.22748201
-0.076909997 0.090212002 -0.227478
-0.076907001 0.090282001 -0.227483
-0.076903999 0.090354003 -0.227485
-0.076901004 0.090423003 -0.227479
-0.076898001 0.090494998 -0.227484
-0.076894999 0.090566002 -0.227488
-0.076892003 0.090636 -0.22750001
-0.076888002 0.090708002 -0.227514
-0.076885 0.090778001 -0.22751901
-0.076883003 0.090847999 -0.22751699
-0.076880001 0.090920001 -0.227515
-0.076877996 0.090989999 -0.22750001
-0.076876 0.091061004 -0.227486
-0.076872997 0.091131002 -0.22748999
-0.076869003 0.091201998 -0.22750901
-0.076866001 0.091274001 -0.22751901
-0.076862998 0.091343999 -0.227511
-0.076861002 0.091416001 -0.22750901
-0.076857999 0.091486 -0.22751801
-0.076854996 0.091555998 -0.227524
-0.076852001 0.091628 -0.227522
-0.076848999 0.091697998 -0.22752699
-0.076846004 0.091770001 -0.227523
-0.076843999 0.091839001 -0.227505
-0.076842003 0.091911003 -0.227504
-0.076838002 0.091982 -0.227524
-0.076834001 0.092051998 -0.22753599
-0.076831996 0.092124 -0.22753
-0.076829001 0.092193998 -0.227533
-0.076825999 0.092266001 -0.22754499
-0.076823004 0.092335999 -0.227551
-0.076820001 0.092408001 -0.22755
-0.076816998 0.092478 -0.227542
-0.076815002 0.092547998 -0.22753599
-0.076811999 0.09262 -0.22753499
-0.076808996 0.092689998 -0.22753499
-0.076806001 0.092762001 -0.22753701
-0.076803997 0.092831001 -0.227534
-0.076801002 0.092900999 -0.227534
-0.076797999 0.092973001 -0.227532
-0.076796003 0.093043 -0.227524
-0.076793 0.093115002 -0.22752699
-0.076789998 0.093185 -0.227531
-0.076787002 0.093254998 -0.22752699
-0.076784998 0.093327001 -0.22752599
-0.076782003 0.093396999 -0.227522
-0.076779999 0.093469001 -0.227514
-0.076777004 0.093539 -0.22750901
-0.076774999 0.093607999 -0.227503
-0.076771997 0.093680002 -0.22749899
-0.076769002 0.09375 -0.227506
-0.076765999 0.093823001 -0.227514
-0.076762997 0.093892001 -0.227512
-0.076760001 0.093964003 -0.22751001
-0.076757997 0.094034001 -0.227513
-0.076755002 0.094106004 -0.22750901
-0.076752 0.094176002 -0.227505
-0.076748997 0.094247997 -0.22751001
-0.076747 0.094318002 -0.22750799
-0.076743998 0.094388001 -0.227496
-0.076742001 0.094460003 -0.227497
-0.076738 0.094530001 -0.227507
-0.076734997 0.094602004 -0.227515
-0.076732002 0.094672002 -0.22751699
-0.076729 0.094743997 -0.227522
-0.076725997 0.094814003 -0.227524
-0.076724 0.094885997 -0.227522
-0.076720998 0.094956003 -0.227515
-0.076719001 0.095026001 -0.227501
-0.076716997 0.095096998 -0.22748899
-0.076714002 0.095167004 -0.227484
-0.076711997 0.095238999 -0.22747999
-0.076709002 0.095308997 -0.227476
-0.076706998 0.095379002 -0.227469
-0.076704003 0.095450997 -0.22747301
-0.076701 0.095521003 -0.227475
-0.076697998 0.095592998 -0.227469
-0.076696001 0.095661998 -0.22746
-0.076693997 0.095732003 -0.22745
-0.076691002 0.095803998 -0.22745
-0.076687999 0.095873997 -0.227449
-0.076686002 0.095945999 -0.227441
-0.076683 0.096015997 -0.227447
-0.076679997 0.096086003 -0.22745
-0.076677002 0.096157998 -0.227446
-0.076673999 0.096228004 -0.22744399
-0.076672003 0.096299998 -0.227439
-0.076669 0.096369997 -0.22743499
-0.076667003 0.096441001 -0.227431
-0.076664001 0.096510999 -0.227431
-0.076660998 0.096580997 -0.227428
-0.076659001 0.096653 -0.22741801
-0.076655999 0.096722998 -0.22741599
-0.076653004 0.096795 -0.227421
-0.076650999 0.096864998 -0.22740901
-0.076649003 0.096933998 -0.227393
-0.076646999 0.097006001 -0.22738799
-0.076644003 0.097075999 -0.22739001
-0.076641001 0.097145997 -0.227384
-0.076638997 0.097217999 -0.22738101
-0.076636001 0.097287998 -0.227383
-0.076632001 0.09736 -0.227391
-0.076629996 0.097429998 -0.22738899
-0.076627001 0.097502001 -0.22737999
-0.076624997 0.097571999 -0.22737201
-0.076623 0.097640999 -0.227364
-0.076619998 0.097713001 -0.22736099
-0.076617002 0.097782999 -0.227365
-0.076614 0.097855002 -0.22736301
-0.076612003 0.097925 -0.22735
-0.076609999 0.097994998 -0.227346
-0.076606996 0.098067001 -0.227348
-0.076604001 0.098136999 -0.227347
-0.076600999 0.098209001 -0.227345
-0.076599002 0.098278001 -0.227331
-0.076596998 0.098347999 -0.227318
-0.076594003 0.098420002 -0.227322
-0.076591 0.09849 -0.227318
-0.076589003 0.098559998 -0.227312
-0.076586001 0.098632 -0.22730701
-0.076583996 0.098701 -0.227299
-0.076581001 0.098773003 -0.22729699
-0.076578997 0.098843001 -0.22729599
-0.076576002 0.098912999 -0.22729
-0.076573998 0.098985001 -0.227282
-0.076571003 0.099055 -0.227277
-0.076568 0.099127002 -0.22727901
-0.076564997 0.099197 -0.227281
-0.076563001 0.099266998 -0.227282
-0.076559998 0.099339001 -0.227284
-0.076557003 0.099408999 -0.227284
-0.076554 0.099481001 -0.22727799
-0.076552004 0.099550001 -0.22726899
-0.076549999 0.09962 -0.22726101
-0.076546997 0.099692002 -0.227265
-0.076544002 0.099762 -0.22727001
-0.076540999 0.099834003 -0.22726201
-0.076539002 0.099904001 -0.227254
-0.076536 0.099973999 -0.227253
-0.076534003 0.100046 -0.227245
-0.076531 0.100115 -0.227239
-0.076527998 0.100187 -0.22724199
-0.076526001 0.100257 -0.227238
-0.076522999 0.100327 -0.22723401
-0.076520003 0.100399 -0.227238
-0.076517001 0.100471 -0.227245
-0.076514997 0.100541 -0.227235
-0.076512001 0.100611 -0.22722299
-0.076509997 0.100681 -0.227222
-0.076507002 0.100753 -0.227226
-0.076504 0.100823 -0.227218
-0.076502003 0.100894 -0.22720701
-0.076499 0.100964 -0.22720701
-0.076497003 0.101036 -0.22720499
-0.076494001 0.101106 -0.22720399
-0.076490998 0.101176 -0.227198
-0.076489002 0.101248 -0.22718599
-0.076486997 0.101318 -0.22718
-0.076484002 0.101387 -0.22717699
-0.076481 0.101459 -0.227173
-0.076479003 0.101529 -0.227167
-0.076476999 0.101599 -0.227156
-0.076474003 0.101671 -0.227154
-0.076471001 0.101741 -0.227156
-0.076468997 0.101813 -0.22715101
-0.076466002 0.101883 -0.22714899
-0.076462999 0.101955 -0.22714899
-0.076459996 0.102025 -0.227156
-0.076457001 0.102097 -0.227156
-0.076454997 0.102166 -0.227144
-0.076453 0.102236 -0.227138
-0.076449998 0.102308 -0.227135
-0.076447003 0.102378 -0.227135
-0.076444 0.10245 -0.22714099
-0.076440997 0.10252 -0.22713999
-0.076439001 0.10259 -0.227126
-0.076436996 0.102661 -0.227118
-0.076434001 0.102731 -0.22711501
-0.076431997 0.102801 -0.227111
-0.076429002 0.102873 -0.227109
-0.076425999 0.102943 -0.227108
-0.076424003 0.103015 -0.227102
-0.076421 0.103085 -0.227092
-0.076419003 0.103154 -0.227083
-0.076416999 0.103224 -0.227075
-0.076413997 0.103294 -0.227071
-0.076412 0.103366 -0.227063
-0.076408997 0.103436 -0.22705799
-0.076406002 0.103506 -0.227056
-0.076402999 0.103578 -0.22706001
-0.076401003 0.103648 -0.227053
-0.076398998 0.103717 -0.227037
-0.076396003 0.103789 -0.22703101
-0.076393999 0.103859 -0.227026
-0.076392002 0.103929 -0.227016
-0.076389 0.103998 -0.227008
-0.076387003 0.10407 -0.227001
-0.076384999 0.10414 -0.22699299
-0.076382004 0.10421 -0.226989
-0.076379001 0.104282 -0.22699399
-0.076375999 0.104354 -0.227
-0.076373003 0.104424 -0.226998
-0.076370999 0.104494 -0.22699299
-0.076367997 0.104564 -0.226983
-0.076366 0.104635 -0.22697701
-0.076362997 0.104705 -0.226973
-0.076361001 0.104777 -0.22696801
-0.076358996 0.104845 -0.226952
-0.076356001 0.104915 -0.226942
-0.076353997 0.104986 -0.226937
-0.076352 0.105056 -0.226923
-0.076350003 0.105123 -0.22690199
-0.076347001 0.105195 -0.22690199
-0.076343998 0.105268 -0.22691201
-0.076342002 0.105338 -0.226906
-0.076338999 0.105407 -0.22689299
-0.076337002 0.105477 -0.22688501
-0.076334998 0.105547 -0.226877
-0.076332003 0.105619 -0.22687
-0.076329999 0.105688 -0.226862
-0.076327004 0.105758 -0.226854
-0.076324999 0.105828 -0.22683901
-0.076323003 0.105895 -0.226825
-0.076320998 0.105967 -0.226813
-0.076319002 0.106037 -0.226808
-0.076315999 0.106107 -0.22680999
-0.076314002 0.106177 -0.226798
-0.076311998 0.106246 -0.226779
-0.076310001 0.106316 -0.226761
-0.076306999 0.106386 -0.226759
-0.076304004 0.106456 -0.22676
-0.076301999 0.106527 -0.226748
-0.076301001 0.106595 -0.226726
-0.076298997 0.106665 -0.226711
-0.076297 0.106732 -0.226695
-0.076295003 0.106802 -0.22668099
-0.076292001 0.106874 -0.22667401
-0.076289997 0.106943 -0.22667
-0.076288 0.107011 -0.226647
-0.076286003 0.107078 -0.226623
-0.076283999 0.10715 -0.226623
-0.076281004 0.107222 -0.226625
-0.076278001 0.107292 -0.226622
-0.076275997 0.107362 -0.22661801
-0.076273002 0.107432 -0.226606
-0.076270998 0.107502 -0.226593
-0.076269001 0.107571 -0.22658101
-0.076266997 0.107641 -0.226569
-0.076265 0.107711 -0.226558
-0.076261997 0.107778 -0.226548
-0.07626 0.107848 -0.226541
-0.076256998 0.10792 -0.226537
-0.076255001 0.10799 -0.226531
-0.076252997 0.10806 -0.226521
-0.076250002 0.108129 -0.226514
-0.076247998 0.108199 -0.22650801
-0.076246001 0.108269 -0.226496
-0.076242998 0.108339 -0.226485
-0.076241001 0.108409 -0.22647899
-0.076237999 0.108478 -0.226475
-0.076236002 0.10855 -0.22647201
-0.076233 0.10862 -0.226464
-0.076231003 0.10869 -0.226456
-0.076228999 0.10876 -0.22644299
-0.076227002 0.108827 -0.22643299
-0.076223999 0.108899 -0.22643299
-0.076220997 0.108971 -0.226438
-0.076218002 0.109041 -0.22644
-0.076214999 0.109113 -0.22643401
-0.076214001 0.109181 -0.22641701
-0.076210998 0.109251 -0.22640499
-0.076208003 0.109323 -0.226409
-0.076205 0.109393 -0.226412
-0.076203004 0.109464 -0.226408
-0.076200001 0.109534 -0.226404
-0.076197997 0.109604 -0.226403
-0.076195002 0.109676 -0.22640499
-0.076191999 0.109748 -0.22640499
-0.076190002 0.109818 -0.226393
-0.076187 0.109888 -0.22639
-0.076183997 0.10996 -0.2264
-0.076181002 0.110032 -0.226402
-0.076177999 0.110102 -0.226393
-0.076176003 0.110172 -0.226391
-0.076173 0.110244 -0.226399
-0.076168999 0.110316 -0.22641
-0.076165996 0.11039 -0.22641601
-0.076163001 0.11046 -0.22641601
-0.076159999 0.110532 -0.22642399
-0.076155998 0.110607 -0.226441
-0.076153003 0.110679 -0.226449
-0.07615 0.110751 -0.226449
-0.076146998 0.110823 -0.226465
-0.076141998 0.1109 -0.226491
-0.076137997 0.110974 -0.226512
-0.076135002 0.111046 -0.226524
-0.076131999 0.11112 -0.22653601
-0.076127999 0.111193 -0.22655
-0.076123998 0.111269 -0.22657099
-0.076119997 0.111344 -0.22659101
-0.076116003 0.111418 -0.226613
-0.076112002 0.111495 -0.226641
-0.076108001 0.111569 -0.22666299
-0.076103002 0.111646 -0.22669899
-0.076096997 0.111727 -0.226753
-0.076091997 0.111806 -0.226799
-0.076087996 0.111882 -0.226824
-0.076084003 0.111957 -0.22684599
-0.076077998 0.112038 -0.2269
-0.076072998 0.112117 -0.22694799
-0.076067001 0.112198 -0.22700401
-0.076059997 0.112282 -0.227072
-0.076053999 0.112365 -0.227144
-0.076048002 0.112446 -0.22719599
-0.076040998 0.11253 -0.227266
-0.076030001 0.112629 -0.22741701
-0.077041 0.083595999 -0.228348
-0.077045999 0.083672002 -0.228174
-0.077046998 0.083746001 -0.22809801
-0.077046998 0.083819002 -0.228035
-0.077049002 0.083893999 -0.227933
-0.07705 0.083966002 -0.227851
-0.077049002 0.084039003 -0.227799
-0.077049002 0.084112003 -0.227744
-0.077048004 0.084184997 -0.2277
-0.077048004 0.084256001 -0.227658
-0.077046998 0.084329002 -0.22761901
-0.077045999 0.084399998 -0.227575
-0.077045001 0.084472999 -0.227543
-0.077042997 0.084545001 -0.227522
-0.077041 0.084615998 -0.22749799
-0.077040002 0.084688 -0.227466
-0.077037998 0.084758997 -0.22744299
-0.077036001 0.084830001 -0.227421
-0.077035002 0.084902003 -0.227395
-0.077032998 0.084972002 -0.227383
-0.077030003 0.085042998 -0.22737999
-0.077027 0.085112996 -0.227374
-0.077024996 0.085184999 -0.227364
-0.077023 0.085257001 -0.22734299
-0.077021003 0.085327998 -0.227323
-0.077018999 0.085398003 -0.22731701
-0.077017002 0.085469998 -0.22731
-0.077014998 0.085538998 -0.227294
-0.077013001 0.085611001 -0.227272
-0.077009998 0.085683003 -0.227263
-0.077008002 0.085753001 -0.227265
-0.077004999 0.085822999 -0.227265
-0.077001996 0.085894004 -0.227255
-0.077 0.085964002 -0.227246
-0.076998003 0.086035997 -0.22724
-0.076995 0.086106002 -0.22723401
-0.076993003 0.086177997 -0.227227
-0.076990001 0.086246997 -0.22722501
-0.076986998 0.086318001 -0.22723299
-0.076984003 0.086390004 -0.227238
-0.076981001 0.086460002 -0.22724
-0.076977998 0.08653 -0.227246
-0.076975003 0.086599998 -0.22725099
-0.076972 0.086672001 -0.227253
-0.076968998 0.086741999 -0.227249
-0.076967001 0.086811997 -0.22724999
-0.076963998 0.086882003 -0.22725201
-0.076961003 0.086953998 -0.227254
-0.076958001 0.087024003 -0.227254
-0.076955996 0.087095 -0.22724099
-0.076954 0.087164998 -0.227229
-0.076950997 0.087235004 -0.227231
-0.076948002 0.087306999 -0.227238
-0.076944999 0.087376997 -0.22724199
-0.076941997 0.087447003 -0.227244
-0.076939002 0.087518997 -0.227253
-0.076935001 0.087590002 -0.227263
-0.076931998 0.08766 -0.22727101
-0.076929003 0.087729998 -0.227281
-0.076926 0.087802 -0.227286
-0.076922998 0.087871999 -0.22729
-0.076920003 0.087941997 -0.22729599
-0.076917 0.088012002 -0.227309
-0.076912999 0.088082999 -0.227319
-0.076909997 0.088155001 -0.22732501
-0.076907001 0.088225 -0.227332
-0.076903999 0.088294998 -0.22733399
-0.076901004 0.088367 -0.227338
-0.076898001 0.088436998 -0.22734199
-0.076894999 0.088506997 -0.227345
-0.076892003 0.088577002 -0.22735301
-0.076889001 0.088648997 -0.227357
-0.076885998 0.088719003 -0.22736201
-0.076883003 0.088789001 -0.227366
-0.076880001 0.088861004 -0.227374
-0.076876998 0.088932 -0.227383
-0.076874003 0.089001998 -0.227385
-0.076871 0.089074001 -0.227387
-0.076867998 0.089143999 -0.22739901
-0.076865003 0.089213997 -0.227406
-0.076861002 0.089284003 -0.22742
-0.076857999 0.089355998 -0.22742601
-0.076854996 0.089426003 -0.227423
-0.076853 0.089496002 -0.227423
-0.076849997 0.089567997 -0.227423
-0.076847002 0.089638002 -0.22743
-0.076843999 0.089708 -0.227438
-0.076839998 0.089781001 -0.227452
-0.076837003 0.089850999 -0.227466
-0.076833002 0.089923002 -0.227477
-0.076830998 0.089993 -0.227477
-0.076828003 0.090062998 -0.22747099
-0.076825 0.090135001 -0.227476
-0.076821998 0.090204999 -0.22748201
-0.076819003 0.090274997 -0.227486
-0.076816 0.090346999 -0.22748899
-0.076814003 0.090416998 -0.227483
-0.076811001 0.090489 -0.227483
-0.076807998 0.090558998 -0.22749101
-0.076803997 0.090628996 -0.22750001
-0.076801002 0.090701997 -0.22750799
-0.076797999 0.090772003 -0.227512
-0.076794997 0.090842001 -0.227513
-0.076792002 0.090914004 -0.22751699
-0.076788999 0.090984002 -0.227521
-0.076787002 0.091054998 -0.22750799
-0.076784998 0.091124997 -0.227502
-0.076780997 0.091195002 -0.227514
-0.076778002 0.091266997 -0.22751801
-0.076774999 0.091338001 -0.227525
-0.076771997 0.091410004 -0.227531
-0.07677 0.091480002 -0.22752699
-0.076766998 0.091549002 -0.227516
-0.076765001 0.091620997 -0.227504
-0.076761998 0.091691002 -0.227504
-0.076759003 0.091762997 -0.227515
-0.076756001 0.091833003 -0.22752699
-0.076752998 0.091904998 -0.22752699
-0.076750003 0.091975003 -0.227522
-0.076747 0.092045002 -0.22752801
-0.076743998 0.092116997 -0.22753599
-0.076741003 0.092187002 -0.22753599
-0.076738 0.092260003 -0.227541
-0.076734997 0.092330001 -0.227543
-0.076733001 0.092400998 -0.22753701
-0.076729998 0.092471004 -0.227542
-0.076727003 0.092541002 -0.227542
-0.076724999 0.092612997 -0.227538
-0.076722004 0.092683002 -0.227539
-0.076719001 0.092754997 -0.227541
-0.076715998 0.092825003 -0.227549
-0.076713003 0.092895001 -0.22754499
-0.076710999 0.092967004 -0.227538
-0.076707996 0.093037002 -0.22754
-0.076705001 0.093108997 -0.22754399
-0.076701999 0.093179002 -0.227543
-0.076699004 0.093249001 -0.227539
-0.076696999 0.093321003 -0.227531
-0.076693997 0.093391001 -0.22752801
-0.076692 0.093463004 -0.22752599
-0.076688997 0.093533002 -0.22752801
-0.076686002 0.093603998 -0.22752
-0.076683998 0.093673997 -0.227513
-0.076681003 0.093744002 -0.227515
-0.076678 0.093815997 -0.227515
-0.076676004 0.093886003 -0.227512
-0.076673001 0.093957998 -0.227506
-0.076670997 0.094028004 -0.227502
-0.076668002 0.094099998 -0.22749899
-0.076664999 0.094169997 -0.227493
-0.076661997 0.094240002 -0.22749899
-0.076659001 0.094311997 -0.227506
-0.076656997 0.094382003 -0.227502
-0.076654002 0.094453 -0.227494
-0.076650999 0.094522998 -0.227496
-0.076647997 0.094595 -0.227501
-0.076645002 0.094665997 -0.227511
-0.076641999 0.094737999 -0.227523
-0.076638997 0.094807997 -0.22752599
-0.076636001 0.09488 -0.22752
-0.076633997 0.094949998 -0.227512
-0.076631002 0.095018998 -0.22750901
-0.076628 0.095091 -0.227507
-0.076626003 0.095160998 -0.227497
-0.076623999 0.095233001 -0.227487
-0.076621003 0.095302999 -0.22747999
-0.076618999 0.095372997 -0.227474
-0.076615997 0.095444001 -0.227468
-0.076614 0.095513999 -0.227465
-0.076610997 0.095586002 -0.227459
-0.076609001 0.095656 -0.227457
-0.076605998 0.095725998 -0.227456
-0.076603003 0.095798001 -0.227452
-0.076600999 0.095867999 -0.227448
-0.076598004 0.095940001 -0.227447
-0.076595999 0.096009001 -0.227441
-0.076592997 0.096078999 -0.22743499
-0.076590002 0.096151002 -0.22743399
-0.076587997 0.096221 -0.22743399
-0.076585002 0.096293002 -0.22743
-0.076582 0.096363001 -0.227424
-0.076580003 0.096432999 -0.227419
-0.076577 0.096505001 -0.227415
-0.076573998 0.096574999 -0.227421
-0.076571003 0.096647002 -0.22742601
-0.076568998 0.096717 -0.227422
-0.076566003 0.096787997 -0.22741
-0.076563999 0.096858002 -0.227403
-0.076562002 0.096928 -0.227395
-0.076559 0.097000003 -0.22738899
-0.076555997 0.097070001 -0.22739001
-0.076553002 0.097142003 -0.227396
-0.076549999 0.097212002 -0.227396
-0.076548003 0.097282 -0.22739001
-0.076545 0.097352996 -0.22738101
-0.076543003 0.097423002 -0.227369
-0.076540999 0.097493 -0.227359
-0.076537997 0.097565003 -0.227356
-0.076536 0.097635001 -0.22734401
-0.076534003 0.097704001 -0.22734
-0.076530002 0.097777002 -0.22735301
-0.076526999 0.097848997 -0.22736099
-0.076525003 0.097919002 -0.22735301
-0.076522 0.097988002 -0.227348
-0.076518998 0.098059997 -0.227346
-0.076517001 0.098130003 -0.22734401
-0.076513998 0.098201998 -0.22734199
-0.076512001 0.098272003 -0.22733299
-0.076509997 0.098342001 -0.22731499
-0.076507002 0.098412998 -0.227309
-0.076504 0.098484002 -0.22731601
-0.076500997 0.098554 -0.227318
-0.076499 0.098624997 -0.22731
-0.076497003 0.098695002 -0.227299
-0.076494001 0.098765001 -0.22728699
-0.076491997 0.098837003 -0.227281
-0.076489002 0.098906003 -0.22728001
-0.076486997 0.098976001 -0.22727001
-0.076484002 0.099048004 -0.227268
-0.076481 0.099119999 -0.227277
-0.076477997 0.099189997 -0.22727901
-0.076475002 0.099260002 -0.227277
-0.076472998 0.099331997 -0.22726899
-0.076471001 0.099402003 -0.22726201
-0.076467 0.099473998 -0.227272
-0.076463997 0.099544004 -0.22727799
-0.076461002 0.099615999 -0.227277
-0.076458998 0.099685997 -0.227267
-0.076457001 0.099756002 -0.227255
-0.076453999 0.099826999 -0.22725201
-0.076451004 0.099896997 -0.227256
-0.076448001 0.099969998 -0.22725999
-0.076445997 0.100039 -0.227257
-0.076444 0.100109 -0.227239
-0.076442003 0.100179 -0.227227
-0.076438002 0.100251 -0.22723299
-0.076435998 0.100321 -0.227238
-0.076433003 0.100393 -0.22723199
-0.076430999 0.100462 -0.227218
-0.076428004 0.100534 -0.227221
-0.076425001 0.100604 -0.22722299
-0.076422997 0.100674 -0.227211
-0.076420002 0.100746 -0.22720601
-0.076417997 0.100816 -0.22720601
-0.076415002 0.100888 -0.22720399
-0.076412 0.100958 -0.227199
-0.076410003 0.101027 -0.227189
-0.076407999 0.101097 -0.227175
-0.076406002 0.101167 -0.227166
-0.076402999 0.101239 -0.22717001
-0.076399997 0.101311 -0.227166
-0.076397002 0.101381 -0.22716799
-0.076393999 0.101453 -0.22717699
-0.076390997 0.101523 -0.22716901
-0.076389 0.101592 -0.227153
-0.076387003 0.101662 -0.22714999
-0.076384 0.101734 -0.227154
-0.076380998 0.101806 -0.227148
-0.076379001 0.101874 -0.22713301
-0.076376997 0.101946 -0.22713099
-0.076373003 0.102018 -0.227143
-0.076370001 0.102088 -0.227152
-0.076367997 0.10216 -0.227146
-0.076365001 0.10223 -0.227136
-0.076362997 0.102302 -0.227128
-0.076360002 0.102372 -0.22713301
-0.076357 0.102441 -0.22713099
-0.076353997 0.102513 -0.227127
-0.076352 0.102583 -0.227126
-0.076348998 0.102655 -0.227118
-0.076347001 0.102725 -0.22711
-0.076344997 0.102795 -0.22710299
-0.076342002 0.102865 -0.227097
-0.076338999 0.102936 -0.22709499
-0.076337002 0.103006 -0.22707801
-0.076334998 0.103076 -0.22706801
-0.076332003 0.103148 -0.227082
-0.076328002 0.10322 -0.22709399
-0.076325998 0.10329 -0.227089
-0.076324001 0.10336 -0.22707701
-0.076320998 0.103432 -0.227073
-0.076318003 0.103502 -0.22707
-0.076315999 0.103571 -0.227062
-0.076314002 0.103641 -0.227044
-0.076312996 0.10371 -0.227019
-0.076310001 0.10378 -0.227005
-0.076307997 0.10385 -0.227005
-0.076305002 0.103922 -0.22701199
-0.076301001 0.103994 -0.22702
-0.076297998 0.104066 -0.22702
-0.076296002 0.104136 -0.22701301
-0.076293997 0.104206 -0.227005
-0.076291002 0.104276 -0.227001
-0.076288 0.104348 -0.226999
-0.076286003 0.104417 -0.22699399
-0.076283999 0.104487 -0.22698601
-0.076281004 0.104557 -0.226974
-0.076278999 0.104629 -0.226965
-0.076277003 0.104699 -0.226959
-0.076274 0.104768 -0.226953
-0.076272003 0.104838 -0.226946
-0.076269001 0.104908 -0.22693799
-0.076266997 0.10498 -0.226936
-0.076264001 0.10505 -0.226935
-0.076260999 0.105122 -0.226927
-0.076259002 0.105191 -0.226917
-0.076256998 0.105261 -0.226906
-0.076255001 0.105331 -0.226898
-0.076251999 0.105401 -0.22689
-0.076250002 0.105471 -0.22688299
-0.076247998 0.10554 -0.226871
-0.076245002 0.105612 -0.226863
-0.076242998 0.105682 -0.226858
-0.076240003 0.105752 -0.22685
-0.076237999 0.105822 -0.22684599
-0.076234996 0.105891 -0.226845
-0.076233 0.105963 -0.226833
-0.076231003 0.106031 -0.226815
-0.076228999 0.1061 -0.22680201
-0.076227002 0.10617 -0.22679199
-0.076223999 0.10624 -0.226786
-0.076222003 0.10631 -0.22677299
-0.076219998 0.106379 -0.226759
-0.076218002 0.106449 -0.22674701
-0.076214999 0.106519 -0.22673801
-0.076213002 0.106589 -0.226726
-0.076210998 0.106658 -0.226714
-0.076209001 0.106728 -0.226703
-0.076206997 0.106798 -0.226689
-0.076204002 0.106867 -0.22668099
-0.076201998 0.106937 -0.226676
-0.076200001 0.107007 -0.22666
-0.076197997 0.107074 -0.22663601
-0.076196 0.107144 -0.226623
-0.076194003 0.107214 -0.22661901
-0.076191001 0.107286 -0.226621
-0.076187998 0.107358 -0.22662
-0.076186001 0.107426 -0.22661
-0.076183997 0.107495 -0.22658999
-0.076182 0.107565 -0.226579
-0.076178998 0.107635 -0.22657301
-0.076177001 0.107704 -0.226565
-0.076174997 0.107774 -0.226548
-0.076173 0.107842 -0.226532
-0.076169997 0.107914 -0.22653
-0.076168001 0.107984 -0.226531
-0.076164998 0.108053 -0.226523
-0.076163001 0.108123 -0.22650699
-0.076160997 0.108193 -0.226494
-0.076159 0.108262 -0.22649001
-0.076155998 0.108335 -0.226494
-0.076153003 0.108404 -0.226491
-0.076150998 0.108474 -0.226477
-0.076149002 0.108544 -0.226469
-0.076145999 0.108614 -0.226466
-0.076144002 0.108684 -0.226458
-0.076141 0.108753 -0.226448
-0.076140001 0.108821 -0.226429
-0.076136999 0.108891 -0.22641701
-0.076134004 0.108963 -0.226419
-0.076131001 0.109035 -0.22642399
-0.076128997 0.109104 -0.226418
-0.076127 0.109174 -0.226408
-0.076123998 0.109244 -0.22640701
-0.076121002 0.109316 -0.226409
-0.076118 0.109386 -0.22640499
-0.076116003 0.109458 -0.226402
-0.076113001 0.109528 -0.226404
-0.076109998 0.1096 -0.226408
-0.076107003 0.109672 -0.22640599
-0.076104999 0.10974 -0.226395
-0.076102003 0.109812 -0.226391
-0.076099999 0.109881 -0.22638901
-0.076096997 0.109953 -0.226392
-0.076094002 0.110026 -0.22639801
-0.076090999 0.110095 -0.226392
-0.076087996 0.110165 -0.226391
-0.076085001 0.11024 -0.226401
-0.076081999 0.11031 -0.22640701
-0.076079004 0.110382 -0.226411
-0.076076001 0.110454 -0.226418
-0.076072 0.110528 -0.226428
-0.076068997 0.1106 -0.22643401
-0.076066002 0.110672 -0.22644
-0.076063 0.110744 -0.22645301
-0.076058999 0.110819 -0.22647101
-0.076054998 0.110893 -0.226487
-0.076052003 0.110965 -0.22649901
-0.076048002 0.11104 -0.226514
-0.076044001 0.111114 -0.22653399
-0.07604 0.111189 -0.226556
-0.076036997 0.111263 -0.22657
-0.076033004 0.111337 -0.226586
-0.076027997 0.111414 -0.22662801
-0.076024003 0.111491 -0.22665299
-0.076020002 0.111563 -0.22666501
-0.076016001 0.111639 -0.22669099
-0.076011002 0.111716 -0.226725
-0.076006003 0.111795 -0.226767
-0.076001003 0.111874 -0.226813
-0.075995997 0.111953 -0.22685701
-0.075990997 0.112032 -0.22690099
-0.075985998 0.112109 -0.22693799
-0.075980999 0.112187 -0.226982
-0.075974002 0.112273 -0.227062
-0.075966999 0.112357 -0.227127
-0.075961001 0.112438 -0.227185
-0.075953998 0.112524 -0.227265
-0.075942002 0.112625 -0.227433
-0.076949 0.083586 -0.228357
-0.076954 0.083663002 -0.228201
-0.076957002 0.083740003 -0.22806901
-0.076957002 0.083812997 -0.22801299
-0.076958001 0.083887003 -0.227926
-0.076959997 0.083959997 -0.227818
-0.076958999 0.084032997 -0.227778
-0.076958001 0.084105 -0.227743
-0.076957002 0.084177002 -0.227697
-0.076957002 0.084250003 -0.227651
-0.076954998 0.084321998 -0.22762001
-0.076954 0.084393002 -0.227586
-0.076953001 0.084463999 -0.227552
-0.076952003 0.084535003 -0.227525
-0.076949999 0.084609002 -0.227501
-0.076948002 0.084678002 -0.227479
-0.076945998 0.084749997 -0.22745501
-0.076944999 0.084821001 -0.22743601
-0.076943003 0.084893003 -0.22741599
-0.076940998 0.084964 -0.22738799
-0.076939002 0.085036002 -0.227373
-0.076936997 0.085106 -0.227369
-0.076934002 0.085178003 -0.22736301
-0.076931998 0.085247003 -0.22735
-0.076929003 0.085318998 -0.22734401
-0.076926999 0.085391 -0.227336
-0.076925002 0.08546 -0.22731701
-0.076922998 0.085532002 -0.227299
-0.076921001 0.085603997 -0.22728699
-0.076918997 0.085675001 -0.227273
-0.076916002 0.085744999 -0.227266
-0.076913998 0.085814998 -0.22725201
-0.076912001 0.085886002 -0.227236
-0.076908998 0.085956 -0.227239
-0.076906003 0.086029001 -0.22724301
-0.076903999 0.086098 -0.227235
-0.076902002 0.086170003 -0.22722
-0.076899 0.086241998 -0.22721399
-0.076897003 0.086312003 -0.227212
-0.076894 0.086382002 -0.22720701
-0.076890998 0.086452 -0.227213
-0.076886997 0.086521998 -0.227229
-0.076884001 0.086594 -0.22724099
-0.076880999 0.086663999 -0.22724199
-0.076879002 0.086733997 -0.227238
-0.076876 0.086804003 -0.22724
-0.076872997 0.086875997 -0.227247
-0.076870002 0.086946003 -0.227239
-0.076867998 0.087016001 -0.227239
-0.076863997 0.087087996 -0.22724999
-0.076862 0.087158002 -0.22724199
-0.076860003 0.087228 -0.22723199
-0.076857001 0.087300003 -0.227237
-0.076853 0.087370001 -0.22725099
-0.076849997 0.087439999 -0.227255
-0.076847002 0.087509997 -0.227253
-0.076843999 0.087582 -0.22725999
-0.076840997 0.087651998 -0.227264
-0.076838002 0.087722003 -0.22727001
-0.076834999 0.087793998 -0.22727901
-0.076831996 0.087865002 -0.22728901
-0.076829001 0.087935001 -0.227299
-0.076825 0.088004999 -0.22730599
-0.076823004 0.088074997 -0.22730599
-0.076820001 0.088146999 -0.227302
-0.076816998 0.088216998 -0.227304
-0.076814003 0.088287003 -0.22731499
-0.076811001 0.088358998 -0.22732501
-0.076807998 0.088428997 -0.227327
-0.076805003 0.088499002 -0.227332
-0.076801002 0.088569999 -0.227346
-0.076797999 0.088642001 -0.227354
-0.076794997 0.088711999 -0.22736099
-0.076792002 0.088781998 -0.22737101
-0.076788001 0.088854 -0.22738101
-0.076784998 0.088923998 -0.22738899
-0.076782003 0.088995002 -0.22739799
-0.076779 0.089065999 -0.22739799
-0.076777004 0.089135997 -0.227394
-0.076774001 0.089206003 -0.227401
-0.07677 0.089276999 -0.227411
-0.076766998 0.089349002 -0.227421
-0.076764002 0.089419 -0.22743399
-0.076760001 0.089488998 -0.22744399
-0.076757997 0.089561 -0.227442
-0.076755002 0.089630999 -0.22743399
-0.076752998 0.089700997 -0.22742701
-0.076750003 0.089772999 -0.227431
-0.076746002 0.089842997 -0.227451
-0.076742001 0.089915998 -0.22747
-0.076739997 0.089985996 -0.227474
-0.076737002 0.090056002 -0.227474
-0.076733999 0.090127997 -0.227479
-0.076730996 0.090198003 -0.227485
-0.076728001 0.090268001 -0.22749101
-0.076724 0.090340003 -0.227497
-0.076720998 0.090410002 -0.227502
-0.076719001 0.09048 -0.227492
-0.076715998 0.090552002 -0.22748999
-0.076713003 0.090622 -0.227507
-0.076710001 0.090691999 -0.227513
-0.076706998 0.090764001 -0.22750901
-0.076705001 0.090833999 -0.227506
-0.076701999 0.090906002 -0.227506
-0.076699004 0.090976 -0.227512
-0.076696001 0.091048002 -0.227514
-0.076692998 0.091118 -0.227513
-0.076690003 0.091187999 -0.22751699
-0.076687001 0.091260001 -0.22752699
-0.076683998 0.091329999 -0.227532
-0.076681003 0.091402002 -0.227538
-0.076678 0.091472 -0.227538
-0.076676004 0.091541998 -0.227529
-0.076673001 0.091614 -0.227525
-0.076669998 0.091683999 -0.227531
-0.076667003 0.091756001 -0.227539
-0.076664001 0.091825999 -0.22754399
-0.076660998 0.091898002 -0.227532
-0.076659001 0.091968 -0.22751801
-0.076656997 0.092037998 -0.22751901
-0.076653004 0.092110001 -0.227533
-0.076650001 0.092179999 -0.227541
-0.076646999 0.092252001 -0.227538
-0.076645002 0.092321999 -0.22753
-0.076641999 0.092394002 -0.22752801
-0.076638997 0.092464 -0.22753499
-0.076636001 0.092533998 -0.227539
-0.076632999 0.092606001 -0.227539
-0.076631002 0.092675999 -0.22753701
-0.076628 0.092748001 -0.22754
-0.076624997 0.092817999 -0.22754
-0.076623 0.092887998 -0.22753
-0.076621003 0.092959002 -0.227515
-0.076618001 0.093029 -0.22751699
-0.076614 0.093101002 -0.22752699
-0.076612003 0.093171 -0.227524
-0.076609001 0.093240999 -0.22751801
-0.076606996 0.093313001 -0.22751001
-0.076604001 0.093382999 -0.227505
-0.076600999 0.093455002 -0.227515
-0.076598004 0.093525 -0.22751901
-0.076595999 0.093597002 -0.227511
-0.076592997 0.093667001 -0.227512
-0.076590002 0.093739003 -0.22751801
-0.076586999 0.093809001 -0.227514
-0.076585002 0.093878999 -0.227507
-0.076582 0.093950003 -0.227505
-0.076580003 0.094020002 -0.22749899
-0.076576002 0.094093002 -0.227511
-0.076572001 0.094163001 -0.22753
-0.076569997 0.094235003 -0.227522
-0.076568 0.094304003 -0.22751001
-0.076566003 0.094374001 -0.227501
-0.076563001 0.094446003 -0.227505
-0.076559 0.094517998 -0.22750901
-0.076557003 0.094587997 -0.227504
-0.076554 0.094658002 -0.22750001
-0.076552004 0.094729997 -0.22750001
-0.076549001 0.094800003 -0.227503
-0.076545998 0.094871998 -0.227507
-0.076543003 0.094942003 -0.227507
-0.076540999 0.095012002 -0.22749899
-0.076537997 0.095083997 -0.22748999
-0.076535001 0.095154002 -0.227488
-0.076532997 0.095224999 -0.227486
-0.076530002 0.095294997 -0.227477
-0.076527998 0.095365003 -0.22746301
-0.076526001 0.095436998 -0.227449
-0.076523997 0.095505998 -0.22743399
-0.076522 0.095576003 -0.22742601
-0.076518998 0.095647998 -0.227428
-0.076516002 0.095717996 -0.22743499
-0.076513 0.095789999 -0.227441
-0.076508999 0.095859997 -0.227451
-0.076505996 0.095932998 -0.22746301
-0.076504 0.096001998 -0.227456
-0.076502003 0.096072003 -0.227438
-0.076499 0.096143998 -0.22743399
-0.076495998 0.096213996 -0.227437
-0.076494001 0.096285999 -0.227431
-0.076491997 0.096354999 -0.22741701
-0.076489002 0.096424997 -0.227406
-0.076486997 0.096496999 -0.22739799
-0.076484002 0.096566997 -0.227394
-0.076481 0.096639 -0.22739699
-0.076477997 0.096708998 -0.227403
-0.076475002 0.096781 -0.227405
-0.076472998 0.096850999 -0.227405
-0.076470003 0.096923001 -0.22740801
-0.076467 0.096992999 -0.227404
-0.076465003 0.097062998 -0.22739799
-0.076462001 0.097134002 -0.227391
-0.076459996 0.097204 -0.227387
-0.076457001 0.097273998 -0.227377
-0.076454997 0.097346 -0.227364
-0.076453 0.097415999 -0.22736
-0.076449998 0.097485997 -0.227358
-0.076447003 0.097557001 -0.227357
-0.076444 0.097626999 -0.22736099
-0.076440997 0.097699001 -0.22736099
-0.076439001 0.097769 -0.22736201
-0.076435998 0.097841002 -0.227358
-0.076434001 0.097911 -0.227348
-0.076430999 0.097980998 -0.227348
-0.076428004 0.098053001 -0.227359
-0.076425001 0.098125003 -0.22736301
-0.076421998 0.098195001 -0.22735301
-0.076420002 0.098265 -0.22734
-0.076417997 0.098337002 -0.227332
-0.076415002 0.098406002 -0.227328
-0.076412998 0.098476 -0.227321
-0.076410003 0.098548003 -0.22731701
-0.076407999 0.098618001 -0.227309
-0.076405004 0.098687999 -0.227312
-0.076402001 0.098760001 -0.227312
-0.076399997 0.09883 -0.227302
-0.076397002 0.098901004 -0.22729801
-0.076393999 0.098972 -0.227301
-0.076390997 0.099042997 -0.227299
-0.076389 0.099113002 -0.227283
-0.076387003 0.099183001 -0.227272
-0.076384999 0.099252999 -0.22727001
-0.076382004 0.099325001 -0.227268
-0.076379001 0.099394999 -0.22726899
-0.076375999 0.099467002 -0.22726899
-0.076373003 0.099537 -0.22726899
-0.076370999 0.099607997 -0.227266
-0.076367997 0.099678002 -0.227258
-0.076366 0.099748001 -0.227256
-0.076362997 0.099820003 -0.227256
-0.076360002 0.099890001 -0.227255
-0.076357998 0.099962004 -0.22725099
-0.076355003 0.100032 -0.227249
-0.076352999 0.100102 -0.227236
-0.076350003 0.100173 -0.227228
-0.076347001 0.100244 -0.227238
-0.076343998 0.100316 -0.22724099
-0.076342002 0.100385 -0.227235
-0.076338999 0.100455 -0.22722501
-0.076337002 0.100527 -0.22721601
-0.076334998 0.100597 -0.22721
-0.076332003 0.100667 -0.227202
-0.076329 0.100739 -0.227208
-0.076325998 0.100809 -0.227213
-0.076324001 0.10088 -0.227199
-0.076320998 0.10095 -0.227193
-0.076318003 0.101022 -0.2272
-0.076315999 0.101092 -0.2272
-0.076312996 0.101162 -0.227192
-0.076310001 0.101234 -0.227191
-0.076307997 0.101304 -0.227189
-0.076305002 0.101376 -0.22718699
-0.076301999 0.101448 -0.227192
-0.076298997 0.101518 -0.22718801
-0.076297 0.101588 -0.22718
-0.076295003 0.101657 -0.227171
-0.076292001 0.101729 -0.227165
-0.076288998 0.101799 -0.227165
-0.076287001 0.101871 -0.227163
-0.076283999 0.101941 -0.227162
-0.076281004 0.102011 -0.227156
-0.076278999 0.102083 -0.22714999
-0.076275997 0.102153 -0.22715101
-0.076273002 0.102225 -0.227153
-0.076269999 0.102297 -0.22715101
-0.076268002 0.102366 -0.227146
-0.076265 0.102436 -0.22713999
-0.076263003 0.102506 -0.22713199
-0.076260999 0.102576 -0.227125
-0.076258004 0.102648 -0.22712301
-0.076255001 0.102718 -0.227121
-0.076252997 0.10279 -0.22711299
-0.076251 0.102859 -0.227102
-0.076249003 0.102929 -0.227084
-0.076246999 0.102998 -0.22707
-0.076243997 0.103068 -0.227073
-0.076241001 0.103141 -0.22707701
-0.076237999 0.10321 -0.227075
-0.076234996 0.103283 -0.22708
-0.076232001 0.103355 -0.227082
-0.076228999 0.103424 -0.22708
-0.076227002 0.103494 -0.22707701
-0.076224998 0.103566 -0.22706699
-0.076222003 0.103636 -0.227057
-0.076219998 0.103706 -0.227046
-0.076218002 0.103775 -0.227028
-0.076215997 0.103845 -0.227018
-0.076213002 0.103917 -0.22702201
-0.07621 0.103987 -0.22702099
-0.076206997 0.104059 -0.227019
-0.076205 0.104129 -0.227017
-0.076201998 0.104199 -0.22701401
-0.076200001 0.10427 -0.227008
-0.076196998 0.10434 -0.226996
-0.076195002 0.10441 -0.226983
-0.076192997 0.10448 -0.226979
-0.076190002 0.104552 -0.226979
-0.076187 0.104622 -0.226978
-0.076185003 0.104691 -0.22697
-0.076182999 0.104761 -0.226954
-0.076181002 0.104831 -0.226943
-0.076177999 0.104903 -0.226941
-0.076174997 0.104973 -0.22693899
-0.076173 0.105042 -0.226932
-0.076169997 0.105114 -0.226926
-0.076168001 0.105184 -0.226918
-0.076165996 0.105254 -0.226907
-0.076163001 0.105324 -0.226899
-0.076160997 0.105396 -0.226899
-0.076158002 0.105466 -0.22690199
-0.076155998 0.105535 -0.226888
-0.076153003 0.105605 -0.22687399
-0.076150998 0.105677 -0.22687
-0.076148003 0.105747 -0.226863
-0.076145999 0.105816 -0.226851
-0.076144002 0.105886 -0.226845
-0.076141 0.105956 -0.226844
-0.076139003 0.106026 -0.226834
-0.076136999 0.106095 -0.226818
-0.076135002 0.106165 -0.226809
-0.076131999 0.106235 -0.226795
-0.076131001 0.106304 -0.226778
-0.076128997 0.106374 -0.226762
-0.076126002 0.106444 -0.22675399
-0.076123998 0.106514 -0.22674499
-0.076122001 0.106581 -0.22672699
-0.076119997 0.106653 -0.226717
-0.076117001 0.106723 -0.22671799
-0.076113999 0.106793 -0.226714
-0.076113001 0.106862 -0.226694
-0.076110996 0.106932 -0.226677
-0.076108001 0.107002 -0.226671
-0.076105997 0.107071 -0.22666299
-0.076104 0.107141 -0.226648
-0.076102003 0.107209 -0.226632
-0.076099999 0.107278 -0.22661801
-0.076098002 0.107348 -0.22660901
-0.076095 0.107418 -0.226605
-0.076093003 0.107488 -0.226593
-0.076090001 0.107557 -0.226584
-0.076087996 0.107629 -0.22657999
-0.076085001 0.107699 -0.22657201
-0.076082997 0.107769 -0.22656301
-0.076081 0.107837 -0.226551
-0.076079004 0.107906 -0.22653501
-0.076076999 0.107976 -0.22652
-0.076073997 0.108046 -0.22651599
-0.076072 0.108118 -0.226514
-0.076068997 0.108188 -0.226515
-0.076066002 0.108257 -0.226509
-0.076064996 0.108327 -0.22648899
-0.076062001 0.108397 -0.22648001
-0.076059997 0.108467 -0.226476
-0.076057002 0.108536 -0.22646999
-0.076054998 0.108606 -0.226465
-0.076053001 0.108676 -0.22645301
-0.076049998 0.108746 -0.22644299
-0.076047003 0.108818 -0.226446
-0.076044999 0.108888 -0.226448
-0.076041996 0.10896 -0.22644401
-0.07604 0.109027 -0.22643299
-0.076038003 0.109097 -0.22641701
-0.076035 0.109167 -0.226409
-0.076033004 0.109237 -0.226408
-0.076030001 0.109309 -0.22640599
-0.076026998 0.109379 -0.226404
-0.076025002 0.109451 -0.2264
-0.076021999 0.10952 -0.22639699
-0.076020002 0.10959 -0.226391
-0.076017 0.109662 -0.226385
-0.076015003 0.109732 -0.226382
-0.076011002 0.109804 -0.226394
-0.076007999 0.109876 -0.22639599
-0.076006003 0.109944 -0.226377
-0.076003999 0.110013 -0.226363
-0.076001003 0.110086 -0.22636899
-0.075998001 0.110158 -0.22638001
-0.075994 0.110232 -0.22639599
-0.075990997 0.110304 -0.22641
-0.075988002 0.110376 -0.22641601
-0.075984001 0.110449 -0.226427
-0.075980999 0.110521 -0.226429
-0.075979002 0.11059 -0.22641701
-0.075975999 0.11066 -0.22641701
-0.075972997 0.110735 -0.22643401
-0.075967997 0.110809 -0.226458
-0.075963996 0.110886 -0.226482
-0.075961001 0.11096 -0.2265
-0.075957 0.111032 -0.22651
-0.075953998 0.111104 -0.226519
-0.075949997 0.111179 -0.226539
-0.075946003 0.111253 -0.226559
-0.075943001 0.111327 -0.226575
-0.075939 0.111402 -0.226596
-0.075934 0.111478 -0.22662
-0.075929999 0.111553 -0.226648
-0.075925998 0.11163 -0.22668
-0.075920999 0.111706 -0.226706
-0.075916998 0.111783 -0.22674
-0.075911 0.111864 -0.22679
-0.075906001 0.111943 -0.226836
-0.075901002 0.112022 -0.226882
-0.075894997 0.112103 -0.226934
-0.075889997 0.11218 -0.22697701
-0.075883999 0.112263 -0.22703999
-0.075877003 0.112347 -0.22711401
-0.075870998 0.11243 -0.22717001
-0.075865 0.112511 -0.22723199
-0.075856 0.112602 -0.22734199
-0.076856002 0.083584003 -0.22833399
-0.076860003 0.083659001 -0.22818699
-0.076861002 0.083733 -0.228117
-0.076862 0.083806999 -0.22803301
-0.076862998 0.083880998 -0.227942
-0.076865003 0.083954997 -0.22783799
-0.076866001 0.084028997 -0.22776
-0.076865003 0.084101997 -0.227725
-0.076863997 0.084174 -0.22769099
-0.076862998 0.084244996 -0.227653
-0.076862 0.084317997 -0.22760899
-0.076861002 0.084389001 -0.22757199
-0.076858997 0.084459998 -0.22754399
-0.076857999 0.084531002 -0.227514
-0.076857001 0.084605001 -0.227479
-0.076856002 0.084675997 -0.227449
-0.076853998 0.084747002 -0.227429
-0.076851003 0.084818996 -0.22742
-0.076848999 0.084889002 -0.227402
-0.076848 0.084959999 -0.227382
-0.076844998 0.085032001 -0.22737899
-0.076842003 0.085101999 -0.22737101
-0.076840997 0.085173003 -0.227349
-0.076839 0.085244998 -0.227327
-0.076837003 0.085317001 -0.227312
-0.076834999 0.085386001 -0.227302
-0.076831996 0.085458003 -0.227294
-0.07683 0.085528001 -0.227285
-0.076828003 0.085598998 -0.22726899
-0.076825 0.085671 -0.227257
-0.076823004 0.085740998 -0.22724199
-0.076820999 0.085812002 -0.227228
-0.076819003 0.085882001 -0.227222
-0.076816 0.085954003 -0.227221
-0.076812997 0.086024001 -0.22722299
-0.076810002 0.086093999 -0.227227
-0.076807 0.086166002 -0.22723
-0.076805003 0.086236 -0.227228
-0.076802 0.086305998 -0.227218
-0.076800004 0.086378001 -0.22721399
-0.076797001 0.086447999 -0.22721501
-0.076793998 0.086517997 -0.227217
-0.076791003 0.086589999 -0.22721501
-0.076788001 0.086659998 -0.22722
-0.076784998 0.086730003 -0.22723
-0.076782003 0.086801998 -0.227226
-0.076779999 0.086871997 -0.227221
-0.076777004 0.086942002 -0.227219
-0.076774999 0.087013997 -0.22721501
-0.076771997 0.087084003 -0.22722
-0.076768003 0.087154001 -0.22723199
-0.076765001 0.087223999 -0.227236
-0.076762997 0.087296002 -0.22723
-0.076760001 0.087366 -0.227231
-0.076756999 0.087435998 -0.227247
-0.076752998 0.087506004 -0.227259
-0.076750003 0.087576002 -0.22725999
-0.076747999 0.087647997 -0.22725999
-0.076743998 0.087718002 -0.227266
-0.076742001 0.087789997 -0.227267
-0.076738998 0.087860003 -0.22726899
-0.076736003 0.087931 -0.227277
-0.076732002 0.088000998 -0.22728799
-0.076729 0.088071004 -0.22729599
-0.076725997 0.088142999 -0.227294
-0.076724 0.088212997 -0.22729
-0.076720998 0.088283002 -0.227295
-0.076718003 0.088354997 -0.227303
-0.076714002 0.088425003 -0.227321
-0.076710999 0.088495001 -0.227332
-0.076707996 0.088565998 -0.227338
-0.076705001 0.088638 -0.22734401
-0.076701999 0.088707998 -0.227347
-0.076699004 0.088777997 -0.227355
-0.076695003 0.088849999 -0.22736099
-0.076692998 0.088919997 -0.22736301
-0.076690003 0.088990003 -0.227364
-0.076687001 0.089061998 -0.227364
-0.076683998 0.089132003 -0.22737201
-0.076681003 0.089202002 -0.227383
-0.076677002 0.089273997 -0.22738899
-0.076673999 0.089344002 -0.227395
-0.076670997 0.089414999 -0.22740801
-0.076668002 0.089484997 -0.22741599
-0.076664999 0.089557 -0.22741801
-0.076661997 0.089626998 -0.22742601
-0.076659001 0.089697003 -0.22743499
-0.076655999 0.089768998 -0.227431
-0.076654002 0.089838997 -0.227423
-0.076650001 0.089910999 -0.227432
-0.076646999 0.089980997 -0.227442
-0.076644003 0.090051003 -0.227448
-0.076641001 0.090122998 -0.22745401
-0.076637998 0.090193003 -0.227461
-0.076635003 0.090263002 -0.227459
-0.076632001 0.090334997 -0.227457
-0.076628998 0.090405002 -0.22746401
-0.076626003 0.090478003 -0.22747201
-0.076623 0.090548001 -0.227476
-0.076619998 0.090617999 -0.227485
-0.076617002 0.090690002 -0.22749101
-0.076614998 0.09076 -0.227479
-0.076612003 0.090829 -0.227474
-0.076609001 0.090902001 -0.22748999
-0.076605 0.090971999 -0.22751001
-0.076601997 0.091041997 -0.227516
-0.076599002 0.091113999 -0.22751699
-0.076595999 0.091183998 -0.227513
-0.076592997 0.091256 -0.227515
-0.076591 0.091325998 -0.227514
-0.076587997 0.091398001 -0.22751001
-0.076585002 0.091467999 -0.22750799
-0.076582998 0.091537997 -0.227511
-0.076578997 0.09161 -0.22751901
-0.076576002 0.091679998 -0.227521
-0.076573998 0.091752 -0.227513
-0.076572001 0.091821998 -0.22750799
-0.076568998 0.091894001 -0.22751001
-0.076564997 0.091963999 -0.227516
-0.076563001 0.092033997 -0.22751901
-0.076559998 0.092106 -0.22751699
-0.076557003 0.092175998 -0.227523
-0.076554 0.092248 -0.227529
-0.076550998 0.092317998 -0.227534
-0.076548003 0.092390001 -0.227538
-0.076545 0.092459999 -0.227534
-0.076543003 0.092529997 -0.22751699
-0.076540999 0.092601001 -0.227507
-0.076537997 0.092670999 -0.227515
-0.076534003 0.092744 -0.227524
-0.076531999 0.092813998 -0.227524
-0.076529004 0.092883997 -0.227524
-0.076526001 0.092955001 -0.227521
-0.076523997 0.093024999 -0.22751901
-0.076521002 0.093097001 -0.22751699
-0.076517999 0.093167 -0.22751901
-0.076514997 0.093236998 -0.227522
-0.076513 0.093309 -0.227516
-0.076509997 0.093378998 -0.227514
-0.076507002 0.093451001 -0.22751901
-0.076504 0.093520999 -0.227511
-0.076503001 0.093590997 -0.227493
-0.076499999 0.093662001 -0.227484
-0.076497003 0.093731999 -0.227486
-0.076494001 0.093804002 -0.227494
-0.076490998 0.093874 -0.227495
-0.076489002 0.093946002 -0.227493
-0.076485001 0.094016999 -0.227501
-0.076481998 0.094089001 -0.227511
-0.076479003 0.094159 -0.22751001
-0.076476999 0.094230004 -0.227494
-0.076475002 0.094300002 -0.227476
-0.076472998 0.09437 -0.227475
-0.076468997 0.094442002 -0.227487
-0.076466002 0.094513997 -0.227503
-0.076462001 0.094585001 -0.227514
-0.076459996 0.094654001 -0.227504
-0.076458 0.094726004 -0.227492
-0.076454997 0.094796002 -0.227494
-0.076452002 0.094867997 -0.227503
-0.076448999 0.094938003 -0.227507
-0.076445997 0.095008001 -0.22750901
-0.076443002 0.095080003 -0.227504
-0.076440997 0.095150001 -0.227488
-0.076439001 0.095220998 -0.22747
-0.076436996 0.095291004 -0.22746301
-0.076434001 0.095361002 -0.227461
-0.076430999 0.095432997 -0.22746301
-0.076429002 0.095503002 -0.227468
-0.076425999 0.095574997 -0.22746401
-0.076422997 0.095645003 -0.227456
-0.076421 0.095715001 -0.227452
-0.076417997 0.095785998 -0.227447
-0.076416001 0.095856003 -0.227439
-0.076412998 0.095927998 -0.227437
-0.076411001 0.095997997 -0.22743601
-0.076407999 0.096068002 -0.22742601
-0.076405004 0.096139997 -0.22742601
-0.076402001 0.096210003 -0.227433
-0.076398998 0.096281998 -0.22744299
-0.076396003 0.096354 -0.227449
-0.076393999 0.096423998 -0.227437
-0.076392002 0.096492998 -0.227414
-0.076389998 0.096562997 -0.227402
-0.076387003 0.096634999 -0.227404
-0.076384 0.096704997 -0.22740699
-0.076382004 0.096777 -0.227401
-0.076379001 0.096846998 -0.227395
-0.076375999 0.096917003 -0.22739799
-0.076374002 0.096988998 -0.227394
-0.076370999 0.097057998 -0.22737999
-0.076370001 0.097127996 -0.22736099
-0.076367997 0.097199999 -0.227345
-0.076365001 0.097269997 -0.227347
-0.076361001 0.097341999 -0.22736
-0.076357998 0.097411998 -0.227366
-0.076355003 0.097484 -0.22736999
-0.076352999 0.097553998 -0.227368
-0.076350003 0.097623996 -0.227357
-0.076347999 0.097695 -0.22735099
-0.076344997 0.097764999 -0.22735099
-0.076342002 0.097837001 -0.227356
-0.076338999 0.097907998 -0.22736
-0.076335996 0.097979002 -0.227356
-0.076334 0.098049 -0.227357
-0.076330997 0.098121002 -0.22735301
-0.076329 0.098191001 -0.22733501
-0.076327004 0.09826 -0.22731601
-0.076324001 0.098329999 -0.22731601
-0.076320998 0.098402001 -0.22732399
-0.076319002 0.098471999 -0.227319
-0.076316997 0.098541997 -0.227301
-0.076314002 0.098614 -0.227293
-0.076311998 0.098683998 -0.22728901
-0.076309003 0.098756 -0.227294
-0.076306 0.098825999 -0.2273
-0.076302998 0.098898001 -0.2273
-0.076301001 0.098967001 -0.22728901
-0.076298997 0.099036999 -0.227275
-0.076296002 0.099109001 -0.22727101
-0.076292999 0.099179 -0.227272
-0.076291002 0.099248998 -0.22725999
-0.076288998 0.099317998 -0.227248
-0.076286003 0.09939 -0.227249
-0.076283 0.099462003 -0.227253
-0.076279998 0.099532001 -0.227253
-0.076277003 0.099601999 -0.227253
-0.076274998 0.099674001 -0.22725201
-0.076272003 0.099744 -0.227248
-0.076269001 0.099816002 -0.227244
-0.076266997 0.099886 -0.227247
-0.076264001 0.099958003 -0.227247
-0.076260999 0.100028 -0.227237
-0.076259002 0.100098 -0.22723
-0.076256 0.100169 -0.227228
-0.076254003 0.100239 -0.227228
-0.076251 0.100311 -0.227231
-0.076247998 0.100381 -0.22723299
-0.076245002 0.100453 -0.22723299
-0.076242 0.100523 -0.227231
-0.076240003 0.100595 -0.227226
-0.076237001 0.100665 -0.22722
-0.076234996 0.100735 -0.227208
-0.076232001 0.100805 -0.22720499
-0.076228999 0.100877 -0.22720701
-0.076227002 0.100949 -0.227209
-0.076223999 0.101019 -0.22721
-0.076220997 0.10109 -0.227202
-0.076219 0.10116 -0.22719
-0.076217003 0.10123 -0.227181
-0.076214001 0.1013 -0.227175
-0.076211996 0.10137 -0.227171
-0.076209001 0.101442 -0.227171
-0.076205999 0.101512 -0.22717001
-0.076203004 0.101583 -0.22716799
-0.076200999 0.101653 -0.227164
-0.076199003 0.101723 -0.227157
-0.076196 0.101795 -0.227153
-0.076192997 0.101865 -0.22715101
-0.076191001 0.101937 -0.227148
-0.076187998 0.102007 -0.22714999
-0.076185003 0.102079 -0.227146
-0.076182 0.102149 -0.227143
-0.076178998 0.102221 -0.22715101
-0.076176003 0.102293 -0.227153
-0.076173998 0.102363 -0.22714099
-0.076172002 0.102432 -0.22713199
-0.076169997 0.102502 -0.22712
-0.076167002 0.102572 -0.22711
-0.076164 0.102644 -0.227111
-0.076162003 0.102714 -0.22711299
-0.076159 0.102786 -0.227107
-0.076157004 0.102855 -0.227102
-0.076154001 0.102925 -0.2271
-0.076150998 0.102997 -0.227102
-0.076148003 0.103067 -0.227099
-0.076145999 0.103137 -0.227083
-0.076144002 0.103209 -0.22707701
-0.076141 0.103279 -0.22707801
-0.076137997 0.103351 -0.22707599
-0.076136 0.103421 -0.227074
