-0.0743917 -0.0317711 0.996723 0.0607088
-0.0710519 -0.033746 0.996902 0.0519827
-0.0679193 -0.0383781 0.996952 0.0446311
-0.0643689 -0.0413157 0.997071 0.0340626
-0.0553603 -0.0468882 0.997365 0.020699
-0.0473407 -0.0577197 0.99721 0.00334354
-0.0442327 -0.0673609 0.996748 0
-0.0398819 -0.0808498 0.995928 0
-0.0342741 -0.0907834 0.995281 0
-0.0315739 -0.0953449 0.994943 0
-0.0296479 -0.0913682 0.995376 0
-0.025409 -0.0932106 0.995322 0
-0.0207616 -0.104143 0.994346 0
-0.0167658 -0.109096 0.99389 0
-0.0152289 -0.114272 0.993333 0
-0.0126911 -0.115035 0.99328 0
-0.0162182 -0.109758 0.993826 0
-0.0208666 -0.0994105 0.994828 0
-0.0252191 -0.0907657 0.995553 0
-0.031101 -0.0887433 0.995569 0
-0.0364857 -0.0806107 0.996078 0.000692573
-0.0427188 -0.0828857 0.995643 0.0157901
-0.0480747 -0.0799457 0.995639 0.0314084
-0.0491953 -0.0773597 0.995789 0.0356841
-0.0493832 -0.0727935 0.996124 0.0306111
-0.052885 -0.0695196 0.996178 0.0188713
-0.0537811 -0.0736302 0.995834 0.00615293
-0.0540107 -0.0730114 0.995868 0
-0.0544181 -0.0803257 0.995282 0
-0.0546899 -0.0817432 0.995152 0
-0.0554248 -0.0848405 0.994852 0
-0.0561946 -0.0844796 0.994839 0
-0.0533455 -0.0781276 0.995515 0
-0.0526132 -0.0839983 0.995076 0
-0.04996 -0.0806353 0.995491 0
-0.0432363 -0.090833 0.994927 0
-0.0377582 -0.104445 0.993814 0
-0.0324584 -0.114386 0.992906 0
-0.0288726 -0.119691 0.992391 0
-0.0278117 -0.114833 0.992995 0
-0.0241363 -0.122977 0.992116 0
-0.0217147 -0.121488 0.992355 0
-0.0172141 -0.130244 0.991332 0
-0.0167902 -0.134893 0.990718 0
-0.0196237 -0.132887 0.990937 0
-0.0219605 -0.125217 0.991886 0
-0.0250796 -0.114758 0.993077 0
-0.0284876 -0.111158 0.993394 0
-0.0308365 -0.10702 0.993779 0
-0.0339332 -0.110646 0.99328 0
-0.0360791 -0.110289 0.993244 0
-0.0411185 -0.106557 0.993456 0
-0.0475872 -0.0948308 0.994355 0.000487569
-0.0563233 -0.0877411 0.99455 0.014191
-0.0670022 -0.0845447 0.994164 0.0308843
-0.0789577 -0.0863851 0.993128 0.0460568
-0.0868036 -0.088211 0.992312 0.0548158
-0.0941975 -0.0758394 0.992661 0.0631419
-0.0950496 -0.0727833 0.992808 0.0668533
-0.0948353 -0.063363 0.993474 0.0672166
-0.0921335 -0.0615975 0.99384 0.068688
-0.0892618 -0.0622308 0.994062 0.0710355
-0.0819923 -0.0646349 0.994535 0.0625233
-0.0786065 -0.0643808 0.994825 0.0542991
-0.0771417 -0.0626487 0.99505 0.0534277
-0.0705712 -0.0659386 0.995325 0.0493502
-0.0638391 -0.0671328 0.9957 0.0458294
-0.0553007 -0.0727121 0.995819 0.0358062
-0.04455 -0.0831457 0.995541 0.0139484
-0.0395434 -0.0887471 0.995269 0
-0.0349077 -0.0940641 0.994954 0
-0.0317465 -0.0974278 0.994736 0
-0.0298577 -0.0994972 0.99459 0
-0.0297776 -0.0946942 0.995061 0
-0.036621 -0.0913332 0.995147 0
-0.0436618 -0.0916577 0.994833 0
-0.047355 -0.0881427 0.994982 0
-0.0523164 -0.0826625 0.995203 0.000919701
-0.055558 -0.0764468 0.995525 0.000757757
-0.052781 -0.0789208 0.995483 0
-0.0495898 -0.0789563 0.995644 0
-0.049905 -0.0833852 0.995267 0
-0.0472785 -0.0825219 0.995467 0
-0.044564 -0.0794482 0.995842 0
-0.042007 -0.0819984 0.995747 0
-0.0421352 -0.0788944 0.995992 0
-0.0406165 -0.0802894 0.995944 0
-0.0373901 -0.0762591 0.996387 0
-0.0331475 -0.0791664 0.99631 0
-0.0280988 -0.0785806 0.996512 0
-0.0271151 -0.0733704 0.996936 0
-0.0293047 -0.0699778 0.997118 0
-0.0325239 -0.0649435 0.997359 0
-0.0341255 -0.0660003 0.997236 0
-0.0330397 -0.0652415 0.997322 0
-0.0340709 -0.062445 0.997467 0
-0.0346073 -0.063538 0.997379 0
-0.0362826 -0.0626844 0.997374 0
-0.036918 -0.0611126 0.997448 0
-0.0368906 -0.0634857 0.997301 0
-0.0362418 -0.067256 0.997077 0
-0.0410751 -0.0621594 0.997221 0
-0.0402468 -0.0634159 0.997175 0
-0.0419796 -0.0636375 0.99709 0
-0.0446035 -0.0676084 0.996714 0
-0.0441343 -0.0636207 0.996998 0
-0.0480623 -0.0582006 0.997147 0
-0.0459856 -0.0508566 0.997647 0
-0.0504823 -0.0455118 0.997687 0
-0.0528992 -0.0351133 0.997982 0
-0.0588339 -0.0272669 0.997895 0
-0.0593536 -0.0226455 0.99798 0
-0.0593311 -0.0225823 0.997983 0
-0.0611113 -0.0188032 0.997954 0
-0.0585363 -0.0176613 0.998129 0
-0.059315 -0.014756 0.99813 0
-0.057559 -0.0114897 0.998276 0
-0.0528845 -0.011432 0.998535 0
-0.0522321 -0.00419313 0.998626 0.00319858
-0.0504544 -0.00087365 0.998726 0
-0.0485386 0.00489069 0.998809 0.00473225
-0.0498255 0.0103949 0.998704 0.00825561
-0.0498409 0.0130351 0.998672 0.0111618
-0.0498786 0.0143496 0.998652 0.00865201
-0.047762 0.0148588 0.998748 0.0108874
-0.0485092 0.0128412 0.99874 0.012407
-0.054632 0.0170663 0.998361 0.0165942
-0.0553531 0.0234373 0.998192 0.0253317
-0.0584943 0.0353376 0.997662 0.0292452
-0.061075 0.0418201 0.997257 0.0310937
-0.0634765 0.0483025 0.996814 0.0336071
-0.0638436 0.045523 0.996921 0.0309388
-0.061896 0.0445359 0.997088 0.0270998
-0.0588102 0.0429794 0.997344 0.0157585
-0.0562915 0.0533678 0.996987 0.0117048
-0.0506125 0.0459181 0.997662 0.00350517
-0.0500174 0.0455539 0.997709 0.00223965
-0.0517738 0.0476221 0.997523 0.00337161
-0.0535514 0.0502759 0.997299 0.00330817
-0.0546733 0.0514631 0.997177 0.00494971
-0.0610049 0.0701074 0.995672 0.0167635
-0.0611508 0.0779524 0.99508 0.0192624
-0.0649686 0.104596 0.99239 0.0280586
-0.0675869 0.118119 0.990697 0.0276007
-0.0676032 0.128912 0.989349 0.0293778
-0.0655226 0.137413 0.988344 0.0282643
-0.0663599 0.13828 0.988167 0.0295958
-0.0671232 0.144551 0.987218 0.0314264
-0.0652567 0.143648 0.987475 0.0272579
-0.0656906 0.144417 0.987334 0.0209183
-0.068847 0.169981 0.983039 0.0269702
-0.0722642 0.195843 0.977969 0.0355553
-0.0752164 0.218395 0.972957 0.0368203
-0.0771223 0.2451 0.966426 0.04179
-0.0754254 0.214439 0.973821 0.0331031
-0.0692732 0.185389 0.98022 0.0170888
-0.0533302 -0.165717 0.98473 0.000925489
-0.051107 -0.164113 0.985117 0
-0.0504885 -0.156157 0.986441 0
-0.048572 -0.157546 0.986316 0
-0.0488776 -0.151562 0.987239 0
-0.052621 -0.14588 0.987902 0
-0.0540696 -0.146696 0.987703 0
-0.0555864 -0.134117 0.989405 0
-0.0592741 -0.118676 0.991162 0
-0.0583341 -0.11226 0.991965 0
-0.0589281 -0.106618 0.992552 0
-0.0590085 -0.101463 0.993088 0
-0.0618427 -0.0975805 0.993304 0.00673639
-0.0633799 -0.0913959 0.993796 0.0101823
-0.067763 -0.0721598 0.995088 0.0144542
-0.069558 -0.0685467 0.99522 0.0119715
-0.0710742 -0.0612899 0.995586 0.0133499
-0.0708776 -0.058994 0.995739 0.0126633
-0.069254 -0.0614949 0.995702 0.00978032
-0.0687003 -0.0595948 0.995856 0.00560644
-0.067065 -0.0533775 0.99632 0.00447111
-0.0669514 -0.0475222 0.996624 0
-0.0681172 -0.0432357 0.99674 0
-0.0678062 -0.0468516 0.996598 0
-0.0693121 -0.0503186 0.996325 0.00481043
-0.070081 -0.0511277 0.99623 0.00732215
-0.0702127 -0.0502855 0.996264 0.0128043
-0.0712638 -0.0491061 0.996248 0.0194476
-0.0746029 -0.0515853 0.995878 0.0225865
-0.0745778 -0.0443573 0.996228 0.0294755
-0.0781149 -0.0342118 0.996357 0.0357081
-0.0763123 -0.0318248 0.996576 0.0393219
-0.0760976 -0.0272287 0.996728 0.0421347
-0.0740295 -0.0281623 0.996858 0.0411703
-0.074525 -0.0279506 0.996827 0.0404379
-0.0766592 -0.0305097 0.99659 0.0385372
-0.0748875 -0.0342504 0.996604 0.0338961
-0.0718397 -0.0444021 0.996427 0.027226
-0.0698024 -0.041531 0.996696 0.0199972
-0.0680796 -0.042467 0.996776 0.0119007
-0.0684063 -0.0374624 0.996954 0.00907089
-0.0694013 -0.0342459 0.997001 0.00237141
-0.0726383 -0.031622 0.996857 0
-0.0721285 -0.0266104 0.99704 0
-0.0748023 -0.0157993 0.997073 0.00530456
-0.0810068 -0.00883657 0.996674 0.0158721
-0.0859709 -0.00495758 0.996285 0.0165026
-0.0826363 -0.00359956 0.996573 0.0173266
-0.083849 0.00230016 0.996476 0.0252559
-0.0827412 0.00866246 0.996533 0.0270957
-0.0828473 0.00575032 0.996546 0.0286766
-0.0821032 0.00760123 0.996595 0.0281492
-0.0821215 0.0116743 0.996554 0.02912
-0.0793894 0.00889078 0.996804 0.0236781
-0.0714865 0.00570345 0.997425 0.0204134
-0.0700662 0.0139054 0.997445 0.0278468
-0.0646496 0.0163842 0.997774 0.0248782
-0.0608849 0.0186079 0.997971 0.0201288
-0.0574009 0.0208074 0.998134 0.0161447
-0.0528262 0.0199905 0.998404 0.00718291
-0.0511179 0.0178475 0.998533 0.00621358
-0.0503533 0.0169903 0.998587 0.00366224
-0.0554738 0.018554 0.998288 0.0105966
-0.0524999 0.0167097 0.998481 0.0029639
-0.0537622 0.015697 0.99843 0.00410434
-0.0541238 0.0154917 0.998414 0.00638404
-0.0561009 0.0149018 0.998314 0.00903331
-0.0592996 0.0201276 0.998037 0.0174032
-0.0620825 0.0237114 0.997789 0.0212949
-0.0598538 0.0262252 0.997863 0.020058
-0.0546999 0.0273218 0.998129 0.0103191
-0.0574914 0.0315863 0.997846 0.00908995
-0.0599654 0.0382275 0.997468 0.0120717
-0.055365 0.0369931 0.997781 0.00661318
-0.0536381 0.0410543 0.997716 0.00952559
-0.0527025 0.0453799 0.997579 0.0114333
-0.0535411 0.0537296 0.997119 0.0216489
-0.0469065 0.0509384 0.9976 0.0181044
-0.0470197 0.057543 0.997235 0.0253976
-0.0530066 0.0639033 0.996547 0.0410614
-0.0587309 0.0702028 0.995802 0.0526538
-0.0642477 0.0719665 0.995336 0.0554088
-0.0717433 0.0750144 0.994598 0.0619713
-0.075968 0.0729294 0.99444 0.0689254
-0.0733577 0.0692776 0.994897 0.0680204
-0.0728879 0.062428 0.995384 0.061337
-0.0712844 0.0537785 0.996005 0.0515511
-0.0666857 0.0449871 0.996759 0.0375518
-0.0673879 0.0405389 0.996903 0.0307724
-0.0683148 0.0363144 0.997003 0.029273
-0.0663882 0.0373945 0.997093 0.0280407
-0.0690456 0.0410849 0.996767 0.0281332
-0.0711269 0.0436534 0.996512 0.0263486
-0.074573 0.0527039 0.995822 0.0333233
-0.0782665 0.0612809 0.995047 0.0461037
-0.0793107 0.0643212 0.994773 0.0483499
-0.0795853 0.0682602 0.994488 0.0479046
-0.0748124 0.0709884 0.994668 0.0487848
-0.0706399 0.0680887 0.995175 0.0503529
-0.0672911 0.0677775 0.995429 0.0525158
-0.0610319 0.0647741 0.996032 0.0537949
-0.058464 0.0620898 0.996357 0.0548349
-0.0596545 0.0631988 0.996216 0.0544453
-0.0597537 0.0634877 0.996192 0.0510314
-0.0613887 0.0611289 0.99624 0.0422972
-0.0582264 0.0587067 0.996576 0.035072
-0.05425 0.0523594 0.997154 0.0230692
-0.0517678 0.0502012 0.997397 0.0160596
-0.0468685 0.0449627 0.997889 0.00127841
-0.0451462 0.0418603 0.998103 0
-0.0427187 0.0376187 0.998379 0
-0.0408384 0.0324222 0.99864 0
-0.0412699 0.0285488 0.99874 0
-0.0430413 0.0240399 0.998784 0
-0.0471995 0.0253431 0.998564 0
-0.0544919 0.0280678 0.99812 0
-0.0594744 0.031759 0.997725 0
-0.0620488 0.0327641 0.997535 0
-0.062462 0.0329313 0.997504 0
-0.0631054 0.0300261 0.997555 0.000204154
-0.065303 0.0318916 0.997356 0.0103521
-0.068451 0.0385382 0.99691 0.0219185
-0.0682086 0.0447861 0.996665 0.0270994
-0.0711654 0.04885 0.996268 0.0352592
-0.0751821 0.051993 0.995813 0.0462282
-0.0809634 0.0547195 0.995214 0.0572305
-0.0873222 0.0553464 0.994641 0.0654779
-0.0955413 0.0578566 0.993743 0.0745342
-0.101606 0.0645232 0.99273 0.0826166
-0.107324 0.0624534 0.992261 0.0888
-0.110557 0.0606586 0.992017 0.0921923
-0.11094 0.0626597 0.99185 0.0951082
-0.117375 0.0663112 0.990871 0.100227
-0.124214 0.0718117 0.989654 0.106044
-0.137007 0.0830738 0.987081 0.117101
-0.144914 0.0921972 0.985139 0.122864
-0.158083 0.100292 0.982319 0.129822
-0.163816 0.10018 0.981391 0.132942
-0.161408 0.0946856 0.982335 0.134094
-0.155701 0.0901442 0.983683 0.133086
-0.152613 0.0898565 0.984193 0.133036
-0.14535 0.0876082 0.985494 0.128314
-0.139004 0.0812611 0.986952 0.123329
-0.128287 0.0704557 0.989231 0.116877
-0.112883 0.0609815 0.991735 0.108924
-0.103592 0.0544458 0.993129 0.101882
-0.0921151 0.0477505 0.994603 0.0917329
-0.0807816 0.0417295 0.995858 0.082525
-0.0725142 0.0289965 0.996946 0.0740013
-0.0696861 0.0183451 0.9974 0.0681968
-0.0697914 0.00908895 0.99752 0.0634972
-0.0700085 0.00125382 0.997546 0.0601581
-0.0722926 -0.0014033 0.997383 0.0576885
-0.0766568 -7.04183e-06 0.997058 0.0610277
-0.0765154 -0.00471862 0.997057 0.0643077
-0.0757073 -0.00945159 0.997085 0.0639514
-0.0750455 -0.0112466 0.997117 0.0641395
-0.073487 -0.012894 0.997213 0.0601674
-0.072217 -0.0139158 0.997292 0.0587703
-0.0721063 -0.00915237 0.997355 0.0583385
-0.0746066 -0.00788904 0.997182 0.060534
-0.0760091 -0.00492394 0.997095 0.0659824
-0.0800363 -0.00347327 0.996786 0.0756947
-0.0827457 -0.00209834 0.996569 0.0847266
-0.0822066 -0.00340332 0.996609 0.0847091
-0.0786738 -0.00534797 0.996886 0.0827691
-0.073603 -0.00691051 0.997264 0.0756662
-0.0675845 -0.0102326 0.997661 0.0665341
-0.0619546 -0.0146287 0.997972 0.0552665
-0.0568303 -0.0187069 0.998209 0.0445163
-0.0558118 -0.0225797 0.998186 0.0371972
-0.0545988 -0.0233262 0.998236 0.0279833
-0.0532707 -0.0219577 0.998339 0.0195557
-0.0526089 -0.0222316 0.998368 0.0138692
-0.0489877 -0.024553 0.998498 0.000535653
-0.0460859 -0.0306131 0.998468 0
-0.041444 -0.0384602 0.9984 0
-0.0375249 -0.0431502 0.998364 0
-0.0340514 -0.0460652 0.998358 0
-0.0307052 -0.0516202 0.998195 0
-0.0305258 -0.0573461 0.997888 0
-0.0290411 -0.063386 0.997566 0
-0.027273 -0.0711298 0.997094 0
-0.0227534 -0.0799785 0.996537 0
-0.0190316 -0.0852796 0.996175 0
-0.0154837 -0.0887487 0.995934 0
-0.0116418 -0.0942958 0.995476 0
-0.00701061 -0.0995651 0.995006 0
-0.00507562 -0.104042 0.99456 0
-0.000635103 -0.109123 0.994028 0
0.00414486 -0.115699 0.993276 0
0.00821715 -0.114343 0.993407 0
0.00998049 -0.11243 0.99361 0
0.012029 -0.114238 0.993381 0
0.0132128 -0.111716 0.993652 0
0.0107651 -0.111736 0.99368 0
0.00388197 -0.105628 0.994398 0
-0.0029865 -0.0987508 0.995108 0
-0.00733104 -0.0904915 0.99587 0
-0.0109012 -0.0865821 0.996185 0
-0.0162246 -0.0807902 0.996599 0
-0.0188284 -0.0750638 0.997001 0
-0.021887 -0.0694707 0.997344 0
-0.0233068 -0.0635701 0.997705 0
-0.0268888 -0.0571302 0.998005 0
-0.0343787 -0.0521995 0.998045 0
-0.0380485 -0.0486218 0.998092 0
-0.0432104 -0.0476191 0.997931 0
-0.0466992 -0.0474144 0.997783 0
-0.0510418 -0.0465516 0.997611 0
-0.0536559 -0.0401472 0.997752 0.00173289
-0.053623 -0.0368875 0.99788 0.0018032
-0.0554794 -0.0358278 0.997817 0.00785816
-0.0541571 -0.0336719 0.997965 0.0121956
-0.0536263 -0.0327207 0.998025 0.0204342
-0.0529999 -0.0406004 0.997769 0.0238776
-0.053492 -0.0358381 0.997925 0.0309162
-0.0536754 -0.0408522 0.997722 0.0321924
-0.0594571 -0.0352158 0.997609 0.0331926
-0.0612364 -0.0401725 0.997315 0.0291765
-0.0642227 -0.0396641 0.997147 0.0282949
-0.0657144 -0.0371191 0.997148 0.0213469
-0.0644525 -0.0403753 0.997104 0.0175781
-0.0627711 -0.037581 0.99732 0.0154282
-0.0559617 -0.0418139 0.997557 0.0148111
-0.0519174 -0.043495 0.997704 0.0139855
-0.0499129 -0.0455787 0.997713 0.0101081
-0.0481085 -0.0480257 0.997687 0.0104254
-0.0488902 -0.0457963 0.997754 0.0119966
-0.0463915 -0.0486515 0.997738 0.0110153
-0.0456874 -0.0445184 0.997963 0.00798425
-0.046381 -0.0466686 0.997833 0.00603106
-0.0452931 -0.0438542 0.998011 0.00474858
-0.0400387 -0.0409492 0.998359 0.000452255
-0.0356187 -0.0505267 0.998087 0
-0.03297 -0.0551605 0.997933 0
-0.0300967 -0.062444 0.997595 0
-0.027013 -0.0643269 0.997563 0
-0.0247374 -0.0674033 0.997419 0
-0.0273211 -0.0674933 0.997346 0
-0.0295398 -0.0663075 0.997362 0
-0.036357 -0.0719759 0.996744 0
-0.0422964 -0.0648243 0.997 0
-0.047397 -0.0656604 0.996716 0
-0.0533192 -0.0564905 0.996978 0
-0.0580535 -0.0534117 0.996884 0.0093651
-0.0611767 -0.0506663 0.99684 0.0184909
-0.0616154 -0.0438176 0.997138 0.0269018
-0.0632741 -0.0457192 0.996948 0.0347106
-0.0624229 -0.039199 0.99728 0.0368823
-0.0642033 -0.0400905 0.997131 0.0458725
-0.0649312 -0.0312315 0.997401 0.0519084
-0.0674526 -0.030149 0.997267 0.0566158
-0.0702609 -0.0291568 0.997102 0.059697
-0.0734273 -0.0289208 0.996881 0.0617424
-0.074655 -0.0341144 0.996626 0.0587999
-0.0739131 -0.0306875 0.996792 0.0570623
-0.0706545 -0.0404067 0.996682 0.0499298
-0.0678047 -0.040336 0.996883 0.0385222
-0.0605144 -0.049649 0.996932 0.0274809
-0.0522887 -0.0523746 0.997258 0.00887637
-0.0448735 -0.0609845 0.997129 0
-0.0391381 -0.0750531 0.996411 0
-0.032813 -0.0845905 0.995875 0
-0.0283117 -0.0928408 0.995278 0
-0.026705 -0.090547 0.995534 0
-0.023035 -0.0925256 0.995444 0
-0.0196976 -0.102281 0.994561 0
-0.0192117 -0.108512 0.993909 0
-0.0159594 -0.112848 0.993484 0
-0.0146816 -0.110003 0.993823 0
-0.016545 -0.110748 0.993711 0
-0.0234213 -0.0997981 0.994732 0
-0.0285968 -0.0932785 0.995229 0
-0.0334684 -0.0874711 0.995605 0
-0.0381699 -0.0815498 0.995938 0.00162439
-0.0461358 -0.079851 0.995739 0.022615
-0.0527481 -0.0793515 0.99545 0.0340275
-0.0573659 -0.0782438 0.995282 0.0400231
-0.0571365 -0.073015 0.995693 0.035529
-0.0565335 -0.0695527 0.995975 0.0228124
-0.0573118 -0.073644 0.995636 0.0128816
-0.0542128 -0.0739564 0.995787 0.00211727
-0.0551839 -0.0756366 0.995607 0.000733296
-0.0542678 -0.076456 0.995595 0
-0.053031 -0.0828762 0.995148 0
-0.0504688 -0.0846496 0.995132 0
-0.0449355 -0.0843581 0.995422 0
-0.0461773 -0.088934 0.994967 0
-0.0444958 -0.0854384 0.995349 0
-0.0383486 -0.100462 0.994202 0
-0.0352919 -0.109814 0.993325 0
-0.0305756 -0.124218 0.991784 0
-0.0264521 -0.131437 0.990972 0
-0.0232215 -0.128024 0.991499 0
-0.019733 -0.134706 0.990689 0
-0.0167595 -0.134405 0.990785 0
-0.0144742 -0.137496 0.990396 0
-0.0155245 -0.137647 0.99036 0
-0.0196998 -0.13263 0.99097 0
-0.0254768 -0.128695 0.991357 0
-0.0296434 -0.114876 0.992938 0
-0.0307734 -0.114037 0.993 0
-0.0352097 -0.108924 0.993426 0
-0.0363907 -0.107868 0.993499 0
-0.0408394 -0.108639 0.993242 0
-0.0433504 -0.105321 0.993493 0
-0.0474306 -0.0992226 0.993934 0.00208969
-0.0560842 -0.0916147 0.994214 0.0154456
-0.0677401 -0.08751 0.993858 0.0345653
-0.0803021 -0.0858766 0.993064 0.051766
-0.0888738 -0.0855512 0.992362 0.0611694
-0.0937174 -0.0765079 0.992655 0.071915
-0.0958807 -0.0675901 0.993095 0.0730593
-0.094443 -0.0640194 0.99347 0.0745679
-0.0914639 -0.0629452 0.993817 0.0734871
-0.087828 -0.063682 0.994098 0.0698291
-0.083221 -0.0694107 0.994111 0.0633613
-0.082648 -0.0703318 0.994094 0.0626865
-0.0787247 -0.0656397 0.994733 0.0645094
-0.0747214 -0.0674196 0.994923 0.0605133
-0.0657422 -0.0691369 0.995439 0.0516088
-0.0566955 -0.0759754 0.995497 0.0385939
-0.0492788 -0.0777178 0.995757 0.0187602
-0.0434062 -0.0818989 0.995695 0.000503427
-0.040665 -0.0896685 0.995141 0
-0.0401072 -0.0928727 0.99487 0
-0.0400873 -0.0922461 0.994929 0
-0.0364103 -0.0915367 0.995136 0
-0.0388833 -0.0871943 0.995432 0
-0.0451786 -0.0849701 0.995359 0
-0.0469111 -0.0848737 0.995287 0
-0.047932 -0.0859514 0.995146 0
-0.0487773 -0.0840563 0.995266 0
-0.0477441 -0.0848361 0.99525 0
-0.0445683 -0.0843628 0.995438 0
-0.0423812 -0.0825884 0.995682 0
-0.0416108 -0.0840431 0.995593 0
-0.0365047 -0.0841282 0.995786 0
-0.0357436 -0.0858559 0.995666 0
-0.0381574 -0.0836976 0.99576 0
-0.0384279 -0.0813554 0.995944 0
-0.0357637 -0.0852175 0.99572 0
-0.0329806 -0.0839976 0.99592 0
-0.0287973 -0.0862333 0.995859 0
-0.0271344 -0.0820525 0.996259 0
-0.0314214 -0.0762759 0.996592 0
-0.0331605 -0.0707873 0.99694 0
-0.0343427 -0.0726744 0.996764 0
-0.0375249 -0.0671908 0.997034 0
-0.0361014 -0.0641159 0.997289 0
-0.0373526 -0.0601258 0.997492 0
-0.0390253 -0.0631495 0.997241 0
-0.0407567 -0.0611148 0.997298 0
-0.0407285 -0.0659364 0.996992 0
-0.0379753 -0.0681418 0.996953 0
-0.0358455 -0.0691436 0.996963 0
-0.0359372 -0.0714395 0.996797 0
-0.038951 -0.0734335 0.996539 0
-0.0384098 -0.071947 0.996669 0
-0.0413181 -0.0688033 0.996774 0
-0.0457905 -0.0647035 0.996853 0
-0.0490388 -0.0529383 0.997393 0
-0.0520177 -0.0425396 0.99774 0
-0.0533673 -0.0377656 0.99786 0
-0.0602963 -0.0270825 0.997813 0
-0.0626872 -0.0217766 0.997796 0
-0.0634446 -0.0200553 0.997784 0
-0.0623261 -0.0152856 0.997939 0
-0.0623382 -0.012889 0.997972 0
-0.0593832 -0.0100501 0.998185 0.000786118
-0.0567634 -0.0090529 0.998347 0
-0.0563942 -0.00367062 0.998402 0.00233623
-0.055245 0.00312119 0.998468 0.00107476
-0.0539509 0.00729067 0.998517 0.000708766
-0.0542609 0.0119694 0.998455 0.00607168
-0.055347 0.0145045 0.998362 0.0122167
-0.0544705 0.0184584 0.998345 0.0142114
-0.053313 0.0213703 0.998349 0.018564
-0.0534539 0.0251961 0.998252 0.0192391
-0.0525797 0.0255511 0.99829 0.0179922
-0.0541642 0.0250032 0.998219 0.0212207
-0.0559859 0.0349185 0.997821 0.0317893
-0.0604206 0.0412489 0.99732 0.0349062
-0.0608742 0.0437121 0.997188 0.0337027
-0.0634276 0.0504538 0.99671 0.0351941
-0.0623528 0.048586 0.996871 0.0297435
-0.0603125 0.0457651 0.99713 0.0221431
-0.0589962 0.0419404 0.997377 0.0151424
-0.0571873 0.0425134 0.997458 0.00992523
-0.0563936 0.0466562 0.997318 0.0078989
-0.0565607 0.0484723 0.997222 0.00273533
-0.0543807 0.0397912 0.997727 0.00172129
-0.0538175 0.0467981 0.997454 0.000847655
-0.0556764 0.0501479 0.997189 0.00363713
-0.0601642 0.06626 0.995987 0.0123558
-0.0623228 0.08147 0.994725 0.0168646
-0.0664902 0.102883 0.992469 0.0262504
-0.0682646 0.115177 0.990997 0.0299922
-0.0659343 0.114904 0.991186 0.0220099
-0.0655404 0.119457 0.990674 0.0215331
-0.0673694 0.134163 0.988667 0.0289639
-0.0657961 0.143136 0.987514 0.0295521
-0.0661562 0.143748 0.987401 0.0282283
-0.0675015 0.153169 0.985892 0.0278187
-0.0705896 0.170982 0.982742 0.0293936
-0.0753646 0.20537 0.975778 0.0361565
-0.0792814 0.23354 0.96911 0.0429268
-0.0797001 0.247216 0.965677 0.0435886
-0.0785668 0.237226 0.968272 0.0400813
-0.0716427 0.210898 0.974879 0.0265697
-0.0483176 -0.171587 0.983983 0
-0.0446333 -0.17035 0.984372 0
-0.0470168 -0.167751 0.984708 0
-0.0489156 -0.157759 0.986265 0
-0.0509242 -0.152499 0.986991 0
-0.052558 -0.152175 0.986955 0
-0.0548274 -0.139644 0.988683 0
-0.0550054 -0.127682 0.990289 0
-0.0572035 -0.112382 0.992017 0
-0.0580857 -0.102955 0.992989 0.000852689
-0.0595331 -0.103566 0.992839 0.00572654
-0.0623532 -0.0966039 0.993368 0.00960192
-0.0651774 -0.0901024 0.993798 0.0155644
-0.0665957 -0.0725872 0.995136 0.0159496
-0.0686235 -0.0645401 0.995553 0.0155825
-0.0702059 -0.0597592 0.995741 0.0166023
-0.070014 -0.0575231 0.995886 0.0122813
-0.0690136 -0.0555065 0.99607 0.0156442
-0.0675205 -0.0534841 0.996283 0.0158056
-0.0658565 -0.0510153 0.996524 0.00708318
-0.0679265 -0.0384986 0.996947 0.0089597
-0.0670296 -0.0358763 0.997106 0.00541393
-0.0657921 -0.0381721 0.997103 0.00231743
-0.0683737 -0.0394266 0.99688 0.0104104
-0.0694457 -0.0433404 0.996644 0.0125574
-0.0701836 -0.0461981 0.996464 0.0150598
-0.0695284 -0.0488267 0.996384 0.015393
-0.0733269 -0.0440172 0.996336 0.022904
-0.076323 -0.0382723 0.996348 0.0298903
-0.0793125 -0.0310019 0.996368 0.0341163
-0.0801684 -0.0278986 0.996391 0.0414163
-0.0841781 -0.0270569 0.996083 0.0468527
-0.0823976 -0.0280083 0.996206 0.0451396
-0.0821953 -0.0315672 0.996116 0.0445247
-0.0821482 -0.0327146 0.996083 0.043993
-0.0805032 -0.0346057 0.996153 0.0398842
-0.0808514 -0.0365897 0.996054 0.0340089
-0.0777819 -0.0410195 0.996126 0.0276288
-0.0753083 -0.0407103 0.996329 0.0227567
-0.0722096 -0.0361283 0.996735 0.0139499
-0.0736073 -0.0287636 0.996872 0.0105065
-0.0728699 -0.0268182 0.996981 0.0055873
-0.0741539 -0.0209431 0.997027 0.00588592
-0.0817381 -0.0110541 0.996592 0.0206858
-0.0868885 -0.00450755 0.996208 0.0251154
-0.0906701 0.00254634 0.995878 0.031079
-0.0882097 0.00670316 0.996079 0.0305389
-0.0879606 0.00837199 0.996089 0.0333295
-0.0832369 0.00976202 0.996482 0.0300205
-0.0849545 0.00831151 0.99635 0.0376719
-0.087508 0.0127556 0.996082 0.0402433
-0.0851161 0.0140445 0.996272 0.0362236
-0.079609 0.0128931 0.996743 0.0335087
-0.0734215 0.0120112 0.997229 0.0298565
-0.0694439 0.0169486 0.997442 0.0298662
-0.0633211 0.0196813 0.997799 0.027041
-0.0597322 0.0194314 0.998025 0.0242393
-0.058248 0.0214717 0.998071 0.0151199
-0.0541647 0.022001 0.99829 0.00762349
-0.0541878 0.019862 0.998333 0.00733236
-0.0560894 0.0226438 0.998169 0.0128579
-0.0612038 0.0266101 0.997771 0.0237254
-0.0586362 0.0234824 0.998003 0.0230415
-0.0580247 0.0223576 0.998065 0.0169201
-0.058701 0.0220673 0.998032 0.0183691
-0.0614766 0.0218786 0.997869 0.0182734
-0.0639311 0.0245043 0.997653 0.024884
-0.0649686 0.0266168 0.997532 0.0242898
-0.0644187 0.0272551 0.997551 0.0231752
-0.062251 0.025286 0.99774 0.0159379
-0.0628028 0.0294932 0.99759 0.0110228
-0.0685535 0.0377392 0.996933 0.0213902
-0.0624572 0.0351708 0.997428 0.0119044
-0.0573474 0.0383342 0.997618 0.010333
-0.0523613 0.0417784 0.997754 0.00686703
-0.0500022 0.0479366 0.997598 0.016277
-0.0455002 0.0486621 0.997778 0.011909
-0.0456242 0.0557113 0.997404 0.0212793
-0.047972 0.0617302 0.996939 0.0330169
-0.0558973 0.0674754 0.996154 0.041535
-0.0619162 0.0693404 0.99567 0.0482974
-0.0646456 0.067385 0.995631 0.0530929
-0.0681568 0.0688176 0.995298 0.058298
-0.0683098 0.0665838 0.99544 0.0610078
-0.0647385 0.0595031 0.996127 0.0522227
-0.0630974 0.0518927 0.996657 0.0426032
-0.0578801 0.0410071 0.997481 0.0300758
-0.0579879 0.0359468 0.99767 0.0241942
-0.0593385 0.0340447 0.997657 0.0212732
-0.0597664 0.0337633 0.997641 0.0222677
-0.0631007 0.0400858 0.997202 0.024169
-0.0676081 0.0446527 0.996712 0.0248112
-0.0708427 0.0508605 0.99619 0.0310935
-0.0752127 0.0586498 0.995441 0.0433916
-0.0765465 0.0633923 0.995049 0.0490694
-0.0764807 0.0662896 0.994865 0.0474365
-0.0746504 0.0693682 0.994794 0.0468721
-0.0692226 0.0664125 0.995388 0.0463947
-0.0661791 0.0647826 0.995703 0.0469286
-0.0634411 0.066107 0.995794 0.0485655
-0.0619688 0.0651493 0.99595 0.0497187
-0.0582306 0.0596992 0.996517 0.0444316
-0.058073 0.058063 0.996622 0.0451721
-0.0582186 0.0588873 0.996566 0.0387631
-0.0558005 0.0554494 0.996901 0.0327467
-0.0519795 0.0522854 0.997279 0.0208645
-0.0495353 0.0506528 0.997487 0.0140024
-0.0459598 0.0453667 0.997913 0.001159
-0.0416901 0.0406652 0.998303 0
-0.0410207 0.0358301 0.998516 0
-0.0418092 0.0299085 0.998678 0
-0.0423661 0.0272415 0.998731 0
-0.0441567 0.0261493 0.998682 0
-0.0477125 0.0260459 0.998522 0
-0.0532169 0.0287205 0.99817 0
-0.0583047 0.0328263 0.997759 0
-0.0620802 0.0337903 0.997499 0
-0.0612269 0.0313507 0.997631 0
-0.061731 0.0315938 0.997593 0.000212315
-0.0667458 0.0347686 0.997164 0.0117302
-0.0737247 0.04173 0.996405 0.0265142
-0.0763042 0.0488427 0.995888 0.0386179
-0.0790198 0.0551999 0.995344 0.0466526
-0.0815661 0.0575122 0.995007 0.0569319
-0.0858752 0.0596734 0.994517 0.0667961
-0.0878396 0.0588246 0.994396 0.07227
-0.0946501 0.061735 0.993595 0.0788943
-0.102914 0.0692746 0.992275 0.0874061
-0.109552 0.0707533 0.99146 0.0946214
-0.113797 0.0699939 0.991035 0.0983941
-0.117557 0.0674129 0.990775 0.0998928
-0.124399 0.0710015 0.989689 0.106452
-0.13503 0.0789316 0.987692 0.114369
-0.146617 0.0871444 0.985347 0.123251
-0.148553 0.0931677 0.984506 0.126889
-0.15589 0.0983832 0.982863 0.130153
-0.160487 0.101001 0.981857 0.134263
-0.162082 0.0992185 0.981777 0.137731
-0.158514 0.0914176 0.983115 0.136507
-0.154042 0.0904549 0.983915 0.133752
-0.149687 0.0898515 0.984642 0.13004
-0.146385 0.0857456 0.985505 0.126942
-0.137676 0.0780822 0.987395 0.121556
-0.124937 0.0687001 0.989783 0.11277
-0.110026 0.0618379 0.992003 0.103414
-0.0965538 0.0537245 0.993877 0.0954143
-0.0794198 0.0403038 0.996026 0.0829726
-0.0686505 0.0281819 0.997243 0.0698382
-0.0622241 0.0164851 0.997926 0.0596242
-0.0652898 0.00793899 0.997835 0.0573705
-0.0667596 -0.0018963 0.997767 0.0525256
-0.067833 -0.00765052 0.997667 0.0461388
-0.074926 -0.00758629 0.99716 0.0538384
-0.0753218 -0.0100632 0.997109 0.0541569
-0.0733663 -0.0135526 0.997213 0.0521187
-0.0701764 -0.0135737 0.997442 0.0485164
-0.0674128 -0.015887 0.997599 0.0467522
-0.06199 -0.0166784 0.997937 0.0442686
-0.0629637 -0.0114754 0.99795 0.0470771
-0.0655476 -0.00967776 0.997802 0.050967
-0.0712203 -0.00705697 0.997436 0.0558282
-0.0746263 -0.00602292 0.997193 0.0655229
-0.07671 -0.0079219 0.997022 0.0711073
-0.0755698 -0.0099559 0.997091 0.0701613
-0.0741725 -0.0117707 0.997176 0.0701664
-0.0701638 -0.0124637 0.997458 0.0664399
-0.0625499 -0.0168755 0.997899 0.0571127
-0.0585164 -0.0186813 0.998112 0.0530206
-0.0537326 -0.021566 0.998322 0.041535
-0.0517318 -0.025774 0.998328 0.0347916
-0.0517769 -0.0243551 0.998362 0.0282107
-0.0511075 -0.0222118 0.998446 0.0186805
-0.0505251 -0.0223481 0.998473 0.0121891
-0.0475442 -0.024587 0.998567 0
-0.0457795 -0.0291499 0.998526 0
-0.0427271 -0.0358714 0.998443 0
-0.0407719 -0.0407038 0.998339 0
-0.0373235 -0.0436477 0.99835 0
-0.0335786 -0.0490953 0.998229 0
-0.0317276 -0.0548527 0.99799 0
-0.0273209 -0.0630198 0.997638 0
-0.0226125 -0.0727301 0.997095 0
-0.0196506 -0.080715 0.996543 0
-0.0160019 -0.0844809 0.996297 0
-0.0128497 -0.0891117 0.995939 0
-0.0108632 -0.0930635 0.995601 0
-0.00864166 -0.0987267 0.995077 0
-0.00689747 -0.105307 0.994416 0
0.000410048 -0.113506 0.993537 0
0.0055789 -0.117417 0.993067 0
0.0106909 -0.117913 0.992966 0
0.0155309 -0.11861 0.992819 0
0.0170791 -0.114785 0.993244 0
0.0181064 -0.116624 0.993011 0
0.0150499 -0.113306 0.993446 0
0.00588753 -0.105945 0.994355 0
-0.00370589 -0.102432 0.994733 0
-0.00893843 -0.0896765 0.995931 0
-0.0168071 -0.0860971 0.996145 0
-0.023385 -0.0804121 0.996487 0
-0.0270319 -0.0706513 0.997135 0
-0.0284889 -0.0665259 0.997378 0
-0.0314106 -0.0612313 0.997629 0
-0.0318059 -0.0558511 0.997932 0
-0.037053 -0.0471284 0.998201 0
-0.0411456 -0.0443786 0.998167 0
-0.0451604 -0.0428729 0.998059 0
-0.0489055 -0.0399362 0.998005 0.000297192
-0.053303 -0.0408062 0.997744 0.00391987
-0.0559489 -0.0323953 0.997908 0.00906215
-0.0574538 -0.0355041 0.997717 0.0132321
-0.0617037 -0.0323289 0.997571 0.0189744
-0.06355 -0.0302799 0.997519 0.0250236
-0.0627031 -0.032457 0.997504 0.0292178
-0.0592952 -0.0339063 0.997664 0.0318776
-0.0581215 -0.0370623 0.997621 0.038439
-0.0540915 -0.0387145 0.997785 0.0352565
-0.0571522 -0.0370483 0.997678 0.0372662
-0.0589904 -0.0381356 0.99753 0.0362853
-0.0634654 -0.036612 0.997312 0.0329274
-0.0671524 -0.0396586 0.996954 0.0274453
-0.0663382 -0.0398132 0.997003 0.0207616
-0.0640179 -0.0408702 0.997111 0.0165901
-0.0568501 -0.0426739 0.99747 0.0144061
-0.0519899 -0.0445234 0.997655 0.0119679
-0.0453264 -0.0510586 0.997667 0.00384023
-0.0436602 -0.0498282 0.997803 0.0112024
-0.0402801 -0.0518473 0.997842 0.00880823
-0.0393456 -0.050076 0.99797 0.00669779
-0.0428753 -0.0471149 0.997969 0.0078454
-0.0473529 -0.0472877 0.997758 0.00347755
-0.0469983 -0.0426725 0.997983 0.00190721
-0.0447749 -0.045709 0.997951 6.60579e-05
-0.0409222 -0.0515374 0.997832 0
-0.0377068 -0.0576302 0.997626 0
-0.0345127 -0.0612619 0.997525 0
-0.0326973 -0.0614042 0.997577 0
-0.0322008 -0.065596 0.997327 0
-0.0330998 -0.0616564 0.997548 0
-0.0330219 -0.0626816 0.997487 0
-0.0369602 -0.064618 0.997225 0
-0.039689 -0.0634008 0.997199 0
-0.0465143 -0.0590254 0.997172 0
-0.0531842 -0.0547536 0.997082 0.00141756
-0.060572 -0.0532566 0.996742 0.0142383
-0.067861 -0.0471534 0.99658 0.0283986
-0.0687115 -0.0428495 0.996716 0.0352592
-0.0691129 -0.0432584 0.99667 0.0423538
-0.067428 -0.0438643 0.996759 0.042292
-0.0680555 -0.0401486 0.996873 0.0495351
-0.0656082 -0.034694 0.997242 0.050981
-0.0652892 -0.0344242 0.997272 0.054596
-0.0691218 -0.0357706 0.996967 0.0597621
-0.0711942 -0.0331251 0.996912 0.0615629
-0.0750708 -0.0319091 0.996668 0.061021
-0.0743278 -0.0334496 0.996673 0.0618313
-0.0722209 -0.0391489 0.99662 0.0512908
-0.0692828 -0.0399451 0.996797 0.042598
-0.0626591 -0.0515292 0.996704 0.0323457
-0.0565939 -0.0527812 0.997001 0.0175766
-0.047007 -0.059418 0.997126 0.00397072
-0.0378127 -0.0711175 0.996751 0
-0.0311914 -0.0763974 0.996589 0
-0.0243513 -0.086004 0.995997 0
-0.0223017 -0.0884273 0.995833 0
-0.021021 -0.0962201 0.995138 0
-0.019865 -0.0985019 0.994939 0
-0.0182287 -0.108577 0.993921 0
-0.0175443 -0.111667 0.993591 0
-0.0186723 -0.111452 0.993594 0
-0.0222896 -0.107702 0.993933 0
-0.0272385 -0.098623 0.994752 0
-0.0326709 -0.0902343 0.995385 0
-0.0376296 -0.0823877 0.99589 0
-0.0405044 -0.0791525 0.996039 0.0054844
-0.0442185 -0.0799775 0.995815 0.0182683
-0.050125 -0.0796061 0.995565 0.0289898
-0.0537971 -0.0788968 0.99543 0.034123
-0.0538709 -0.0707003 0.996042 0.0284061
-0.0544949 -0.0691558 0.996116 0.0196374
-0.0558634 -0.0734617 0.995732 0.0131258
-0.0569688 -0.0748877 0.995563 0.0100518
-0.0584491 -0.0749884 0.99547 0.00658287
-0.0583858 -0.0766479 0.995347 0.00159643
-0.0557903 -0.0800661 0.995227 0
-0.0534774 -0.0824827 0.995157 0
-0.0479224 -0.0869361 0.995061 0
-0.0435326 -0.0938236 0.994637 0
-0.0397499 -0.096852 0.994505 0
-0.0346977 -0.105331 0.993832 0
-0.0285679 -0.119441 0.99243 0
-0.0244979 -0.13043 0.991155 0
-0.0211974 -0.137225 0.990313 0
-0.0176063 -0.138109 0.990261 0
-0.0149793 -0.139538 0.990103 0
-0.0128948 -0.142703 0.989682 0
-0.0120119 -0.141441 0.989874 0
-0.0126161 -0.140925 0.98994 0
-0.0161368 -0.13581 0.990603 0
-0.0231157 -0.130138 0.991226 0
-0.0299287 -0.120229 0.992295 0
-0.0328376 -0.111842 0.993183 0
-0.0365269 -0.108991 0.993371 0
-0.0376723 -0.106502 0.993599 0
-0.0429635 -0.109747 0.99303 0
-0.0481282 -0.105298 0.993275 0
-0.0513785 -0.101877 0.993469 0.00653398
-0.0603986 -0.0908747 0.994029 0.0203714
-0.0716879 -0.0868743 0.993637 0.0369378
-0.0828103 -0.0855174 0.992889 0.053734
-0.0913297 -0.0835211 0.992312 0.0680128
-0.0939093 -0.0762057 0.99266 0.0727554
-0.0975899 -0.0696703 0.992785 0.0756409
-0.097409 -0.0638034 0.993197 0.0797504
-0.0941578 -0.0611829 0.993675 0.0798655
-0.0904996 -0.0619032 0.993971 0.075324
-0.0826145 -0.0704997 0.994085 0.069499
-0.0808496 -0.0720565 0.994118 0.0711823
-0.0781798 -0.0668907 0.994693 0.071317
-0.0765288 -0.0664228 0.994852 0.0675978
-0.0700532 -0.0690376 0.995151 0.0561284
-0.0635506 -0.0709506 0.995453 0.0442855
-0.0524002 -0.073412 0.995924 0.0245009
-0.0454288 -0.0815395 0.995634 0.00381869
-0.0408555 -0.0860351 0.995454 0
-0.0393569 -0.0932932 0.994861 0
-0.0397407 -0.0970318 0.994488 0
-0.0402487 -0.0948282 0.99468 0
-0.0424147 -0.0896517 0.99507 0
-0.0459075 -0.0861469 0.995224 0
-0.048739 -0.0890666 0.994832 0
-0.0498977 -0.0877553 0.994892 0
-0.0477909 -0.0841962 0.995302 0
-0.0449638 -0.0881562 0.995091 0
-0.0416474 -0.0852934 0.995485 0
-0.0407454 -0.089398 0.995162 0
-0.0379051 -0.085327 0.995632 0
-0.0343787 -0.085609 0.995735 0
-0.034457 -0.088448 0.995485 0
-0.0357387 -0.0825064 0.99595 0
-0.0336114 -0.0851039 0.995805 0
-0.0309494 -0.0845437 0.995939 0
-0.0294751 -0.0931466 0.995216 0
-0.0266502 -0.0890455 0.995671 0
-0.0259298 -0.0883097 0.995755 0
-0.0295486 -0.0813552 0.996247 0
-0.0323565 -0.0742388 0.996715 0
-0.0362271 -0.0733462 0.996648 0
-0.0404703 -0.0624766 0.997226 0
-0.0385514 -0.0669964 0.997008 0
-0.0372163 -0.0626566 0.997341 0
-0.0384866 -0.0676788 0.996965 0
-0.0392699 -0.0707284 0.996722 0
-0.038692 -0.0684616 0.996903 0
-0.0359616 -0.0744837 0.996574 0
-0.037373 -0.0724869 0.996669 0
-0.0371926 -0.081852 0.99595 0
-0.0393031 -0.0759217 0.996339 0
-0.0391321 -0.074209 0.996475 0
-0.0414633 -0.0695793 0.996714 0
-0.0466348 -0.060203 0.997096 0
-0.0522103 -0.0566161 0.99703 0
-0.0587133 -0.039877 0.997478 0
-0.0612211 -0.0280748 0.997729 0
-0.0620796 -0.0213597 0.997843 0
-0.0623217 -0.019461 0.997866 0
-0.0683447 -0.0131208 0.997576 0.00437806
-0.0642464 -0.0105324 0.997878 0.00145073
-0.0620754 -0.00715289 0.998046 0.00366271
-0.061023 -0.00168174 0.998135 0.00358847
-0.0634095 -0.000340712 0.997988 0.00288859
-0.0614685 0.00439537 0.998099 0.00461331
-0.0581507 0.00727708 0.998281 8.61003e-05
-0.058333 0.0112677 0.998234 0.00437489
-0.0593445 0.0161103 0.998108 0.00790021
-0.059027 0.0217386 0.99802 0.0175471
-0.0588899 0.0280397 0.997871 0.0232332
-0.0567847 0.0268136 0.998026 0.0212737
-0.0541642 0.0312309 0.998043 0.0216362
-0.0527507 0.0349297 0.997997 0.0217548
-0.0560245 0.0380986 0.997702 0.0284117
-0.0590189 0.0375905 0.997549 0.0317801
-0.0598483 0.0461338 0.997141 0.0355309
-0.062873 0.0482148 0.996856 0.0401723
-0.0643749 0.0508615 0.996629 0.0343544
-0.0647252 0.0463246 0.996827 0.0299719
-0.0590545 0.039367 0.997478 0.019409
-0.0585316 0.0364885 0.997618 0.0120262
-0.0574941 0.0389162 0.997587 0.00820065
-0.0567265 0.039037 0.997626 0.00217624
-0.0548308 0.0422707 0.997601 0.000936246
-0.0544874 0.0417983 0.997639 0.00282729
-0.0536761 0.0442011 0.99758 0.000365041
-0.0563011 0.059934 0.996613 0.00581352
-0.0586724 0.0726792 0.995628 0.0143351
-0.0617999 0.088291 0.994176 0.0246482
-0.068231 0.107367 0.991875 0.0342334
-0.0693741 0.120093 0.990336 0.0331978
-0.0690432 0.119204 0.990466 0.0280572
-0.0670253 0.118114 0.990735 0.0286999
-0.066112 0.124902 0.989964 0.0286349
-0.0671432 0.141275 0.987691 0.0314484
-0.0683609 0.145299 0.987023 0.0278611
-0.0727192 0.165102 0.983592 0.029652
-0.0733669 0.176292 0.9816 0.0292233
-0.075933 0.20066 0.976714 0.0355715
-0.0790145 0.231487 0.969624 0.0415901
-0.0794838 0.25288 0.964227 0.0461826
-0.0778785 0.246709 0.965955 0.0418479
-0.0683387 0.198172 0.977782 0.0195294
-0.0660477 0.188018 0.979942 0.00961691
-0.0466421 -0.174667 0.983522 0
-0.0447347 -0.180603 0.982538 0
-0.044325 -0.168016 0.984787 0
-0.0477118 -0.164558 0.985213 0
-0.0471184 -0.158294 0.986267 0
-0.0500872 -0.151026 0.98726 0
-0.0507128 -0.144031 0.988273 0
-0.0534115 -0.125857 0.99061 0
-0.0545581 -0.111289 0.992289 0
-0.0567707 -0.101455 0.993219 0.0025927
-0.0590029 -0.104156 0.992809 0.00811923
-0.065507 -0.099564 0.992873 0.0227458
-0.0695998 -0.0844653 0.993993 0.0225763
-0.0697507 -0.078519 0.99447 0.020409
-0.0694977 -0.0671272 0.995321 0.0171907
-0.0707807 -0.0612492 0.99561 0.0187531
-0.068051 -0.0596297 0.995898 0.0136786
-0.0667971 -0.0594685 0.995993 0.0126202
-0.0680612 -0.0535831 0.996241 0.012577
-0.0682867 -0.0533483 0.996238 0.00875735
-0.068759 -0.0452504 0.996607 0.0077027
-0.0675687 -0.035389 0.997087 0.00810898
-0.0680409 -0.0340985 0.9971 0.0120559
-0.0680997 -0.0350626 0.997062 0.015342
-0.0676512 -0.0341192 0.997125 0.0146672
-0.0692591 -0.038096 0.996871 0.0209764
-0.0703019 -0.0428003 0.996607 0.0224699
-0.0726393 -0.0409261 0.996518 0.0284749
-0.0765961 -0.0335853 0.996496 0.0336668
-0.0780209 -0.02897 0.996531 0.0385588
-0.0820764 -0.0275383 0.996246 0.0449611
-0.0823289 -0.0268103 0.996244 0.0468368
-0.0857767 -0.0268197 0.995953 0.0505383
-0.0857883 -0.0261957 0.995969 0.0490648
-0.0853509 -0.0207322 0.996135 0.0449658
-0.0873427 -0.0293241 0.995747 0.0437826
-0.0859208 -0.036706 0.995626 0.03854
-0.0861544 -0.0406873 0.995451 0.0331765
-0.0841663 -0.0367781 0.995773 0.0308289
-0.0814419 -0.0327516 0.99614 0.0258715
-0.0782001 -0.027671 0.996554 0.0180649
-0.07794 -0.0257257 0.996626 0.0137409
-0.0806399 -0.0184464 0.996573 0.0207217
-0.0862629 -0.0114945 0.996206 0.0282683
-0.0849937 -0.00664679 0.996359 0.0235324
-0.0864686 0.00151636 0.996253 0.0280704
-0.0851517 0.0071207 0.996343 0.0269328
-0.0841324 0.0100218 0.996404 0.0332608
-0.085357 0.0128174 0.996268 0.037462
-0.0815063 0.010324 0.996619 0.0376834
-0.0808643 0.0111811 0.996662 0.039877
-0.0794447 0.0137307 0.996745 0.0410327
-0.0758449 0.0167502 0.996979 0.0400663
-0.0685659 0.014952 0.997535 0.0336972
-0.0663206 0.0176688 0.997642 0.0337553
-0.0610419 0.0190956 0.997953 0.0309082
-0.0574448 0.0204143 0.99814 0.0261348
-0.0541082 0.0226872 0.998277 0.017931
-0.0551327 0.0240285 0.99819 0.0128335
-0.055903 0.0253648 0.998114 0.0153795
-0.0609347 0.0300487 0.997689 0.0253514
-0.063857 0.0277736 0.997573 0.0266731
-0.0626448 0.0268399 0.997675 0.0264505
-0.0621413 0.0246911 0.997762 0.0189573
-0.0601207 0.0233101 0.997919 0.0139951
-0.0599189 0.0200088 0.998003 0.0117155
-0.0638764 0.0196832 0.997764 0.0164187
-0.0654653 0.0227949 0.997594 0.0177571
-0.060894 0.0202412 0.997939 0.00728393
-0.0574133 0.0173067 0.9982 0.000776269
-0.05773 0.0218931 0.998092 0.0038598
-0.0599921 0.0293351 0.997768 0.00724251
-0.0599659 0.0314852 0.997704 0.00864834
-0.0550246 0.0331464 0.997935 0.00442848
-0.0512631 0.039068 0.997921 0.000419071
-0.0464542 0.0452793 0.997894 0.00746478
-0.0435465 0.0472919 0.997931 0.00864051
-0.0426075 0.0515699 0.99776 0.0160357
-0.0472314 0.058496 0.99717 0.0279204
-0.0519323 0.0617277 0.996741 0.0311168
-0.0578484 0.0650839 0.996202 0.0410241
-0.0613378 0.0664089 0.995905 0.0448828
-0.0665788 0.0659668 0.995598 0.0492433
-0.063001 0.0620813 0.996081 0.0469077
-0.0608461 0.0548247 0.99664 0.0405563
-0.0575439 0.046733 0.997249 0.0305705
-0.0551788 0.0386826 0.997727 0.0201467
-0.0547767 0.0346955 0.997896 0.0158185
-0.0529167 0.0296138 0.99816 0.00872184
-0.0546154 0.0298375 0.998062 0.0090805
-0.0550949 0.0331615 0.99793 0.00776583
-0.0581255 0.0387018 0.997559 0.0134794
-0.0622374 0.0452403 0.997036 0.0209496
-0.065176 0.0529085 0.99647 0.0304888
-0.0665091 0.0554486 0.996244 0.0332194
-0.0660476 0.0587655 0.996085 0.0316067
-0.0673097 0.0665815 0.995508 0.0333879
-0.0636456 0.0648328 0.995864 0.0358303
-0.0606282 0.0631036 0.996164 0.0384644
-0.0585658 0.0652317 0.99615 0.0417573
-0.0582152 0.0636403 0.996274 0.0399257
-0.0584019 0.0615531 0.996394 0.0410045
-0.0601809 0.0623765 0.996237 0.0419947
-0.0612623 0.0596009 0.996341 0.0366191
-0.055955 0.0553966 0.996895 0.0312288
-0.0541263 0.0514998 0.997205 0.0247745
-0.0515491 0.0481071 0.997511 0.0163728
-0.044913 0.0428287 0.998072 0.0010326
-0.0409311 0.0383094 0.998427 0
-0.040508 0.0356787 0.998542 0
-0.0424771 0.0325916 0.998566 0
-0.0424955 0.0292834 0.998667 0
-0.0446398 0.0279396 0.998612 0
-0.046158 0.0254156 0.998611 0
-0.0508504 0.0286458 0.998295 0
-0.0572763 0.0326485 0.997824 0
-0.0619578 0.0345492 0.997481 0
-0.0632142 0.0325707 0.997468 0
-0.0663441 0.0358447 0.997153 0.00996137
-0.072945 0.0417775 0.996461 0.0256203
-0.0784483 0.047876 0.995768 0.0403401
-0.080181 0.0539032 0.995322 0.0469807
-0.0822976 0.0592557 0.994845 0.055016
-0.085335 0.0612638 0.994467 0.0629409
-0.0910216 0.0646256 0.99375 0.0748741
-0.0917617 0.0640355 0.99372 0.0771567
-0.103343 0.0687757 0.992265 0.0892551
-0.114445 0.0750231 0.990593 0.098442
-0.124678 0.0807377 0.988907 0.107296
-0.129555 0.0842155 0.987989 0.11518
-0.1333 0.0836021 0.987543 0.121887
-0.139285 0.0862114 0.986492 0.12567
-0.146048 0.0885722 0.985304 0.128802
-0.150118 0.0915959 0.984416 0.130912
-0.156912 0.100754 0.98246 0.135706
-0.16316 0.106325 0.980854 0.140015
-0.167327 0.106824 0.980097 0.142366
-0.169544 0.105752 0.979832 0.145268
-0.169049 0.101774 0.980339 0.145244
-0.165471 0.100259 0.981105 0.142446
-0.165369 0.10112 0.981034 0.140573
-0.153285 0.0948162 0.983623 0.133639
-0.146482 0.0869894 0.985381 0.129613
-0.135946 0.0805487 0.987436 0.121492
-0.120383 0.0684296 0.990366 0.10968
-0.105451 0.0553381 0.992884 0.0976631
-0.0920705 0.0448413 0.994742 0.08619
-0.0797731 0.0325522 0.996281 0.0737934
-0.0712438 0.0197336 0.997264 0.0618422
-0.0673155 0.00798283 0.9977 0.0530669
-0.0689932 -0.00182709 0.997615 0.0498138
-0.0678098 -0.00810156 0.997665 0.0420282
-0.0677453 -0.0105134 0.997647 0.0410241
-0.0654994 -0.0133827 0.997763 0.0403471
-0.0650515 -0.0150862 0.997768 0.0391534
-0.0649364 -0.0153522 0.997771 0.039487
-0.0628228 -0.015648 0.997902 0.0370701
-0.0571877 -0.0153438 0.998246 0.0375548
-0.0569941 -0.0135719 0.998282 0.0395041
-0.0574962 -0.0120389 0.998273 0.0407622
-0.0611394 -0.0106588 0.998072 0.0479619
-0.065006 -0.01064 0.997828 0.0573418
-0.0692772 -0.0133792 0.997508 0.0617272
-0.0711038 -0.0162979 0.997336 0.0617871
-0.0681844 -0.0180405 0.99751 0.0617811
-0.0641632 -0.0208563 0.997721 0.0544727
-0.0595014 -0.0226815 0.997971 0.0466478
-0.0585921 -0.0251967 0.997964 0.0457371
-0.0537216 -0.0292226 0.998128 0.0353812
-0.0510973 -0.0301369 0.998239 0.0279563
-0.0471616 -0.031 0.998406 0.0193699
-0.0473179 -0.0279914 0.998488 0.0132114
-0.0474218 -0.0238876 0.998589 0.00738845
-0.0456582 -0.0294655 0.998523 0
-0.0450073 -0.0337217 0.998417 0
-0.0439683 -0.0393064 0.998259 0
-0.0418216 -0.0415498 0.998261 0
-0.0364865 -0.044426 0.998346 0
-0.0317909 -0.048285 0.998328 0
-0.0270549 -0.054614 0.998141 0
-0.0208445 -0.0646104 0.997693 0
-0.0181635 -0.0736239 0.997121 0
-0.0154392 -0.0813954 0.996562 0
-0.0126327 -0.0862862 0.99619 0
-0.0114664 -0.088321 0.996026 0
-0.0107878 -0.0948942 0.995429 0
-0.00833031 -0.101026 0.994849 0
-0.00564289 -0.105946 0.994356 0
0.00113757 -0.113202 0.993571 0
0.00772575 -0.118832 0.992884 0
0.0149314 -0.120591 0.99259 0
0.0176659 -0.120327 0.992577 0
0.0193464 -0.121194 0.99244 0
0.016998 -0.116993 0.992987 0
0.0134252 -0.11505 0.993269 0
0.00530909 -0.112081 0.993685 0
-0.00347065 -0.104594 0.994509 0
-0.0111328 -0.0926213 0.995639 0
-0.0192421 -0.0847697 0.996215 0
-0.0267498 -0.0813151 0.996329 0
-0.0308331 -0.0709228 0.997005 0
-0.0330126 -0.0642947 0.997385 0
-0.0354485 -0.0599422 0.997572 0
-0.0388619 -0.0515126 0.997916 0
-0.0411258 -0.0435647 0.998204 0
-0.0454611 -0.0378539 0.998249 0.000486999
-0.0502097 -0.0358963 0.998093 0.00415542
-0.0545574 -0.0355822 0.997876 0.0110427
-0.0593814 -0.0322863 0.997713 0.0178748
-0.0626067 -0.0309792 0.997557 0.0208171
-0.0655656 -0.026777 0.997489 0.026266
-0.0691857 -0.0266469 0.997248 0.0331872
-0.0682134 -0.02716 0.997301 0.0353101
-0.0672871 -0.0285276 0.997326 0.0400489
-0.0610549 -0.0405331 0.997311 0.036064
-0.0601522 -0.0361499 0.997534 0.0409548
-0.060059 -0.0376582 0.997484 0.040936
-0.0596363 -0.031362 0.997727 0.0384544
-0.061988 -0.0360308 0.997426 0.0360683
-0.0649435 -0.0361669 0.997233 0.0323239
-0.0661314 -0.040273 0.996998 0.0248357
-0.0622653 -0.0452311 0.997034 0.0166304
-0.0609901 -0.0395706 0.997354 0.0122212
-0.054176 -0.0441983 0.997553 0.00523841
-0.0498624 -0.0432234 0.99782 0.00403619
-0.0451793 -0.0500743 0.997723 0.00657856
-0.042308 -0.0489812 0.997903 0.0106042
-0.0377467 -0.0496404 0.998054 0.00994868
-0.036591 -0.0550053 0.997815 0.00724775
-0.0379545 -0.0480642 0.998123 0.00488648
-0.0441331 -0.0473381 0.997903 0.00908855
-0.0444183 -0.0396291 0.998227 0.0117631
-0.0441873 -0.0451141 0.998004 0.00580175
-0.0424594 -0.0539979 0.997638 0
-0.0419015 -0.0579886 0.997437 0
-0.0386407 -0.0629046 0.997271 0
-0.0383995 -0.0617718 0.997351 0
-0.0375169 -0.0662538 0.997097 0
-0.0367203 -0.0574999 0.99767 0
-0.0380931 -0.0573729 0.997626 0
-0.0394385 -0.0601553 0.99741 0
-0.0462068 -0.0567242 0.99732 0
-0.053732 -0.0563914 0.996962 0
-0.0621072 -0.0476505 0.996931 0.0109968
-0.0682655 -0.0506387 0.996381 0.0215385
-0.0731081 -0.0414467 0.996462 0.0315091
-0.0736093 -0.038466 0.996545 0.0399425
-0.071049 -0.041483 0.99661 0.0456749
-0.0661298 -0.0390432 0.997047 0.0482205
-0.0658721 -0.0435311 0.996878 0.0535029
-0.0640859 -0.0332953 0.997389 0.0595512
-0.0649613 -0.0382147 0.997156 0.0598494
-0.0662656 -0.0355747 0.997168 0.0633109
-0.0672622 -0.0333056 0.997179 0.0584006
-0.0704347 -0.0361962 0.996859 0.056714
-0.0714121 -0.0364503 0.996781 0.0572711
-0.0701037 -0.0452189 0.996514 0.049278
-0.0674364 -0.0450476 0.996706 0.0415026
-0.0644906 -0.0512938 0.996599 0.0333057
-0.0590942 -0.0535433 0.996815 0.0209596
-0.0505474 -0.057918 0.997041 0.00482574
-0.041741 -0.0690146 0.996742 0
-0.0343301 -0.0743815 0.996639 0
-0.0267705 -0.0837976 0.996123 0
-0.0211366 -0.0885818 0.995845 0
-0.0161728 -0.0972584 0.995128 0
-0.015804 -0.101897 0.994669 0
-0.0135801 -0.108452 0.994009 0
-0.0185929 -0.112584 0.993468 0
-0.0231154 -0.106984 0.993992 0
-0.0257886 -0.106783 0.993948 0
-0.0303797 -0.0994741 0.994576 0
-0.0358676 -0.0864214 0.995613 0
-0.0384477 -0.0809006 0.99598 0
-0.0419707 -0.0752179 0.996283 0.0109395
-0.0447642 -0.0749596 0.996181 0.0167544
-0.0475902 -0.0740286 0.99612 0.0240545
-0.0514294 -0.0723931 0.996049 0.0263073
-0.0552765 -0.0702635 0.995996 0.0207395
-0.0535671 -0.0684794 0.996213 0.013424
-0.0561303 -0.0722717 0.995804 0.0114677
-0.0578714 -0.0745367 0.995538 0.00775292
-0.0580803 -0.0789142 0.995188 0.00686355
-0.0565634 -0.0761862 0.995488 0
-0.0558097 -0.0803713 0.995201 0
-0.0527788 -0.0869558 0.994813 0
-0.0485845 -0.0911597 0.99465 0
-0.0445435 -0.0995344 0.994037 0
-0.0404862 -0.0960498 0.994553 0
-0.033136 -0.109963 0.993383 0
-0.0259129 -0.121338 0.992273 0
-0.0226581 -0.133132 0.990839 0
-0.0160391 -0.144478 0.989378 0
-0.0133186 -0.144778 0.989375 0
-0.0109298 -0.148897 0.988792 0
-0.0115266 -0.146148 0.989196 0
-0.0108751 -0.147628 0.988983 0
-0.0110783 -0.14412 0.989498 0
-0.0150472 -0.142262 0.989715 0
-0.0199665 -0.134094 0.990767 0
-0.0248309 -0.122 0.99222 0
-0.0296844 -0.115635 0.992848 0
-0.0332759 -0.111141 0.993247 0
-0.0391565 -0.101791 0.994035 0
-0.043108 -0.105025 0.993535 0
-0.0467458 -0.104952 0.993378 0
-0.0535378 -0.100391 0.993507 0.0108132
-0.0652926 -0.0912414 0.993686 0.025892
-0.0784028 -0.0870856 0.993111 0.0445182
-0.0903447 -0.082975 0.992448 0.0617697
-0.0963113 -0.0800931 0.992124 0.0692962
-0.0974538 -0.075755 0.992353 0.0725753
