0.0470307 0.0211777 0.998669 0
0.0479386 0.0238171 0.998566 0
0.0485935 0.0243437 0.998522 0
0.0483738 0.0241227 0.998538 0
0.0492365 0.0250163 0.998474 0
0.0485604 0.0237162 0.998539 0
0.0489736 0.0240652 0.99851 0
0.0492579 0.0228526 0.998525 0.000576433
0.0487464 0.0240388 0.998522 0.00169301
0.0490475 0.0236448 0.998516 0.0033467
0.0493112 0.0233683 0.99851 0.00220528
0.0494804 0.0262927 0.998429 0.00221571
0.0503315 0.0253221 0.998412 0.00292748
0.0508409 0.0251752 0.998389 0.00100354
0.0517783 0.0255434 0.998332 0.00108735
0.0514658 0.0266148 0.99832 0.00079281
0.052474 0.0250466 0.998308 0.00108653
0.0531716 0.0272747 0.998213 0
0.0534534 0.0284941 0.998164 0
0.0539332 0.0300263 0.998093 0
0.0543356 0.0299703 0.998073 0
0.0537956 0.0305383 0.998085 0
0.0548435 0.0315465 0.997996 0
0.0555439 0.031247 0.997967 0
0.0559524 0.0319116 0.997923 0
0.0561545 0.030649 0.997952 0
0.0567148 0.0298547 0.997944 0.00209023
0.0568605 0.0321216 0.997865 0.00120264
0.0569047 0.0312796 0.99789 0.00150823
0.0575896 0.033536 0.997777 0.00124541
0.0582143 0.0326338 0.997771 0.000780118
0.0588185 0.0333418 0.997712 0.000570354
0.0598733 0.0355595 0.997572 0
0.060692 0.0386579 0.997408 0
0.0608511 0.0403614 0.99733 0
0.0611911 0.036106 0.997473 0.000134797
0.0618446 0.037272 0.99739 0
0.0620849 0.035606 0.997436 0.00278559
0.0621359 0.0343783 0.997475 0.00444446
0.0617487 0.0316563 0.99759 0.00492801
0.0630221 0.0315022 0.997515 0.00329566
0.0639176 0.032375 0.99743 0.00303213
0.063997 0.0319638 0.997438 0.00230086
0.0644546 0.0297007 0.997479 0.00313224
0.0652095 0.0292122 0.997444 0.00206729
0.0650336 0.0302181 0.997425 0.0045695
0.0647846 0.0298719 0.997452 0.0062803
0.0655496 0.0318409 0.997341 0.00434105
0.0656378 0.0340281 0.997263 0.00305225
0.0656971 0.0338258 0.997266 0.00244428
0.0662158 0.0327345 0.997268 0.00143679
0.0660352 0.0331968 0.997265 0.0023841
0.0669933 0.0329839 0.997208 0.0027387
0.0677977 0.0334664 0.997138 0.00166725
0.067664 0.0352552 0.997085 0
0.0674627 0.033909 0.997145 0
0.0680867 0.0321542 0.997161 0
0.0689879 0.0320091 0.997104 0
0.0702585 0.0321307 0.997011 0
0.0706951 0.0312008 0.99701 0
0.070851 0.0270466 0.99712 0
0.0710845 0.0239925 0.997182 0
0.0712051 0.0224345 0.997209 0.00148941
0.071856 0.022317 0.997165 0
0.0724357 0.0198631 0.997175 0.000519886
0.0734996 0.0172034 0.997147 0.00125243
0.0740332 0.0160085 0.997127 0.000505231
0.0742851 0.0123131 0.997161 0.00180723
0.074489 0.0121911 0.997147 0.00100835
0.0743202 0.00955738 0.997189 0.00115726
0.0748644 0.00764629 0.997164 0.00110044
0.073944 0.00511993 0.997249 0.00340873
0.0734281 0.00493257 0.997288 0.00231562
0.0733917 0.00498485 0.997291 0.00131029
0.0735922 0.00578586 0.997272 0
0.0726222 0.0029664 0.997355 0.000102554
0.0738038 0.00320413 0.997268 0
0.0738989 0.00183202 0.997264 0
0.0739584 0.00115046 0.997261 0.000339646
0.073817 -9.53681e-05 0.997272 9.45807e-05
0.0740038 -0.000712197 0.997258 0
0.0737979 -0.00397484 0.997265 0.00201526
0.0736765 -0.00673542 0.997259 0.00251322
0.0740676 -0.00801564 0.997221 0.000610542
0.0746386 -0.00950766 0.997165 0
0.0748632 -0.0107998 0.997135 0
0.0755371 -0.0113449 0.997078 0
0.0761503 -0.0132775 0.997008 0
0.0760787 -0.014346 0.996999 0
0.0763345 -0.0159631 0.996954 0.0019
0.0766835 -0.018761 0.996879 0.00414168
0.0763341 -0.0220305 0.996839 0.00701841
0.0775678 -0.0220573 0.996743 0.00756954
0.0777018 -0.0213376 0.996748 0.00526553
0.0782774 -0.022004 0.996689 0.00473792
0.0783967 -0.021478 0.996691 0.00227586
0.0796992 -0.0223204 0.996569 0.0019133
0.078899 -0.0242668 0.996587 0.00194951
0.0787061 -0.0276014 0.996516 0.00308569
0.0792881 -0.026817 0.996491 0.000897784
0.0786619 -0.031021 0.996419 0.00417135
0.0791395 -0.0314587 0.996367 0.0034677
0.078671 -0.0325286 0.99637 0.00298163
0.0789582 -0.0338298 0.996304 0.00217105
0.0790859 -0.0339751 0.996289 0.000381437
0.0796115 -0.0350838 0.996208 0.000507124
0.0799955 -0.0364594 0.996128 0.000175083
0.0794543 -0.0393203 0.996063 0.00185624
0.0794035 -0.0420825 0.995954 0.00298577
0.0792731 -0.0417018 0.99598 0.00170108
0.0799007 -0.0410095 0.995959 0
0.080551 -0.0403105 0.995935 0
0.0810525 -0.0407027 0.995878 0
0.080788 -0.0427037 0.995816 0
0.0803303 -0.043224 0.995831 0
0.0799858 -0.0435785 0.995843 0
0.0800861 -0.0440245 0.995815 0
0.0798219 -0.0440494 0.995835 0
0.0793185 -0.0437189 0.99589 0
0.079655 -0.0420907 0.995933 0
0.0804218 -0.0413603 0.995902 0
0.0799571 -0.0419242 0.995916 0
0.0793329 -0.0440453 0.995875 0.0020783
0.0797051 -0.0487184 0.995627 0.00245311
0.0793372 -0.0492542 0.99563 0.00236771
0.0796694 -0.0514693 0.995492 0.00333744
0.0795045 -0.0532436 0.995412 0.00205347
0.0799266 -0.0529118 0.995395 0
0.0799027 -0.0544283 0.995316 0
0.0796739 -0.0565231 0.995217 0
0.0801349 -0.0572424 0.995139 0
0.0803375 -0.0584394 0.995053 0
0.0801632 -0.0593989 0.99501 0.000422342
0.0801873 -0.0602741 0.994956 0.000367342
0.0817926 -0.0580157 0.994959 0
0.0816264 -0.0581457 0.994965 0
0.0816639 -0.0565131 0.995056 0
0.0818367 -0.0573585 0.994994 0
0.080654 -0.0582646 0.995038 0
0.0797123 -0.0590928 0.995065 0
0.0798935 -0.0590993 0.99505 0
0.078947 -0.0572477 0.995234 0
0.0792911 -0.0556045 0.9953 0
0.0790721 -0.0556234 0.995316 0
0.0780782 -0.0539522 0.995486 0
0.0778839 -0.0545101 0.995471 0
0.0777442 -0.0545846 0.995478 0.000602268
0.0773763 -0.0557837 0.99544 0.00151369
0.0763241 -0.056585 0.995476 0.00194185
0.0761631 -0.0573036 0.995447 0.00297457
0.075438 -0.0561911 0.995566 0.0026084
0.074817 -0.0578823 0.995516 0.00286996
0.0747004 -0.0571409 0.995568 0.00159381
0.0747873 -0.0563998 0.995603 0.000553956
0.0742855 -0.0583965 0.995526 0.00258497
0.0743016 -0.0579697 0.995549 0.00158957
0.0746825 -0.0583781 0.995497 0.00206114
0.0747547 -0.0576918 0.995532 0.000155605
0.0739053 -0.0574626 0.995608 0.00171228
0.0740405 -0.0569253 0.995629 0.00162876
0.0736247 -0.0576502 0.995618 0.00161633
0.0725656 -0.0586615 0.995637 0.00223535
0.0720702 -0.0584559 0.995685 0.00162977
0.072049 -0.057687 0.995731 0.0021376
0.0705117 -0.0582133 0.995811 0.00319766
0.0693331 -0.0596156 0.995811 0.00677905
0.0687471 -0.056731 0.99602 0.00558382
0.0687694 -0.0546732 0.996133 0.00299016
0.0676702 -0.0554967 0.996163 0.00163225
0.067117 -0.0558726 0.996179 0.000841742
0.065908 -0.0578247 0.996149 0.00286425
0.0651625 -0.0583044 0.99617 0.00412566
0.064438 -0.0592955 0.996158 0.00456241
0.0637061 -0.0595505 0.99619 0.00408602
0.0635696 -0.0601033 0.996166 0.00278465
0.0621124 -0.0594336 0.996298 0.00270748
0.0619121 -0.0589057 0.996342 0.00175786
0.061437 -0.0604625 0.996278 0.00449997
0.0603524 -0.0615894 0.996275 0.00609969
0.0601348 -0.0617337 0.996279 0.00562087
0.0589175 -0.0631311 0.996265 0.00880749
0.0579358 -0.0644959 0.996235 0.0087333
0.0571846 -0.0649682 0.996247 0.00788439
0.0568166 -0.06551 0.996233 0.00776899
0.0566398 -0.0669623 0.996147 0.00804929
0.055378 -0.0687937 0.996093 0.010155
0.0548605 -0.0705384 0.995999 0.0107277
0.0553401 -0.0693449 0.996057 0.00774075
0.0538313 -0.0703115 0.996072 0.00758479
0.053696 -0.0702374 0.996084 0.00685686
0.0535481 -0.0692128 0.996164 0.00599237
0.0530036 -0.0699367 0.996142 0.00437045
0.0518708 -0.0703566 0.996172 0.00410829
0.0515364 -0.072059 0.996068 0.00519313
0.0509809 -0.0707386 0.996191 0.00289154
0.0497224 -0.0706979 0.996258 0.00270874
0.0491654 -0.0703454 0.99631 0.00133465
0.0489387 -0.0722709 0.996184 0.00268823
0.0476316 -0.0742636 0.9961 0.00371829
0.0467976 -0.0756268 0.996037 0.00473274
0.0470984 -0.0754192 0.996039 0.00265276
0.046568 -0.0759762 0.996022 0.00285568
0.0461256 -0.0762028 0.996025 0.00163937
0.0456838 -0.0778884 0.995915 0.00306066
0.0457111 -0.0785235 0.995864 0.00303886
0.0450989 -0.0794635 0.995817 0.00372669
0.0450475 -0.0796773 0.995802 0.00291447
0.0448202 -0.0783981 0.995914 0
0.044187 -0.0781372 0.995963 0
0.0442643 -0.076904 0.996055 0
0.0430351 -0.0771022 0.996094 7.77638e-05
0.043223 -0.0763569 0.996143 0
0.042629 -0.0766037 0.99615 0
0.0424511 -0.0773552 0.996099 0
0.0419283 -0.0780462 0.996068 0
0.0404857 -0.0799002 0.99598 0
0.0411312 -0.0804557 0.995909 0
0.041065 -0.0803334 0.995922 0
0.0415272 -0.0797844 0.995947 0
0.0402687 -0.0814447 0.995864 0
0.0398233 -0.0826878 0.99578 0.000503466
0.0400684 -0.0825958 0.995777 0
0.0407368 -0.0834338 0.99568 0
0.0402596 -0.0856942 0.995508 0
0.0402315 -0.0863145 0.995455 0
0.0405054 -0.0861225 0.995461 0
0.0410871 -0.0861684 0.995433 0
0.0404892 -0.0861681 0.995458 0
0.0390839 -0.0892617 0.995241 0
0.0381665 -0.0917881 0.995047 0
0.0386816 -0.0927387 0.994939 0
0.0374676 -0.0934524 0.994918 0
0.0379605 -0.0921385 0.995022 0
0.0372038 -0.0931856 0.994953 0.00139621
0.0368985 -0.0916684 0.995106 0
0.0367488 -0.091345 0.995141 0.000419424
0.0363576 -0.0926925 0.995031 0.000823723
0.0360625 -0.0923516 0.995073 0.00279011
0.0354319 -0.0929918 0.995036 0.00283508
0.0352897 -0.0926922 0.995069 0.00327268
0.0354081 -0.0927829 0.995057 0.0024544
0.0356443 -0.0935521 0.994976 0.0041882
0.0350846 -0.0940626 0.994948 0.00496661
0.035418 -0.0940757 0.994935 0.00488258
0.0341345 -0.0953577 0.994858 0.00766312
0.0348231 -0.0951792 0.994851 0.00640072
0.035251 -0.094646 0.994887 0.00520883
0.0351292 -0.0972892 0.994636 0.00612085
0.034987 -0.0997648 0.994396 0.00902749
0.0354251 -0.098466 0.99451 0.00668533
0.0355878 -0.0991133 0.99444 0.00784635
0.0349489 -0.0995946 0.994414 0.00920587
0.0349683 -0.0988315 0.99449 0.00972782
0.0350357 -0.096047 0.99476 0.00742165
0.0352976 -0.0929311 0.995047 0.00648123
0.0360633 -0.0888984 0.995388 0.00504579
0.0364572 -0.0878087 0.99547 0.00372083
0.0361966 -0.0894569 0.995333 0.00507262
0.0360542 -0.0884459 0.995428 0.0046134
0.0364061 -0.0858617 0.995642 0.00281175
0.0364696 -0.0863692 0.995596 0.00295094
0.036645 -0.0840543 0.995787 0.000865328
0.0371783 -0.0827634 0.995875 0
0.0372294 -0.0821351 0.995926 0
0.0365614 -0.0825374 0.995917 0
0.0361062 -0.0808882 0.996069 0.000256422
0.0359347 -0.0814477 0.99603 0.00170132
0.0360744 -0.0822509 0.995959 0.00272558
0.0361452 -0.0792101 0.996202 0.000236252
0.0353623 -0.0808716 0.996097 0.00197324
0.0342234 -0.0831007 0.995953 0.00543354
0.0343887 -0.0844573 0.995834 0.00686823
0.0331274 -0.0870784 0.995651 0.00962267
0.0335176 -0.0871114 0.995635 0.0087406
0.0335318 -0.0854088 0.995782 0.00780081
0.034333 -0.0820268 0.996039 0.00424962
0.0340074 -0.0814534 0.996097 0.00474209
0.0330984 -0.0805414 0.996202 0.00585228
0.0337617 -0.0799295 0.996229 0.00568285
0.033777 -0.0765179 0.996496 0.00331588
0.0339656 -0.0737644 0.996697 0.00173339
0.0340892 -0.0727106 0.99677 0.00130383
0.0342807 -0.0730848 0.996736 0.00180469
0.0336094 -0.0758809 0.99655 0.00281413
0.0329641 -0.079236 0.996311 0.00589899
0.0328407 -0.0781414 0.996401 0.00518455
0.0321951 -0.0767742 0.996529 0.00363209
0.032489 -0.0735454 0.996763 0.000583706
0.0328418 -0.0720624 0.996859 0.000427807
0.0329851 -0.0719929 0.99686 0
0.0322083 -0.071169 0.996944 0.000391409
0.0324317 -0.0689751 0.997091 0.000406454
0.0323928 -0.0682764 0.99714 0.00134349
0.0325413 -0.0670221 0.997221 0.00174589
0.0317134 -0.067836 0.997192 0.00527602
0.0304261 -0.0693515 0.997128 0.00793813
0.030318 -0.0701921 0.997073 0.0089946
0.0310272 -0.0698725 0.997073 0.00750796
0.0317737 -0.0699518 0.997044 0.00587121
0.0318002 -0.0693625 0.997085 0.00321753
0.031297 -0.0694384 0.997095 0.00573124
0.0312438 -0.0685734 0.997157 0.00545597
0.0308549 -0.0679964 0.997208 0.00426497
0.0305297 -0.0667751 0.997301 0.00141538
0.0302944 -0.0665583 0.997323 0.00280305
0.0300789 -0.0678133 0.997245 0.00370568
0.0298729 -0.067371 0.997281 0.00422878
0.0291677 -0.0658718 0.997402 0.00348161
0.0284212 -0.0684752 0.997248 0.00629305
0.0293956 -0.0672637 0.997302 0.00439094
0.0289947 -0.0669613 0.997334 0.0035057
0.0291804 -0.0683083 0.997237 0.0018278
0.0295313 -0.0680177 0.997247 0.00155636
0.0310905 -0.067603 0.997228 0
0.0306488 -0.0658032 0.997362 0
0.0306053 -0.0646159 0.997441 0
0.0299229 -0.0653655 0.997413 0
0.0297766 -0.0656844 0.997396 0
0.0295248 -0.0664164 0.997355 0.000432689
0.0293647 -0.0675789 0.997282 0.000604482
0.0295233 -0.069035 0.997177 0.00138235
0.0296458 -0.0719393 0.996968 0.00230158
0.0290453 -0.0743947 0.996806 0.00503896
0.0285701 -0.073954 0.996852 0.00587734
0.0297316 -0.0732186 0.996873 0.00431596
0.0299893 -0.0734896 0.996845 0.00398248
0.0292108 -0.0755941 0.996711 0.00557717
0.0298345 -0.0736911 0.996835 0.00348042
0.0303447 -0.0729444 0.996874 0.00182435
0.0309808 -0.070665 0.997019 0
0.0314164 -0.071051 0.996978 0
0.0316512 -0.0704543 0.997013 0
0.0319462 -0.0707706 0.996981 0
0.0322939 -0.0720653 0.996877 0
0.0321651 -0.073769 0.996756 0.000148182
0.0319637 -0.0767577 0.996537 0.00216954
0.0325535 -0.0765694 0.996533 0.00115701
0.0322954 -0.0767883 0.996524 0.000745144
0.0326564 -0.077298 0.996473 0.000286894
0.0333208 -0.0785542 0.996353 0
0.0330891 -0.0786279 0.996355 0
0.0332745 -0.0787897 0.996336 0.000309984
0.0338318 -0.0794211 0.996267 0.000247901
0.0338236 -0.0793372 0.996274 0.000354308
0.0339437 -0.0796291 0.996246 0.000222748
0.0339318 -0.0826689 0.995999 0
0.0343467 -0.0840846 0.995866 0
0.0342336 -0.0835175 0.995918 0
0.0339639 -0.0854537 0.995763 0
0.0346409 -0.0868983 0.995615 0
0.0340708 -0.0900338 0.995356 0.000406791
0.0337454 -0.0912459 0.995256 0.000585646
0.0343149 -0.091276 0.995234 0.000626876
0.034215 -0.0917195 0.995197 0.000649746
0.0347245 -0.0924512 0.995112 0
0.0349413 -0.0916256 0.99518 0
0.0348776 -0.0927318 0.99508 0
0.0352183 -0.0922895 0.995109 0
0.0350036 -0.0938741 0.994969 0
0.0349988 -0.0936837 0.994987 0
0.0348008 -0.096889 0.994687 0
0.0345663 -0.096968 0.994687 0
0.0347229 -0.0967523 0.994703 0
0.0348742 -0.100159 0.99436 0
0.034703 -0.101712 0.994208 0
0.0353959 -0.0986704 0.99449 0
0.0353573 -0.09888 0.994471 0
0.0361136 -0.0953532 0.994788 0
0.0348303 -0.0985934 0.994518 0
0.0348287 -0.0997822 0.9944 0
0.0336956 -0.101338 0.994281 0
0.0334472 -0.103093 0.994109 0.000288395
0.0339241 -0.10556 0.993834 0.000191859
0.034753 -0.102505 0.994125 0
0.034086 -0.105577 0.993827 0.000563156
0.0343676 -0.10516 0.993861 4.84257e-05
0.0334228 -0.109436 0.993432 0.00193321
0.033445 -0.107844 0.993605 0.00179292
0.0330233 -0.108599 0.993537 0.00216527
-0.0235795 0.0890072 0.995752 0.00494773
-0.0231001 0.0913204 0.995554 0.00304606
-0.0225251 0.0922871 0.995478 0.00165837
-0.0228742 0.0936709 0.99534 0.00411753
-0.0227773 0.0936743 0.995342 0.00330174
-0.0223562 0.0934257 0.995375 0.00278788
-0.0214125 0.0961871 0.995133 0.00295226
-0.0216981 0.0926085 0.995466 0.00311457
-0.0220304 0.089417 0.995751 0.00357501
-0.022509 0.0869639 0.995957 0.00416375
-0.0221343 0.0883285 0.995845 0.0028739
-0.0218591 0.0891476 0.995779 0.00239168
-0.021724 0.0878028 0.995901 0.00100143
-0.0204332 0.0909949 0.995642 0.000188322
-0.0210694 0.0846253 0.99619 0.00144529
-0.0211094 0.0842506 0.996221 0.00151812
-0.0209661 0.0847784 0.996179 0
-0.0209102 0.0849221 0.996168 0
-0.0205299 0.0852596 0.996147 0.000106742
-0.0206784 0.0852031 0.996149 0.000585424
-0.0200628 0.0873016 0.99598 0
-0.0204788 0.0858935 0.996094 0
-0.0202055 0.0840779 0.996254 0
-0.0208012 0.081571 0.99645 0.00140201
-0.0204481 0.0815749 0.996457 0.000769365
-0.0209519 0.0782977 0.99671 0.00383313
-0.0207616 0.0797804 0.996596 0.00321059
-0.0203005 0.080501 0.996548 0
-0.019874 0.0796234 0.996627 0
-0.019641 0.0805721 0.996555 0
-0.019795 0.0825521 0.99639 0
-0.0190635 0.0843868 0.996251 0
-0.0187583 0.0848845 0.996214 0
-0.0186739 0.085652 0.99615 0
-0.0182236 0.084086 0.996292 0
-0.0175571 0.0839933 0.996312 0
-0.0177677 0.0847028 0.996248 0
-0.0173182 0.0854541 0.996192 0
-0.0171788 0.0847671 0.996253 0
-0.0163177 0.0832987 0.996391 0
-0.0154201 0.0862922 0.99615 0
-0.0151207 0.083936 0.996356 0
-0.0140045 0.0858826 0.996207 0
-0.0145348 0.0845592 0.996312 0
-0.0137285 0.0870906 0.996106 0
-0.0138041 0.0893433 0.995905 0
-0.0137407 0.086056 0.996196 0
-0.0141706 0.0809976 0.996614 0
-0.0138229 0.0824794 0.996497 0
-0.01309 0.0825762 0.996499 0
-0.0129038 0.0804336 0.996676 0
-0.0128516 0.0797004 0.996736 0
-0.0123034 0.0779685 0.99688 0
-0.0127561 0.0757604 0.997044 0.00177552
-0.0129204 0.0738601 0.997185 0.00324648
-0.0127334 0.0720385 0.997321 0.00387051
-0.0123306 0.0724337 0.997297 0.00284627
-0.011535 0.073477 0.99723 0.00036353
-0.0116627 0.0703175 0.997456 0
-0.0109894 0.0700982 0.99748 0
-0.0112985 0.0658918 0.997763 0
-0.0110834 0.0663664 0.997734 0
-0.0120379 0.0643234 0.997856 0
-0.0123023 0.064035 0.997872 0
-0.0125463 0.0624517 0.997969 0.00127298
-0.012647 0.06195 0.997999 0.00281961
-0.0122001 0.0625873 0.997965 0.00340194
-0.0115962 0.0636277 0.997906 0.00400119
-0.0116362 0.0632865 0.997928 0.00410471
-0.0113212 0.0655855 0.997783 0.00246685
-0.0112706 0.0672864 0.99767 0.00178267
-0.0117004 0.0664734 0.99772 0.0032304
-0.0111724 0.064774 0.997837 0.00404104
-0.0108401 0.0639519 0.997894 0.00399163
-0.0111455 0.0616292 0.998037 0.00451801
-0.0100616 0.0622275 0.998011 0.0014962
-0.0103669 0.0600649 0.998141 0.00368779
-0.0103799 0.0600346 0.998142 0.0032921
-0.0106502 0.0588716 0.998209 0.00390739
-0.0110032 0.05657 0.998338 0.00515625
-0.0113754 0.0549826 0.998423 0.00435428
-0.0135964 0.0535721 0.998471 0.00796821
-0.0111593 0.0542669 0.998464 0.00331353
-0.0117947 0.0537479 0.998485 0.00385162
-0.0110956 0.0503644 0.998669 0.00653413
-0.0110292 0.0500029 0.998688 0.00748516
-0.0115877 0.0490474 0.998729 0.00793464
-0.00918755 0.0480206 0.998804 0.0063826
-0.0101122 0.0484486 0.998774 0.00745023
-0.00955991 0.0497489 0.998716 0.00637083
-0.00908154 0.047998 0.998806 0.00634767
-0.00958029 0.0475497 0.998823 0.00793665
-0.00918075 0.0489931 0.998757 0.00558848
-0.00781041 0.0500343 0.998717 0.00394484
-0.00695893 0.0501804 0.998716 0.00285247
-0.00639699 0.0485867 0.998798 0.00162437
-0.00467105 0.0494535 0.998765 0
-0.0037316 0.050501 0.998717 0
-0.0035547 0.0507348 0.998706 0
-0.00318014 0.0510279 0.998692 0
-0.00229444 0.0530624 0.998589 0
-0.00182536 0.0561768 0.998419 0
-0.000918256 0.0584748 0.998288 0
-0.00120701 0.0569894 0.998374 0
-0.00204632 0.056116 0.998422 0
-0.000517781 0.0589777 0.998259 0
-0.000222395 0.0559791 0.998432 0
-0.000220191 0.0577712 0.99833 0
-0.00151323 0.0552016 0.998474 0
0.00047692 0.0541888 0.998531 0
-0.000594675 0.0504225 0.998728 0
2.32066e-05 0.0462718 0.998929 0
-4.68097e-05 0.0432024 0.999066 0
-0.000199761 0.0402811 0.999188 0.000549646
-0.000497601 0.0376697 0.99929 0.00024537
7.90644e-05 0.0374496 0.999299 0
-0.000496678 0.0375287 0.999295 0.000877913
0.000120399 0.0372631 0.999305 0.0021875
0.000451826 0.0366638 0.999328 0.00255988
0.00043539 0.0341926 0.999415 0.00268846
-0.000235953 0.0349855 0.999388 0.00617906
-0.00025072 0.0323672 0.999476 0.00876731
0.000300335 0.0332908 0.999446 0.00803383
-0.000122408 0.0326469 0.999467 0.00899813
-0.000277419 0.0322886 0.999479 0.00857572
-0.000307167 0.0308267 0.999525 0.0104704
-0.000105109 0.0308394 0.999524 0.0109826
0.000579756 0.0311972 0.999513 0.00892098
0.00143306 0.031246 0.999511 0.00547589
0.00151759 0.0289387 0.99958 0.00538593
0.00181256 0.0299274 0.99955 0.00519297
0.00210144 0.0291882 0.999572 0.00453317
0.00292002 0.0289948 0.999575 0.00398373
0.00375638 0.0294869 0.999558 0.00154756
0.00452916 0.0299331 0.999542 0.00175229
0.00417062 0.0298079 0.999547 0.00278242
0.00488789 0.0319265 0.999478 0.0012293
0.00559853 0.0310255 0.999503 0.000355061
0.00667116 0.0310609 0.999495 0
0.0069061 0.0308178 0.999501 0
0.00713656 0.0292289 0.999547 0
0.00869157 0.0293335 0.999532 0
0.00856444 0.0290949 0.99954 0
0.00966588 0.0307976 0.999479 0
0.00842973 0.0278558 0.999576 0.00168912
0.00903105 0.0268959 0.999597 0.00159765
0.0102721 0.0283065 0.999547 8.71255e-05
0.0101678 0.0268288 0.999588 0.00073231
0.0115902 0.026176 0.99959 0
0.0111966 0.0241165 0.999646 0.000238957
0.0119373 0.0250747 0.999614 0
0.011926 0.0241919 0.999636 0
0.0125643 0.0248823 0.999611 0
0.0130186 0.0277986 0.999529 0
0.0130054 0.027337 0.999542 0
0.0139405 0.028583 0.999494 0
0.0132334 0.0284455 0.999508 0
0.0127308 0.0273515 0.999545 0
0.013293 0.0306978 0.99944 0
0.0128206 0.0299915 0.999468 0
0.0128861 0.0286211 0.999507 0
0.0133418 0.0301423 0.999457 0
0.0150021 0.0298049 0.999443 0
0.0147283 0.0286464 0.999481 0
0.0145485 0.0244409 0.999595 0.000997019
0.0150145 0.0256277 0.999559 0
0.0152249 0.0259604 0.999547 0
0.015793 0.0252936 0.999555 0.00152942
0.0174462 0.0274288 0.999471 0
0.0171307 0.025807 0.99952 0
0.0185143 0.0292682 0.9994 0
0.0182815 0.02756 0.999453 0
0.0190909 0.0309142 0.99934 0
0.0204 0.031287 0.999302 0
0.0208612 0.0325701 0.999252 0
0.0208885 0.0307181 0.99931 0
0.0228523 0.0290326 0.999317 0
0.0227943 0.025077 0.999426 0
0.0236727 0.0233106 0.999448 0
0.0230249 0.0202349 0.99953 0.00212295
0.0228294 0.0214533 0.999509 0.00180084
0.0232998 0.0228539 0.999467 0.000502422
0.0246259 0.0241171 0.999406 0
0.0249473 0.0239169 0.999403 0
0.0246423 0.0242106 0.999403 0
0.0250497 0.0224921 0.999433 0
0.026016 0.0226914 0.999404 0
0.0260425 0.0227081 0.999403 0
0.0268128 0.0218697 0.999401 0
0.0269402 0.0200245 0.999436 0
0.0275269 0.0220292 0.999378 0
0.0280468 0.0234407 0.999332 0
0.0288647 0.0265489 0.999231 0
0.0282025 0.024997 0.99929 0
0.0292033 0.0261542 0.999231 0
0.0301459 0.0248862 0.999236 0
0.0298542 0.0235636 0.999277 0
0.0306756 0.0244348 0.999231 0
0.0291854 0.0188038 0.999397 0
0.0301816 0.017816 0.999386 0
0.0305208 0.0174915 0.999381 0
0.0319943 0.0195477 0.999297 0
0.0318912 0.0174731 0.999339 0
0.0319924 0.0165166 0.999352 0
0.0338839 0.0167369 0.999286 0
0.0337683 0.0161758 0.999299 0
0.0341323 0.0160911 0.999288 0
0.0334944 0.0167028 0.999299 0
0.0326629 0.0136125 0.999374 0
0.0335423 0.0138565 0.999341 0
0.033814 0.0128159 0.999346 0
0.0332285 0.0108772 0.999389 0.00167505
0.0338741 0.0111897 0.999363 0.000474275
0.0345833 0.00966331 0.999355 0.00221802
0.0354183 0.0126157 0.999293 0
0.0350041 0.0118872 0.999316 0.000965941
0.0359196 0.0106263 0.999298 0.000421442
0.0362517 0.0101872 0.999291 0
0.0358362 0.00914657 0.999316 0
0.037584 0.00924946 0.999251 0
0.0371662 0.00819968 0.999275 0
0.0372763 0.0100162 0.999255 0
0.037218 0.0080101 0.999275 0
0.037676 0.00740656 0.999263 0
0.0381976 0.00756394 0.999242 0
0.0371629 0.00848959 0.999273 0
0.0369841 0.00704059 0.999291 0
0.0374927 0.00674793 0.999274 0
0.0383915 0.00839897 0.999227 0
0.0383076 0.00613267 0.999247 0
0.0380792 0.00707513 0.99925 0.000182937
0.0393522 0.009826 0.999177 0
0.0377178 0.00889882 0.999249 0
0.0373531 0.00859534 0.999265 0
0.0370283 0.00690438 0.99929 0
0.0374518 0.00773319 0.999268 0
0.0380786 0.0073351 0.999248 0
0.0384649 0.00916213 0.999218 0
0.0382811 0.00739067 0.99924 0
0.0396537 0.00913472 0.999172 0
0.0405956 0.0131322 0.999089 0
0.0414906 0.0135035 0.999048 0
0.0412401 0.0129038 0.999066 0
0.0418856 0.01405 0.999024 0
0.0412887 0.0114903 0.999081 0
0.0423959 0.0103911 0.999047 0
0.0423977 0.0102892 0.999048 0
0.0434959 0.0114213 0.998988 0
0.0435866 0.0126041 0.99897 0
0.0442045 0.0143774 0.998919 0
0.0444988 0.0138765 0.998913 0
0.0445559 0.0152868 0.99889 0
0.0448487 0.0140481 0.998895 0
0.0459096 0.0167756 0.998805 0
0.045955 0.0166151 0.998805 0
0.0470592 0.0214438 0.998662 0
0.0486791 0.0238422 0.99853 0
0.0484513 0.0245972 0.998523 0
0.0489312 0.0249337 0.998491 0
0.0496795 0.0257911 0.998432 0
0.0487344 0.0256333 0.998483 0
0.0495891 0.0270379 0.998404 0
0.0487235 0.0251479 0.998496 0
0.04827 0.0233434 0.998562 0
0.0484486 0.0229344 0.998562 0.00178541
0.0486044 0.0249497 0.998506 0.000877535
0.0485106 0.0258886 0.998487 0.00197444
0.0485284 0.0250794 0.998507 0.00118248
0.0490055 0.026414 0.998449 0
0.0493394 0.0277137 0.998397 0
0.0497922 0.0262471 0.998415 0
0.0509509 0.0252945 0.998381 0
0.0506354 0.0253241 0.998396 0
0.0510965 0.0264644 0.998343 0
0.0514995 0.0284297 0.998268 0
0.0515289 0.0295182 0.998235 0
0.0518339 0.0311622 0.998169 0
0.0528993 0.031986 0.998087 0
0.0525477 0.0327364 0.998082 0
0.0518755 0.032245 0.998133 0
0.0520186 0.0321169 0.99813 0
0.0525809 0.0346897 0.998014 0
0.0516863 0.0353872 0.998036 0
0.0520736 0.0372634 0.997948 0
0.0529696 0.040539 0.997773 0
0.0532776 0.0403707 0.997763 0
0.0549964 0.0417849 0.997612 0
0.0548107 0.0432505 0.99756 0
0.0545652 0.0414137 0.997651 0
0.0551204 0.0394967 0.997698 0
0.0538802 0.0390691 0.997783 0.000899732
0.0531829 0.0377063 0.997873 0.00143118
0.0536883 0.0380078 0.997834 0
0.0536858 0.0359651 0.99791 0.000371175
0.0542696 0.0355994 0.997892 0
0.0546877 0.0334124 0.997944 0.00230483
0.0551692 0.0349613 0.997865 0
0.0563437 0.0380965 0.997684 0
0.0567368 0.0389455 0.997629 0
0.0566923 0.038492 0.997649 0
0.0575375 0.0402824 0.99753 0
0.0574837 0.0420771 0.997459 0
0.0579844 0.0439882 0.997348 0
0.0571638 0.0399665 0.997565 0
0.0565469 0.0392914 0.997627 0
0.0557727 0.0400546 0.99764 0
0.0558968 0.0384867 0.997694 0
0.05648 0.0384757 0.997662 0
0.0558912 0.0389307 0.997678 0
0.0555142 0.0378551 0.99774 0
0.056078 0.0381808 0.997696 0.000617122
0.0560666 0.0392678 0.997655 0.000698493
0.0565462 0.0371576 0.997708 0.000598271
0.0577943 0.0381068 0.997601 0
0.0579404 0.036221 0.997663 0
0.0578517 0.0350061 0.997711 0
0.0589156 0.0345431 0.997665 0
0.0598467 0.0336599 0.99764 0
0.0596848 0.0316551 0.997715 0
0.059719 0.0284219 0.997811 0
0.05967 0.0281193 0.997822 0
0.0601686 0.0284759 0.997782 0
0.0605495 0.0255578 0.997838 0
0.0612295 0.0248028 0.997815 0
0.0609644 0.0243121 0.997844 0
0.062225 0.0232215 0.997792 0
0.0623697 0.0217983 0.997815 0
0.061785 0.0207872 0.997873 0
0.0627275 0.0192677 0.997845 0
0.0636651 0.0189011 0.997792 0.000245058
0.0637741 0.0177564 0.997806 0
0.0635021 0.0182401 0.997815 0
0.0632486 0.0150101 0.997885 0.00196343
0.0633533 0.0155297 0.99787 0.00286971
0.0630436 0.0121352 0.997937 0.00507155
0.0632635 0.0108639 0.997938 0.00484976
0.0622351 0.0102591 0.998009 0.004896
0.0621665 0.00672778 0.998043 0.00624677
0.0625378 0.00548879 0.998028 0.00536685
0.0625711 0.00390143 0.998033 0.00328743
0.0625461 0.00111815 0.998041 0.00275225
0.0611886 -0.00164734 0.998125 0.00412742
0.0611699 -0.00486857 0.998115 0.00372864
0.0606858 -0.0058368 0.99814 0.00287825
0.0607508 -0.00809357 0.99812 0.00329272
0.0608603 -0.00930095 0.998103 0.00180453
0.0602319 -0.0122935 0.998109 0.00367937
0.0612269 -0.0131892 0.998037 0.000341113
0.06015 -0.0164342 0.998054 0.00210437
0.0605847 -0.0157809 0.998038 0.00230203
0.0601352 -0.0172726 0.998041 0.00288781
0.0606235 -0.0187433 0.997985 0.00145448
0.0609854 -0.0191473 0.997955 0.00136121
0.0609936 -0.0203115 0.997931 0.00180478
0.0613215 -0.021341 0.99789 0.00110144
0.0615893 -0.020815 0.997885 0
0.0615918 -0.0226495 0.997844 0.000281032
0.0620025 -0.0234565 0.9978 0.000519749
0.062476 -0.0233014 0.997774 0
0.0631388 -0.024778 0.997697 0
0.0623867 -0.0281526 0.997655 0.00131987
0.0631821 -0.0273321 0.997628 0
0.0626817 -0.0284145 0.997629 0
0.0612868 -0.0331449 0.99757 0.00296625
0.0608431 -0.035187 0.997527 0.0034802
0.0600887 -0.0374391 0.997491 0.00591054
0.0594283 -0.0380777 0.997506 0.00482976
0.059421 -0.0401896 0.997424 0.00682783
0.0598095 -0.0407854 0.997376 0.00587438
0.0592635 -0.0400901 0.997437 0.00495497
0.0599494 -0.0408469 0.997365 0.00395192
0.0599013 -0.0396812 0.997415 0.00251167
0.0596219 -0.0397106 0.997431 0
0.0599742 -0.0396588 0.997412 0
0.0603063 -0.0395429 0.997396 0
0.0604433 -0.0390789 0.997406 0
0.0600357 -0.0393377 0.997421 0
0.0604036 -0.038845 0.997418 0
0.0608621 -0.0388512 0.99739 0
0.0612453 -0.0397629 0.99733 0
0.0610952 -0.0398931 0.997334 0
0.0616386 -0.0412561 0.997246 0
0.0615485 -0.0423463 0.997205 0
0.0612785 -0.0444921 0.997129 0
0.0610129 -0.0483543 0.996965 0
0.0615834 -0.0497512 0.996861 0
0.0614603 -0.0525083 0.996727 0
0.0614305 -0.0539578 0.996652 0
0.0609831 -0.0552294 0.99661 0
0.0608277 -0.0556609 0.996595 0
0.0610317 -0.0558633 0.996571 0
0.0608441 -0.0572343 0.996505 0.000604102
0.0600374 -0.0557513 0.996638 0
0.0597011 -0.0567984 0.996599 0.000948541
0.0596637 -0.0559134 0.996651 0.000636221
0.0592875 -0.0549763 0.996726 0.00232783
0.0594975 -0.0508256 0.996934 0
0.0593549 -0.0499185 0.996988 0
0.0593455 -0.0508337 0.996942 0
0.0597428 -0.0491937 0.997001 0
0.059628 -0.0500524 0.996965 0
0.0586504 -0.0520326 0.996922 0.000237329
0.0574879 -0.053054 0.996936 0.00176547
0.0559064 -0.0539519 0.996977 0.00231615
0.0563123 -0.0533652 0.996986 0.00085798
0.0565163 -0.0543465 0.996921 0.00234032
0.0557404 -0.0554552 0.996904 0.00302717
0.0545312 -0.0556632 0.996959 0.00342264
0.053976 -0.057063 0.99691 0.00475892
0.0543525 -0.0603736 0.996695 0.00511912
0.0544774 -0.0620579 0.996585 0.004861
0.0539002 -0.0628339 0.996567 0.00373082
0.0541331 -0.0633648 0.996521 0.00414107
0.0539559 -0.0629369 0.996558 0.00307201
0.0539932 -0.0622666 0.996598 0.000870035
0.0546774 -0.062122 0.99657 0.000177159
0.0560366 -0.0601017 0.996618 0
0.0543365 -0.0619784 0.996597 0
0.0546588 -0.0589158 0.996765 0
0.0548251 -0.0584956 0.996781 0
0.0541704 -0.0593083 0.996769 0
0.0532881 -0.0608809 0.996722 0
0.0522585 -0.0613159 0.996749 0.00150751
0.0518287 -0.0612126 0.996778 0.000271051
0.0509407 -0.0632343 0.996698 0.00119508
0.0512441 -0.0626748 0.996718 0
0.0511423 -0.0631658 0.996692 0
0.0506931 -0.0634302 0.996698 0
0.04961 -0.06355 0.996745 0
0.0488367 -0.0630053 0.996818 0
0.0483221 -0.0632652 0.996826 0
0.0470692 -0.0646599 0.996797 0
0.0460354 -0.0643134 0.996867 0
0.0461573 -0.0639154 0.996887 0
0.045704 -0.0641711 0.996892 0.00194051
0.0441623 -0.0643125 0.996952 0.00322662
0.044248 -0.0617917 0.997108 0.00203111
0.0432139 -0.0622326 0.997126 0.000889279
0.0423486 -0.0634951 0.997083 0.0011646
0.0426168 -0.0618614 0.997175 0
0.0423087 -0.0611187 0.997233 0
0.0407329 -0.0638031 0.997131 0
0.0401668 -0.0653658 0.997053 0
0.0403653 -0.0671352 0.996927 0
0.0379486 -0.072107 0.996675 0.00225486
0.0382511 -0.0731074 0.99659 0.00245512
0.0381627 -0.0723431 0.996649 0.000953984
0.0369607 -0.0728818 0.996655 0.00179165
0.035342 -0.0756065 0.996511 0.00417115
0.0352827 -0.0740094 0.996633 0
0.0331605 -0.0774002 0.996448 0.0021137
0.0324594 -0.0768999 0.99651 0.00178017
0.0319703 -0.0769467 0.996522 0.00234408
0.0313258 -0.0751599 0.996679 0
0.0303735 -0.0752307 0.996703 0
0.0297807 -0.0768072 0.996601 0.00188173
0.0283382 -0.0794512 0.996436 0.00387802
0.0280056 -0.0797136 0.996424 0.00415288
0.027338 -0.081537 0.996295 0.0034327
0.0265893 -0.0840223 0.996109 0.00403297
0.0254376 -0.0854032 0.996022 0.00436256
0.0245739 -0.0861862 0.995976 0.00552842
0.0245705 -0.0862366 0.995972 0.00573113
0.0243119 -0.0865009 0.995955 0.00543577
0.0249094 -0.0880542 0.995804 0.00758119
0.0240176 -0.0897077 0.995678 0.00721529
0.0226702 -0.0907662 0.995614 0.00693596
0.0224119 -0.0911583 0.995584 0.00773333
0.0218772 -0.0906876 0.995639 0.00875386
0.0208444 -0.09098 0.995635 0.0100522
0.0207218 -0.0906 0.995672 0.00912303
0.0200287 -0.090167 0.995725 0.00768919
0.0206367 -0.0882443 0.995885 0.00627271
0.0196804 -0.08853 0.995879 0.00852645
0.0185382 -0.0894338 0.99582 0.0100491
0.0177884 -0.09033 0.995753 0.0108842
0.0174238 -0.0880129 0.995967 0.0082763
0.0175143 -0.0894786 0.995835 0.00721155
0.016547 -0.0901037 0.995795 0.00744781
0.0165488 -0.0911771 0.995697 0.00670689
0.0172316 -0.091904 0.995619 0.00553456
0.0163312 -0.0945071 0.99539 0.00766371
0.0163816 -0.0951738 0.995326 0.00640583
0.016158 -0.0959032 0.99526 0.0063174
0.0157864 -0.0963562 0.995222 0.00568358
0.0152207 -0.097462 0.995123 0.00751248
0.0162575 -0.0951968 0.995326 0.00367611
0.0151817 -0.0958883 0.995276 0.00480363
0.015095 -0.0965295 0.995216 0.00384897
0.0141807 -0.0995089 0.994936 0.00571732
0.0126368 -0.0986228 0.995045 0.00712077
0.0116546 -0.0984053 0.995078 0.0085172
0.0116112 -0.0974063 0.995177 0.00779108
0.0117636 -0.0960833 0.995304 0.00597919
0.0124097 -0.0941656 0.995479 0.00548359
0.0123666 -0.0947456 0.995425 0.0053167
0.0115967 -0.0949319 0.995416 0.00494088
0.0117241 -0.0936392 0.995537 0.00335001
0.0117324 -0.0913272 0.995752 0.00349815
0.0111802 -0.0922405 0.995674 0.00638581
0.0109544 -0.0925154 0.995651 0.00795637
0.0123055 -0.0898727 0.995877 0.00523721
0.0115948 -0.0895425 0.995916 0.00378929
0.0108806 -0.0913329 0.995761 0.00405922
0.00998208 -0.0920937 0.9957 0.00586239
0.0106607 -0.0894159 0.995937 0.00387421
0.009977 -0.0885703 0.99602 0.0043366
0.0106228 -0.0883176 0.996036 0.00419016
0.0112823 -0.0876914 0.996084 0.00224116
0.0106482 -0.0885733 0.996013 0.00277731
0.0104396 -0.0909273 0.995803 0.00329488
0.00972101 -0.0909968 0.995804 0.00455018
0.00944467 -0.0895694 0.995936 0.0041908
0.00994742 -0.088745 0.996005 0.00497992
0.0100473 -0.0866582 0.996187 0.00504967
0.00953634 -0.0866371 0.996194 0.00588654
0.00970121 -0.0874593 0.996121 0.0071834
0.00788034 -0.0876185 0.996123 0.00790244
0.00824719 -0.0878913 0.996096 0.00871777
0.0082066 -0.0871656 0.99616 0.00743471
0.0076679 -0.0868388 0.996193 0.00777177
0.00739422 -0.0887918 0.996023 0.0103683
0.00786769 -0.0863956 0.99623 0.00726907
0.00835722 -0.084878 0.996356 0.00625406
0.00895886 -0.0830406 0.996506 0.00413822
0.00878262 -0.082616 0.996543 0.00340813
0.00837507 -0.0838751 0.996441 0.0028672
0.00964977 -0.0807801 0.996685 4.52223e-05
0.00975365 -0.0812176 0.996649 0.000574617
0.00952496 -0.081567 0.996622 0.00150494
0.0093715 -0.0814532 0.996633 0.000571577
0.0100793 -0.079049 0.99682 0
0.00947537 -0.077836 0.996921 0
0.0101539 -0.077515 0.996939 0
0.00991286 -0.0755564 0.997092 0
0.00947136 -0.0746274 0.997167 0
0.00888671 -0.0738605 0.997229 0.000553317
0.0090424 -0.0753307 0.997118 0.00231237
0.00928921 -0.0750966 0.997133 0.00192091
0.00891327 -0.074981 0.997145 0.00213262
0.00974237 -0.074133 0.997201 0.000726201
0.00980491 -0.0752623 0.997116 0.00236426
0.00975899 -0.0742791 0.99719 0.00319471
0.0108543 -0.0716837 0.997368 0.00185936
0.0118301 -0.0696966 0.997498 0.000852725
0.0112568 -0.0681643 0.997611 0.00109852
0.00990009 -0.0686641 0.997591 0.00408721
0.00947111 -0.0690285 0.99757 0.00487406
0.00974889 -0.0687178 0.997588 0.00424684
0.00898957 -0.0715121 0.997399 0.00623697
0.00858679 -0.0721015 0.99736 0.00732812
0.00861054 -0.071566 0.997399 0.00811453
0.00912236 -0.0714977 0.997399 0.00695965
0.00986157 -0.0710203 0.997426 0.00560194
0.0102142 -0.0694126 0.997536 0.00353445
0.0101511 -0.066581 0.997729 0.00180311
0.0103129 -0.0652332 0.997817 0.00358729
0.0105159 -0.0646716 0.997851 0.00390155
0.0099311 -0.0643903 0.997875 0.00402824
0.0104132 -0.0658839 0.997773 0.00471612
0.0110659 -0.0644605 0.997859 0.00427466
0.0118892 -0.0625162 0.997973 0.000312319
0.0117342 -0.0626557 0.997966 0.000120879
0.0119229 -0.0609539 0.998069 0
0.012203 -0.0616949 0.99802 0
0.0111311 -0.0642477 0.997872 0
0.0114888 -0.0646768 0.99784 0.000865221
0.0117903 -0.064914 0.997821 0.000375729
0.0115076 -0.0663013 0.997733 0.00277665
0.0121344 -0.0634219 0.997913 0.0011312
0.0124033 -0.0638652 0.997881 0.00114713
0.0123301 -0.0632886 0.997919 0.000179706
0.0119838 -0.0644931 0.997846 0.00193777
0.0117216 -0.0643685 0.997857 0.00161603
0.0128242 -0.0621504 0.997984 0
0.0130749 -0.0611005 0.998046 0.000909233
0.0135542 -0.0596581 0.998127 0
0.0136811 -0.0599102 0.99811 0
0.0146345 -0.0608038 0.998042 0
0.0149011 -0.0589095 0.998152 0
0.014997 -0.0576607 0.998224 0
0.0146079 -0.0594717 0.998123 0
0.0135705 -0.0617653 0.997998 0
0.0135866 -0.0638075 0.99787 0.000517183
0.0131175 -0.0651888 0.997787 0.000433351
0.0126755 -0.0681237 0.997596 0.0043442
0.0123715 -0.0698017 0.997484 0.00584645
0.0117581 -0.0698075 0.997491 0.00741006
0.012006 -0.0673271 0.997659 0.00431869
0.0125234 -0.0652827 0.997788 0.003131
0.0133401 -0.0632484 0.997909 0.000318213
0.0132614 -0.0614555 0.998022 0
0.0131289 -0.062354 0.997968 0
0.0134249 -0.0622363 0.997971 0
0.014092 -0.0622753 0.997959 0
0.0146546 -0.063081 0.997901 0
0.0149645 -0.0628798 0.997909 0
0.0151511 -0.0633033 0.997879 0
0.0146153 -0.0657372 0.99773 0
0.0138345 -0.0658577 0.997733 0
0.0139869 -0.0678041 0.997601 0.000447384
0.0140034 -0.0667087 0.997674 0
0.0133437 -0.0665464 0.997694 0
0.0128881 -0.0666924 0.99769 0
0.0130216 -0.067124 0.99766 5.62859e-05
0.0131914 -0.0670185 0.997665 0
0.0132952 -0.0677195 0.997616 0
0.0130215 -0.0680473 0.997597 0.00109325
0.0133359 -0.0673294 0.997642 0.00146329
0.0132792 -0.0674759 0.997633 0.000465507
0.0133545 -0.0686185 0.997554 0.00186844
0.013416 -0.071324 0.997363 0.00282671
0.0136978 -0.0730748 0.997232 0.00398
0.0135062 -0.0733455 0.997215 0.0028924
0.0136282 -0.0754102 0.99706 0.00453632
0.0135898 -0.0762067 0.996999 0.00571029
0.0136023 -0.0728882 0.997247 0.00453227
0.0140858 -0.075019 0.997083 0.00360505
0.0135095 -0.0761447 0.997005 0.00307415
0.0126978 -0.0759852 0.997028 0.00206613
0.0122558 -0.0756449 0.99706 0.00260372
0.0126322 -0.0774237 0.996918 0.00194214
0.0128331 -0.0800315 0.99671 0.00265921
0.0127225 -0.0794331 0.996759 4.00127e-05
0.0123261 -0.0798785 0.996728 0.000735228
0.0121493 -0.080839 0.996653 0.00146777
0.0128559 -0.079778 0.99673 0.00192006
0.013103 -0.0801008 0.996701 0.00275021
0.0134033 -0.0802414 0.996685 0.0013301
0.0135779 -0.0795158 0.996741 5.10433e-05
0.0134152 -0.0806332 0.996654 0
0.0136709 -0.0839853 0.996373 0.000850134
0.0135283 -0.0817447 0.996561 0
0.0140108 -0.082657 0.99648 0
0.0140979 -0.0845486 0.99632 0
0.0140872 -0.0842625 0.996344 0.000757248
0.0137339 -0.0849101 0.996294 0.000862878
0.0133498 -0.080894 0.996633 0.000471377
0.013527 -0.0815679 0.996576 0
0.0139309 -0.0814617 0.996579 0
-0.027449 0.0834918 0.99613 0.0108756
-0.0277064 0.0807056 0.996353 0.0112385
-0.0275168 0.079644 0.996444 0.0117573
-0.0270952 0.0812739 0.996323 0.0104935
-0.0264204 0.0844922 0.996074 0.00904865
-0.0262077 0.08457 0.996073 0.00946441
-0.025389 0.0844759 0.996102 0.00820049
-0.0258828 0.079509 0.996498 0.00851018
-0.0251913 0.0831693 0.996217 0.00773917
-0.0241969 0.0887359 0.995761 0.00710691
-0.0239757 0.0902817 0.995628 0.00779097
-0.0244524 0.0925116 0.995411 0.00851293
-0.0246561 0.0907932 0.995565 0.00709651
-0.0239489 0.0915628 0.995511 0.00517863
-0.0241118 0.0876957 0.995855 0.00573767
-0.0240848 0.0838186 0.99619 0.00494697
-0.0236854 0.0839567 0.996188 0.00417456
-0.0237212 0.079935 0.996518 0.00330375
-0.0241587 0.0797815 0.99652 0.00582509
-0.0238344 0.0797375 0.996531 0.00473324
-0.0236174 0.0811527 0.996422 0.00481307
-0.023321 0.0802291 0.996504 0.00290613
-0.022342 0.0809674 0.996466 4.15269e-05
-0.0226015 0.0823443 0.996348 5.42378e-06
-0.0223224 0.0819391 0.996387 0
-0.0224076 0.0798311 0.996556 0
-0.0218748 0.0810503 0.99647 0
-0.0218389 0.0807912 0.996492 0
-0.0215065 0.0803663 0.996533 0
-0.021317 0.0822937 0.99638 0
-0.0214273 0.0811936 0.996468 0
-0.0202069 0.0840277 0.996259 0
-0.0198783 0.0825163 0.996391 0
-0.0196919 0.084037 0.996268 0
-0.0193095 0.0827543 0.996383 0
-0.0196186 0.081317 0.996495 0
-0.0191318 0.0808828 0.99654 0
-0.018725 0.0802687 0.996597 0
-0.0193034 0.0806112 0.996559 0
-0.0202006 0.0763647 0.996875 0.00197695
-0.019955 0.0784197 0.996721 0.00155402
-0.0186797 0.0818088 0.996473 0.00101199
-0.0170335 0.0873221 0.996035 0
-0.0159758 0.0873469 0.99605 0
-0.0169205 0.0840211 0.99632 0
-0.0161211 0.0850566 0.996246 0
-0.0161939 0.0838397 0.996348 0
-0.0164767 0.0822257 0.996477 0
-0.0167303 0.0788882 0.996743 0.000996421
-0.0161781 0.0781145 0.996813 0.0013221
-0.015652 0.0756019 0.997015 0.00157915
-0.0152024 0.0774436 0.996881 0.00138975
-0.0158907 0.0724173 0.997248 0.00310243
-0.015471 0.0727721 0.997229 0.00322716
-0.0153115 0.0709876 0.99736 0.0038398
-0.0153781 0.0748429 0.997077 0.00334535
-0.0153317 0.07334 0.997189 0.00379376
-0.0153223 0.0711552 0.997348 0.00317262
-0.0150672 0.0709162 0.997368 0.00229554
-0.0145627 0.0699352 0.997445 0.00247344
-0.013891 0.0694109 0.997491 0
-0.0133532 0.0677366 0.997614 0
-0.0128961 0.0706284 0.997419 0
-0.0126141 0.0695031 0.997502 0
-0.0122482 0.0689823 0.997543 0
-0.0127539 0.0657448 0.997755 0
-0.0125584 0.0653158 0.997786 0
-0.0129745 0.0629161 0.997935 0
-0.013435 0.0620973 0.99798 8.66161e-05
-0.0124724 0.0650839 0.997802 0
-0.0115959 0.0660328 0.99775 0
-0.0119369 0.0638378 0.997889 0.00181628
-0.0120656 0.0643048 0.997857 0.000266451
-0.0115064 0.0660734 0.997748 0
-0.0123796 0.0639924 0.997874 0.000304968
-0.0127494 0.0627015 0.997951 0.00183695
-0.0119707 0.0649299 0.997818 0.00216029
-0.0127764 0.0648353 0.997814 0.00329664
-0.0129738 0.0629028 0.997935 0.00390984
-0.0124661 0.0612032 0.998047 0.00468117
-0.0128337 0.0600622 0.998112 0.00446163
-0.0122859 0.0601534 0.998114 0.00465275
-0.0122855 0.0601551 0.998113 0.00569992
-0.0116004 0.0606613 0.998091 0.00240381
-0.0109674 0.0611129 0.998071 0.00180097
-0.010959 0.059538 0.998166 0.00140055
-0.0107219 0.0605101 0.99811 0.00179545
-0.0102716 0.0588012 0.998217 0
-0.00950285 0.0586346 0.998234 0
-0.00977707 0.0574238 0.998302 0.00162169
-0.00976424 0.0580048 0.998269 0.00194981
-0.00879786 0.0569308 0.998339 0.00250382
-0.00899474 0.0566679 0.998353 0.00217321
-0.00737228 0.0549288 0.998463 0.00116231
-0.00650225 0.0557379 0.998424 0.000217819
-0.00698225 0.0554009 0.99844 0.000930369
-0.00538635 0.0572233 0.998347 0
-0.00568531 0.0547082 0.998486 0
-0.00440709 0.0567573 0.998378 0
-0.0043807 0.0569303 0.998369 0
-0.0038479 0.0589013 0.998256 0
-0.00396328 0.060046 0.998188 0
-0.0040359 0.0581276 0.998301 0
-0.00407738 0.0573558 0.998345 0
-0.00523527 0.0541092 0.998521 0
-0.00537134 0.0523738 0.998613 0
-0.00464831 0.051435 0.998666 0.000840592
-0.00372409 0.0509754 0.998693 0
-0.00350645 0.0476986 0.998856 0.000534207
-0.00316857 0.0450329 0.99898 0
-0.00382063 0.0423575 0.999095 0
-0.00305154 0.0428392 0.999077 0
-0.00228571 0.043842 0.999036 0
-0.00238849 0.0437303 0.99904 0
-0.00241104 0.0418342 0.999122 0
-0.00136823 0.0409852 0.999159 0
-0.000430721 0.0416625 0.999132 0
-0.000841441 0.0411311 0.999153 0.000781103
-0.000748918 0.04217 0.99911 0.000165348
-0.000733169 0.0408112 0.999167 7.7474e-05
-0.0014213 0.0372482 0.999305 0.00398013
-0.00113395 0.0343952 0.999408 0.00645327
-0.000585621 0.0346152 0.999401 0.00515624
-0.00060396 0.0360055 0.999351 0.00449472
-0.000422915 0.0357484 0.999361 0.00474489
0.000117688 0.035303 0.999377 0.00543398
-0.000559024 0.03573 0.999361 0.00532341
0.000462574 0.0353408 0.999375 0.00473792
0.000615019 0.0321958 0.999481 0.00714258
0.000630022 0.0292484 0.999572 0.00642952
0.0007496 0.0290205 0.999579 0.004568
0.00139882 0.0289484 0.99958 0.00423576
0.00159537 0.0291617 0.999573 0.00522224
0.00282808 0.0310666 0.999513 0.00281593
0.0026715 0.0300797 0.999544 0.00315789
0.00264028 0.0287109 0.999584 0.00577223
0.00342079 0.029554 0.999557 0.00409073
0.00381078 0.0299768 0.999543 0.00254653
0.00498754 0.0310445 0.999506 0
0.00482164 0.0313829 0.999496 0.000458254
0.00594584 0.0291111 0.999558 0
0.00609629 0.0296487 0.999542 0
0.00693209 0.0297373 0.999534 0
0.00843085 0.0313974 0.999471 0
0.00777754 0.0305922 0.999502 0.000520545
0.00927452 0.0311308 0.999472 0
0.0102044 0.0308614 0.999472 0
0.00998357 0.0313037 0.99946 0
0.0109874 0.0319501 0.999429 0
0.00991271 0.0285503 0.999543 0
0.00975886 0.0295577 0.999515 0
0.0112254 0.0331774 0.999386 0
0.0116008 0.0335944 0.999368 0
0.0113113 0.0328145 0.999397 0
0.0106788 0.0339479 0.999367 0
0.0106034 0.0311144 0.99946 0
0.010949 0.0298518 0.999494 0.000638667
0.0106656 0.0288975 0.999525 0.00243336
0.0114429 0.0288384 0.999519 0.00189003
0.0112003 0.0279947 0.999545 0.00394239
0.0120956 0.0277175 0.999543 0.00111856
0.0120951 0.027797 0.99954 0.00163762
0.0130953 0.0302375 0.999457 0
0.0137247 0.0289669 0.999486 0
0.0140018 0.0283361 0.9995 0
0.0150174 0.0281436 0.999491 0
0.0158267 0.0294881 0.99944 0
0.0156752 0.0270674 0.999511 0
0.0155138 0.0295576 0.999443 0
0.0155981 0.0296674 0.999438 0
0.0164048 0.0304264 0.999402 0
0.0171671 0.0328796 0.999312 0
0.018405 0.0345738 0.999233 0
0.0192933 0.033879 0.99924 0
0.0191651 0.0354637 0.999187 0
0.0196073 0.0364752 0.999142 0
0.0194428 0.0332051 0.999259 0
0.0197366 0.0307027 0.999334 0.000363936
0.0211868 0.0309958 0.999295 0
0.022461 0.0295571 0.999311 0
0.0226765 0.0266477 0.999388 0
0.0232762 0.0279197 0.999339 0
0.02407 0.0275503 0.999331 0
0.024364 0.0298729 0.999257 0
0.0240355 0.0269743 0.999347 0
0.024124 0.0264513 0.999359 0
0.0243135 0.0241083 0.999414 0
0.0249052 0.0220746 0.999446 0
0.0251978 0.0220176 0.99944 0
0.0250986 0.0220248 0.999442 0
0.0242679 0.0212572 0.999479 0
0.0252948 0.0218575 0.999441 0
0.0252074 0.0222825 0.999434 0
0.0254328 0.0212516 0.999451 0
0.0263919 0.0224671 0.999399 0
0.0269159 0.0253129 0.999317 0
0.0272858 0.0259211 0.999292 0
0.0267525 0.0227048 0.999384 0
0.0270223 0.0207762 0.999419 0
0.0269341 0.0193482 0.99945 0
0.0280442 0.0187068 0.999432 0
0.0279676 0.0157505 0.999485 0
0.0274086 0.0143081 0.999522 0.00115398
0.0278867 0.0127281 0.99953 0.00188881
0.0288205 0.0124251 0.999507 0.0011327
0.0296902 0.0132963 0.999471 0
0.0305728 0.0135447 0.999441 0
0.0306313 0.0124404 0.999453 0
0.0312725 0.0112141 0.999448 0
0.0318164 0.012377 0.999417 0
0.0323118 0.0115972 0.999411 0.000564991
0.0332758 0.0143084 0.999344 0.00044935
0.03381 0.0146423 0.999321 0.000546688
0.0342763 0.0127334 0.999331 0.00120017
0.035135 0.0127414 0.999301 0
0.0358938 0.0133787 0.999266 0
0.0368011 0.0145219 0.999217 0
0.0369107 0.0147168 0.99921 0
0.0367875 0.0142734 0.999221 0
0.0373013 0.0140516 0.999205 0
0.0372164 0.013567 0.999215 0
0.0374841 0.0115852 0.99923 0
0.0376953 0.00857293 0.999253 0
0.038232 0.00775683 0.999239 0
0.0388992 0.00656586 0.999222 0
0.03869 0.00434636 0.999242 0
0.038993 0.0064616 0.999219 0
0.0386639 0.00828406 0.999218 0
0.0380899 0.00914731 0.999232 0
0.0389424 0.00913481 0.9992 0
0.0396095 0.00885171 0.999176 0
0.0398736 0.00975773 0.999157 0
0.0404113 0.0087193 0.999145 0
0.0406206 0.00884911 0.999135 0
0.0403734 0.011083 0.999123 0
0.0405588 0.0103793 0.999123 0
0.0407723 0.0119046 0.999098 0
0.040423 0.0121344 0.999109 0
0.0401959 0.0112552 0.999128 0
0.040787 0.00961022 0.999122 0
0.0409288 0.0120613 0.999089 0
0.0414066 0.0124823 0.999064 0
0.0419225 0.0143563 0.999018 0
0.0423597 0.0135462 0.999011 0
0.0430184 0.0125299 0.998996 0
0.043032 0.0108562 0.999015 0
0.0434821 0.0117918 0.998985 0
0.0441805 0.0156443 0.998901 0
0.0451546 0.0159353 0.998853 0
0.0447256 0.0169431 0.998856 0
0.0457683 0.0185829 0.998779 0
0.0461637 0.0194959 0.998744 0
0.0461059 0.0189767 0.998756 0
0.0463406 0.0202637 0.99872 0
0.0464649 0.0209111 0.998701 0
0.0470935 0.0227209 0.998632 0
0.0474661 0.0228743 0.998611 0
0.0485037 0.0229346 0.99856 0
0.0490498 0.0230661 0.99853 0
0.048425 0.0226251 0.998571 0
0.0495826 0.0238875 0.998484 0
0.0492184 0.0212899 0.998561 0.000440163
0.0490153 0.0210452 0.998576 0.00249098
0.0501676 0.0227367 0.998482 0.00181817
0.0490774 0.023791 0.998512 0.0030172
0.0494872 0.0247804 0.998467 0.00129226
0.0506374 0.0262874 0.998371 0
0.0507175 0.0267113 0.998356 0
0.0507419 0.0287817 0.998297 0
0.0511252 0.0279324 0.998302 0
0.0508803 0.0259243 0.998368 0
0.051518 0.0286638 0.998261 0
0.0520708 0.0286905 0.998231 0
0.0525808 0.0267901 0.998257 0
0.0521641 0.0262898 0.998292 0
0.0525285 0.0286087 0.99821 0
0.0520647 0.0278085 0.998256 0
0.0523309 0.0299575 0.99818 0
0.0524025 0.0300582 0.998174 0
0.0528544 0.0314997 0.998105 0
0.05282 0.0330653 0.998056 0
0.0534763 0.0344228 0.997976 0
0.0531471 0.0342643 0.997999 0
0.0524562 0.0352476 0.998001 0
0.0533139 0.0368578 0.997897 0
0.0532705 0.0368746 0.997899 0
0.0530693 0.0363008 0.997931 0
0.0533773 0.0392279 0.997804 0
0.0537868 0.0408989 0.997715 0
0.0537902 0.0418289 0.997676 0
0.053761 0.0417267 0.997682 0
0.0537726 0.0416509 0.997684 0
0.0544145 0.042664 0.997607 0
0.0546635 0.040683 0.997676 0
0.0546272 0.0410545 0.997662 0
0.0546937 0.038581 0.997758 0
0.0543887 0.0364697 0.997854 0.00117923
0.0548407 0.0356055 0.99786 0.00309147
0.0550308 0.0353822 0.997858 0.00247832
0.0556126 0.0344143 0.997859 0.00196442
0.0553196 0.0335476 0.997905 0.00194961
0.0554402 0.0335178 0.997899 0.000943761
0.0560672 0.0348578 0.997818 0
0.0556316 0.0335007 0.997889 0.000191711
0.0557186 0.0337844 0.997875 0
0.0541465 0.0331514 0.997983 0
