-0.0400926 0.042054 0.998311 0
-0.0410175 0.0415916 0.998292 0
-0.0410092 0.0412098 0.998309 0.00154118
-0.0410139 0.0406444 0.998332 0.00296268
-0.0410994 0.0394267 0.998377 0.00248429
-0.0407914 0.039067 0.998404 0.00216057
-0.0402274 0.0380515 0.998466 0.0023426
-0.0401154 0.0380419 0.998471 0.00229667
-0.0399196 0.0366535 0.99853 0.00138463
-0.0398566 0.037244 0.998511 0.00148152
-0.0403993 0.036807 0.998505 0.00208283
-0.0402688 0.0366334 0.998517 0
-0.0400564 0.0357 0.998559 0.000616835
-0.040993 0.0355418 0.998527 0.00201124
-0.0422844 0.0339082 0.99853 0.00344839
-0.0407032 0.0340395 0.998591 0.000753758
-0.0399621 0.0330806 0.998653 0.00021351
-0.0394125 0.0334379 0.998663 0
-0.0390337 0.0321257 0.998721 0
-0.0385886 0.031672 0.998753 0
-0.0383593 0.0311421 0.998779 0
-0.0387049 0.0305428 0.998784 0
-0.0382499 0.0299429 0.998819 0
-0.0387795 0.0290822 0.998825 0
-0.0384211 0.0283878 0.998858 0
-0.039246 0.0265767 0.998876 0.000638916
-0.0397248 0.0258231 0.998877 0.000796214
-0.0387884 0.0253276 0.998926 0
-0.0384247 0.0246865 0.998956 0
-0.0386788 0.0236189 0.998972 0
-0.0391399 0.0226764 0.998976 0
-0.0381499 0.0218127 0.999034 0
-0.0396194 0.0201793 0.999011 0.00176232
-0.0398971 0.0196942 0.99901 0.00250561
-0.0398013 0.0188846 0.999029 0.00248446
-0.037967 0.019175 0.999095 0
-0.038923 0.0178717 0.999082 0.00135225
-0.039574 0.0167524 0.999076 0.00268826
-0.0384968 0.0169007 0.999116 0.00266233
-0.0389921 0.0165852 0.999102 0.00226982
-0.0387689 0.0172108 0.9991 0.000175895
-0.0379208 0.0170845 0.999135 0.0002867
-0.036877 0.0173503 0.999169 0
-0.0371934 0.016154 0.999178 0.000314358
-0.0367292 0.0150851 0.999211 0.000257625
-0.0368049 0.0132467 0.999235 0.000494373
-0.0361907 0.0120581 0.999272 0.00121346
-0.0367624 0.0111948 0.999261 0.00281433
-0.0371565 0.0104523 0.999255 0.00286318
-0.0376245 0.00993948 0.999242 0.00243799
-0.0383709 0.0085343 0.999227 0.00339681
-0.0379431 0.00860879 0.999243 0.00252241
-0.0375353 0.00839492 0.99926 0.00164251
-0.0375017 0.0079211 0.999265 0.00075295
-0.0362796 0.00849804 0.999306 0
-0.0352946 0.00831965 0.999342 0
-0.0358057 0.00815738 0.999326 0
-0.034898 0.00794719 0.999359 0
-0.0348826 0.00735377 0.999364 0
-0.0342928 0.00632793 0.999392 0
-0.0339522 0.00623436 0.999404 0
-0.0327857 0.00623595 0.999443 0
-0.0333037 0.0050155 0.999433 0
-0.0341636 0.00449176 0.999406 0
-0.033879 0.00385712 0.999418 0
-0.0335446 0.00348846 0.999431 0
-0.0336985 0.00352548 0.999426 0
-0.0338258 0.00312246 0.999423 0
-0.0335758 0.00232215 0.999433 0
-0.033606 0.00175158 0.999434 0
-0.0334119 0.000746732 0.999441 0.000489611
-0.0330487 0.00062717 0.999454 0.000180685
-0.0327976 0.000182978 0.999462 0.000801277
-0.0325752 0.000352141 0.999469 0
-0.0331579 -4.17086e-05 0.99945 0.00123837
-0.0333693 -0.000659381 0.999443 0.00183603
-0.0323457 -0.00075348 0.999476 0
-0.0325931 -0.00109922 0.999468 0
-0.0330872 -0.00166326 0.999451 0
-0.0328459 -0.00205725 0.999458 0
-0.0333361 -0.00290014 0.99944 0.000369218
-0.0326147 -0.00236282 0.999465 0.000221206
-0.0313279 -0.00205793 0.999507 0
-0.03098 -0.00165282 0.999519 0
-0.032594 -0.00233468 0.999466 0
-0.0321125 -0.00250352 0.999481 0
-0.0303606 -0.00247378 0.999536 0
-0.0323346 -0.00320664 0.999472 0.000307979
-0.033169 -0.00453595 0.999439 0.00229246
-0.0330306 -0.00540801 0.99944 0.00275034
-0.0337133 -0.00540656 0.999417 0.00177937
-0.032639 -0.00571331 0.999451 0.000390131
-0.0324582 -0.00534931 0.999459 0
-0.033226 -0.00616225 0.999429 0
-0.034076 -0.00743609 0.999392 0.00212624
-0.0338324 -0.00824789 0.999393 0.00194467
-0.0349235 -0.00881403 0.999351 0.00357975
-0.0337309 -0.00890709 0.999391 0.00126237
-0.0334488 -0.00870809 0.999402 0.00108538
-0.0325953 -0.00928435 0.999426 0.000919852
-0.0337595 -0.00964248 0.999383 0.00162451
-0.0337342 -0.0109742 0.999371 0.00405345
-0.0343903 -0.0118709 0.999338 0.00645069
-0.0359318 -0.0130028 0.99927 0.00818864
-0.0362575 -0.0135016 0.999251 0.0093535
-0.0353384 -0.0139303 0.999278 0.00856953
-0.0362472 -0.0140525 0.999244 0.0094144
-0.0348244 -0.0142253 0.999292 0.00880674
-0.0340281 -0.0134297 0.999331 0.00603992
-0.0330796 -0.0139099 0.999356 0.00293217
-0.0325616 -0.0138468 0.999374 0.000575756
-0.0340474 -0.0146285 0.999313 0.00388385
-0.0332159 -0.0143114 0.999346 0.00215977
-0.0328226 -0.0146416 0.999354 0.00273637
-0.03333 -0.0150499 0.999331 0.00250529
-0.0333985 -0.0157526 0.999318 0.00196947
-0.0331272 -0.0157688 0.999327 0.000986435
-0.0330676 -0.0163855 0.999319 0.000605839
-0.0336607 -0.0167881 0.999292 0.00269449
-0.0336615 -0.0170797 0.999287 0.0024703
-0.034332 -0.0162659 0.999278 0.00146689
-0.0344236 -0.0171034 0.999261 0.00137597
-0.0339784 -0.0177676 0.999265 0.00238701
-0.0334069 -0.0184937 0.999271 0.00277599
-0.0328435 -0.019214 0.999276 0.0026962
-0.0341615 -0.0188059 0.999239 0.00350973
-0.0341272 -0.0199814 0.999218 0.00401921
-0.0344479 -0.0199896 0.999207 0.00346221
-0.033922 -0.0197723 0.999229 0.00417791
-0.0336333 -0.019367 0.999247 0.00318868
-0.033739 -0.0191655 0.999247 0.00558171
-0.033612 -0.0192411 0.99925 0.00519125
-0.0340991 -0.0195747 0.999227 0.00739407
-0.0350103 -0.0202884 0.999181 0.00741389
-0.0345552 -0.0200996 0.999201 0.00826708
-0.0344575 -0.019702 0.999212 0.00757808
-0.0333138 -0.0195574 0.999254 0.00614765
-0.0334113 -0.01925 0.999256 0.00606509
-0.0329342 -0.0190872 0.999275 0.00599779
-0.0311105 -0.0184432 0.999346 0.00195507
-0.0320972 -0.0189829 0.999304 0.00321596
-0.0305376 -0.0187536 0.999358 5.83926e-05
-0.0308183 -0.0188632 0.999347 0.000253414
-0.0302567 -0.0178723 0.999382 0
-0.0306656 -0.0181389 0.999365 0
-0.0308404 -0.0185083 0.999353 0
-0.0312983 -0.0192956 0.999324 0.000278565
-0.0315378 -0.0198886 0.999305 0.00278945
-0.0312948 -0.0204446 0.999301 0.00205989
-0.0301775 -0.0200438 0.999344 0
-0.0302376 -0.0201239 0.99934 0
-0.029629 -0.019728 0.999366 0
-0.0300208 -0.0204614 0.99934 0
-0.030651 -0.0207051 0.999316 0
-0.0301121 -0.0205699 0.999335 0
-0.0302915 -0.019923 0.999343 0
-0.0290875 -0.0195424 0.999386 0
-0.0292054 -0.0199382 0.999375 0
-0.0292688 -0.0201853 0.999368 9.50771e-05
-0.0294981 -0.0202021 0.999361 0.000748317
-0.0296319 -0.0205472 0.99935 0.00278919
-0.0304961 -0.0204317 0.999326 0.00295012
-0.0303521 -0.020395 0.999331 0.00157399
-0.0303483 -0.0205101 0.999329 0.00190539
-0.0303395 -0.0203799 0.999332 0.00192643
-0.0302839 -0.0201565 0.999338 0.00117393
-0.0297441 -0.0207759 0.999342 0.00258441
-0.028828 -0.0204455 0.999375 0.000142741
-0.0305068 -0.020614 0.999322 0.0018104
-0.0301735 -0.0212999 0.999318 0.00366819
-0.0284161 -0.0211523 0.999372 0.000778506
-0.0291311 -0.0221965 0.999329 0.00136053
-0.0291051 -0.0226128 0.999321 0.0002703
-0.027815 -0.0225359 0.999359 0
-0.0275124 -0.0221781 0.999375 0
-0.0280929 -0.0221322 0.99936 0
-0.0286404 -0.0226368 0.999333 0.000469626
-0.0281754 -0.0228455 0.999342 0
-0.0285178 -0.0229848 0.999329 0
-0.027986 -0.0232278 0.999338 0
-0.0282651 -0.0232708 0.99933 0
-0.0285896 -0.0238887 0.999306 0
-0.0281944 -0.0233495 0.99933 0
-0.0270763 -0.0230866 0.999367 0
-0.0272617 -0.0240923 0.999338 0
-0.0274511 -0.0246835 0.999318 0
-0.0276625 -0.0249147 0.999307 0
-0.0272402 -0.0255861 0.999301 0
-0.0275825 -0.0254896 0.999295 0
-0.0272781 -0.0257505 0.999296 0
-0.0270882 -0.026416 0.999284 0
-0.0273433 -0.0267774 0.999267 0
-0.0281439 -0.0274549 0.999227 0.00281218
-0.0285076 -0.0278053 0.999207 0.00508558
-0.0284126 -0.0280142 0.999204 0.00459693
-0.0288668 -0.0282715 0.999183 0.00455413
-0.0279478 -0.0279512 0.999218 0.00349024
-0.0271503 -0.0277488 0.999246 0.0011742
-0.0271869 -0.0273679 0.999256 0.00101298
-0.0283831 -0.0275922 0.999216 0.00266833
-0.028382 -0.0270942 0.99923 0.00313275
-0.0285187 -0.0272411 0.999222 0.00388846
-0.0291592 -0.0273333 0.999201 0.00523837
-0.0299645 -0.0268521 0.99919 0.00474375
-0.030299 -0.0266907 0.999184 0.00656501
-0.0300731 -0.0266176 0.999193 0.00824138
-0.0298786 -0.0263473 0.999206 0.0067048
-0.0308215 -0.0264106 0.999176 0.00926925
-0.0292306 -0.0260087 0.999234 0.00884504
-0.0293394 -0.0256048 0.999242 0.00759988
-0.0290808 -0.0261082 0.999236 0.00848194
-0.0280655 -0.0261084 0.999265 0.00847732
-0.0282031 -0.0267675 0.999244 0.0088761
-0.0278248 -0.0271678 0.999244 0.010827
-0.028635 -0.0276782 0.999207 0.0137989
-0.0286791 -0.027609 0.999207 0.0123875
-0.0286608 -0.0276602 0.999206 0.0134048
-0.0276663 -0.0271973 0.999247 0.0109654
-0.0284851 -0.0281136 0.999199 0.0139065
-0.0288097 -0.0285366 0.999177 0.0142865
-0.0271019 -0.0279128 0.999243 0.0112582
-0.0277649 -0.0279311 0.999224 0.0104189
-0.0276984 -0.0280843 0.999222 0.0105067
-0.0286533 -0.028093 0.999195 0.0108739
-0.0280729 -0.0273317 0.999232 0.00778855
-0.0282016 -0.0267492 0.999244 0.00727169
-0.0285768 -0.0270978 0.999224 0.00640927
-0.0290567 -0.0280122 0.999185 0.00920593
-0.0296694 -0.0284816 0.999154 0.0109275
-0.0287487 -0.0284802 0.999181 0.00827588
-0.0289596 -0.0278944 0.999191 0.0068217
-0.0284314 -0.0273851 0.99922 0.0041439
-0.0285468 -0.0272009 0.999222 0.00407005
-0.0286073 -0.0275776 0.99921 0.00579273
-0.0284288 -0.0271536 0.999227 0.00293818
-0.027205 -0.0269623 0.999266 0
-0.0269371 -0.027113 0.999269 0
-0.0273161 -0.0271092 0.999259 0
-0.0272842 -0.0272221 0.999257 0
-0.0276271 -0.0277178 0.999234 0.00063396
-0.027519 -0.0281621 0.999224 0.000703183
-0.027554 -0.0281906 0.999223 0
-0.0260647 -0.0280298 0.999267 0
-0.0248426 -0.0277727 0.999306 0
-0.0241875 -0.028084 0.999313 0
-0.0246342 -0.0289841 0.999276 0
-0.0247465 -0.030401 0.999231 0
-0.0253673 -0.0308727 0.999201 0
-0.0261967 -0.0314597 0.999162 0
-0.0266776 -0.0323305 0.999121 0.00121507
-0.0269519 -0.0327684 0.999099 0.00185814
-0.0281003 -0.0334694 0.999045 0.00307827
-0.027892 -0.0343295 0.999021 0.00401058
-0.0275522 -0.034134 0.999037 0.00359517
-0.0280984 -0.0343287 0.999015 0.00205175
-0.0285999 -0.0354565 0.998962 0.00263924
-0.0287031 -0.0357059 0.99895 0.00156078
-0.0286952 -0.0357939 0.998947 0
-0.0296181 -0.0360217 0.998912 0
-0.0285646 -0.0360142 0.998943 0
-0.0286373 -0.0360101 0.998941 0
-0.0288333 -0.0364424 0.99892 0
-0.0287166 -0.0365699 0.998918 0.000328455
-0.027695 -0.0362351 0.998959 0
-0.0285041 -0.0365668 0.998925 0.000444037
-0.0290246 -0.0365741 0.998909 0.000555493
-0.0295955 -0.0373102 0.998865 0.00281053
-0.0289389 -0.0373802 0.998882 0.00263411
-0.0288256 -0.0375648 0.998878 0.00149138
-0.0272363 -0.037284 0.998933 0
-0.0284364 -0.0377043 0.998884 0.000267035
-0.0275929 -0.0373087 0.998923 0
-0.0269222 -0.0378661 0.99892 0
-0.027009 -0.038706 0.998886 0.0004651
-0.026104 -0.0393498 0.998884 0
-0.0266526 -0.0404095 0.998828 0
-0.0257888 -0.0404423 0.998849 0
-0.0260812 -0.0409009 0.998823 0
-0.0266942 -0.0417038 0.998773 0
-0.0276316 -0.0425458 0.998712 0.00124246
-0.0277088 -0.0433032 0.998678 9.13529e-05
-0.0283428 -0.0445555 0.998605 0.00354158
-0.0277606 -0.0459748 0.998557 0.00514809
-0.0273928 -0.0469669 0.998521 0.00256954
-0.0279462 -0.0483845 0.998438 0.00443373
-0.0300612 -0.0495768 0.998318 0.00743688
-0.0285526 -0.0497928 0.998351 0.00508468
-0.0294736 -0.0505416 0.998287 0.00432135
-0.0293457 -0.0512463 0.998255 0.00419512
-0.0291036 -0.0521862 0.998213 0.00528351
-0.0302621 -0.053268 0.998122 0.00553442
-0.0300322 -0.0540149 0.998088 0.00490351
-0.0295738 -0.0546354 0.998068 0.00504532
-0.0297814 -0.0555024 0.998014 0.00373856
-0.0305346 -0.0574976 0.997879 0.00403112
-0.0316048 -0.0584961 0.997787 0.00235141
-0.031994 -0.0596543 0.997706 0.00250712
-0.031576 -0.0606161 0.997662 0.000808441
-0.0320114 -0.0623228 0.997543 0.00244124
-0.031476 -0.0638055 0.997466 0.00222776
-0.0324914 -0.0660419 0.997288 0.00421106
-0.0327072 -0.0674862 0.997184 0.00405806
-0.0328974 -0.0685786 0.997103 0.00252425
-0.0333047 -0.0703527 0.996966 0.00398815
-0.0334024 -0.0715916 0.996875 0.00174978
-0.0330587 -0.0738322 0.996723 0.000368765
-0.0341596 -0.0762832 0.996501 0.00298374
-0.0350964 -0.0786062 0.996288 0.00477242
-0.0344011 -0.0795392 0.996238 0.00317062
-0.0344332 -0.0809316 0.996125 0.00348059
-0.0348204 -0.0816509 0.996053 0.00150218
-0.0338459 -0.0824552 0.99602 0
-0.0341118 -0.083543 0.99592 0
-0.034863 -0.0847467 0.995793 0.00114849
-0.0341087 -0.0852172 0.995778 0
-0.034748 -0.0863267 0.995661 0
-0.0343556 -0.0866209 0.995649 0
-0.0353748 -0.0871621 0.995566 0
-0.0351517 -0.0881461 0.995487 0
-0.034809 -0.089453 0.995383 0
-0.0348754 -0.090204 0.995313 0
-0.0346977 -0.0909178 0.995254 0
-0.0348583 -0.0921242 0.995137 0
-0.0356057 -0.0934776 0.994985 0
-0.0358316 -0.0941485 0.994913 0
-0.0376637 -0.0957501 0.994693 0
-0.0376026 -0.0967722 0.994596 9.51307e-05
-0.038104 -0.0979355 0.994463 0.00125546
-0.0380333 -0.0993294 0.994327 0.00204712
-0.0391614 -0.100906 0.994125 0.00381568
-0.0398407 -0.101731 0.994014 0.00423467
-0.0406117 -0.102409 0.993913 0.00491431
-0.0397163 -0.103219 0.993865 0.00427181
-0.0405733 -0.104662 0.99368 0.00538067
-0.0390246 -0.104113 0.9938 0.00331084
-0.0391056 -0.104615 0.993744 0.00244259
-0.0402835 -0.106289 0.993519 0.0042264
-0.0401512 -0.106722 0.993478 0.00370129
-0.0399789 -0.106935 0.993462 0.00133203
-0.0388116 -0.107185 0.993481 0
-0.039766 -0.108285 0.993324 0.000183605
-0.0402219 -0.108995 0.993228 0
-0.0402362 -0.109876 0.993131 0
-0.040833 -0.110971 0.992985 0.000624188
-0.0406621 -0.11159 0.992922 0
-0.0416799 -0.11347 0.992667 0.00263077
-0.0410884 -0.114205 0.992607 0.000858608
-0.0418684 -0.115066 0.992475 0.000956566
-0.0432558 -0.116956 0.992195 0.00172093
-0.0429306 -0.118297 0.99205 0.00250961
-0.0435146 -0.118948 0.991946 0.00126577
-0.0435385 -0.11961 0.991866 0
-0.0434952 -0.120813 0.991722 0
-0.0446861 -0.121733 0.991556 0
-0.044804 -0.122368 0.991473 0
-0.0447984 -0.123852 0.991289 0
-0.0451074 -0.124844 0.99115 0
-0.0450006 -0.126021 0.991006 0
-0.0444621 -0.126772 0.990935 0
-0.0445709 -0.127951 0.990779 0
-0.0453988 -0.129856 0.990493 0
-0.046224 -0.130859 0.990323 0
-0.0466318 -0.131571 0.990209 0
-0.046132 -0.131941 0.990184 0
-0.0468318 -0.132663 0.990054 0
-0.0472808 -0.133698 0.989894 0
-0.0471016 -0.134919 0.989736 0
-0.0473687 -0.135697 0.989617 0
-0.0471372 -0.136892 0.989464 0
-0.0471799 -0.137978 0.989311 0
-0.0471179 -0.138687 0.989215 0
-0.0478649 -0.13963 0.989046 0
-0.0476494 -0.139905 0.989018 0
-0.0477201 -0.140544 0.988924 0
-0.048393 -0.141838 0.988706 0
-0.0489662 -0.143412 0.988451 0
-0.050293 -0.144561 0.988217 0
-0.0506065 -0.146109 0.987973 0
-0.0460944 0.0572281 0.997297 0.00342274
-0.0451863 0.0592493 0.99722 0.00123922
-0.0449339 0.0603685 0.997164 0.000678498
-0.0462844 0.0606606 0.997085 0.00435161
-0.0479649 0.0588193 0.997116 0.00696594
-0.0474005 0.0595399 0.9971 0.00400876
-0.0473952 0.059688 0.997091 0.00238991
-0.0471485 0.059088 0.997139 0.00317696
-0.0468797 0.0593816 0.997134 0.0031414
-0.0467985 0.0591705 0.99715 0.00310698
-0.0463646 0.0597765 0.997134 0.00231051
-0.0461025 0.0584633 0.997224 0.00332521
-0.0460209 0.0572753 0.997297 0.0028221
-0.0451997 0.0574726 0.997323 0.000362477
-0.044253 0.0582841 0.997319 0
-0.0448967 0.0575244 0.997334 0.000258667
-0.044466 0.056111 0.997434 0.000284006
-0.0447781 0.0542752 0.997522 0.000975332
-0.0449147 0.0521879 0.997627 0.00189261
-0.0453516 0.0528033 0.997575 0.00290833
-0.0456612 0.0525678 0.997573 0.00349675
-0.0449651 0.0526443 0.9976 0.00367792
-0.0447988 0.0519676 0.997643 0.00341253
-0.044729 0.0523787 0.997625 0.00374683
-0.044663 0.0527709 0.997607 0.00472454
-0.0447929 0.0539734 0.997537 0.00457599
-0.0442877 0.0543632 0.997539 0.0036368
-0.0448207 0.0530945 0.997583 0.00442487
-0.0440783 0.0525944 0.997643 0.00358095
-0.0439542 0.0523743 0.99766 0.0023133
-0.0439085 0.0513629 0.997714 0.00392591
-0.0441783 0.0513615 0.997702 0.00344149
-0.043604 0.050574 0.997768 0.00365388
-0.0433886 0.0506793 0.997772 0.00318703
-0.0441182 0.0504719 0.997751 0.00308237
-0.0442432 0.0501409 0.997762 0.00475148
-0.0433771 0.0505434 0.997779 0.00337325
-0.043825 0.0504528 0.997764 0.0050041
-0.0446397 0.0513739 0.997681 0.00616139
-0.0438164 0.0499845 0.997788 0.00391847
-0.0447767 0.0492713 0.997781 0.00659839
-0.0445826 0.0472058 0.99789 0.00828748
-0.0445386 0.0468144 0.99791 0.00886875
-0.0444579 0.0454732 0.997976 0.00934038
-0.0450356 0.0450336 0.99797 0.0112126
-0.0447409 0.0442972 0.998016 0.00972725
-0.0437176 0.0436951 0.998088 0.00741057
-0.0417424 0.0429435 0.998205 0.00499274
-0.0412022 0.042379 0.998252 0.00461138
-0.0402456 0.0417148 0.998319 0.00270463
-0.0405787 0.0412039 0.998326 0.00196822
-0.0397987 0.0405129 0.998386 0.000939692
-0.0404688 0.0396964 0.998392 0.00106344
-0.0396399 0.0397915 0.998421 0
-0.0383731 0.0402221 0.998454 0
-0.0387599 0.0402431 0.998438 0.00140584
-0.0375758 0.0409946 0.998453 0.000684574
-0.0382993 0.0392103 0.998497 0.0031483
-0.037722 0.0388998 0.998531 0.00294275
-0.0386897 0.0387632 0.998499 0.00543295
-0.0393099 0.0385445 0.998483 0.00387839
-0.0399928 0.0386419 0.998452 0.00426398
-0.0390952 0.0385633 0.998491 0.0024868
-0.0394301 0.0378948 0.998504 0.00328096
-0.0405625 0.037061 0.998489 0.00534536
-0.0410933 0.0370898 0.998467 0.0065993
-0.0421876 0.0358474 0.998466 0.00741939
-0.0421015 0.0346607 0.998512 0.00653049
-0.042188 0.035513 0.998478 0.00524093
-0.041257 0.034996 0.998535 0.00290466
-0.0417383 0.0340045 0.99855 0.00246621
-0.0425915 0.032603 0.99856 0.00428569
-0.0427211 0.0321816 0.998569 0.00576158
-0.0406229 0.0318096 0.998668 0.00282396
-0.0402965 0.0309481 0.998708 0.0022403
-0.0394054 0.0299715 0.998774 0.00151416
-0.0394579 0.029572 0.998784 0.003147
-0.0404786 0.0276067 0.998799 0.00366759
-0.039761 0.0269094 0.998847 0.00372062
-0.038557 0.0256529 0.998927 0.00203188
-0.0387266 0.0249126 0.998939 0.00236551
-0.0391486 0.0234578 0.998958 0.00238067
-0.039634 0.0229145 0.998951 0.00204219
-0.0393874 0.0219657 0.998983 0.00317887
-0.0410802 0.0213766 0.998927 0.00471221
-0.0420503 0.0201048 0.998913 0.00786444
-0.0410557 0.0193951 0.998969 0.00724415
-0.041249 0.0185849 0.998976 0.0067365
-0.0392057 0.0182903 0.999064 0.00164573
-0.0382027 0.0177341 0.999113 0.00163863
-0.0383591 0.0171562 0.999117 0.000463154
-0.0370849 0.0171815 0.999164 0.000925234
-0.0369717 0.0165039 0.99918 0.00168007
-0.0359528 0.0160948 0.999224 0
-0.0362012 0.0155435 0.999224 0
-0.0366632 0.0148954 0.999217 0
-0.0360373 0.015043 0.999237 0
-0.0361487 0.0145924 0.99924 0
-0.0358331 0.0136912 0.999264 0.00123799
-0.0361839 0.0121111 0.999272 0.0025989
-0.036003 0.0111237 0.99929 0.00267916
-0.0360864 0.00949385 0.999304 0.00387143
-0.0352984 0.00943034 0.999332 0.00282433
-0.035517 0.00862574 0.999332 0.00238963
-0.0341477 0.00923151 0.999374 0.000372885
-0.0347776 0.00810571 0.999362 0.000723239
-0.034545 0.00852062 0.999367 0
-0.0345459 0.00752189 0.999375 0
-0.0339054 0.00742986 0.999397 0
-0.033831 0.00715007 0.999402 0
-0.0345067 0.00646979 0.999384 0
-0.0347301 0.00558005 0.999381 0
-0.033528 0.0055149 0.999423 0
-0.0330751 0.00532042 0.999439 0
-0.0326487 0.00504249 0.999454 0
-0.0316982 0.00463761 0.999487 0
-0.0319485 0.00405489 0.999481 0
-0.0325931 0.00443878 0.999459 0
-0.0327657 0.00346314 0.999457 0
-0.0336102 0.0028896 0.999431 0
-0.0333697 0.00244134 0.99944 0
-0.0329246 0.00221098 0.999455 0
-0.0324805 0.00188622 0.999471 0
-0.0328114 0.00142902 0.999461 0
-0.0319415 0.00106132 0.999489 0
-0.0324166 0.000465873 0.999474 0
-0.0318924 -2.96713e-05 0.999491 0
-0.031563 -0.000198103 0.999502 0
-0.0308183 -0.000290706 0.999525 0
-0.0308106 -0.000887881 0.999525 0.00088218
-0.0310872 -0.000612263 0.999516 0.00102279
-0.0307408 -0.000179106 0.999527 0
-0.0315974 -0.000722617 0.9995 0
-0.0325044 -0.00209134 0.999469 0
-0.0333862 -0.00237799 0.99944 0.00137739
-0.0326999 -0.00277636 0.999461 0.00153524
-0.0316295 -0.00257902 0.999496 0.000423735
-0.0304973 -0.00315069 0.99953 0
-0.0310024 -0.00337928 0.999514 0
-0.0312995 -0.00485636 0.999498 0
-0.0308747 -0.00550076 0.999508 0
-0.0303278 -0.0056405 0.999524 0
-0.0299667 -0.00547058 0.999536 0
-0.0302752 -0.00552425 0.999526 0
-0.0305429 -0.00508249 0.99952 0
-0.0305703 -0.0059221 0.999515 0
-0.0312443 -0.00685894 0.999488 0.00105471
-0.0322607 -0.00775655 0.999449 0.00227953
-0.0325152 -0.00785903 0.99944 0.00192245
-0.0304971 -0.00749832 0.999507 0
-0.0316417 -0.00788777 0.999468 0
-0.0316051 -0.00843881 0.999465 0
-0.0316465 -0.00991638 0.99945 0.00114725
-0.0328723 -0.00977186 0.999412 0.00268452
-0.0323647 -0.0104206 0.999422 0.0018462
-0.0325322 -0.0113458 0.999406 0.00338909
-0.0324088 -0.0111351 0.999413 0.00319431
-0.0319452 -0.0116307 0.999422 0.00251525
-0.0303212 -0.0116687 0.999472 0.00123836
-0.0305532 -0.0111104 0.999471 0
-0.0305687 -0.0116487 0.999465 0
-0.0298534 -0.011277 0.999491 0
-0.0293849 -0.0112441 0.999505 0
-0.0294602 -0.0113263 0.999502 0
-0.0292307 -0.0123893 0.999496 0
-0.0298145 -0.0129689 0.999471 0
-0.0303028 -0.0139934 0.999443 0
-0.0308384 -0.0138355 0.999429 0
-0.0295477 -0.0149585 0.999451 0
-0.0309306 -0.0162178 0.99939 0.00321518
-0.0317009 -0.0175139 0.999344 0.00423466
-0.0318243 -0.0176763 0.999337 0.00447667
-0.0319649 -0.0185354 0.999317 0.00470843
-0.0323882 -0.0177764 0.999317 0.00432407
-0.033155 -0.018674 0.999276 0.00644274
-0.0328117 -0.0178155 0.999303 0.00607558
-0.0323931 -0.0182302 0.999309 0.00377671
-0.0309502 -0.0172344 0.999372 0.000697968
-0.0305206 -0.0173524 0.999384 0
-0.0292688 -0.0165429 0.999435 0
-0.029738 -0.0170716 0.999412 0
-0.0307693 -0.0171684 0.999379 0
-0.0314858 -0.0176719 0.999348 0
-0.0320306 -0.0179314 0.999326 0.000656072
-0.0305795 -0.0175096 0.999379 0
-0.0309424 -0.0189879 0.999341 0.00177824
-0.031529 -0.0195627 0.999311 0.00502566
-0.0333041 -0.0209124 0.999226 0.00866394
-0.0328805 -0.0205869 0.999247 0.00733317
-0.0310276 -0.0199735 0.999319 0.00570948
-0.0302984 -0.0193294 0.999354 0.00453561
-0.0306437 -0.0190956 0.999348 0.00315793
-0.0312654 -0.0197552 0.999316 0.00335648
-0.0301059 -0.0202742 0.999341 0.00328314
-0.0299262 -0.0193487 0.999365 0.00272095
-0.0285583 -0.0190881 0.99941 0
-0.0285747 -0.0188776 0.999413 0
-0.0272953 -0.0194567 0.999438 0
-0.0274964 -0.0192129 0.999437 0
-0.0274802 -0.0196142 0.99943 0
-0.0267406 -0.0197469 0.999447 0
-0.0274261 -0.0197342 0.999429 0
-0.026444 -0.0198054 0.999454 0
-0.0271526 -0.0204913 0.999421 0
-0.0265103 -0.0207681 0.999433 0
-0.0256224 -0.0202115 0.999467 0
-0.0257322 -0.020535 0.999458 0
-0.0270932 -0.0211957 0.999408 0
-0.0270728 -0.0212203 0.999408 0
-0.0272409 -0.0211703 0.999405 0
-0.0267395 -0.0213478 0.999415 0
-0.0272685 -0.0216173 0.999394 0
-0.0274022 -0.0215069 0.999393 0
-0.0273042 -0.0216455 0.999393 0
-0.028517 -0.0216163 0.99936 0
-0.0281034 -0.0219018 0.999365 0
-0.027626 -0.0222913 0.99937 0
-0.0279083 -0.0225011 0.999357 0.00115886
-0.0265834 -0.0224691 0.999394 0
-0.0263647 -0.0222381 0.999405 0
-0.0272375 -0.0224383 0.999377 0.000279888
-0.0277736 -0.0224335 0.999363 0.000766348
-0.0274187 -0.0223621 0.999374 0.000784631
-0.027138 -0.0220618 0.999388 7.86817e-06
-0.0268676 -0.0221529 0.999394 2.30135e-05
-0.0269507 -0.0221711 0.999391 0
-0.0269076 -0.023123 0.99937 0
-0.0273113 -0.0234379 0.999352 0.00177516
-0.0280159 -0.0240612 0.999318 0.00319184
-0.0281741 -0.0234461 0.999328 0.00112818
-0.0268892 -0.0241714 0.999346 0.00131486
-0.0268472 -0.0239175 0.999353 0.00148176
-0.0265505 -0.0241598 0.999355 0.00052049
-0.026627 -0.0242249 0.999352 0.0013252
-0.0256383 -0.0238338 0.999387 0
-0.0262646 -0.0243748 0.999358 0.000835183
-0.0257534 -0.0239912 0.99938 0
-0.0244479 -0.0244858 0.999401 0
-0.026555 -0.0251082 0.999332 0.0024159
-0.025486 -0.0245456 0.999374 0
-0.025587 -0.0248433 0.999364 9.89726e-06
-0.0260854 -0.0253613 0.999338 0.00253485
-0.0266612 -0.0255835 0.999317 0.00233912
-0.0262158 -0.0262118 0.999313 0.00215278
-0.025669 -0.0263568 0.999323 0.00181905
-0.0268777 -0.02712 0.999271 0.00336172
-0.0278156 -0.0274275 0.999237 0.0042715
-0.0276887 -0.0279763 0.999225 0.00517977
-0.0273509 -0.0282739 0.999226 0.00596421
-0.0274974 -0.0285851 0.999213 0.00576693
-0.0280085 -0.0288589 0.999191 0.00667977
-0.0271286 -0.0285653 0.999224 0.00462392
-0.0266491 -0.0280248 0.999252 0.00287717
-0.0280061 -0.0277485 0.999223 0.00251372
-0.0275736 -0.027974 0.999228 0.00441539
-0.0279646 -0.0276531 0.999226 0.00487573
-0.0281803 -0.0274051 0.999227 0.00597666
-0.0291455 -0.0281487 0.999179 0.00956345
-0.0298642 -0.0277351 0.999169 0.0106486
-0.0291359 -0.0274893 0.999197 0.0109839
-0.0304972 -0.0279822 0.999143 0.012973
-0.0314839 -0.0278626 0.999116 0.0129412
-0.0301223 -0.0275218 0.999167 0.0107714
-0.0297664 -0.0277291 0.999172 0.0113879
-0.0286367 -0.0274674 0.999212 0.0101389
-0.0279927 -0.0280658 0.999214 0.0112093
-0.0275236 -0.0272904 0.999249 0.00963361
-0.0272094 -0.0279631 0.999239 0.0117888
-0.0264016 -0.0280747 0.999257 0.0116085
-0.0266694 -0.0281293 0.999248 0.0106076
-0.0255184 -0.0279712 0.999283 0.00948613
-0.025682 -0.0282352 0.999271 0.0106946
-0.0278547 -0.0291245 0.999188 0.0144978
-0.0267467 -0.0291173 0.999218 0.0136854
-0.0263268 -0.0290909 0.99923 0.0130065
-0.0264457 -0.029363 0.999219 0.0127757
-0.0264746 -0.0287181 0.999237 0.0122547
-0.0268526 -0.0283939 0.999236 0.0122255
-0.0269293 -0.0281958 0.99924 0.0105967
-0.0274892 -0.0281665 0.999225 0.0102089
-0.0267282 -0.0285365 0.999235 0.0106232
-0.0265238 -0.0285923 0.999239 0.00912012
-0.0271285 -0.0293227 0.999202 0.009655
-0.0265561 -0.0289081 0.999229 0.00723175
-0.0268968 -0.0290407 0.999216 0.00792902
-0.0262013 -0.0285501 0.999249 0.00485444
-0.0261532 -0.0290406 0.999236 0.0061667
-0.026368 -0.0288714 0.999235 0.00624643
-0.0249718 -0.028111 0.999293 0.00302146
-0.0249313 -0.0284297 0.999285 0.00323975
-0.0244313 -0.0285205 0.999295 0.00171268
-0.0242948 -0.0283458 0.999303 0
-0.0243866 -0.0285364 0.999295 0.000550124
-0.0237578 -0.0285565 0.99931 0.00062398
-0.0231313 -0.0283959 0.999329 0
-0.0227247 -0.0286619 0.999331 0
-0.0222884 -0.0285495 0.999344 0
-0.0231951 -0.029006 0.99931 0
-0.0229817 -0.0295504 0.999299 0
-0.0227262 -0.0305222 0.999276 0.000482
-0.0237502 -0.0316212 0.999218 0.00176778
-0.0238205 -0.0326018 0.999184 0.00259302
-0.0250103 -0.0331478 0.999138 0.00230787
-0.0261328 -0.0333945 0.999101 0.0042459
-0.0273525 -0.034019 0.999047 0.00630896
-0.0277605 -0.0347634 0.99901 0.00805234
-0.0287083 -0.0349705 0.998976 0.00787151
-0.0280212 -0.0353825 0.998981 0.00583033
-0.0283339 -0.0356423 0.998963 0.00537008
-0.0277863 -0.0357378 0.998975 0.00493202
-0.0274959 -0.0359923 0.998974 0.00398473
-0.0265412 -0.0356647 0.999011 0.00324375
-0.0260493 -0.0350139 0.999047 0.00233747
-0.0248546 -0.0345057 0.999095 0
-0.0246004 -0.0347358 0.999094 0.000118978
-0.0235539 -0.0347757 0.999118 0
-0.0221153 -0.0348203 0.999149 0
-0.022878 -0.0347401 0.999134 0
-0.0230919 -0.035157 0.999115 0
-0.0235055 -0.0355841 0.99909 0.00150765
-0.0237515 -0.0362189 0.999062 0.00289381
-0.0227937 -0.0363671 0.999079 0.000944363
-0.021267 -0.036037 0.999124 0
-0.0208135 -0.0365477 0.999115 0
-0.0207381 -0.0368432 0.999106 0
-0.0214839 -0.0374247 0.999068 0
-0.0202381 -0.0377131 0.999084 0
-0.0198581 -0.037879 0.999085 0
-0.0192513 -0.0384675 0.999074 0
-0.0197988 -0.0392817 0.999032 0
-0.0211949 -0.0404322 0.998958 0
-0.0219837 -0.0420675 0.998873 0
-0.0212028 -0.0424671 0.998873 0
-0.0219025 -0.042876 0.99884 0
-0.0225059 -0.0434822 0.998801 0.000920114
-0.022891 -0.0444472 0.998749 0.00243704
-0.0238402 -0.0461192 0.998651 0.00404797
-0.0257931 -0.0477432 0.998527 0.00737645
-0.0254179 -0.0483359 0.998508 0.00681279
-0.0249464 -0.0486708 0.998503 0.00498801
-0.0253843 -0.0492895 0.998462 0.0037554
-0.0243798 -0.0499964 0.998452 0.00140847
-0.0243857 -0.051374 0.998382 0.00299669
-0.0255243 -0.0524495 0.998297 0.00407656
-0.0249971 -0.0532312 0.998269 0.00120056
-0.0241825 -0.0540324 0.998246 0
-0.0242394 -0.0553148 0.998175 0
-0.025171 -0.056654 0.998076 0
-0.0258939 -0.0582101 0.997968 0.000950852
-0.025913 -0.0594967 0.997892 0.00194135
-0.0266841 -0.0606452 0.997803 0.00257445
-0.0270984 -0.0617189 0.997726 0.00223501
-0.0274661 -0.0628034 0.997648 0.00139021
-0.0269662 -0.0637238 0.997603 0
-0.0263254 -0.0650077 0.997537 0
-0.0279877 -0.0669101 0.997366 0
-0.0289425 -0.0684813 0.997232 0
-0.0289846 -0.0701777 0.997113 0.0014374
-0.0284349 -0.0721482 0.996988 0.00214779
-0.0286352 -0.0734632 0.996887 0.000618069
-0.0300841 -0.0752526 0.996711 0.00125593
-0.0301857 -0.0771014 0.996566 0.000934216
-0.030564 -0.0791865 0.996391 0.00201946
-0.031184 -0.0806005 0.996258 0.00185299
-0.0310546 -0.0818948 0.996157 0.00204549
-0.0299416 -0.0823679 0.996152 0
-0.0297049 -0.0835302 0.996062 0.000318739
-0.0303444 -0.0843981 0.99597 0
-0.0300981 -0.0850089 0.995925 0
-0.030178 -0.0858087 0.995854 0
-0.0307043 -0.086514 0.995777 0
-0.030998 -0.0875503 0.995678 0
-0.0313905 -0.0885883 0.995574 0
-0.0311562 -0.0894457 0.995504 3.87579e-05
-0.0309144 -0.0899167 0.995469 0
-0.0310865 -0.0903452 0.995425 0
-0.032159 -0.0913568 0.995299 0
-0.0321045 -0.0921209 0.99523 0
-0.0334163 -0.0937058 0.995039 0.00171282
-0.0326932 -0.093991 0.995036 0
-0.0334407 -0.0950486 0.994911 0.00118085
-0.0338846 -0.0956676 0.994837 0.00111461
-0.0336005 -0.0966344 0.994753 0.000448231
-0.0324501 -0.0975653 0.9947 0
-0.0325928 -0.0980941 0.994643 0.000324934
-0.0335714 -0.0983382 0.994587 0
-0.0341562 -0.0991547 0.994486 0
-0.0344105 -0.100527 0.994339 0
-0.0357693 -0.102186 0.994122 0
-0.0356931 -0.102776 0.994064 0
-0.0364216 -0.103822 0.993929 0
-0.036641 -0.104632 0.993836 0
-0.0371233 -0.105829 0.993691 0.000938065
-0.037849 -0.10668 0.993573 0.00228322
-0.0383281 -0.107822 0.993431 0.00323971
-0.0392488 -0.108782 0.99329 0.00361321
-0.0389557 -0.108497 0.993333 0.00144547
-0.0403755 -0.109698 0.993145 0.00255582
-0.0402173 -0.110209 0.993094 0.00123063
-0.0409594 -0.111308 0.992942 0.00139587
-0.0407294 -0.111991 0.992874 0
-0.0400965 -0.112926 0.992794 0
-0.0406526 -0.113983 0.992651 0
-0.0408531 -0.114852 0.992542 0.00074877
-0.0410486 -0.116109 0.992388 0.000363564
-0.04134 -0.117405 0.992223 0.000790496
-0.0408097 -0.118292 0.99214 0
-0.0416269 -0.119398 0.991974 0
-0.0422343 -0.120712 0.991789 0
-0.0419798 -0.121832 0.991663 0
-0.0421126 -0.122959 0.991518 0
-0.0425802 -0.124029 0.991365 0
-0.042635 -0.125459 0.991182 0
-0.042393 -0.12654 0.991055 0
-0.0425385 -0.127642 0.990908 0
-0.0423513 -0.128292 0.990832 0
-0.042068 -0.128732 0.990787 0
-0.0426694 -0.128891 0.99074 0
-0.0420628 -0.129676 0.990664 0
-0.0426879 -0.13093 0.990472 0
-0.0439842 -0.131939 0.990282 0
-0.0443932 -0.132062 0.990247 0
-0.0456387 -0.1338 0.989957 0
-0.045605 -0.135438 0.989736 0
-0.0461411 -0.136869 0.989514 0
-0.0464172 -0.136814 0.989509 0
-0.0470162 -0.137556 0.989378 0
-0.0467339 -0.138028 0.989325 0
-0.0473616 -0.138334 0.989253 0
-0.0478499 -0.139164 0.989113 0
-0.0484397 -0.139874 0.988984 0
-0.044355 0.058342 0.997311 0
-0.0447397 0.0570653 0.997368 0
-0.044634 0.0597434 0.997215 0.00117035
-0.0438474 0.0597807 0.997248 3.3497e-05
-0.0445521 0.0608224 0.997154 0
-0.0454767 0.0580587 0.997277 0.00297517
-0.0461559 0.0551596 0.99741 0.00322293
-0.0449542 0.0571732 0.997352 0.00147485
-0.04552 0.055554 0.997418 0
-0.0455077 0.0572467 0.997322 0
-0.0464794 0.0557215 0.997364 0.00093516
-0.0459364 0.0569872 0.997318 7.911e-05
-0.0459019 0.0563935 0.997353 0.000848433
-0.0462906 0.0555816 0.99738 0.000306346
-0.0469488 0.0556172 0.997348 0.000968736
-0.0469802 0.053895 0.997441 0.000495724
-0.0474846 0.052053 0.997515 0.00123708
-0.047216 0.0520522 0.997528 0.0019246
-0.0463095 0.0522837 0.997558 0.00214002
-0.0469376 0.0505786 0.997617 0.0040049
-0.0463151 0.0515949 0.997594 0.00300086
-0.0460483 0.0506916 0.997652 0.00324271
-0.0467286 0.0495989 0.997676 0.0061776
-0.0464599 0.0504577 0.997645 0.00605705
-0.0453862 0.0505533 0.99769 0.00444688
-0.0455685 0.0505163 0.997683 0.00390377
-0.0446575 0.0506677 0.997717 0.00429949
-0.044724 0.0500017 0.997747 0.00683688
-0.0440053 0.0505614 0.997751 0.00525696
-0.044196 0.0503451 0.997754 0.00493336
-0.0445136 0.0506435 0.997724 0.00546734
-0.0441365 0.0510329 0.997721 0.0066535
-0.044898 0.0487811 0.9978 0.00706084
-0.04448 0.0503453 0.997741 0.00630805
-0.0439313 0.0506923 0.997748 0.00521634
-0.0435222 0.0511671 0.997741 0.00431996
-0.0424451 0.050136 0.99784 0.00393997
-0.0427875 0.0493678 0.997864 0.00427377
-0.0427863 0.0482455 0.997919 0.00485168
-0.0432233 0.0485055 0.997887 0.00747055
-0.0429529 0.0465682 0.997991 0.0067052
-0.0416128 0.0456393 0.998091 0.00579557
-0.0425875 0.0448461 0.998086 0.00626988
-0.0421531 0.0436878 0.998156 0.00416537
-0.0410651 0.0430327 0.998229 0.00317972
-0.0389963 0.0437604 0.998281 0.00109303
-0.0395566 0.0431375 0.998286 0.000845128
-0.038665 0.0423945 0.998353 0.00047206
-0.0383216 0.0415974 0.998399 0.000630857
-0.038267 0.0410424 0.998424 0.00256983
-0.0384284 0.039501 0.99848 0.00236846
-0.0380346 0.0386805 0.998527 0.0026883
-0.0371242 0.038182 0.998581 0.00162587
-0.0370716 0.0383405 0.998577 0.00186295
-0.0367451 0.0372135 0.998632 0.00219741
-0.0377459 0.0372249 0.998594 0.00307317
-0.0382866 0.0373829 0.998567 0.00432276
-0.0373744 0.0374717 0.998599 0.00406537
-0.0378415 0.0385509 0.99854 0.00337275
-0.0382277 0.0380552 0.998544 0.00446419
-0.0368377 0.0386156 0.998575 0.0017541
-0.0363026 0.0389647 0.998581 0
-0.036034 0.0402786 0.998539 0
-0.0362036 0.039208 0.998575 0
-0.0372659 0.0390681 0.998541 0.000372747
-0.0365131 0.0384444 0.998593 0.000240848
-0.0373041 0.0382187 0.998573 0.000385141
-0.0392112 0.0372417 0.998537 0.00300999
-0.0402922 0.0368702 0.998507 0.00349514
-0.0409341 0.0355386 0.99853 0.00632995
-0.0402073 0.0345098 0.998595 0.00641125
-0.039678 0.0335279 0.99865 0.00469731
-0.040501 0.0326626 0.998646 0.00587172
-0.0415331 0.03154 0.998639 0.00867694
-0.0415703 0.0308369 0.99866 0.00853889
-0.0417162 0.0296981 0.998688 0.00907708
-0.0415409 0.0289643 0.998717 0.00830405
-0.0403861 0.028834 0.998768 0.00606669
-0.0400737 0.0268475 0.998836 0.00597298
-0.0385558 0.0264583 0.998906 0.00406399
-0.0391441 0.0244661 0.998934 0.00459064
-0.037921 0.0241311 0.998989 0.00266002
-0.0374043 0.0235454 0.999023 0.00169192
-0.037322 0.0227034 0.999045 0.0018629
-0.0369893 0.021323 0.999088 0.00220997
-0.0383917 0.0202478 0.999058 0.00347055
-0.0407443 0.0189624 0.99899 0.00828082
-0.0400852 0.0187002 0.999021 0.00858869
-0.0394983 0.0176585 0.999064 0.00694898
-0.0380786 0.0176619 0.999119 0.00465157
-0.0376419 0.0161192 0.999161 0.00512481
-0.0382795 0.016517 0.999131 0.00421878
-0.0378928 0.0151365 0.999167 0.00402735
-0.0344989 0.015356 0.999287 0
-0.0350822 0.0146146 0.999278 0.000838788
-0.0352875 0.0149282 0.999266 0.000740106
-0.0353465 0.0141594 0.999275 0.00180401
-0.0354787 0.0135118 0.999279 0.00204048
-0.0352067 0.0124906 0.999302 0.00130428
-0.0345931 0.0122592 0.999326 0.00138604
-0.0345876 0.0115822 0.999335 0.00277369
-0.0353598 0.00979121 0.999327 0.00512494
-0.0354902 0.0100738 0.999319 0.00582623
-0.0322706 0.0101769 0.999427 5.12734e-05
-0.0311927 0.0101139 0.999462 0
-0.0322404 0.00868094 0.999442 0
-0.0328404 0.00797999 0.999429 0
-0.0320615 0.00666534 0.999464 0
-0.0336131 0.00563328 0.999419 0.000389826
-0.0330533 0.00469943 0.999443 0.00109684
-0.0330757 0.00418216 0.999444 0
-0.0333718 0.00363219 0.999436 0
-0.0328326 0.00417636 0.999452 3.15076e-05
-0.0307188 0.00485334 0.999516 0
-0.0292955 0.0061196 0.999552 0
-0.0299215 0.00546242 0.999537 0
-0.0301723 0.00510059 0.999532 0
-0.0291662 0.00491686 0.999563 0
-0.0303829 0.004063 0.99953 0
-0.0300806 0.00438778 0.999538 0
-0.028828 0.00409375 0.999576 0
-0.0303854 0.00369306 0.999531 0
-0.0291784 0.00296992 0.99957 0
-0.0280205 0.00256053 0.999604 0
-0.0278831 0.00249984 0.999608 0
-0.0277736 0.00201665 0.999612 0
-0.027552 0.00170123 0.999619 0
-0.0281912 0.00125076 0.999602 0
-0.0284217 0.000163283 0.999596 0
-0.0283521 -0.000253078 0.999598 0
-0.0297204 -0.00162755 0.999557 0
-0.0307161 -0.00153362 0.999527 0.00137715
-0.0298502 -0.00206941 0.999552 0.00121814
-0.0312041 -0.00203545 0.999511 0.00248406
-0.0314038 -0.00319267 0.999502 0.000802936
-0.0304644 -0.00317785 0.999531 0.00162662
-0.0301964 -0.00391352 0.999536 0
-0.0304478 -0.00439567 0.999527 0
-0.030315 -0.00473025 0.999529 0
-0.0300487 -0.00541791 0.999534 0
-0.0285728 -0.00456162 0.999581 0
-0.0283359 -0.00562563 0.999583 0
-0.02935 -0.00574589 0.999553 0
-0.0298887 -0.00634734 0.999533 0.000507192
-0.0293128 -0.00642654 0.99955 0
-0.0297364 -0.0066981 0.999535 0
-0.0299983 -0.00624998 0.99953 0
-0.0306045 -0.00716163 0.999506 0
-0.0283103 -0.00645871 0.999578 0
-0.0284812 -0.0069071 0.999571 0
-0.0290829 -0.00625465 0.999557 0
-0.0302337 -0.00787351 0.999512 0.00268904
-0.0303066 -0.00834668 0.999506 0.00362272
-0.0311664 -0.00974657 0.999467 0.00485159
-0.0309684 -0.0104262 0.999466 0.00448003
-0.0313586 -0.0109886 0.999448 0.00458787
-0.0326458 -0.0113414 0.999403 0.00631072
-0.0308709 -0.0113904 0.999458 0.00353107
-0.028336 -0.0112024 0.999536 9.21218e-05
-0.0290059 -0.0107609 0.999521 0
-0.0282774 -0.0109779 0.99954 0
-0.0277461 -0.0100898 0.999564 0
-0.0275016 -0.0102874 0.999569 0
-0.0274783 -0.0109633 0.999562 0
-0.0274577 -0.0114414 0.999557 0
-0.0281335 -0.0122858 0.999529 0
-0.0282467 -0.0136902 0.999507 0
-0.0277845 -0.0132353 0.999526 0
-0.0291399 -0.0141256 0.999476 0
-0.0295085 -0.01503 0.999452 0
-0.0300986 -0.0161191 0.999417 0.000723853
-0.0320734 -0.0173557 0.999335 0.00454029
-0.0320858 -0.0182049 0.999319 0.00543904
-0.0312734 -0.0177869 0.999353 0.00311085
-0.0321463 -0.0176454 0.999327 0.00333735
-0.0306325 -0.0177568 0.999373 0.00165077
-0.0309495 -0.0184485 0.999351 0.00221653
-0.0311701 -0.0171113 0.999368 0.000844209
-0.0299897 -0.0169668 0.999406 0
-0.0306706 -0.0172319 0.999381 0
-0.0295554 -0.0166071 0.999425 0
-0.0302272 -0.0172195 0.999395 0
-0.030022 -0.0172897 0.9994 0.000806929
-0.031178 -0.0182749 0.999347 0.00429517
-0.03029 -0.0176863 0.999385 0.00228628
-0.0299632 -0.0193674 0.999363 0.00413671
-0.0293865 -0.0192208 0.999383 0.00340499
-0.0294056 -0.0200394 0.999367 0.00378237
-0.0297782 -0.0188729 0.999378 0.00255144
-0.0277512 -0.0191945 0.99943 0.000688364
-0.0282052 -0.0195839 0.99941 0.00222394
-0.0286025 -0.0200614 0.999389 0.00473577
-0.0291183 -0.0204072 0.999368 0.00721984
-0.0281624 -0.0198711 0.999406 0.00405608
-0.0276664 -0.0193695 0.999429 2.66326e-05
-0.0259814 -0.0190943 0.99948 0
-0.024454 -0.0191083 0.999518 0
-0.0245306 -0.0187847 0.999523 0
-0.0240493 -0.0191137 0.999528 0
-0.0247056 -0.0191315 0.999512 0
-0.0243831 -0.0192298 0.999518 0
-0.0242908 -0.0194427 0.999516 0
-0.0239829 -0.0196013 0.99952 0
-0.0235582 -0.0199773 0.999523 0
-0.0235212 -0.0204993 0.999513 0
-0.0236905 -0.0208683 0.999502 0
-0.0252938 -0.02141 0.999451 0
-0.0263755 -0.0218071 0.999414 0
-0.0261759 -0.0222691 0.999409 0
-0.0265152 -0.022663 0.999391 0
-0.0267118 -0.0226206 0.999387 0
-0.026376 -0.021911 0.999412 0
-0.0255041 -0.0220015 0.999433 0
-0.0261992 -0.0216514 0.999422 0
-0.0279554 -0.0221499 0.999364 0
-0.0269967 -0.0225903 0.99938 0
-0.0256491 -0.0225639 0.999416 0
-0.0257463 -0.0227192 0.99941 0
-0.0267561 -0.0232641 0.999371 0
-0.0272134 -0.0235353 0.999353 0.00217155
-0.02755 -0.0236952 0.99934 0.00248962
-0.0279848 -0.0234467 0.999333 0.00366229
-0.0280981 -0.0237431 0.999323 0.00416022
-0.0273277 -0.0234233 0.999352 0.00222277
-0.0285949 -0.0237198 0.99931 0.00417111
-0.0292941 -0.0240842 0.999281 0.00644762
-0.0278868 -0.0245711 0.999309 0.00533204
-0.0268507 -0.0244913 0.999339 0.00307217
-0.0267802 -0.0249508 0.99933 0.00356804
-0.0251248 -0.0247011 0.999379 0.0022981
-0.0267658 -0.0252733 0.999322 0.00490464
-0.0256164 -0.0253419 0.999351 0.00411234
-0.02523 -0.0256467 0.999353 0.00280833
-0.0252297 -0.0255507 0.999355 0.00249329
-0.0255582 -0.025225 0.999355 0.00217046
-0.0258841 -0.0250286 0.999352 0.00314712
-0.0263433 -0.0252426 0.999334 0.0046037
-0.0257267 -0.024825 0.999361 0.00133536
-0.0237909 -0.0246152 0.999414 0
-0.0232059 -0.0250736 0.999416 0
-0.0235062 -0.0255035 0.999398 0
-0.0239638 -0.0257493 0.999381 0
-0.0227768 -0.0255488 0.999414 0.00116717
-0.0221566 -0.0252928 0.999434 0
-0.0228509 -0.0261939 0.999396 0.000789796
-0.0238082 -0.0272688 0.999345 0.00435732
-0.024345 -0.0277444 0.999319 0.00478406
-0.0255449 -0.0277911 0.999287 0.00571493
-0.024785 -0.0278848 0.999304 0.00376006
-0.024849 -0.0276983 0.999308 0.00472201
-0.025043 -0.0283368 0.999285 0.00631304
-0.026126 -0.0280331 0.999265 0.00693011
-0.0261596 -0.0285036 0.999251 0.00708221
-0.0245934 -0.0276618 0.999315 0.00499358
-0.0248419 -0.0277119 0.999307 0.00497238
-0.023707 -0.0275557 0.999339 0.00300896
-0.0260283 -0.0280186 0.999269 0.00735138
-0.0271082 -0.028178 0.999235 0.00877039
-0.027041 -0.0282563 0.999235 0.00971534
-0.0268583 -0.0274756 0.999262 0.00876632
-0.0286495 -0.0282738 0.99919 0.012917
-0.0294724 -0.0280582 0.999172 0.0138721
-0.0287878 -0.0278329 0.999198 0.0124309
-0.0279555 -0.0274482 0.999232 0.010987
-0.0277271 -0.0272072 0.999245 0.00837554
-0.0271339 -0.0271917 0.999262 0.00901246
-0.0283578 -0.0278422 0.99921 0.0097416
-0.0267299 -0.0283054 0.999242 0.00923821
-0.0241067 -0.0275085 0.999331 0.00635199
-0.0236517 -0.0276866 0.999337 0.00664691
-0.0248685 -0.0283357 0.999289 0.0101455
-0.0229565 -0.0279493 0.999346 0.00965666
-0.0250645 -0.028799 0.999271 0.0121486
-0.0247904 -0.0284069 0.999289 0.0108298
-0.02459 -0.0284589 0.999292 0.0114238
-0.0265094 -0.0286831 0.999237 0.0129123
-0.0267588 -0.028661 0.999231 0.0130252
-0.0253385 -0.0290729 0.999256 0.0116737
-0.025847 -0.0292827 0.999237 0.0107866
-0.0255191 -0.0290086 0.999253 0.00992877
-0.0245345 -0.0285245 0.999292 0.00861836
-0.0251535 -0.0289998 0.999263 0.0101466
-0.0251885 -0.0294923 0.999248 0.01021
-0.0259664 -0.0298147 0.999218 0.0119008
-0.02516 -0.0298149 0.999239 0.00922712
-0.0247856 -0.0301437 0.999238 0.00979498
-0.0246625 -0.029991 0.999246 0.00808176
-0.0242029 -0.0300638 0.999255 0.00586785
-0.0237924 -0.0301572 0.999262 0.00676518
-0.0238235 -0.0303719 0.999255 0.00715803
-0.0234601 -0.0301061 0.999271 0.00593902
-0.0228095 -0.0302093 0.999283 0.00570948
-0.0224487 -0.0293943 0.999316 0.00335223
-0.0226691 -0.0291803 0.999317 0.00243604
-0.0219334 -0.0294686 0.999325 0.00251116
-0.0211387 -0.0290328 0.999355 0
-0.0216946 -0.0290448 0.999343 0.000192318
-0.0223655 -0.0300345 0.999299 0.0013641
-0.0229813 -0.0305636 0.999269 0.00402542
-0.0247614 -0.0313726 0.999201 0.0056802
-0.0239664 -0.0312251 0.999225 0.00329373
-0.0236746 -0.0312086 0.999232 0.00222065
-0.0243916 -0.0319717 0.999191 0.00337749
-0.0246339 -0.0325263 0.999167 0.00520219
-0.0254553 -0.0329559 0.999133 0.00668869
-0.0265115 -0.0331316 0.999099 0.00587606
-0.0254195 -0.032961 0.999133 0.00479049
-0.0256927 -0.03412 0.999087 0.00607107
-0.0266448 -0.0346546 0.999044 0.00671411
-0.0260493 -0.0350303 0.999047 0.00560167
-0.0245905 -0.0348313 0.999091 0.00370443
-0.0236367 -0.0346366 0.99912 0.00227973
-0.0233062 -0.0349572 0.999117 0.00245885
-0.0221863 -0.0345083 0.999158 4.03781e-05
-0.0219002 -0.0346583 0.999159 0.00102555
-0.0210899 -0.0346509 0.999177 0
-0.0220067 -0.034744 0.999154 0.00100935
-0.0206487 -0.0350561 0.999172 0
-0.0193744 -0.0351922 0.999193 0
-0.0190329 -0.0352675 0.999197 0
-0.0185879 -0.0352509 0.999206 0
-0.017413 -0.0352338 0.999227 0
-0.0166237 -0.0352476 0.99924 0
-0.0162839 -0.0356907 0.99923 0
-0.0158545 -0.0361503 0.999221 0
-0.0158183 -0.0367582 0.999199 0
-0.0163032 -0.037445 0.999166 0
-0.0165893 -0.0385226 0.99912 0
-0.0163224 -0.0389347 0.999108 0
-0.0153516 -0.0395398 0.9991 0
-0.0163594 -0.0407808 0.999034 0
-0.0165976 -0.0410942 0.999017 0
-0.016292 -0.0412191 0.999017 0
-0.0177863 -0.0423448 0.998945 0
-0.0177718 -0.0434288 0.998898 0.000763922
-0.0188409 -0.0445747 0.998828 0.00181746
-0.0198687 -0.0454509 0.998769 0.00317959
-0.0206132 -0.0464259 0.998709 0.00339542
-0.0229884 -0.0483277 0.998567 0.00614396
-0.0213274 -0.0491652 0.998563 0.00475015
-0.0226254 -0.049734 0.998506 0.00477416
-0.0226806 -0.0507515 0.998454 0.00494677
-0.02282 -0.0520546 0.998384 0.00606819
-0.0224234 -0.0523585 0.998377 0.00265191
-0.0231028 -0.0537967 0.998285 0.00339103
-0.0230605 -0.0543907 0.998253 0.00203334
-0.022116 -0.0554948 0.998214 0.000663163
-0.021928 -0.0566746 0.998152 0.000241042
-0.0230532 -0.0579583 0.998053 0.000433874
-0.0223945 -0.0591216 0.998 0
-0.0234026 -0.0605055 0.997893 0.000306101
-0.0230717 -0.0612146 0.997858 0
-0.0223299 -0.0618548 0.997835 0
-0.0235244 -0.0634222 0.99771 0
-0.0231778 -0.0644933 0.997649 0
-0.0236662 -0.0661148 0.997531 0.000497185
-0.0239621 -0.0672314 0.99745 0
-0.0257166 -0.0697328 0.997234 0.00117536
-0.0248234 -0.0719296 0.997101 0.00172969
-0.0245428 -0.0737503 0.996975 0.00145378
-0.0250345 -0.0754021 0.996839 0.00165878
-0.0253633 -0.0775524 0.996666 0.00246155
-0.0257278 -0.0790054 0.996542 0.00199096
-0.0270132 -0.0811853 0.996333 0.00339454
-0.0273017 -0.0826032 0.996208 0.00356388
-0.0276737 -0.0837537 0.996102 0.00359786
-0.0272019 -0.0848544 0.996022 0.00284467
-0.0262135 -0.0855485 0.995989 0
-0.0264325 -0.086262 0.995922 0
-0.0266332 -0.0867786 0.995872 0
-0.0266783 -0.0876579 0.995793 0
-0.0277322 -0.0883315 0.995705 0
-0.0279309 -0.0888839 0.99565 0
-0.0269978 -0.0891539 0.995652 0
-0.0275377 -0.0896813 0.99559 0
-0.0281812 -0.0903953 0.995507 0.000448361
-0.0273388 -0.0907188 0.995501 0
-0.0275752 -0.0912484 0.995446 0
-0.0274711 -0.0920443 0.995376 0
-0.0281448 -0.0929205 0.995276 0
-0.02837 -0.0940387 0.995164 0.000249374
-0.0291717 -0.0949187 0.995058 0.000608677
-0.0286424 -0.0953708 0.99503 0
-0.0272974 -0.0955851 0.995047 0
-0.0275204 -0.0957796 0.995022 0
-0.0285197 -0.0967666 0.994898 0
-0.0284235 -0.0971225 0.994866 0
-0.0290783 -0.0976094 0.9948 0
-0.0310684 -0.0991515 0.994587 0.00114007
-0.0315535 -0.100315 0.994455 0.00277847
-0.0326278 -0.100827 0.994369 0.00120366
-0.0329737 -0.101383 0.994301 0
-0.0333501 -0.102558 0.994168 0.000625582
-0.0344059 -0.104697 0.993909 0.00323147
-0.0369616 -0.10641 0.993635 0.00665166
-0.0380876 -0.107323 0.993494 0.00644181
-0.036596 -0.108088 0.993468 0.00616573
-0.037851 -0.10928 0.99329 0.00589239
-0.0379379 -0.109575 0.993254 0.00431776
-0.0389958 -0.110813 0.993076 0.00466464
-0.0391823 -0.11123 0.993022 0.00480384
-0.0399319 -0.112511 0.992848 0.00520446
-0.0398284 -0.112768 0.992823 0.00298546
-0.039997 -0.113731 0.992706 0.00258678
-0.0403079 -0.115285 0.992514 0.00298918
-0.0408691 -0.116313 0.992371 0.00325419
-0.0402306 -0.116598 0.992364 0.0013467
-0.0413901 -0.117193 0.992246 0.000153989
-0.0412228 -0.118001 0.992157 0
-0.0411138 -0.119298 0.992007 0
-0.0413672 -0.120578 0.991842 0
-0.0417201 -0.121624 0.991699 0
-0.0421426 -0.122903 0.991523 0
-0.0435511 -0.124572 0.991254 0
-0.0435047 -0.125656 0.991119 0
-0.0425948 -0.12665 0.991033 0
-0.0427654 -0.127499 0.990916 0
-0.0432096 -0.128339 0.990789 0
-0.0430219 -0.129589 0.990634 0
-0.0425078 -0.12953 0.990664 0
-0.0424161 -0.130269 0.990571 0
-0.043654 -0.130851 0.99044 0
-0.0445449 -0.132372 0.990199 0
-0.0456028 -0.133222 0.990037 0
-0.0453965 -0.134624 0.989856 0
-0.0448452 -0.135278 0.989792 0
-0.0455686 -0.135773 0.989691 0
-0.045078 -0.135367 0.98977 0
-0.0449792 -0.136764 0.989582 0
-0.0452036 -0.136802 0.989566 0
-0.0449132 -0.136316 0.989647 0
-0.0448811 -0.136375 0.98964 0
-0.0449545 0.0599796 0.997187 0
-0.0452139 0.0594868 0.997205 0.00250021
-0.0450859 0.0574093 0.997332 0.00223865
-0.0447418 0.0579705 0.997315 0.0034418
-0.045416 0.0579404 0.997286 0.00486312
-0.0466878 0.0592937 0.997148 0.00672004
-0.0462655 0.0584433 0.997218 0.00634938
-0.0470132 0.0575952 0.997232 0.00501761
-0.0465175 0.0556535 0.997366 0.00355618
-0.0463197 0.0558195 0.997366 0.00315964
-0.0467924 0.054891 0.997395 0.00476343
-0.046128 0.054138 0.997467 0.00248187
-0.046104 0.0533611 0.99751 0.0030021
-0.0456752 0.0538403 0.997504 0.00207705
-0.0455938 0.0544719 0.997474 0
-0.0453524 0.0540254 0.997509 0.000800009
-0.0451763 0.0517684 0.997637 0.000556954
-0.0471677 0.0489752 0.997686 0.00307157
-0.046871 0.0486301 0.997716 0.00347273
-0.046645 0.0492628 0.997696 0.00481656
-0.047146 0.0494984 0.997661 0.00589657
