# .PCD v0.7 - Point Cloud Data file format
VERSION 0.7
FIELDS x y z
SIZE 4 4 4
TYPE F F F
COUNT 1 1 1
WIDTH 1351
HEIGHT 1
VIEWPOINT 0 0 0 1 0 0 0
POINTS 1351
DATA ascii
-0.041138001 -0.087305002 -0.17772099
-0.041136 -0.087227002 -0.17771199
-0.041134998 -0.087149002 -0.177696
-0.041131999 -0.087075002 -0.17769399
-0.041129999 -0.086998001 -0.17768601
-0.041127998 -0.086921997 -0.177682
-0.041126002 -0.086846001 -0.177671
-0.041126002 -0.086767003 -0.17763899
-0.041122999 -0.086691998 -0.17764901
-0.041119002 -0.086622 -0.177689
-0.041115999 -0.086547002 -0.17770199
-0.041113999 -0.086471997 -0.177692
-0.041111998 -0.086393997 -0.17768
-0.041111 -0.086315997 -0.17765599
-0.041108999 -0.086239003 -0.17764901
-0.041106001 -0.086163998 -0.177655
-0.041104 -0.086089998 -0.177659
-0.041101001 -0.086014003 -0.177663
-0.041097999 -0.085940003 -0.177678
-0.041095 -0.085865997 -0.177688
-0.041092999 -0.085790001 -0.17768399
-0.041092001 -0.085712001 -0.177664
-0.041090999 -0.085633002 -0.177626
-0.041088998 -0.085555002 -0.177615
-0.041087002 -0.085478999 -0.17761301
-0.041085001 -0.085405998 -0.177609
-0.041083001 -0.085330002 -0.177609
-0.041080002 -0.085253999 -0.17761201
-0.041078001 -0.085179001 -0.177616
-0.041074999 -0.085102998 -0.177624
-0.041072998 -0.085028999 -0.177628
-0.041069999 -0.084954999 -0.17763101
-0.041067999 -0.084879003 -0.17763101
-0.041067999 -0.084798001 -0.17757501
-0.041067999 -0.084716998 -0.177533
-0.041065998 -0.084639996 -0.177515
-0.041065 -0.084564 -0.177494
-0.041062001 -0.084487997 -0.17749999
-0.041058999 -0.084413998 -0.177514
-0.041057002 -0.084338002 -0.17750999
-0.041055001 -0.084261999 -0.177507
-0.041051999 -0.084187999 -0.17750899
-0.041051 -0.084109999 -0.177497
-0.041049998 -0.084032997 -0.177469
-0.041048001 -0.083954997 -0.17745601
-0.041046001 -0.083879001 -0.17745
-0.041044001 -0.083805002 -0.177448
-0.041041002 -0.083727002 -0.17744599
-0.041039001 -0.083653003 -0.177449
-0.041037001 -0.083577 -0.177449
-0.041034002 -0.083503999 -0.17744701
-0.041032001 -0.083428003 -0.17744499
-0.041030001 -0.083350003 -0.177433
-0.041030999 -0.083270997 -0.177378
-0.041030999 -0.083190002 -0.17732801
-0.041028999 -0.083112001 -0.177314
-0.041026998 -0.083036996 -0.17729799
-0.041025002 -0.082958996 -0.177286
-0.041023001 -0.082884997 -0.177287
-0.041021001 -0.082809001 -0.177285
-0.041019 -0.082732998 -0.17728101
-0.041017 -0.082658 -0.17727099
-0.041014999 -0.082581997 -0.177258
-0.041012999 -0.082503997 -0.177246
-0.041012 -0.082427002 -0.177224
-0.04101 -0.082350999 -0.17720801
-0.041007999 -0.082275003 -0.177201
-0.041005999 -0.082199 -0.177201
-0.041003998 -0.082125001 -0.17720699
-0.041001 -0.082051001 -0.17721701
-0.040998001 -0.081977002 -0.177232
-0.040995002 -0.081901997 -0.17724
-0.040993001 -0.081826001 -0.177238
-0.040991999 -0.081749 -0.177214
-0.040993001 -0.081666999 -0.177132
-0.040991999 -0.081588998 -0.177103
-0.040989999 -0.081514001 -0.17708901
-0.040989 -0.081436001 -0.17706899
-0.040987 -0.081361003 -0.177053
-0.040984999 -0.081285 -0.17705201
-0.040982999 -0.081208996 -0.177054
-0.04098 -0.081134997 -0.177054
-0.040978 -0.081059001 -0.17704999
-0.040975999 -0.080982998 -0.17704099
-0.040975001 -0.080904998 -0.177021
-0.040973999 -0.080828004 -0.176999
-0.040973 -0.080752 -0.176973
-0.040971 -0.080674998 -0.17696001
-0.040968999 -0.080599003 -0.176946
-0.040966999 -0.080522999 -0.17693999
-0.040964998 -0.080447003 -0.176936
-0.040963002 -0.080372997 -0.17693301
-0.040961001 -0.080297999 -0.176925
-0.040959999 -0.080219999 -0.176893
-0.040961001 -0.080137998 -0.176817
-0.040961001 -0.080061004 -0.176773
-0.040961001 -0.079984002 -0.17673001
-0.040959999 -0.079905003 -0.176688
-0.040959001 -0.079827003 -0.17666399
-0.040957 -0.079751998 -0.17665599
-0.040956002 -0.079676002 -0.176641
-0.040955 -0.079599001 -0.176595
-0.040952999 -0.079522997 -0.176589
-0.040950999 -0.079448998 -0.176597
-0.040948998 -0.079373002 -0.176589
-0.040947001 -0.079296 -0.17657
-0.040945999 -0.079219997 -0.17655
-0.040943999 -0.079144001 -0.17654
-0.040943 -0.079069003 -0.17652
-0.040941 -0.078991003 -0.176495
-0.040940002 -0.078915998 -0.17648099
-0.040938001 -0.078841999 -0.176477
-0.040936001 -0.078766003 -0.176465
-0.040936001 -0.078686997 -0.176424
-0.040939 -0.078603998 -0.176292
-0.040939 -0.078527004 -0.176248
-0.040938001 -0.078451 -0.17622
-0.040936999 -0.078372002 -0.17618699
-0.040936999 -0.078296997 -0.176149
-0.040936999 -0.078216001 -0.176085
-0.040936999 -0.078140996 -0.176047
-0.040934 -0.078066997 -0.17605799
-0.040932 -0.077991001 -0.176062
-0.040929999 -0.077914998 -0.17603999
-0.040929999 -0.077838004 -0.17599601
-0.040929001 -0.077762999 -0.175971
-0.040927 -0.077687003 -0.175961
-0.040925 -0.077613004 -0.175953
-0.040924001 -0.077536002 -0.175925
-0.040925 -0.077457003 -0.17586599
-0.040922999 -0.077381998 -0.175842
-0.040920999 -0.077307999 -0.175842
-0.040918998 -0.077234 -0.175844
-0.040917002 -0.077160001 -0.175837
-0.040915001 -0.077082001 -0.175817
-0.040915001 -0.077007003 -0.175779
-0.040915001 -0.076930001 -0.17572901
-0.040913999 -0.076853 -0.175704
-0.040913001 -0.076777004 -0.17568
-0.040911 -0.076701999 -0.17565601
-0.040910002 -0.076626003 -0.17563599
-0.040908001 -0.076553002 -0.175625
-0.040904999 -0.076477997 -0.17564701
-0.040901002 -0.076406002 -0.175679
-0.040897999 -0.076330997 -0.17569099
-0.040895998 -0.076256998 -0.17569201
-0.040893 -0.076182999 -0.175706
-0.040888999 -0.076109998 -0.175736
-0.040885001 -0.076038003 -0.17577399
-0.040879998 -0.075966001 -0.175831
-0.040876001 -0.075893 -0.175881
-0.040871002 -0.075819999 -0.175925
-0.040865999 -0.075749002 -0.17599399
-0.040856998 -0.075681999 -0.17614201
-0.040920999 -0.090132996 -0.177928
-0.040918998 -0.090054996 -0.17792401
-0.040917002 -0.089979 -0.177919
-0.040913999 -0.089906998 -0.177931
-0.040911 -0.089832999 -0.177947
-0.040909 -0.089759 -0.17794999
-0.040906999 -0.089681 -0.177944
-0.040906999 -0.089598 -0.177882
-0.040906001 -0.089519002 -0.177858
-0.040904 -0.089441001 -0.177844
-0.040902 -0.089364998 -0.17783
-0.040899999 -0.089290999 -0.177843
-0.040897001 -0.089217 -0.17784899
-0.040895998 -0.089138001 -0.177817
-0.040894002 -0.089060001 -0.177809
-0.040890999 -0.088986002 -0.17782
-0.040888 -0.088912003 -0.17783201
-0.040886 -0.088835999 -0.17782401
-0.040885001 -0.088757999 -0.1778
-0.040883001 -0.088680997 -0.177789
-0.040881999 -0.088602997 -0.177771
-0.040879 -0.088527001 -0.177773
-0.040876999 -0.088453002 -0.17777701
-0.040874999 -0.088376999 -0.17777701
-0.040872 -0.088303 -0.17778
-0.04087 -0.088226996 -0.17777801
-0.040867001 -0.088151 -0.177782
-0.040863998 -0.088078 -0.17779499
-0.040863998 -0.087998003 -0.177747
-0.040863998 -0.087916002 -0.177705
-0.040860999 -0.087839998 -0.177707
-0.040858999 -0.087765999 -0.177711
-0.040856998 -0.087688997 -0.17770299
-0.040854 -0.087614998 -0.177706
-0.040851001 -0.087541997 -0.177736
-0.040848002 -0.087470002 -0.177754
-0.040844999 -0.087393999 -0.177755
-0.040842999 -0.087318003 -0.177747
-0.040842999 -0.087237999 -0.177711
-0.040840998 -0.087160997 -0.17770299
-0.040837999 -0.087086998 -0.177709
-0.040835999 -0.087011002 -0.17771199
-0.040833 -0.086937003 -0.17771199
-0.040831 -0.086861998 -0.177718
-0.040828001 -0.086786002 -0.17772
-0.040826 -0.086709999 -0.17772099
-0.040823001 -0.086635999 -0.177729
-0.040819999 -0.086562 -0.17774101
-0.040817998 -0.086485997 -0.177733
-0.040817 -0.086406998 -0.17771199
-0.040816002 -0.086328998 -0.177692
-0.040814999 -0.08625 -0.17765599
-0.040812999 -0.086173996 -0.17764799
-0.04081 -0.086099997 -0.177662
-0.040807001 -0.086026996 -0.177681
-0.040803999 -0.085951 -0.177687
-0.040801998 -0.085874997 -0.17768499
-0.040800001 -0.085800998 -0.17768399
-0.040798001 -0.085724004 -0.17766599
-0.040796999 -0.085646003 -0.17765
-0.040794 -0.08557 -0.17764799
-0.040792 -0.085493997 -0.177644
-0.040789999 -0.085418001 -0.17763899
-0.040787999 -0.085343003 -0.177637
-0.040785 -0.085267998 -0.177645
-0.040782999 -0.085193999 -0.177651
-0.04078 -0.085118003 -0.17766
-0.040777002 -0.085043997 -0.17767
-0.040773999 -0.084969997 -0.17767601
-0.040773001 -0.084891997 -0.177662
-0.040773001 -0.084811002 -0.17760099
-0.040773001 -0.084729999 -0.177563
-0.040771 -0.084655002 -0.17754699
-0.040769 -0.084578998 -0.17753699
-0.040766999 -0.084500998 -0.177535
-0.040764999 -0.084426999 -0.177534
-0.040762 -0.084351003 -0.177532
-0.040759999 -0.084276997 -0.17753799
-0.040757 -0.084201001 -0.17754599
-0.040755 -0.084123001 -0.177531
-0.040755 -0.084045999 -0.177497
-0.040752999 -0.083967999 -0.177479
-0.040750999 -0.083892003 -0.177471
-0.040748999 -0.083816998 -0.17746501
-0.040747002 -0.083741002 -0.17746399
-0.040743999 -0.083667003 -0.177468
-0.040741999 -0.083590999 -0.177468
-0.040739998 -0.083515003 -0.17747
-0.040736999 -0.083439998 -0.177477
-0.040734999 -0.083364002 -0.177477
-0.040734001 -0.083287001 -0.17744499
-0.040732998 -0.083208002 -0.177413
-0.040732 -0.083130002 -0.177388
-0.04073 -0.083053 -0.177366
-0.040729001 -0.082976997 -0.177352
-0.040727001 -0.082900003 -0.177334
-0.040725999 -0.082822002 -0.177316
-0.040723 -0.082745999 -0.177313
-0.040722001 -0.082670003 -0.177303
-0.040720001 -0.082594998 -0.17729101
-0.040718 -0.082519002 -0.177285
-0.040716 -0.082442999 -0.177278
-0.040713999 -0.082367003 -0.177268
-0.040711999 -0.082291 -0.177258
-0.040709998 -0.082213998 -0.17724399
-0.040708002 -0.082138002 -0.177241
-0.040706001 -0.082061999 -0.17724299
-0.040702999 -0.081987999 -0.17724501
-0.040700998 -0.081912003 -0.17724501
-0.040699001 -0.081837997 -0.177247
-0.040697001 -0.081762001 -0.17724
-0.040697001 -0.081679001 -0.177174
-0.040697001 -0.081602 -0.177132
-0.040695 -0.081527002 -0.177118
-0.040693 -0.081449002 -0.17710701
-0.040692002 -0.081372999 -0.17708699
-0.040690001 -0.081295997 -0.17707101
-0.040688001 -0.081220001 -0.177063
-0.040686 -0.081143998 -0.177064
-0.040684 -0.081069998 -0.177062
-0.040681999 -0.080991998 -0.177044
-0.040681001 -0.080914997 -0.17702401
-0.040679 -0.080840997 -0.177016
-0.040677 -0.080762997 -0.177001
-0.040676001 -0.080688 -0.176983
-0.040674001 -0.080611996 -0.176971
-0.040672 -0.080536 -0.176963
-0.04067 -0.080459997 -0.17696001
-0.040668 -0.080385 -0.176948
-0.040665999 -0.080309004 -0.176944
-0.040665001 -0.080231003 -0.17692199
-0.040665999 -0.080150999 -0.17684101
-0.040665999 -0.080073997 -0.176801
-0.040663999 -0.079995997 -0.17678501
-0.040663 -0.079919003 -0.17675699
-0.040662002 -0.079843 -0.176733
-0.040660001 -0.079768002 -0.17672201
-0.040658999 -0.079690002 -0.176696
-0.040658001 -0.079613 -0.17666601
-0.040656999 -0.079536997 -0.17665
-0.040654998 -0.079461999 -0.176633
-0.040654 -0.079383999 -0.17661101
-0.040651999 -0.079308003 -0.176599
-0.040649999 -0.079233997 -0.176595
-0.040647998 -0.079157002 -0.17657401
-0.040647 -0.079081997 -0.17655
-0.040645 -0.079003997 -0.176542
-0.040644001 -0.078929998 -0.17652801
-0.040642001 -0.078851998 -0.176511
-0.04064 -0.078777 -0.17649899
-0.040638998 -0.078700997 -0.17648301
-0.040638998 -0.078621998 -0.176419
-0.040644001 -0.078538999 -0.176282
-0.040642999 -0.078461997 -0.17624
-0.040644001 -0.078382 -0.176176
-0.040644001 -0.078304999 -0.176128
-0.040642001 -0.078229003 -0.176108
-0.04064 -0.078153998 -0.176099
-0.040638 -0.078079 -0.176109
-0.040635999 -0.078002997 -0.17610499
-0.040633999 -0.077930003 -0.17608701
-0.040633 -0.077852003 -0.176062
-0.040633 -0.077776 -0.176008
-0.040631998 -0.077698 -0.17597599
-0.040631 -0.077623002 -0.175962
-0.040630002 -0.077546999 -0.175937
-0.040628001 -0.077472001 -0.175919
-0.040626001 -0.077395998 -0.175907
-0.040624999 -0.077321999 -0.17589501
-0.040623002 -0.077246003 -0.175888
-0.040621001 -0.077170998 -0.17587601
-0.040619999 -0.077095002 -0.175844
-0.040619999 -0.077017002 -0.17579
-0.040619999 -0.076940998 -0.17575701
-0.040617999 -0.076866001 -0.175745
-0.040615998 -0.076792002 -0.175733
-0.040615 -0.076714002 -0.17571101
-0.040612999 -0.076641001 -0.175696
-0.040610999 -0.076564997 -0.17569201
-0.040608998 -0.076490998 -0.175696
-0.040606 -0.076416999 -0.175703
-0.040603001 -0.076342002 -0.175717
-0.040600002 -0.076269999 -0.175741
-0.040596001 -0.076196998 -0.175769
-0.040592998 -0.076122999 -0.17579
-0.040589999 -0.076048002 -0.17580201
-0.040585998 -0.075975999 -0.175834
-0.040580999 -0.075905003 -0.17589
-0.040576 -0.075833 -0.17595699
-0.040571 -0.075759999 -0.176009
-0.040568002 -0.075685002 -0.176035
-0.040566001 -0.075609997 -0.17602099
-0.040697999 -0.090152003 -0.177927
-0.040695 -0.090075999 -0.17793299
-0.040692002 -0.090002 -0.177939
-0.040690999 -0.089924999 -0.177921
-0.040688999 -0.089846998 -0.177908
-0.040686999 -0.089772999 -0.177908
-0.040685002 -0.089697003 -0.17790399
-0.040683001 -0.089619003 -0.177892
-0.040681999 -0.089539997 -0.177864
-0.040681001 -0.089460999 -0.17783301
-0.040679 -0.089382999 -0.17782301
-0.040677 -0.089307003 -0.177817
-0.040674999 -0.089230999 -0.17781501
-0.040672 -0.089157 -0.17781401
-0.04067 -0.089080997 -0.17782199
-0.040667001 -0.089006998 -0.177826
-0.040665001 -0.088931002 -0.17782
-0.040663 -0.088853002 -0.177809
-0.040662002 -0.088776 -0.177791
-0.040660001 -0.088699996 -0.177781
-0.040658001 -0.08862 -0.17775901
-0.040656 -0.088545002 -0.177753
-0.040654 -0.088468999 -0.177752
-0.040651999 -0.088395 -0.177756
-0.040649001 -0.088320002 -0.17776801
-0.040646002 -0.088246003 -0.177772
-0.040644001 -0.088169999 -0.17776901
-0.040642001 -0.088091999 -0.177761
-0.040640999 -0.088013001 -0.17772301
-0.04064 -0.087934002 -0.17769501
-0.040638 -0.087857999 -0.177689
-0.040635999 -0.087782003 -0.17769399
-0.040633 -0.087710001 -0.17770401
-0.040631998 -0.087632 -0.17768399
-0.040628999 -0.087554 -0.177678
-0.040626001 -0.087481998 -0.177697
-0.040623002 -0.087407999 -0.17771301
-0.040621001 -0.087334 -0.17772099
-0.040619001 -0.087258004 -0.17771301
-0.040615998 -0.087182 -0.17771401
-0.040614001 -0.087108001 -0.17772201
-0.040610999 -0.087030999 -0.177726
-0.040608998 -0.086957 -0.177726
-0.040607002 -0.086882003 -0.177725
-0.040603999 -0.086805999 -0.17772301
-0.040601999 -0.086731002 -0.177729
-0.040599 -0.086654998 -0.17773101
-0.040596999 -0.086580999 -0.177736
-0.040594 -0.086505003 -0.177736
-0.040594 -0.086425997 -0.17770401
-0.040592 -0.086349003 -0.17768399
-0.040589999 -0.086273 -0.177678
-0.040587001 -0.086199 -0.177687
-0.040584002 -0.086124003 -0.177699
-0.040582001 -0.086046003 -0.17769501
-0.040580001 -0.085970998 -0.177687
-0.040578 -0.085895002 -0.177688
-0.040576 -0.085821003 -0.177688
-0.040573001 -0.085744999 -0.17768601
-0.040571 -0.085669003 -0.177682
-0.040569 -0.085593 -0.17767701
-0.040566999 -0.085515 -0.177669
-0.040564999 -0.085438997 -0.177661
-0.040562999 -0.085364997 -0.177661
-0.040561002 -0.085289001 -0.177662
-0.040559001 -0.085212998 -0.177654
-0.040557001 -0.085135996 -0.177644
-0.040555 -0.08506 -0.17764001
-0.040552001 -0.084986001 -0.177643
-0.040548999 -0.084909998 -0.177653
-0.040548 -0.084834002 -0.177641
-0.040546998 -0.084752999 -0.177595
-0.040546 -0.084674999 -0.17756701
-0.040544 -0.084600002 -0.177564
-0.040541999 -0.084523 -0.17756601
-0.040539 -0.084449001 -0.177572
-0.040537 -0.084372997 -0.17757
-0.040534999 -0.084296003 -0.177551
-0.040534001 -0.08422 -0.17753699
-0.040530998 -0.084141999 -0.177533
-0.040529002 -0.084066004 -0.177525
-0.040527999 -0.083989002 -0.177505
-0.040525999 -0.083912998 -0.17749199
-0.040525001 -0.083837003 -0.17748
-0.040522002 -0.083760001 -0.177476
-0.040520001 -0.083686002 -0.177476
-0.040516999 -0.083610997 -0.177487
-0.040514 -0.083536997 -0.177505
-0.040511999 -0.083462998 -0.17751101
-0.040509 -0.083387002 -0.17751101
-0.040507 -0.083310999 -0.177504
-0.040507 -0.083232 -0.17746399
-0.040506002 -0.083153002 -0.177424
-0.040504999 -0.083074003 -0.17738999
-0.040504999 -0.082993999 -0.17735399
-0.040504001 -0.082916997 -0.177325
-0.040502001 -0.082841001 -0.177313
-0.040499002 -0.082764998 -0.17731699
-0.040497001 -0.082690999 -0.177323
-0.040495001 -0.082615003 -0.17731801
-0.040493 -0.082539998 -0.17730799
-0.040491998 -0.082461998 -0.177286
-0.040491 -0.082385004 -0.177258
-0.040488999 -0.082309 -0.177248
-0.040486999 -0.082231 -0.17724299
-0.040484 -0.082157001 -0.177239
-0.040482 -0.082080998 -0.177251
-0.040479001 -0.082009003 -0.177267
-0.040476002 -0.081932999 -0.177264
-0.040474001 -0.081857003 -0.17726
-0.040472001 -0.081781 -0.17725199
-0.040470999 -0.081702001 -0.177222
-0.040470999 -0.081623003 -0.177175
-0.040470999 -0.081546001 -0.177129
-0.04047 -0.081465997 -0.177103
-0.040468 -0.081390999 -0.177081
-0.040467001 -0.081312999 -0.177065
-0.040465001 -0.081237003 -0.17705999
-0.040461998 -0.081162997 -0.177062
-0.040460002 -0.081087001 -0.177068
-0.040458001 -0.081010997 -0.17705201
-0.040458001 -0.080934003 -0.177017
-0.040456001 -0.080857001 -0.176999
-0.040454 -0.080783002 -0.17699701
-0.040452 -0.080706999 -0.176993
-0.040449999 -0.080631003 -0.176982
-0.040447999 -0.080553003 -0.176964
-0.040445998 -0.080477998 -0.17695799
-0.040444002 -0.080403998 -0.176954
-0.040442001 -0.080328003 -0.17695101
-0.040440001 -0.080251999 -0.17694101
-0.040440001 -0.080170996 -0.17688701
-0.040440999 -0.080092996 -0.176827
-0.040440001 -0.080015004 -0.176789
-0.040440001 -0.079938002 -0.176754
-0.040438 -0.079861 -0.176736
-0.040436 -0.079784997 -0.17671999
-0.040435001 -0.079709001 -0.176704
-0.040433001 -0.079634003 -0.176687
-0.040433001 -0.079553999 -0.17665499
-0.040431 -0.079479001 -0.176635
-0.040429 -0.079402998 -0.176631
-0.040426999 -0.079327002 -0.176616
-0.040426001 -0.079251997 -0.176598
-0.040424 -0.079173997 -0.176578
-0.040422998 -0.079099 -0.17656
-0.040422 -0.079023004 -0.176539
-0.04042 -0.078947 -0.17652699
-0.040417999 -0.078870997 -0.176525
-0.040415999 -0.078795001 -0.176521
-0.040414002 -0.078722 -0.176514
-0.040413 -0.078644 -0.17648201
-0.040417999 -0.078560002 -0.17632399
-0.04042 -0.078479998 -0.176238
-0.04042 -0.078399003 -0.176166
-0.04042 -0.078323998 -0.176135
-0.040417001 -0.078248002 -0.17613301
-0.040415 -0.078174002 -0.17614099
-0.040413 -0.078100003 -0.176137
-0.040410999 -0.078024 -0.17613199
-0.040408 -0.077947997 -0.176128
-0.040406998 -0.077872999 -0.176102
-0.040408 -0.077794001 -0.17603999
-0.040406998 -0.077716999 -0.176001
-0.040406 -0.077642001 -0.17597701
-0.040405001 -0.077565998 -0.17595699
-0.040403999 -0.077491 -0.175935
-0.040401999 -0.077413 -0.17591199
-0.040401001 -0.077338003 -0.17588399
-0.040399998 -0.077261999 -0.17586599
-0.040398002 -0.077188 -0.175854
-0.040396001 -0.077113003 -0.17584699
-0.040396001 -0.077035002 -0.175805
-0.040397 -0.076958999 -0.175743
-0.040394999 -0.076883003 -0.175731
-0.040392999 -0.076807 -0.175724
-0.040391002 -0.076732002 -0.175708
-0.04039 -0.076655999 -0.175686
-0.040387999 -0.076582 -0.17567199
-0.040385999 -0.076507002 -0.175667
-0.040383 -0.076434001 -0.175687
-0.040380001 -0.076360002 -0.17571101
-0.040376998 -0.076284997 -0.175721
-0.040374 -0.076213002 -0.17573801
-0.040371001 -0.076139003 -0.175758
-0.040367 -0.076066002 -0.17578401
-0.040362999 -0.075993001 -0.17582899
-0.040358 -0.075920001 -0.175881
-0.040353 -0.075848997 -0.175945
-0.040346999 -0.075777002 -0.17602099
-0.040341001 -0.075704999 -0.176098
-0.040335 -0.075635999 -0.17618001
-0.040465001 -0.090167001 -0.177856
-0.040463001 -0.090090998 -0.177847
-0.040461 -0.090015002 -0.17784099
-0.040459 -0.089941002 -0.177847
-0.040456001 -0.089864999 -0.17785101
-0.040458001 -0.089777 -0.177761
-0.040456999 -0.089698002 -0.17772301
-0.040454999 -0.089621998 -0.17772999
-0.040452 -0.089548998 -0.177746
-0.040449999 -0.089472003 -0.177724
-0.040449001 -0.089394003 -0.177708
-0.040445998 -0.089318 -0.177707
-0.040444002 -0.089244001 -0.17771301
-0.040440999 -0.089167997 -0.177711
-0.040438998 -0.089092001 -0.177705
-0.040438 -0.089015 -0.17769
-0.040436 -0.088936999 -0.177682
-0.040433001 -0.088862002 -0.177692
-0.040431 -0.088789001 -0.17769
-0.040429 -0.088711001 -0.177679
-0.040426999 -0.088634998 -0.177673
-0.040424999 -0.088559002 -0.177665
-0.040422998 -0.088482998 -0.17766701
-0.04042 -0.088408999 -0.17767499
-0.040417001 -0.088335 -0.17768399
-0.040415 -0.088261001 -0.17769
-0.040412001 -0.088183001 -0.17768601
-0.040412001 -0.088101998 -0.177636
-0.040410999 -0.088023998 -0.177617
-0.040408999 -0.087947004 -0.177605
-0.040406998 -0.087872997 -0.177607
-0.040403999 -0.087797999 -0.177619
-0.040401999 -0.087723002 -0.17761
-0.040399998 -0.087646998 -0.177608
-0.040396001 -0.087572001 -0.177628
-0.040394001 -0.087499999 -0.17764001
-0.040392 -0.087424003 -0.177635
-0.04039 -0.087346002 -0.177619
-0.040387999 -0.087269999 -0.177617
-0.040385 -0.087196 -0.17762899
-0.040382002 -0.087122001 -0.177637
-0.040380001 -0.087045997 -0.17763799
-0.040376998 -0.086971998 -0.177642
-0.040375002 -0.086896002 -0.177644
-0.040373001 -0.086819999 -0.177642
-0.040369999 -0.086746 -0.177645
-0.040367998 -0.086669996 -0.17764901
-0.040364999 -0.086595997 -0.177651
-0.040364001 -0.086517997 -0.177637
-0.040362 -0.086441003 -0.177616
-0.040360998 -0.086360998 -0.17758401
-0.040359002 -0.086285003 -0.177578
-0.040355999 -0.086211003 -0.177598
-0.040353 -0.086139001 -0.17761301
-0.040351 -0.086062998 -0.17761301
-0.040348999 -0.085987002 -0.177609
-0.040346 -0.085910998 -0.17761301
-0.040344 -0.085836999 -0.177616
-0.040341999 -0.085758999 -0.1776
-0.040339999 -0.085680999 -0.177586
-0.040337998 -0.085606001 -0.177582
-0.040336002 -0.085532002 -0.17758401
-0.040334001 -0.085454002 -0.177577
-0.040332001 -0.085377999 -0.177569
-0.040329002 -0.085303999 -0.177571
-0.040328 -0.085225999 -0.177553
-0.040327001 -0.085147001 -0.177522
-0.040325001 -0.085070997 -0.177518
-0.040321998 -0.084996998 -0.177532
-0.040318999 -0.084922999 -0.17754
-0.040318001 -0.084847003 -0.17752901
-0.040316001 -0.084769003 -0.17751101
-0.040314 -0.084692001 -0.17749301
-0.040313002 -0.084614001 -0.177467
-0.040311001 -0.084537998 -0.17746501
-0.040309001 -0.084462002 -0.177468
-0.040305998 -0.084385999 -0.177468
-0.040305 -0.084308997 -0.17744599
-0.040302999 -0.084234998 -0.177442
-0.0403 -0.08416 -0.177461
-0.040297002 -0.084083997 -0.177463
-0.040295999 -0.084007002 -0.177443
-0.040295001 -0.083929002 -0.17741901
-0.040293001 -0.083853997 -0.17740899
-0.040291 -0.083778001 -0.177402
-0.040289 -0.083700001 -0.17738999
-0.040286001 -0.083626002 -0.177398
-0.040282998 -0.083552003 -0.17740799
-0.040281001 -0.083477996 -0.177417
-0.040277999 -0.083402999 -0.17742699
-0.040277001 -0.083325997 -0.177405
-0.040277999 -0.083241999 -0.177315
-0.040277001 -0.083163999 -0.177296
-0.040275998 -0.083086997 -0.177278
-0.040275 -0.083008997 -0.177248
-0.040273 -0.082934 -0.177232
-0.040270999 -0.082855999 -0.177228
-0.040268 -0.082782 -0.177231
-0.040266 -0.082708001 -0.177233
-0.040263999 -0.082630001 -0.177223
-0.040261999 -0.082553998 -0.177211
-0.040261 -0.082477003 -0.1772
-0.040259 -0.082402997 -0.177194
-0.040256001 -0.082327001 -0.177196
-0.040254001 -0.082250997 -0.177194
-0.040252 -0.082175002 -0.17718901
-0.04025 -0.082098998 -0.17717899
-0.040247999 -0.082023002 -0.17717101
-0.040245999 -0.081946999 -0.177169
-0.040243998 -0.081871003 -0.177165
-0.040242001 -0.081795998 -0.177154
-0.040240999 -0.081716999 -0.177112
-0.040240999 -0.081638001 -0.177068
-0.040238999 -0.081561998 -0.177058
-0.040238 -0.081483997 -0.177031
-0.040236998 -0.081407003 -0.177003
-0.040235002 -0.081331 -0.177003
-0.040231999 -0.081257001 -0.177007
-0.040229999 -0.081180997 -0.17700399
-0.040229 -0.081104003 -0.176984
-0.040228002 -0.081028 -0.17695799
-0.040226001 -0.080949999 -0.17694201
-0.040224001 -0.080875002 -0.17693
-0.040222 -0.080798998 -0.176921
-0.040220998 -0.080723003 -0.17690501
-0.040219001 -0.080646001 -0.17688701
-0.040217999 -0.080569997 -0.176873
-0.040215999 -0.080494002 -0.17687
-0.040213 -0.080420002 -0.176874
-0.040211 -0.080343999 -0.176872
-0.040210001 -0.080269001 -0.17684799
-0.040210001 -0.080187999 -0.17679299
-0.040211 -0.080109 -0.176723
-0.040211 -0.080031 -0.176667
-0.040210001 -0.079953 -0.176641
-0.040208001 -0.079876997 -0.17663901
-0.040205002 -0.079801001 -0.176642
-0.040204 -0.079726003 -0.176622
-0.040203001 -0.079649001 -0.17658401
-0.040201999 -0.079571001 -0.176558
-0.040199999 -0.079494998 -0.176549
-0.040197998 -0.07942 -0.176541
-0.040197 -0.079346001 -0.176531
-0.040194999 -0.079268001 -0.17650899
-0.040194001 -0.079193003 -0.176496
-0.040192001 -0.079117 -0.176488
-0.040189002 -0.079040997 -0.176484
-0.040188 -0.078965001 -0.17647
-0.040187001 -0.078890003 -0.176449
-0.040185001 -0.078814 -0.176433
-0.040183999 -0.078739002 -0.176411
-0.040183999 -0.078658 -0.176349
-0.040187001 -0.078575999 -0.17623401
-0.040188 -0.078497998 -0.17615999
-0.040188 -0.078419 -0.17612199
-0.040187001 -0.078344002 -0.17608801
-0.040185999 -0.078266002 -0.176066
-0.040183999 -0.078190997 -0.176047
-0.040183 -0.078115001 -0.17603301
-0.040181 -0.078041002 -0.17603301
-0.040178001 -0.077964999 -0.176029
-0.040176 -0.077891 -0.176024
-0.040176 -0.077813998 -0.175992
-0.040174998 -0.077737004 -0.17594799
-0.040174998 -0.077660002 -0.17591
-0.040174 -0.077584997 -0.175873
-0.040173002 -0.077506997 -0.175845
-0.040171999 -0.077431999 -0.175827
-0.040169999 -0.077358 -0.175815
-0.040167999 -0.077281997 -0.1758
-0.040167 -0.077206999 -0.17578401
-0.040166002 -0.077131003 -0.175762
-0.040166002 -0.077051997 -0.17570201
-0.040166002 -0.076977 -0.17566501
-0.040165 -0.076899998 -0.17563701
-0.040164001 -0.076824002 -0.17560899
-0.040162001 -0.076748997 -0.17560101
-0.040158998 -0.076673999 -0.17560799
-0.040155999 -0.076601997 -0.17562
-0.040153999 -0.076527998 -0.17562801
-0.040151 -0.076453999 -0.175631
-0.040149 -0.076378003 -0.175635
-0.040146001 -0.076304004 -0.17563701
-0.040143002 -0.076232001 -0.175651
-0.040139001 -0.076159 -0.175696
-0.040134002 -0.076086998 -0.175752
-0.040130001 -0.076012999 -0.175788
-0.040126 -0.075939998 -0.17582799
-0.040121 -0.075869001 -0.175883
-0.040114999 -0.075796999 -0.175965
-0.040109001 -0.075724997 -0.176039
-0.040104002 -0.075654 -0.17610499
-0.040215999 -0.090157002 -0.177734
-0.040213998 -0.090080999 -0.17773999
-0.040211 -0.090008996 -0.177754
-0.040208001 -0.089937001 -0.177771
-0.040206 -0.089859001 -0.177763
-0.040208001 -0.089768998 -0.177655
-0.040206 -0.089694999 -0.177659
-0.040203001 -0.089619003 -0.177661
-0.040201001 -0.089543 -0.177654
-0.040199999 -0.089465 -0.177642
-0.040197998 -0.089387998 -0.177624
-0.040196002 -0.089309998 -0.177608
-0.040194001 -0.089235999 -0.17761099
-0.040192001 -0.089160003 -0.177609
-0.04019 -0.089083001 -0.177587
-0.040188 -0.089006998 -0.177581
-0.040185999 -0.088928998 -0.177573
-0.040185001 -0.088852003 -0.177554
-0.040181998 -0.088776998 -0.17756
-0.040178999 -0.088702999 -0.17757399
-0.040176999 -0.088627003 -0.17757
-0.040174998 -0.088551 -0.17756499
-0.040171999 -0.088477001 -0.177577
-0.040169001 -0.088404998 -0.177591
-0.040167 -0.088329002 -0.177595
-0.040164001 -0.088256001 -0.177614
-0.040160999 -0.088179998 -0.177616
-0.04016 -0.088102996 -0.177588
-0.04016 -0.088022001 -0.17754801
-0.040158 -0.087944001 -0.177532
-0.040155999 -0.087870002 -0.177531
-0.040153001 -0.087793998 -0.17753901
-0.040150002 -0.087722003 -0.17755701
-0.040146999 -0.087646998 -0.17757
-0.040144999 -0.087571003 -0.17757
-0.040143002 -0.087495998 -0.177564
-0.040141001 -0.087420002 -0.17756
-0.040139001 -0.087343998 -0.17755599
-0.040135998 -0.087269999 -0.177559
-0.040134002 -0.087194003 -0.177563
-0.040130999 -0.087119997 -0.17756499
-0.040128998 -0.087044001 -0.17756499
-0.040126 -0.086970001 -0.177572
-0.040123999 -0.086894996 -0.17757601
-0.040121999 -0.086819999 -0.17757399
-0.040119998 -0.086744003 -0.177568
-0.040116999 -0.086666003 -0.17756499
-0.040116001 -0.086589999 -0.177553
-0.040114 -0.086514004 -0.177543
-0.040112 -0.086437002 -0.177531
-0.040109999 -0.086360998 -0.177524
-0.040107999 -0.086285003 -0.177518
-0.040105999 -0.086208999 -0.177518
-0.040103 -0.086135 -0.177522
-0.040100999 -0.086058997 -0.177525
-0.040098 -0.085984997 -0.17752901
-0.040096 -0.085909002 -0.177533
-0.040093001 -0.085832998 -0.17752901
-0.040091999 -0.085757002 -0.17751899
-0.040089998 -0.085679002 -0.17750201
-0.040088002 -0.085602 -0.177488
-0.040086001 -0.085527003 -0.177498
-0.040082999 -0.085450999 -0.177496
-0.040081002 -0.085377999 -0.17749301
-0.040077999 -0.085303001 -0.177507
-0.040075 -0.085229002 -0.177525
-0.040073 -0.085155003 -0.177531
-0.040070001 -0.085078999 -0.17752799
-0.040068001 -0.085000999 -0.177518
-0.040068001 -0.084922001 -0.177472
-0.040068001 -0.084840998 -0.177422
-0.040066 -0.084762998 -0.177412
-0.040064 -0.084689997 -0.177411
-0.040061999 -0.084611997 -0.177395
-0.040061001 -0.084536001 -0.17738301
-0.040057998 -0.084459998 -0.177389
-0.040054999 -0.084385999 -0.177404
-0.040052 -0.084312998 -0.177424
-0.040049002 -0.084238999 -0.177432
-0.040047999 -0.084161997 -0.177414
-0.040047001 -0.084082 -0.177375
-0.040045001 -0.084004998 -0.177361
-0.040043 -0.083929002 -0.177357
-0.040041 -0.083852999 -0.177349
-0.040038999 -0.083777003 -0.177341
-0.040036999 -0.083702996 -0.17734399
-0.040034998 -0.083627 -0.17734601
-0.040031999 -0.083553001 -0.17735
-0.040029999 -0.083476998 -0.17735
-0.040027998 -0.083398998 -0.17733499
-0.040027998 -0.083319999 -0.17729101
-0.040029 -0.083237998 -0.177219
-0.040027998 -0.083160996 -0.177193
-0.040026002 -0.083085001 -0.177183
-0.040024001 -0.083008997 -0.17718001
-0.040020999 -0.082934998 -0.17718001
-0.040019002 -0.082859002 -0.17718001
-0.040017001 -0.082782999 -0.177178
-0.040013999 -0.082709 -0.17717899
-0.040011998 -0.082633004 -0.17717899
-0.040010002 -0.082555003 -0.177165
-0.040008999 -0.082479998 -0.177147
-0.040008001 -0.082401998 -0.17712
-0.040006001 -0.082324997 -0.17710599
-0.040004 -0.082249999 -0.17711399
-0.040001001 -0.082174003 -0.17711399
-0.039999001 -0.082098998 -0.177111
-0.039997 -0.082024999 -0.17710499
-0.039995 -0.081949003 -0.17710499
-0.039992999 -0.081873 -0.17709699
-0.039992999 -0.081794001 -0.177047
-0.039992999 -0.081712998 -0.177
-0.039990999 -0.081637003 -0.17698801
-0.039988998 -0.081561998 -0.17697801
-0.039987002 -0.081486002 -0.176964
-0.039985999 -0.081408001 -0.17694899
-0.039983999 -0.081332996 -0.176929
-0.039981999 -0.081257001 -0.176927
-0.039980002 -0.081183001 -0.176929
-0.039978001 -0.081105001 -0.17691199
-0.039976999 -0.081028 -0.176888
-0.039974999 -0.080952004 -0.17688
-0.039972998 -0.080876 -0.176872
-0.039972 -0.080801003 -0.17685001
-0.039969999 -0.080723003 -0.176833
-0.039967999 -0.080646999 -0.17682099
-0.039965998 -0.080571003 -0.176817
-0.039964002 -0.080495998 -0.176807
-0.039963 -0.080420002 -0.176798
-0.039960999 -0.080343999 -0.17678601
-0.039960001 -0.080266997 -0.17675
-0.039960999 -0.080186002 -0.176686
-0.039958999 -0.080110997 -0.17667501
-0.039958 -0.080035001 -0.17664699
-0.039957002 -0.079957999 -0.176621
-0.039955001 -0.079879999 -0.176603
-0.039953999 -0.079802997 -0.17657501
-0.039953001 -0.079728998 -0.176566
-0.039949998 -0.079653002 -0.17656399
-0.039949 -0.079576001 -0.176542
-0.039949 -0.079498 -0.176498
-0.039948002 -0.079420999 -0.17646299
-0.039946999 -0.079346001 -0.176441
-0.039946001 -0.079268001 -0.176419
-0.039944001 -0.079191998 -0.176411
-0.039941002 -0.079117998 -0.17641599
-0.039939001 -0.079043001 -0.17641
-0.039937001 -0.078966998 -0.17639799
-0.039935999 -0.078891002 -0.176386
-0.039933998 -0.078815997 -0.176365
-0.039935 -0.078735001 -0.176291
-0.039935999 -0.078657001 -0.176221
-0.039935999 -0.07858 -0.176185
-0.039935999 -0.078502998 -0.176136
-0.039935 -0.078424998 -0.17610399
-0.039935 -0.078345999 -0.176056
-0.039935 -0.078268997 -0.17601199
-0.039933 -0.078194 -0.176
-0.039930001 -0.078120001 -0.17600299
-0.039928999 -0.078043997 -0.175993
-0.039926998 -0.077968001 -0.17596699
-0.039926998 -0.077891 -0.17593101
-0.039926998 -0.077813998 -0.17588399
-0.039926 -0.077739 -0.175854
-0.039925002 -0.077661 -0.175832
-0.039923001 -0.077586003 -0.17581201
-0.039921999 -0.077509999 -0.175787
-0.039921001 -0.077435002 -0.17576499
-0.039919 -0.077358998 -0.175753
-0.039918002 -0.077284001 -0.175735
-0.039917 -0.077207997 -0.175708
-0.039917 -0.077128999 -0.17565399
-0.039917 -0.077053003 -0.175594
-0.039916001 -0.076977 -0.175574
-0.039914001 -0.076901004 -0.17556299
-0.039912999 -0.076828003 -0.175549
-0.039910998 -0.076752 -0.175529
-0.03991 -0.076677002 -0.17551599
-0.039907001 -0.076603003 -0.17551599
-0.039905 -0.076527998 -0.175524
-0.039902002 -0.076453999 -0.17553601
-0.039898001 -0.076382004 -0.175559
-0.039895002 -0.076306999 -0.17558099
-0.039891999 -0.076234996 -0.17559899
-0.039887998 -0.076162003 -0.17563701
-0.039882999 -0.076089002 -0.17568401
-0.039879002 -0.076016001 -0.175732
-0.039873999 -0.075944997 -0.17578
-0.039868999 -0.075874001 -0.175842
-0.039861999 -0.075801 -0.175937
-0.039855 -0.075731002 -0.176039
-0.039850999 -0.075659998 -0.176089
-0.039953001 -0.090171002 -0.177726
-0.039949998 -0.090097003 -0.177734
-0.039948002 -0.090020999 -0.17772999
-0.039946001 -0.089942999 -0.177718
-0.039944001 -0.089868002 -0.177709
-0.039942 -0.089790002 -0.177697
-0.039941002 -0.089712001 -0.177679
-0.039941002 -0.08963 -0.177615
-0.039939001 -0.089553997 -0.177609
-0.039937001 -0.089479998 -0.17762201
-0.039933998 -0.089404002 -0.17762201
-0.039933 -0.089326002 -0.177606
-0.039930001 -0.089252003 -0.17761201
-0.039926998 -0.089178003 -0.17762101
-0.039925002 -0.089102998 -0.17762899
-0.039923001 -0.089024 -0.177607
-0.039921999 -0.088946998 -0.177581
-0.039919998 -0.088868998 -0.17756701
-0.039919 -0.088790998 -0.17755
-0.039917 -0.088715002 -0.17754
-0.039914001 -0.088641003 -0.17754801
-0.039910998 -0.088567004 -0.177572
-0.039907999 -0.088494003 -0.177591
-0.039905 -0.088420004 -0.17759299
-0.039903 -0.088344 -0.17759299
-0.039900001 -0.088270001 -0.177599
-0.039898999 -0.088192999 -0.177586
-0.039896999 -0.088114999 -0.17756601
-0.039895002 -0.088039003 -0.17756601
-0.039893001 -0.087963 -0.17755599
-0.039891001 -0.087886997 -0.177551
-0.039889 -0.087811001 -0.177553
-0.039886001 -0.087734997 -0.177549
-0.039884001 -0.087661996 -0.177549
-0.039880998 -0.087585002 -0.17755701
-0.039879002 -0.087513 -0.17757
-0.039875999 -0.087436996 -0.17757601
-0.039873999 -0.087362997 -0.177578
-0.039871 -0.087288998 -0.177587
-0.039868999 -0.087210998 -0.17757501
-0.039866999 -0.087132998 -0.177559
-0.039864998 -0.087057002 -0.17755701
-0.039863002 -0.086983003 -0.177559
-0.039859999 -0.086909004 -0.177568
-0.039857 -0.086834997 -0.177578
-0.039855 -0.086760998 -0.177588
-0.039852999 -0.086682998 -0.177582
-0.039850999 -0.086606003 -0.177559
-0.03985 -0.086528003 -0.17753901
-0.039848 -0.086452 -0.17753699
-0.039845001 -0.086378001 -0.17753901
-0.039843 -0.086301997 -0.17754
-0.039841 -0.086226001 -0.177536
-0.039838001 -0.086152002 -0.177542
-0.039836001 -0.086075999 -0.17754801
-0.039833002 -0.086002 -0.17755701
-0.039829999 -0.085928001 -0.17756499
-0.039827999 -0.085851997 -0.177561
-0.039825998 -0.085776001 -0.177553
-0.039824001 -0.085698001 -0.17753699
-0.039822999 -0.085620999 -0.177518
-0.039820999 -0.085545003 -0.177512
-0.039818 -0.085470997 -0.177522
-0.039816 -0.085395999 -0.17752799
-0.039813001 -0.085318998 -0.177525
-0.039811 -0.085244 -0.17752901
-0.039808001 -0.085167997 -0.177531
-0.039806001 -0.085093997 -0.17753901
-0.039802998 -0.085019998 -0.17754801
-0.039802998 -0.084941 -0.177508
-0.039804999 -0.084854998 -0.177414
-0.039802998 -0.084778003 -0.17739201
-0.039801002 -0.084702 -0.17738999
-0.039797999 -0.084627002 -0.17740101
-0.039795998 -0.084553003 -0.177407
-0.039793 -0.084477 -0.177407
-0.039790999 -0.084400997 -0.17739899
-0.039790001 -0.084325999 -0.177386
-0.039788 -0.084250003 -0.17738
-0.039786 -0.084172003 -0.17737199
-0.039783001 -0.084097996 -0.17737
-0.039781 -0.084022 -0.177371
-0.039779 -0.083945997 -0.17736299
-0.039777 -0.083871 -0.17735299
-0.039774999 -0.083795004 -0.177351
-0.039772999 -0.083719 -0.177349
-0.03977 -0.083642997 -0.177352
-0.039767001 -0.083567999 -0.17736401
-0.039765 -0.083494 -0.17737
-0.039763998 -0.083416998 -0.177348
-0.039763998 -0.083336003 -0.177293
-0.039763 -0.083259001 -0.177269
-0.039762001 -0.083178997 -0.17723501
-0.039760999 -0.083102003 -0.17719901
-0.039758999 -0.083024003 -0.177183
-0.039756998 -0.082948998 -0.177178
-0.039755002 -0.082874 -0.177186
-0.039751999 -0.082800001 -0.1772
-0.039749 -0.082726002 -0.177204
-0.039747 -0.082649998 -0.17719699
-0.039744999 -0.082571998 -0.177185
-0.039744001 -0.082497001 -0.177169
-0.039742999 -0.082419001 -0.177145
-0.039742 -0.082341999 -0.17712
-0.039739002 -0.082266003 -0.17711601
-0.039737001 -0.082191996 -0.177128
-0.039733998 -0.082116 -0.177132
-0.039732002 -0.082042001 -0.17713501
-0.039728999 -0.081965998 -0.177131
-0.039728001 -0.081890002 -0.177121
-0.039728001 -0.081811003 -0.17707101
-0.039728001 -0.081730001 -0.177011
-0.039726999 -0.081652999 -0.176992
-0.039724998 -0.081577003 -0.176984
-0.039723001 -0.081501 -0.176972
-0.039721001 -0.081426002 -0.176964
-0.039719 -0.081349999 -0.176965
-0.039716002 -0.081276 -0.176961
-0.039714999 -0.081200004 -0.176953
-0.039712001 -0.081124 -0.17694899
-0.039710999 -0.081047997 -0.17693999
-0.039709002 -0.080971003 -0.17691401
-0.039708 -0.080894999 -0.1769
-0.039705999 -0.080816999 -0.17688601
-0.039705001 -0.080742002 -0.17686699
-0.039703 -0.080664001 -0.176845
-0.039701998 -0.080587 -0.176825
-0.039700001 -0.080513 -0.17681301
-0.039698001 -0.080435 -0.176801
-0.039696999 -0.080360003 -0.176778
-0.039696999 -0.080283001 -0.176742
-0.039696001 -0.080204003 -0.17670199
-0.039696001 -0.080126002 -0.17666399
-0.039694 -0.080050997 -0.176649
-0.039691001 -0.079975002 -0.176653
-0.039689001 -0.079898998 -0.176645
-0.039687999 -0.079823002 -0.176625
-0.039687 -0.079746 -0.176605
-0.039685 -0.079669997 -0.176586
-0.039684001 -0.079595 -0.176568
-0.039682999 -0.079516999 -0.17654
-0.039682001 -0.079439998 -0.17651001
-0.039680999 -0.079361998 -0.17648301
-0.03968 -0.079287 -0.176461
-0.039678 -0.079210997 -0.176451
-0.039675999 -0.079135001 -0.17644501
-0.039673999 -0.079060003 -0.176432
-0.039671998 -0.078984 -0.176424
-0.039670002 -0.078910001 -0.17641801
-0.039669 -0.078832999 -0.17639001
-0.039671 -0.078750998 -0.17628901
-0.039671998 -0.078671999 -0.176221
-0.039671998 -0.078594998 -0.17618699
-0.039671 -0.078518003 -0.17615101
-0.039670002 -0.078441001 -0.176118
-0.039668001 -0.078364998 -0.176108
-0.039666999 -0.078289002 -0.17608599
-0.039666001 -0.078213997 -0.176062
-0.039664 -0.078138001 -0.176045
-0.039662998 -0.078061 -0.176025
-0.039662 -0.077985004 -0.17600299
-0.039661001 -0.077908002 -0.175963
-0.039662 -0.077830002 -0.175897
-0.039661001 -0.077756003 -0.175878
-0.039659001 -0.077679001 -0.17585599
-0.039657999 -0.077602997 -0.17582799
-0.039657999 -0.077526003 -0.17579199
-0.039657 -0.077450998 -0.175759
-0.039655 -0.077375002 -0.17574701
-0.039652999 -0.077301003 -0.175749
-0.039652001 -0.077224001 -0.17571899
-0.039652001 -0.077147 -0.17567
-0.039650999 -0.077071004 -0.17564
-0.039650001 -0.076995999 -0.17560799
-0.039648999 -0.076918997 -0.17558099
-0.039648 -0.076843001 -0.175567
-0.039646 -0.076769002 -0.17556299
-0.039643999 -0.076692998 -0.175551
-0.039641 -0.076618999 -0.17555401
-0.039638001 -0.076546997 -0.17557199
-0.039636001 -0.076472998 -0.175578
-0.039632998 -0.076398998 -0.17558999
-0.039629001 -0.076324001 -0.175615
-0.039625999 -0.076251999 -0.17563701
-0.039623 -0.076177001 -0.175653
-0.039618999 -0.076104999 -0.17568301
-0.039615002 -0.076031998 -0.175724
-0.039609998 -0.075960003 -0.17579199
-0.039602999 -0.075889997 -0.175878
-0.039597999 -0.075816996 -0.175938
-0.039593 -0.075746 -0.17600299
-0.039643001 -0.090198003 -0.17777
-0.039641999 -0.090118997 -0.177742
-0.039639998 -0.090043001 -0.17772999
-0.039638001 -0.089966998 -0.177725
-0.039636001 -0.089888997 -0.17772099
-0.039634999 -0.089809999 -0.177689
-0.039634001 -0.089731999 -0.177665
-0.039631002 -0.089656003 -0.177665
-0.039629001 -0.089579999 -0.177664
-0.039625999 -0.089427002 -0.177642
-0.039624002 -0.089349002 -0.177632
-0.039622001 -0.089272998 -0.177619
-0.039618999 -0.089198999 -0.177633
-0.039616 -0.089126997 -0.177653
-0.039613001 -0.089052998 -0.177653
-0.039611999 -0.088973001 -0.17763799
-0.039609 -0.088899001 -0.177646
-0.039607 -0.088825002 -0.177644
-0.039604999 -0.088744998 -0.177624
-0.039604001 -0.08867 -0.17761301
-0.039602 -0.088592 -0.17760301
-0.0396 -0.088515997 -0.17760099
-0.039597001 -0.088441998 -0.17760099
-0.039595 -0.088366002 -0.177605
-0.039592002 -0.088293999 -0.177618
-0.039588999 -0.088219002 -0.177632
-0.039586999 -0.088143997 -0.177624
-0.039585002 -0.088068001 -0.177616
-0.039583001 -0.087990001 -0.17760301
-0.039581001 -0.087912001 -0.177591
-0.039579 -0.087835997 -0.17759299
-0.039576001 -0.087761998 -0.177599
-0.039574001 -0.087687999 -0.1776
-0.039572001 -0.087612003 -0.17760199
-0.039568 -0.087540001 -0.17763001
-0.039565999 -0.087465003 -0.177632
-0.039565001 -0.087385997 -0.17760301
-0.039563 -0.087310001 -0.177591
-0.039560001 -0.087233998 -0.177599
-0.039556999 -0.087162003 -0.177615
-0.039554998 -0.087086 -0.17762201
-0.039551999 -0.087012 -0.17762201
-0.039549999 -0.086935997 -0.177626
-0.039547 -0.086861998 -0.177632
-0.039545 -0.086786002 -0.177635
-0.039542001 -0.086710997 -0.177641
-0.039538998 -0.086636998 -0.177651
-0.039537001 -0.086561002 -0.17764699
-0.039535999 -0.086482003 -0.177623
-0.039533999 -0.086406 -0.177614
-0.039531998 -0.086329997 -0.17761201
-0.039530002 -0.086254001 -0.17761
-0.039528001 -0.086177997 -0.17760199
-0.039526001 -0.086103 -0.17759299
-0.039523002 -0.086025998 -0.177599
-0.039521001 -0.085951 -0.17759299
-0.039519999 -0.085873 -0.177573
-0.039517999 -0.085796997 -0.17756601
-0.039515 -0.085721001 -0.17756601
-0.039512999 -0.085644998 -0.177564
-0.039510999 -0.085570998 -0.177568
-0.039508 -0.085496999 -0.177581
-0.039505001 -0.085423 -0.177587
-0.039503001 -0.085346997 -0.177591
-0.039500002 -0.085272998 -0.17759299
-0.039498001 -0.085197002 -0.177598
-0.039494 -0.085121997 -0.177616
-0.039492 -0.085047998 -0.177624
-0.039489999 -0.084972002 -0.17761999
-0.039489999 -0.084890001 -0.177554
-0.039489999 -0.084811002 -0.17750899
-0.039489001 -0.084730998 -0.177485
-0.039487999 -0.084656 -0.177463
-0.039485998 -0.084578 -0.177453
-0.039483 -0.084501997 -0.177451
-0.039480999 -0.084427997 -0.17745601
-0.039478999 -0.084352002 -0.17745601
-0.039476 -0.084275998 -0.17745601
-0.039473999 -0.084200002 -0.17745399
-0.039473001 -0.084123001 -0.177433
-0.039471 -0.084046997 -0.177417
-0.039469 -0.083971001 -0.17741901
-0.039466001 -0.083897002 -0.177421
-0.039464001 -0.083820999 -0.177416
-0.039462 -0.083742999 -0.17740799
-0.03946 -0.083667003 -0.17739999
-0.039457999 -0.083593003 -0.177402
-0.039455 -0.083517 -0.17740899
-0.039453 -0.083440997 -0.177395
-0.039455 -0.083359003 -0.17731699
-0.039453998 -0.083279997 -0.177285
-0.039452001 -0.083204001 -0.177283
-0.039450001 -0.083127998 -0.177278
-0.039448 -0.083052002 -0.177266
-0.039446 -0.082975 -0.17725
-0.039445002 -0.082897 -0.17723
-0.039441999 -0.082823001 -0.177229
-0.039439 -0.082749002 -0.17724501
-0.039437 -0.082675003 -0.17725299
-0.039434999 -0.082597002 -0.177239
-0.039434001 -0.082520001 -0.17720699
-0.039432999 -0.082442001 -0.177184
-0.039430998 -0.082365997 -0.177178
-0.039429002 -0.082290001 -0.177178
-0.039425999 -0.082216002 -0.177176
-0.039423998 -0.082140997 -0.17717101
-0.039422002 -0.082065001 -0.17717101
-0.039418999 -0.081990004 -0.17718101
-0.039416999 -0.081914999 -0.177177
-0.039416 -0.081836998 -0.177156
-0.039416 -0.081756003 -0.177102
-0.039414998 -0.081679001 -0.177072
-0.039414 -0.081602998 -0.177048
-0.039411999 -0.081525996 -0.177028
-0.039409999 -0.08145 -0.17702299
-0.039407998 -0.081373997 -0.17702299
-0.039406002 -0.081299998 -0.177021
-0.039404001 -0.081221998 -0.177007
-0.039402001 -0.081147 -0.176998
-0.0394 -0.081070997 -0.176992
-0.039399002 -0.080992997 -0.176964
-0.039398 -0.080916002 -0.17693201
-0.039395999 -0.080839999 -0.176927
-0.039393999 -0.080764003 -0.176917
-0.039393 -0.080687001 -0.176891
-0.039391998 -0.08061 -0.176865
-0.039390001 -0.080534004 -0.176851
-0.039388001 -0.080459997 -0.176854
-0.039384998 -0.080385998 -0.17686
-0.039384 -0.080307998 -0.17684001
-0.039384 -0.080228999 -0.176796
-0.039383002 -0.080151998 -0.176759
-0.039381001 -0.080076002 -0.176745
-0.039379001 -0.080000997 -0.176737
-0.039377999 -0.079922996 -0.176713
-0.039377 -0.079846002 -0.176688
-0.039375 -0.079772003 -0.17668
-0.039372999 -0.079696 -0.17667399
-0.039370999 -0.079620004 -0.17667
-0.039368998 -0.079544 -0.17665701
-0.039368998 -0.079466999 -0.176621
-0.039368 -0.079389997 -0.176585
-0.039368 -0.079313003 -0.17654499
-0.039365999 -0.079235002 -0.176533
-0.039363999 -0.079161003 -0.176522
-0.039363001 -0.079084001 -0.17649999
-0.039361 -0.079007998 -0.176486
-0.039359 -0.078932002 -0.176476
-0.039358001 -0.078855 -0.17645299
-0.039359 -0.078776002 -0.17639101
-0.039361998 -0.078693002 -0.176263
-0.039361998 -0.078616001 -0.176219
-0.039361 -0.078541003 -0.176194
-0.039360002 -0.078464001 -0.176156
-0.039359 -0.078386001 -0.17613199
-0.039356999 -0.078309998 -0.17612401
-0.039354999 -0.078235999 -0.176119
-0.039354 -0.078161001 -0.176103
-0.039352 -0.078084998 -0.176083
-0.039351001 -0.07801 -0.176063
-0.039349999 -0.077931002 -0.17602199
-0.039351001 -0.077854 -0.17596801
-0.039349999 -0.077777997 -0.175936
-0.039349001 -0.077701002 -0.17590199
-0.039347999 -0.077624001 -0.175873
-0.039347 -0.077547997 -0.175851
-0.039345 -0.077473 -0.17583901
-0.039344002 -0.077399001 -0.17582101
-0.039342001 -0.077321 -0.175804
-0.039340999 -0.077248 -0.17578401
-0.039338998 -0.077169999 -0.17576601
-0.039340001 -0.077094004 -0.175708
-0.039338998 -0.077017002 -0.17566501
-0.039338998 -0.076940998 -0.175633
-0.039337002 -0.076866001 -0.17561901
-0.039335001 -0.076792002 -0.175615
-0.039333001 -0.076715998 -0.175612
-0.039331 -0.076641999 -0.17560799
-0.039328001 -0.076568 -0.17561001
-0.039326001 -0.076494001 -0.175616
-0.039322 -0.076419003 -0.17563701
-0.039319001 -0.076347001 -0.175657
-0.039315999 -0.076273002 -0.175667
-0.039313 -0.076197997 -0.175685
-0.039308999 -0.076126002 -0.175722
-0.039305001 -0.076052003 -0.17577399
-0.039299998 -0.075980999 -0.175824
-0.039294999 -0.075910002 -0.175883
-0.039287999 -0.075838 -0.175979
-0.039282002 -0.075768001 -0.176063
-0.039244998 -0.090209998 -0.17768601
-0.039243001 -0.090134002 -0.17768601
-0.039241001 -0.090056002 -0.177674
-0.039239001 -0.089982003 -0.17767
-0.039236002 -0.089906 -0.177682
-0.039234001 -0.089830004 -0.17767499
-0.039232999 -0.089750998 -0.177637
-0.039232001 -0.089671999 -0.177615
-0.03923 -0.089596003 -0.177607
-0.039228 -0.08952 -0.177598
-0.039225999 -0.089442 -0.177586
-0.039223999 -0.089367002 -0.177582
-0.039221998 -0.089290999 -0.17758
-0.039218999 -0.089217 -0.17758401
-0.039216999 -0.089142002 -0.17759299
-0.039214998 -0.089065 -0.177581
-0.039213002 -0.088987 -0.177569
-0.039209999 -0.088914998 -0.177579
-0.039207999 -0.088840999 -0.177586
-0.039205 -0.088762999 -0.177586
-0.039204001 -0.088687003 -0.17757601
-0.039202001 -0.088610999 -0.177568
-0.039198998 -0.088535003 -0.177573
-0.039196 -0.088463001 -0.177589
-0.039193001 -0.088388003 -0.177599
-0.039191 -0.088313997 -0.177605
-0.039188001 -0.088238001 -0.177614
-0.039186001 -0.088164002 -0.177614
-0.039186001 -0.088082999 -0.177562
-0.039184 -0.088004 -0.177536
-0.039182 -0.087930001 -0.177549
-0.039179001 -0.087854996 -0.177559
-0.039177001 -0.087779 -0.177553
-0.039174002 -0.087702997 -0.177553
-0.039172001 -0.087628998 -0.17755701
-0.039168999 -0.087554999 -0.177562
-0.039167002 -0.087479003 -0.177568
-0.039163999 -0.087405004 -0.17757601
-0.039161999 -0.087330997 -0.177581
-0.039159 -0.087255001 -0.17758501
-0.039156999 -0.087178998 -0.17758299
-0.039154999 -0.087103002 -0.177573
-0.039152 -0.087026998 -0.177577
-0.03915 -0.086952999 -0.17758401
-0.039147001 -0.086879 -0.17759199
-0.039143998 -0.086805001 -0.177606
-0.039140999 -0.086730003 -0.17762201
-0.039138999 -0.086655997 -0.177627
