-0.276947 0.0325834 0.960333 0.000986866
-0.275814 0.0319741 0.960679 0.000489744
-0.275752 0.0316631 0.960707 0
-0.273749 0.0312494 0.961293 0
-0.271504 0.0309949 0.961938 0
-0.274896 0.0302733 0.960997 0
-0.275114 0.0299519 0.960945 0.00090537
-0.273526 0.029579 0.96141 0.00103887
-0.274632 0.0289583 0.961113 0.00181153
-0.275172 0.0285219 0.960972 0.00271751
-0.275607 0.0278499 0.960867 0.00247514
-0.276193 0.0269004 0.960726 0.00169894
-0.273962 0.0263331 0.96138 0
-0.274821 0.0255008 0.961157 0
-0.27343 0.0247298 0.961574 0
-0.280931 0.0244765 0.959416 0.00339694
-0.281847 0.0237804 0.959165 0.00457048
-0.281627 0.0228505 0.959252 0.00555791
-0.281295 0.0218872 0.959372 0.00447284
-0.283219 0.0213345 0.958818 0.00547937
-0.281879 0.0206503 0.959228 0.00741751
-0.286512 0.019625 0.957876 0.00888038
-0.287779 0.0189013 0.95751 0.0089608
-0.286179 0.018005 0.958007 0.00754828
-0.281815 0.0172514 0.959314 0.00361143
-0.280937 0.0164452 0.959585 0.00422406
-0.285409 0.0157106 0.958277 0.00558795
-0.280618 0.0147952 0.959706 0.00284959
-0.279709 0.0141418 0.95998 0.00355323
-0.275412 0.0133519 0.961234 0.000148234
-0.279088 0.0126664 0.960182 0.00152162
-0.279417 0.0118877 0.960096 0.00206017
-0.281445 0.0111963 0.959512 0.00317967
-0.275579 0.0101398 0.961225 0.000392129
-0.27633 0.00949752 0.961016 0
-0.27514 0.00852768 0.961366 0.000246033
-0.275889 0.00753541 0.96116 0.000609914
-0.273279 0.00683058 0.961911 0
-0.273112 0.00639963 0.961961 0
-0.273332 0.0059457 0.961901 0
-0.270846 0.00511527 0.962609 0
-0.26985 0.00426185 0.962893 0
-0.271547 0.00353883 0.962419 0
-0.271497 0.00292276 0.962435 0.001007
-0.267989 0.00192197 0.96342 0
-0.268205 0.00123002 0.963361 0.000402013
-0.269309 0.000645336 0.963054 0.000630592
-0.268775 0.000134912 0.963203 0
-0.268607 -0.000615675 0.96325 0
-0.267852 -0.00124853 0.963459 0
-0.270647 -0.00214028 0.962676 0.000571843
-0.270449 -0.0030609 0.962729 0.000183362
-0.277864 -0.0033225 0.960615 0.00625354
-0.274097 -0.00375725 0.961695 0.00468871
-0.272513 -0.00445767 0.962142 0.00456344
-0.275215 -0.00465974 0.961371 0.00362976
-0.27551 -0.00509899 0.961285 0.00542665
-0.277659 -0.00542914 0.960664 0.00572217
-0.280182 -0.00628968 0.959926 0.00898689
-0.281324 -0.00660935 0.95959 0.0103132
-0.279594 -0.00715915 0.960092 0.00803743
-0.282437 -0.00780558 0.959254 0.0111091
-0.280996 -0.00829863 0.959673 0.0100124
-0.274303 -0.00863789 0.961605 0.00625571
-0.274324 -0.00950637 0.96159 0.00739738
-0.273958 -0.00998454 0.96169 0.00620487
-0.2743 -0.0101809 0.96159 0.00717006
-0.270386 -0.0109784 0.962689 0.005493
-0.271621 -0.0113716 0.962337 0.00554707
-0.262886 -0.0119274 0.964753 0.000499214
-0.263932 -0.0123597 0.964462 0.00114887
-0.266534 -0.0130242 0.963737 0.00374697
-0.267084 -0.0136035 0.963577 0.00412529
-0.267104 -0.0139185 0.963567 0.0031513
-0.266536 -0.0143929 0.963718 0.00382792
-0.264373 -0.0148338 0.964306 0.00240381
-0.260518 -0.0153513 0.965347 0.000502898
-0.262188 -0.015933 0.964885 0.00193781
-0.266427 -0.0162264 0.963719 0.00608431
-0.266049 -0.0166712 0.963816 0.00658604
-0.267668 -0.0170021 0.963361 0.00611666
-0.265541 -0.0173522 0.963943 0.00426546
-0.262257 -0.0177244 0.964835 0.00282808
-0.261055 -0.018076 0.965155 0.00150273
-0.257913 -0.0184706 0.965991 0
-0.256144 -0.0186698 0.966458 0
-0.258834 -0.0189895 0.965735 0
-0.261115 -0.0194457 0.965112 0
-0.260607 -0.0198465 0.965241 0.00147566
-0.258275 -0.0200152 0.965864 0
-0.258926 -0.0203793 0.965682 0.000403409
-0.258332 -0.0204719 0.965839 0
-0.259953 -0.0207167 0.965399 0
-0.260478 -0.0209174 0.965253 0.000108105
-0.262547 -0.0211434 0.964687 0.003386
-0.26603 -0.0213346 0.963729 0.00719577
-0.266925 -0.02134 0.963481 0.00573099
-0.263704 -0.0214217 0.964366 0.00334862
-0.262413 -0.0213351 0.96472 0.00294369
-0.266412 -0.0212612 0.963625 0.00560076
-0.264163 -0.0210881 0.964248 0.00417643
-0.273921 -0.0212413 0.961518 0.0114549
-0.273502 -0.0211618 0.961639 0.0123666
-0.27597 -0.020977 0.960937 0.0127613
-0.27877 -0.0209195 0.96013 0.0146039
-0.276725 -0.0205843 0.960729 0.0133414
-0.275202 -0.0203094 0.961172 0.0112579
-0.271366 -0.0201246 0.962266 0.011069
-0.275789 -0.0196585 0.961017 0.0128807
-0.271404 -0.019214 0.962274 0.0110831
-0.268899 -0.0186903 0.962987 0.00883474
-0.265382 -0.0180077 0.963975 0.00575553
-0.262517 -0.0174798 0.964769 0.00442774
-0.264393 -0.0166578 0.964271 0.00487452
-0.261159 -0.0159431 0.965164 0.00290946
-0.265993 -0.0151269 0.963856 0.006644
-0.267574 -0.0141962 0.963433 0.00580796
-0.270521 -0.0135119 0.962619 0.0101706
-0.272937 -0.0123984 0.961952 0.00952274
-0.272543 -0.0113283 0.962077 0.00999472
-0.266795 -0.0102838 0.963698 0.00488128
-0.271735 -0.0089775 0.96233 0.00664529
-0.268889 -0.00765436 0.963141 0.00504562
-0.267868 -0.00641492 0.963434 0.00293848
-0.26842 -0.00514194 0.963288 0.00393921
-0.263451 -0.00366798 0.964666 0
-0.264222 -0.00186192 0.96446 0
-0.266287 6.49368e-05 0.963894 0
-0.265818 0.00176011 0.964022 0
-0.269109 0.00344616 0.963104 0
-0.269638 0.00515394 0.962948 0
-0.271182 0.00694664 0.962503 0
-0.268943 0.0085613 0.963118 0
-0.27018 0.0103753 0.962754 0
-0.270727 0.0122217 0.962579 0
-0.271538 0.0145952 0.962317 0
-0.271985 0.0168693 0.962154 0
-0.275846 0.0189008 0.961016 0
-0.27584 0.0213186 0.960967 0
-0.275163 0.0234289 0.961112 0
-0.276971 0.0250503 0.960552 0
-0.27589 0.0270958 0.960807 0
-0.280975 0.029414 0.959264 0.00149415
-0.278786 0.0312644 0.959844 0
-0.281753 0.0334481 0.958904 0
-0.281105 0.0349082 0.959042 0
-0.280552 0.036369 0.95915 0
-0.280872 0.0379624 0.958994 0
-0.28112 0.0395871 0.958856 5.64266e-05
-0.279253 0.0412159 0.959333 0
-0.278289 0.0424774 0.959558 0
-0.278414 0.0443538 0.959436 0
-0.277386 0.0455862 0.959677 0
-0.279117 0.0472343 0.959095 0
-0.281026 0.0489352 0.958452 0
-0.278101 0.0501779 0.95924 0
-0.279022 0.051669 0.958894 0
-0.276967 0.0531708 0.959407 0
-0.277452 0.0549881 0.959164 0
-0.277457 0.0567274 0.959062 0
-0.277163 0.0586329 0.959032 0
-0.27617 0.0605183 0.959202 0
-0.276717 0.0626475 0.958907 0
-0.277552 0.0648907 0.958516 0.000906965
-0.278365 0.0672913 0.958115 0.00313861
-0.279934 0.0704706 0.957429 0.00604139
-0.279644 0.0735277 0.957284 0.00678169
-0.275945 0.0755466 0.9582 0.00398512
-0.2755 0.0784418 0.958095 0.00348081
-0.277845 0.0818609 0.957132 0.00418956
-0.279829 0.0863182 0.956161 0.00831856
-0.27486 0.0882468 0.957426 0.00527461
-0.271575 0.0900652 0.958194 0.00286645
-0.268347 0.0915905 0.958958 0.000777456
-0.265481 0.0939555 0.959527 0
-0.262622 0.0965661 0.960055 0
-0.262956 0.0995374 0.95966 0
-0.264251 0.103675 0.958865 0
-0.262844 0.107239 0.95886 0
-0.262206 0.11124 0.958579 0
-0.261784 0.114372 0.958326 0
-0.260693 0.117462 0.95825 0
-0.259877 0.120798 0.958056 0
-0.259596 0.124808 0.957618 0
-0.258987 0.127774 0.957392 0
-0.258809 0.131831 0.95689 0
-0.258083 0.13591 0.956515 0
-0.254739 0.139596 0.956881 0
-0.253282 0.142731 0.956805 0
-0.255036 0.147497 0.955616 0
-0.253959 0.150987 0.955357 0
-0.252808 0.154817 0.95505 0
-0.252307 0.158893 0.954512 0
-0.251938 0.163758 0.953787 0
-0.250327 0.168144 0.953448 0
-0.251038 0.173398 0.95232 0
-0.249805 0.178151 0.951767 0
-0.24717 0.180996 0.951918 0
-0.246743 0.185198 0.95122 0
-0.24428 0.188207 0.951265 0
-0.242995 0.192651 0.950704 0
-0.242201 0.198181 0.94977 0
-0.153824 -0.18687 0.970267 0.0144308
-0.160497 -0.187405 0.969082 0.0197742
-0.161585 -0.182036 0.969924 0.0168174
-0.161484 -0.177108 0.970853 0.0145752
-0.165241 -0.176157 0.970394 0.0180019
-0.164588 -0.16816 0.971922 0.0118379
-0.165231 -0.163388 0.972627 0.0125202
-0.165954 -0.158866 0.973253 0.0101524
-0.169966 -0.157673 0.972754 0.0136992
-0.168312 -0.151219 0.974066 0.00938958
-0.165541 -0.144472 0.975564 0.00316506
-0.164962 -0.140784 0.976201 0.00294353
-0.166623 -0.1372 0.976429 0.000201887
-0.170751 -0.135561 0.975944 0.00211388
-0.1713 -0.131439 0.976412 0.000769101
-0.171603 -0.129292 0.976645 0
-0.179215 -0.130746 0.975083 0.00477383
-0.180188 -0.127925 0.975278 0.0065395
-0.179661 -0.123152 0.97599 0.00210393
-0.179649 -0.119753 0.976415 0
-0.181372 -0.117685 0.976348 0
-0.18346 -0.115693 0.976195 0
-0.184235 -0.112353 0.97644 0
-0.185463 -0.109312 0.976552 0
-0.187822 -0.107328 0.976321 0
-0.190117 -0.106355 0.975984 0
-0.192258 -0.104498 0.975765 0
-0.194226 -0.102854 0.97555 0.00138322
-0.196095 -0.100747 0.975396 0.00154481
-0.197403 -0.0988871 0.975322 0
-0.199809 -0.096014 0.975119 0.00119589
-0.202093 -0.0931846 0.974923 0.00192955
-0.201662 -0.0906359 0.975253 3.02292e-05
-0.202841 -0.0882351 0.975228 0
-0.202518 -0.0852953 0.975557 0
-0.205077 -0.0831312 0.975209 0
-0.208015 -0.0819966 0.974683 0
-0.211369 -0.0797482 0.974148 0
-0.215546 -0.0774207 0.97342 0
-0.216771 -0.0757162 0.973282 0
-0.220693 -0.0740584 0.972528 0.000275056
-0.2264 -0.0745517 0.971177 0.00618997
-0.226551 -0.0722779 0.971314 0.00501119
-0.228399 -0.070568 0.971007 0.00676284
-0.233622 -0.069872 0.969814 0.0102566
-0.234082 -0.0673089 0.969884 0.00847371
-0.237201 -0.0650315 0.969281 0.0086116
-0.241342 -0.0643335 0.968305 0.0108022
-0.245428 -0.0625705 0.967393 0.0135051
-0.243584 -0.0593199 0.968064 0.0107776
-0.245885 -0.0568738 0.967629 0.010329
-0.247918 -0.0550208 0.967217 0.0122005
-0.250699 -0.0531 0.966608 0.0125434
-0.25199 -0.0510855 0.96638 0.0120116
-0.253024 -0.0489556 0.966221 0.0119318
-0.248307 -0.0458411 0.967596 0.00634229
-0.247301 -0.0437897 0.967949 0.00559782
-0.25006 -0.042077 0.967316 0.00542245
-0.254456 -0.0410419 0.966213 0.00802606
-0.258119 -0.0394862 0.965306 0.0102218
-0.262819 -0.0375221 0.964115 0.0125112
-0.26272 -0.0346941 0.964248 0.0100546
-0.266658 -0.0326048 0.96324 0.0109254
-0.265503 -0.0299216 0.963646 0.00980837
-0.264928 -0.0268706 0.963894 0.00791491
-0.267539 -0.0238763 0.963251 0.00647291
-0.271759 -0.0210536 0.962135 0.00834506
-0.272212 -0.0184454 0.96206 0.00928806
-0.271805 -0.0147236 0.96224 0.0108288
-0.272631 -0.0115366 0.962049 0.0105231
-0.267618 -0.00813303 0.963491 0.0066928
-0.267506 -0.00510789 0.963543 0.00655528
-0.265603 -0.00261978 0.964079 0.00584122
-0.269177 5.11341e-05 0.963091 0.00824323
-0.272048 0.00255014 0.96228 0.0112831
-0.271201 0.00526228 0.962508 0.0113198
-0.269329 0.007541 0.963019 0.00855936
-0.268301 0.0101028 0.963282 0.00829268
-0.266021 0.0123848 0.963888 0.00522945
-0.260527 0.0148563 0.965352 0.000555218
-0.260425 0.0165209 0.965353 2.02856e-06
-0.262458 0.0179917 0.964776 0.00131059
-0.261563 0.0200893 0.964977 0
-0.260999 0.0218158 0.965092 0
-0.261273 0.0235225 0.964978 0.000206748
-0.261139 0.0250646 0.964976 0
-0.259466 0.0268379 0.965379 0
-0.258452 0.0281843 0.965613 0
-0.259444 0.0291339 0.965319 0
-0.260687 0.0300885 0.964955 0
-0.261732 0.0306225 0.964655 0
-0.265002 0.0309369 0.963751 0
-0.265995 0.0315198 0.963459 0
-0.265421 0.0321167 0.963598 0
-0.2677 0.0327753 0.962945 0
-0.266935 0.0330764 0.963147 0
-0.268068 0.0335593 0.962815 0
-0.270004 0.0336996 0.962269 0
-0.271123 0.0340101 0.961944 0
-0.270113 0.0340431 0.962227 0
-0.274492 0.034215 0.96098 0.0016726
-0.276443 0.0343306 0.960417 0.00553467
-0.277909 0.0344902 0.959988 0.00709322
-0.280059 0.0346061 0.959359 0.00868938
-0.287247 0.0349025 0.957221 0.0143871
-0.287985 0.0346826 0.957007 0.0151357
-0.288309 0.0343932 0.95692 0.0158779
-0.289702 0.034676 0.956489 0.0161393
-0.282871 0.0343736 0.958542 0.0103464
-0.276307 0.0340771 0.960465 0.00615241
-0.272539 0.0335827 0.961559 0.00195416
-0.272873 0.0335421 0.961465 0.0028233
-0.27171 0.033523 0.961795 0.00340217
-0.271654 0.0331862 0.961823 0.00343803
-0.273161 0.0329305 0.961405 0.00367725
-0.276633 0.032755 0.960417 0.00615782
-0.278865 0.0322949 0.959787 0.00822238
-0.275732 0.0317523 0.96071 0.00748832
-0.274895 0.0314464 0.96096 0.00735204
-0.268249 0.0311448 0.962846 0.00220133
-0.263592 0.0307706 0.964143 0
-0.263391 0.0303904 0.96421 0
-0.262873 0.0302069 0.964357 0
-0.261079 0.029451 0.964868 0
-0.259326 0.0287101 0.965363 0
-0.262463 0.0283693 0.964525 0
-0.264692 0.027788 0.963932 0.000278445
-0.267937 0.027059 0.963056 0.00322163
-0.269435 0.0265274 0.962653 0.00494748
-0.273944 0.0257649 0.961401 0.00693791
-0.271895 0.0253614 0.961993 0.00647048
-0.274644 0.024815 0.961226 0.00748963
-0.273994 0.0239358 0.961433 0.00696048
-0.271174 0.0232304 0.96225 0.00599454
-0.267172 0.022393 0.963389 0.00330181
-0.27208 0.0216701 0.962031 0.00603474
-0.269869 0.0207487 0.962673 0.00515515
-0.273535 0.019562 0.961663 0.00855429
-0.278409 0.018556 0.960284 0.0126177
-0.279066 0.0180519 0.960102 0.0106166
-0.272985 0.0173521 0.961862 0.00674993
-0.271158 0.016562 0.962392 0.00437879
-0.268867 0.0158489 0.963047 0.00295918
-0.267065 0.0154459 0.963555 0.00124293
-0.268463 0.0145752 0.96318 0.00186754
-0.269598 0.0136159 0.962877 0.00268133
-0.26845 0.0128599 0.963208 0.00263251
-0.267522 0.0119419 0.963478 0.00250785
-0.267412 0.0109376 0.96352 0.00382561
-0.263198 0.0101717 0.964688 0.00162932
-0.261426 0.00970095 0.965175 0
-0.265015 0.00860331 0.964206 0.00254579
-0.262458 0.00788282 0.964911 0.00058808
-0.263328 0.00712468 0.96468 0.000285025
-0.263323 0.00633198 0.964687 0
-0.258999 0.00579393 0.96586 0
-0.257182 0.00534982 0.966348 0
-0.257954 0.00459948 0.966146 0
-0.257922 0.00390626 0.966158 0
-0.257243 0.00322626 0.966341 0
-0.2587 0.00214505 0.965955 0
-0.259964 0.00144611 0.965617 0
-0.260465 0.000637884 0.965483 0
-0.260053 3.63368e-06 0.965594 0
-0.257842 -0.000723002 0.966187 0
-0.259155 -0.00147976 0.965835 4.87518e-05
-0.264031 -0.00207122 0.964512 0.00381203
-0.265415 -0.00283077 0.96413 0.00676724
-0.265451 -0.00323899 0.964119 0.00619535
-0.259753 -0.00387985 0.965667 9.32963e-07
-0.262209 -0.00443341 0.965001 0.00132785
-0.261176 -0.00473211 0.96528 0.000308165
-0.26468 -0.00522216 0.964322 0.00154546
-0.265131 -0.00591973 0.964194 0.00293915
-0.269437 -0.00652672 0.962996 0.0073649
-0.272092 -0.00684548 0.962247 0.00908442
-0.265721 -0.00733248 0.964022 0.00574839
-0.268931 -0.00793159 0.963127 0.00730131
-0.271026 -0.00825514 0.962537 0.00956765
-0.269761 -0.00893143 0.962886 0.00971437
-0.268939 -0.0093865 0.963111 0.00945055
-0.264327 -0.0102374 0.964379 0.00783225
-0.262949 -0.0106058 0.964751 0.00702214
-0.258796 -0.0110797 0.965868 0.00408761
-0.255819 -0.0114065 0.966657 0.00230279
-0.255343 -0.0120045 0.966776 0.00153916
-0.256643 -0.012461 0.966426 0.0026065
-0.25824 -0.0130249 0.965993 0.00365731
-0.261668 -0.0137537 0.96506 0.00742819
-0.262647 -0.0142823 0.964786 0.00917726
-0.262009 -0.014819 0.964952 0.00864988
-0.260185 -0.0152683 0.965438 0.00724859
-0.259328 -0.0155609 0.965664 0.00656524
-0.261988 -0.0157835 0.964942 0.00968455
-0.258885 -0.0158286 0.965778 0.00686449
-0.260296 -0.0164822 0.965388 0.00693806
-0.25694 -0.0168825 0.96628 0.00602769
-0.257609 -0.0171067 0.966098 0.00660086
-0.258265 -0.0176159 0.965913 0.00716626
-0.254277 -0.0178609 0.966967 0.00208313
-0.253529 -0.0181304 0.967158 0.00137249
-0.252084 -0.0184624 0.967529 0.000880708
-0.251856 -0.0187372 0.967583 0.000940982
-0.257682 -0.0191829 0.966039 0.00602399
-0.257867 -0.0195153 0.965983 0.00461318
-0.256247 -0.019794 0.966409 0.00358072
-0.254522 -0.020192 0.966856 0.00402647
-0.255865 -0.0204251 0.966497 0.0047156
-0.258789 -0.0206311 0.965714 0.00653168
-0.258618 -0.0209263 0.965753 0.00779206
-0.26069 -0.0208632 0.965197 0.0089767
-0.260734 -0.021078 0.965181 0.00868071
-0.262787 -0.0211829 0.964621 0.0100496
-0.259608 -0.0210104 0.965486 0.00602266
-0.256966 -0.0210283 0.966192 0.00342776
-0.257119 -0.0210062 0.966151 0.00284099
-0.259775 -0.0210494 0.96544 0.00540524
-0.264166 -0.0211801 0.964244 0.00979561
-0.268256 -0.0211841 0.963115 0.0136723
-0.268781 -0.0211224 0.96297 0.0151476
-0.270034 -0.0210356 0.962621 0.0157122
-0.272517 -0.0208224 0.961926 0.0160039
-0.270179 -0.0205108 0.962592 0.0141582
-0.268597 -0.020298 0.963039 0.0137651
-0.271961 -0.0199068 0.962102 0.0161497
-0.280152 -0.0196707 0.959754 0.0227911
-0.274543 -0.0191873 0.961383 0.0171897
-0.273669 -0.0186037 0.961644 0.0176974
-0.265053 -0.0178807 0.964068 0.0109935
-0.261449 -0.0173131 0.965062 0.00682922
-0.256842 -0.016682 0.966309 0.00317663
-0.254234 -0.0160381 0.96701 0.00219448
-0.260027 -0.0152478 0.965481 0.00769892
-0.256252 -0.0145009 0.966501 0.00576102
-0.255545 -0.0135253 0.966703 0.00443041
-0.258657 -0.0124359 0.965889 0.00494182
-0.258203 -0.0115068 0.966022 0.00429436
-0.258314 -0.0103578 0.966006 0.00365255
-0.256497 -0.00910226 0.966502 0.000189867
-0.256497 -0.00808421 0.966511 0
-0.256282 -0.0067515 0.966578 0
-0.25572 -0.0052094 0.966737 0
-0.255767 -0.0036623 0.966732 0
-0.257067 -0.00204172 0.966391 0
-0.256464 -0.000607405 0.966554 0
-0.258419 0.00121894 0.966032 0
-0.258859 0.00288297 0.965911 0
-0.260337 0.00463646 0.965507 0
-0.261324 0.00638957 0.96523 0
-0.262222 0.0082399 0.964972 0
-0.26223 0.0101329 0.964952 0
-0.264844 0.0122184 0.964214 0
-0.264542 0.0141854 0.96427 0
-0.265953 0.0164348 0.963846 0
-0.267334 0.0186577 0.963423 0
-0.269029 0.0208296 0.962907 0
-0.270462 0.0233273 0.962448 0.00106394
-0.274129 0.0256414 0.961351 0.00391761
-0.276053 0.027355 0.960753 0.00616797
-0.273042 0.0293372 0.961555 0.00357207
-0.273648 0.0312953 0.961321 0.00316383
-0.270128 0.0331895 0.962252 0
-0.269474 0.034247 0.962399 0
-0.269708 0.0358957 0.962273 0
-0.27058 0.03751 0.961966 0
-0.271684 0.0393953 0.96158 0.00191873
-0.27044 0.0411264 0.961858 0.00106222
-0.267555 0.042254 0.962616 0
-0.270431 0.0440135 0.961733 0
-0.269213 0.0454228 0.962009 0
-0.269634 0.0469311 0.961819 0
-0.270398 0.0486682 0.961518 0
-0.269151 0.0502343 0.961787 0
-0.268286 0.0520042 0.961935 0
-0.268641 0.0536018 0.961748 0
-0.268354 0.0556357 0.961712 0
-0.268411 0.0579552 0.961559 0
-0.267375 0.0599242 0.961727 0
-0.271477 0.0631784 0.960369 0.00252957
-0.272267 0.0659385 0.95996 0.00673943
-0.268827 0.0679386 0.960789 0.00457582
-0.271651 0.0719565 0.959702 0.00832239
-0.269844 0.0737294 0.960077 0.00420872
-0.268014 0.0768335 0.960346 0.00591633
-0.27167 0.0816241 0.958923 0.010137
-0.274333 0.086784 0.957711 0.013692
-0.274643 0.0900367 0.957321 0.0125638
-0.271131 0.0920385 0.958132 0.0104141
-0.269413 0.0929705 0.958527 0.00714437
-0.266535 0.0955948 0.959073 0.00419494
-0.263194 0.0972933 0.959824 6.84429e-05
-0.260919 0.100709 0.960093 0
-0.261712 0.104592 0.959462 0
-0.260148 0.107323 0.959586 0
-0.258515 0.110296 0.95969 0
-0.256732 0.112795 0.959878 0
-0.255178 0.116414 0.95986 0
-0.252982 0.119052 0.960118 0
-0.252998 0.123169 0.959594 0
-0.252331 0.127769 0.959168 0
-0.25196 0.13076 0.958863 0
-0.249884 0.134081 0.958948 0
-0.250099 0.138445 0.958271 0
-0.249861 0.142761 0.9577 0
-0.246724 0.14605 0.958017 0
-0.245278 0.150385 0.957718 0
-0.246456 0.155839 0.956543 0
-0.244213 0.158842 0.956624 0
-0.244536 0.16324 0.955801 0
-0.245336 0.168018 0.954767 0
-0.244586 0.171266 0.954382 0
-0.245109 0.176398 0.953313 0
-0.244824 0.181511 0.952426 0
-0.244571 0.187288 0.951372 0
-0.243403 0.191272 0.950879 0
-0.241354 0.194534 0.950739 0
-0.242031 0.199264 0.949587 0
-0.2409 0.203737 0.948925 0
-0.238857 0.208001 0.948516 0
-0.238466 0.214362 0.947197 0
-0.239036 0.221502 0.945409 0
-0.15174 -0.200465 0.967879 0.0126588
-0.156167 -0.199227 0.96743 0.015929
-0.158155 -0.194509 0.968067 0.0157729
-0.161895 -0.193798 0.967591 0.0184391
-0.165447 -0.191817 0.967385 0.0195142
-0.163948 -0.185315 0.968906 0.0176857
-0.162202 -0.178244 0.970526 0.0132782
-0.162461 -0.174424 0.971176 0.0129458
-0.164377 -0.170239 0.971596 0.0116774
-0.166316 -0.166334 0.971942 0.0109306
-0.16459 -0.159531 0.973376 0.00527115
-0.165535 -0.154666 0.974 0
-0.166478 -0.15246 0.974187 0
-0.165771 -0.148364 0.97494 0
-0.165881 -0.145104 0.975412 0
-0.169289 -0.144884 0.974859 0.00426962
-0.168958 -0.139133 0.975754 0.00106097
-0.171751 -0.137286 0.975528 0.00163175
-0.171826 -0.133335 0.976062 0
-0.171589 -0.130196 0.976528 0
-0.170389 -0.126384 0.977238 0
-0.173738 -0.124117 0.976939 0
-0.173144 -0.121286 0.9774 0
-0.17605 -0.11988 0.977054 0
-0.179876 -0.11849 0.976527 0
-0.182802 -0.115909 0.976293 0
-0.181987 -0.113055 0.97678 0
-0.184444 -0.111437 0.976505 0
-0.186445 -0.109095 0.97639 0
-0.188304 -0.107595 0.976199 0
-0.191896 -0.106823 0.975584 0.000236294
-0.194462 -0.105713 0.975197 0.00238515
-0.194588 -0.101893 0.975578 0
-0.19625 -0.0993012 0.975513 0
-0.198586 -0.0972631 0.975245 0
-0.202536 -0.096799 0.974479 0.00212378
-0.201897 -0.0928088 0.974999 0
-0.202947 -0.0904137 0.975007 0
-0.203543 -0.088403 0.975067 0
-0.205247 -0.0855206 0.974967 0
-0.207034 -0.0833985 0.974773 0
-0.210803 -0.0816174 0.974115 0
-0.213417 -0.0796418 0.97371 0
-0.21554 -0.0767341 0.973476 0
-0.216297 -0.0750075 0.973442 0
-0.218209 -0.0732912 0.973146 0
-0.219869 -0.070462 0.972981 0
-0.221966 -0.0686605 0.972634 0
-0.224964 -0.067336 0.972037 0
-0.225325 -0.0651613 0.972102 0
-0.227592 -0.0626521 0.971739 0
-0.228677 -0.0603613 0.971629 0
-0.232846 -0.0586529 0.970743 0.00125694
-0.23247 -0.055386 0.971025 0
-0.236169 -0.0537073 0.970227 0.00178739
-0.235795 -0.0515864 0.970433 0
-0.235194 -0.0498432 0.97067 0
-0.237606 -0.0475462 0.970197 0
-0.239273 -0.0458464 0.969869 0
-0.241018 -0.043859 0.969529 0.00110693
-0.241776 -0.0420952 0.969419 1.27122e-05
-0.242307 -0.0393584 0.969401 0
-0.245413 -0.0374933 0.968693 0.0016704
-0.249787 -0.0351496 0.967663 0.00168131
-0.252772 -0.0323775 0.966984 0.00280157
-0.255705 -0.0298193 0.966295 0.00283555
-0.256684 -0.0273845 0.966107 0.00376009
-0.258294 -0.024008 0.965768 0.00418073
-0.261932 -0.0209931 0.964858 0.00801007
-0.259949 -0.0169324 0.965474 0.00591316
-0.258266 -0.0139273 0.965973 0.0039641
-0.256776 -0.0100167 0.966419 0.00228439
-0.254921 -0.0067486 0.966938 0.000977233
-0.255573 -0.00437326 0.96678 0.00196188
-0.257905 -0.00228654 0.966168 0.00498935
-0.257744 0.00028571 0.966213 0.00487617
-0.257503 0.00281858 0.966273 0.00482682
-0.254902 0.00609202 0.966948 0.00422799
-0.255791 0.0081931 0.966697 0.00399241
-0.256627 0.00971826 0.966462 0.00459827
-0.258874 0.011885 0.965838 0.00458421
-0.256789 0.013831 0.966368 0.00154995
-0.256251 0.0157183 0.966482 0
-0.256914 0.0176495 0.966273 0.00111845
-0.254143 0.0194321 0.966971 0
-0.253379 0.0212822 0.967133 0
-0.252426 0.0226266 0.967352 0
-0.252574 0.0243325 0.967271 0
-0.25386 0.0251078 0.966915 0
-0.253419 0.0265743 0.966991 0
-0.2538 0.0279977 0.966851 0
-0.255531 0.0286963 0.966375 0
-0.255727 0.0293644 0.966303 0
-0.254483 0.02982 0.966617 0
-0.25566 0.0307606 0.966277 0
-0.257808 0.0308157 0.965705 0
-0.25968 0.0314442 0.965183 0
-0.260318 0.0319137 0.964995 0
-0.260427 0.0322644 0.964954 0
-0.262594 0.0325151 0.964358 0
-0.265793 0.0328658 0.96347 0.00151341
-0.265806 0.0330875 0.963458 0.00177965
-0.267494 0.0335516 0.962975 0.00452612
-0.267148 0.0336452 0.963068 0.00607009
-0.269391 0.0338104 0.962437 0.00733228
-0.27209 0.0338454 0.961676 0.00943183
-0.269346 0.0335873 0.962458 0.00513255
-0.26784 0.03353 0.96288 0.00543906
-0.267472 0.033204 0.962993 0.0047563
-0.268318 0.0331267 0.962761 0.00497281
-0.269307 0.03309 0.962486 0.00465513
-0.269218 0.0331038 0.96251 0.00572431
-0.267709 0.0329061 0.962938 0.00709828
-0.269038 0.0328485 0.962569 0.0078796
-0.272852 0.0329105 0.961493 0.0101264
-0.2738 0.0327494 0.961229 0.0121465
-0.274896 0.032723 0.960917 0.0116364
-0.271982 0.0323669 0.961758 0.00947672
-0.26829 0.0320338 0.962805 0.0074107
-0.262992 0.031539 0.964283 0.00303936
-0.258739 0.031166 0.965444 0
-0.25958 0.0306279 0.965236 0
-0.257451 0.0303959 0.965813 0
-0.25754 0.0299897 0.965802 0
-0.257703 0.0295334 0.965773 0
-0.259037 0.0289602 0.965433 0.00177109
-0.259957 0.0283757 0.965203 0.000486738
-0.260642 0.0280288 0.965029 0.00305495
-0.261515 0.0273016 0.964813 0.00277322
-0.262593 0.0267001 0.964537 0.00324392
-0.261121 0.0260293 0.964955 0.00131727
-0.262566 0.0254759 0.964578 0.00319205
-0.261516 0.024803 0.96488 0.00288769
-0.261151 0.024383 0.96499 0.00302272
-0.259489 0.0236445 0.965457 0.00143485
-0.257162 0.0227494 0.9661 0.000725463
-0.259682 0.0219654 0.965444 0.00371862
-0.263016 0.0212644 0.964557 0.00579889
-0.263778 0.0202007 0.964372 0.007096
-0.267417 0.0193013 0.963388 0.0097045
-0.268595 0.018498 0.963075 0.0103855
-0.265838 0.0175679 0.963858 0.00762484
-0.265548 0.0170823 0.963946 0.00804347
-0.26634 0.0164604 0.963739 0.0075958
-0.264127 0.0156369 0.964361 0.00493206
-0.264006 0.0147394 0.964408 0.00499474
-0.262985 0.0137435 0.964702 0.00396192
-0.261514 0.0129714 0.965113 0.00307464
-0.257563 0.0121546 0.966185 0.000709893
-0.253104 0.011316 0.967373 0
-0.253435 0.0104299 0.967296 0
-0.251311 0.00985841 0.967856 0
-0.253252 0.009254 0.967356 0
-0.250505 0.00851337 0.968078 0
-0.251078 0.00760168 0.967937 0
-0.251504 0.00672353 0.967833 0
-0.250816 0.00630652 0.968014 0
-0.250044 0.00582556 0.968217 0
-0.249782 0.00486078 0.96829 0
-0.250354 0.00417302 0.968145 0
-0.253812 0.00358225 0.967247 0
-0.252145 0.00278498 0.967685 0
-0.254679 0.00192858 0.967024 0
-0.254274 0.0011809 0.967131 0
-0.256138 0.000197885 0.96664 0.000318542
-0.258675 -0.000692562 0.965964 0.00269558
-0.260238 -0.00122416 0.965544 0.00380684
-0.257163 -0.00184211 0.966366 0.00214592
-0.258167 -0.00260473 0.966097 0.00197018
-0.258012 -0.00323943 0.966136 0.00298831
-0.256861 -0.00371138 0.966441 0.00114557
-0.259165 -0.00442399 0.965823 0.00271472
-0.26125 -0.00490939 0.965259 0.00486613
-0.261628 -0.00533045 0.965154 0.00334391
-0.263632 -0.00586062 0.964606 0.00627325
-0.262945 -0.00628375 0.96479 0.00605713
-0.264021 -0.00666302 0.964494 0.00767433
-0.264457 -0.00697712 0.964372 0.0074188
-0.265864 -0.00767111 0.96398 0.0107428
-0.265223 -0.00792249 0.964155 0.00936315
-0.260263 -0.00875287 0.965498 0.00621416
-0.259097 -0.00895678 0.96581 0.0052669
-0.262162 -0.00974386 0.964975 0.00872605
-0.258229 -0.0102092 0.96603 0.00668908
-0.255439 -0.0106723 0.966766 0.00382902
-0.253159 -0.0112109 0.96736 0.004367
-0.254792 -0.0116693 0.966926 0.00536878
-0.258106 -0.0123082 0.966038 0.00842771
-0.25688 -0.0129457 0.966357 0.00538106
-0.254432 -0.0135068 0.966997 0.00404029
-0.253691 -0.0138134 0.967187 0.00434191
-0.252956 -0.0141584 0.967374 0.00401395
-0.251924 -0.0144938 0.967639 0.00414612
-0.25371 -0.0148766 0.967166 0.00467203
-0.251624 -0.0153981 0.967703 0.00399514
-0.251364 -0.0156713 0.967766 0.00528781
-0.25326 -0.0161757 0.967263 0.00607837
-0.252937 -0.0163808 0.967344 0.0044394
-0.248978 -0.0167354 0.968364 0
-0.246771 -0.0171728 0.968922 0
-0.245862 -0.0173904 0.969149 0
-0.247157 -0.0174772 0.968818 0
-0.245924 -0.0177114 0.969127 0
-0.245857 -0.0181215 0.969137 0
-0.246025 -0.0188107 0.969081 0
-0.248285 -0.0191519 0.968498 0
-0.247692 -0.019233 0.968648 0
-0.247166 -0.0195681 0.968775 0
-0.247019 -0.019783 0.968809 0
-0.246942 -0.0200462 0.968823 0.00158487
-0.247313 -0.0202806 0.968723 0.00206404
-0.24779 -0.0202129 0.968603 0
-0.247664 -0.0203604 0.968632 0
-0.248162 -0.0205736 0.9685 0.000794109
-0.247253 -0.0206357 0.968731 0
-0.248478 -0.0205768 0.968419 0
-0.250244 -0.0206323 0.967963 0.00231384
-0.252842 -0.020903 0.967282 0.00481925
-0.254437 -0.0210547 0.96686 0.00678118
-0.253942 -0.0210909 0.96699 0.00774358
-0.257055 -0.0211548 0.966165 0.0115628
-0.261719 -0.0211495 0.964912 0.0152021
-0.26203 -0.0209459 0.964832 0.0144187
-0.260943 -0.0206537 0.965133 0.0139558
-0.260161 -0.0204219 0.965349 0.0141067
-0.262061 -0.0201912 0.96484 0.0151962
-0.26413 -0.0198516 0.964283 0.0168725
-0.264391 -0.0195378 0.964218 0.0176508
-0.264563 -0.0191788 0.964178 0.0174671
-0.262665 -0.0187386 0.964705 0.015465
-0.260724 -0.0181579 0.965242 0.0126353
-0.255678 -0.0175026 0.966604 0.0076421
-0.251842 -0.0169182 0.96762 0.00552535
-0.256216 -0.0162717 0.966483 0.00868789
-0.25447 -0.0154475 0.966957 0.00747599
-0.252066 -0.0144544 0.967602 0.00296124
-0.249609 -0.0135986 0.968251 0
-0.250132 -0.0126915 0.968129 0
-0.250837 -0.0115741 0.96796 0
-0.249572 -0.0104398 0.9683 0
-0.251176 -0.00925291 0.967897 0
-0.250133 -0.0079721 0.968179 0
-0.250256 -0.00675813 0.968156 0
-0.253716 -0.00533728 0.967264 0
-0.253462 -0.00389183 0.967338 0
-0.254772 -0.00231884 0.966998 0
-0.25529 -0.00068867 0.966864 0
-0.255972 0.000601224 0.966684 0
-0.257055 0.00245741 0.966394 0
-0.256337 0.00410268 0.966579 0
-0.258744 0.00612188 0.965926 0
-0.258608 0.00776103 0.965951 0
-0.258939 0.0098772 0.965843 0
-0.260952 0.0116619 0.965281 0
-0.263255 0.013897 0.964626 0
-0.262539 0.0165003 0.96478 0
-0.262591 0.0189669 0.964721 0
-0.263058 0.0211893 0.964547 5.93904e-05
-0.264546 0.023911 0.964077 0.00176191
-0.263607 0.0253892 0.964296 0.000538518
-0.265605 0.0280086 0.963675 0.00170662
-0.262393 0.0296305 0.964506 0
-0.263495 0.0317388 0.964139 0
-0.26212 0.0331312 0.964466 0
-0.262802 0.0347572 0.964224 0
-0.263276 0.0360769 0.964046 0
-0.261262 0.0377208 0.964531 0
-0.261286 0.0395411 0.964451 0
-0.261744 0.0410998 0.964262 0
-0.262373 0.0425952 0.964026 0
-0.262384 0.0441451 0.963953 0
-0.262479 0.0456635 0.963857 0
-0.264245 0.047733 0.963274 0
-0.263838 0.0496376 0.963289 9.1079e-05
-0.262637 0.0516755 0.96351 3.63084e-05
-0.261417 0.0535164 0.963741 0
-0.261823 0.0556645 0.963509 0
-0.261317 0.05813 0.963501 0
-0.261899 0.0607268 0.963183 0.000218702
-0.261882 0.0636252 0.963 0.00120877
-0.262911 0.0670712 0.962486 0.00398234
-0.261629 0.0690152 0.962698 0.00378241
-0.264938 0.073621 0.961451 0.00840285
-0.264748 0.0772297 0.96122 0.0087929
-0.264214 0.0807654 0.961076 0.00803734
-0.264057 0.0834688 0.960888 0.00735194
-0.265887 0.0876289 0.960013 0.00949384
-0.262393 0.0891161 0.960837 0.00587219
-0.257759 0.0905949 0.961953 0
-0.257946 0.0942383 0.961552 0
-0.260091 0.0993676 0.960458 0.00316199
-0.256202 0.100971 0.961335 0
-0.254606 0.103491 0.961491 0
-0.253566 0.106992 0.961383 0
-0.252742 0.110281 0.961228 0
-0.250753 0.113995 0.961316 0
-0.251027 0.118339 0.960719 0
-0.249577 0.121004 0.960765 0
-0.247178 0.123481 0.96107 0
-0.248174 0.128121 0.960205 0
-0.247951 0.132269 0.9597 0
-0.246872 0.136135 0.959438 0
-0.245355 0.139026 0.959413 0
-0.244346 0.143385 0.959029 0
-0.242063 0.146814 0.959089 0
-0.24296 0.150891 0.958229 0
-0.24297 0.155205 0.957537 0
-0.242833 0.15972 0.956829 0
-0.241826 0.164357 0.956299 0
-0.24288 0.169067 0.95521 0
-0.24392 0.173815 0.954092 0
-0.244537 0.178961 0.952982 0
-0.242092 0.182083 0.953015 0
-0.240851 0.186981 0.952381 0
-0.242333 0.193206 0.950761 0
-0.240844 0.196717 0.950419 0
-0.24053 0.200699 0.949666 0
-0.240224 0.205418 0.948734 0
-0.240911 0.212011 0.947108 0.000747802
-0.241261 0.217462 0.945782 0.00150492
-0.240188 0.221793 0.945049 0
-0.237973 0.227881 0.94416 0.000784072
-0.237287 0.23296 0.943093 0
-0.237625 0.238255 0.941684 0
-0.146127 -0.205231 0.967743 0.00869273
-0.147428 -0.199685 0.968706 0.00684398
-0.150685 -0.199739 0.968193 0.010203
-0.156268 -0.202025 0.966833 0.0151347
-0.159035 -0.198743 0.967062 0.0148923
-0.161123 -0.194683 0.967542 0.0156362
-0.162905 -0.190894 0.967999 0.0142179
-0.162838 -0.187022 0.968765 0.0144427
-0.164968 -0.183251 0.969126 0.0124564
-0.166528 -0.180076 0.969454 0.0135639
-0.166398 -0.176994 0.970044 0.0150383
-0.164029 -0.168651 0.971932 0.0102856
-0.163592 -0.163134 0.972946 0.00770164
-0.161308 -0.155204 0.974624 0
-0.161698 -0.151777 0.975099 0
-0.163473 -0.14938 0.975173 0.000659751
-0.164958 -0.145965 0.97544 0
-0.165531 -0.143292 0.975739 0
-0.163509 -0.138851 0.976722 0
-0.167538 -0.137382 0.976246 0
-0.168841 -0.135504 0.976285 0
-0.168929 -0.132625 0.976665 0
-0.169944 -0.130115 0.976826 0
-0.170691 -0.127362 0.977058 0
-0.171886 -0.125598 0.977077 0
-0.174976 -0.124469 0.976673 0
-0.178463 -0.1235 0.976165 0
-0.179758 -0.121397 0.976192 0
-0.182464 -0.120231 0.975834 0
-0.182848 -0.117981 0.976036 0
-0.184511 -0.116032 0.975957 0
-0.186427 -0.114268 0.975801 0
-0.186422 -0.11154 0.976118 0
-0.186173 -0.108778 0.976477 0
-0.1905 -0.106753 0.975866 0
-0.191187 -0.103707 0.97606 0
-0.194273 -0.102017 0.975628 0
-0.195013 -0.100229 0.975666 0
-0.196573 -0.0987336 0.975505 0
-0.198619 -0.0960484 0.975359 0
-0.201241 -0.0941343 0.975008 0
-0.199485 -0.0908776 0.975678 0
-0.201591 -0.0884568 0.975467 0
-0.202128 -0.0862095 0.975557 0
-0.202101 -0.0829822 0.975843 0
-0.205583 -0.080934 0.975287 0
-0.20578 -0.0783312 0.975458 0
-0.20993 -0.0759235 0.974764 0
-0.211787 -0.0732656 0.974566 0
-0.215282 -0.0712647 0.973948 0
-0.219323 -0.0698773 0.973147 0.00157385
-0.218884 -0.0667198 0.973467 0
-0.22239 -0.0652047 0.972775 0.000264134
-0.222564 -0.0628496 0.97289 0
-0.225028 -0.061003 0.972441 0
-0.22736 -0.0589809 0.972023 0
-0.229972 -0.0572362 0.971513 0.00259063
-0.230282 -0.0538396 0.971633 0.00139655
-0.230561 -0.0514653 0.971696 0
-0.231955 -0.0493067 0.971476 0
-0.232317 -0.046813 0.971513 0
-0.235331 -0.0445367 0.970894 0
-0.239012 -0.0424204 0.97009 0
-0.240149 -0.0401923 0.969904 0.00018556
-0.241266 -0.0371893 0.969746 2.38482e-05
-0.244386 -0.0351629 0.96904 0.00355381
-0.248316 -0.0316861 0.968161 0.00540421
-0.24781 -0.0280475 0.968403 0.00437347
-0.248139 -0.0248135 0.968406 0.00538977
-0.248449 -0.0210585 0.968416 0.00451752
-0.248248 -0.0176531 0.968536 0.00331953
-0.247518 -0.0144524 0.968776 0.00411428
-0.250236 -0.0116952 0.968114 0.00643508
-0.250815 -0.00914432 0.967992 0.00541671
-0.250394 -0.00619859 0.968124 0.00489652
-0.249015 -0.0035758 0.968493 0.00282359
-0.249993 -0.000632802 0.968247 0.00161068
-0.250508 0.00181068 0.968113 0.00340557
-0.249001 0.00455932 0.968493 0.00089578
-0.248953 0.00693666 0.968491 0
-0.24639 0.00973901 0.969122 0
-0.246981 0.011405 0.968953 0
-0.246193 0.0137647 0.969123 0
-0.246879 0.0156537 0.96892 0
-0.247387 0.0167941 0.968771 0
-0.247691 0.0191251 0.96865 0
-0.247273 0.0208854 0.968721 0
-0.248 0.0218789 0.968513 0
-0.248772 0.023391 0.96828 0
-0.251048 0.0245278 0.967664 0
-0.248002 0.0252923 0.968429 0
-0.252209 0.026265 0.967316 0
-0.2519 0.0270546 0.967375 0
-0.251303 0.0280048 0.967503 0
-0.25137 0.0285523 0.96747 0
-0.251042 0.0291773 0.967537 0
-0.252035 0.0299309 0.967255 0
-0.254637 0.0300611 0.966569 0
-0.255721 0.0307965 0.96626 0
-0.260518 0.0315885 0.964952 0.00421835
-0.259634 0.0317724 0.965184 0.00306723
-0.260657 0.0320062 0.964901 0.00338647
-0.257785 0.0322622 0.965664 0.000226365
-0.256408 0.0328134 0.966011 0.000842248
-0.259477 0.0331289 0.965181 0.000945323
-0.261147 0.0335438 0.964716 0.00393984
-0.260916 0.0334725 0.964781 0.00727229
-0.263003 0.0335238 0.964212 0.00816845
-0.26132 0.0336142 0.964667 0.00349944
-0.258422 0.033269 0.965459 0.000381657
-0.258503 0.0333562 0.965434 0
-0.261417 0.0332422 0.964653 0.00261598
-0.264055 0.0333294 0.963932 0.00298321
-0.263332 0.0331706 0.964135 0.00275956
-0.262181 0.0328523 0.964459 0.00101611
-0.260509 0.0327571 0.964916 0.00146854
-0.259014 0.0325566 0.965325 0.000162619
-0.257215 0.0324254 0.96581 0
-0.254873 0.0321113 0.966441 0
-0.255109 0.0317715 0.96639 0
-0.256215 0.0315756 0.966104 0
-0.255976 0.0310406 0.966185 0.000765339
-0.257696 0.0308485 0.965734 0.00477995
-0.256034 0.030303 0.966193 0.00264826
-0.256535 0.0297688 0.966076 0.00312549
-0.253997 0.0289776 0.966771 0
-0.256311 0.0285829 0.966172 0
-0.258433 0.0281495 0.965619 0.00168281
-0.258192 0.0277903 0.965694 0.00375475
-0.257432 0.0271898 0.965914 0.0034155
-0.258184 0.0264025 0.965735 0.00334943
-0.253973 0.0259433 0.966863 0
-0.253755 0.0253068 0.966937 0
-0.254611 0.0247147 0.966728 0
-0.253124 0.0237874 0.967141 0
-0.254659 0.0229157 0.966759 0.000578341
-0.255631 0.0220967 0.966522 0.00157151
-0.255665 0.0214629 0.966527 0.00150051
-0.254974 0.0207881 0.966724 0.00299245
-0.254027 0.0197333 0.966996 0.00264525
-0.251888 0.0190603 0.967569 0.000482215
-0.258172 0.0182076 0.965927 0.00353859
-0.253774 0.0176195 0.967103 0
-0.257259 0.0166062 0.9662 0.00193166
-0.257264 0.0157511 0.966213 0.00385063
-0.255416 0.0150903 0.966714 0.0015148
-0.252477 0.0142388 0.967498 0
-0.250436 0.0133382 0.968041 0
-0.248805 0.0127043 0.96847 0
-0.247379 0.0116369 0.968849 0
-0.248636 0.0110713 0.968534 0
-0.250789 0.0105978 0.967984 0
-0.25181 0.00990724 0.967726 0
-0.24608 0.00901766 0.969208 0
-0.243648 0.0081518 0.96983 0
-0.247726 0.00736244 0.968802 0
-0.249217 0.00640034 0.968427 0
-0.248473 0.00572037 0.968622 0
-0.245307 0.00497081 0.969433 0
-0.246877 0.00403631 0.969038 0
-0.247669 0.00337234 0.968839 0
-0.250137 0.00264746 0.968207 0
-0.250424 0.00213037 0.968134 0
-0.249255 0.00141749 0.968437 0
-0.250222 0.000548717 0.968188 0
-0.252064 -1.48377e-07 0.96771 0.0031315
-0.251816 -0.00091125 0.967775 0.000343332
-0.252581 -0.00144559 0.967575 0.000974171
-0.255928 -0.00220443 0.966693 0.000764894
-0.255871 -0.00290165 0.966706 0.00276804
-0.25472 -0.00331527 0.967009 0.00538904
-0.25649 -0.0041467 0.966538 0.00663162
-0.256529 -0.00429428 0.966527 0.00246803
-0.257964 -0.00491518 0.966142 0.00615123
-0.26168 -0.0054396 0.965139 0.0078971
-0.262438 -0.0057807 0.964931 0.0109057
-0.265349 -0.00635071 0.964131 0.0154322
-0.264378 -0.00689055 0.964395 0.0118922
-0.261037 -0.00708818 0.965303 0.0100312
-0.257145 -0.00746991 0.966344 0.0066792
-0.255271 -0.00786638 0.966838 0.00584622
-0.254036 -0.00838063 0.967158 0.00476041
-0.255413 -0.00874253 0.966793 0.0038251
-0.253215 -0.0093941 0.967365 0.00527737
-0.255566 -0.0100909 0.966739 0.00809897
-0.253279 -0.0105734 0.967335 0.00404393
-0.254097 -0.0110507 0.967116 0.00784594
-0.256082 -0.0117249 0.966584 0.00934143
-0.254452 -0.0123147 0.967007 0.00877955
-0.255032 -0.0126754 0.966849 0.00718844
-0.248001 -0.0127612 0.968676 0.000773273
-0.247516 -0.0133666 0.968792 0.0010501
-0.245705 -0.0137458 0.969247 0.000848544
-0.246802 -0.0141338 0.968963 0.00357404
-0.249454 -0.0144042 0.968279 0.0043491
-0.248201 -0.0148276 0.968595 0.00488062
-0.246795 -0.0153085 0.968947 0.00449607
-0.249299 -0.0156382 0.9683 0.00623413
-0.249008 -0.0158926 0.968371 0.00402382
-0.249963 -0.0163045 0.968118 0.00329472
-0.244473 -0.016479 0.969516 0
-0.242934 -0.0170602 0.969893 0
-0.242616 -0.0173329 0.969967 0
-0.245259 -0.0177992 0.969294 0.000617514
-0.245329 -0.0180556 0.969272 0
-0.243972 -0.0179442 0.969616 0
-0.242456 -0.0183294 0.969989 0
-0.241581 -0.0186186 0.970202 0
-0.241251 -0.0187511 0.970282 0
-0.241185 -0.0192672 0.970288 0
-0.243659 -0.0194066 0.969667 0.00106969
-0.247347 -0.0196774 0.968727 0.0051793
-0.247179 -0.0197114 0.968769 0.00399598
-0.242323 -0.0199142 0.969991 0.000403658
-0.242403 -0.0197393 0.969975 0
-0.245889 -0.0198669 0.969094 0
-0.244862 -0.020092 0.96935 0.000168917
-0.247511 -0.0202379 0.968674 0.00227441
-0.254286 -0.0207136 0.966907 0.0114045
-0.255305 -0.0208126 0.966636 0.0136112
-0.256748 -0.0207793 0.966255 0.0127593
-0.256069 -0.0204613 0.966442 0.0116654
-0.256617 -0.0204691 0.966296 0.0122435
-0.257525 -0.0204338 0.966055 0.0133425
-0.261421 -0.0203135 0.965011 0.0165103
-0.256874 -0.0200783 0.966236 0.0144154
-0.258912 -0.0199377 0.965695 0.0147392
-0.261924 -0.0198283 0.964885 0.0168745
-0.261115 -0.0194801 0.965111 0.0163038
-0.259425 -0.0189464 0.965577 0.0144264
-0.257678 -0.0183476 0.966057 0.0116228
-0.256446 -0.0177914 0.966395 0.0087007
-0.252613 -0.0170451 0.967417 0.00745555
-0.251368 -0.0165726 0.96775 0.00812508
-0.254367 -0.016019 0.966975 0.0114981
-0.253075 -0.0149584 0.967331 0.00569054
-0.250268 -0.0141973 0.968073 0.00386083
-0.245567 -0.0133334 0.969288 0
-0.245535 -0.0123584 0.969309 0
-0.248317 -0.0114675 0.968611 0
-0.251279 -0.0105229 0.967857 0
-0.250881 -0.00942458 0.967972 0
-0.250531 -0.0083075 0.968073 0
-0.247289 -0.00695166 0.968917 0
-0.246255 -0.00544512 0.96919 0
-0.25098 -0.00389148 0.967985 0
-0.253197 -0.0023466 0.967412 8.00604e-05
-0.253962 -0.000938643 0.967214 0.00285535
-0.253753 0.00102536 0.967268 0.00300576
-0.252187 0.00290388 0.967674 0.000451584
-0.255199 0.00485052 0.966877 0.000255358
-0.255014 0.00653369 0.966915 0
-0.256124 0.00876693 0.966604 0
-0.253911 0.010912 0.967166 0
-0.256987 0.0132363 0.966324 0
-0.255051 0.015246 0.966807 0
-0.255625 0.017465 0.966618 0
-0.256289 0.0201477 0.96639 0
-0.257829 0.0229672 0.965918 0
-0.257569 0.0250754 0.965934 0
-0.257564 0.0263777 0.965901 0
-0.257006 0.0287815 0.965981 0
-0.25846 0.030931 0.965527 0
-0.259098 0.032159 0.965315 0
-0.259477 0.0337781 0.965158 0
-0.257586 0.0355604 0.965601 0
-0.256655 0.037326 0.965782 0
-0.257735 0.0389285 0.965431 0
-0.256581 0.0404048 0.965678 0
-0.259642 0.042261 0.96478 0
-0.25841 0.0439654 0.965034 0
-0.258778 0.0458232 0.964849 0
-0.257711 0.0479143 0.965033 0
-0.256485 0.0501189 0.965248 0
-0.257025 0.0522374 0.964992 0
-0.255616 0.0545563 0.965238 0.000976667
-0.258486 0.0579799 0.964273 0.00390964
-0.25812 0.0607553 0.964201 0.00624939
-0.256735 0.0635307 0.964392 0.00574135
-0.25766 0.0670217 0.963908 0.00632913
-0.259612 0.0709917 0.9631 0.0107323
-0.261552 0.0751691 0.962258 0.0118045
-0.262008 0.077971 0.961911 0.0123271
-0.259439 0.080354 0.962411 0.0091337
-0.260959 0.0847637 0.961621 0.0108376
-0.260157 0.0881122 0.961538 0.0101761
-0.255891 0.0894117 0.962562 0.00533679
-0.255642 0.0931424 0.962274 0.00352954
-0.254003 0.0956233 0.962465 0.00289791
-0.253814 0.0988973 0.962184 0.00289027
-0.250318 0.100567 0.962926 0
-0.248358 0.103854 0.963085 0
-0.24621 0.107419 0.963246 0
-0.246768 0.111214 0.962672 0
-0.245339 0.114431 0.96266 0
-0.244044 0.117875 0.962574 0
-0.243803 0.121284 0.962211 0
-0.241554 0.12418 0.962409 0
-0.243022 0.129125 0.961388 0
-0.244631 0.133831 0.960336 0
-0.24362 0.137676 0.960049 0
-0.242124 0.140781 0.959978 0
-0.242261 0.144934 0.959325 0
-0.241509 0.149313 0.958842 0
-0.242788 0.154142 0.957755 0
-0.24183 0.157989 0.95737 0
-0.242421 0.162688 0.956433 0
-0.242028 0.166533 0.955871 0
-0.241364 0.171056 0.95524 0
-0.241207 0.176566 0.954277 0
-0.241399 0.181145 0.953369 0
-0.240993 0.185047 0.952722 0
-0.23947 0.188922 0.952346 0
-0.241891 0.196857 0.950124 0.00253834
-0.23934 0.20034 0.950042 0.00211825
-0.241379 0.207408 0.948007 0.00398869
-0.242497 0.214131 0.946226 0.00556825
-0.24512 0.223218 0.943446 0.00801264
-0.243654 0.228912 0.94246 0.00899434
-0.242981 0.233128 0.941601 0.00776271
-0.237505 0.232655 0.943114 0.00391789
-0.24221 0.244832 0.938825 0.00845028
-0.239711 0.247573 0.938747 0.00683816
-0.23919 0.251128 0.937935 0.00447294
-0.143394 -0.218539 0.965235 0.00758248
-0.144987 -0.21488 0.965818 0.00884145
-0.147113 -0.214653 0.965547 0.0123838
-0.147029 -0.206933 0.967244 0.00941522
-0.149329 -0.203513 0.967617 0.0096689
-0.148625 -0.197929 0.968883 0.00747917
-0.149483 -0.195885 0.969167 0.00968627
-0.152961 -0.194967 0.968809 0.0113812
-0.151806 -0.184873 0.970967 0.00393883
-0.152525 -0.180171 0.971738 0.0032699
-0.152176 -0.176017 0.972554 0.00382459
-0.151641 -0.169866 0.97373 0.000981085
-0.15111 -0.165689 0.974532 0
-0.151113 -0.162503 0.975068 0
-0.151947 -0.159735 0.975396 0
-0.154494 -0.157931 0.975289 0
-0.155515 -0.155366 0.975539 0
-0.156305 -0.152083 0.97593 0
-0.158829 -0.150272 0.975803 0
-0.161112 -0.148294 0.975731 0
-0.161271 -0.146338 0.976 0
-0.160857 -0.14232 0.976663 0
-0.162936 -0.140491 0.976583 0
-0.165818 -0.139062 0.976302 0
-0.166867 -0.136738 0.976452 0
-0.168352 -0.135233 0.976407 0.000857591
-0.170359 -0.133097 0.976352 0
-0.17164 -0.131155 0.97639 0
-0.172944 -0.129037 0.976442 4.59812e-05
-0.174383 -0.12682 0.976477 0
-0.17616 -0.125193 0.976368 0.000895023
-0.176406 -0.122994 0.976603 0.000203203
-0.178468 -0.121762 0.976383 0.00152819
-0.176581 -0.118508 0.977126 0
-0.179185 -0.117048 0.976828 0
-0.180991 -0.114795 0.976762 0.000325895
-0.183034 -0.11392 0.976484 0.00290001
-0.184775 -0.112331 0.97634 0.00347318
-0.186929 -0.110246 0.976168 0.00363987
-0.185883 -0.107198 0.976707 0.000974361
-0.186951 -0.104069 0.976841 0
-0.186717 -0.100875 0.977221 0
-0.187705 -0.0979715 0.977327 0
-0.189317 -0.0959545 0.977216 0
-0.189746 -0.0940244 0.977321 0
-0.190339 -0.0901938 0.977566 0
-0.192447 -0.0882695 0.977329 0
-0.194256 -0.0863146 0.977146 0
-0.199836 -0.0853542 0.976105 0.0015178
-0.201099 -0.0827875 0.976066 0.000943911
-0.204943 -0.0812547 0.975395 0.00460627
-0.207692 -0.0789446 0.975003 0.00598649
-0.208528 -0.0760364 0.975056 0.00411866
-0.207313 -0.0723572 0.975595 0.00121858
-0.208569 -0.0698369 0.975511 0.00105462
-0.211598 -0.0674031 0.97503 0.00234839
-0.211846 -0.064302 0.975185 0
-0.217117 -0.0618213 0.974186 0.00161322
-0.22303 -0.0604703 0.972934 0.00600208
-0.225094 -0.0584096 0.972585 0.00635211
-0.229235 -0.0560917 0.971754 0.00825931
-0.229571 -0.0536063 0.971815 0.00658851
-0.225819 -0.0505212 0.972858 0.00226717
-0.225121 -0.0477996 0.973158 0.0040517
-0.227714 -0.0452984 0.972674 0.00575894
-0.229112 -0.0418793 0.972499 0.0022214
-0.229049 -0.0378289 0.97268 0.000455186
-0.234747 -0.0349459 0.971428 0.00866103
-0.234798 -0.0314681 0.971535 0.00766346
-0.235643 -0.027028 0.971464 0.00356243
-0.236919 -0.0240896 0.971231 0.00286527
-0.232483 -0.0197796 0.972399 0
-0.234247 -0.0171939 0.972025 0
-0.234844 -0.0144388 0.971926 0.00257077
-0.2366 -0.0118347 0.971535 0.00456112
-0.241137 -0.00867871 0.970452 0.00679842
-0.24287 -0.00635697 0.970038 0.00550241
-0.243386 -0.00448213 0.969919 0.00621362
-0.244492 -0.00152338 0.96965 0.00826144
-0.24565 0.00144156 0.969358 0.0109914
-0.24218 0.00389777 0.970224 0.00777084
-0.239306 0.00631423 0.970924 0.0031909
-0.245826 0.00813672 0.96928 0.00856734
-0.246945 0.0100772 0.968977 0.00672764
-0.243293 0.0125579 0.969871 0
-0.244702 0.0141378 0.969495 0.00125036
-0.246442 0.0164303 0.969018 0.00321322
-0.243998 0.0179934 0.969609 0.00155972
-0.244381 0.0192931 0.969487 0
-0.24722 0.0203932 0.968745 0.00261897
-0.244317 0.0217913 0.969451 0.000653372
-0.245072 0.0228687 0.969235 0
-0.245418 0.0241696 0.969116 0.00177223
-0.244604 0.0253475 0.969292 0
-0.244022 0.0265193 0.969407 0
-0.244613 0.0278762 0.96922 0
-0.246709 0.0279687 0.968686 0
-0.247352 0.0287454 0.968499 0
-0.246319 0.0295405 0.968739 0
-0.248895 0.0300775 0.968063 0
-0.251626 0.0309388 0.96733 0.00309607
-0.252299 0.031939 0.967122 0.00273056
-0.253305 0.0317958 0.966864 0.00431266
-0.252438 0.0316884 0.967094 0.0049479
-0.251711 0.0324083 0.96726 0.00234168
-0.253759 0.0321316 0.966734 0
-0.252863 0.0327744 0.966947 0
-0.248291 0.032656 0.968135 0
-0.249469 0.0325449 0.967836 0
-0.250104 0.0323583 0.967678 0
-0.252777 0.0325632 0.966977 0
-0.253882 0.0329117 0.966675 0
-0.250543 0.0326664 0.967554 0
-0.248153 0.0333867 0.968145 0
-0.250219 0.0332775 0.967617 0
-0.251519 0.0332537 0.967281 0
-0.253682 0.0327267 0.966734 0
-0.252193 0.0323568 0.967136 0
-0.249386 0.0319233 0.967878 0
-0.250801 0.0323383 0.967498 0
-0.251846 0.0312871 0.967262 0.00221525
-0.250118 0.0312103 0.967712 1.39447e-05
-0.250531 0.0308878 0.967616 0
-0.25029 0.0303764 0.967694 0.000129311
-0.253525 0.0301116 0.96686 0.00504117
-0.255932 0.0294689 0.966246 0.00482613
-0.251645 0.0289582 0.967386 0.00239515
-0.251255 0.0285719 0.967499 0.00316833
-0.249472 0.0278351 0.967982 0.000128723
-0.248912 0.0272997 0.968141 0
-0.249789 0.0270428 0.967923 0
-0.246153 0.0260427 0.968881 0
-0.246993 0.0252243 0.968689 0
-0.248971 0.0242916 0.968206 0.000821526
-0.249843 0.023996 0.967989 0
-0.249636 0.0234714 0.968055 0
-0.247178 0.0226161 0.968706 0
-0.245381 0.021727 0.969183 0
-0.245411 0.0207153 0.969198 0
-0.244158 0.0201037 0.969527 0
-0.246319 0.0189956 0.969003 0
-0.246334 0.0182562 0.969013 0
-0.245344 0.0174567 0.969279 0
-0.244061 0.0166521 0.969617 0
-0.242526 0.0162491 0.970009 0
-0.243669 0.0151347 0.96974 0
-0.243708 0.0140941 0.969746 0
-0.241222 0.0133734 0.970378 0
-0.242761 0.0123328 0.970008 0
-0.244782 0.0119562 0.969504 0
-0.244117 0.0111071 0.969682 0
-0.242195 0.0104582 0.970171 0
-0.244659 0.00956938 0.969562 0
-0.244972 0.0085744 0.969492 0
-0.245821 0.0075955 0.969285 0
-0.244332 0.00656743 0.969669 0
-0.242308 0.00583851 0.970182 0
-0.242747 0.0052234 0.970076 0
-0.24455 0.00452904 0.969626 0
-0.244673 0.00378324 0.969598 0
-0.243357 0.00331334 0.969931 0
-0.243108 0.00251205 0.969996 0
-0.243771 0.00154279 0.969832 0
-0.244357 0.00111524 0.969685 0
-0.247747 0.000680083 0.968825 0
-0.250939 -0.000159089 0.968003 0.00631249
