# .PCD v0.7 - Point Cloud Data file format
VERSION 0.7
FIELDS x y z
SIZE 4 4 4
TYPE F F F
COUNT 1 1 1
WIDTH 1424
HEIGHT 1
VIEWPOINT 0 0 0 1 0 0 0
POINTS 1424
DATA ascii
-0.16392666 0.15869801 -0.23498267
-0.17903334 0.15888333 -0.234981
-0.17871957 0.15889429 -0.23489343
-0.1785845 0.15889999 -0.234841
-0.17834049 0.158895 -0.234834
-0.17814025 0.15889925 -0.234836
-0.17790511 0.15890758 -0.23482156
-0.1777765 0.15886199 -0.2348015
-0.164652 0.15888865 -0.23487534
-0.16452822 0.15888166 -0.23489544
-0.16432726 0.15890324 -0.234935
-0.16409385 0.15890613 -0.23495686
-0.163921 0.15884399 -0.23498601
-0.17902635 0.159105 -0.234953
-0.1786999 0.15909222 -0.23487324
-0.17857766 0.15908234 -0.234834
-0.17833233 0.15907601 -0.234842
-0.1781545 0.15910199 -0.23482901
-0.17791399 0.1590842 -0.23481441
-0.16464333 0.15910999 -0.23486666
-0.16451977 0.15910223 -0.23488824
-0.16432101 0.159088 -0.23491085
-0.164112 0.15908587 -0.23494038
-0.17901666 0.15932201 -0.234975
-0.17869177 0.15931201 -0.23485722
-0.17856832 0.15930001 -0.23485465
-0.178325 0.15929633 -0.23482066
-0.17814834 0.15928467 -0.23481166
-0.17797166 0.15927868 -0.23481368
-0.164637 0.159292 -0.234851
-0.16450438 0.15931351 -0.23487276
-0.16431367 0.15930949 -0.23488502
-0.16410537 0.15928963 -0.2349105
-0.16387834 0.15930833 -0.23497151
-0.1637575 0.159308 -0.23499501
-0.17900901 0.159504 -0.2349845
-0.1786855 0.15949585 -0.23484267
-0.17831901 0.15944301 -0.234817
-0.17809749 0.159466 -0.2348025
-0.177966 0.159426 -0.23480199
-0.16463067 0.15947667 -0.23483266
-0.16451529 0.15949187 -0.23485371
-0.16430625 0.15949249 -0.234888
-0.16413167 0.15952151 -0.23488617
-0.16390079 0.15950625 -0.23495644
-0.1792545 0.159734 -0.234999
-0.17900366 0.15968834 -0.23494633
-0.17869902 0.15966941 -0.23484172
-0.17855451 0.159704 -0.234807
-0.16462401 0.159661 -0.23481199
-0.16449866 0.1596909 -0.23484367
-0.16429983 0.15967616 -0.23486984
-0.1641245 0.159704 -0.23488501
-0.16388138 0.15971649 -0.23494649
-0.163588 0.159779 -0.235
-0.17924833 0.159917 -0.23498766
-0.17899501 0.15990834 -0.23493533
-0.17870499 0.15990016 -0.2348365
-0.16447257 0.15989944 -0.23483901
-0.16429116 0.15989651 -0.23486634
-0.16411734 0.15988767 -0.234882
-0.1639412 0.1598932 -0.234889
-0.1637665 0.15990001 -0.23497425
-0.1635845 0.159889 -0.23498899
-0.17924151 0.160101 -0.23496449
-0.17898799 0.16009051 -0.23493451
-0.17869616 0.160119 -0.23483767
-0.16445175 0.16009299 -0.2348295
-0.16428317 0.16011684 -0.23485447
-0.16410933 0.16010833 -0.23486733
-0.16392417 0.16009833 -0.2348765
-0.16375001 0.1600723 -0.23496373
-0.16357733 0.16007333 -0.23497967
-0.17949082 0.16030098 -0.23497249
-0.17923467 0.160284 -0.23496
-0.17898233 0.16027467 -0.234905
-0.17868999 0.16030249 -0.23481551
-0.16441301 0.1602385 -0.2348175
-0.164277 0.16030124 -0.234834
-0.16409381 0.16031322 -0.23485379
-0.16391701 0.16032016 -0.23484349
-0.16373436 0.16031313 -0.23492113
-0.16357 0.16029532 -0.23494899
-0.17960532 0.16052432 -0.23498066
-0.17948352 0.16052033 -0.23494215
-0.17922699 0.16050465 -0.23494565
-0.178975 0.160495 -0.23486935
-0.17871051 0.16046825 -0.23481226
-0.164271 0.16048567 -0.23480301
-0.164104 0.160491 -0.23483598
-0.16391075 0.16050351 -0.234823
-0.16371299 0.16051325 -0.23493025
-0.16356233 0.16051599 -0.23492765
-0.17951751 0.16070466 -0.23494701
-0.17922151 0.16068751 -0.2349115
-0.17896901 0.16071732 -0.23482066
-0.17873099 0.16063499 -0.234804
-0.16408749 0.16069566 -0.23484166
-0.16390266 0.16068617 -0.23484015
-0.163721 0.16069129 -0.23493144
-0.1635565 0.16070101 -0.234897
-0.17954271 0.16087757 -0.23494744
-0.17928919 0.1608928 -0.2348772
-0.17896101 0.160897 -0.234835
-0.164206 0.16092201 -0.23480099
-0.16405925 0.16089576 -0.23482651
-0.163895 0.16090751 -0.23481917
-0.16370656 0.16089134 -0.23489822
-0.16354834 0.16088267 -0.23492767
-0.179813 0.161195 -0.234997
-0.17963299 0.161148 -0.23499399
-0.1795575 0.16110717 -0.23494917
-0.17930049 0.161099 -0.23485899
-0.17895466 0.16108167 -0.23481266
-0.164033 0.16106001 -0.234817
-0.163936 0.16109151 -0.234808
-0.16370034 0.16111368 -0.23484479
-0.16354199 0.16110434 -0.23487033
-0.1798085 0.161305 -0.23499599
-0.17968301 0.1613005 -0.23496835
-0.17955151 0.16129 -0.234927
-0.1793112 0.161305 -0.23485401
-0.179199 0.161384 -0.23480999
-0.163931 0.161202 -0.234816
-0.16369317 0.1612975 -0.23483585
-0.163535 0.16128799 -0.234863
-0.17987232 0.161494 -0.23498134
-0.17968839 0.1614916 -0.2349602
-0.179546 0.16147484 -0.23489051
-0.17937851 0.16150951 -0.234837
-0.17919451 0.161495 -0.234805
-0.16368701 0.16148111 -0.23482135
-0.16353001 0.16147333 -0.23482032
-0.16314149 0.161558 -0.23499751
-0.17992182 0.16171651 -0.23496784
-0.17969906 0.16170342 -0.23496084
-0.17953832 0.16169417 -0.23486866
-0.17937 0.16168933 -0.234855
-0.17918999 0.161604 -0.23480099
-0.16364026 0.16167825 -0.23482426
-0.16351934 0.16169201 -0.23485701
-0.17991474 0.16189951 -0.234963
-0.17968039 0.16190799 -0.2349346
-0.17953016 0.16191334 -0.23485565
-0.17936234 0.16190934 -0.23484099
-0.1636354 0.16193081 -0.23484659
-0.16351067 0.161911 -0.23485766
-0.16309634 0.16193567 -0.23498566
-0.18006475 0.16210675 -0.2349855
-0.17990802 0.16208251 -0.2349565
-0.17970966 0.16208078 -0.23490834
-0.17953959 0.1621048 -0.23483939
-0.17935601 0.162093 -0.234817
-0.16363101 0.16209826 -0.234888
-0.16350451 0.16209599 -0.23483899
-0.1630775 0.16203299 -0.23499149
-0.18021551 0.16235299 -0.234998
-0.18008067 0.16230951 -0.23496819
-0.17990033 0.16230218 -0.23493552
-0.17970735 0.162292 -0.23490232
-0.17956834 0.1622825 -0.23485298
-0.17935 0.1622375 -0.234816
-0.16363643 0.162293 -0.23487
-0.16349833 0.16227932 -0.23481767
-0.163112 0.16229101 -0.234998
-0.1802105 0.162499 -0.234988
-0.18007399 0.16249299 -0.23495726
-0.17989267 0.16252215 -0.23491283
-0.17970011 0.16251168 -0.23487732
-0.17954914 0.16251156 -0.234836
-0.17933799 0.16256601 -0.23480301
-0.16366868 0.16250618 -0.23486634
-0.16354217 0.16249983 -0.23484834
-0.1630692 0.1624876 -0.23497601
-0.180494 0.16276699 -0.234998
-0.18023761 0.1626984 -0.23497979
-0.18006766 0.1626755 -0.23494448
-0.17988676 0.162705 -0.2348875
-0.179694 0.16269517 -0.2348485
-0.17957866 0.162723 -0.234828
-0.16365519 0.16271082 -0.23484918
-0.16353267 0.16271916 -0.23486684
-0.16305299 0.16269368 -0.23495533
-0.1628215 0.16271651 -0.234991
-0.18048951 0.16287801 -0.23499
-0.18031301 0.16292219 -0.23498142
-0.18010557 0.16289845 -0.23492023
-0.17988099 0.16288884 -0.23485583
-0.17972223 0.16285975 -0.23484825
-0.16366079 0.16288839 -0.23484881
-0.163525 0.162902 -0.23487225
-0.16306725 0.16289575 -0.23496327
-0.1629266 0.16292079 -0.2349802
-0.180315 0.16309075 -0.23496725
-0.18009788 0.16311733 -0.23490521
-0.17987333 0.16310783 -0.23483616
-0.17970619 0.1630982 -0.23482299
-0.16361567 0.16308899 -0.234832
-0.163518 0.16308433 -0.23487233
-0.163082 0.1630995 -0.23496199
-0.16294825 0.16309124 -0.23497126
-0.18042 0.163312 -0.23498949
-0.18030851 0.16327401 -0.23495416
-0.18011001 0.16329361 -0.23489562
-0.17987935 0.16331451 -0.23485483
-0.17967138 0.163325 -0.23481686
-0.17955633 0.163307 -0.23481132
-0.16360666 0.16330767 -0.23483932
-0.1635095 0.16330449 -0.23486716
-0.163075 0.16328201 -0.234953
-0.16296124 0.16329324 -0.23498699
-0.162797 0.163339 -0.234984
-0.18043934 0.16349699 -0.23498334
-0.18030016 0.16349234 -0.23494618
-0.18013 0.1634845 -0.2349
-0.17991373 0.16348311 -0.23486212
-0.1796768 0.1634912 -0.2348164
-0.17956099 0.16352625 -0.23481575
-0.16360199 0.163454 -0.234814
-0.16347525 0.16350549 -0.234853
-0.16306598 0.16350132 -0.23495768
-0.16293217 0.16349433 -0.23498233
-0.16279133 0.16348635 -0.23498367
-0.18043184 0.16371651 -0.2349575
-0.18029232 0.16371216 -0.23492651
-0.18012117 0.16370316 -0.23490049
-0.17989455 0.163692 -0.23485745
-0.17968716 0.16368182 -0.23482583
-0.17957261 0.163688 -0.23482621
-0.16353875 0.16368212 -0.23483562
-0.16305833 0.16372167 -0.23494132
-0.1629324 0.1637298 -0.23495778
-0.16275799 0.16370375 -0.23499751
-0.18043466 0.16388734 -0.23494667
-0.18030779 0.16390179 -0.234929
-0.18011199 0.16392116 -0.23491067
-0.17991228 0.16390157 -0.23484828
-0.17970824 0.16391125 -0.23481999
-0.17957099 0.16384433 -0.234807
-0.16346075 0.163872 -0.23485124
-0.16305199 0.16390599 -0.2349185
-0.16291851 0.163899 -0.23492801
-0.16272399 0.16395925 -0.23499049
-0.18044434 0.164083 -0.23494633
-0.18031667 0.16407743 -0.2349209
-0.18010524 0.164104 -0.23490775
-0.17992374 0.16409525 -0.23484676
-0.179722 0.16412184 -0.23481417
-0.16349328 0.16411127 -0.23482259
-0.16304468 0.16408899 -0.23492301
-0.16291149 0.16408134 -0.23493467
-0.16276699 0.1641095 -0.234982
-0.18043534 0.16430099 -0.23494799
-0.180308 0.16429633 -0.23492
-0.18009783 0.16428517 -0.23490851
-0.1799165 0.164277 -0.23485184
-0.17974025 0.16430475 -0.23482001
-0.163454 0.164306 -0.23482233
-0.16303633 0.16430967 -0.23491199
-0.16291101 0.16428679 -0.23494539
-0.18042767 0.16452032 -0.23493533
-0.18029888 0.16451488 -0.23492534
-0.18009001 0.16450448 -0.23489599
-0.17990817 0.16449566 -0.23484868
-0.17972118 0.16448684 -0.23481734
-0.16352057 0.16448915 -0.23484501
-0.16302949 0.16449299 -0.2349125
-0.16293766 0.16452433 -0.23491333
-0.16274799 0.16458599 -0.234979
-0.18042049 0.164703 -0.234929
-0.18029167 0.16469701 -0.23493332
-0.1800732 0.16470841 -0.23488259
-0.17989933 0.16471383 -0.23485465
-0.17968917 0.16470467 -0.234815
-0.17954101 0.16471276 -0.23481175
-0.163616 0.16470867 -0.23481099
-0.16351271 0.16468772 -0.23483971
-0.163398 0.1647315 -0.234882
-0.16302133 0.164675 -0.23493099
-0.16292849 0.16470701 -0.234947
-0.162745 0.16465899 -0.234991
-0.18045279 0.1649044 -0.2349464
-0.18028434 0.16487867 -0.23493356
-0.18008558 0.164885 -0.23486261
-0.17989151 0.16489549 -0.23486826
-0.17965576 0.16493824 -0.23482199
-0.17951983 0.16491149 -0.23480983
-0.16363434 0.16490467 -0.23483334
-0.16352151 0.16491868 -0.23485415
-0.16339034 0.16491367 -0.234896
-0.16301067 0.16489466 -0.23497067
-0.16292067 0.16488968 -0.23497134
-0.18045449 0.16511001 -0.23494549
-0.18028884 0.16507368 -0.23495667
-0.18010001 0.16509838 -0.23488688
-0.17988433 0.16507867 -0.23486634
-0.17970876 0.16510651 -0.23482299
-0.17953999 0.16509633 -0.23482484
-0.1636848 0.1650786 -0.23482981
-0.16354068 0.16510417 -0.23488517
-0.16338101 0.165095 -0.234953
-0.16300249 0.165077 -0.2349925
-0.162953 0.165185 -0.23499051
-0.18049601 0.16529649 -0.234989
-0.180334 0.16532788 -0.23495162
-0.18010232 0.16530855 -0.23489624
-0.17987616 0.16529717 -0.23485418
-0.17970067 0.16528766 -0.23483749
-0.17952149 0.1652846 -0.23482367
-0.16386351 0.165343 -0.234817
-0.16372101 0.16530083 -0.23482917
-0.16353144 0.16528654 -0.23492813
-0.16337334 0.165279 -0.23495734
-0.162995 0.16526 -0.23499499
-0.18032767 0.16550165 -0.23495801
-0.18009418 0.16549051 -0.23491383
-0.17988658 0.16552714 -0.2348597
-0.17969149 0.16550584 -0.234855
-0.17950445 0.1654883 -0.23483072
-0.17926867 0.16553 -0.23480767
-0.163858 0.16549 -0.234815
-0.1637115 0.16551965 -0.23484333
-0.16353643 0.16549599 -0.23494658
-0.16336501 0.165426 -0.234999
-0.18032055 0.16568367 -0.23495801
-0.18013184 0.16567482 -0.23491682
-0.17990534 0.1656995 -0.23487782
-0.179674 0.16570881 -0.23486939
-0.17948727 0.16571283 -0.23485149
-0.17928551 0.16570084 -0.23481083
-0.16387101 0.16569251 -0.23480675
-0.16370325 0.165702 -0.23486775
-0.163571 0.1656945 -0.234945
-0.1633555 0.16568151 -0.234992
-0.18031165 0.16590223 -0.23496291
-0.1801215 0.1658925 -0.23495233
-0.17989787 0.16588211 -0.2348831
-0.1796838 0.16588521 -0.23487219
-0.17949101 0.16589043 -0.23486857
-0.17930602 0.16592939 -0.23483562
-0.16400899 0.16590066 -0.23480634
-0.16388316 0.16589533 -0.23482417
-0.1636945 0.16588484 -0.23490219
-0.16354525 0.1658935 -0.23498875
-0.18030176 0.1661115 -0.234975
-0.18011253 0.16611134 -0.23496149
-0.17993534 0.16610284 -0.23487966
-0.17971067 0.1660911 -0.23488146
-0.17949831 0.16607888 -0.23488389
-0.17936601 0.166105 -0.23483551
-0.1790852 0.16611201 -0.23483059
-0.164003 0.16604599 -0.234809
-0.16390462 0.16612488 -0.23484248
-0.16368516 0.16610433 -0.23491567
-0.16355334 0.166097 -0.234989
-0.18029501 0.16630316 -0.23498368
-0.18010524 0.16629399 -0.23495901
-0.17992584 0.16632183 -0.23489551
-0.17970155 0.16630945 -0.2348921
-0.17948933 0.16629711 -0.2348929
-0.17935817 0.16628617 -0.23484068
-0.17918901 0.16628133 -0.234854
-0.1640895 0.166306 -0.23480999
-0.16390668 0.16629882 -0.23487185
-0.16367483 0.16632333 -0.23495217
-0.16354634 0.16631733 -0.23494567
-0.18028833 0.16645934 -0.23499034
-0.1800904 0.16646101 -0.23495059
-0.17991699 0.166503 -0.23492949
-0.17968072 0.16650571 -0.23490815
-0.17948098 0.16651644 -0.23488191
-0.17934901 0.16650516 -0.23485249
-0.17917967 0.16649933 -0.23487
-0.178995 0.166522 -0.23481899
-0.16426151 0.16657451 -0.23480949
-0.164114 0.1665066 -0.23482862
-0.16389789 0.16648109 -0.23490688
-0.16366799 0.1665065 -0.23494175
-0.16350575 0.16649625 -0.23497699
-0.180048 0.16669267 -0.23492634
-0.1799085 0.16668433 -0.23495966
-0.17972802 0.16667585 -0.23492767
-0.1795045 0.16669925 -0.23490599
-0.17934017 0.16672318 -0.2348635
-0.17917033 0.16671734 -0.23488367
-0.17898734 0.16670267 -0.23483634
-0.16428488 0.16672166 -0.23482855
-0.16411318 0.16671216 -0.23485552
-0.16389851 0.16669199 -0.23493674
-0.163688 0.166676 -0.23498121
-0.163533 0.166609 -0.234991
-0.18003799 0.16691101 -0.23494701
-0.179855 0.16682699 -0.234991
-0.17971849 0.1668945 -0.23494917
-0.17949659 0.16688091 -0.23492259
-0.179333 0.16690499 -0.23486151
-0.1791635 0.16689999 -0.23487699
-0.17897834 0.16692168 -0.23484534
-0.16427666 0.16690482 -0.23484667
-0.164094 0.16691539 -0.23491481
-0.1639286 0.16690822 -0.234956
-0.18003 0.167055 -0.23499
-0.17970884 0.16711265 -0.23496683
-0.17949492 0.16709308 -0.23494411
-0.17933543 0.16709857 -0.23488714
-0.17915533 0.167082 -0.23489301
-0.1789695 0.16710299 -0.2348855
-0.17871749 0.167092 -0.234804
-0.178472 0.167191 -0.23481999
-0.17287 0.16717599 -0.234805
-0.16501001 0.16719601 -0.234804
-0.16483301 0.16716 -0.234813
-0.16465667 0.16710834 -0.234827
-0.16427563 0.16707824 -0.23488452
-0.16411833 0.16710399 -0.23495682
-0.16395301 0.167107 -0.23498
-0.17970151 0.167257 -0.234993
-0.17949758 0.16729829 -0.234973
-0.17934033 0.16730721 -0.23492622
-0.17914534 0.1673 -0.23493235
-0.17896099 0.16728532 -0.23491435
-0.17870899 0.16727434 -0.23483734
-0.17846751 0.16730049 -0.23482201
-0.174778 0.16727901 -0.23480199
-0.1734255 0.167316 -0.23481649
-0.17294399 0.167399 -0.23480999
-0.17145528 0.16734414 -0.23482586
-0.171354 0.16739 -0.23482201
-0.16503499 0.16732101 -0.23481667
-0.1648806 0.1672872 -0.2348216
-0.164648 0.16729 -0.23485899
-0.1642956 0.1672934 -0.2348884
-0.16416201 0.1672295 -0.23499301
-0.179437 0.16746201 -0.23499499
-0.17932436 0.16751575 -0.23495077
-0.17913467 0.167518 -0.23496501
-0.17895067 0.16750334 -0.234944
-0.17869733 0.16749199 -0.23490267
-0.17845966 0.16748233 -0.23483001
-0.17745951 0.167573 -0.23480999
-0.17738201 0.167567 -0.23480199
-0.17660201 0.16753 -0.234807
-0.17542249 0.1675 -0.234815
-0.17537101 0.167538 -0.234808
-0.17503649 0.16755 -0.23481899
-0.17471601 0.16751 -0.23482899
-0.17453252 0.16748767 -0.23481518
-0.17439851 0.16751599 -0.23481449
-0.17381001 0.16755849 -0.234816
-0.17370951 0.16755199 -0.234814
-0.17347302 0.16750187 -0.23484145
-0.173252 0.1675275 -0.234833
-0.172897 0.16750626 -0.23483251
-0.172757 0.16750151 -0.23483899
-0.1724385 0.16755649 -0.234852
-0.172225 0.167578 -0.234818
-0.1720932 0.16751301 -0.23482279
-0.171923 0.16753075 -0.2348195
-0.171703 0.16748938 -0.23484549
-0.171483 0.16750725 -0.23485926
-0.1713119 0.16750802 -0.2348562
-0.17109601 0.16752465 -0.23482765
-0.170886 0.16756034 -0.23482101
-0.17073849 0.16754299 -0.234823
-0.16586401 0.167542 -0.23480199
-0.165777 0.167533 -0.234808
-0.16551176 0.16753951 -0.2348175
-0.16536133 0.16756333 -0.23483366
-0.16513033 0.16749914 -0.23484868
-0.16490555 0.16749032 -0.23487724
-0.164638 0.16747333 -0.23491599
-0.16430999 0.167455 -0.23495901
-0.17935999 0.16765 -0.23497067
-0.17912801 0.16766401 -0.234992
-0.17894199 0.1676845 -0.23497251
-0.17868768 0.16771068 -0.23492533
-0.17844868 0.16770135 -0.23488267
-0.17833 0.1677115 -0.23483101
-0.177816 0.167702 -0.2348115
-0.17766833 0.16770868 -0.23481067
-0.17746572 0.16771944 -0.23486172
-0.17732981 0.16772299 -0.23484543
-0.17703867 0.16769333 -0.23482633
-0.17672101 0.1677525 -0.23483449
-0.17654601 0.16769901 -0.23483758
-0.176359 0.16773149 -0.2348095
-0.17588733 0.16770832 -0.23482299
-0.17564166 0.16774035 -0.23482533
-0.17546843 0.16768412 -0.23485091
-0.17533617 0.16767769 -0.23483984
-0.175028 0.167697 -0.234874
-0.17471467 0.16771384 -0.23486567
-0.17453985 0.16770716 -0.23488234
-0.174347 0.16771275 -0.23485675
-0.17387718 0.16769683 -0.23484182
-0.17370149 0.167698 -0.23486
-0.17346089 0.16772088 -0.23491178
-0.17324166 0.16771001 -0.23490334
-0.17288865 0.16768849 -0.23485868
-0.172747 0.167684 -0.234897
-0.17243099 0.167703 -0.23489451
-0.17224202 0.16771039 -0.23485021
-0.17209135 0.16771799 -0.23488219
-0.17191267 0.16771351 -0.23488815
-0.17170337 0.16769138 -0.23490538
-0.17149101 0.16769986 -0.23491542
-0.17131937 0.16768616 -0.23489356
-0.17108649 0.167707 -0.234878
-0.17086449 0.167694 -0.23484901
-0.17068534 0.16772349 -0.23486102
-0.17051649 0.16774051 -0.23483117
-0.17034325 0.16771799 -0.23481774
-0.170072 0.167759 -0.234805
-0.16989966 0.16771698 -0.23482032
-0.16966651 0.167703 -0.23482573
-0.16947015 0.16769201 -0.23482133
-0.16931051 0.16775551 -0.23482901
-0.169119 0.167781 -0.234846
-0.16817801 0.167731 -0.23481999
-0.1679135 0.16775551 -0.234826
-0.16769917 0.16771066 -0.23482434
-0.16749656 0.16771999 -0.23484172
-0.16734275 0.16771325 -0.2348305
-0.166806 0.16773801 -0.23480099
-0.16661599 0.16772901 -0.23483799
-0.16649225 0.167757 -0.234815
-0.16634314 0.16774456 -0.23482287
-0.16610421 0.16774301 -0.23483559
-0.16589966 0.1676905 -0.23485166
-0.16572599 0.167679 -0.23485367
-0.16555375 0.167707 -0.234864
-0.165336 0.16769625 -0.234864
-0.16511817 0.16771901 -0.23491783
-0.16490714 0.16768886 -0.234944
-0.164628 0.16765651 -0.23497799
-0.17867801 0.1678925 -0.23497799
-0.17843665 0.167919 -0.23495202
-0.17828089 0.1679071 -0.23486935
-0.17789501 0.16789033 -0.234863
-0.17767383 0.16788018 -0.23486102
-0.1774857 0.16788886 -0.23490214
-0.17729661 0.1679104 -0.23492599
-0.17702568 0.16791134 -0.23491602
-0.17671184 0.167898 -0.23490016
-0.17650379 0.16788612 -0.23488855
-0.17632574 0.16789487 -0.23483688
-0.17587666 0.16792633 -0.23487501
-0.17565618 0.16789861 -0.23490742
-0.17548801 0.16790375 -0.23492087
-0.17534238 0.16790637 -0.23492537
-0.17501867 0.16787767 -0.234924
-0.17470475 0.16789626 -0.2349225
-0.17452751 0.16792549 -0.23496199
-0.17429517 0.16790985 -0.23489849
-0.174064 0.16789766 -0.23487733
-0.17392485 0.16789384 -0.2349325
-0.173741 0.16788352 -0.23493315
-0.173491 0.16789401 -0.23497033
-0.17328566 0.16788165 -0.23497933
-0.17287533 0.16790766 -0.23496334
-0.1727365 0.1678665 -0.23496601
-0.17242301 0.16788466 -0.23491466
-0.172244 0.16788641 -0.2349076
-0.17208026 0.1678995 -0.23496251
-0.17190149 0.16789524 -0.2349685
-0.17174232 0.16787334 -0.23496766
-0.17148919 0.1678658 -0.2349726
-0.17129256 0.16787308 -0.23496288
-0.17107566 0.16788934 -0.23495834
-0.17085315 0.16787618 -0.23493914
-0.17067625 0.16790625 -0.23490149
-0.17049818 0.167898 -0.23487733
-0.17030433 0.16791566 -0.23485589
-0.17006235 0.16790502 -0.23489165
-0.16988879 0.16789924 -0.23489743
-0.16965498 0.16788535 -0.23491932
-0.16946663 0.16786613 -0.23489864
-0.16933334 0.16791701 -0.23491167
-0.16911399 0.167891 -0.234871
-0.1688485 0.167953 -0.234828
-0.1684705 0.16791502 -0.23483774
-0.16830829 0.16792969 -0.23483941
-0.16816999 0.16787668 -0.23486699
-0.1679035 0.16790149 -0.2349195
-0.1676774 0.167914 -0.2349176
-0.16748478 0.16791788 -0.23493187
-0.16729234 0.16791017 -0.234914
-0.16680001 0.16781101 -0.234861
-0.1666832 0.16789261 -0.23487338
-0.166484 0.16790324 -0.23485902
-0.16630788 0.16790478 -0.23488487
-0.16610844 0.16791944 -0.23492466
-0.1658784 0.16789481 -0.23494419
-0.16570419 0.16788341 -0.23496239
-0.16554233 0.16788983 -0.23495215
-0.16531579 0.16786298 -0.23492379
-0.1651095 0.16786599 -0.23497951
-0.1784285 0.16810149 -0.23497701
-0.17825216 0.16809933 -0.2349425
-0.17797101 0.16811366 -0.234942
-0.17770556 0.16809966 -0.23494267
-0.17746717 0.16804866 -0.23496099
-0.17735499 0.168038 -0.2349685
-0.1770165 0.1680935 -0.23494801
-0.1767108 0.16810279 -0.23493759
-0.17649361 0.16809575 -0.23494275
-0.17628901 0.16809392 -0.23491019
-0.1758645 0.16810849 -0.23497799
-0.17568301 0.168062 -0.23498701
-0.17551333 0.168051 -0.23498632
-0.17533916 0.16808033 -0.23498635
-0.17501 0.168025 -0.234982
-0.17471133 0.16803099 -0.23497833
-0.17450833 0.16809566 -0.23496334
-0.17431332 0.168082 -0.23496033
-0.174126 0.168081 -0.23497349
-0.173961 0.16804001 -0.23499601
-0.173783 0.16803201 -0.23499499
-0.17286801 0.168053 -0.234991
-0.17241299 0.1680675 -0.23497799
-0.17226 0.168018 -0.234952
-0.171214 0.168037 -0.234997
-0.170845 0.16802251 -0.23498699
-0.17065899 0.16807339 -0.23494402
-0.17048174 0.16807036 -0.234936
-0.17029299 0.16809849 -0.23494415
-0.170054 0.16805001 -0.23494799
-0.16991925 0.1680835 -0.23497075
-0.169797 0.16804101 -0.234965
-0.16953725 0.168043 -0.23497675
-0.16931626 0.16806801 -0.234962
-0.16910334 0.16807334 -0.234933
-0.16883999 0.168098 -0.23488599
-0.16849333 0.16811883 -0.234924
-0.16830429 0.1680941 -0.23492241
-0.16815999 0.16805899 -0.23493001
-0.167896 0.16801099 -0.234983
-0.16767851 0.1680385 -0.23498499
-0.167206 0.16804899 -0.23497599
-0.166693 0.16802549 -0.23494551
-0.16651399 0.1680765 -0.23495716
-0.1663018 0.1680322 -0.2349664
-0.17640799 0.168245 -0.234993
-0.17628832 0.16823967 -0.23498166
-0.174363 0.16821 -0.235
-0.170615 0.16823199 -0.23499
-0.17045251 0.1682245 -0.23499
-0.16909599 0.168219 -0.234964
-0.168833 0.168209 -0.23494001
-0.168556 0.16827001 -0.234955
-0.16942599 0.15336899 -0.234797
-0.17002399 0.153552 -0.234788
-0.16990767 0.15352066 -0.23478633
-0.16941699 0.15359101 -0.23479
-0.169147 0.15350367 -0.23478602
-0.168477 0.15353601 -0.23479301
-0.16823749 0.15352476 -0.234779
-0.16809249 0.15358901 -0.2347765
-0.167789 0.15353499 -0.234782
-0.1720645 0.15370649 -0.23478299
-0.17008273 0.153713 -0.23477037
-0.169918 0.1536945 -0.23477383
-0.16941351 0.15370201 -0.23477599
-0.16910449 0.15370324 -0.234782
-0.16891874 0.15374812 -0.23478363
-0.16877067 0.15374632 -0.23479168
-0.16847134 0.15368266 -0.23478234
-0.16826539 0.1536912 -0.2347528
-0.16809049 0.15370426 -0.23472424
-0.16796026 0.15369551 -0.23478925
-0.16778199 0.15371932 -0.23476367
-0.167171 0.153722 -0.23478201
-0.173953 0.153997 -0.23479401
-0.17378899 0.153988 -0.23478401
-0.17208 0.153908 -0.23479
-0.17183551 0.15391201 -0.23477599
-0.17178001 0.15394101 -0.23479
-0.17007488 0.15391412 -0.23476624
-0.16991018 0.15391517 -0.23475748
-0.16967066 0.15389733 -0.23477466
-0.16940732 0.15388601 -0.23475067
-0.16913301 0.15391099 -0.23473799
-0.16891412 0.15389575 -0.23476438
-0.16875567 0.15391967 -0.234761
-0.16846333 0.15390433 -0.23476334
-0.1682584 0.153882 -0.23474781
-0.1680996 0.15389845 -0.23472415
-0.16795468 0.153881 -0.23475735
-0.167776 0.15390401 -0.234745
-0.16735268 0.153916 -0.23477232
-0.16712841 0.1539174 -0.23478281
-0.17404179 0.154064 -0.23477221
-0.17396666 0.15412299 -0.23475766
-0.17378551 0.154101 -0.2347645
-0.1734685 0.15415099 -0.23478851
-0.173383 0.154182 -0.2348
-0.172815 0.154148 -0.2348
-0.17223001 0.154194 -0.23479401
-0.1720975 0.15411334 -0.23475818
-0.17190821 0.15411822 -0.23478055
-0.17173749 0.15410674 -0.234773
-0.17095199 0.15419301 -0.23478949
-0.170477 0.1541665 -0.234795
-0.17025633 0.15408267 -0.23475067
-0.170091 0.15409401 -0.23473814
-0.16990376 0.15409949 -0.23474251
-0.16966367 0.15412 -0.23473866
-0.169401 0.154071 -0.23473501
-0.169397 0.154181 -0.23472001
-0.16912834 0.15409833 -0.23468633
-0.16890842 0.15408175 -0.23472774
-0.16875 0.15410501 -0.23472625
-0.168457 0.1540885 -0.23475149
-0.16828799 0.15412299 -0.23471667
-0.16811489 0.15411 -0.23470886
-0.16794568 0.15409984 -0.23476249
-0.16776933 0.15408868 -0.23473032
-0.16734549 0.1541 -0.234771
-0.16712534 0.15412132 -0.23479567
-0.166306 0.154146 -0.234795
-0.17583768 0.15432566 -0.23479134
-0.17423099 0.15437999 -0.234791
-0.17405899 0.15430033 -0.23476367
-0.17396867 0.1542955 -0.23474199
-0.17377865 0.15428434 -0.23475166
-0.173463 0.15429801 -0.234777
-0.173379 0.154292 -0.23479301
-0.1728712 0.154314 -0.23478501
-0.17274949 0.15432751 -0.23479199
-0.172488 0.15435401 -0.23479401
-0.17227125 0.15430449 -0.23478802
-0.17209175 0.15429875 -0.23472175
-0.1718889 0.15430859 -0.2347457
-0.17169333 0.15430784 -0.23477049
-0.17144032 0.15429167 -0.23479067
-0.17130651 0.1543255 -0.23478851
-0.17109416 0.15430284 -0.23478734
-0.17091949 0.1542985 -0.23478849
-0.17075799 0.154323 -0.234798
-0.17047201 0.154314 -0.23477699
-0.17029199 0.15432841 -0.23465741
-0.1701026 0.15429899 -0.2346774
-0.16993089 0.15428589 -0.23472267
-0.16965801 0.15430599 -0.23470099
-0.169393 0.154292 -0.234716
-0.16912 0.154319 -0.23468
-0.16890036 0.15430225 -0.23471461
-0.16874284 0.15428866 -0.23471801
-0.168451 0.15427333 -0.23472302
-0.16828051 0.1543045 -0.23471901
-0.16810834 0.15429451 -0.23469217
-0.16793883 0.15432334 -0.23472051
-0.167762 0.15431134 -0.23470099
-0.16733901 0.15428202 -0.23476367
-0.16714799 0.15430751 -0.23477501
-0.16683066 0.154322 -0.234791
-0.166567 0.15437999 -0.234795
-0.166278 0.15431 -0.23479176
-0.166044 0.15435199 -0.23479301
-0.165813 0.154301 -0.234798
-0.17588516 0.15449132 -0.23478633
-0.1755525 0.154493 -0.234798
-0.17528 0.154585 -0.234795
-0.17513199 0.15455467 -0.23478866
-0.17427675 0.1544935 -0.23478426
-0.17405067 0.15452033 -0.23475967
-0.17395984 0.15451451 -0.23474301
-0.17377032 0.154505 -0.23473866
-0.17345701 0.15448201 -0.23475467
-0.1733322 0.15448901 -0.23478261
-0.1728805 0.15448499 -0.2347745
-0.17272484 0.15453351 -0.23478185
-0.17248267 0.15449999 -0.234789
-0.17228301 0.15449972 -0.23477472
-0.17208451 0.15448117 -0.23472667
-0.17190382 0.1544874 -0.23472559
-0.1716716 0.1545134 -0.23475559
-0.17143333 0.15451433 -0.23475666
-0.17129999 0.15450899 -0.23477317
-0.17109632 0.15450023 -0.23476945
-0.17091312 0.15448323 -0.23477179
-0.170754 0.15447368 -0.23475666
-0.170509 0.15449816 -0.23477018
-0.17028241 0.15451419 -0.23470239
-0.17010184 0.15451683 -0.23469716
-0.16992311 0.154507 -0.23469979
-0.16965 0.154487 -0.23471732
-0.16938667 0.154477 -0.23469467
-0.16911399 0.154502 -0.234659
-0.1688851 0.15451537 -0.23470379
-0.16873467 0.15450901 -0.23470832
-0.16844201 0.15449268 -0.234724
-0.16827333 0.15448767 -0.23472166
-0.16810256 0.15448011 -0.23465769
-0.16793273 0.15450799 -0.23469526
-0.16775501 0.15449449 -0.23469099
-0.16733134 0.154505 -0.23473834
-0.1671066 0.154505 -0.2347568
-0.16682351 0.15450549 -0.23478201
-0.16677651 0.154503 -0.23478299
-0.166465 0.154523 -0.234797
-0.16629334 0.15451556 -0.23476833
-0.16607884 0.15450168 -0.23478667
-0.16584067 0.15453701 -0.23479234
-0.17586944 0.15470828 -0.23477499
-0.175543 0.15474901 -0.234787
-0.17527649 0.15469649 -0.23477051
-0.17509015 0.15470372 -0.23477772
-0.174904 0.1547485 -0.2347845
-0.17452699 0.15473667 -0.23479335
-0.17426999 0.15467601 -0.23477934
-0.17404351 0.15470201 -0.23475799
-0.17395274 0.15469649 -0.234742
-0.1737645 0.154689 -0.2347115
-0.17344832 0.15470199 -0.23474999
-0.17331566 0.15469584 -0.23474966
-0.172952 0.15467499 -0.23475833
-0.17271814 0.15470929 -0.23476301
-0.17251021 0.1547358 -0.2347724
-0.17229989 0.15471011 -0.23477289
-0.17207567 0.15469949 -0.23472951
-0.17188542 0.15469134 -0.23472176
-0.1716944 0.15469021 -0.23474061
-0.1714265 0.154699 -0.23473701
-0.17129375 0.1546935 -0.23475599
-0.17108865 0.15472122 -0.23474523
-0.17090568 0.154705 -0.23474211
-0.170745 0.15469134 -0.23477232
-0.17050256 0.15468289 -0.2347521
-0.1702956 0.154689 -0.23471639
-0.170095 0.1547 -0.23468849
-0.16990472 0.15470658 -0.23467216
-0.16964133 0.154706 -0.23471399
-0.169378 0.154696 -0.23469333
-0.169111 0.154615 -0.234621
-0.16889445 0.15469402 -0.23469776
-0.1687285 0.15469274 -0.23468976
-0.16843401 0.15471166 -0.23471732
-0.16826566 0.154709 -0.23469865
-0.16809332 0.15469734 -0.23467244
-0.16792567 0.15469132 -0.23469035
-0.16774833 0.154679 -0.23467366
-0.16732366 0.15472467 -0.23471801
-0.16709132 0.15471299 -0.23472117
-0.16689339 0.15470901 -0.23477459
-0.16671699 0.15469363 -0.23477526
-0.16650675 0.15470925 -0.2347845
-0.1663036 0.1546922 -0.23476681
-0.16608913 0.15472357 -0.234773
-0.16588074 0.15469301 -0.23478174
-0.165727 0.15471618 -0.23477539
-0.16548884 0.15471016 -0.23478951
-0.17603201 0.15499499 -0.234798
-0.17589192 0.15492572 -0.23477091
-0.17553866 0.15489833 -0.23475899
-0.17527033 0.15488134 -0.23474734
-0.17510675 0.15488401 -0.23473862
-0.17489851 0.15489501 -0.234779
-0.17472599 0.154989 -0.23478401
-0.1744445 0.154906 -0.23478299
-0.17429601 0.15490761 -0.23476788
-0.17403799 0.15488701 -0.23473233
-0.17394684 0.15488134 -0.23471601
-0.17375833 0.154874 -0.23469032
-0.17344068 0.15492234 -0.23472933
-0.17330801 0.15491617 -0.23473068
-0.17294399 0.15489601 -0.23474234
-0.1727315 0.15488736 -0.23474912
-0.17251298 0.154906 -0.2347565
-0.1722935 0.15489466 -0.23475485
-0.17206769 0.15491967 -0.2347105
-0.17188518 0.15490599 -0.23470046
-0.17172781 0.15489981 -0.23470581
-0.17149159 0.15490219 -0.23472221
-0.17128734 0.15487717 -0.23473549
-0.17108268 0.15490533 -0.23472066
-0.17088974 0.15491387 -0.23473552
-0.17073698 0.15491201 -0.234751
-0.17049533 0.15490456 -0.23472469
-0.17027783 0.15489466 -0.23470266
-0.17008834 0.15488383 -0.23467486
-0.16992076 0.15488577 -0.23465988
-0.169636 0.1548925 -0.23468
-0.16937101 0.15491767 -0.23465534
-0.16909701 0.154983 -0.234602
-0.16888672 0.15488546 -0.23466228
-0.16873257 0.15488842 -0.23468158
-0.16842701 0.15489601 -0.23469901
-0.1682595 0.154893 -0.234676
-0.16808555 0.15491855 -0.23465613
-0.1679175 0.1549115 -0.23467918
-0.16774134 0.1549 -0.23464501
-0.167317 0.15491 -0.23470351
-0.1670845 0.15489699 -0.2347095
-0.16688542 0.15491541 -0.23476601
-0.16670088 0.1549041 -0.23476788
-0.16650051 0.15489416 -0.23475818
-0.16632251 0.15488534 -0.23475133
-0.16611944 0.15489414 -0.23476371
-0.1659005 0.154898 -0.23477399
-0.16573067 0.1549225 -0.23476899
-0.16548562 0.15489775 -0.23478448
-0.165315 0.154973 -0.234795
-0.176202 0.155156 -0.23478
-0.17606999 0.15510926 -0.23477499
-0.17588802 0.15510374 -0.23474987
-0.17553098 0.15511934 -0.23473366
-0.17526199 0.1551 -0.234743
-0.1750889 0.15509456 -0.23472469
-0.17489301 0.15508102 -0.234743
-0.17472449 0.1551035 -0.234721
-0.17452875 0.15509225 -0.23477125
-0.17430086 0.15509799 -0.23476341
-0.17407174 0.15512626 -0.23473325
-0.1739385 0.15510084 -0.23471166
-0.17374901 0.15509267 -0.23469667
-0.1734345 0.15510699 -0.23471001
-0.17330152 0.15510076 -0.234716
-0.17293702 0.15511833 -0.23469967
-0.17271499 0.15509956 -0.23472156
-0.17250668 0.15508966 -0.2347395
-0.17231299 0.15506944 -0.23473613
-0.17210634 0.15510632 -0.23470567
-0.17189652 0.15509667 -0.23470384
-0.17176498 0.15512167 -0.23469032
-0.17150234 0.15511034 -0.234699
-0.17128034 0.15510017 -0.2347005
-0.17107655 0.15509111 -0.23469275
-0.17090085 0.15509529 -0.23470856
-0.17073101 0.15509701 -0.234727
-0.17050028 0.15510356 -0.23471771
-0.17028813 0.15512601 -0.23469071
-0.17008184 0.15510684 -0.23463033
-0.16991311 0.15508775 -0.23465012
-0.16962999 0.15507834 -0.23465067
-0.1693655 0.155103 -0.23463
-0.169091 0.155127 -0.23462068
-0.16889612 0.15511188 -0.23466799
-0.16874109 0.15510167 -0.23464945
-0.16842167 0.155082 -0.23466532
-0.16825332 0.15507765 -0.23465265
-0.16807984 0.15510418 -0.23462117
-0.16791226 0.15509799 -0.23463476
-0.167733 0.15512 -0.23463766
-0.167311 0.15509367 -0.234681
-0.1670785 0.15508167 -0.23468651
-0.16687936 0.15509987 -0.23474488
-0.16668442 0.15510371 -0.23474987
-0.16649251 0.15511481 -0.23474266
-0.16631483 0.15510683 -0.23473001
-0.16609967 0.15509221 -0.23475355
-0.16589367 0.15508068 -0.23477101
-0.1657245 0.15510724 -0.23475425
-0.16551 0.15512449 -0.23478375
-0.1653448 0.15510781 -0.23479339
-0.17677601 0.155261 -0.234795
-0.176375 0.155385 -0.23479301
-0.17610812 0.15529522 -0.23476256
-0.1758824 0.15528868 -0.23472233
-0.1755255 0.155304 -0.23470199
-0.175254 0.15532066 -0.23472767
-0.17509149 0.15530625 -0.23470674
-0.1749135 0.15532325 -0.23471975
-0.17471766 0.155287 -0.23471434
-0.17452282 0.15527751 -0.23474401
-0.17435141 0.15528521 -0.234736
-0.17409119 0.15531421 -0.234726
-0.17393017 0.15532066 -0.23469849
-0.173741 0.155311 -0.23469533
-0.17342734 0.15528966 -0.23470999
-0.17329466 0.15528367 -0.23470767
-0.172931 0.155303 -0.234677
-0.17270777 0.15532121 -0.23469223
-0.17249934 0.15531117 -0.23471016
-0.17232484 0.15530251 -0.234698
-0.17210047 0.15529168 -0.23467623
-0.17189021 0.15528157 -0.23467901
-0.17175823 0.155305 -0.23468325
-0.1714768 0.15531419 -0.23468962
-0.17127116 0.15531833 -0.23470551
-0.17106877 0.155311 -0.23467766
-0.170885 0.15529323 -0.23468977
-0.17072566 0.155284 -0.234688
-0.1705164 0.15529141 -0.2346762
-0.170307 0.15530001 -0.23468183
-0.17009 0.15527999 -0.23460765
-0.1699314 0.1553036 -0.2346442
-0.16962235 0.15529834 -0.23462933
-0.16935833 0.155286 -0.23462467
-0.16908599 0.155274 -0.23460101
-0.16888882 0.15529434 -0.23467
-0.16872625 0.15531088 -0.23464736
-0.168414 0.15530334 -0.23464733
-0.16824667 0.15530068 -0.23461199
-0.16811249 0.1552725 -0.23460376
-0.16791379 0.15531221 -0.2346148
-0.1677265 0.155305 -0.234624
-0.16730267 0.155315 -0.23466735
-0.16707049 0.15530233 -0.23466517
-0.16689822 0.15528622 -0.23473412
-0.16672373 0.15528308 -0.234716
-0.166486 0.1552995 -0.23472275
-0.1662982 0.15531139 -0.234726
-0.16609189 0.15531388 -0.23473422
-0.16588533 0.155302 -0.23476034
-0.16571701 0.15528966 -0.23475581
-0.1655505 0.15527549 -0.23478824
-0.165356 0.15528581 -0.23478881
-0.17681199 0.155553 -0.23479199
-0.1767665 0.15551749 -0.23477501
-0.1763715 0.155495 -0.234782
-0.17609999 0.15551612 -0.23474534
-0.17590024 0.15551001 -0.23471755
-0.17579667 0.15550233 -0.23467301
-0.17551899 0.15548833 -0.234689
-0.175249 0.15550649 -0.234685
-0.17511526 0.15550151 -0.23468125
-0.17492481 0.1555136 -0.23468462
-0.17470801 0.155504 -0.23473966
-0.17451501 0.15549734 -0.23472483
-0.17433417 0.15548885 -0.23474033
-0.17411961 0.15549099 -0.23472102
-0.173923 0.155503 -0.23469375
-0.17373401 0.15549301 -0.234687
-0.17341965 0.15550999 -0.23468132
-0.17328651 0.15550368 -0.234698
-0.172925 0.155487 -0.23465432
-0.17270069 0.15550368 -0.23469067
-0.17249274 0.15549475 -0.23469675
-0.1723088 0.155508 -0.23468041
-0.17211914 0.15550242 -0.23466827
-0.17190346 0.15550953 -0.23465973
-0.1717515 0.15548818 -0.23466884
-0.17157833 0.15548299 -0.234688
-0.17130883 0.155503 -0.23469083
-0.17109326 0.155497 -0.2346645
-0.17089945 0.15551046 -0.23466609
-0.170717 0.15550233 -0.23468299
-0.17051716 0.15549533 -0.23468085
-0.17029977 0.15548301 -0.23467967
-0.17011066 0.15547599 -0.23461866
-0.169874 0.15550619 -0.23461962
-0.169614 0.155518 -0.234626
-0.16935001 0.15550534 -0.23461467
-0.169074 0.15556601 -0.23460799
-0.16888165 0.15547678 -0.23466802
-0.16873443 0.15548944 -0.23463614
-0.16840565 0.15552333 -0.23463733
-0.16823733 0.15551966 -0.234622
-0.16810282 0.1555095 -0.23460601
-0.16792656 0.15550023 -0.23463567
-0.16771966 0.155487 -0.234613
-0.1672965 0.155499 -0.23464251
-0.1670554 0.1555092 -0.23462979
-0.1668902 0.15550724 -0.23471689
-0.1667074 0.15549566 -0.23470692
-0.16647901 0.15548317 -0.23471349
-0.166309 0.155489 -0.2347192
-0.16610159 0.1554904 -0.23473258
-0.1659075 0.155523 -0.2347545
-0.16570799 0.15550901 -0.23476166
-0.16552719 0.15550779 -0.23479001
-0.16538499 0.15541901 -0.234798
-0.1768488 0.155717 -0.23478301
-0.17673516 0.15570016 -0.23475216
-0.176365 0.155678 -0.23477167
-0.17609368 0.15569967 -0.23473084
-0.17589366 0.15569399 -0.23470415
-0.17578866 0.15572368 -0.23465435
-0.17550999 0.155707 -0.23468967
-0.17524166 0.15569 -0.23467767
-0.17510901 0.1556855 -0.2346645
-0.17494099 0.15569119 -0.23467278
-0.17470066 0.155725 -0.23470901
-0.1745075 0.15571867 -0.23469818
-0.174326 0.155709 -0.23472916
-0.17409432 0.15569501 -0.23471618
-0.17391567 0.15568483 -0.23470366
-0.17372668 0.15567634 -0.234688
-0.1734125 0.15569299 -0.23468199
-0.17327867 0.15572317 -0.23468065
-0.17291667 0.15570666 -0.23464699
-0.17269401 0.15568668 -0.23468263
-0.1724865 0.15567933 -0.23467399
-0.17231961 0.15568559 -0.23467319
-0.172132 0.15569699 -0.2346625
-0.17189573 0.155716 -0.23465219
-0.17174365 0.15570916 -0.23465167
-0.17157102 0.15570433 -0.23465867
-0.17130223 0.15568721 -0.23467678
-0.17108633 0.15567917 -0.23466033
-0.17090061 0.1557001 -0.23466611
-0.17070933 0.15572301 -0.23467
-0.1705085 0.15571466 -0.23468201
-0.17033817 0.15570416 -0.23468584
-0.17010489 0.15569368 -0.23463589
-0.16990444 0.15567271 -0.23463371
-0.16967034 0.15569334 -0.23461767
-0.16934098 0.15572466 -0.23461567
-0.169071 0.15564001 -0.234602
-0.16887334 0.15569699 -0.234662
-0.16871935 0.1556889 -0.23462078
-0.1683145 0.15570424 -0.23462601
-0.16791767 0.15571922 -0.23464033
-0.167711 0.155707 -0.23460901
-0.167292 0.15564749 -0.23462
-0.16705775 0.155691 -0.23461173
-0.16688327 0.15570785 -0.2346853
-0.16669948 0.155717 -0.23468716
-0.16647133 0.15570334 -0.23470233
-0.16629234 0.1556925 -0.23471634
-0.16611966 0.15568383 -0.23471333
-0.1659438 0.1556844 -0.23476259
-0.1656882 0.15571199 -0.23476478
-0.165556 0.155716 -0.23479199
-0.1770615 0.155901 -0.234798
-0.17689066 0.15592434 -0.23478317
-0.17674451 0.15592875 -0.2347545
-0.17635699 0.155899 -0.23474835
-0.17609775 0.15587363 -0.23472899
-0.17589781 0.15588351 -0.23470581
-0.1757805 0.155903 -0.234678
-0.17550166 0.15592568 -0.234689
-0.17523266 0.15590733 -0.23468767
-0.17509949 0.15590267 -0.2346815
-0.17492151 0.15589316 -0.23468
-0.1746935 0.155908 -0.234708
-0.17449975 0.15589975 -0.23470974
-0.1743094 0.15591279 -0.23471959
-0.1741305 0.15589875 -0.2347105
-0.17393 0.15591562 -0.2346925
-0.17371868 0.15589634 -0.23467666
-0.17340566 0.15587567 -0.234672
-0.17327276 0.1559085 -0.23465174
-0.17290668 0.15592401 -0.23466933
-0.17268533 0.15590623 -0.23467779
-0.17247818 0.15589884 -0.23466517
-0.17230301 0.15588817 -0.23467
-0.17212482 0.1558795 -0.23465817
-0.17190665 0.15589377 -0.23464754
-0.17173059 0.1559138 -0.23464401
-0.171562 0.15592299 -0.23466635
-0.17129412 0.15590689 -0.23466545
-0.17107767 0.15589868 -0.23466116
-0.170901 0.15589191 -0.23465727
-0.1707035 0.155909 -0.234632
-0.17050101 0.1558965 -0.23468325
-0.1703295 0.1559225 -0.23469134
-0.17009598 0.15591179 -0.23464489
-0.16991299 0.15590383 -0.23463784
-0.16974199 0.15587398 -0.23461875
-0.16959849 0.15591949 -0.234615
-0.16933349 0.1559065 -0.2346265
-0.16886455 0.15591602 -0.23466131
-0.16870362 0.1559155 -0.23462188
-0.16830719 0.15588683 -0.23462568
-0.16791101 0.155903 -0.23462701
-0.167706 0.155853 -0.234606
-0.16728167 0.15590365 -0.23462267
-0.16704951 0.15589117 -0.23462467
-0.16687725 0.15588474 -0.23468062
-0.16670656 0.15589687 -0.23466958
-0.166482 0.15592442 -0.23469344
-0.16628501 0.1559155 -0.23468417
-0.166113 0.15590735 -0.23467052
-0.1659245 0.155891 -0.23474102
-0.16570541 0.15589198 -0.23474559
-0.1655495 0.155901 -0.23477301
-0.17708759 0.15609881 -0.23479199
-0.17691572 0.15609543 -0.23476341
-0.17674451 0.156103 -0.23473866
-0.17634799 0.15611766 -0.23475301
-0.17612083 0.15610349 -0.23473199
-0.17590742 0.15609743 -0.23468566
-0.17577434 0.156087 -0.23466432
-0.175494 0.15610801 -0.23469299
-0.175226 0.156091 -0.234678
-0.17509067 0.15612067 -0.23468716
-0.17491202 0.156111 -0.23469268
-0.17468733 0.15609133 -0.234685
-0.174492 0.15608133 -0.23472351
-0.17432061 0.1560906 -0.23471661
-0.17416701 0.156103 -0.23469999
-0.17392257 0.15610501 -0.23468772
-0.173711 0.15611701 -0.23465133
-0.17331 0.15609312 -0.23464356
-0.17289999 0.1561065 -0.23466051
-0.17266741 0.156104 -0.23466785
-0.17246984 0.15611833 -0.23465848
-0.17229484 0.15610884 -0.23466067
-0.17211716 0.15610017 -0.23463552
-0.17188917 0.15608825 -0.23464783
-0.171735 0.15609081 -0.2346276
-0.171555 0.15610549 -0.2346565
-0.1713015 0.156102 -0.23466398
-0.17110088 0.15612826 -0.23465675
-0.17090251 0.1560981 -0.23465459
-0.170736 0.1561044 -0.2346566
-0.1704945 0.1560795 -0.23467882
-0.17032276 0.1561055 -0.23468375
-0.1701072 0.15608899 -0.23463878
-0.1699177 0.15612343 -0.23463586
-0.169783 0.15604 -0.234615
-0.16959099 0.15610267 -0.23461866
-0.16932599 0.15608934 -0.23463134
-0.16905367 0.15607667 -0.23461533
-0.16885817 0.15610017 -0.23464416
-0.16869512 0.15611601 -0.23463115
-0.1683415 0.15608925 -0.234624
-0.16793451 0.156013 -0.23460451
-0.167274 0.15608549 -0.2346285
-0.16708601 0.156077 -0.234611
-0.1669019 0.15610042 -0.23464175
-0.16671665 0.15608567 -0.23467043
-0.16651471 0.15609457 -0.23468585
-0.16627775 0.15609825 -0.23468199
-0.16609621 0.15611121 -0.23466921
-0.16591685 0.15611216 -0.23471968
-0.16568583 0.1560955 -0.23474266
-0.1655052 0.15608001 -0.23478279
-0.16535933 0.15607899 -0.234796
-0.1772175 0.156348 -0.23479101
-0.17708933 0.15630449 -0.23476951
-0.17689925 0.15629379 -0.23474935
-0.17673723 0.15628567 -0.23473512
-0.1763415 0.1562995 -0.234753
-0.1761115 0.1563205 -0.23474681
-0.17589825 0.1563144 -0.2346999
-0.17576401 0.15630268 -0.23469834
-0.175487 0.15628999 -0.23469166
-0.175219 0.15627335 -0.23467833
-0.17508374 0.1563035 -0.23467851
-0.1748928 0.1563146 -0.2346884
-0.17467934 0.156312 -0.23467232
-0.17448349 0.15630101 -0.23471965
-0.17430383 0.15629365 -0.23471384
-0.17415933 0.15628433 -0.234708
-0.17393026 0.15628164 -0.23469013
-0.1737045 0.15630101 -0.234633
-0.173301 0.15631156 -0.23465432
-0.17289233 0.156289 -0.23466635
-0.17270851 0.15627484 -0.23465683
-0.17250717 0.15630201 -0.23466301
-0.1722782 0.1563122 -0.23466042
-0.17210867 0.15631984 -0.23463501
-0.17189792 0.1563022 -0.23463111
-0.1717483 0.15629828 -0.23462215
-0.17154832 0.156289 -0.23464935
-0.17133261 0.15628901 -0.23466042
-0.17110483 0.15630268 -0.23465265
-0.17089601 0.15630357 -0.23466457
-0.170738 0.15630966 -0.23465534
-0.17048584 0.15629916 -0.23467499
-0.17031567 0.1562885 -0.23468584
-0.17012618 0.15628083 -0.23464018
-0.16993816 0.15629086 -0.23463199
-0.169773 0.156296 -0.234615
-0.16958266 0.15632166 -0.23461334
-0.16931801 0.156308 -0.23462434
-0.16904533 0.156296 -0.234613
-0.16886713 0.15627314 -0.23463842
-0.16872388 0.15629943 -0.23462465
-0.167843 0.156308 -0.234603
-0.16687585 0.156321 -0.23462585
-0.16670811 0.15630533 -0.23466747
-0.16650638 0.15628475 -0.23467624
-0.16628899 0.156293 -0.23467986
-0.16610661 0.1562876 -0.23467299
-0.16590977 0.15629551 -0.23471449
-0.16567732 0.15631516 -0.23474
-0.16548717 0.15629917 -0.23477884
-0.16535249 0.15626299 -0.23478499
-0.177213 0.15645701 -0.234799
-0.17707984 0.15652317 -0.23477817
-0.17689067 0.15651368 -0.23474622
-0.17672867 0.15650466 -0.234736
-0.17633401 0.15648167 -0.23475933
-0.17610499 0.15650399 -0.23473451
-0.17589076 0.15649675 -0.23470238
-0.17575534 0.15652101 -0.23470099
-0.175478 0.156508 -0.23469901
-0.17521 0.15649132 -0.23468535
-0.17507684 0.15648635 -0.23467451
-0.174909 0.15649161 -0.23468718
-0.1746715 0.15649299 -0.234688
-0.17447467 0.15651867 -0.23472784
-0.17429535 0.15651284 -0.23471065
-0.17415099 0.15650301 -0.23471068
-0.1739161 0.15649289 -0.23466712
-0.17369668 0.15648265 -0.23464733
-0.1733132 0.156488 -0.23464379
-0.1732 0.156528 -0.234626
-0.17288566 0.15651099 -0.234632
-0.17269982 0.15649383 -0.23465483
-0.1725001 0.15648422 -0.234666
-0.1722886 0.1564896 -0.23465499
-0.17211668 0.15649067 -0.23463733
-0.17189287 0.15650843 -0.23462328
-0.17174688 0.15650913 -0.23461926
-0.17154001 0.15650932 -0.23463301
-0.17131616 0.15649466 -0.2346465
-0.17109834 0.15648589 -0.2346409
-0.17090763 0.15648325 -0.23464449
-0.17071959 0.1565132 -0.2346634
-0.17047751 0.15651883 -0.23466967
-0.17030768 0.15650949 -0.23466401
-0.17011784 0.15649967 -0.23463951
-0.16992123 0.15648878 -0.23464067
-0.16976567 0.15648 -0.23461433
-0.16957501 0.15650401 -0.23462
-0.16931051 0.156491 -0.23462349
-0.16903549 0.156553 -0.234605
-0.16887002 0.1565045 -0.23462617
-0.16871333 0.15649475 -0.23461683
-0.166829 0.15650201 -0.23461001
-0.16669412 0.15651624 -0.23465587
-0.1665325 0.15651533 -0.23467235
-0.16630656 0.15650544 -0.23465578
-0.16608983 0.15649217 -0.23467232
-0.16590299 0.15647899 -0.23470567
-0.16567075 0.15649951 -0.23472251
-0.16547933 0.1565195 -0.234761
-0.165341 0.156555 -0.234787
-0.17720351 0.15671299 -0.23479149
-0.17707326 0.15670575 -0.234768
-0.176884 0.15669617 -0.23473601
-0.17672054 0.15672433 -0.23472023
-0.17632501 0.1567 -0.234762
-0.17609733 0.15668601 -0.23473752
-0.17588226 0.15667643 -0.23473026
-0.17574799 0.156703 -0.234705
-0.17547101 0.15669 -0.234695
-0.17520249 0.156674 -0.2346805
-0.17508616 0.15671501 -0.23468573
-0.17488916 0.15669452 -0.23468934
-0.17466533 0.15667666 -0.23466633
-0.17446801 0.1567025 -0.23471026
-0.17428851 0.15669575 -0.23470674
-0.17414235 0.15672301 -0.23470199
-0.17390722 0.15671122 -0.23467213
-0.17369001 0.15670367 -0.23461266
-0.17333484 0.15668134 -0.23461734
-0.17319466 0.15667599 -0.23461832
-0.1728785 0.15669399 -0.23463249
-0.17269166 0.15671434 -0.23464517
-0.17250325 0.15669437 -0.23466174
-0.17229056 0.15670572 -0.23464414
-0.17213966 0.15669033 -0.23461668
-0.17189665 0.15662867 -0.23460901
-0.17173232 0.15670034 -0.2346205
-0.1715335 0.1566925 -0.2346205
-0.17130832 0.15671517 -0.23463218
-0.17108956 0.15670523 -0.23464312
-0.17089145 0.15669279 -0.23463365
-0.1707342 0.1566906 -0.2346406
-0.17047051 0.15670151 -0.23466349
-0.1702916 0.1567132 -0.2346606
-0.17010884 0.15671866 -0.23464368
-0.16991255 0.15670756 -0.2346378
-0.16976 0.156626 -0.23460101
-0.169568 0.15668768 -0.23461266
-0.16930366 0.156674 -0.23461533
-0.1688495 0.15670624 -0.23461725
-0.16870549 0.1566405 -0.234605
-0.16685635 0.15668499 -0.23461783
-0.16672257 0.15670122 -0.23463246
-0.16652575 0.156699 -0.234658
-0.16628644 0.156703 -0.23465058
-0.16608183 0.15671284 -0.23465668
-0.165894 0.15669815 -0.23471266
-0.16566417 0.15668383 -0.23471399
-0.16547251 0.1567035 -0.23475125
-0.16530533 0.156711 -0.23479433
-0.165066 0.15679 -0.23478401
-0.17710966 0.156891 -0.23477221
-0.17687678 0.15687922 -0.23473133
-0.17671348 0.15690632 -0.23472367
-0.17631699 0.15691967 -0.23475333
-0.17608868 0.15690465 -0.23474149
-0.17589968 0.15689565 -0.23473766
-0.17576766 0.15688966 -0.23471881
-0.17546333 0.15687267 -0.23470433
-0.175093 0.1569155 -0.23468187
-0.17488082 0.15691417 -0.23468451
-0.17465766 0.15689833 -0.234643
-0.17446117 0.156886 -0.234704
-0.174281 0.15687817 -0.234708
-0.174135 0.156905 -0.234705
-0.1739005 0.15689416 -0.23466317
-0.173678 0.156995 -0.234616
-0.17332633 0.15690051 -0.234614
-0.17318702 0.15689565 -0.23460567
-0.17287134 0.15687601 -0.23462766
-0.17267632 0.156884 -0.23462701
-0.17252749 0.15692316 -0.23466884
-0.17230678 0.15691523 -0.23465157
-0.17209481 0.1569204 -0.23461559
-0.17169233 0.15683067 -0.23461168
-0.17152849 0.15684 -0.234611
-0.1713015 0.15689799 -0.23462349
-0.17109939 0.1568816 -0.23463158
-0.17089429 0.15691291 -0.2346379
-0.17071599 0.156895 -0.23463799
-0.17046349 0.15688549 -0.23465766
-0.17030118 0.15689041 -0.234653
-0.17010225 0.15690175 -0.23463875
-0.1699055 0.15689151 -0.23462933
-0.16956 0.15690701 -0.23460667
-0.169293 0.156967 -0.234603
-0.1688545 0.15690699 -0.23461801
-0.166839 0.156829 -0.234624
-0.16670565 0.15688847 -0.23462935
-0.16651867 0.15688182 -0.23465501
-0.16630286 0.156881 -0.23465188
-0.16607501 0.156896 -0.2346465
-0.16588616 0.15691832 -0.23469633
-0.16571499 0.15690768 -0.23469032
-0.16550922 0.15689066 -0.23473491
-0.16528434 0.15688168 -0.23477967
-0.16506201 0.15689951 -0.234777
-0.17710145 0.157111 -0.23475724
-0.17686823 0.15709765 -0.23473324
-0.17670645 0.15708923 -0.23471734
-0.17631 0.157104 -0.234742
