-0.0687114 -0.0244919 0.997336 0.0103084
-0.0666136 -0.0282723 0.997378 0.00989345
-0.0660365 -0.0311857 0.99733 0.00793373
-0.0658743 -0.0312979 0.997337 0.00524904
-0.0644699 -0.0292125 0.997492 0.00144999
-0.0632174 -0.0287484 0.997586 0.000107059
0.0667868 -0.0418602 0.996889 0.0179824
-0.0736468 -0.0158784 0.997158 0.00475993
-0.0667831 -0.0267923 0.997408 0.00135132
-0.0687529 -0.0267283 0.997276 0.00176521
-0.0691718 -0.0253082 0.997284 0.0040184
-0.0683186 -0.0252954 0.997343 0.00299388
-0.0687709 -0.0288686 0.997215 0.003503
-0.0711525 -0.0265747 0.997111 0.0125124
-0.0689413 -0.0281987 0.997222 0.0111765
-0.0677869 -0.0327733 0.997161 0.00598793
-0.0670626 -0.0304367 0.997284 0.00606266
-0.0653888 -0.030116 0.997405 0.00466779
-0.0640912 -0.0289731 0.997523 0.000112533
-0.0625751 -0.0301679 0.997584 0
-0.0692927 -0.0223548 0.997346 0.00279953
-0.070629 -0.0246074 0.997199 0.0064048
-0.0697124 -0.024536 0.997265 0.00609219
-0.0687262 -0.0299775 0.997185 0
-0.0699383 -0.0253473 0.997229 0.00497912
-0.0705805 -0.0260899 0.997165 0.00954932
-0.0675547 -0.0260536 0.997375 0.00552962
-0.0679591 -0.0332405 0.997134 0.00564956
-0.0655389 -0.0338916 0.997274 0.00195618
-0.0664666 -0.0384335 0.997048 0
-0.0659163 -0.0365349 0.997156 0
-0.0612726 -0.0365863 0.99745 0
-0.0677126 -0.0259622 0.997367 0
-0.0680445 -0.0236789 0.997401 0.00304063
-0.0669582 -0.0297682 0.997312 0.000341953
-0.0675885 -0.0332892 0.997158 0
-0.0682756 -0.0339467 0.997089 0.00245238
-0.0708126 -0.0292057 0.997062 0.00389865
-0.0706277 -0.0298475 0.997056 0.00697412
-0.0701694 -0.0347306 0.99693 0.00518464
-0.0667209 -0.03716 0.997079 0.00114403
-0.0646129 -0.0420518 0.997024 0
-0.0630837 -0.0444535 0.997018 0
-0.0623354 -0.0402581 0.997243 0
0.0944842 -0.0561102 0.993944 0.00664279
-0.0726817 -0.0115694 0.997288 0.00900969
-0.0676522 -0.0266826 0.997352 0
-0.0683271 -0.025451 0.997338 0.000368918
-0.0697998 -0.0273224 0.997187 0.000942146
-0.0687118 -0.0341595 0.997052 0
-0.06814 -0.0325702 0.997144 0.00254775
-0.0678889 -0.0324526 0.997165 0
-0.0676848 -0.0321743 0.997188 0.000380664
-0.0697626 -0.0303317 0.997102 0.00602774
-0.068515 -0.0348234 0.997042 0
-0.0659944 -0.0363855 0.997156 0
-0.0655601 -0.0370837 0.997159 0
-0.0624793 -0.0377337 0.997333 0
0.0899285 -0.0561851 0.994362 0.00425655
-0.0748269 -0.019961 0.996997 0.00487049
-0.0755794 -0.0145002 0.997034 0.00808592
-0.0718707 -0.013881 0.997317 0.00587511
-0.0703289 -0.0178025 0.997365 0.00211372
-0.0714182 -0.0235888 0.997168 0.00199864
-0.0708846 -0.0229444 0.997221 0.00165398
-0.0692812 -0.0322246 0.997077 0
-0.0677754 -0.0359838 0.997051 0
-0.0679298 -0.0313888 0.997196 0
-0.0680157 -0.0342376 0.997097 0
-0.0683135 -0.0343252 0.997073 0
-0.0683089 -0.0310294 0.997182 0
-0.0674472 -0.0291825 0.997296 0
-0.0648595 -0.0299835 0.997444 0
0.0916828 -0.0535641 0.994347 0
0.106749 -0.0578364 0.992602 0
-0.0745871 -0.0205816 0.997002 0.004305
-0.0755555 -0.0123456 0.997065 0.00722705
-0.0705901 -0.0147124 0.997397 0.00045738
-0.0696875 -0.0155283 0.997448 0.00227493
-0.0708032 -0.0224852 0.997237 0
-0.0702747 -0.0246582 0.997223 0
-0.0681648 -0.0294967 0.997238 0
-0.0685107 -0.0294952 0.997214 0
-0.0662409 -0.0316346 0.997302 0
-0.06943 -0.033065 0.997039 0
-0.0695709 -0.0300431 0.997125 0
-0.0688526 -0.0294626 0.997192 0
-0.0674058 -0.0245401 0.997424 0
-0.0663359 -0.0281984 0.997399 0
0.0877619 -0.0502286 0.994874 0
0.095616 -0.0530219 0.994005 0
0.107295 -0.0570027 0.992592 0
-0.0712693 -0.0159357 0.99733 0.00265423
-0.0704341 -0.0120801 0.997443 0
-0.0714074 -0.010135 0.997396 0
-0.0714631 -0.0134083 0.997353 0
-0.070826 -0.0160451 0.99736 0.00178645
-0.0699388 -0.0200296 0.99735 0.00206386
-0.0702178 -0.0238147 0.997247 0
-0.0690434 -0.0272688 0.997241 0
-0.068545 -0.0270209 0.997282 0
-0.0676889 -0.0299725 0.997256 0
-0.0690783 -0.0292026 0.997184 0
-0.0712747 -0.0283382 0.997054 0
-0.0682015 -0.0241053 0.99738 0
-0.06743 -0.0238273 0.997439 0
0.0804036 -0.0459681 0.995702 0.000155929
0.0957305 -0.0519855 0.994049 0
0.10125 -0.0537441 0.993408 0
0.109332 -0.0556114 0.992449 0
-0.0689412 -0.0150862 0.997507 0
-0.069183 -0.0167029 0.997464 0
-0.0688882 -0.00960076 0.997578 0
-0.0673121 -0.00644467 0.997711 0
-0.0683083 -0.0118487 0.997594 0
-0.0691665 -0.0150671 0.997491 0
-0.0721826 -0.0175991 0.997236 0.00508297
-0.0729589 -0.0172959 0.997185 0.0036939
-0.0693549 -0.0246091 0.997288 0
-0.0680937 -0.0272859 0.997306 0
-0.068345 -0.0260623 0.997321 0
-0.0678463 -0.0274907 0.997317 0
-0.071619 -0.0250989 0.997116 0
-0.0705071 -0.0223908 0.99726 0
-0.0710091 -0.021749 0.997239 0
0.0796926 -0.0468395 0.995718 0.000754252
0.0917162 -0.0505224 0.994503 0
0.102207 -0.0540385 0.993294 0
0.11087 -0.0561457 0.992248 0
-0.0693321 -0.0138091 0.997498 0
-0.0675504 -0.0155073 0.997595 0
-0.0671021 -0.00925868 0.997703 0
-0.0685388 -0.0107787 0.99759 8.81234e-05
-0.0709745 -0.0152501 0.997362 0.00567995
-0.0730518 -0.0118341 0.997258 0.00675383
-0.0722396 -0.0132878 0.997299 0.00309026
-0.0724314 -0.0208059 0.997156 0
-0.0700684 -0.0251546 0.997225 0
-0.0697552 -0.0236357 0.997284 0
-0.0705238 -0.0261965 0.997166 0
-0.0723234 -0.0199859 0.997181 0.0029837
-0.0722186 -0.0205193 0.997178 0.00323845
0.103973 -0.0499849 0.993323 0
0.126673 -0.0528462 0.990536 0.0052745
-0.0648841 -0.0136671 0.997799 0
-0.065896 -0.00856172 0.99779 0.00245796
-0.0698991 -0.0120003 0.997482 0.00858537
-0.0732433 -0.0124821 0.997236 0.00529772
-0.073661 -0.012271 0.997208 0.0036158
-0.0703521 -0.0216654 0.997287 0
-0.0701446 -0.0240558 0.997247 0.00130386
-0.0696954 -0.0225228 0.997314 0.00056154
-0.0701319 -0.0233448 0.997265 0
-0.0713364 -0.0222532 0.997204 0
0.106822 -0.0518008 0.992928 0
0.127577 -0.0501992 0.990557 0.0108562
0.126746 -0.0515551 0.990595 0.00594363
-0.0724851 -0.0158221 0.997244 0.00588191
-0.0680028 -0.0139267 0.997588 0.00117844
-0.0658255 -0.0107619 0.997773 0.00384355
-0.0628032 -0.0123034 0.99795 0.000559528
-0.0647275 -0.00971703 0.997856 0.00262271
-0.0689108 -0.013287 0.997534 0.00472977
-0.0718563 -0.00864218 0.997378 0.00562458
-0.0733865 -0.00825192 0.997269 0.00769319
-0.0691675 -0.019047 0.997423 0
-0.0704047 -0.0212454 0.997292 0.00215781
-0.0694374 -0.0228837 0.997324 0.00225686
-0.0695763 -0.0207246 0.997361 0.000218665
-0.0698023 -0.0187256 0.997385 0.00222817
0.122412 -0.0467499 0.991378 0
-0.0725228 -0.0127051 0.997286 0.00795612
-0.0663579 -0.0170082 0.997651 0.00273608
-0.0663186 -0.00863843 0.997761 0.00795452
-0.0652077 -0.011397 0.997807 0.00490514
-0.0666268 -0.00944739 0.997733 0.00543947
-0.0669491 -0.00941895 0.997712 0.00758166
-0.0697692 -0.00775634 0.997533 0.0106924
-0.0743949 -0.0050118 0.997216 0.00764843
-0.0754143 -0.00236328 0.99715 0.0106321
-0.0682908 -0.0134624 0.997575 0
-0.0678293 -0.0198576 0.997499 0
-0.0666479 -0.022529 0.997522 0
-0.0650741 -0.0229203 0.997617 0
0.122845 -0.0424454 0.991518 0
-0.105292 -0.0169682 0.994297 0.0124214
-0.0740564 -0.016937 0.99711 0.0094748
-0.0693014 -0.0143141 0.997493 0.00972401
-0.067827 -0.0117514 0.997628 0.00863379
-0.0690463 -0.00967107 0.997567 0.00839387
-0.068363 -0.00600063 0.997642 0.0123023
-0.0699046 -0.00555265 0.997538 0.0127584
-0.0714453 -0.00447156 0.997434 0.013277
-0.0713963 -0.00576205 0.997431 0.00878137
-0.0714611 -0.0046567 0.997433 0.0096814
-0.0684254 -0.0172925 0.997506 0
-0.0659975 -0.0213568 0.997591 0
-0.0657065 -0.0188627 0.997661 0
-0.0625295 -0.0265034 0.997691 0
0.117524 -0.0379659 0.992344 0
-0.104692 -0.0184826 0.994333 0.0134391
-0.0730819 -0.0167666 0.997185 0.0093367
-0.0720863 -0.0133069 0.99731 0.0111439
-0.0680532 -0.0114193 0.997616 0.00700705
-0.0682347 -0.0127885 0.997587 0.0116851
-0.0691226 -0.0142245 0.997507 0.0100355
-0.0706128 -0.00635024 0.997484 0.0138712
-0.0699933 -0.0013205 0.997547 0.0124985
-0.0651276 -0.0110313 0.997816 0
-0.0667647 -0.0139611 0.997671 0
-0.065835 -0.0200822 0.997628 0
-0.066314 -0.0202643 0.997593 0
-0.066612 -0.01889 0.9976 0
-0.0622045 -0.0316562 0.997561 0
-0.0638338 -0.0345061 0.997364 0
0.122514 -0.0398057 0.991668 0
-0.0744019 -0.0140257 0.99713 0.0122814
-0.0723986 -0.0155785 0.997254 0.00957318
-0.067 -0.0174731 0.9976 0.00361765
-0.0669771 -0.0205578 0.997543 0.00141379
-0.0689498 -0.0152936 0.997503 0.00329345
-0.0693437 -0.0128533 0.99751 0.00664965
-0.068716 -0.0107043 0.997579 0.00532693
-0.0673966 -0.0126775 0.997646 0
-0.0667688 -0.0173802 0.997617 0
-0.0675003 -0.0191568 0.997535 0
-0.0646657 -0.0234962 0.99763 0
-0.0647114 -0.0242578 0.997609 0
-0.064854 -0.0303738 0.997432 0
-0.0624212 -0.0342947 0.99746 0
-0.0636294 -0.0338185 0.9974 0
0.12405 -0.0361201 0.991618 0
-0.0826766 -0.016621 0.996438 0
-0.0799207 -0.0180947 0.996637 0.00439042
-0.0742606 -0.0190516 0.997057 0.0113435
-0.0706383 -0.0222081 0.997255 0.00310487
-0.0681397 -0.0214168 0.997446 0.00166084
-0.067887 -0.0195379 0.997502 0
-0.0664027 -0.0172224 0.997644 0
-0.0642691 -0.021906 0.997692 0
-0.0668048 -0.0183922 0.997597 0
-0.0672707 -0.0173318 0.997584 0
-0.0681032 -0.020747 0.997463 0
-0.0648318 -0.0282321 0.997497 0
-0.0644669 -0.0289301 0.9975 0
-0.0665726 -0.0283199 0.99738 0
0.120903 -0.0331072 0.992112 0.00437937
-0.0807737 -0.0249188 0.996421 0
-0.0787164 -0.0256773 0.996566 0
-0.0762162 -0.022016 0.996848 0.00386801
-0.0752301 -0.0235515 0.996888 0.00297374
-0.0716113 -0.0256286 0.997103 0
-0.0703627 -0.0224622 0.997269 0
-0.069897 -0.0194424 0.997365 0.00206648
-0.0688811 -0.0208603 0.997407 0.00137147
-0.0665467 -0.0168494 0.997641 0
-0.0639674 -0.0204975 0.997741 0
-0.0631156 -0.0214495 0.997776 0
-0.0658216 -0.0239503 0.997544 0
-0.0658931 -0.0254093 0.997503 0
-0.0676118 -0.0243864 0.997414 0
-0.0670634 -0.0229462 0.997485 0
-0.0659508 -0.0240694 0.997532 0
-0.0652254 -0.0289539 0.99745 0
0.120197 -0.0332962 0.992192 0.00173586
-0.0974271 -0.0166692 0.995103 0.000169257
-0.0799292 -0.0260489 0.99646 0
-0.0797165 -0.024415 0.996519 0
-0.0734695 -0.0305265 0.99683 0
-0.0726151 -0.0284986 0.996953 0.000347155
-0.0701922 -0.0256685 0.997203 0
-0.068656 -0.0232286 0.99737 0
-0.0665637 -0.025612 0.997453 0
-0.0643224 -0.0216499 0.997694 0
-0.0625361 -0.0280358 0.997649 0
-0.0623086 -0.0298762 0.99761 0
-0.0628112 -0.0291066 0.997601 0
-0.0631641 -0.0276962 0.997619 0
-0.0682087 -0.0236201 0.997391 0
-0.068364 -0.0254461 0.997336 0
-0.068937 -0.0254676 0.997296 0
0.124255 -0.0340681 0.991665 0
-0.104052 -0.0278363 0.994182 0
-0.0976209 -0.0191616 0.995039 0
-0.0787842 -0.0249363 0.99658 0.00374368
-0.0803728 -0.0241604 0.996472 0.007542
-0.0777879 -0.0223218 0.99672 0.00692144
-0.0752968 -0.0240129 0.996872 0.00166261
-0.0722917 -0.027378 0.997008 0.00488284
-0.0701771 -0.0252731 0.997214 0
-0.0684461 -0.0252661 0.997335 0
-0.0647707 -0.0240284 0.997611 0
-0.0632815 -0.030661 0.997525 0
-0.0650402 -0.0246147 0.997579 0
-0.0651431 -0.0249994 0.997563 0
-0.0642766 -0.0295155 0.997496 0
-0.0652078 -0.0324253 0.997345 0
-0.0662859 -0.0353356 0.997175 0
-0.068488 -0.0283327 0.997249 0
-0.0677967 -0.0228992 0.997436 0
-0.0687668 -0.0253434 0.997311 0
0.121877 -0.0335484 0.991978 0
-0.102613 -0.0253808 0.994397 0
-0.0878047 -0.0244928 0.995836 0
-0.0820547 -0.0252365 0.996308 0
-0.0822853 -0.0223983 0.996357 0.00478956
-0.0796654 -0.0260476 0.996481 0.00176601
-0.0807183 -0.0241694 0.996444 0.00169519
-0.0772917 -0.0235082 0.996731 0.00255632
-0.0755566 -0.0215269 0.996909 0.00539068
-0.072994 -0.0271201 0.996964 0.00060971
-0.0712761 -0.022786 0.997196 0.00375933
-0.0684025 -0.0216449 0.997423 0
-0.0667026 -0.0282584 0.997373 0
-0.0637762 -0.0309435 0.997484 0
-0.0652469 -0.0268406 0.997508 0
-0.0657428 -0.0276535 0.997453 0
-0.0670108 -0.0289808 0.997331 0
-0.0681605 -0.0290812 0.99725 0
-0.0687902 -0.0295194 0.997194 0
-0.0684751 -0.0288551 0.997235 0
-0.0687661 -0.024188 0.99734 0
-0.0704095 -0.0263018 0.997171 0
0.1174 -0.0308507 0.992605 0
0.125612 -0.0300737 0.991624 0
-0.0966099 -0.0252457 0.995002 0
-0.0824606 -0.0246022 0.996291 0
-0.0823737 -0.0236535 0.996321 0.00585445
-0.0788828 -0.0219763 0.996642 0
-0.076974 -0.0237923 0.996749 0
-0.0741764 -0.0217802 0.997007 0.000938492
-0.0733197 -0.0239778 0.99702 0.00190664
-0.0717229 -0.0214661 0.997194 0.00692462
-0.0713313 -0.0205092 0.997242 0.00553454
-0.0688514 -0.0247693 0.997319 0
-0.066062 -0.026171 0.997472 0
-0.0669853 -0.0240637 0.997464 0
-0.0667231 -0.0233189 0.997499 0
-0.0670715 -0.0266439 0.997392 0
-0.0686549 -0.0227513 0.997381 0
-0.070218 -0.0259711 0.997194 0
-0.0680423 -0.0258853 0.997347 0
-0.0691207 -0.0199977 0.997408 0
-0.0692878 -0.0224462 0.997344 0
0.119322 -0.0269559 0.99249 0.00341628
0.129317 -0.0261045 0.99126 0.00231071
-0.103109 -0.0275164 0.994289 0
-0.0968611 -0.0259777 0.994959 0
-0.0817515 -0.0234543 0.996377 0
-0.0804848 -0.0286157 0.996345 0
-0.0806879 -0.0226067 0.996483 0
-0.0754653 -0.0262142 0.996804 0
-0.0754584 -0.0229085 0.996886 0.0025635
-0.0732509 -0.0236534 0.997033 0.0021037
-0.0718043 -0.0194973 0.997228 0.00824964
-0.0711261 -0.0200647 0.997265 0.00398056
-0.0677223 -0.0197279 0.997509 0.0041035
-0.0667848 -0.0251159 0.997451 0
-0.066485 -0.0225657 0.997532 0
-0.0652412 -0.0267979 0.99751 0
-0.0681955 -0.0268067 0.997312 0
-0.0702076 -0.0228561 0.997271 0
-0.0733633 -0.0146586 0.997198 0.00473922
-0.0721753 -0.0155027 0.997271 0.00838801
-0.0707811 -0.0181878 0.997326 0.00433586
0.118996 -0.0228468 0.992632 0.0143479
-0.105265 -0.0251833 0.994125 0
-0.0968062 -0.0294615 0.994867 0
-0.0914093 -0.0269596 0.995448 0
-0.0847394 -0.0243343 0.996106 0
-0.0799365 -0.0298673 0.996352 0
-0.0806205 -0.0257201 0.996413 0
-0.0763073 -0.0253033 0.996763 0.00363302
-0.0760619 -0.0226296 0.996846 0.00743286
-0.0735474 -0.0204148 0.997083 0.00485796
-0.07379 -0.0217698 0.997036 0.00806593
-0.0715953 -0.0191301 0.99725 0.00884529
-0.0683442 -0.023976 0.997374 0.000693491
-0.0688651 -0.0244835 0.997325 0
-0.0664592 -0.0258032 0.997455 0
-0.0685451 -0.0277972 0.997261 0
-0.071252 -0.0218288 0.99722 0.0034703
-0.0715145 -0.0228376 0.997178 0.0100292
-0.0702741 -0.020366 0.99732 0.00503123
-0.0726919 -0.0160376 0.997225 0.0114484
-0.0721746 -0.0166516 0.997253 0.0101953
0.117372 -0.0204125 0.992878 0.0248314
-0.103122 -0.0254304 0.994344 0
-0.0932569 -0.0249494 0.995329 0
-0.0825519 -0.0239671 0.996299 0.00197205
-0.0840274 -0.0219193 0.996222 0.00925039
-0.0806723 -0.0208469 0.996523 0.00706391
-0.0763777 -0.020469 0.996869 0.00566787
-0.0724399 -0.0230693 0.997106 0.00297205
-0.0711032 -0.0231113 0.997201 0.00164115
-0.0707456 -0.0235474 0.997216 0.00694773
-0.0717422 -0.0292673 0.996994 0
-0.0688318 -0.0276564 0.997245 0
-0.068379 -0.0299405 0.99721 0
-0.0688927 -0.0269719 0.997259 0
-0.0744085 -0.019104 0.997045 0.0110166
-0.0743358 -0.0199329 0.997034 0.0130891
-0.0727075 -0.0142782 0.997251 0.0138934
-0.0710026 -0.0160004 0.997348 0.00839686
-0.105471 -0.0233059 0.994149 0
-0.0954169 -0.0224367 0.995185 0
-0.0922917 -0.0236712 0.995451 0
-0.0854007 -0.0219033 0.996106 0
-0.0834195 -0.024358 0.996217 0.00348437
-0.0853424 -0.0185269 0.996179 0.0113382
-0.0801646 -0.0223245 0.996532 0.00656283
-0.0785686 -0.0242776 0.996613 0.00750843
-0.0738768 -0.0256489 0.996938 0.00250756
-0.069617 -0.0268653 0.997212 0
-0.0737847 -0.0273792 0.996898 0.00570186
-0.0718948 -0.029357 0.99698 0
-0.0700372 -0.025714 0.997213 0
-0.0675035 -0.0255619 0.997392 0
-0.069042 -0.026943 0.99725 0
-0.0702082 -0.0207075 0.997317 0.0087572
-0.073754 -0.0174192 0.997124 0.0169853
-0.0725865 -0.0155417 0.997241 0.0168755
-0.0730157 -0.0140684 0.997232 0.0158767
-0.10914 -0.0216042 0.993792 0
-0.104892 -0.0197897 0.994287 0
-0.0963228 -0.0208608 0.995131 0
-0.0956544 -0.0187364 0.995238 0
-0.0876487 -0.0199932 0.995951 0.00113569
-0.0852517 -0.0186789 0.996184 0.00676136
-0.0817263 -0.0225052 0.996401 0.00328737
-0.079805 -0.0246404 0.996506 0.003425
-0.079682 -0.0258986 0.996484 0.00852855
-0.0717353 -0.0290057 0.997002 0
-0.0714076 -0.0291775 0.99702 0
-0.0728161 -0.0285169 0.996938 0.000972412
-0.0725837 -0.0285967 0.996952 0.00486779
-0.0718059 -0.0241605 0.997126 0.00359728
-0.0697947 -0.0234527 0.997286 0
-0.0686289 -0.0248977 0.997332 0
-0.0711083 -0.0175617 0.997314 0.00833686
-0.0722652 -0.0168432 0.997243 0.012524
-0.0736776 -0.0112361 0.997219 0.016087
-0.0744241 -0.0153553 0.997108 0.0145157
0.0940685 -0.0230141 0.9953 0.0115899
-0.111031 -0.0185444 0.993644 0
-0.106383 -0.0169008 0.994182 0
-0.0970774 -0.0178736 0.995116 0
-0.0932323 -0.0200495 0.995443 0
-0.0881528 -0.0149432 0.995995 0.0077377
-0.0855824 -0.0166619 0.996192 0.00513078
-0.0807128 -0.0222741 0.996489 0.000378335
-0.0813034 -0.020461 0.996479 0.00404303
-0.0796605 -0.0272566 0.996449 0.00742383
-0.0752294 -0.0306686 0.996695 0.00412665
-0.0703693 -0.031721 0.997017 0
-0.0694573 -0.0296761 0.997143 0
-0.0710089 -0.0273453 0.997101 0.00456499
-0.0710874 -0.0268471 0.997109 0.00096316
-0.0709842 -0.0242572 0.997182 0.0016593
-0.0680173 -0.0244855 0.997384 0
-0.0705491 -0.0179897 0.997346 0.00304177
-0.0739077 -0.0152141 0.997149 0.00955154
-0.0738382 -0.010102 0.997219 0.0121212
-0.0719663 -0.0140416 0.997308 0.0112745
-0.0728862 -0.00942892 0.997296 0.00869979
0.0965768 -0.0235895 0.995046 0.00810669
-0.111116 -0.0158974 0.99368 0.0041119
-0.107811 -0.0151588 0.994056 0.00343149
-0.0994887 -0.0169489 0.994894 0
-0.0931268 -0.0175578 0.995499 0
-0.0911527 -0.0144213 0.995732 0.00190773
-0.0895215 -0.0126897 0.995904 0.00992594
-0.0895584 -0.0154622 0.995862 0.0154368
-0.0834818 -0.0185923 0.996336 0.00519057
-0.082225 -0.0225701 0.996358 0.00740181
-0.0790191 -0.0250613 0.996558 0.00763985
-0.078508 -0.0263996 0.996564 0.00940953
-0.0685952 -0.0298438 0.997198 0
-0.0687313 -0.0338054 0.997062 0
-0.0705393 -0.0308713 0.997031 0.000283225
-0.0694602 -0.030147 0.997129 0
-0.0698273 -0.0265418 0.997206 0
-0.0694906 -0.0179066 0.997422 0.0044767
-0.0694887 -0.0151363 0.997468 0.00742168
-0.0709979 -0.0185499 0.997304 0.0070825
-0.069034 -0.0187064 0.997439 0
0.099607 -0.0241842 0.994733 0.00314675
-0.110359 -0.0167263 0.993751 0.00700233
-0.105742 -0.0150445 0.99428 0.00511833
-0.0921105 -0.0133521 0.995659 0.00261044
-0.0894045 -0.015367 0.995877 0.0012057
-0.0876738 -0.0152708 0.996032 0.00670711
-0.0917204 -0.00976693 0.995737 0.0200677
-0.0834373 -0.0192422 0.996327 0.00350095
-0.0812226 -0.0218599 0.996456 0.00349521
-0.0797931 -0.0237447 0.996529 0.00617987
-0.0782233 -0.026858 0.996574 0.00865951
-0.0706101 -0.0309171 0.997025 0
-0.0701625 -0.0350744 0.996919 0
-0.0685324 -0.033604 0.997083 0
-0.0682122 -0.030301 0.997211 0
-0.0674447 -0.027363 0.997348 0.000364304
-0.0638608 -0.0285319 0.997551 0
-0.0686081 -0.0228853 0.997381 0.00299984
-0.0691352 -0.0220537 0.997363 0.000625695
-0.068104 -0.0198406 0.997481 0
0.0962768 -0.0263545 0.995006 0.00190711
-0.122307 -0.017499 0.992338 0.0125551
-0.11628 -0.0174315 0.993064 0.00944447
-0.11335 -0.0147466 0.993446 0.0112448
-0.107412 -0.0134997 0.994123 0.00610294
-0.104842 -0.0154862 0.994368 0.00690643
-0.0954439 -0.0145374 0.995329 0.00545983
-0.0886746 -0.0151711 0.995945 0.00356537
-0.0865494 -0.0178914 0.996087 0.00372836
-0.0860227 -0.0161317 0.996163 0.00644611
-0.0890393 -0.0112993 0.995964 0.0136794
-0.0853048 -0.0200095 0.996154 0.00628191
-0.08322 -0.0235451 0.996253 0.00797044
-0.0812492 -0.0213348 0.996465 0.00819882
-0.0817551 -0.0232403 0.996381 0.0118772
-0.0718686 -0.0280723 0.997019 0.00377345
-0.0705496 -0.0323877 0.996982 0.0014825
-0.0682392 -0.0305457 0.997201 0
-0.0683998 -0.0269434 0.997294 0.00214843
-0.0670198 -0.028232 0.997352 0.00406763
-0.0675958 -0.0239347 0.997426 0.00607433
-0.068576 -0.0253504 0.997324 0
0.0930198 -0.0254228 0.99534 0.00354291
-0.11761 -0.0190425 0.992877 0.00631243
-0.115901 -0.0168525 0.993118 0.0127873
-0.112081 -0.0186862 0.993523 0.0098928
-0.108914 -0.0170062 0.993906 0.00732321
-0.104964 -0.0156512 0.994353 0.00486865
-0.0962713 -0.0140998 0.995255 0.00792205
-0.0909955 -0.0169321 0.995707 0.0058485
-0.0859486 -0.0175761 0.996144 0.00110193
-0.0859231 -0.0171508 0.996154 0.00751998
-0.0865292 -0.0167888 0.996108 0.00753305
-0.0857024 -0.0192723 0.996134 0.00669072
-0.0842091 -0.0235003 0.996171 0.00661764
-0.0830712 -0.0227618 0.996284 0.0127491
-0.0801729 -0.027345 0.996406 0.01049
-0.0759725 -0.0318917 0.9966 0.00752732
-0.0707543 -0.03085 0.997017 0
-0.070229 -0.0298759 0.997083 0.00125666
-0.0693334 -0.0299304 0.997144 0.00141482
-0.0680975 -0.0280567 0.997284 0
-0.0664623 -0.028103 0.997393 0
-0.0685195 -0.0249231 0.997338 0
0.0835359 -0.0252601 0.996185 0
0.0911132 -0.0239074 0.995554 0.00480803
-0.115722 -0.0177611 0.993123 0.0079831
-0.112845 -0.0194489 0.993422 0.00775196
-0.107085 -0.0176048 0.994094 0.00867054
-0.104531 -0.0152683 0.994404 0.00873594
-0.0951945 -0.0159686 0.995331 0.00504997
-0.0925978 -0.012484 0.995625 0.00276041
-0.0884937 -0.0153978 0.995958 0
-0.0880177 -0.019376 0.99593 0
-0.0865712 -0.0175932 0.99609 0.00335317
-0.0835355 -0.0222473 0.996256 0.00137637
-0.0844592 -0.0238602 0.996141 0.00488859
-0.0845148 -0.026793 0.996062 0.00453158
-0.0845988 -0.0259795 0.996076 0.0117172
-0.0810396 -0.032305 0.996187 0.00929631
-0.074159 -0.0358756 0.996601 0.00117798
-0.070451 -0.0330357 0.996968 0
-0.0715847 -0.027717 0.997049 0.00288417
-0.0702146 -0.0311732 0.997045 0
-0.0677776 -0.0314834 0.997204 0
-0.0651025 -0.0273227 0.997504 0
0.0836834 -0.0261226 0.99615 0
0.0931819 -0.0198093 0.995452 0.00634416
0.0999801 -0.0197163 0.994794 0.00394263
-0.115337 -0.0159159 0.993199 0.00635613
-0.114033 -0.0157617 0.993352 0.0107346
-0.107381 -0.0189378 0.994037 0.00932201
-0.102136 -0.0185442 0.994598 0.00642959
-0.095746 -0.0105051 0.99535 0.00862265
-0.0908309 -0.0123935 0.995789 0.00495203
-0.0903042 -0.0136519 0.995821 0.00272361
-0.0886682 -0.021139 0.995837 0
-0.0877439 -0.0208367 0.995925 0
-0.0873186 -0.0254058 0.995856 0.00290258
-0.0842138 -0.0294442 0.996013 0
-0.0863347 -0.0259534 0.995928 0.0068755
-0.0863731 -0.0295078 0.995826 0.00828168
-0.0788358 -0.0347904 0.99628 0
-0.0736821 -0.0402622 0.996469 0
-0.0704739 -0.0344745 0.996918 0
-0.0706456 -0.0306269 0.997031 0.00200974
-0.0692693 -0.0275387 0.997218 0
-0.0700997 -0.030156 0.997084 0.000220392
-0.0671803 -0.0277172 0.997356 0
-0.069086 -0.0312303 0.997122 0.00289122
0.0829059 -0.0222984 0.996308 0.0019599
0.0948045 -0.0184201 0.995326 0.0069802
0.102557 -0.0192543 0.994541 0.00916391
-0.122569 -0.0143242 0.992357 0.00390036
-0.117097 -0.015157 0.993005 0.0024252
-0.11786 -0.0102597 0.992977 0.0107016
-0.113556 -0.0142555 0.993429 0.0111286
-0.107125 -0.0178834 0.994085 0.00710275
-0.103134 -0.0180047 0.994505 0.00765123
-0.096 -0.0128471 0.995298 0.00678176
-0.0935302 -0.0147515 0.995507 0.0060031
-0.0902624 -0.0218079 0.995679 0.00130459
-0.0908557 -0.0249134 0.995552 0.00110178
-0.089631 -0.0222649 0.995726 0.00116487
-0.0895578 -0.0267152 0.995623 0.00252135
-0.0876073 -0.0283014 0.995753 0.00266465
-0.0856239 -0.0324394 0.995799 0.00432665
-0.0840635 -0.0305831 0.995991 0.00371484
-0.0792763 -0.0355498 0.996219 0.000271831
-0.0747811 -0.0359162 0.996553 0
-0.0717785 -0.0373994 0.996719 0.000175105
-0.0713895 -0.0329572 0.996904 0.00223082
-0.0707662 -0.0346096 0.996892 0
-0.0679848 -0.0309223 0.997207 0
-0.0674578 -0.0341946 0.997136 0
-0.0686669 -0.0312102 0.997151 0.00253157
0.0866994 -0.0219258 0.995993 0.00509454
0.0937873 -0.0206622 0.995378 0.00758382
0.10117 -0.0195445 0.994677 0.0107978
-0.120608 -0.0134627 0.992609 0.00473939
-0.115636 -0.0146408 0.993184 0.0035086
-0.115779 -0.0113829 0.99321 0.00762146
-0.111794 -0.012087 0.993658 0.0102695
-0.105508 -0.0107214 0.994361 0.00855834
-0.103748 -0.00957814 0.994557 0.00939832
-0.0973438 -0.0135788 0.995158 0.00526406
-0.0922719 -0.020186 0.995529 0.001159
-0.0926075 -0.0237017 0.995421 0.00108626
-0.0921164 -0.0252579 0.995428 0.00128856
-0.0882865 -0.0249757 0.995782 0
-0.0882879 -0.0331342 0.995544 0.000406497
-0.0866756 -0.0347079 0.995632 0
-0.0861277 -0.0322144 0.995763 0
-0.0836941 -0.0309695 0.99601 0.0025036
-0.0815346 -0.0324063 0.996144 0.00142599
-0.0763609 -0.0323748 0.996554 0
-0.0738361 -0.0361618 0.996615 0.000102342
-0.0729713 -0.0357459 0.996693 0.00105185
-0.0712018 -0.036623 0.996789 0
-0.0707497 -0.0357143 0.996855 0
-0.0678724 -0.036639 0.997021 0
-0.0679739 -0.0401705 0.996878 0
0.0883085 -0.0218248 0.995854 0.00479338
0.0933915 -0.0214484 0.995398 0.00703381
-0.124014 -0.00723194 0.992254 0.00714384
-0.123175 -0.00626727 0.992365 0.0129218
-0.11595 -0.00961813 0.993208 0.00637637
-0.112761 -0.0102521 0.993569 0.00872294
-0.109529 -0.00931988 0.99394 0.00808258
-0.103254 -0.0103115 0.994602 0.0087999
-0.0988754 -0.0156354 0.994977 0.0073394
-0.0942823 -0.0186836 0.99537 0.00474234
-0.0926245 -0.0181485 0.995536 0.000833964
-0.091485 -0.0214524 0.995575 0.000470189
-0.0902344 -0.0254628 0.995595 0.00177213
-0.0872258 -0.0286515 0.995776 0
-0.0872814 -0.0281798 0.995785 7.4183e-05
-0.0872705 -0.029001 0.995762 0.00148246
-0.0858007 -0.0318873 0.995802 0.00315335
-0.0820297 -0.0324152 0.996103 0.00173341
-0.0807631 -0.0338201 0.996159 0.00261566
-0.0758204 -0.0368612 0.99644 0
-0.0738823 -0.0364513 0.996601 0
-0.0719329 -0.0348905 0.996799 0
-0.0717749 -0.036743 0.996744 0
-0.0712196 -0.0372936 0.996763 0
-0.0650146 -0.0393587 0.997108 0
0.0746699 -0.0222349 0.99696 0
-0.127848 -0.00771501 0.991764 0.0089981
-0.120496 -0.00697783 0.992689 0.00689455
-0.116833 -0.01237 0.993075 0.00610556
-0.115907 -0.0086859 0.993222 0.00756311
-0.112142 -0.00863302 0.993655 0.0112875
-0.104707 -0.0142219 0.994401 0.0093975
-0.0979033 -0.0180994 0.995031 0.00381502
-0.094064 -0.0192562 0.99538 0.00284711
-0.0912798 -0.0228306 0.995564 0.0017851
-0.0920632 -0.0251392 0.995436 0.00289312
-0.0894872 -0.027841 0.995599 0.00185481
-0.0898698 -0.0255678 0.995625 0.000351087
-0.0902391 -0.0258125 0.995586 0.00532289
-0.089868 -0.0268036 0.995593 0.0066779
-0.0890013 -0.0274985 0.995652 0.00944883
-0.0821062 -0.031787 0.996117 0
-0.0810396 -0.0362869 0.99605 0
-0.0780333 -0.0344095 0.996357 0.00349292
-0.0747919 -0.0380685 0.996472 0.000181964
-0.0726189 -0.0375146 0.996654 0
-0.0724224 -0.0369492 0.996689 0
-0.0698672 -0.0397577 0.996764 0
0.0764596 -0.0226154 0.996816 0
0.0926177 -0.0188875 0.995523 0
-0.130101 -0.00478431 0.991489 0.0107698
-0.121288 -0.0111843 0.992554 0.00274059
-0.12008 -0.0129874 0.992679 0.00766154
-0.116118 -0.0143182 0.993132 0.00369425
-0.113991 -0.0126936 0.993401 0.00404269
-0.111277 -0.00993268 0.99374 0.00757609
-0.104673 -0.0114566 0.994441 0.00829565
-0.0959949 -0.0167645 0.995241 0.0028303
-0.0957171 -0.0188317 0.99523 0.00544879
-0.0951476 -0.0195809 0.995271 0.00434608
-0.0925957 -0.0235131 0.995426 0.0039325
-0.0889701 -0.0232273 0.995763 0.00348324
-0.0932089 -0.0241694 0.995353 0.00791322
-0.089838 -0.0238021 0.995672 0.00542468
-0.0915963 -0.0261125 0.995454 0.00713527
-0.0865386 -0.0299399 0.995799 0.00500852
-0.0836332 -0.0326259 0.995962 0.000942301
-0.0815165 -0.0313077 0.99618 0
-0.0752718 -0.0344663 0.996567 0
-0.0739715 -0.0375231 0.996554 0
-0.0727059 -0.0367039 0.996678 0
-0.0709419 -0.0360632 0.996828 0
-0.0694601 -0.0363603 0.996922 4.85104e-05
-0.0658709 -0.0365108 0.99716 0
0.0793405 -0.0209897 0.996627 0
0.09592 -0.0186788 0.995214 0
-0.126516 -0.00766372 0.991935 0.0018507
-0.122531 -0.0110079 0.992404 0.0028805
-0.12271 -0.00991164 0.992393 0.0103891
-0.120389 -0.00966998 0.99268 0.0104262
-0.115966 -0.0104001 0.993199 0.00728178
-0.111993 -0.00919671 0.993666 0.00923911
-0.105685 -0.0110744 0.994338 0.00670537
-0.0994668 -0.0178737 0.99488 0.00712587
-0.0984215 -0.0159613 0.995017 0.00539712
-0.0945116 -0.0191481 0.99534 0.00456423
-0.0910784 -0.0212278 0.995617 0.00612758
-0.0915916 -0.022392 0.995545 0.00598039
-0.0910488 -0.0232446 0.995575 0.00833246
-0.0890851 -0.025259 0.995704 0.00546652
-0.0857225 -0.0261325 0.995976 0.00286433
-0.0858576 -0.0268432 0.995946 0.00532746
-0.0810471 -0.0371949 0.996016 0
-0.0758581 -0.0369663 0.996433 0
-0.0739811 -0.0417735 0.996384 0
-0.0740978 -0.037194 0.996557 0.000330867
-0.0718182 -0.0394176 0.996639 0
-0.0695691 -0.0357442 0.996937 0
-0.0665561 -0.035466 0.997152 0
0.0812493 -0.0186281 0.99652 0
-0.126795 -0.0116143 0.991861 0.00252454
-0.124708 -0.0109193 0.992133 0.00486742
-0.126168 -0.00848708 0.991973 0.0119877
-0.119862 -0.0111366 0.992728 0.00793251
-0.116954 -0.0127434 0.993056 0.00987245
-0.113166 -0.00949886 0.993531 0.0145533
-0.113359 -0.00767612 0.993524 0.0142384
-0.105616 -0.0133092 0.994318 0.0144881
-0.100417 -0.0190427 0.994763 0.00949027
-0.0961455 -0.0184624 0.995196 0.0048578
-0.0935938 -0.0177013 0.995453 0.00333829
-0.0976078 -0.0161054 0.995095 0.00914402
-0.0918428 -0.019378 0.995585 0.00713512
-0.0906695 -0.0209785 0.99566 0.00618805
-0.0896961 -0.0225105 0.995715 0.00973886
-0.0884609 -0.0247035 0.995773 0.00495479
-0.0854161 -0.0256651 0.996015 0.00324636
-0.082702 -0.0297562 0.99613 0.00228983
-0.0760447 -0.0371606 0.996412 0
-0.0722346 -0.0416759 0.996517 0
-0.0716494 -0.0418449 0.996552 0
-0.0704119 -0.0406048 0.996691 0
-0.0708562 -0.0381172 0.996758 0.00126019
0.0847837 -0.017778 0.996241 0
0.100678 -0.0188514 0.99474 0
-0.126108 -0.00971324 0.991969 0.00973946
-0.125191 -0.0129829 0.992048 0.00871152
-0.121102 -0.00879635 0.992601 0.0117383
-0.119316 -0.0110278 0.992795 0.016325
-0.120624 -0.0083577 0.992663 0.0203337
-0.119802 -0.00823437 0.992764 0.0227353
-0.108203 -0.015768 0.994004 0.0107208
-0.102247 -0.0196086 0.994566 0.00802363
-0.096865 -0.0215179 0.995065 0.0029234
-0.0967311 -0.0183223 0.995142 0.00386118
-0.0979937 -0.0143918 0.995083 0.00885858
-0.0928424 -0.017125 0.995534 0.00616324
-0.0926375 -0.0167247 0.995559 0.010443
-0.0910096 -0.0196741 0.995656 0.00905927
-0.0884533 -0.0237478 0.995797 0.00205983
-0.0876835 -0.0232563 0.995877 0.00670521
-0.0841757 -0.026742 0.996092 0.00416289
-0.0763078 -0.0352103 0.996462 0
-0.0693124 -0.0399595 0.996794 0
-0.0695979 -0.0370428 0.996887 0
-0.0699724 -0.0377334 0.996835 0
0.0868109 -0.0167078 0.996085 0
-0.129524 -0.00856236 0.991539 0.00978633
-0.127937 -0.00891547 0.991742 0.0140564
-0.124282 -0.00744706 0.992219 0.0152517
-0.125926 -0.00774936 0.992009 0.020461
-0.127088 -0.00861275 0.991854 0.023455
-0.125911 -0.00923625 0.991999 0.0249044
-0.110227 -0.0177688 0.993748 0.00781397
-0.104527 -0.0224431 0.994269 0.00752268
-0.101256 -0.0214056 0.99463 0.00752235
-0.100042 -0.0149696 0.994871 0.00979453
-0.0975302 -0.0174427 0.99508 0.00704039
-0.0962327 -0.0123548 0.995282 0.0119307
-0.0923887 -0.017367 0.995571 0.00869864
-0.0912365 -0.0197651 0.995633 0.00903206
-0.089045 -0.0194391 0.995838 0.00530715
-0.0868496 -0.0216724 0.995986 0.00735935
-0.0831639 -0.0264192 0.996186 0.0050419
-0.0716508 -0.0341897 0.996844 0.00260294
0.0825439 -0.0125887 0.996508 0
-0.132322 -0.00692399 0.991183 0.0069861
-0.131365 -0.00756549 0.991305 0.00955657
-0.130044 -0.00549242 0.991493 0.0144443
-0.127919 -0.0121779 0.99171 0.0165554
-0.129552 -0.00988512 0.991523 0.0220452
-0.131043 -0.009682 0.991329 0.0281557
-0.12712 -0.0114261 0.991821 0.0260629
-0.116577 -0.0146475 0.993074 0.0163865
-0.108863 -0.0167763 0.993915 0.0121988
-0.104888 -0.0163878 0.994349 0.00910368
-0.104399 -0.0177826 0.994376 0.0107072
-0.102843 -0.01817 0.994532 0.0119876
-0.0990389 -0.0129184 0.995 0.0132532
-0.0951972 -0.0147527 0.995349 0.0110559
-0.094057 -0.021188 0.995341 0.00894763
-0.0914797 -0.0196621 0.995613 0.00806717
-0.0873635 -0.021536 0.995944 0.00767615
-0.0831761 -0.0257383 0.996202 0.00347229
-0.0749249 -0.0365241 0.99652 0
0.0825088 -0.0164314 0.996455 0
-0.130116 -0.0101755 0.991446 0.00205514
-0.132158 -0.00956509 0.991183 0.00781514
-0.130859 -0.0075045 0.991373 0.0127482
-0.13019 -0.00930763 0.991446 0.0175205
-0.129671 -0.0126727 0.991476 0.0212576
-0.128227 -0.0113416 0.99168 0.0234148
-0.122697 -0.0136671 0.99235 0.0230238
-0.119055 -0.010808 0.992829 0.020855
-0.113488 -0.012569 0.99346 0.0183931
-0.107468 -0.0173316 0.994057 0.0155155
-0.106174 -0.0137307 0.994253 0.0151149
-0.104576 -0.0160364 0.994388 0.0158103
-0.101266 -0.0212756 0.994632 0.0122766
-0.0986319 -0.0204534 0.994914 0.0113998
-0.0960313 -0.0203853 0.99517 0.0110201
-0.0932216 -0.0203653 0.995437 0.010342
-0.0866972 -0.0243612 0.995937 0.00404461
-0.0812741 -0.0344945 0.996095 0
-0.0713093 -0.0400082 0.996652 0
-0.0697236 -0.0395153 0.996783 0
0.0848085 -0.0149786 0.996285 0
-0.13082 -0.013626 0.991313 0
-0.13149 -0.010757 0.991259 0.00349506
-0.127225 -0.0142149 0.991772 0.00949995
-0.129252 -0.0112612 0.991548 0.0126316
-0.13127 -0.0105582 0.99129 0.018905
-0.129363 -0.0128994 0.991513 0.0197691
-0.124786 -0.0130692 0.992098 0.0219782
-0.118627 -0.0147 0.99283 0.0195097
-0.118839 -0.0127457 0.992832 0.0244019
-0.112106 -0.0179735 0.993534 0.0195457
-0.112021 -0.0170615 0.993559 0.0164288
-0.1054 -0.0220102 0.994186 0.0132727
-0.102792 -0.0262978 0.994355 0.0146648
-0.101325 -0.0215055 0.994621 0.015186
-0.0972813 -0.01936 0.995069 0.0122867
-0.0942735 -0.0224165 0.995294 0.0132511
-0.0878196 -0.0250852 0.99582 0.00635755
-0.0809869 -0.0314289 0.99622 0
0.0822745 -0.0153899 0.996491 0
-0.125357 -0.0200599 0.991909 0
-0.125135 -0.0175434 0.991985 0.0011099
-0.128137 -0.0152233 0.99164 0.00656514
-0.127846 -0.0167221 0.991653 0.00908255
-0.129555 -0.0154307 0.991452 0.0135401
-0.128454 -0.0138761 0.991618 0.015345
-0.122749 -0.0150512 0.992324 0.0144785
-0.118576 -0.019313 0.992757 0.0170643
-0.116067 -0.0151594 0.993126 0.0199847
-0.113813 -0.0142514 0.9934 0.0181226
-0.111169 -0.0188556 0.993623 0.0132067
-0.110428 -0.0234041 0.993608 0.0130002
-0.104869 -0.0220469 0.994242 0.0152143
-0.101809 -0.0210403 0.994581 0.0159852
-0.100419 -0.0242941 0.994649 0.0136157
-0.0941723 -0.0292029 0.995127 0.010523
-0.0874206 -0.0272072 0.9958 0.00629806
-0.0812213 -0.0332902 0.99614 0
0.0817823 -0.0159455 0.996523 0
-0.124297 -0.0207522 0.992028 0
-0.122619 -0.0247917 0.992144 0
-0.122792 -0.0210495 0.992209 0
-0.123295 -0.0226763 0.992111 0.00103963
-0.12216 -0.0216088 0.992275 0.00332946
-0.125803 -0.0174463 0.991902 0.0107074
-0.12137 -0.0206259 0.992393 0.0118704
-0.118789 -0.0190471 0.992737 0.0137292
-0.113521 -0.0174584 0.993382 0.0135711
-0.114756 -0.0190428 0.993211 0.0185042
-0.11423 -0.0189392 0.993274 0.0177364
-0.107537 -0.0189752 0.99402 0.016877
-0.1047 -0.0232825 0.994231 0.0147754
-0.102609 -0.0246105 0.994417 0.0128231
-0.0961407 -0.0253188 0.995046 0.00900566
-0.088683 -0.0269011 0.995697 0.0020627
0.0836671 -0.0178274 0.996334 0
-0.128616 -0.020668 0.991479 0
-0.121205 -0.0293241 0.992194 0
-0.119314 -0.0301502 0.992399 0
-0.119243 -0.029025 0.992441 0
-0.120176 -0.0290146 0.992329 0
-0.120918 -0.0245516 0.992359 0
-0.120136 -0.024561 0.992454 0
-0.119581 -0.0202952 0.992617 0.00375826
-0.117356 -0.0230492 0.992822 0.00819971
-0.112479 -0.0206807 0.993439 0.00506715
-0.113094 -0.0219407 0.993342 0.011425
-0.11424 -0.0192814 0.993266 0.0162415
-0.108879 -0.0223766 0.993803 0.0176227
-0.098345 -0.0282065 0.994753 0.0101222
-0.092915 -0.0320859 0.995157 0.00313753
-0.0902956 -0.0326569 0.995379 0.00378097
0.0854809 -0.0161151 0.996209 0.00544362
-0.128597 -0.0215306 0.991463 0
-0.123853 -0.0272597 0.991926 0
-0.120378 -0.0298012 0.992281 0
-0.118086 -0.0308429 0.992524 0
-0.115868 -0.0330111 0.992716 0
-0.119535 -0.0296087 0.992388 0
-0.119256 -0.0260684 0.992521 0
-0.116174 -0.0253273 0.992906 0
-0.113206 -0.0268091 0.99321 0.00209655
-0.10951 -0.0241211 0.993693 0
-0.109876 -0.0268909 0.993581 0.00267644
-0.106877 -0.0281398 0.993874 0.00152338
-0.106451 -0.028101 0.993921 0.00284338
-0.102035 -0.0315654 0.99428 0.00918555
-0.0898264 -0.0302669 0.995497 0.00738042
0.0849647 -0.0145889 0.996277 0.00981641
-0.126004 -0.0213663 0.9918 0
-0.123298 -0.0275967 0.991986 0
-0.119747 -0.0305813 0.992333 0
-0.120939 -0.0292777 0.992228 0
-0.118047 -0.029294 0.992576 0
-0.114213 -0.0326486 0.99292 0
-0.115022 -0.0296254 0.992921 0
-0.113215 -0.0307874 0.993093 0
-0.113183 -0.0257041 0.993242 0.0022921
-0.109506 -0.0289535 0.993564 0
-0.108955 -0.0308236 0.993569 0
-0.107355 -0.0314188 0.993724 0
-0.106847 -0.0320745 0.993758 0.000618982
-0.0988987 -0.0363952 0.994432 0
-0.0983631 -0.0342302 0.994562 0.00379696
-0.0921444 -0.0341467 0.99516 0.00599275
0.0847746 -0.0153806 0.996281 0.00831335
-0.128984 -0.0220806 0.991401 0
-0.121751 -0.0278172 0.992171 0
-0.117759 -0.0303763 0.992578 0
-0.119374 -0.029523 0.99241 0
-0.114444 -0.0342602 0.992839 0
-0.114846 -0.0337352 0.99281 0
-0.112574 -0.0327032 0.993105 0
-0.11061 -0.0355636 0.993227 0
-0.110249 -0.0304594 0.993437 0
-0.109051 -0.0290211 0.993612 0
-0.104147 -0.034833 0.993952 0
-0.0984303 -0.0408443 0.994305 0
0.0776853 -0.0159518 0.99685 0.00861447
-0.130924 -0.0228682 0.991129 0
-0.127607 -0.0275641 0.991442 0
-0.123217 -0.0300576 0.991924 0
-0.121178 -0.0333694 0.99207 0
-0.116925 -0.0350226 0.992523 0
-0.112038 -0.0377385 0.992987 0
-0.110991 -0.040516 0.992995 0
-0.111352 -0.0368511 0.993098 0
-0.112092 -0.0352679 0.993072 0
-0.108968 -0.0332431 0.993489 0
-0.111117 -0.0320808 0.993289 0
-0.110872 -0.032315 0.993309 0
-0.111286 -0.033213 0.993233 0
-0.104507 -0.0356127 0.993886 0
0.0736876 -0.0119642 0.99721 0.0127933
0.0892786 -0.0143915 0.995903 0.00935929
-0.134913 -0.0225631 0.990601 0
-0.130527 -0.025868 0.991107 0
-0.125826 -0.0281691 0.991652 0
-0.123515 -0.0331207 0.99179 0
-0.119603 -0.0338648 0.992244 0
-0.118111 -0.0343678 0.992405 0
-0.114823 -0.0411246 0.992534 0
-0.11612 -0.0386236 0.992484 0
-0.113236 -0.0367425 0.992889 0
-0.111642 -0.0360038 0.993096 0
-0.113367 -0.0343235 0.99296 0
-0.111786 -0.0371651 0.993037 0
-0.109613 -0.0380193 0.993247 0
0.0771749 -0.0124513 0.99694 0.0133338
0.0918125 -0.0130519 0.995691 0.0132161
0.0968178 -0.0132559 0.995214 0.012552
-0.133191 -0.0261821 0.990745 0
-0.129968 -0.0307345 0.991042 0
-0.122864 -0.0319158 0.99191 0
-0.124989 -0.0289175 0.991737 0
-0.12151 -0.0318167 0.99208 0
-0.120598 -0.033801 0.992126 0
-0.118406 -0.0328766 0.992421 0
-0.117763 -0.036037 0.992388 0
-0.114581 -0.0369674 0.992726 0
-0.113669 -0.0351731 0.992896 0
-0.112109 -0.0358604 0.993049 0
-0.110525 -0.0370705 0.993182 0
0.100322 -0.0135448 0.994863 0.0141967
0.106305 -0.0113748 0.994269 0.0112542
-0.135927 -0.0214525 0.990487 0
-0.132257 -0.0258019 0.99088 0
-0.128899 -0.0286705 0.991243 0
-0.124568 -0.0337835 0.991636 0
-0.12483 -0.0348817 0.991565 0
-0.124388 -0.0305541 0.991763 0.000433772
-0.118568 -0.0322826 0.992421 0
-0.117612 -0.0353171 0.992431 0
-0.119218 -0.0337662 0.992294 0.0057562
-0.115066 -0.0353145 0.99273 0.00165617
-0.115261 -0.0332756 0.992778 0.00307029
-0.114684 -0.0355723 0.992765 0
0.0996694 -0.0119988 0.994948 0.0191724
0.10699 -0.0127469 0.994178 0.0153651
-0.140164 -0.025156 0.989809 0
-0.135328 -0.02855 0.99039 0
-0.132534 -0.0304759 0.99071 0.00073847
-0.128456 -0.0316919 0.991209 0.00121638
-0.123382 -0.0352131 0.991734 0
-0.119238 -0.0360781 0.99221 0
-0.115405 -0.0383788 0.992577 0.00177806
0.0958682 -0.0152192 0.995278 0.0210993
0.101783 -0.0152879 0.994689 0.0218174
-0.143402 -0.0274864 0.989283 0
-0.137659 -0.0307027 0.990004 0.000799733
-0.132417 -0.0284653 0.990785 0.00248487
-0.127307 -0.0341503 0.991275 0
-0.124171 -0.0351556 0.991638 0
-0.126134 -0.0321494 0.991492 0
-0.124864 -0.0362138 0.991513 0
-0.116382 -0.0385026 0.992458 0.00370562
0.101578 -0.0148471 0.994717 0.0113406
0.106278 -0.01408 0.994237 0.0103964
-0.149001 -0.02312 0.988567 0.00267661
-0.140775 -0.0254934 0.989713 0.00529499
-0.135507 -0.0285351 0.990365 0.00309334
-0.130403 -0.0291602 0.991032 0
-0.127315 -0.0305205 0.991393 0
0.101399 -0.0188414 0.994667 0.00454549
0.110839 -0.0199744 0.993638 0.00197438
0.121096 -0.0180316 0.992477 0.00567601
-0.146439 -0.0284309 0.988811 0
-0.141507 -0.0281947 0.989536 0.00261726
-0.145354 -0.0235168 0.9891 0.00620839
-0.141423 -0.0258915 0.989611 0.00291042
-0.135019 -0.0270759 0.990473 0
-0.132057 -0.0287905 0.990824 0
0.106169 -0.0164689 0.994212 0.00228282
0.114328 -0.0180971 0.993278 0.00377025
-0.156075 -0.0268323 0.987381 0.008621
-0.155677 -0.0254012 0.987481 0.0102927
-0.15105 -0.0210959 0.988301 0.0107181
-0.142063 -0.0200362 0.989655 0.00435075
-0.140829 -0.0226053 0.989776 0.00486745
-0.140408 -0.0233675 0.989818 0.00519688
0.112313 -0.0130801 0.993587 0.0020655
0.120064 -0.015493 0.992645 0.00532036
-0.164096 -0.0231993 0.986172 0.0131147
-0.157282 -0.0229128 0.987288 0.00888984
-0.153186 -0.0195908 0.988003 0.0078145
-0.1516 -0.0176866 0.988284 0.0117488
-0.145988 -0.0213413 0.989056 0.00990879
-0.145267 -0.0199851 0.989191 0.0124009
0.112261 -0.013221 0.993591 0.0011129
0.121643 -0.0138975 0.992477 0.000982552
0.12835 -0.0149854 0.991616 0.0039011
-0.178257 -0.016495 0.983846 0.0145104
-0.174827 -0.0148346 0.984487 0.0168604
-0.163511 -0.0219141 0.986298 0.0108756
-0.162638 -0.0205143 0.986473 0.0100002
-0.158023 -0.0161678 0.987303 0.014221
0.120835 -0.0135315 0.99258 0
0.125324 -0.0157071 0.991992 0
-0.172067 -0.0182161 0.984917 0.0057971
-0.169097 -0.0182333 0.985431 0.00880523
-0.163424 -0.0196937 0.986359 0.00883961
-0.159021 -0.0183564 0.987105 0.00864694
-0.154797 -0.0151026 0.987831 0.00687588
0.125643 -0.0106443 0.992018 0
0.1268 -0.00477272 0.991917 0.00270144
-0.172735 -0.0163363 0.984833 0.00328439
-0.172184 -0.0145172 0.984958 0.00548527
-0.162778 -0.0187155 0.986485 0.00168856
-0.1647 -0.0141332 0.986242 0.00773596
-0.164377 -0.0134452 0.986306 0.0120792
-0.156819 -0.0172536 0.987477 0.00611776
0.139192 0.0029268 0.990261 0.011022
0.142422 0.00108017 0.989805 0.00821877
-0.173496 -0.0161628 0.984702 0.00404589
-0.175465 -0.0114254 0.984419 0.00903364
-0.166167 -0.0145452 0.98599 0.00364891
-0.164336 -0.0161319 0.986273 0.0104617
-0.156848 -0.0196811 0.987427 0.00630986
0.138326 0.00302559 0.990382 0.00840599
-0.183457 -0.0125467 0.982948 0.00779294
-0.182279 -0.0108546 0.983187 0.0107881
-0.170436 -0.0135141 0.985276 0.00704096
-0.163497 -0.0170925 0.986396 0.00618289
-0.156857 -0.0170425 0.987474 0.00186582
0.139599 0.00354395 0.990202 0.0101541
-0.180521 -0.0186829 0.983394 0.00373622
-0.183882 -0.0118699 0.982877 0.00916672
-0.169521 -0.0174809 0.985372 0.0011261
-0.162021 -0.0167603 0.986645 0.0027669
-0.154522 -0.0206901 0.987773 0
0.129878 0.00387891 0.991522 0.0109287
0.143387 0.00860311 0.989629 0.012874
-0.174525 -0.0237001 0.984367 0
-0.172756 -0.0184406 0.984792 0.000616061
-0.164129 -0.0237179 0.986154 0
-0.161877 -0.0204253 0.986599 0
-0.163326 -0.0188468 0.986392 0.00806597
0.129667 0.00227813 0.991555 0.0127011
-0.175975 -0.0231608 0.984122 0
-0.168669 -0.0238147 0.985385 0
-0.164613 -0.0252698 0.986034 0
-0.163439 -0.0206665 0.986337 0.00434961
-0.161022 -0.0233681 0.986674 0.00571826
0.125621 0.00418954 0.992069 0.0112709
-0.173752 -0.0232582 0.984515 0
-0.169735 -0.0265264 0.985133 0
-0.168662 -0.024871 0.98536 0.00596201
-0.171559 -0.01833 0.985003 0.0112786
-0.166775 -0.0208441 0.985775 0.00972893
0.118976 0.00216679 0.992895 0.00380442
-0.175175 -0.0243157 0.984237 0
-0.171439 -0.0283125 0.984788 0.00024081
-0.175326 -0.0230567 0.98424 0.00764363
-0.171363 -0.0239653 0.984916 0.00898808
-0.176573 -0.0258416 0.983948 0
-0.175957 -0.0261012 0.984052 0.000785335
-0.170316 -0.028318 0.984982 0.000370471
-0.165982 -0.0281741 0.985726 0.00467773
-0.173287 -0.034934 0.984252 0
-0.175091 -0.0334172 0.983985 0
-0.170291 -0.0354528 0.984756 0
-0.162056 -0.0389681 0.986012 0
-0.179654 -0.0281698 0.983326 0
-0.178261 -0.0275932 0.983596 0
-0.171184 -0.0308977 0.984754 0
-0.164893 -0.0346396 0.985703 0
-0.157772 -0.0429171 0.986543 0
-0.181624 -0.0270959 0.982995 0
-0.185609 -0.0230497 0.982353 0.00616979
-0.178152 -0.0277559 0.983611 0.00317164
-0.169805 -0.03616 0.984814 0.00167209
-0.166005 -0.0348359 0.985509 0.00253745
-0.182444 -0.0282328 0.982811 0
-0.176123 -0.0335709 0.983796 0.000292905
-0.175836 -0.0332478 0.983858 0.00121568
-0.169794 -0.0356739 0.984834 0.00231227
-0.171778 -0.0322897 0.984606 0.00640785
-0.175777 -0.0326095 0.98389 0
-0.175662 -0.029562 0.984007 0.00132249
-0.176918 -0.027431 0.983843 0.00267787
-0.170144 -0.0297708 0.984969 0.0010758
0.117488 0.00693939 0.99305 0
-0.182262 -0.025922 0.982908 0.000215629
-0.178423 -0.026495 0.983597 0.00116215
-0.170537 -0.0291371 0.98492 0.00056554
-0.167718 -0.0292473 0.985401 0
-0.160623 -0.0345751 0.98641 0
0.118251 0.00954291 0.992938 0
-0.181808 -0.0232872 0.983058 0
-0.178366 -0.0250659 0.983645 0
-0.167853 -0.0294554 0.985372 0
-0.168292 -0.0290305 0.98531 0
0.122171 0.0119415 0.992437 0.000408175
-0.18778 -0.0144228 0.982105 0.000660844
-0.180328 -0.0189543 0.983424 0
-0.173315 -0.0232208 0.984593 0
-0.171355 -0.0203767 0.984999 0
-0.168369 -0.0234921 0.985444 0.00137238
0.128605 0.0168459 0.991553 0
-0.193664 -0.00645049 0.981047 0.00153677
-0.192451 -0.00658889 0.981284 0.00138921
-0.180762 -0.0186077 0.983351 0
-0.169736 -0.0274578 0.985107 0
-0.170365 -0.0251182 0.985061 0.00151058
-0.168249 -0.0247413 0.985434 0.00317072
0.133747 0.0221472 0.990768 0
-0.196036 -0.00272944 0.980593 0.000881194
-0.196945 -0.00432476 0.980405 0.00240733
-0.182438 -0.0154391 0.983096 0
-0.177624 -0.0173871 0.983945 0
-0.201927 0.000240369 0.979401 0.00273257
-0.196688 -0.00398556 0.980458 0
-0.18514 -0.0148526 0.9826 0
-0.183753 -0.00965972 0.982925 0
0.134703 0.0194344 0.990695 0.0097457
-0.195097 -0.0104268 0.980729 0
-0.193882 -0.0107408 0.980966 0
-0.196627 -0.00273633 0.980475 0.00346339
-0.188499 -0.00583643 0.982056 0.00274617
0.131058 0.0180163 0.991211 0.00418663
-0.195561 -0.0116802 0.980622 0
-0.198458 -0.00679241 0.980086 0.00174463
-0.196706 -0.00313562 0.980457 0.00373342
-0.18798 -0.00739516 0.982145 0.00100728
0.135713 0.0259875 0.990407 0.00963763
-0.194635 -0.0115551 0.980808 0
-0.192772 -0.00792362 0.981211 0.00227162
-0.1862 -0.0135095 0.982419 0.00109838
0.134372 0.027386 0.990552 0.0062392
0.139261 0.0284723 0.989846 0.00552267
-0.195539 -0.00711685 0.98067 0.00306345
-0.189164 -0.0112557 0.981881 0.00223308
0.133026 0.0251183 0.990794 0.00106797
0.137036 0.0258938 0.990228 0.00147906
-0.195158 -0.00904986 0.98073 0.00228244
-0.188607 -0.0123394 0.981975 0.00230111
-0.181661 -0.0138269 0.983264 0
0.130056 0.0231514 0.991236 0
0.137605 0.027392 0.990108 0
-0.196903 -0.00661545 0.980401 0
-0.191283 -0.00711155 0.981509 0
-0.189747 0.000818258 0.981833 5.04132e-05
-0.186292 0.000851763 0.982494 0.000639798
0.129596 0.0272637 0.991192 0
0.138582 0.0295725 0.989909 0
-0.201636 0.00926123 0.979417 0.000994338
-0.193648 0.00682648 0.981047 0
-0.187501 0.0024343 0.982261 0
-0.184476 -3.27629e-05 0.982837 0.0032148
0.129961 0.0292215 0.991088 0
0.137452 0.0346771 0.989901 0
-0.193409 0.00889989 0.981078 0.000344153
-0.187993 0.00104922 0.98217 0.00286278
-0.181084 -0.000887159 0.983467 0.00283403
0.132037 0.0361661 0.990585 0.00308056
-0.180138 0.0017943 0.98364 0.00137171
-0.177601 0.00190083 0.984101 0.00613228
0.127395 0.0400997 0.991041 0.00162522
0.132323 0.0400864 0.990396 0.00247837
0.138559 0.0404097 0.989529 0.000472655
-0.184608 0.0120245 0.982739 0.00391402
-0.178079 0.00941995 0.983971 0.00432432
0.139763 0.0505118 0.988896 0.00582197
0.140704 0.0492436 0.988826 0.00339974
-0.175264 0.00813978 0.984488 0.00140513
-0.170683 0.00963427 0.985279 0.00180765
0.149394 0.0566216 0.987155 0.00594888
-0.179003 0.0157169 0.983723 0.00326942
-0.17465 0.0186434 0.984454 4.24721e-05
0.137858 0.0565882 0.988834 0.00513795
-0.174181 0.0166864 0.984572 0.00185124
0.136818 0.05876 0.988852 0
-0.179002 0.0267319 0.983485 0.00440788
0.124387 0.0620455 0.990292 0
-0.182526 0.0290565 0.982772 0.00735558
-0.17777 0.0380121 0.983338 0.00440109
0.104573 0.07216 0.991896 0.00444918
0.107606 0.070537 0.991688 0
0.117939 0.0695445 0.990583 0.00385275
0.121012 0.0696112 0.990207 0.00463094
0.128671 0.0708786 0.989151 0.00390134
-0.174134 0.0374095 0.984011 0
0.10459 0.0683069 0.992167 0.00471326
0.110113 0.0731001 0.991227 0.0017008
0.115336 0.0754284 0.990459 0.00245342
0.119762 0.0741168 0.990032 0.00666505
0.121216 0.0735109 0.9899 0.00545672
0.13052 0.0793076 0.988269 0.00390372
-0.173385 0.0376355 0.984135 0.0011215
0.105129 0.0682437 0.992114 0.0033828
