# .PCD v0.7 - Point Cloud Data file format
VERSION 0.7
FIELDS x y z
SIZE 4 4 4
TYPE F F F
COUNT 1 1 1
WIDTH 1411
HEIGHT 1
VIEWPOINT 0 0 0 1 0 0 0
POINTS 1411
DATA ascii
-0.049339503 0.1395895 -0.22411701
-0.049153998 0.13954701 -0.224105
-0.048366334 0.139576 -0.22412433
-0.048235603 0.1395832 -0.22413941
-0.048063248 0.1395945 -0.224142
-0.047926832 0.139585 -0.22413266
-0.047679499 0.13957199 -0.22416401
-0.047418498 0.13956 -0.224233
-0.051516 0.139737 -0.22425
-0.051013 0.139751 -0.2242485
-0.050929002 0.1397455 -0.22422475
-0.050847001 0.13973451 -0.2242105
-0.050546497 0.139722 -0.22419751
-0.050329249 0.13971674 -0.22420101
-0.050204001 0.139704 -0.224191
-0.050098002 0.1397015 -0.22417399
-0.049934 0.13972467 -0.22414233
-0.049603499 0.13973999 -0.22410449
-0.049427003 0.1397355 -0.22411251
-0.0493345 0.13973001 -0.224107
-0.048359998 0.139751 -0.224116
-0.048221502 0.139743 -0.22412224
-0.048058249 0.139734 -0.22413474
-0.047948502 0.139727 -0.22413126
-0.047674999 0.139713 -0.22415
-0.0474145 0.1397 -0.22420301
-0.051008001 0.13989049 -0.224235
-0.050924003 0.1398855 -0.22421576
-0.050843 0.13987449 -0.224177
-0.050540999 0.139862 -0.22419
-0.050323252 0.13985699 -0.2242085
-0.050197002 0.139879 -0.22419567
-0.050090998 0.13987599 -0.224169
-0.049927 0.1399 -0.22415301
-0.049598999 0.139846 -0.224105
-0.0494215 0.13987499 -0.224114
-0.049329497 0.13987 -0.22410551
-0.048356999 0.139856 -0.22410101
-0.048262 0.139851 -0.22410899
-0.048053503 0.1398735 -0.22411475
-0.047943503 0.1398665 -0.22412077
-0.047669999 0.139852 -0.2241375
-0.047408666 0.13987434 -0.22418433
-0.051002502 0.14003101 -0.22423899
-0.050918248 0.1400255 -0.224218
-0.050837502 0.1400135 -0.2241765
-0.050536498 0.140002 -0.2241735
-0.050309606 0.14001679 -0.2241914
-0.050191 0.140054 -0.22419101
-0.050084002 0.14005101 -0.2241745
-0.049921997 0.140039 -0.22413951
-0.049417999 0.139979 -0.22410899
-0.047940001 0.13997149 -0.22411001
-0.047665998 0.13999149 -0.224113
-0.047403 0.14004999 -0.22415701
-0.047127001 0.140038 -0.224232
-0.050941829 0.14016666 -0.22420917
-0.050832003 0.1401535 -0.224178
-0.050530333 0.14017732 -0.22416665
-0.050319601 0.140186 -0.224189
-0.0501865 0.14019451 -0.224163
-0.050079003 0.140192 -0.224162
-0.049916998 0.14017999 -0.22413099
-0.047401 0.140154 -0.224114
-0.047398999 0.14022399 -0.224103
-0.047123 0.14017799 -0.224208
-0.046856001 0.1401975 -0.22424951
-0.050936665 0.14030667 -0.22420067
-0.050825667 0.14032932 -0.22416568
-0.050523497 0.140351 -0.224163
-0.050305251 0.14034626 -0.224187
-0.050181501 0.140333 -0.22415701
-0.050074 0.140331 -0.224159
-0.049911998 0.14031899 -0.22411999
-0.047396 0.140294 -0.22410101
-0.047117501 0.14031801 -0.22420999
-0.046852253 0.14030451 -0.22424051
-0.050922144 0.14046085 -0.22421058
-0.050818 0.140503 -0.224178
-0.050517999 0.14049199 -0.22416499
-0.050300498 0.140486 -0.22417825
-0.050176002 0.14047301 -0.22415951
-0.050068498 0.140471 -0.224154
-0.0499065 0.14046 -0.2241175
-0.047112003 0.140458 -0.2242035
-0.046865143 0.14046028 -0.22423856
-0.050931249 0.1406315 -0.22420512
-0.0508135 0.140645 -0.22416401
-0.050513498 0.140633 -0.22415
-0.050295003 0.14062674 -0.224169
-0.050172001 0.14061451 -0.224131
-0.050062999 0.1406115 -0.224154
-0.0499015 0.14060101 -0.224117
-0.047108002 0.14059749 -0.22417399
-0.046873752 0.14062987 -0.22423014
-0.046746001 0.140614 -0.224246
-0.051200669 0.14077999 -0.224241
-0.050918166 0.14079733 -0.22419667
-0.0508085 0.140784 -0.224153
-0.050507501 0.140772 -0.22415601
-0.050304998 0.140755 -0.22414601
-0.050193667 0.14076833 -0.22413467
-0.050058998 0.140751 -0.22412351
-0.049894672 0.14077467 -0.22411834
-0.047103662 0.14077167 -0.22413433
-0.046861831 0.14079483 -0.22419816
-0.050912831 0.14093699 -0.22419
-0.050803997 0.14092299 -0.2241395
-0.050503001 0.14091149 -0.2241345
-0.0503265 0.140909 -0.22414699
-0.05020225 0.1408985 -0.2241405
-0.050053 0.14092633 -0.22411901
-0.049887501 0.14095101 -0.22413251
-0.0470955 0.140947 -0.2241585
-0.046867795 0.1409288 -0.22420239
-0.046797998 0.140966 -0.224226
-0.051187001 0.14113 -0.22424901
-0.050919197 0.1410708 -0.22418639
-0.050815668 0.141077 -0.22415034
-0.050497502 0.14105099 -0.224135
-0.050321497 0.141049 -0.22414801
-0.050196171 0.14107351 -0.22413318
-0.0500465 0.1411 -0.224107
-0.049883999 0.141054 -0.224122
-0.047089502 0.14108799 -0.22416601
-0.046878003 0.14107849 -0.22422224
-0.046793498 0.14107201 -0.2242405
-0.051500998 0.14127901 -0.22424001
-0.051183499 0.1412355 -0.22423351
-0.050930753 0.14121924 -0.22419
-0.050819751 0.14120801 -0.2241465
-0.050491333 0.14122701 -0.22412734
-0.050314669 0.141225 -0.224145
-0.050189253 0.14124875 -0.22413075
-0.050040998 0.141241 -0.2241095
-0.047083497 0.14122701 -0.224177
-0.046871502 0.14121775 -0.2242385
-0.051773001 0.141432 -0.224245
-0.051624998 0.141427 -0.224245
-0.051496498 0.14138575 -0.22423799
-0.0511785 0.141376 -0.22421899
-0.050926 0.14136 -0.224177
-0.050808601 0.14136779 -0.2241364
-0.050485499 0.14140099 -0.2241165
-0.050307997 0.141399 -0.22414
-0.050184499 0.14138749 -0.22412424
-0.050035499 0.14138 -0.22410801
-0.047077999 0.141369 -0.22417751
-0.051769502 0.14153549 -0.22422999
-0.051659249 0.14153101 -0.22423649
-0.051535003 0.1415275 -0.22424501
-0.051446997 0.14152201 -0.22423801
-0.051174 0.141515 -0.22421101
-0.050920498 0.141499 -0.2241745
-0.050812799 0.1415374 -0.22413778
-0.050479501 0.141542 -0.224123
-0.050302498 0.14153999 -0.224139
-0.0501795 0.1415285 -0.22411601
-0.0500305 0.14152101 -0.22410801
-0.049865 0.141545 -0.224108
-0.0470725 0.141509 -0.224181
-0.051764 0.1416765 -0.224233
-0.051691502 0.141672 -0.2242415
-0.05153 0.14166799 -0.224235
-0.0514425 0.141663 -0.22422099
-0.051169001 0.141656 -0.22419649
-0.050914001 0.1416745 -0.22416799
-0.050801001 0.141698 -0.2241365
-0.050474502 0.141682 -0.22411101
-0.050297998 0.1416795 -0.2241255
-0.050173249 0.1416685 -0.2241255
-0.050024502 0.141661 -0.2241205
-0.049861498 0.14164999 -0.2241085
-0.047899999 0.141725 -0.22410101
-0.047342502 0.14166051 -0.224116
-0.047067501 0.14164901 -0.22417849
-0.051757999 0.141817 -0.224242
-0.051646501 0.141847 -0.22424701
-0.051524498 0.141808 -0.2242395
-0.051436998 0.141803 -0.2242225
-0.051164001 0.14179501 -0.22418699
-0.050906751 0.14184976 -0.22417399
-0.050795749 0.14183725 -0.22413725
-0.050469503 0.14182049 -0.2241075
-0.050292499 0.141819 -0.22412199
-0.05016825 0.14180851 -0.22411799
-0.050019003 0.141801 -0.22411701
-0.049857002 0.141755 -0.224105
-0.048012502 0.141838 -0.22410801
-0.047895499 0.14183 -0.22411051
-0.0473365 0.141801 -0.22413251
-0.047059 0.14182466 -0.22420867
-0.051769663 0.14196901 -0.22423466
-0.051643249 0.14195175 -0.224232
-0.051519997 0.141948 -0.224222
-0.051430333 0.14197767 -0.22421767
-0.051157337 0.14196999 -0.22418535
-0.050901748 0.1419895 -0.224168
-0.05079025 0.1419775 -0.22413826
-0.050462998 0.141996 -0.22410101
-0.050287001 0.141959 -0.22413
-0.050163001 0.14194825 -0.22411326
-0.050014999 0.14190599 -0.224104
-0.048179001 0.141987 -0.224107
-0.0480485 0.1419795 -0.22412275
-0.047913246 0.14197074 -0.22412451
-0.047835 0.141965 -0.224115
-0.047589 0.14195299 -0.2241255
-0.047327999 0.14197633 -0.22416668
-0.047050998 0.14199999 -0.224234
-0.0517985 0.14210001 -0.224244
-0.051689796 0.1420866 -0.22423038
-0.051546395 0.14213841 -0.22423121
-0.0514245 0.142152 -0.224197
-0.051151998 0.14211001 -0.224187
-0.051150002 0.14218 -0.224178
-0.050896503 0.14212951 -0.22416599
-0.050784752 0.1421175 -0.22414225
-0.05046 0.142066 -0.224104
-0.050282001 0.14209899 -0.22411001
-0.0502 0.1420925 -0.224112
-0.048221 0.14212951 -0.22410776
-0.048057001 0.14210866 -0.22413667
-0.047925796 0.1421196 -0.2241396
-0.04781067 0.142116 -0.22412901
-0.047581669 0.14212801 -0.22413701
-0.047320001 0.142152 -0.224186
-0.047045998 0.142105 -0.22424801
-0.051789001 0.142345 -0.22424801
-0.051722251 0.14228749 -0.22422925
-0.051534668 0.14231066 -0.22422467
-0.0514195 0.14229199 -0.2241955
-0.0511465 0.142285 -0.224163
-0.050891999 0.14226875 -0.22415125
-0.050780252 0.142257 -0.22412126
-0.048168 0.142267 -0.22411349
-0.048079498 0.142261 -0.224135
-0.047933165 0.14225318 -0.22413085
-0.04780433 0.14227867 -0.22412366
-0.047574498 0.14230299 -0.224145
-0.047314502 0.14229199 -0.22418651
-0.051785499 0.14245 -0.22424001
-0.051697999 0.142444 -0.22423249
-0.051544499 0.14243899 -0.224208
-0.051413499 0.142432 -0.224199
-0.0511395 0.142425 -0.224187
-0.050886501 0.142409 -0.2241465
-0.0507688 0.14241721 -0.224112
-0.050184999 0.14247701 -0.224107
-0.048161 0.142442 -0.224108
-0.048074499 0.14240101 -0.22413149
-0.047918875 0.14241886 -0.22413538
-0.047794599 0.14243241 -0.2241298
-0.0475685 0.14244351 -0.22415349
-0.047309 0.1424325 -0.22418499
-0.051779501 0.14259 -0.224242
-0.051692747 0.142584 -0.224225
-0.051538501 0.142579 -0.22422226
-0.051408499 0.142572 -0.224199
-0.051133998 0.142565 -0.224188
-0.050881501 0.1425485 -0.2241365
-0.050782003 0.142574 -0.22411551
-0.050182998 0.142547 -0.224103
-0.0481565 0.142547 -0.22412151
-0.048067 0.14257599 -0.22413667
-0.047927141 0.14259085 -0.22416557
-0.047781751 0.14259499 -0.22414899
-0.047562502 0.14258599 -0.22417399
-0.047302999 0.142574 -0.2242115
-0.051688001 0.1427235 -0.224215
-0.051533502 0.142719 -0.22421274
-0.051403001 0.142712 -0.22419199
-0.051128998 0.14270499 -0.22418299
-0.050902665 0.14272399 -0.22414367
-0.050808001 0.14274149 -0.22413367
-0.048153002 0.142652 -0.22411899
-0.048104499 0.14275399 -0.22412875
-0.047912996 0.14274466 -0.22415452
-0.047776751 0.1427345 -0.224145
-0.047557 0.142726 -0.2241735
-0.047296003 0.14271501 -0.224234
-0.051769003 0.14287001 -0.224243
-0.051682997 0.14286301 -0.22420675
-0.051528499 0.142859 -0.22420299
-0.051398002 0.142851 -0.22418299
-0.051122997 0.14287899 -0.22415935
-0.050895497 0.1428995 -0.22415701
-0.050795 0.14288519 -0.22413519
-0.050253 0.142868 -0.22410551
-0.048237 0.14293601 -0.224106
-0.048099499 0.14289476 -0.22412124
-0.047918599 0.1428782 -0.22415841
-0.047786403 0.142884 -0.22416881
-0.047552999 0.142831 -0.224172
-0.047548998 0.142901 -0.224186
-0.047292002 0.14282 -0.224244
-0.051763497 0.1430095 -0.22423899
-0.051677004 0.14300349 -0.22422226
-0.051524252 0.14299801 -0.22417802
-0.051391665 0.14302601 -0.22417831
-0.0511165 0.14305401 -0.22416151
-0.050889999 0.143039 -0.22415049
-0.050805751 0.14303425 -0.22413525
-0.04807933 0.14302234 -0.224126
-0.047929 0.1430275 -0.22416875
-0.047792669 0.14301784 -0.22415434
-0.047545999 0.14300549 -0.22417599
-0.051758498 0.143149 -0.22422999
-0.051664196 0.1431634 -0.22420481
-0.051516335 0.14317366 -0.224204
-0.051384002 0.14320099 -0.2241905
-0.051110499 0.14319399 -0.224168
-0.050884999 0.143179 -0.22414699
-0.050799996 0.14317425 -0.22413476
-0.048225999 0.143216 -0.22410101
-0.048045501 0.143172 -0.22410801
-0.047923502 0.14316726 -0.22416449
-0.047786336 0.143158 -0.22417368
-0.047540002 0.1431455 -0.22417951
-0.051753499 0.143289 -0.22422999
-0.051684663 0.14334266 -0.22421598
-0.0515095 0.14334875 -0.2242045
-0.051379003 0.143341 -0.22418499
-0.051105 0.143334 -0.22417551
-0.050879501 0.143319 -0.224145
-0.05079525 0.143314 -0.22413149
-0.048038498 0.1433125 -0.224132
-0.047917999 0.14330724 -0.22417274
-0.047771428 0.14331301 -0.22419617
-0.047532003 0.143323 -0.22421201
-0.051686998 0.14349501 -0.22422183
-0.051504001 0.143489 -0.22420976
-0.051373001 0.14348149 -0.22419751
-0.051099502 0.143474 -0.224171
-0.050874501 0.14345899 -0.22414351
-0.050789751 0.14345349 -0.22412875
-0.048077751 0.14345551 -0.22412275
-0.047904599 0.14346761 -0.2241734
-0.0477795 0.14348364 -0.22419126
-0.047524497 0.143498 -0.22422101
-0.051682334 0.14363499 -0.22421117
-0.051499002 0.14362825 -0.22419801
-0.051367499 0.1436215 -0.22420001
-0.051094502 0.14361399 -0.22416601
-0.0508685 0.143599 -0.224149
-0.050778002 0.1436138 -0.2241246
-0.048061401 0.1436162 -0.22414401
-0.047911599 0.1436384 -0.22417381
-0.047766 0.1436505 -0.22420101
-0.04752 0.143604 -0.22423699
-0.051676836 0.14377533 -0.22421183
-0.051508665 0.14375766 -0.22419433
-0.051392663 0.14377399 -0.224169
-0.051088497 0.14375401 -0.2241725
-0.050862331 0.14377366 -0.22413866
-0.050791997 0.14377025 -0.2241255
-0.048072796 0.14378561 -0.2241334
-0.047897749 0.1437995 -0.22419424
-0.047759663 0.14379083 -0.22421651
-0.052209001 0.143984 -0.224241
-0.052127 0.1439445 -0.2242415
-0.051670834 0.14391533 -0.22421519
-0.051530503 0.14390999 -0.2242105
-0.051402748 0.143903 -0.224162
-0.051083338 0.14392833 -0.22414434
-0.050855502 0.1439485 -0.2241365
-0.050771501 0.1439435 -0.22411326
-0.0480575 0.14394701 -0.22414075
-0.0478925 0.14393926 -0.22418825
-0.047765203 0.14392519 -0.22422139
-0.047699001 0.14396299 -0.224218
-0.052234665 0.14410335 -0.22424267
-0.052121498 0.144086 -0.224246
-0.051945001 0.144109 -0.22425
-0.051774502 0.14406601 -0.22424501
-0.051679403 0.1440492 -0.22420859
-0.051550668 0.14406234 -0.22419865
-0.051388003 0.1440634 -0.22415578
-0.0510755 0.144105 -0.22416201
-0.050850999 0.144054 -0.22413801
-0.050812665 0.144099 -0.22412801
-0.048191 0.14412799 -0.224107
-0.048051998 0.144088 -0.22414775
-0.047886752 0.14407949 -0.224198
-0.047775749 0.14407399 -0.22422351
-0.047695503 0.14406601 -0.224204
-0.052669 0.14421999 -0.22425
-0.052388001 0.144206 -0.22425
-0.052260667 0.14422333 -0.22424233
-0.052157998 0.14422849 -0.2242465
-0.051941 0.144214 -0.224246
-0.051769502 0.144206 -0.224236
-0.051688395 0.1442174 -0.22418442
-0.051558003 0.14422435 -0.22417134
-0.051399201 0.1442322 -0.22415778
-0.051069997 0.14424351 -0.22415949
-0.05081775 0.14422724 -0.22411551
-0.048188001 0.144198 -0.22410899
-0.048061669 0.144216 -0.22413933
-0.047942664 0.14423634 -0.224207
-0.047794834 0.14421649 -0.22423117
-0.047689497 0.144208 -0.2242105
-0.0522855 0.14437599 -0.22424001
-0.0521525 0.14436825 -0.22424474
-0.051935501 0.144354 -0.2242415
-0.051763337 0.14438033 -0.22422467
-0.0516918 0.1443862 -0.22419341
-0.051551752 0.144399 -0.22416274
-0.051383249 0.14439401 -0.2241675
-0.051064998 0.144383 -0.22415501
-0.050838999 0.144403 -0.224106
-0.048179001 0.14441 -0.224114
-0.048086502 0.14437 -0.224107
-0.047952753 0.14436501 -0.22418851
-0.047789831 0.14435633 -0.22422631
-0.047683999 0.144348 -0.22421899
-0.047488999 0.14437599 -0.22425
-0.052467 0.144485 -0.22424699
-0.052133668 0.14449532 -0.22424035
-0.051929336 0.14452867 -0.22423966
-0.051756501 0.144556 -0.22422799
-0.051680498 0.144548 -0.22419201
-0.051545504 0.1445415 -0.22417499
-0.051378001 0.14453399 -0.22416499
-0.051060997 0.1445225 -0.224126
-0.0508065 0.14450701 -0.22412249
-0.048175998 0.14451501 -0.22410449
-0.0480805 0.14451 -0.22412899
-0.047948498 0.1445045 -0.2241715
-0.047776997 0.14450984 -0.22420885
-0.047676999 0.14452267 -0.22421832
-0.052650999 0.14470799 -0.224234
-0.052599002 0.14470699 -0.22425
-0.052370001 0.144695 -0.224244
-0.052274503 0.144657 -0.22422999
-0.052141249 0.144648 -0.22424525
-0.0519225 0.144703 -0.22422999
-0.051752001 0.14466 -0.22422799
-0.051689804 0.144696 -0.2241962
-0.051540248 0.14468025 -0.22417374
-0.051372502 0.1446735 -0.2241625
-0.051055498 0.14466301 -0.22412699
-0.050800998 0.144647 -0.22412249
-0.0481705 0.1446545 -0.22410201
-0.048074499 0.14465 -0.2241405
-0.047933601 0.14466619 -0.22417641
-0.047783878 0.14468087 -0.22422025
-0.047670498 0.14469799 -0.2242105
-0.047477499 0.144692 -0.224244
-0.052604001 0.1448182 -0.2242308
-0.052367002 0.1447995 -0.22421899
-0.0522695 0.14479649 -0.224226
-0.052144002 0.1448096 -0.22423539
-0.051917501 0.144843 -0.22423249
-0.051696334 0.14482917 -0.224177
-0.051536001 0.14481924 -0.224152
-0.051367503 0.14481401 -0.22415675
-0.051050499 0.14480349 -0.224125
-0.050794333 0.14482249 -0.22411466
-0.048068002 0.144825 -0.22413068
-0.047944598 0.144834 -0.22416201
-0.047771335 0.14484666 -0.22421533
-0.047665998 0.14483699 -0.224187
-0.047471501 0.144832 -0.22424451
-0.052616499 0.14495274 -0.22422498
-0.052360337 0.14497399 -0.22421099
-0.052263666 0.144971 -0.22420566
-0.052141666 0.14501067 -0.22423732
-0.051912002 0.14498299 -0.224232
-0.051691834 0.14496799 -0.22415732
-0.051531501 0.144958 -0.2241345
-0.051363248 0.14495251 -0.22413549
-0.051044501 0.144944 -0.2241355
-0.050788499 0.144997 -0.224104
-0.048158001 0.144969 -0.22410101
-0.048064001 0.14496399 -0.224105
-0.047930501 0.14499424 -0.22414826
-0.047766332 0.14498717 -0.22420301
-0.047661997 0.144977 -0.22417
-0.047467001 0.144972 -0.224233
-0.052587375 0.14513437 -0.22423175
-0.052397501 0.1451495 -0.2242265
-0.052256502 0.145146 -0.224214
-0.052123751 0.14513776 -0.22422375
-0.051907003 0.145123 -0.22422099
-0.051686835 0.14510767 -0.22415052
-0.051526751 0.145098 -0.22412074
-0.051348798 0.1451128 -0.22412439
-0.051038664 0.14511867 -0.22412033
-0.050783999 0.14510149 -0.22410649
-0.048153002 0.145109 -0.224105
-0.048102997 0.14517701 -0.2241075
-0.047881998 0.1451335 -0.2241625
-0.047761839 0.14512567 -0.2241835
-0.047656499 0.145117 -0.22417051
-0.047462501 0.14511201 -0.2242185
-0.052573998 0.14529967 -0.22422667
-0.052437499 0.145289 -0.224223
-0.052300002 0.14528775 -0.22420999
-0.052118748 0.14527726 -0.22421676
-0.051902 0.14526251 -0.2242115
-0.05167257 0.1452633 -0.22416486
-0.051518839 0.14527467 -0.22413982
-0.051349502 0.14530227 -0.22413801
-0.051031999 0.145293 -0.224114
-0.048083335 0.145271 -0.22410733
-0.047905665 0.14528532 -0.22413801
-0.047756165 0.14526701 -0.22419202
-0.047650501 0.14525899 -0.22418401
-0.047456503 0.145254 -0.22422701
-0.052568499 0.14543967 -0.22422235
-0.052432001 0.145429 -0.22422001
-0.0522945 0.1454275 -0.22420475
-0.052113753 0.145417 -0.22420301
-0.0518975 0.145402 -0.22419599
-0.051679254 0.14543362 -0.22418
-0.051512249 0.1454495 -0.224131
-0.051358666 0.14543332 -0.22415733
-0.051298 0.145476 -0.224142
-0.048045501 0.145421 -0.224112
-0.047914501 0.1454155 -0.2241475
-0.047776751 0.14540949 -0.2242015
-0.047670498 0.14540251 -0.22420199
-0.047449332 0.145429 -0.22423434
-0.052669998 0.145623 -0.224246
-0.052574396 0.14557441 -0.22423419
-0.052425999 0.14557 -0.22422749
-0.052288748 0.14556751 -0.22420575
-0.0521085 0.14555675 -0.22419499
-0.051890999 0.145577 -0.22419302
-0.051666334 0.14559966 -0.22417617
-0.051506002 0.1455905 -0.22415575
-0.051382497 0.145587 -0.224153
-0.051293999 0.14558101 -0.22414449
-0.048040502 0.14556101 -0.224104
-0.047908749 0.145556 -0.22414625
-0.047772251 0.14554825 -0.22418
-0.047664333 0.14557649 -0.22419034
-0.047443502 0.145603 -0.2242085
-0.052665502 0.14572799 -0.224246
-0.05258625 0.14572251 -0.22422999
-0.05245975 0.14571249 -0.22423425
-0.05228325 0.1457075 -0.22421551
-0.052094001 0.145717 -0.224196
-0.051884003 0.145753 -0.2241925
-0.051660832 0.14573999 -0.22417748
-0.051501002 0.14573 -0.22414199
-0.051376998 0.1457265 -0.22414801
-0.051289499 0.145721 -0.22412601
-0.047894001 0.1457164 -0.2241478
-0.047765002 0.14572467 -0.22418718
-0.047657751 0.145753 -0.22418751
-0.047437001 0.1457445 -0.224231
-0.052832998 0.145843 -0.22425
-0.052580751 0.1458635 -0.22422999
-0.0524555 0.14585176 -0.22421651
-0.052278001 0.14584824 -0.22420651
-0.052104402 0.145887 -0.2241914
-0.051877499 0.14589399 -0.22420901
-0.051655665 0.14588 -0.22417335
-0.0514955 0.14587024 -0.22414425
-0.0513715 0.14586601 -0.22413799
-0.051283501 0.145861 -0.224132
-0.051010497 0.145854 -0.2241095
-0.047904599 0.14588562 -0.22414319
-0.047758497 0.14589925 -0.22417751
-0.047652252 0.14589301 -0.22419001
-0.047431 0.145886 -0.22424001
-0.052576002 0.14600375 -0.22422075
-0.0524414 0.14601301 -0.2242136
-0.052272331 0.14602199 -0.22419268
-0.052132502 0.14604899 -0.224178
-0.052048497 0.146043 -0.2241855
-0.051872 0.146034 -0.224216
-0.051660996 0.14601381 -0.22416958
-0.051511399 0.14601819 -0.22415259
-0.051367 0.146006 -0.22413349
-0.051278502 0.146001 -0.2241345
-0.051004998 0.14599401 -0.22411001
-0.047932498 0.146047 -0.224134
-0.047785331 0.14604099 -0.22415383
-0.047647499 0.14603251 -0.22417375
-0.047426499 0.14602551 -0.2242275
-0.052820001 0.146192 -0.224241
-0.0525648 0.146164 -0.22421181
-0.052450597 0.14618221 -0.2242142
-0.052265752 0.1461965 -0.22418399
-0.052126497 0.14619 -0.22418401
-0.052042998 0.146185 -0.224188
-0.0518675 0.146174 -0.224198
-0.05167025 0.14616324 -0.22418049
-0.051558003 0.14615224 -0.22415
-0.051404249 0.14614774 -0.22412851
-0.051272664 0.14617534 -0.22411533
-0.047929 0.146152 -0.224117
-0.047778334 0.14618267 -0.22418167
-0.047642 0.14617249 -0.224177
-0.0474215 0.146165 -0.224222
-0.052815497 0.14629701 -0.22424701
-0.052580167 0.14634351 -0.22422333
-0.05243675 0.14634275 -0.2242105
-0.05226025 0.146338 -0.22419025
-0.052120999 0.146331 -0.22418401
-0.052037999 0.14632499 -0.22418299
-0.051862001 0.146314 -0.224197
-0.051665753 0.14630249 -0.22416401
-0.051552501 0.14632717 -0.22412451
-0.051398501 0.14632216 -0.22411685
-0.047923498 0.146327 -0.224107
-0.047773834 0.146323 -0.22416615
-0.047636751 0.1463135 -0.224172
-0.047416002 0.14630499 -0.2242115
-0.052810498 0.146437 -0.2242395
-0.052716501 0.1465385 -0.2242485
-0.052583665 0.146495 -0.22422133
-0.052431252 0.14648251 -0.22420375
-0.052254252 0.1464785 -0.22419226
-0.052114502 0.1464715 -0.2242025
-0.052033 0.146465 -0.22417749
-0.051857002 0.1464535 -0.22418851
-0.051654797 0.1464626 -0.22415641
-0.051545747 0.14650199 -0.22412625
-0.051434502 0.14649901 -0.2241285
-0.047768831 0.14646284 -0.22415833
-0.047631498 0.14645401 -0.22416499
-0.047410667 0.146479 -0.22418801
-0.052849799 0.14663079 -0.224242
-0.052712999 0.1466435 -0.22423474
-0.052578669 0.14663465 -0.22421168
-0.052426748 0.14662251 -0.22419375
-0.052265998 0.14660732 -0.22418468
-0.052139331 0.14662467 -0.22419368
-0.052028 0.146605 -0.224161
-0.051851001 0.14662801 -0.22417067
-0.051658802 0.1466312 -0.2241478
-0.051540501 0.146642 -0.22411799
-0.051429503 0.146639 -0.224112
-0.047764 0.146602 -0.22414635
-0.047620405 0.14661419 -0.224159
-0.047403499 0.14665601 -0.224195
-0.052963998 0.14683101 -0.224246
-0.052876003 0.14679399 -0.2242285
-0.052737404 0.14679199 -0.22423959
-0.052573834 0.14677466 -0.2242025
-0.052421249 0.14676225 -0.22419374
-0.052293502 0.1467585 -0.2241675
-0.052149747 0.146754 -0.2241845
-0.052021664 0.14677833 -0.22415365
-0.0518445 0.14680299 -0.22416401
-0.051648248 0.14679101 -0.224131
-0.051524002 0.14676867 -0.22410701
-0.051426001 0.146744 -0.22410201
-0.047756854 0.14675727 -0.22414871
-0.047637001 0.14679317 -0.22415483
-0.047396999 0.14679751 -0.22420749
-0.053333998 0.14695549 -0.2242375
-0.052960999 0.14693549 -0.22422701
-0.052871 0.146934 -0.22420999
-0.052732166 0.14692517 -0.22423117
-0.052568838 0.14691417 -0.2241895
-0.052416749 0.14690176 -0.2241765
-0.052288502 0.146899 -0.224162
-0.052135803 0.1469136 -0.2241596
-0.0520145 0.146954 -0.22415951
-0.051840998 0.146942 -0.2241345
-0.051642999 0.14693101 -0.2241285
-0.051495999 0.14688399 -0.224108
-0.0477858 0.14693341 -0.224135
-0.047640502 0.146946 -0.22415133
-0.047392003 0.1469375 -0.224208
-0.047134001 0.146892 -0.22423901
-0.053328 0.14709601 -0.22423899
-0.053236999 0.147127 -0.224244
-0.052956 0.147075 -0.2242215
-0.052865498 0.147074 -0.22421101
-0.052727502 0.14706399 -0.22421484
-0.0525635 0.147054 -0.22418551
-0.052410331 0.1470765 -0.22416683
-0.052281003 0.14707434 -0.22416933
-0.052147798 0.1470826 -0.22415121
-0.052009001 0.147094 -0.224161
-0.0518355 0.147081 -0.22412699
-0.051637501 0.147071 -0.224125
-0.047762003 0.14708067 -0.22412868
-0.047635 0.14708699 -0.22415151
-0.047388501 0.147076 -0.22416601
-0.053323001 0.1472355 -0.224234
-0.053190004 0.14722925 -0.22422925
-0.052953001 0.14718001 -0.22421201
-0.052890003 0.14722566 -0.22420867
-0.052722502 0.14720367 -0.22420616
-0.052550625 0.14721963 -0.22418311
-0.052403752 0.1472515 -0.224161
-0.052276 0.14724749 -0.22413599
-0.052133247 0.14724225 -0.22414024
-0.052003503 0.14723399 -0.224158
-0.0518305 0.147222 -0.224125
-0.051632497 0.14721151 -0.22412051
-0.051519997 0.147202 -0.2241025
-0.047733001 0.147231 -0.224132
-0.047630001 0.14722566 -0.22414
-0.047383502 0.14721599 -0.2241665
-0.047121003 0.147209 -0.224244
-0.054097999 0.147447 -0.22424801
-0.053317502 0.147376 -0.22423001
-0.0531855 0.14736851 -0.22421551
-0.052900501 0.14735451 -0.2242015
-0.052708287 0.14735873 -0.22420286
-0.052569661 0.14738049 -0.224162
-0.052399497 0.14739075 -0.22414374
-0.052270502 0.14738899 -0.224141
-0.052128002 0.14738226 -0.22413224
-0.051999003 0.147374 -0.22413599
-0.051825002 0.14736199 -0.22412249
-0.051635668 0.14734067 -0.22413231
-0.051600002 0.147384 -0.224113
-0.047762502 0.14737475 -0.224124
-0.047624167 0.14736751 -0.22414802
-0.047376499 0.147358 -0.224186
-0.047116503 0.147348 -0.22423249
-0.054354001 0.14752601 -0.22424467
-0.054178499 0.1475555 -0.22424701
-0.054064333 0.14756233 -0.22423299
-0.0535415 0.14752901 -0.22424251
-0.053312503 0.147515 -0.224225
-0.053179748 0.1475085 -0.224213
-0.052885801 0.14751521 -0.22419441
-0.052717626 0.14752814 -0.22419474
-0.0525725 0.14754425 -0.22414999
-0.052414201 0.14753859 -0.2241338
-0.0522645 0.14752901 -0.22415301
-0.052123249 0.14752099 -0.22411826
-0.051995002 0.147513 -0.224117
-0.051820002 0.14750099 -0.224113
-0.051646665 0.14752866 -0.22411333
-0.047745664 0.147525 -0.22411199
-0.047618669 0.1475085 -0.22415166
-0.047370501 0.14750001 -0.22419751
-0.0543475 0.147701 -0.22424051
-0.054173 0.147695 -0.2242405
-0.054060001 0.147679 -0.224232
-0.053954501 0.1477205 -0.224243
-0.05381 0.14768499 -0.224241
-0.053537 0.147668 -0.224232
-0.0533075 0.14765599 -0.22421551
-0.053174749 0.14765 -0.22421101
-0.052896999 0.1476852 -0.22420481
-0.0527335 0.1476945 -0.22418
-0.052592833 0.14768766 -0.22417419
-0.052458748 0.1476765 -0.22414351
-0.052304499 0.14766826 -0.2241365
-0.0521175 0.14766151 -0.2241205
-0.051813498 0.14767599 -0.22410801
-0.051642001 0.147668 -0.224103
-0.047751747 0.147655 -0.22411799
-0.047612999 0.14764901 -0.22415532
-0.047362667 0.147677 -0.22422366
-0.054582998 0.14789701 -0.22424699
-0.054342501 0.14784101 -0.224234
-0.0541685 0.147835 -0.224226
-0.0540835 0.14783201 -0.224233
-0.053951249 0.14782526 -0.22422799
-0.053782001 0.14783366 -0.22423132
-0.0535325 0.147806 -0.22421199
-0.053301334 0.14783101 -0.22420566
-0.053168166 0.14782484 -0.22420084
-0.0528825 0.147845 -0.22418401
-0.052728001 0.147835 -0.22417924
-0.052587997 0.14782749 -0.22417133
-0.05245325 0.14781649 -0.22413799
-0.052299753 0.147808 -0.22411901
-0.052112751 0.147802 -0.224113
-0.051806003 0.1478515 -0.2241215
-0.047745503 0.14779699 -0.22413576
-0.047606431 0.14780557 -0.22416659
-0.047548998 0.147892 -0.22416499
-0.047355 0.147854 -0.22424099
-0.0549495 0.14798599 -0.2242455
-0.0545795 0.148002 -0.224241
-0.054336503 0.147981 -0.2242375
-0.054163501 0.147975 -0.224222
-0.054079 0.14797151 -0.22421449
-0.053946003 0.14796525 -0.22422451
-0.053776 0.14797467 -0.22423534
-0.053528003 0.147946 -0.2241915
-0.053295001 0.14800501 -0.22419199
-0.053162999 0.14799801 -0.2241745
-0.052878 0.14798349 -0.2241675
-0.052723251 0.14797425 -0.22416475
-0.052583169 0.14796634 -0.22415452
-0.052448247 0.147956 -0.22412601
-0.05229475 0.14794725 -0.224106
-0.052061003 0.147974 -0.22410333
-0.0477468 0.1479584 -0.22412682
-0.047643166 0.14799298 -0.22417034
-0.047544502 0.14799801 -0.2241835
-0.047349498 0.147995 -0.22424549
-0.055877998 0.14814599 -0.22424465
-0.055769503 0.148131 -0.2242365
-0.055500001 0.148084 -0.22424901
-0.055273 0.14810601 -0.2242385
-0.055084001 0.14813501 -0.22424901
-0.054967001 0.14811 -0.22424501
-0.054815002 0.14815399 -0.22424349
-0.054736 0.148183 -0.22425
-0.054573998 0.14814201 -0.22423699
-0.0543315 0.148122 -0.22424001
-0.054159001 0.148114 -0.2242025
-0.0540745 0.148111 -0.224196
-0.053940501 0.14810601 -0.22422025
-0.053761251 0.14809924 -0.22421175
-0.053521335 0.14812033 -0.22418533
-0.053291 0.1481435 -0.224163
-0.053159252 0.148136 -0.22413599
-0.052872498 0.14812425 -0.22416599
-0.052718252 0.148114 -0.22415099
-0.052578669 0.14810616 -0.22413766
-0.052436799 0.14811599 -0.22411521
-0.052334003 0.14808699 -0.22410449
-0.047767498 0.14815 -0.22411799
-0.04764533 0.14814566 -0.22417434
-0.0475385 0.148139 -0.224186
-0.056130499 0.148287 -0.22424701
-0.05588825 0.148275 -0.22423699
-0.055741999 0.14825834 -0.22423701
-0.055592 0.148296 -0.22424801
-0.055491999 0.148294 -0.22424801
-0.055266995 0.14828001 -0.22421801
-0.05508 0.14827333 -0.22422801
-0.054981999 0.148303 -0.22423249
-0.054838002 0.14830701 -0.22423299
-0.054733001 0.148287 -0.22422899
-0.054568499 0.14828199 -0.22423449
-0.054327 0.14826 -0.224218
-0.054154001 0.14825401 -0.22419401
-0.054068498 0.148251 -0.224206
-0.053926401 0.1482648 -0.22420362
-0.053754333 0.14827517 -0.224209
-0.053515002 0.148295 -0.22418
-0.0532865 0.14828199 -0.2241445
-0.053153999 0.148276 -0.224134
-0.052867502 0.14826424 -0.22416125
-0.052713748 0.14825299 -0.22413875
-0.052600749 0.14826325 -0.22411901
-0.052426998 0.14826934 -0.22410767
-0.0477615 0.1482915 -0.22413099
-0.047639329 0.14828683 -0.22418533
-0.047532499 0.14827999 -0.2241995
-0.056125998 0.14842701 -0.2242355
-0.055883251 0.14841451 -0.22422624
-0.055735335 0.14842166 -0.22423732
-0.055588 0.148399 -0.22423801
-0.055487998 0.148396 -0.22423601
-0.055261001 0.148454 -0.224205
-0.055073999 0.14844799 -0.22421101
-0.054977 0.148443 -0.22422299
-0.054847997 0.148435 -0.22421175
-0.054728501 0.14842701 -0.2242105
-0.054563999 0.148422 -0.22422099
-0.054323003 0.14840001 -0.2241915
-0.054104835 0.14842767 -0.22419484
-0.053938605 0.148433 -0.224179
-0.053748999 0.14844799 -0.2241815
-0.053510003 0.148435 -0.2241645
-0.053281002 0.148423 -0.224145
-0.053148501 0.1484165 -0.224134
-0.052863251 0.14840201 -0.22413625
-0.052707836 0.14842767 -0.22411966
-0.0525994 0.1484358 -0.224123
-0.047756001 0.14843249 -0.22413251
-0.04763383 0.14842767 -0.224187
-0.047527 0.148422 -0.22420099
-0.056121498 0.14856601 -0.224218
-0.055878501 0.14855425 -0.22421651
-0.055719499 0.14854899 -0.2242275
-0.055606496 0.14857702 -0.22423233
-0.055482667 0.14857066 -0.22421165
-0.055256002 0.1485935 -0.224188
-0.055070497 0.148586 -0.2241755
-0.054972 0.14858299 -0.2242085
-0.054842751 0.14857501 -0.22420976
-0.054693997 0.14856651 -0.22422224
-0.054559998 0.148561 -0.224199
-0.054316998 0.14857267 -0.22416866
-0.054099001 0.1486015 -0.22417223
-0.053924747 0.14859225 -0.22415476
-0.053743996 0.148588 -0.22417575
-0.053505503 0.1485745 -0.22414899
-0.053277001 0.148561 -0.2241205
-0.053158667 0.14854567 -0.22412366
-0.053098999 0.148587 -0.224115
-0.052857339 0.14857684 -0.22411834
-0.052690331 0.14861333 -0.22411132
-0.052597668 0.14858434 -0.22411066
-0.047751501 0.148571 -0.22410899
-0.047628164 0.14856867 -0.22419
-0.047521502 0.148562 -0.224205
-0.056115501 0.1487065 -0.22422099
-0.0558636 0.14871421 -0.2242064
-0.055713505 0.1487235 -0.22421165
-0.055600502 0.1487505 -0.22421402
-0.055476502 0.148745 -0.224206
-0.055252999 0.1487305 -0.2241555
-0.055064999 0.148726 -0.22417399
-0.054968998 0.14872 -0.2241725
-0.054838251 0.1487145 -0.22419301
-0.054689754 0.14870501 -0.22419751
-0.054555498 0.14869949 -0.2241745
-0.054310001 0.14874801 -0.224168
-0.054093748 0.1487415 -0.224168
-0.053919751 0.14873201 -0.22415
-0.05373925 0.14872751 -0.22415926
-0.053502001 0.14871299 -0.22411999
-0.053272501 0.1487 -0.224103
-0.053182498 0.14869699 -0.224112
-0.053093668 0.14872867 -0.22411267
-0.052728999 0.148708 -0.224106
-0.0477455 0.14871299 -0.2241195
-0.047623169 0.14870818 -0.22417583
-0.0475155 0.14870299 -0.22420999
-0.056110501 0.14884651 -0.22422099
-0.055875402 0.1488834 -0.2241998
-0.055707499 0.14889799 -0.224197
-0.055595502 0.1488905 -0.22420776
-0.055472001 0.148885 -0.22419199
-0.055247501 0.14886999 -0.22414601
-0.055059999 0.14886549 -0.2241745
-0.054963998 0.1488595 -0.22415599
-0.054834001 0.14885175 -0.22416174
-0.054685 0.1488775 -0.22415899
-0.054549333 0.14887433 -0.22415768
-0.054306999 0.148886 -0.22413099
-0.054089502 0.14888 -0.22414824
-0.053914499 0.14887249 -0.22414851
-0.053746331 0.14885668 -0.22413933
-0.0537 0.14889801 -0.224144
-0.053496502 0.14885101 -0.2241095
-0.047742002 0.148818 -0.224106
-0.047618669 0.14884751 -0.22416134
-0.047509 0.14887868 -0.22420233
-0.056103665 0.14902134 -0.22421332
-0.05586075 0.14904325 -0.2241925
-0.0557025 0.1490375 -0.22418424
-0.055591498 0.14902849 -0.22418524
-0.055466503 0.14902499 -0.224179
-0.055243 0.14901 -0.2241345
-0.055055998 0.149004 -0.22414699
-0.054959498 0.14899701 -0.2241405
-0.054828335 0.14902632 -0.22414599
-0.054677501 0.14905325 -0.22417176
-0.054543003 0.14904749 -0.224145
-0.054303002 0.148991 -0.224135
-0.054299999 0.14906099 -0.224139
-0.054085247 0.1490185 -0.22412725
-0.053909753 0.14901125 -0.22413175
-0.053763501 0.14901 -0.224132
-0.053695999 0.149003 -0.2241375
-0.047734499 0.148994 -0.224121
-0.04761067 0.14902489 -0.22418523
-0.047502 0.149055 -0.22420901
-0.0560975 0.149196 -0.22420201
-0.05585625 0.1491815 -0.224169
-0.055698499 0.14917499 -0.22416526
-0.055587001 0.149167 -0.22416151
-0.0554615 0.149165 -0.2241765
-0.055238999 0.14914849 -0.22411099
-0.055052001 0.14910799 -0.22413
-0.05497675 0.14917475 -0.22414351
-0.054822251 0.1492005 -0.224131
-0.054673001 0.14919201 -0.22415374
-0.0545385 0.149187 -0.22413251
-0.054296002 0.149166 -0.224132
-0.054080751 0.14915824 -0.22411001
-0.053905249 0.14914951 -0.22411001
-0.053758003 0.149151 -0.22413
-0.053689331 0.14917767 -0.22413401
-0.047726333 0.14917199 -0.22414069
-0.047614198 0.149195 -0.22418959
-0.047513664 0.14920901 -0.22420967
-0.056092501 0.14933601 -0.2241945
-0.055851251 0.14932126 -0.22416
-0.055692248 0.149317 -0.2241715
-0.055580996 0.1493095 -0.22417225
-0.055457003 0.149304 -0.22416401
-0.055230498 0.149359 -0.22410899
-0.0550205 0.14931625 -0.22411999
-0.05480333 0.14932767 -0.22412901
-0.054667752 0.14933175 -0.22414599
-0.054534003 0.149326 -0.224112
-0.054292001 0.149304 -0.22410551
-0.053942665 0.149327 -0.22410636
-0.053752664 0.149323 -0.224105
-0.053684 0.14935 -0.22411099
-0.047721498 0.1493445 -0.22410801
-0.047624752 0.149344 -0.224186
-0.047516998 0.1493385 -0.22422101
-0.056407001 0.14953101 -0.22424699
-0.056087002 0.14947599 -0.224195
-0.05584725 0.14945951 -0.2241365
-0.055688001 0.14945576 -0.22415102
-0.055575252 0.14944924 -0.22417599
-0.055451002 0.14947666 -0.22413833
-0.055225499 0.149499 -0.224107
-0.054989502 0.14949 -0.22412474
-0.05477 0.14947799 -0.2241195
-0.054663502 0.14947049 -0.22412775
-0.054288 0.14940999 -0.22410101
-0.054027498 0.149436 -0.224103
-0.0477155 0.149487 -0.224116
-0.047618747 0.1494845 -0.22419275
-0.047511503 0.14948049 -0.22422549
-0.056404002 0.149636 -0.22423699
-0.056082003 0.1496155 -0.224186
-0.0558865 0.149602 -0.2241345
-0.055757001 0.149597 -0.22414175
-0.055596225 0.14962377 -0.22414054
-0.0554455 0.14965099 -0.224113
-0.055220999 0.14960399 -0.22410899
-0.054968998 0.149617 -0.22411101
-0.054763999 0.14965101 -0.224104
-0.054632001 0.149575 -0.22411101
-0.047710501 0.149626 -0.22410551
-0.047612999 0.14962651 -0.2242025
-0.0475315 0.149625 -0.22424501
-0.0563985 0.149776 -0.224234
-0.056078002 0.149753 -0.22416249
-0.055879999 0.149777 -0.224132
-0.055750668 0.14977184 -0.22412948
-0.055590168 0.14979784 -0.22412318
-0.0554405 0.149791 -0.22410551
-0.047731999 0.14977999 -0.224122
-0.047607251 0.14976749 -0.2242105
-0.056392998 0.14991599 -0.224241
-0.056071669 0.14992733 -0.22415201
-0.055872999 0.14995199 -0.22412899
-0.055744752 0.14994651 -0.22411475
-0.055585336 0.14993767 -0.22411351
-0.055435002 0.14993051 -0.224105
-0.047783501 0.149911 -0.224124
-0.047644399 0.14990239 -0.2241964
-0.056387499 0.150057 -0.22424251
-0.056064501 0.15010449 -0.224158
-0.055870999 0.15005399 -0.224105
-0.055779502 0.150085 -0.224107
-0.055580497 0.15005925 -0.22410426
-0.047867998 0.15002 -0.22410201
-0.0477775 0.15005299 -0.2241385
-0.047654249 0.1500535 -0.22421975
-0.056382 0.150197 -0.22423899
-0.056060001 0.150243 -0.2241475
-0.0558635 0.150231 -0.224113
-0.055775002 0.15019201 -0.224104
-0.047860499 0.150198 -0.22411451
-0.047771499 0.150194 -0.224142
-0.047682501 0.150199 -0.22422349
-0.056374997 0.150373 -0.22424267
-0.056054503 0.150382 -0.22413701
-0.055858001 0.150371 -0.224112
-0.047884002 0.15037768 -0.22413568
-0.047784001 0.150392 -0.22417825
-0.047678001 0.150306 -0.224234
-0.056368999 0.1505475 -0.2242295
-0.056048498 0.15052399 -0.22414351
-0.055852503 0.150511 -0.22410649
-0.048129 0.15059701 -0.22411001
-0.047938999 0.15055799 -0.224153
-0.04779825 0.15055525 -0.224208
-0.056363501 0.1506875 -0.224232
-0.056043997 0.1506635 -0.22413
-0.055849001 0.15061601 -0.224105
-0.048124 0.15070501 -0.224133
-0.047932498 0.15070149 -0.22418499
-0.047806997 0.15068634 -0.22422467
-0.056358002 0.15082699 -0.22422999
-0.056038499 0.15080351 -0.22412899
-0.0481175 0.150848 -0.22416401
-0.047925502 0.15084401 -0.22420751
-0.047830999 0.15080699 -0.22423699
-0.0563525 0.150969 -0.224231
-0.056032002 0.15097834 -0.22412467
-0.048111498 0.150989 -0.224168
-0.04792 0.150952 -0.224235
-0.056347501 0.15110901 -0.224227
-0.0560265 0.151152 -0.2241105
-0.048105001 0.1511305 -0.224186
-0.056341998 0.15124899 -0.22422451
-0.056020498 0.15129301 -0.22411099
-0.048097 0.1512765 -0.22422999
-0.056336001 0.15139 -0.224233
-0.056015499 0.15143299 -0.2241085
-0.048344001 0.1514155 -0.22411451
-0.056009002 0.151575 -0.224124
-0.048337501 0.151558 -0.22412801
-0.056004003 0.151715 -0.22411999
-0.048369002 0.15171267 -0.22413231
-0.0559985 0.15185499 -0.22411901
-0.048543498 0.151849 -0.224117
-0.048382003 0.15184426 -0.22414574
-0.055992 0.151997 -0.22413701
-0.049125001 0.152051 -0.224116
-0.048948999 0.15204599 -0.224117
-0.048808001 0.15204 -0.22412601
-0.048671 0.1519995 -0.22411099
-0.048536502 0.15199301 -0.22414851
-0.048385002 0.1520108 -0.22419199
-0.055984002 0.15217499 -0.22416334
-0.055785999 0.152229 -0.22410201
-0.049118999 0.152162 -0.22416401
-0.0489415 0.15215951 -0.22418499
-0.048802 0.15215126 -0.22416949
-0.048662998 0.1521455 -0.22415799
-0.048526999 0.15217499 -0.22420333
-0.048420999 0.1522055 -0.2242185
-0.055976503 0.15235201 -0.224169
-0.055781499 0.152336 -0.22411099
-0.0491115 0.152307 -0.224197
-0.048935 0.152271 -0.224242
-0.048843 0.152263 -0.22421899
-0.048699997 0.152293 -0.22421899
-0.055970497 0.152494 -0.224187
-0.055730749 0.1524765 -0.224124
-0.049105503 0.152448 -0.22420549
-0.055963002 0.152638 -0.224232
-0.055724502 0.1526185 -0.2241405
-0.055601001 0.152647 -0.224107
-0.049098 0.15262532 -0.22422701
-0.055717498 0.15276125 -0.224162
-0.055561502 0.152752 -0.22412051
-0.055447999 0.15281451 -0.22411549
-0.055711251 0.1529035 -0.22418401
-0.055547796 0.1529144 -0.22413799
-0.055447806 0.1529344 -0.22412542
-0.055704247 0.1530475 -0.2242125
-0.055553596 0.1530868 -0.22416341
-0.055435002 0.153098 -0.22414926
-0.049417 0.153124 -0.22410101
-0.055682998 0.15317766 -0.224235
-0.055539005 0.15325099 -0.22419724
-0.055428751 0.1532405 -0.22416501
-0.055307001 0.15323 -0.22411099
-0.055078998 0.153255 -0.224114
-0.054892998 0.153247 -0.224103
-0.0494105 0.15323451 -0.22413801
-0.055567 0.153364 -0.224233
-0.055447329 0.15338683 -0.22419916
-0.0553005 0.1533725 -0.224124
-0.055073999 0.153363 -0.22413599
-0.054855663 0.15336467 -0.22412467
-0.049403001 0.15337899 -0.224172
-0.055390999 0.15349101 -0.224234
-0.055292502 0.15351951 -0.22418
-0.0550665 0.15350801 -0.22417
-0.054832999 0.15349627 -0.22415125
-0.054696001 0.153587 -0.22410101
-0.049564 0.15352499 -0.22411999
-0.055284999 0.1536645 -0.224214
-0.055059999 0.15365 -0.224197
-0.054824498 0.1536755 -0.22418267
-0.054648504 0.153695 -0.224122
-0.049667001 0.153667 -0.22410899
-0.049557 0.15367 -0.22415951
-0.055052999 0.1537945 -0.224217
-0.054815747 0.15385526 -0.22421727
-0.054655001 0.15382867 -0.22416902
-0.05452675 0.15384676 -0.22413625
-0.049826 0.153859 -0.22412001
-0.049701497 0.15381524 -0.22414349
-0.049548998 0.15381551 -0.22420499
-0.054761 0.15399501 -0.22423601
-0.054674998 0.1539875 -0.22421849
-0.054522499 0.15397333 -0.22416367
-0.049819998 0.1539695 -0.22416499
-0.049707666 0.15395232 -0.22419901
-0.049595501 0.153963 -0.224244
-0.054515664 0.15411751 -0.2241925
-0.050962999 0.15415099 -0.22412351
-0.049991999 0.15414099 -0.224108
-0.049812 0.1541145 -0.224206
-0.049729999 0.15407699 -0.22422899
-0.054527 0.15425266 -0.22423966
-0.054394253 0.1542495 -0.22416301
-0.050956503 0.154294 -0.22413999
-0.050681502 0.1542905 -0.224152
-0.050455 0.15430599 -0.22410899
-0.049984999 0.15425301 -0.22415799
-0.049805999 0.15422501 -0.22423901
-0.054387249 0.154395 -0.22420099
-0.054090999 0.15447 -0.224124
-0.050951499 0.154434 -0.22413249
-0.050673001 0.15443701 -0.224207
-0.050447501 0.1544205 -0.22418
-0.050336599 0.1544154 -0.22414219
-0.049976498 0.1544005 -0.22421899
-0.054327998 0.154502 -0.224224
-0.054085001 0.15458 -0.224159
-0.050947003 0.15457201 -0.22411001
-0.050666999 0.154548 -0.22424699
-0.050439499 0.154567 -0.22422901
-0.050328165 0.154557 -0.22419985
-0.054076001 0.1547285 -0.22422001
-0.053906001 0.15471351 -0.22413799
-0.053792331 0.154719 -0.22411866
-0.050940499 0.154716 -0.22413599
-0.050293002 0.154697 -0.2242225
-0.0538975 0.15486249 -0.22420549
-0.053770252 0.15485249 -0.22416624
-0.053640999 0.15483949 -0.224114
-0.053512335 0.15492199 -0.22412233
-0.052657999 0.154902 -0.224108
-0.052489001 0.154893 -0.224104
-0.051185001 0.15489601 -0.224105
-0.051052 0.15487401 -0.22412367
-0.050933503 0.1548605 -0.224167
-0.053747002 0.15498835 -0.22422631
-0.053631499 0.1549885 -0.224181
-0.053492751 0.15505651 -0.2241835
-0.053254999 0.155074 -0.224122
-0.053025 0.155062 -0.224113
-0.052848 0.155054 -0.22411799
-0.052653499 0.15500951 -0.224117
-0.052561998 0.15500951 -0.224131
-0.052423332 0.15500082 -0.22413801
-0.052245803 0.1550536 -0.224121
-0.052115668 0.15506367 -0.22412767
-0.051973 0.155083 -0.224107
-0.0518305 0.15507701 -0.2241075
-0.051702 0.15507101 -0.22411799
-0.051525999 0.15506101 -0.22414
-0.051329751 0.1550145 -0.224122
-0.051201668 0.15502234 -0.22416198
-0.051057998 0.15501201 -0.22419626
-0.050926998 0.154972 -0.224213
-0.053624 0.155102 -0.224241
-0.053485997 0.1551695 -0.2242355
-0.0532475 0.1551865 -0.2241845
-0.053018 0.15517449 -0.22417101
-0.052885752 0.155167 -0.22415401
-0.052600253 0.15515524 -0.2241655
-0.052414503 0.15514965 -0.22420301
-0.052284669 0.15515368 -0.22419201
-0.052113999 0.15519559 -0.22420499
-0.051966 0.1551955 -0.2241725
-0.051823001 0.1551905 -0.22418001
-0.051694501 0.15518451 -0.22418299
-0.0515185 0.15517449 -0.2242025
-0.051346 0.1551695 -0.224208
-0.051248204 0.15515621 -0.2242208
-0.053240001 0.155301 -0.22424901
-0.053010002 0.15528899 -0.22423699
-0.052878 0.1552815 -0.2242285
-0.052593499 0.15526649 -0.22420749
-0.052468002 0.15526401 -0.22424901
-0.052242 0.15525299 -0.22424801
-0.052191 0.15525 -0.224242
-0.051957998 0.15531 -0.224244
-0.051815502 0.155304 -0.224243
-0.051686998 0.155297 -0.224245
-0.04882 0.139175 -0.22409099
-0.048928499 0.139285 -0.22408301
-0.048816003 0.13927999 -0.2240805
-0.048923001 0.13942499 -0.22408399
-0.048810497 0.13942 -0.224078
-0.048563 0.13944399 -0.22409099
-0.049607001 0.139634 -0.22409999
-0.049244002 0.13958499 -0.224095
-0.049152002 0.139617 -0.22408301
-0.048969246 0.139568 -0.22408125
-0.048805997 0.13956 -0.22406849
-0.048559003 0.13954851 -0.22407651
-0.049238503 0.139725 -0.224095
-0.0491485 0.13972351 -0.224079
-0.04896475 0.13970925 -0.22406475
-0.048800997 0.1397005 -0.22404701
-0.048553001 0.13972433 -0.22406201
-0.0478695 0.13971901 -0.22409201
-0.049596999 0.139916 -0.22409301
-0.0492335 0.139864 -0.22409299
-0.049143001 0.13986349 -0.224079
-0.048948802 0.13986841 -0.22405
-0.048795 0.13987499 -0.22403066
-0.048547 0.139899 -0.22404799
-0.048354 0.139926 -0.224095
-0.048202667 0.13989267 -0.22409034
-0.0478645 0.13985899 -0.224078
-0.049593501 0.14002 -0.224088
-0.049415 0.14005101 -0.224097
-0.049276251 0.14000699 -0.22409275
-0.049137503 0.140002 -0.22408301
-0.04897875 0.14002475 -0.22406225
-0.048825335 0.14006333 -0.22403432
-0.048542 0.14004001 -0.22404251
-0.048350498 0.14003 -0.22408551
-0.048212752 0.14002199 -0.22407751
-0.048050001 0.1400125 -0.224085
-0.047899 0.14001976 -0.2240755
-0.047664002 0.14009599 -0.22407299
-0.049587503 0.14015999 -0.2240925
-0.049411997 0.140156 -0.2240835
-0.049260598 0.14016761 -0.22408518
-0.049131334 0.14017732 -0.22407299
-0.048997998 0.140202 -0.224053
-0.04883875 0.14019249 -0.2240435
-0.048536502 0.1401795 -0.224041
-0.048345998 0.14017001 -0.22407
-0.048207 0.14016199 -0.22408025
-0.048045501 0.14015301 -0.22406325
-0.047901623 0.14016925 -0.22404188
-0.047660001 0.1402005 -0.22406301
-0.0495825 0.14030001 -0.224086
-0.049406499 0.140295 -0.224088
-0.049274001 0.1403362 -0.22407639
-0.049124502 0.140352 -0.2240715
-0.0489925 0.140342 -0.22405601
-0.048833497 0.14033201 -0.22403701
-0.048531003 0.1403185 -0.224044
-0.048341498 0.14031 -0.224053
-0.048201997 0.140302 -0.22407575
-0.048031799 0.14031279 -0.2240704
-0.047934003 0.14033499 -0.22405159
-0.0478485 0.140348 -0.2240185
-0.047654003 0.14034051 -0.224076
-0.047394 0.14036401 -0.224095
-0.049575999 0.140476 -0.22408234
-0.049399331 0.14047001 -0.22409065
-0.049257997 0.140497 -0.22407702
-0.049119502 0.14049301 -0.22406399
-0.048987001 0.140481 -0.22406301
-0.048828997 0.14047199 -0.22402075
-0.048526503 0.140459 -0.224023
-0.048335999 0.14045 -0.2240535
-0.0481975 0.140442 -0.22405848
-0.048088249 0.140489 -0.22405976
-0.047947168 0.14049716 -0.22405733
-0.047842503 0.140489 -0.224025
-0.047649 0.14048049 -0.224068
-0.0473895 0.140469 -0.22409999
-0.049569003 0.1406495 -0.2240815
-0.049393497 0.140644 -0.22406951
-0.049252499 0.1406365 -0.22408074
-0.049113497 0.140632 -0.2240745
-0.048981503 0.14062101 -0.22405201
-0.048823249 0.1406115 -0.22402625
-0.0485215 0.140598 -0.224016
-0.048328999 0.14062534 -0.22405
-0.04823333 0.14061999 -0.22408366
-0.048103251 0.1406475 -0.22405902
-0.047941338 0.14063683 -0.224068
-0.047837 0.14062849 -0.22402999
-0.047642998 0.1406205 -0.22407299
-0.047384501 0.14060849 -0.2240985
-0.049564 0.14079 -0.22407299
-0.0493875 0.14078501 -0.224079
-0.049295001 0.14077899 -0.224088
-0.049153499 0.14077374 -0.224071
-0.048975997 0.140762 -0.2240575
-0.048818 0.14075175 -0.22401901
-0.048514996 0.14077334 -0.22400732
-0.048322 0.1408 -0.224057
-0.0482275 0.14079499 -0.22406299
-0.048097495 0.1407875 -0.22406001
-0.047936168 0.14077717 -0.22406435
-0.047831498 0.1407685 -0.22402999
-0.047637999 0.140761 -0.22406849
-0.047379002 0.14074901 -0.22409099
-0.049558498 0.14093 -0.22407299
-0.049381502 0.1409255 -0.22409201
-0.049289502 0.14092 -0.22408199
-0.049148999 0.14091325 -0.22405925
-0.0489715 0.140902 -0.22404701
-0.048811167 0.14092617 -0.22402549
-0.0485075 0.140948 -0.2240245
-0.048316501 0.14094001 -0.2240535
-0.048221998 0.14093399 -0.22405601
-0.04809225 0.140927 -0.22406149
-0.047930669 0.14091617 -0.22406764
-0.047826 0.14090851 -0.22403701
-0.047633 0.1409 -0.22406399
-0.047372997 0.14092366 -0.22408301
-0.049881998 0.14112499 -0.22409999
-0.0495525 0.14106899 -0.22408099
-0.049376503 0.141064 -0.224086
-0.049284 0.141059 -0.22408649
-0.049143251 0.14105201 -0.22405975
-0.048965003 0.14107567 -0.22404468
-0.048859999 0.141104 -0.2240345
-0.048749 0.14109901 -0.22400999
-0.048502497 0.1410885 -0.22402
-0.048311502 0.14107999 -0.22405401
-0.048216999 0.141075 -0.22405249
-0.048086748 0.1410675 -0.22406074
-0.047924835 0.14105733 -0.2240715
-0.047820002 0.14104849 -0.2240435
-0.047626 0.14107634 -0.22406267
-0.047366001 0.14109901 -0.22407749
-0.0498785 0.14123 -0.224087
-0.049547501 0.14120999 -0.224076
-0.049372002 0.141205 -0.22407299
-0.049278498 0.14120001 -0.22408301
-0.049137171 0.14122801 -0.22404467
-0.048958503 0.141251 -0.2240275
-0.048855498 0.14124399 -0.22401699
-0.048743501 0.141239 -0.224004
-0.0484965 0.1412285 -0.22402251
-0.0483055 0.141221 -0.2240565
-0.048210502 0.14121601 -0.224069
-0.0480805 0.1412085 -0.22407326
-0.047911145 0.14121287 -0.22407572
-0.047812998 0.14122367 -0.22404265
-0.047619499 0.141251 -0.22405949
-0.047361501 0.14123851 -0.22406501
-0.049873501 0.141368 -0.2240815
