# .PCD v0.7 - Point Cloud Data file format
VERSION 0.7
FIELDS x y z
SIZE 4 4 4
TYPE F F F
COUNT 1 1 1
WIDTH 1481
HEIGHT 1
VIEWPOINT 0 0 0 1 0 0 0
POINTS 1481
DATA ascii
-0.049692001 0.12718099 -0.22917099
-0.049690001 0.127257 -0.229139
-0.049688999 0.127334 -0.229103
-0.049687002 0.127407 -0.229083
-0.049683999 0.127481 -0.229075
-0.049681999 0.127553 -0.229074
-0.049679 0.127625 -0.229072
-0.049676999 0.127699 -0.22906201
-0.049674999 0.127774 -0.229036
-0.049674001 0.127849 -0.229003
-0.049671002 0.127923 -0.22898699
-0.04967 0.12799799 -0.228965
-0.049669001 0.12807301 -0.228919
-0.049667999 0.12815 -0.22886699
-0.049667001 0.128225 -0.22882999
-0.049665999 0.12830099 -0.228802
-0.049663 0.128374 -0.228792
-0.049660999 0.128446 -0.22878399
-0.049658 0.12852 -0.22877499
-0.049656 0.128594 -0.22875901
-0.049655002 0.128667 -0.228733
-0.049653001 0.12874199 -0.22871099
-0.049651001 0.12881599 -0.22868501
-0.049649999 0.12889101 -0.228652
-0.049649 0.128968 -0.22860999
-0.049649 0.12904499 -0.228544
-0.049648002 0.12912101 -0.22849201
-0.049647 0.129195 -0.22847
-0.049644001 0.12926701 -0.22846501
-0.049642 0.12933999 -0.228457
-0.049639001 0.129412 -0.22844499
-0.049637001 0.12948599 -0.228431
-0.049635001 0.129559 -0.22842
-0.049632002 0.129631 -0.22841799
-0.049628999 0.129703 -0.228422
-0.049626999 0.129775 -0.228416
-0.049624 0.129849 -0.228415
-0.049621001 0.129921 -0.228411
-0.049619 0.129995 -0.228393
-0.049617 0.130068 -0.228379
-0.049614001 0.13014001 -0.228376
-0.049612001 0.13021199 -0.228368
-0.04961 0.13028599 -0.228352
-0.049608 0.13035899 -0.22833399
-0.049605999 0.13043299 -0.228319
-0.049603 0.130505 -0.22830699
-0.049601 0.130578 -0.228301
-0.049598001 0.13065 -0.22829901
-0.049594998 0.130722 -0.22830001
-0.049593002 0.130794 -0.228296
-0.049589999 0.13086601 -0.22828799
-0.049587 0.13094001 -0.22829001
-0.049585 0.13101199 -0.228287
-0.049582999 0.13108499 -0.228265
-0.049582001 0.13115899 -0.22823299
-0.04958 0.13123199 -0.22821701
-0.049575999 0.131304 -0.228222
-0.049573999 0.131376 -0.22822399
-0.049571 0.13145 -0.228212
-0.049569 0.131522 -0.22820599
-0.049566001 0.131594 -0.22820801
-0.049563002 0.131666 -0.228209
-0.049559999 0.13173801 -0.228213
-0.049557 0.131808 -0.228223
-0.049554002 0.13188 -0.22822399
-0.049550999 0.131952 -0.22822
-0.049548998 0.13202401 -0.228222
-0.049546 0.132098 -0.228218
-0.049543999 0.13216899 -0.228203
-0.049541 0.13224301 -0.22819699
-0.049538001 0.132313 -0.22820701
-0.049534999 0.132386 -0.228213
-0.049532 0.132458 -0.228214
-0.049529001 0.13252901 -0.228214
-0.049525999 0.13260099 -0.228214
-0.049524002 0.132673 -0.22821
-0.049520999 0.13274699 -0.22820701
-0.049518 0.132817 -0.228209
-0.049515001 0.132889 -0.228213
-0.049513001 0.132961 -0.228211
-0.049509998 0.133035 -0.228202
-0.049508002 0.13310701 -0.22818799
-0.049506001 0.13318001 -0.228168
-0.049504001 0.13325401 -0.22815201
-0.049502 0.13332599 -0.228145
-0.049499001 0.133397 -0.228139
-0.049495999 0.133469 -0.228137
-0.049493 0.133541 -0.22814099
-0.049490999 0.13361301 -0.22814199
-0.049488001 0.13368499 -0.228146
-0.049484 0.13375799 -0.228154
-0.049481999 0.13383 -0.228156
-0.049479 0.133902 -0.228155
-0.049476001 0.133974 -0.228157
-0.049472999 0.134045 -0.228155
-0.04947 0.13411701 -0.228155
-0.049467999 0.13418899 -0.228158
-0.049465001 0.134261 -0.22815999
-0.049462002 0.134334 -0.22816201
-0.049458999 0.134405 -0.228158
-0.049456999 0.134477 -0.22815301
-0.049454 0.134551 -0.22815301
-0.049451001 0.13462301 -0.228155
-0.049447998 0.13469499 -0.22815301
-0.049446002 0.134767 -0.228146
-0.049442999 0.134839 -0.228144
-0.04944 0.134911 -0.22814
-0.049438 0.134984 -0.22812
-0.049437001 0.135056 -0.228101
-0.049433999 0.135129 -0.228085
-0.049431998 0.13520101 -0.228083
-0.049428999 0.13527299 -0.228091
-0.049426001 0.135345 -0.22809
-0.049423002 0.135417 -0.22808801
-0.049419999 0.135489 -0.228092
-0.049417 0.13556001 -0.2281
-0.049414001 0.135631 -0.228099
-0.049412001 0.135703 -0.228093
-0.049408998 0.135777 -0.228101
-0.049405001 0.135848 -0.228113
-0.049401999 0.13592 -0.22812399
-0.049399 0.13599201 -0.228126
-0.049396001 0.13606399 -0.228128
-0.049392998 0.136136 -0.22813
-0.049391001 0.136208 -0.228129
-0.049387999 0.13628 -0.228127
-0.049385 0.136352 -0.228129
-0.049382001 0.13642401 -0.22813299
-0.049378999 0.13649601 -0.228136
-0.049376 0.13656799 -0.228136
-0.049373001 0.13664 -0.228138
-0.049371 0.136712 -0.228136
-0.049368002 0.136783 -0.22812299
-0.049366001 0.136857 -0.22810701
-0.049364001 0.13692901 -0.228095
-0.049362 0.13699999 -0.22808
-0.04936 0.13707399 -0.228072
-0.049357001 0.137144 -0.22807001
-0.049353998 0.137218 -0.228062
-0.049352001 0.13729 -0.228057
-0.049348999 0.137362 -0.228053
-0.049346998 0.13743301 -0.228047
-0.049343999 0.13750499 -0.228047
-0.049341001 0.137578 -0.22806001
-0.049337 0.13765 -0.228072
-0.049334001 0.13772 -0.228076
-0.049330998 0.137794 -0.228076
-0.049329001 0.13786601 -0.228067
-0.049325999 0.13793799 -0.228075
-0.049323 0.138008 -0.228085
-0.049320001 0.13808 -0.22807901
-0.049318001 0.138154 -0.228074
-0.049315002 0.13822401 -0.22808
-0.049311999 0.138298 -0.22807001
-0.049309999 0.13836899 -0.228054
-0.049307 0.138441 -0.228063
-0.049304001 0.138513 -0.228065
-0.049302001 0.138585 -0.22805899
-0.049299002 0.138657 -0.228055
-0.049297001 0.13872901 -0.228046
-0.049293999 0.13880099 -0.228038
-0.049291 0.138873 -0.228036
-0.049288999 0.138944 -0.22803199
-0.049286999 0.139016 -0.228021
-0.049284998 0.13909 -0.227999
-0.049283002 0.13916101 -0.227983
-0.049279999 0.13923299 -0.22797699
-0.049277999 0.139305 -0.227972
-0.049275 0.139377 -0.22797599
-0.049272001 0.139449 -0.22797801
-0.049268998 0.139521 -0.227974
-0.049265999 0.13959301 -0.227983
-0.049263 0.13966499 -0.227989
-0.049260002 0.139737 -0.227993
-0.049256999 0.139807 -0.22800501
-0.049254 0.139879 -0.228008
-0.049251001 0.139953 -0.228008
-0.049247999 0.14002401 -0.228018
-0.049245 0.14009599 -0.22802299
-0.049242001 0.140168 -0.22801501
-0.049240001 0.140239 -0.228001
-0.049237002 0.140313 -0.228001
-0.049233999 0.14038301 -0.228002
-0.049231999 0.140457 -0.228
-0.049229 0.14052901 -0.227992
-0.049226999 0.140599 -0.22799
-0.049222998 0.140673 -0.227997
-0.049221002 0.140743 -0.227993
-0.049219001 0.140817 -0.227983
-0.049215999 0.14088801 -0.22797699
-0.049214002 0.14095999 -0.22796801
-0.049212001 0.141031 -0.227942
-0.049210999 0.141103 -0.227916
-0.049208 0.141175 -0.227908
-0.049205001 0.141247 -0.22791301
-0.049201999 0.14131901 -0.227919
-0.049199 0.14139099 -0.227915
-0.049197 0.141463 -0.227907
-0.049194001 0.141535 -0.22791401
-0.049191002 0.141607 -0.227926
-0.049187999 0.14167701 -0.227924
-0.049185 0.14175101 -0.227916
-0.049183 0.14182299 -0.227915
-0.049180001 0.141895 -0.227917
-0.049176998 0.141967 -0.227925
-0.049174 0.142037 -0.227926
-0.049171001 0.142111 -0.227924
-0.049168002 0.14218099 -0.22792201
-0.049164999 0.14225499 -0.227928
-0.049162999 0.142325 -0.227929
-0.04916 0.142396 -0.227925
-0.049157001 0.14246801 -0.227927
-0.049153998 0.14253999 -0.227925
-0.049152002 0.142612 -0.227918
-0.049150001 0.142684 -0.22791
-0.049146999 0.142756 -0.22789399
-0.049146 0.142827 -0.227874
-0.049143001 0.14289901 -0.22786701
-0.049139999 0.14297099 -0.227869
-0.049137998 0.143043 -0.22785901
-0.049136002 0.143114 -0.22783899
-0.049134001 0.143186 -0.227834
-0.049130999 0.14325801 -0.22784001
-0.049128 0.14332999 -0.227844
-0.049125001 0.143402 -0.227836
-0.049123 0.143474 -0.227833
-0.049118999 0.143546 -0.227841
-0.049116999 0.143618 -0.227841
-0.049114 0.14369 -0.227826
-0.049112 0.14376201 -0.22781999
-0.049109001 0.14383399 -0.227826
-0.049106002 0.143905 -0.22781999
-0.049104001 0.143977 -0.227809
-0.049102001 0.144049 -0.227805
-0.049098998 0.14412101 -0.227805
-0.049095999 0.14419299 -0.227809
-0.049093001 0.144265 -0.227814
-0.049090002 0.144337 -0.227814
-0.049086999 0.144409 -0.227814
-0.049084 0.144481 -0.227818
-0.049082 0.14455099 -0.227815
-0.049079001 0.14462499 -0.227807
-0.049075998 0.144695 -0.227805
-0.049074002 0.144769 -0.227799
-0.049072001 0.14483801 -0.22779
-0.049068999 0.14490999 -0.22778
-0.049067002 0.144982 -0.227762
-0.049065001 0.145053 -0.227749
-0.049061999 0.145125 -0.22774699
-0.049059998 0.145197 -0.227745
-0.049056999 0.14526901 -0.22773901
-0.049054001 0.14534099 -0.227742
-0.049052 0.145413 -0.227742
-0.049049001 0.145485 -0.227736
-0.049047001 0.145557 -0.22772799
-0.049044002 0.14562599 -0.227723
-0.049042001 0.145698 -0.22771899
-0.049038999 0.14577 -0.22771101
-0.049036 0.145842 -0.227709
-0.049033001 0.145914 -0.227716
-0.049031001 0.14598601 -0.22770999
-0.049028002 0.14605799 -0.22770999
-0.049024999 0.14613 -0.227714
-0.049022 0.146202 -0.22771899
-0.049019001 0.146274 -0.227717
-0.049017001 0.146346 -0.22770301
-0.049015 0.14641801 -0.227699
-0.049012002 0.14648999 -0.2277
-0.049008999 0.146562 -0.2277
-0.049006 0.146634 -0.227704
-0.049003001 0.146706 -0.227704
-0.049001001 0.146777 -0.227697
-0.048999 0.14684699 -0.227681
-0.048997 0.146919 -0.227661
-0.048994999 0.14699 -0.22764
-0.048992999 0.147062 -0.227626
-0.048990998 0.14713299 -0.227616
-0.048988 0.147203 -0.227615
-0.048985001 0.147277 -0.22761901
-0.048983 0.147347 -0.227613
-0.048980001 0.14741901 -0.22760899
-0.048976999 0.14749099 -0.227608
-0.048974998 0.147563 -0.22760201
-0.048971999 0.147635 -0.227598
-0.048969999 0.147707 -0.22758999
-0.048967 0.147779 -0.22759099
-0.048964001 0.14785101 -0.227593
-0.048962001 0.14792199 -0.227585
-0.048958998 0.147994 -0.227579
-0.048955999 0.148066 -0.227588
-0.048953 0.148138 -0.227594
-0.048951 0.14821 -0.22758
-0.048948001 0.14827999 -0.22758
-0.048944999 0.14835399 -0.227589
-0.048942 0.148426 -0.227587
-0.048939001 0.148496 -0.22758099
-0.048937 0.148568 -0.227577
-0.048934001 0.14864001 -0.227586
-0.048930999 0.14871401 -0.22758199
-0.048928998 0.148783 -0.227562
-0.048927002 0.148855 -0.227551
-0.048925001 0.148927 -0.227539
-0.048921999 0.14899699 -0.227531
-0.048920002 0.149069 -0.227529
-0.048916999 0.14914 -0.227524
-0.048914999 0.149212 -0.22752
-0.048912 0.14928401 -0.227514
-0.048909999 0.14935599 -0.22749799
-0.048907999 0.149428 -0.22749101
-0.048905 0.1495 -0.227497
-0.048902001 0.14957 -0.22749899
-0.048898999 0.149643 -0.227493
-0.048896 0.14971299 -0.227492
-0.048893999 0.149785 -0.22748999
-0.048891 0.149857 -0.22748201
-0.048889 0.149929 -0.22747099
-0.048886999 0.150001 -0.227465
-0.048884001 0.15007301 -0.22746301
-0.048881002 0.15014499 -0.22746301
-0.048877999 0.150217 -0.227478
-0.048873998 0.150289 -0.227488
-0.048872001 0.150361 -0.227488
-0.048868999 0.150433 -0.22748999
-0.048866 0.150507 -0.227495
-0.048863001 0.15057699 -0.22749101
-0.048859999 0.150649 -0.227487
-0.048858002 0.150721 -0.227485
-0.048854999 0.150793 -0.227478
-0.048852999 0.15086401 -0.22746199
-0.048852 0.150934 -0.22744
-0.048849002 0.151003 -0.22742701
-0.048845999 0.151078 -0.22743499
-0.048843 0.15115 -0.227439
-0.048841 0.15122101 -0.22743499
-0.048838001 0.15129299 -0.22743499
-0.048834998 0.151365 -0.227432
-0.048831999 0.151437 -0.227432
-0.048829 0.151509 -0.22743601
-0.048827 0.151581 -0.227437
-0.048822999 0.15165301 -0.22744299
-0.04882 0.15172599 -0.227459
-0.048815999 0.15180001 -0.22747301
-0.048813 0.15187199 -0.227485
-0.048810001 0.15194599 -0.227496
-0.048806999 0.152018 -0.22749799
-0.048804 0.152091 -0.227502
-0.048799999 0.152165 -0.227514
-0.048797 0.152237 -0.227521
-0.048794001 0.152309 -0.22752699
-0.048790999 0.152381 -0.22752699
-0.048788 0.15245301 -0.22752699
-0.048785001 0.152527 -0.227539
-0.048781998 0.15259901 -0.227552
-0.048778001 0.152674 -0.227558
-0.048776001 0.15274601 -0.227558
-0.048772 0.15281799 -0.227566
-0.048769001 0.15289199 -0.227579
-0.048765998 0.152964 -0.22758099
-0.048764002 0.153036 -0.22757301
-0.048760999 0.153108 -0.227575
-0.048757002 0.153182 -0.22759999
-0.048753001 0.153257 -0.227622
-0.048749998 0.153329 -0.22762799
-0.048746001 0.153403 -0.22763801
-0.048742 0.153476 -0.22766399
-0.048737999 0.15355 -0.227687
-0.048734002 0.153624 -0.227709
-0.048730001 0.153699 -0.227735
-0.048726 0.15377501 -0.227755
-0.048723001 0.15384801 -0.227771
-0.048719998 0.15391999 -0.22777499
-0.048716001 0.15399399 -0.227786
-0.048712999 0.15406799 -0.227806
-0.048709001 0.15414301 -0.227826
-0.048703998 0.154218 -0.227856
-0.048698999 0.154294 -0.227898
-0.048695002 0.15437099 -0.227928
-0.048691001 0.15444601 -0.227957
-0.048686001 0.15452 -0.227989
-0.048682 0.154597 -0.22802299
-0.048678 0.154672 -0.228045
-0.048673999 0.154746 -0.228067
-0.048670001 0.15482 -0.228089
-0.048666 0.15489499 -0.22810601
-0.048663002 0.15496901 -0.228108
-0.048659999 0.15504099 -0.22811
-0.048657 0.15511499 -0.228126
-0.048652001 0.155192 -0.228158
-0.048647001 0.155269 -0.228202
-0.048641998 0.15534601 -0.228251
-0.048636999 0.155423 -0.228291
-0.048632 0.15550201 -0.22833499
-0.048627 0.155579 -0.228383
-0.048620999 0.15565801 -0.228433
-0.048613999 0.15573999 -0.228513
-0.048608001 0.155819 -0.228587
-0.048601002 0.155901 -0.228663
-0.048593 0.155985 -0.22875901
-0.048585001 0.156069 -0.228852
-0.048579998 0.156146 -0.228907
-0.049633 0.125954 -0.229775
-0.049631 0.126027 -0.22975799
-0.049628999 0.126103 -0.229746
-0.049626999 0.126178 -0.22971401
-0.049626 0.12625501 -0.22967
-0.049625002 0.12633 -0.229636
-0.049624 0.126407 -0.229588
-0.049621999 0.12648501 -0.229561
-0.049621001 0.12656 -0.229527
-0.049621001 0.126638 -0.229467
-0.049619999 0.12671401 -0.22942699
-0.049619 0.126789 -0.229395
-0.049617 0.126866 -0.229366
-0.049614999 0.126941 -0.22933599
-0.049614001 0.12701599 -0.229296
-0.049614999 0.127097 -0.22922
-0.049614999 0.127175 -0.22914401
-0.049614001 0.127252 -0.229104
-0.049612001 0.127326 -0.22908901
-0.04961 0.127399 -0.229083
-0.049608 0.127473 -0.229067
-0.049605001 0.127547 -0.22905099
-0.049603 0.12762 -0.229036
-0.049601 0.127692 -0.22903401
-0.049598001 0.127766 -0.22903401
-0.049594998 0.12784 -0.22902
-0.049594 0.127913 -0.22899
-0.049593002 0.127992 -0.22894301
-0.049593002 0.128069 -0.228879
-0.049592 0.12814599 -0.228837
-0.049589999 0.128217 -0.228827
-0.049587999 0.128291 -0.228809
-0.049587 0.12836599 -0.228778
-0.049585 0.12843999 -0.22875801
-0.049582001 0.12851401 -0.228756
-0.049578998 0.12858599 -0.228752
-0.049578 0.128659 -0.22872899
-0.049575999 0.12873399 -0.228701
-0.049573999 0.12881 -0.228673
-0.049573001 0.128885 -0.228641
-0.049571 0.128958 -0.22861101
-0.049571998 0.12903699 -0.228542
-0.049571998 0.129113 -0.228478
-0.049570002 0.129187 -0.22845399
-0.049566999 0.12926 -0.228452
-0.049564 0.12933201 -0.228453
-0.049562 0.12940399 -0.22844499
-0.049559999 0.12947799 -0.228429
-0.049557999 0.12955201 -0.22841699
-0.049555 0.12962399 -0.22841699
-0.049552001 0.129696 -0.22842
-0.049550001 0.129767 -0.22840799
-0.049547002 0.129841 -0.228398
-0.049545001 0.129913 -0.228394
-0.049541999 0.129987 -0.228387
-0.049539998 0.13006 -0.22837099
-0.049538001 0.130134 -0.228351
-0.049536001 0.130206 -0.228339
-0.049534 0.130279 -0.22832599
-0.049531002 0.130353 -0.22831801
-0.049529001 0.13042501 -0.22831599
-0.049525999 0.13049699 -0.228312
-0.049523 0.130569 -0.228311
-0.049520001 0.130641 -0.228311
-0.049518 0.130715 -0.228305
-0.049515001 0.130786 -0.22829901
-0.049513001 0.130858 -0.228296
-0.049511001 0.130932 -0.22827999
-0.049509 0.131005 -0.22826201
-0.049507 0.131079 -0.22824401
-0.049504999 0.13115101 -0.22822499
-0.049502 0.13122401 -0.228211
-0.0495 0.13129599 -0.22820701
-0.049497001 0.13136999 -0.228201
-0.049495 0.131442 -0.22819801
-0.049492002 0.131514 -0.228196
-0.049488999 0.131586 -0.228196
-0.049486 0.131658 -0.228196
-0.049484 0.13173001 -0.22819699
-0.049481001 0.13180199 -0.228201
-0.049477 0.131874 -0.228211
-0.049474001 0.131944 -0.228219
-0.049470998 0.132016 -0.22823
-0.049467999 0.13208801 -0.228232
-0.049465999 0.132162 -0.228222
-0.049463 0.13223401 -0.228214
-0.049460001 0.132304 -0.22821701
-0.049456999 0.132378 -0.228219
-0.049454998 0.13245 -0.228209
-0.049451999 0.132521 -0.228205
-0.049449999 0.13259301 -0.22820599
-0.049447 0.13266499 -0.22820599
-0.049444001 0.132737 -0.22821
-0.049440999 0.132809 -0.228212
-0.049438 0.132883 -0.228203
-0.049435999 0.132955 -0.228193
-0.049433999 0.133027 -0.228181
-0.049431998 0.1331 -0.228165
-0.049430002 0.13317201 -0.22815201
-0.049426999 0.133246 -0.228144
-0.049424998 0.13331801 -0.228138
-0.049422 0.133389 -0.22813199
-0.049419999 0.133463 -0.22812299
-0.049417 0.133535 -0.228117
-0.049414001 0.133607 -0.228127
-0.049410999 0.13367701 -0.228139
-0.049408 0.13374899 -0.228144
-0.049405001 0.13382199 -0.228146
-0.049401999 0.133893 -0.228144
-0.049399 0.133967 -0.22814
-0.049396999 0.134039 -0.228139
-0.049394 0.13410901 -0.22814301
-0.049391001 0.134183 -0.228145
-0.049387999 0.134253 -0.22815099
-0.049384002 0.134326 -0.22816201
-0.049382001 0.134398 -0.22815999
-0.049378999 0.134469 -0.22815201
-0.049377002 0.134543 -0.228146
-0.049373999 0.134615 -0.228145
-0.049371 0.13468701 -0.228147
-0.049368002 0.13475899 -0.228149
-0.049366001 0.134831 -0.228145
-0.049362998 0.134903 -0.228138
-0.049361002 0.134974 -0.228122
-0.049359001 0.135048 -0.228102
-0.049357001 0.135122 -0.228084
-0.049355 0.13519301 -0.22806901
-0.049353 0.13526499 -0.228063
-0.049348999 0.135337 -0.228073
-0.049346 0.135409 -0.228085
-0.049343001 0.135481 -0.22808801
-0.049339999 0.135552 -0.228092
-0.049337 0.13562401 -0.228094
-0.049334001 0.13569599 -0.228095
-0.049332 0.13576899 -0.228093
-0.049329001 0.13584 -0.228101
-0.049325 0.135912 -0.228117
-0.049322002 0.135984 -0.228122
-0.049318999 0.13605601 -0.22812
-0.049316999 0.13612799 -0.228118
-0.049314 0.1362 -0.22811601
-0.049311001 0.136272 -0.22811501
-0.049309 0.136344 -0.228109
-0.049306002 0.136416 -0.228111
-0.049302001 0.13648801 -0.228119
-0.049299002 0.13655999 -0.22813
-0.049295999 0.136632 -0.228128
-0.049293999 0.136704 -0.22811601
-0.049291998 0.136775 -0.228112
-0.049288999 0.136849 -0.228109
-0.049286999 0.136921 -0.228101
-0.049284998 0.13699301 -0.228081
-0.049283002 0.13706601 -0.228063
-0.049279999 0.13713799 -0.22806001
-0.049277 0.13721 -0.228058
-0.049275 0.137282 -0.228056
-0.049272001 0.137354 -0.228056
-0.049268998 0.137426 -0.228053
-0.049267001 0.13749699 -0.22804099
-0.049263999 0.137569 -0.228037
-0.049261 0.137642 -0.228047
-0.049258001 0.137714 -0.228058
-0.049254999 0.137786 -0.22805201
-0.049253002 0.13785701 -0.228046
-0.049249001 0.13793001 -0.228058
-0.049245998 0.138 -0.228075
-0.049242999 0.138072 -0.228075
-0.049240999 0.138146 -0.22806901
-0.049238 0.138218 -0.22806101
-0.049235001 0.13829 -0.22806001
-0.049233001 0.13836101 -0.228056
-0.049229998 0.13843299 -0.228058
-0.049226999 0.138505 -0.228058
-0.049224 0.138577 -0.228057
-0.049222 0.138649 -0.22805101
-0.049219001 0.138721 -0.228047
-0.049217001 0.13879301 -0.228045
-0.049214002 0.13886499 -0.228044
-0.049210999 0.138937 -0.22804201
-0.049208999 0.139009 -0.22803
-0.049206998 0.139082 -0.22800399
-0.049205001 0.139154 -0.227989
-0.049201999 0.139226 -0.22799499
-0.049199 0.13929801 -0.227991
-0.049197 0.139369 -0.22797801
-0.049194999 0.139441 -0.22797599
-0.049192 0.139513 -0.227972
-0.049189001 0.139585 -0.227974
-0.049185999 0.13965701 -0.227989
-0.049182002 0.13973001 -0.228003
-0.049178999 0.1398 -0.228011
-0.049176 0.139872 -0.228009
-0.049174 0.139944 -0.228008
-0.049169999 0.140016 -0.228018
-0.049168002 0.14008801 -0.228018
-0.049164999 0.14015999 -0.228016
-0.049162 0.140232 -0.22801299
-0.04916 0.140305 -0.228009
-0.049157001 0.140375 -0.228003
-0.049153998 0.140449 -0.228001
-0.049151 0.14051899 -0.22800601
-0.049148001 0.140591 -0.22801
-0.049146 0.140663 -0.228
-0.049144 0.140735 -0.227982
-0.049141999 0.140808 -0.227973
-0.049139 0.14088 -0.22796901
-0.049137 0.14095201 -0.227957
-0.049136002 0.141023 -0.227925
-0.049134001 0.141095 -0.22790401
-0.049130999 0.141167 -0.2279
-0.049128 0.141239 -0.2279
-0.049125999 0.14131001 -0.227897
-0.049123 0.14138199 -0.227897
-0.049120001 0.141454 -0.22789501
-0.049118001 0.141526 -0.22789501
-0.049114 0.141598 -0.227902
-0.049111001 0.141671 -0.22791
-0.049107999 0.141743 -0.22791
-0.049106002 0.14181501 -0.22791
-0.049102999 0.141886 -0.227907
-0.0491 0.141958 -0.227909
-0.049097002 0.142029 -0.22792099
-0.049093999 0.142103 -0.22792301
-0.049091 0.14217301 -0.227916
-0.049088001 0.14224701 -0.227918
-0.049086001 0.142317 -0.227918
-0.049082998 0.142388 -0.22791
-0.049081001 0.14246 -0.227907
-0.049077999 0.14253201 -0.22790501
-0.049075 0.14260601 -0.22790299
-0.049073 0.142676 -0.227897
-0.049070001 0.142748 -0.227888
-0.049068 0.142819 -0.227878
-0.049066 0.142891 -0.227874
-0.049063001 0.14296301 -0.22786701
-0.049061 0.14303499 -0.227853
-0.049059 0.143106 -0.22783899
-0.049056001 0.143178 -0.227833
-0.049052998 0.14325 -0.227836
-0.049051002 0.14332201 -0.22782999
-0.049047999 0.14339399 -0.227824
-0.049045999 0.143466 -0.227824
-0.049042001 0.143538 -0.22783101
-0.049038999 0.14361 -0.227835
-0.049036 0.143682 -0.227841
-0.049033001 0.14375401 -0.227843
-0.049031001 0.14382599 -0.22783799
-0.049029 0.143898 -0.22782201
-0.049027 0.143969 -0.22781201
-0.049024001 0.144041 -0.22780401
-0.049022 0.144113 -0.227801
-0.049019001 0.14418501 -0.227805
-0.049015999 0.14425699 -0.22780301
-0.049013 0.144329 -0.227801
-0.049010001 0.144401 -0.227814
-0.049006999 0.144473 -0.227816
-0.049004 0.14454301 -0.22781201
-0.049001001 0.14461701 -0.22781201
-0.048999 0.144687 -0.22781099
-0.048996001 0.144761 -0.227805
-0.048994001 0.144831 -0.227795
-0.048992001 0.14490201 -0.227772
-0.048990998 0.14497299 -0.227742
-0.048988 0.145045 -0.227736
-0.048985001 0.145117 -0.22774599
-0.048982002 0.145189 -0.227749
-0.048980001 0.145261 -0.227743
-0.048976999 0.14533301 -0.22773699
-0.048974 0.14540499 -0.22773699
-0.048971001 0.145477 -0.22774599
-0.048967998 0.145549 -0.22776
-0.048965 0.145621 -0.227762
-0.048962001 0.145693 -0.227762
-0.04896 0.14576501 -0.227755
-0.048958 0.14583699 -0.22773699
-0.048955999 0.145906 -0.227723
-0.048953 0.145978 -0.22770999
-0.048951 0.14605001 -0.22770201
-0.048948001 0.14612199 -0.22770201
-0.048944999 0.146194 -0.227714
-0.048942 0.146266 -0.227713
-0.048939999 0.146338 -0.227705
-0.048937 0.14641 -0.22770099
-0.048935 0.14648201 -0.227697
-0.048932001 0.14655399 -0.227694
-0.048928998 0.146626 -0.227698
-0.048926 0.146698 -0.2277
-0.048923001 0.146769 -0.227694
-0.048921999 0.14683899 -0.227677
-0.048920002 0.14691 -0.227653
-0.048918001 0.146982 -0.227635
-0.048914999 0.147054 -0.227634
-0.048912998 0.147126 -0.227626
-0.048911002 0.147195 -0.227606
-0.048909001 0.147267 -0.227594
-0.048905998 0.147339 -0.227593
-0.048903 0.147411 -0.227595
-0.048900999 0.14748301 -0.227587
-0.048898 0.14755499 -0.22758099
-0.048896 0.147627 -0.22758199
-0.048893001 0.147698 -0.22757401
-0.048889998 0.14777 -0.22757199
-0.048886999 0.147842 -0.227576
-0.048884001 0.14791401 -0.22758099
-0.048881002 0.14798699 -0.22759099
-0.048877999 0.148059 -0.22759099
-0.048875999 0.148128 -0.22758
-0.048873998 0.14820001 -0.227568
-0.048870999 0.14827199 -0.22757
-0.048868001 0.14834601 -0.22758199
-0.048865002 0.14841799 -0.227584
-0.048861999 0.148488 -0.227585
-0.048859 0.148562 -0.227577
-0.048857 0.148632 -0.227575
-0.048854001 0.14870401 -0.22757401
-0.048852 0.148775 -0.227558
-0.04885 0.148847 -0.227542
-0.048847001 0.148919 -0.22754
-0.048845001 0.148991 -0.227541
-0.048842002 0.14906301 -0.227533
-0.048840001 0.149132 -0.227521
-0.048836999 0.149204 -0.22751901
-0.048834998 0.149276 -0.227516
-0.048833001 0.14934801 -0.227502
-0.048829999 0.14941999 -0.227488
-0.048827 0.149492 -0.22749101
-0.048824001 0.149564 -0.22749899
-0.048822001 0.149636 -0.227497
-0.048819002 0.14970499 -0.227487
-0.048817001 0.149777 -0.227478
-0.048815001 0.149849 -0.227466
-0.048811998 0.149921 -0.22746
-0.048808999 0.149993 -0.22746199
-0.048806001 0.150065 -0.22747301
-0.048803002 0.15013701 -0.22747301
-0.048801001 0.15020899 -0.227467
-0.048797999 0.150281 -0.227469
-0.048795 0.150353 -0.227474
-0.048792999 0.150425 -0.22746
-0.04879 0.15049601 -0.22745401
-0.048787002 0.15056901 -0.227468
-0.048783999 0.15064099 -0.22747301
-0.048781 0.150713 -0.22747099
-0.048778001 0.150785 -0.22747301
-0.048774999 0.150857 -0.227469
-0.048772998 0.15092801 -0.22746
-0.048771001 0.150998 -0.227446
-0.048769001 0.15107 -0.22743
-0.048767 0.151141 -0.227421
-0.048764002 0.15121301 -0.22741701
-0.048762001 0.151283 -0.227415
-0.048758999 0.151355 -0.22741701
-0.048755001 0.151429 -0.227432
-0.048751999 0.151502 -0.227446
-0.048748001 0.151576 -0.227452
-0.048746001 0.151648 -0.227452
-0.048742998 0.15171801 -0.227447
-0.04874 0.151792 -0.227449
-0.048737001 0.15186401 -0.227457
-0.048734002 0.15193599 -0.227461
-0.048730999 0.152008 -0.22747
-0.048726998 0.152082 -0.227486
-0.048723999 0.152154 -0.227494
-0.048721001 0.152226 -0.227488
-0.048719 0.152298 -0.22748999
-0.048714999 0.152373 -0.227503
-0.048712 0.152445 -0.227511
-0.048709001 0.15251701 -0.227515
-0.048705 0.152591 -0.227531
-0.048700999 0.152666 -0.227551
-0.048698001 0.152738 -0.227562
-0.048695002 0.15281001 -0.227568
-0.048691999 0.15288199 -0.227568
-0.048689999 0.152954 -0.22756401
-0.048686001 0.153028 -0.227577
-0.048682 0.153102 -0.227595
-0.048679002 0.153174 -0.22759899
-0.048675999 0.153246 -0.227605
-0.048673 0.153321 -0.227622
-0.048668999 0.153395 -0.227642
-0.048664998 0.15346999 -0.22766399
-0.048661001 0.153542 -0.22768401
-0.048657 0.153616 -0.22770201
-0.048652999 0.15369099 -0.227726
-0.04865 0.15376499 -0.227741
-0.048645999 0.15384001 -0.22775701
-0.048641998 0.153914 -0.22778299
-0.048638001 0.153988 -0.227799
-0.048634999 0.154061 -0.227809
-0.048631001 0.154135 -0.227824
-0.048627 0.15421 -0.227852
-0.048622999 0.154286 -0.227888
-0.048618 0.15436099 -0.227918
-0.048613999 0.154438 -0.227952
-0.048609 0.154512 -0.227982
-0.048604999 0.154587 -0.228003
-0.048601002 0.154663 -0.22803099
-0.048597001 0.15473799 -0.22805899
-0.048593 0.15481199 -0.228075
-0.048590001 0.15488701 -0.228091
-0.048586 0.154961 -0.228111
-0.048581999 0.155035 -0.22812
-0.048579 0.15510701 -0.228128
-0.048574999 0.155182 -0.228148
-0.04857 0.155261 -0.22819801
-0.048565 0.155338 -0.228248
-0.048560001 0.155415 -0.228278
-0.048555002 0.155494 -0.228332
-0.048549 0.155573 -0.22838999
-0.048542999 0.15565 -0.228442
-0.048535999 0.15573201 -0.22852001
-0.048530001 0.155811 -0.22858
-0.048525002 0.15589 -0.228636
-0.048517998 0.155972 -0.228718
-0.048509002 0.156059 -0.228836
-0.048503 0.156138 -0.22889
-0.048498999 0.156215 -0.22892
-0.049552999 0.125857 -0.22999901
-0.049552001 0.125934 -0.229956
-0.049552001 0.12601399 -0.22987799
-0.049555 0.12609901 -0.229752
-0.049552999 0.126175 -0.22973201
-0.049552001 0.126252 -0.22969399
-0.049550999 0.12632699 -0.229652
-0.049550001 0.126404 -0.22960301
-0.049550001 0.12648199 -0.229551
-0.049548 0.12655801 -0.22951899
-0.049547002 0.126635 -0.229479
-0.049546 0.12671199 -0.22942901
-0.049546 0.12678801 -0.229379
-0.049543999 0.126866 -0.22934601
-0.049543001 0.126939 -0.22932599
-0.049541 0.127014 -0.229298
-0.049541 0.127093 -0.229242
-0.049541 0.12717199 -0.229174
-0.049539998 0.127248 -0.22911701
-0.049539 0.127324 -0.229093
-0.049536001 0.127398 -0.229085
-0.049534 0.127471 -0.22906899
-0.049532 0.127545 -0.22905099
-0.049529999 0.127618 -0.22903401
-0.049527999 0.127692 -0.229018
-0.049525999 0.127766 -0.22900601
-0.049523 0.127839 -0.22899599
-0.049520999 0.127913 -0.22898699
-0.049518999 0.127988 -0.228957
-0.049518999 0.128065 -0.228893
-0.049518999 0.128144 -0.228835
-0.049516998 0.128217 -0.228809
-0.049515001 0.128289 -0.22880401
-0.049513001 0.128363 -0.22879399
-0.049511001 0.128438 -0.22877
-0.049509 0.128512 -0.228752
-0.049506001 0.128585 -0.228742
-0.049504001 0.128657 -0.228733
-0.049502 0.12873299 -0.228715
-0.0495 0.12880599 -0.228687
-0.049499001 0.12888101 -0.228651
-0.049497999 0.128956 -0.228616
-0.049497001 0.129033 -0.22856601
-0.049497001 0.12910999 -0.228504
-0.049495999 0.12918501 -0.228468
-0.049493998 0.12925901 -0.22845399
-0.049490999 0.12932999 -0.22844701
-0.049488999 0.129402 -0.228439
-0.049486 0.129476 -0.228431
-0.049484 0.129548 -0.22842699
-0.049481001 0.129622 -0.22842
-0.049479 0.129693 -0.22841001
-0.049477 0.129765 -0.228404
-0.049474001 0.129839 -0.228406
-0.049470998 0.12991101 -0.228407
-0.049467999 0.12998299 -0.228397
-0.049465999 0.13005701 -0.22838099
-0.049465001 0.130132 -0.228349
-0.049463 0.13020501 -0.228332
-0.049460001 0.13027699 -0.22832599
-0.049458001 0.130349 -0.22832
-0.049454998 0.13042299 -0.22831599
-0.049451999 0.130493 -0.228321
-0.049449001 0.130567 -0.228319
-0.049447 0.130639 -0.228311
-0.049445 0.130712 -0.228301
-0.049442001 0.130784 -0.228295
-0.049439002 0.13085601 -0.228292
-0.049437001 0.13093001 -0.22827999
-0.049435001 0.13100301 -0.228258
-0.049433 0.13107701 -0.22824199
-0.049431 0.13114899 -0.228229
-0.049428999 0.13122199 -0.228213
-0.049426999 0.131294 -0.228205
-0.049424 0.131368 -0.22819699
-0.049421001 0.13144 -0.22819801
-0.049417999 0.131512 -0.228204
-0.049415 0.13158201 -0.228214
-0.049412001 0.13165399 -0.22821601
-0.049408998 0.131726 -0.228213
-0.049407002 0.1318 -0.228211
-0.049403999 0.13187 -0.22821499
-0.049400002 0.131942 -0.22823299
-0.049396999 0.13201299 -0.22824199
-0.049394999 0.13208599 -0.22823
-0.049392998 0.13215999 -0.22821
-0.049391001 0.132231 -0.228196
-0.049387001 0.132304 -0.22820701
-0.049384002 0.132376 -0.228221
-0.049380999 0.132448 -0.22821701
-0.049378999 0.13252001 -0.228211
-0.049376 0.13259099 -0.22820599
-0.049373001 0.132663 -0.228204
-0.049371 0.132735 -0.228204
-0.049368002 0.132807 -0.228205
-0.049364999 0.132881 -0.228205
-0.049362 0.132953 -0.228201
-0.04936 0.13302501 -0.22818699
-0.049357999 0.133099 -0.228175
-0.049355999 0.13316999 -0.228154
-0.049353998 0.13324399 -0.22814
-0.049350999 0.133316 -0.228144
-0.049348 0.133388 -0.228148
-0.049345002 0.13346 -0.228147
-0.049341999 0.133532 -0.228147
-0.049339999 0.133604 -0.228149
-0.049337 0.13367601 -0.22815
-0.049334001 0.13374799 -0.228146
-0.049330998 0.133819 -0.228144
-0.049329001 0.133892 -0.228146
-0.049325 0.133964 -0.22815301
-0.049322002 0.134036 -0.228157
-0.049320001 0.13410699 -0.228149
-0.049316999 0.134179 -0.228145
-0.049314 0.134252 -0.228158
-0.049311001 0.134324 -0.228164
-0.049309 0.134395 -0.22815
-0.049306002 0.13446701 -0.228144
-0.049302999 0.13453899 -0.22815301
-0.0493 0.13461199 -0.22816101
-0.049297001 0.134683 -0.228159
-0.049293999 0.134755 -0.228157
-0.049291998 0.134827 -0.228156
-0.049288999 0.134901 -0.228144
-0.049288001 0.13497201 -0.228122
-0.049286 0.13504601 -0.228102
-0.049283002 0.13511799 -0.228095
-0.049281001 0.13519 -0.228091
-0.049277999 0.135263 -0.228081
-0.049276002 0.135335 -0.228075
-0.049272999 0.135407 -0.228074
-0.049270999 0.135479 -0.228066
-0.049268 0.13555101 -0.228064
-0.049265001 0.13562299 -0.22807001
-0.049261998 0.135695 -0.228083
-0.049258001 0.135766 -0.22809701
-0.049254999 0.135838 -0.228109
-0.049252 0.13591 -0.22811501
-0.049249001 0.13598201 -0.22812
-0.049245998 0.13605399 -0.22812399
-0.049242999 0.136126 -0.228126
-0.049240001 0.136198 -0.228126
-0.049237002 0.13627 -0.22812299
-0.049235001 0.136342 -0.22811501
-0.049231999 0.13641401 -0.228113
-0.049229 0.13648599 -0.228121
-0.049226001 0.136558 -0.22813
-0.049222998 0.13663 -0.228122
-0.049221002 0.136701 -0.22811399
-0.049217999 0.136774 -0.22811601
-0.049215 0.13684601 -0.228119
-0.049213 0.136917 -0.22810701
-0.049210999 0.13699099 -0.228091
-0.049208999 0.137062 -0.228073
-0.049206998 0.137136 -0.228062
-0.049203999 0.137208 -0.228056
-0.049201999 0.13728 -0.228048
-0.049199 0.13735101 -0.228038
-0.049197 0.13742299 -0.228039
-0.049194001 0.137495 -0.228039
-0.049191002 0.137567 -0.22804099
-0.049187001 0.13764 -0.228055
-0.049183998 0.13771001 -0.22806799
-0.049180999 0.137784 -0.228062
-0.049178999 0.13785601 -0.22804999
-0.049176 0.13792799 -0.22805201
-0.049173001 0.137998 -0.228071
-0.049169999 0.13807 -0.22807699
-0.049167 0.138144 -0.228067
-0.049164999 0.138216 -0.22806101
-0.049162 0.13828699 -0.228058
-0.049159002 0.138359 -0.228056
-0.049155999 0.138431 -0.228058
-0.049153998 0.138503 -0.228055
-0.049151 0.138575 -0.22805101
-0.049148999 0.138647 -0.228045
-0.049146 0.13871901 -0.228045
-0.049143001 0.13879099 -0.228038
-0.049141001 0.138862 -0.22802401
-0.049139 0.138934 -0.22802
-0.049136002 0.139006 -0.22802
-0.049134001 0.13907801 -0.22801299
-0.049130999 0.13914999 -0.227997
-0.049129002 0.13922299 -0.22798499
-0.049125999 0.139295 -0.22798499
-0.049123999 0.139367 -0.227984
-0.049121 0.139439 -0.22798
-0.049118001 0.139511 -0.22797801
-0.049114998 0.13958301 -0.22798
-0.049113002 0.13965499 -0.227971
-0.049111001 0.139727 -0.227965
-0.049107 0.139799 -0.227983
-0.049102999 0.13987 -0.228007
-0.0491 0.13994201 -0.22802
-0.049097002 0.14001399 -0.22802
-0.049093999 0.140086 -0.228012
-0.049091998 0.140159 -0.227998
-0.049090002 0.140231 -0.227979
-0.049088001 0.140302 -0.227965
-0.049084999 0.140375 -0.227983
-0.049081001 0.14044701 -0.228003
-0.049077999 0.140517 -0.228002
-0.049075998 0.140589 -0.22799
-0.049073 0.140663 -0.227988
-0.049070001 0.140733 -0.227991
-0.049068 0.140807 -0.227983
-0.049066 0.14087801 -0.227963
-0.049063999 0.14094999 -0.227945
-0.049061999 0.141021 -0.22792999
-0.049059998 0.141093 -0.227916
-0.049056999 0.141165 -0.22791401
-0.049054001 0.14123701 -0.227916
-0.049052 0.14130899 -0.22791301
-0.049049001 0.141381 -0.227909
-0.049045999 0.141453 -0.22791301
-0.049043 0.141525 -0.227915
-0.049040001 0.141597 -0.22791401
-0.049038 0.14166901 -0.22791
-0.049035002 0.14174099 -0.22791199
-0.049031999 0.141813 -0.22791401
-0.049029 0.141885 -0.227919
-0.049026001 0.141955 -0.227929
-0.049022999 0.14202701 -0.227925
-0.049020998 0.14210001 -0.22790501
-0.049019001 0.14217 -0.227898
-0.049015999 0.142244 -0.227906
-0.049013 0.142314 -0.227908
-0.049010001 0.142386 -0.227908
-0.049006999 0.14245801 -0.227909
-0.049005002 0.14252999 -0.22790501
-0.049001999 0.142602 -0.227909
-0.048997998 0.142674 -0.227919
-0.048994999 0.142746 -0.22792201
-0.048992999 0.142818 -0.227908
-0.048992001 0.14288899 -0.227882
-0.04899 0.142961 -0.22785901
-0.048988 0.143033 -0.227845
-0.048985999 0.143104 -0.227835
-0.048983 0.143176 -0.22782899
-0.048980001 0.14324801 -0.22783799
-0.048976999 0.14331999 -0.22784001
-0.048974998 0.143392 -0.227824
-0.048971999 0.143464 -0.22782201
-0.048969001 0.143536 -0.227827
-0.048966002 0.143608 -0.22782899
-0.048962999 0.14368001 -0.227837
-0.04896 0.14375199 -0.227843
-0.048958 0.143824 -0.227832
-0.048955999 0.143895 -0.22781
-0.048953999 0.143967 -0.22779
-0.048951998 0.14403901 -0.22778299
-0.048948999 0.14411099 -0.22778501
-0.048946001 0.14418299 -0.227797
-0.048942 0.144255 -0.227807
-0.048939001 0.144327 -0.227816
-0.048935998 0.144399 -0.227818
-0.048934001 0.144471 -0.22781
-0.048930999 0.144541 -0.227808
-0.048928 0.14461499 -0.22781099
-0.048925001 0.144685 -0.22781301
-0.048923001 0.144759 -0.22781099
-0.048920002 0.14482901 -0.227799
-0.048918001 0.14489999 -0.227782
-0.048916001 0.144972 -0.227768
-0.048914 0.145044 -0.227752
-0.048912 0.145115 -0.227736
-0.048909999 0.14518701 -0.227731
-0.048907001 0.14525899 -0.22773699
-0.048904002 0.145331 -0.22773699
-0.048900999 0.145403 -0.227733
-0.048898999 0.145475 -0.22773001
-0.048896 0.145547 -0.227724
-0.048893999 0.14561699 -0.22772001
-0.048891 0.145688 -0.227717
-0.048888002 0.14576 -0.22771899
-0.048884999 0.145835 -0.227731
-0.048882 0.145905 -0.227727
-0.048879001 0.14597601 -0.227724
-0.048875999 0.14604899 -0.227726
-0.048873998 0.14612 -0.227718
-0.048870999 0.146192 -0.227714
-0.048868001 0.146264 -0.22772101
-0.048866 0.146336 -0.227715
-0.048864 0.14640801 -0.227699
-0.048861001 0.14647999 -0.22769099
-0.048858002 0.146552 -0.227696
-0.048854999 0.146624 -0.22770201
-0.048852 0.146696 -0.22770201
-0.04885 0.146768 -0.227696
-0.048847999 0.14683899 -0.22768299
-0.048845999 0.146911 -0.227671
-0.048843998 0.146981 -0.22765701
-0.048842002 0.147052 -0.22763801
-0.048840001 0.14712401 -0.227624
-0.048836999 0.14719599 -0.22761799
-0.048834 0.147267 -0.227616
-0.048831999 0.147339 -0.227615
-0.048829 0.14740901 -0.22761101
-0.048827 0.14748099 -0.22759899
-0.048824001 0.147553 -0.227593
-0.048820999 0.147625 -0.227596
-0.048818 0.147697 -0.227604
-0.048815001 0.147769 -0.227612
-0.048811998 0.14784101 -0.22761001
-0.048810001 0.14791299 -0.227603
-0.048806999 0.147985 -0.22759899
-0.048804998 0.148057 -0.227593
-0.048802 0.148128 -0.227588
-0.048799001 0.14820001 -0.22758999
-0.048797 0.14827199 -0.22758999
-0.048794001 0.148344 -0.227586
-0.048790999 0.148416 -0.227589
-0.048788 0.148488 -0.227593
-0.048785001 0.14856 -0.22759099
-0.048783001 0.148632 -0.227587
-0.048780002 0.14870401 -0.22758199
-0.048778001 0.148774 -0.227566
-0.048776001 0.148845 -0.227552
-0.048774 0.148917 -0.22754601
-0.048772 0.148987 -0.227533
-0.048769999 0.149058 -0.227515
-0.048767 0.14913 -0.227507
-0.048765 0.149202 -0.227502
-0.048762001 0.14927401 -0.227496
-0.048758999 0.14934599 -0.22750001
-0.048756 0.149418 -0.227504
-0.048753999 0.14949 -0.227497
-0.048751 0.14956 -0.227495
-0.048748001 0.149634 -0.227497
-0.048746001 0.149703 -0.227487
-0.048742998 0.149775 -0.22747999
-0.048741002 0.149847 -0.22747999
-0.048737999 0.149919 -0.227484
-0.048735 0.14999101 -0.227488
-0.048732001 0.15006299 -0.22749101
-0.048728999 0.15013701 -0.227487
-0.048726998 0.150207 -0.227475
-0.048723999 0.150279 -0.22747099
-0.048721001 0.150351 -0.22747201
-0.048719 0.15042301 -0.22747
-0.048716001 0.15049499 -0.227476
-0.048712 0.150567 -0.227484
-0.04871 0.150639 -0.227483
-0.048707001 0.150711 -0.227485
-0.048703998 0.150783 -0.227485
-0.048700999 0.150855 -0.22748201
-0.048698999 0.15092701 -0.22747
-0.048698001 0.150996 -0.227442
-0.048696 0.151067 -0.227422
-0.048693001 0.15113901 -0.227419
-0.048691001 0.15121099 -0.227419
-0.048687998 0.151283 -0.227419
-0.048684999 0.151353 -0.227413
-0.048682 0.151427 -0.22741599
-0.048679002 0.151499 -0.227422
-0.048675999 0.15157101 -0.227424
-0.048673 0.15164299 -0.227432
-0.048670001 0.15171599 -0.227441
-0.048666999 0.15178999 -0.227451
-0.048663002 0.151862 -0.227461
-0.048659999 0.151934 -0.22746301
-0.048657998 0.152006 -0.227458
-0.048655 0.152078 -0.227456
-0.048650999 0.152152 -0.227476
-0.048648 0.152224 -0.227492
-0.048645001 0.15229601 -0.227495
-0.048641998 0.152371 -0.227501
-0.048638001 0.15244301 -0.227515
-0.048634999 0.15251701 -0.227529
-0.048631001 0.15258899 -0.227543
-0.048627999 0.15266401 -0.22755601
-0.048624001 0.15273599 -0.227566
-0.048620999 0.152808 -0.22757
-0.048618 0.15288199 -0.22757401
-0.048616 0.152954 -0.22757301
-0.048613001 0.153026 -0.227575
-0.048609 0.153098 -0.227587
-0.048606001 0.153172 -0.227597
-0.048602 0.153247 -0.227613
-0.048599001 0.153319 -0.22763
-0.048595 0.153393 -0.227648
-0.048590999 0.153468 -0.227668
-0.048588 0.15354 -0.22768401
-0.048583999 0.153614 -0.22770201
-0.048579998 0.153689 -0.227731
-0.048574999 0.15376601 -0.227755
-0.048572 0.15383799 -0.22776701
-0.048569001 0.15391199 -0.227777
-0.048565 0.15398601 -0.22779299
-0.048560999 0.15405899 -0.227814
-0.048556998 0.154135 -0.227836
-0.048553001 0.15421 -0.227862
-0.048549 0.154285 -0.227898
-0.048544001 0.15436099 -0.22793201
-0.04854 0.15443601 -0.22795799
-0.048535999 0.15451001 -0.227974
-0.048532002 0.154585 -0.227999
-0.048526999 0.154661 -0.228035
-0.048523001 0.154736 -0.228065
-0.048519 0.15481 -0.228081
-0.048516002 0.15488499 -0.228091
-0.048512999 0.15495899 -0.22810499
-0.04851 0.155031 -0.22811
-0.048505999 0.15510499 -0.22812
-0.048501998 0.155182 -0.228148
-0.048496999 0.155259 -0.228184
-0.048492 0.15533499 -0.22822601
-0.048487 0.155412 -0.228274
-0.048480999 0.15549199 -0.228328
-0.048475999 0.155569 -0.228374
-0.048470002 0.15564799 -0.22842801
-0.048464 0.155727 -0.22850201
-0.048457 0.155809 -0.22857399
-0.048450001 0.155891 -0.228654
-0.048441999 0.155975 -0.228762
-0.048436001 0.156057 -0.22882999
-0.04843 0.15613601 -0.22889
-0.048424002 0.156215 -0.22895201
-0.049486998 0.12593099 -0.229967
-0.049490999 0.126018 -0.22982299
-0.049490999 0.12609801 -0.229755
-0.049488999 0.126174 -0.22973099
-0.049488001 0.126249 -0.229702
-0.049486998 0.12632599 -0.22966
-0.049486 0.126403 -0.229606
-0.049484 0.126478 -0.229582
-0.049484 0.12655701 -0.22951999
-0.049484 0.126634 -0.229472
-0.049481999 0.126709 -0.22944701
-0.049481001 0.12678599 -0.229403
-0.049479999 0.126863 -0.22935501
-0.049479 0.126938 -0.22931901
-0.049477 0.127013 -0.229295
-0.049476001 0.12709001 -0.229252
-0.049477 0.127169 -0.22917201
-0.049477 0.12724701 -0.229118
-0.049474999 0.127323 -0.22909001
-0.049472999 0.127396 -0.22907799
-0.04947 0.127468 -0.229075
-0.049467999 0.127542 -0.229063
-0.049465999 0.127616 -0.229045
-0.049463999 0.127689 -0.229029
-0.049461 0.127765 -0.22901499
-0.049458999 0.127837 -0.22901
-0.049456 0.127909 -0.229004
-0.049454 0.127984 -0.22898801
-0.049453001 0.128059 -0.22894999
-0.049453001 0.12813599 -0.22889499
-0.049451999 0.128213 -0.228847
-0.049449999 0.128286 -0.228825
-0.049447998 0.12836 -0.228811
-0.049446002 0.128434 -0.228791
-0.049444001 0.128509 -0.22877
-0.049442999 0.128584 -0.22874001
-0.049440999 0.128658 -0.22871
-0.049439002 0.128731 -0.22869401
-0.049437001 0.128805 -0.228677
-0.049435001 0.12887999 -0.22864901
-0.049433999 0.12895501 -0.228609
-0.049435001 0.129034 -0.228535
-0.049433999 0.12910999 -0.22848099
-0.049433 0.12918399 -0.22846
-0.049430002 0.12925699 -0.22844601
-0.049428001 0.129329 -0.22844
-0.049424998 0.129401 -0.22844601
-0.049422 0.129473 -0.22844701
-0.049419999 0.129547 -0.228433
-0.049417999 0.129621 -0.228421
-0.049415 0.129693 -0.22841699
-0.049412001 0.12976401 -0.228415
-0.049408998 0.12983599 -0.228414
-0.049407002 0.129908 -0.228412
-0.049403999 0.12998199 -0.22840001
-0.049403001 0.130055 -0.22837199
-0.049401999 0.13012999 -0.228331
-0.049400002 0.13020401 -0.228315
-0.049396999 0.13027599 -0.228319
-0.049394 0.130348 -0.22832499
-0.049391001 0.13042 -0.228324
-0.049389001 0.130492 -0.228314
-0.049385998 0.130566 -0.228304
-0.049384002 0.130638 -0.22830001
-0.049380999 0.130711 -0.228297
-0.049378 0.13078301 -0.228295
-0.049376 0.13085499 -0.228293
-0.049373001 0.130927 -0.228285
-0.049371 0.131001 -0.22827201
-0.049369 0.131074 -0.22826
-0.049366999 0.131146 -0.22824401
-0.049364999 0.13122 -0.22822399
-0.049362 0.131293 -0.228219
-0.049359001 0.131365 -0.228219
-0.049355999 0.131437 -0.228221
-0.049353998 0.13150901 -0.228221
-0.049350999 0.13158099 -0.228222
-0.049348 0.131653 -0.228218
-0.049345002 0.131725 -0.228222
-0.049341999 0.131797 -0.228228
-0.049339999 0.131869 -0.22822499
-0.049337 0.13194101 -0.228221
-0.049334001 0.13201299 -0.228223
-0.049330998 0.132085 -0.228227
-0.049327999 0.132157 -0.22823
-0.049325 0.132229 -0.22822601
-0.049323 0.132301 -0.22821601
-0.049320001 0.132375 -0.228218
-0.049316999 0.13244499 -0.228219
-0.049315002 0.13251901 -0.228209
-0.049311999 0.13259099 -0.22820701
-0.049309999 0.132662 -0.22820701
-0.049307 0.132734 -0.22820599
-0.049304001 0.132807 -0.228212
-0.049300998 0.132879 -0.228214
-0.049298 0.13294999 -0.22820801
-0.049295999 0.133022 -0.22819901
-0.049293999 0.13309599 -0.22817899
-0.049293 0.133169 -0.228149
-0.049290001 0.13324299 -0.228139
-0.049286999 0.133315 -0.228144
-0.049284 0.133385 -0.22815
-0.049281999 0.133459 -0.228144
-0.049279001 0.13353001 -0.228136
-0.049276002 0.13360199 -0.228137
-0.049274001 0.133674 -0.228137
-0.049270999 0.133747 -0.22814099
-0.049267001 0.133819 -0.22815301
-0.049263999 0.133889 -0.228164
-0.049261 0.13396101 -0.22816999
-0.049258001 0.13403299 -0.228168
-0.049256001 0.13410699 -0.22815999
-0.049253002 0.134179 -0.22816101
-0.049249999 0.134251 -0.228165
-0.049247 0.134323 -0.228165
-0.049244002 0.134395 -0.22816101
-0.049242001 0.13446701 -0.228158
-0.049238998 0.13453799 -0.22815
-0.049237002 0.13461199 -0.228146
-0.049233999 0.134684 -0.228148
-0.049231 0.134754 -0.22815099
-0.049228001 0.134826 -0.228149
-0.049226001 0.1349 -0.22814099
-0.049224 0.13497201 -0.22812501
-0.049222 0.13504501 -0.228104
-0.049219999 0.13511699 -0.22809599
-0.049217001 0.135189 -0.228094
-0.049214002 0.135261 -0.228094
-0.049210999 0.135333 -0.228099
-0.049208 0.135405 -0.22809701
-0.049206 0.13547701 -0.228089
-0.049203001 0.135548 -0.22808801
-0.049199998 0.135621 -0.22809599
-0.049197 0.135693 -0.228108
-0.049192999 0.135765 -0.22812
-0.04919 0.135837 -0.228122
-0.049187999 0.13590901 -0.228119
-0.049185 0.13598099 -0.228121
-0.049182002 0.136051 -0.228129
-0.049178999 0.136125 -0.22812399
-0.049176998 0.136197 -0.228112
-0.049174 0.136269 -0.228122
-0.049169999 0.13634101 -0.22813401
-0.049168002 0.13641299 -0.228131
-0.049164999 0.136485 -0.228129
-0.049162 0.136557 -0.228127
-0.049159002 0.136629 -0.228129
-0.049157001 0.136701 -0.228128
-0.049153998 0.13677301 -0.228118
-0.049152002 0.13684601 -0.228108
-0.049148999 0.13691799 -0.228102
-0.049146999 0.13699 -0.228093
-0.049144998 0.137061 -0.228073
-0.049143001 0.137135 -0.22805899
-0.049139999 0.137207 -0.228053
-0.049137998 0.137279 -0.22804999
-0.049135 0.13735101 -0.228054
-0.049132001 0.13742299 -0.228058
-0.049129002 0.137495 -0.228056
-0.049125999 0.137567 -0.228057
-0.049123999 0.137639 -0.228055
-0.049121 0.137711 -0.22805101
-0.049118001 0.13778301 -0.228053
-0.049114998 0.13785499 -0.228058
-0.049112 0.137927 -0.228064
-0.049109001 0.137997 -0.228074
-0.049105 0.138069 -0.22808599
-0.049102999 0.13814101 -0.228083
-0.049100999 0.13821299 -0.228063
-0.049098998 0.13828599 -0.228039
-0.049097002 0.138358 -0.22803099
-0.049093999 0.13843 -0.228036
-0.049091 0.138502 -0.22803999
-0.049088001 0.138574 -0.22803999
-0.049084999 0.13864601 -0.228046
-0.049082 0.13871799 -0.228057
-0.049079001 0.13879 -0.228049
-0.049077 0.138862 -0.228039
-0.049074002 0.138934 -0.228029
-0.049073 0.13900501 -0.228012
-0.049070001 0.139079 -0.228
-0.049068 0.139149 -0.22799399
-0.049065001 0.13922299 -0.227989
-0.049061999 0.139293 -0.22799499
-0.049059 0.139367 -0.227993
-0.049056999 0.139438 -0.22798499
-0.049054001 0.13951001 -0.227984
-0.049051002 0.13958199 -0.227988
-0.049047999 0.139654 -0.227988
-0.049045999 0.139726 -0.227982
-0.049043 0.139798 -0.227991
-0.049038999 0.139869 -0.22801299
-0.049036 0.13994101 -0.228017
-0.049033001 0.14001299 -0.228019
-0.049029998 0.140085 -0.228016
-0.049028002 0.140157 -0.228008
-0.049026001 0.140228 -0.22799601
-0.049022999 0.140302 -0.227984
-0.04902 0.14037199 -0.227997
-0.049015999 0.14044499 -0.228017
-0.049013998 0.140516 -0.228011
-0.049012002 0.140588 -0.227991
-0.049010001 0.140662 -0.227982
-0.049006999 0.140734 -0.22797599
-0.049005002 0.14080501 -0.227964
-0.049003001 0.14087699 -0.227952
-0.048999999 0.140949 -0.227947
-0.048997998 0.141021 -0.227937
-0.048996001 0.141092 -0.227925
-0.048992999 0.141164 -0.227915
-0.048990998 0.14123601 -0.22790401
-0.048989002 0.14130799 -0.227896
-0.048985999 0.14138 -0.227898
-0.048983 0.141452 -0.22790501
-0.048980001 0.141524 -0.227909
-0.048976999 0.141596 -0.227907
-0.048974 0.14166801 -0.227907
-0.048971001 0.14173999 -0.22791199
-0.048967998 0.141812 -0.227916
-0.048965 0.141884 -0.22792
-0.048962001 0.141956 -0.22792
-0.04896 0.14202601 -0.227915
-0.048957001 0.14209899 -0.227907
-0.048955001 0.142169 -0.227907
-0.048951998 0.142243 -0.227911
-0.048948999 0.142314 -0.227916
-0.048946001 0.142386 -0.227918
-0.048943002 0.14245699 -0.22791
-0.048941001 0.142529 -0.227906
-0.048937999 0.142601 -0.227909
-0.048935 0.142673 -0.22791301
-0.048932001 0.142745 -0.227909
-0.048930001 0.14281701 -0.227897
-0.048928 0.14288799 -0.22787599
-0.048926 0.14296 -0.22785801
-0.048923999 0.143032 -0.227844
-0.048921999 0.143103 -0.22783899
-0.048919 0.14317501 -0.22783899
-0.048916001 0.14324801 -0.22784699
-0.048912998 0.14331999 -0.22784901
-0.048909999 0.143391 -0.22783799
-0.048907999 0.143463 -0.227832
-0.048905 0.143535 -0.227832
-0.048903 0.14360701 -0.227826
-0.048900001 0.14367899 -0.227823
-0.048896998 0.143751 -0.227827
