# .PCD v0.7 - Point Cloud Data file format
VERSION 0.7
FIELDS x y z
SIZE 4 4 4
TYPE F F F
COUNT 1 1 1
WIDTH 1588
HEIGHT 1
VIEWPOINT 0 0 0 1 0 0 0
POINTS 1588
DATA ascii
-0.120382 0.129669 -0.240095
-0.120378 0.129749 -0.240124
-0.120968 0.092529997 -0.241631
-0.120967 0.092611998 -0.241597
-0.120965 0.092690997 -0.241567
-0.120963 0.092772 -0.24153499
-0.120962 0.092857003 -0.241485
-0.120961 0.092937998 -0.241447
-0.120959 0.093018003 -0.241419
-0.120957 0.093097001 -0.241402
-0.120955 0.093176998 -0.241382
-0.120953 0.093255997 -0.24135999
-0.120951 0.093336001 -0.241336
-0.120948 0.093415 -0.241318
-0.120946 0.093493 -0.241302
-0.120944 0.093571998 -0.24128
-0.120942 0.093652003 -0.24126001
-0.12094 0.093728997 -0.241244
-0.120937 0.093809001 -0.24123301
-0.120934 0.093884997 -0.241237
-0.120931 0.093961 -0.241235
-0.120928 0.094039001 -0.241225
-0.120925 0.094117001 -0.24122301
-0.120922 0.094192997 -0.241225
-0.120919 0.094269 -0.241226
-0.120917 0.094346002 -0.24122
-0.120914 0.094424002 -0.241212
-0.120911 0.094499998 -0.241208
-0.120908 0.094580002 -0.241198
-0.120906 0.094655998 -0.24119
-0.120903 0.094734997 -0.24117599
-0.120901 0.094812997 -0.241166
-0.120898 0.094889 -0.241163
-0.120895 0.094967 -0.241155
-0.120893 0.095045 -0.24114899
-0.12089 0.095119998 -0.241145
-0.120888 0.095200002 -0.241127
-0.120885 0.095279999 -0.241109
-0.120882 0.095356002 -0.241119
-0.120878 0.095427997 -0.241146
-0.120874 0.095500998 -0.241172
-0.12087 0.095577002 -0.241184
-0.120866 0.095651001 -0.241202
-0.120863 0.095728002 -0.241212
-0.12086 0.095804997 -0.241207
-0.120857 0.095881 -0.241207
-0.120854 0.095957004 -0.241211
-0.120851 0.096033998 -0.24121299
-0.120848 0.096112996 -0.241203
-0.120845 0.096189 -0.241203
-0.120841 0.096263997 -0.241221
-0.120838 0.096340001 -0.24122401
-0.120836 0.096417002 -0.241216
-0.120832 0.096495003 -0.241218
-0.12083 0.096570998 -0.241216
-0.120827 0.096648999 -0.24121
-0.120824 0.096726999 -0.241202
-0.120821 0.096803002 -0.241201
-0.120818 0.096881002 -0.241197
-0.120815 0.096956998 -0.241201
-0.120812 0.097030997 -0.24121299
-0.120808 0.097107001 -0.241219
-0.120805 0.097185001 -0.241221
-0.120803 0.097263001 -0.24121501
-0.1208 0.097338997 -0.241208
-0.120797 0.097415 -0.24121
-0.120794 0.097491004 -0.241218
-0.12079 0.097569004 -0.241218
-0.120787 0.097645 -0.241218
-0.120784 0.097721003 -0.241218
-0.120782 0.097799003 -0.241217
-0.120779 0.097877003 -0.24121299
-0.120775 0.097952999 -0.241217
-0.120772 0.098029003 -0.241227
-0.120769 0.098104998 -0.24123301
-0.120766 0.098181002 -0.241237
-0.120762 0.098256998 -0.24123999
-0.120759 0.098333001 -0.241246
-0.120756 0.098411001 -0.241246
-0.120754 0.098486997 -0.241236
-0.120751 0.098564997 -0.241236
-0.120748 0.098641001 -0.241238
-0.120744 0.098716997 -0.24123999
-0.120741 0.098794997 -0.241239
-0.120739 0.098871998 -0.241227
-0.120736 0.098949999 -0.24122301
-0.120733 0.099026002 -0.241229
-0.12073 0.099102996 -0.241235
-0.120727 0.099179998 -0.24123099
-0.120724 0.099256001 -0.241227
-0.120721 0.099331997 -0.241234
-0.120718 0.099409997 -0.24123199
-0.120715 0.099487998 -0.24122199
-0.120712 0.099564001 -0.241226
-0.120708 0.099638 -0.24124201
-0.120704 0.099715002 -0.24126001
-0.120701 0.099790998 -0.241267
-0.120698 0.099867001 -0.24126901
-0.120695 0.099945001 -0.241271
-0.120692 0.100021 -0.24126901
-0.120689 0.100099 -0.241263
-0.120687 0.100175 -0.241257
-0.120684 0.100252 -0.241255
-0.120681 0.10033 -0.24124999
-0.120678 0.100406 -0.241246
-0.120675 0.100482 -0.24124999
-0.120672 0.10056 -0.24124201
-0.12067 0.100638 -0.241226
-0.120667 0.100715 -0.241218
-0.120664 0.100791 -0.241221
-0.120661 0.100867 -0.24122301
-0.120658 0.100946 -0.241229
-0.120655 0.101021 -0.241225
-0.120652 0.101099 -0.241217
-0.120649 0.101175 -0.241217
-0.120646 0.101251 -0.241225
-0.120643 0.101329 -0.241228
-0.12064 0.101405 -0.241218
-0.120638 0.101485 -0.24120601
-0.120635 0.101561 -0.24120601
-0.120632 0.101637 -0.241202
-0.120628 0.101713 -0.24121401
-0.120624 0.101789 -0.24123199
-0.120621 0.101865 -0.241245
-0.120618 0.101941 -0.241247
-0.120615 0.102017 -0.241243
-0.120612 0.102095 -0.241237
-0.120609 0.102173 -0.241235
-0.120607 0.102249 -0.241229
-0.120604 0.102327 -0.241228
-0.120601 0.102403 -0.24122199
-0.120599 0.102482 -0.241208
-0.120596 0.102558 -0.24120601
-0.120592 0.102634 -0.241212
-0.120589 0.102712 -0.241208
-0.120587 0.10279 -0.241192
-0.120585 0.102867 -0.24117699
-0.120582 0.102943 -0.241175
-0.120579 0.103021 -0.241171
-0.120576 0.103097 -0.241173
-0.120573 0.103173 -0.241173
-0.12057 0.103251 -0.241165
-0.120567 0.103327 -0.241166
-0.120564 0.103405 -0.24116801
-0.120561 0.103481 -0.241172
-0.120558 0.103557 -0.24117
-0.120556 0.103635 -0.24116001
-0.120553 0.103711 -0.24115799
-0.120549 0.103787 -0.241164
-0.120546 0.103863 -0.24116901
-0.120543 0.103941 -0.24116901
-0.12054 0.104017 -0.241171
-0.120537 0.104093 -0.24117699
-0.120534 0.104171 -0.241179
-0.120531 0.104247 -0.241175
-0.120528 0.104323 -0.241172
-0.120525 0.104401 -0.24116801
-0.120523 0.104476 -0.241162
-0.12052 0.104554 -0.241152
-0.120518 0.104632 -0.24113201
-0.120516 0.104709 -0.241116
-0.120513 0.104787 -0.24111401
-0.12051 0.104863 -0.241115
-0.120507 0.104941 -0.241109
-0.120505 0.105016 -0.241089
-0.120502 0.105094 -0.241081
-0.120498 0.105171 -0.241097
-0.120495 0.105247 -0.24110501
-0.120492 0.105323 -0.241102
-0.12049 0.1054 -0.24108601
-0.120488 0.105478 -0.241074
-0.120484 0.105554 -0.24107599
-0.120481 0.10563 -0.241078
-0.120478 0.105708 -0.24108
-0.120475 0.105784 -0.24108399
-0.120472 0.10586 -0.24109299
-0.120469 0.105938 -0.241091
-0.120466 0.106014 -0.241083
-0.120463 0.106092 -0.24107701
-0.12046 0.106168 -0.241079
-0.120457 0.106244 -0.24107701
-0.120455 0.106321 -0.241072
-0.120452 0.106397 -0.241074
-0.120448 0.106473 -0.24107599
-0.120446 0.106549 -0.241072
-0.120443 0.106627 -0.24107
-0.12044 0.106703 -0.24105801
-0.120438 0.10678 -0.24103899
-0.120436 0.106858 -0.241023
-0.120433 0.106934 -0.241027
-0.120429 0.10701 -0.241037
-0.120426 0.107087 -0.24104699
-0.120423 0.107163 -0.241053
-0.12042 0.107241 -0.241053
-0.120417 0.107316 -0.241044
-0.120414 0.107392 -0.241036
-0.120411 0.10747 -0.241036
-0.120408 0.107546 -0.24104001
-0.120405 0.107622 -0.241042
-0.120402 0.1077 -0.241034
-0.1204 0.107776 -0.24102899
-0.120397 0.107854 -0.241027
-0.120394 0.10793 -0.24102899
-0.120391 0.108006 -0.241033
-0.120388 0.108082 -0.24103101
-0.120385 0.108158 -0.24103101
-0.120382 0.108236 -0.24102999
-0.12038 0.108313 -0.24101
-0.120377 0.108389 -0.240998
-0.120374 0.108467 -0.240996
-0.120371 0.108543 -0.24099199
-0.120369 0.10862 -0.24098
-0.120367 0.108696 -0.24096
-0.120364 0.108774 -0.240953
-0.120361 0.10885 -0.240951
-0.120359 0.108925 -0.24094699
-0.120355 0.109003 -0.240949
-0.120352 0.109078 -0.24096499
-0.120348 0.109154 -0.240987
-0.120344 0.109231 -0.24100401
-0.120341 0.109307 -0.24101201
-0.120338 0.109384 -0.24100401
-0.120335 0.10946 -0.240996
-0.120333 0.109538 -0.240986
-0.12033 0.109614 -0.24097399
-0.120327 0.10969 -0.240981
-0.120324 0.109766 -0.240991
-0.120321 0.109842 -0.24099299
-0.120317 0.10992 -0.241009
-0.120313 0.109996 -0.241017
-0.120311 0.110072 -0.24101099
-0.120308 0.110148 -0.24101099
-0.120305 0.110224 -0.24101
-0.120302 0.110302 -0.240998
-0.1203 0.110378 -0.240986
-0.120297 0.110456 -0.24099
-0.120294 0.110532 -0.24099199
-0.120291 0.110608 -0.240986
-0.120288 0.110685 -0.240977
-0.120286 0.110761 -0.240961
-0.120284 0.110837 -0.240949
-0.120281 0.110914 -0.240943
-0.120278 0.11099 -0.24093699
-0.120275 0.111068 -0.240943
-0.120272 0.111144 -0.240944
-0.12027 0.11122 -0.240926
-0.120267 0.111298 -0.240914
-0.120264 0.111374 -0.240924
-0.12026 0.11145 -0.240932
-0.120258 0.111526 -0.24093001
-0.120255 0.111602 -0.240931
-0.120251 0.11168 -0.24093699
-0.120248 0.111756 -0.24093699
-0.120245 0.111832 -0.240935
-0.120242 0.11191 -0.240935
-0.120239 0.111986 -0.240933
-0.120235 0.112062 -0.240953
-0.120232 0.112138 -0.24096601
-0.12023 0.112216 -0.24094801
-0.120227 0.112292 -0.240934
-0.120224 0.112368 -0.240934
-0.120221 0.112443 -0.240934
-0.120219 0.112521 -0.24093001
-0.120216 0.112597 -0.240927
-0.120213 0.112673 -0.24092101
-0.12021 0.112749 -0.240917
-0.120208 0.112827 -0.24091101
-0.120205 0.112903 -0.240907
-0.120202 0.11298 -0.240899
-0.1202 0.113056 -0.240886
-0.120197 0.113132 -0.24088401
-0.120194 0.113208 -0.24089
-0.12019 0.113284 -0.24089199
-0.120188 0.113362 -0.240878
-0.120186 0.113437 -0.240858
-0.120183 0.113513 -0.240859
-0.120179 0.113592 -0.240881
-0.120175 0.113668 -0.24090301
-0.120171 0.113744 -0.240913
-0.120168 0.11382 -0.240913
-0.120166 0.113896 -0.240909
-0.120163 0.113974 -0.24090301
-0.12016 0.11405 -0.240896
-0.120158 0.114128 -0.240886
-0.120155 0.114203 -0.240872
-0.120153 0.114279 -0.240862
-0.12015 0.114355 -0.240858
-0.120147 0.114431 -0.240861
-0.120144 0.114509 -0.24086501
-0.120141 0.114585 -0.24085499
-0.120139 0.11466 -0.240833
-0.120137 0.114738 -0.240825
-0.120133 0.114814 -0.240843
-0.120129 0.114891 -0.240861
-0.120126 0.114967 -0.24086
-0.120123 0.115043 -0.240858
-0.120121 0.11512 -0.240848
-0.120118 0.115196 -0.240844
-0.120114 0.115274 -0.240852
-0.120111 0.11535 -0.240854
-0.120109 0.115426 -0.24084701
-0.120107 0.115502 -0.24082901
-0.120104 0.115577 -0.240821
-0.120101 0.115656 -0.240831
-0.120097 0.115732 -0.240835
-0.120094 0.115808 -0.240835
-0.120091 0.115886 -0.240834
-0.120088 0.115962 -0.24083801
-0.120085 0.116038 -0.24084599
-0.120082 0.116114 -0.24085
-0.120079 0.116192 -0.240852
-0.120076 0.116268 -0.240852
-0.120073 0.116344 -0.240844
-0.120071 0.116421 -0.24082901
-0.120068 0.116497 -0.240821
-0.120065 0.116573 -0.240823
-0.120062 0.116649 -0.240831
-0.120058 0.116727 -0.240835
-0.120056 0.116803 -0.240817
-0.120054 0.116879 -0.240808
-0.12005 0.116955 -0.240814
-0.120047 0.117033 -0.240814
-0.120045 0.117108 -0.240798
-0.120043 0.117184 -0.24079201
-0.120039 0.11726 -0.240796
-0.120036 0.117338 -0.240795
-0.120034 0.117414 -0.24078301
-0.120032 0.117489 -0.240769
-0.120028 0.117567 -0.24077301
-0.120025 0.117644 -0.240779
-0.120023 0.117719 -0.240771
-0.12002 0.117795 -0.240762
-0.120017 0.117871 -0.240768
-0.120013 0.11795 -0.240788
-0.120009 0.118026 -0.240794
-0.120007 0.118101 -0.240786
-0.120004 0.118179 -0.240778
-0.120001 0.118255 -0.240775
-0.119999 0.118331 -0.24077301
-0.119996 0.118409 -0.240771
-0.119993 0.118485 -0.240761
-0.119991 0.11856 -0.240751
-0.119987 0.118637 -0.24075501
-0.119985 0.118714 -0.24075
-0.119982 0.11879 -0.240732
-0.11998 0.118866 -0.240716
-0.119978 0.118941 -0.24071001
-0.119975 0.119017 -0.240704
-0.119972 0.119095 -0.240694
-0.119969 0.119171 -0.240693
-0.119966 0.119247 -0.240695
-0.119963 0.119325 -0.240705
-0.11996 0.119401 -0.240711
-0.119956 0.119477 -0.240721
-0.119952 0.119556 -0.240739
-0.119949 0.119632 -0.24074499
-0.119946 0.11971 -0.240748
-0.119943 0.119786 -0.240748
-0.11994 0.119862 -0.240742
-0.119938 0.119937 -0.240724
-0.119936 0.120013 -0.240694
-0.119934 0.120088 -0.240679
-0.11993 0.120166 -0.240695
-0.119927 0.120243 -0.240711
-0.119924 0.120318 -0.24069899
-0.119922 0.120394 -0.240675
-0.11992 0.120469 -0.24065299
-0.119918 0.120545 -0.240646
-0.119915 0.120623 -0.24064399
-0.119912 0.120699 -0.240648
-0.119909 0.120775 -0.24064399
-0.119906 0.120853 -0.24064
-0.119903 0.120929 -0.240648
-0.1199 0.121005 -0.240646
-0.119897 0.121083 -0.24064299
-0.119894 0.121159 -0.240647
-0.119891 0.121235 -0.24064501
-0.119888 0.121311 -0.240639
-0.119885 0.121389 -0.240647
-0.119881 0.121467 -0.24066301
-0.119878 0.121543 -0.240656
-0.119876 0.121619 -0.240648
-0.119872 0.121697 -0.240666
-0.119869 0.121773 -0.240668
-0.119866 0.121849 -0.24066199
-0.119863 0.121927 -0.240656
-0.11986 0.122003 -0.24065199
-0.119858 0.122079 -0.240649
-0.119854 0.122157 -0.240651
-0.119851 0.122233 -0.24065299
-0.119848 0.122309 -0.24065299
-0.119846 0.122386 -0.240641
-0.119844 0.12246 -0.24062499
-0.119842 0.122535 -0.240604
-0.119839 0.122613 -0.24059799
-0.119836 0.122689 -0.2406
-0.119834 0.122765 -0.24059001
-0.119831 0.122841 -0.240584
-0.119827 0.122919 -0.240592
-0.119824 0.122995 -0.24059901
-0.119821 0.123071 -0.240595
-0.119819 0.123148 -0.240577
-0.119817 0.123224 -0.240567
-0.119814 0.1233 -0.240569
-0.119811 0.123376 -0.240569
-0.119807 0.123454 -0.24057201
-0.119804 0.123532 -0.24058001
-0.119801 0.123608 -0.24059001
-0.119798 0.123684 -0.24058001
-0.119796 0.12376 -0.24056201
-0.119793 0.123836 -0.240558
-0.11979 0.123914 -0.240555
-0.119787 0.12399 -0.240555
-0.119784 0.124068 -0.240559
-0.119782 0.124141 -0.24054299
-0.11978 0.124217 -0.24051499
-0.119778 0.124292 -0.24050499
-0.119775 0.124368 -0.24050599
-0.119772 0.124444 -0.24049599
-0.11977 0.12452 -0.24048001
-0.119767 0.124595 -0.240472
-0.119765 0.124671 -0.240458
-0.119763 0.124747 -0.24044301
-0.11976 0.124825 -0.24044301
-0.119757 0.124901 -0.240445
-0.119754 0.124977 -0.240439
-0.119752 0.12505201 -0.240427
-0.119749 0.125128 -0.240411
-0.119748 0.125203 -0.24038801
-0.119746 0.125277 -0.24036799
-0.119743 0.12535299 -0.240358
-0.11974 0.12543 -0.240352
-0.119738 0.125504 -0.240334
-0.119736 0.12558199 -0.240325
-0.119732 0.12565801 -0.24033301
-0.11973 0.125734 -0.240329
-0.119728 0.125809 -0.240309
-0.119725 0.12588499 -0.240293
-0.119723 0.12596101 -0.240292
-0.119719 0.126039 -0.240292
-0.119717 0.126112 -0.24028
-0.119715 0.126188 -0.240264
-0.119713 0.12626401 -0.240252
-0.11971 0.126342 -0.24025001
-0.119707 0.126415 -0.240243
-0.119705 0.126491 -0.240219
-0.119703 0.126564 -0.24019501
-0.119702 0.12664001 -0.240173
-0.1197 0.126715 -0.240151
-0.119698 0.126789 -0.240132
-0.119695 0.126865 -0.240128
-0.119692 0.12694301 -0.240132
-0.119689 0.127019 -0.240128
-0.119686 0.127094 -0.240116
-0.119684 0.12717 -0.240105
-0.119682 0.127244 -0.24009299
-0.119679 0.12731899 -0.240081
-0.119677 0.127395 -0.240073
-0.119673 0.127473 -0.240081
-0.11967 0.127552 -0.240091
-0.119667 0.127627 -0.24008401
-0.119665 0.127703 -0.240072
-0.119662 0.12777901 -0.24007399
-0.119658 0.127857 -0.24007601
-0.119656 0.127933 -0.24006601
-0.119653 0.12800901 -0.240058
-0.11965 0.128085 -0.240059
-0.119647 0.128162 -0.24005701
-0.119645 0.12823801 -0.240049
-0.119643 0.12831201 -0.240027
-0.119641 0.12838501 -0.240005
-0.119639 0.128461 -0.23999
-0.119636 0.128537 -0.23999
-0.119633 0.12861501 -0.239998
-0.119629 0.128693 -0.23999999
-0.119627 0.128769 -0.239996
-0.119623 0.128847 -0.239998
-0.11962 0.128923 -0.240008
-0.119616 0.129003 -0.24002001
-0.119613 0.12908 -0.240035
-0.119609 0.12915801 -0.24003699
-0.119606 0.129234 -0.24003699
-0.119603 0.12931199 -0.240049
-0.119599 0.129392 -0.24006499
-0.119595 0.12947001 -0.24008501
-0.119591 0.129549 -0.24010301
-0.119587 0.129627 -0.240117
-0.119584 0.129705 -0.24012201
-0.11958 0.129786 -0.240146
-0.119574 0.129867 -0.24019
-0.11957 0.12994701 -0.24021401
-0.119566 0.130025 -0.24022999
-0.119562 0.130106 -0.240252
-0.119557 0.130187 -0.24028599
-0.119553 0.13026699 -0.240312
-0.120205 0.091789 -0.242134
-0.120204 0.091871001 -0.24208599
-0.120203 0.091958001 -0.242028
-0.120204 0.092044003 -0.24195001
-0.120203 0.092130996 -0.241886
-0.120203 0.092215002 -0.241826
-0.120202 0.092297003 -0.24178401
-0.120201 0.092378996 -0.24174
-0.1202 0.092465997 -0.241676
-0.120199 0.092549004 -0.24162599
-0.120198 0.092629999 -0.241594
-0.120197 0.092712998 -0.24154601
-0.120196 0.092795998 -0.241494
-0.120195 0.092878997 -0.241448
-0.120193 0.09296 -0.24141601
-0.120191 0.093038 -0.24140801
-0.120188 0.093115002 -0.241392
-0.120187 0.093197003 -0.24135999
-0.120184 0.093276002 -0.24134099
-0.120182 0.093355998 -0.24132299
-0.12018 0.093433 -0.241303
-0.120178 0.093512997 -0.241283
-0.120175 0.093590997 -0.241275
-0.120172 0.093667999 -0.24126901
-0.120169 0.093745999 -0.241267
-0.120167 0.093822002 -0.24125899
-0.120164 0.093900003 -0.24124999
-0.120161 0.093978003 -0.24125201
-0.120158 0.094053999 -0.24125201
-0.120156 0.094132997 -0.241236
-0.120153 0.094210997 -0.24122401
-0.12015 0.094287001 -0.24122199
-0.120148 0.094365001 -0.241216
-0.120145 0.094440997 -0.241217
-0.120142 0.094518997 -0.241211
-0.12014 0.094598003 -0.24119499
-0.120137 0.094676003 -0.241179
-0.120134 0.094754003 -0.241173
-0.120132 0.094829999 -0.241171
-0.120129 0.094907999 -0.24116901
-0.120126 0.094985001 -0.241164
-0.120123 0.095060997 -0.241156
-0.12012 0.095138997 -0.241162
-0.120117 0.095214002 -0.241172
-0.120114 0.095291004 -0.24117
-0.120111 0.095367 -0.241164
-0.120108 0.095445 -0.241164
-0.120105 0.095521003 -0.241171
-0.120101 0.095596001 -0.241181
-0.120098 0.095674001 -0.241181
-0.120095 0.095749997 -0.241183
-0.120092 0.095826 -0.241189
-0.120089 0.095902003 -0.241193
-0.120085 0.095977999 -0.2412
-0.120082 0.096054003 -0.24120601
-0.120079 0.096129999 -0.24121
-0.120076 0.096207999 -0.241202
-0.120074 0.096285 -0.24119
-0.120071 0.096363001 -0.24117801
-0.120069 0.096442997 -0.24116801
-0.120066 0.096519001 -0.241171
-0.120062 0.096593 -0.241183
-0.120058 0.096669003 -0.24119499
-0.120056 0.096747003 -0.241189
-0.120053 0.096825004 -0.241181
-0.12005 0.096901 -0.24118499
-0.120047 0.096974999 -0.24119399
-0.120044 0.097052999 -0.24119
-0.120041 0.097129002 -0.241192
-0.120037 0.097204998 -0.241202
-0.120034 0.097281002 -0.24120601
-0.120031 0.097356997 -0.241208
-0.120028 0.097434998 -0.241211
-0.120024 0.097511001 -0.241217
-0.120021 0.097586997 -0.241219
-0.120018 0.097663999 -0.241237
-0.120014 0.097737998 -0.24125101
-0.120011 0.097815998 -0.241253
-0.120008 0.097892001 -0.24124999
-0.120005 0.097967997 -0.24125201
-0.120001 0.098044001 -0.241262
-0.119999 0.098122001 -0.24126001
-0.119996 0.098200001 -0.24124999
-0.119993 0.098278001 -0.24123999
-0.11999 0.098353997 -0.24123999
-0.119987 0.09843 -0.241245
-0.119984 0.098506004 -0.241247
-0.119981 0.098583996 -0.241247
-0.119978 0.098660998 -0.241239
-0.119976 0.098738998 -0.24123099
-0.119973 0.098815002 -0.24123099
-0.119969 0.098890997 -0.241239
-0.119966 0.098967999 -0.241258
-0.119963 0.099044003 -0.241256
-0.11996 0.099120997 -0.24123999
-0.119957 0.099198997 -0.24124201
-0.119954 0.099275 -0.241246
-0.119951 0.099350996 -0.241248
-0.119948 0.099427 -0.241249
-0.119945 0.099505 -0.241247
-0.119942 0.099583 -0.241249
-0.119938 0.099656999 -0.24126101
-0.119935 0.099734001 -0.241275
-0.119932 0.099809997 -0.241273
-0.119929 0.099887997 -0.241271
-0.119926 0.099964 -0.241276
-0.119923 0.100041 -0.24127001
-0.11992 0.100119 -0.241264
-0.119917 0.100195 -0.241264
-0.119914 0.100271 -0.24127001
-0.119911 0.100349 -0.241264
-0.119909 0.100427 -0.24124999
-0.119906 0.100505 -0.24124099
-0.119903 0.100581 -0.241247
-0.119899 0.100657 -0.24126101
-0.119896 0.100733 -0.241263
-0.119893 0.100809 -0.24125899
-0.119891 0.100886 -0.241247
-0.119889 0.100966 -0.241226
-0.119886 0.101042 -0.241228
-0.119882 0.101118 -0.24124201
-0.119879 0.101194 -0.241238
-0.119876 0.101272 -0.241236
-0.119873 0.101348 -0.24123999
-0.119871 0.101426 -0.24123199
-0.119868 0.101504 -0.241219
-0.119865 0.10158 -0.241221
-0.119862 0.101656 -0.241225
-0.119859 0.101734 -0.24122301
-0.119856 0.101811 -0.241219
-0.119853 0.101887 -0.241219
-0.119849 0.101962 -0.241238
-0.119846 0.102038 -0.241254
-0.119843 0.102116 -0.24124999
-0.11984 0.102194 -0.241238
-0.119838 0.102271 -0.241228
-0.119835 0.102347 -0.241218
-0.119832 0.102425 -0.24122
-0.119828 0.102501 -0.24123301
-0.119825 0.102577 -0.24123301
-0.119823 0.102655 -0.241219
-0.119821 0.102733 -0.241203
-0.119818 0.102811 -0.241199
-0.119815 0.102886 -0.241193
-0.119813 0.102964 -0.241181
-0.11981 0.103042 -0.24117599
-0.119807 0.103118 -0.24117801
-0.119804 0.103196 -0.241174
-0.119801 0.103272 -0.241174
-0.119798 0.103348 -0.24118
-0.119795 0.103426 -0.24117599
-0.119793 0.103503 -0.241154
-0.119791 0.103581 -0.24113899
-0.119788 0.103657 -0.24113899
-0.119784 0.103733 -0.241143
-0.119781 0.103809 -0.24114899
-0.119778 0.103885 -0.24115101
-0.119774 0.103963 -0.241163
-0.119772 0.104039 -0.241164
-0.119769 0.104115 -0.241164
-0.119765 0.104191 -0.24116801
-0.119762 0.104269 -0.241166
-0.11976 0.104347 -0.241154
-0.119758 0.104422 -0.241142
-0.119755 0.1045 -0.241129
-0.119753 0.104578 -0.241117
-0.11975 0.104654 -0.24111301
-0.119746 0.104732 -0.24112099
-0.119744 0.104808 -0.241119
-0.119741 0.104886 -0.241109
-0.119738 0.104962 -0.241111
-0.119735 0.105038 -0.241118
-0.119732 0.105114 -0.241118
-0.119729 0.105191 -0.24111199
-0.119726 0.105269 -0.24110401
-0.119724 0.105345 -0.241092
-0.119721 0.105423 -0.241078
-0.119719 0.1055 -0.24106801
-0.119716 0.105576 -0.241069
-0.119712 0.105653 -0.241083
-0.119709 0.105729 -0.24109501
-0.119705 0.105805 -0.241107
-0.119702 0.105881 -0.24111301
-0.119699 0.105959 -0.24110299
-0.119697 0.106037 -0.241096
-0.119694 0.106113 -0.24109
-0.119691 0.106188 -0.24109
-0.119688 0.106266 -0.241088
-0.119685 0.106342 -0.24108399
-0.119683 0.10642 -0.24106801
-0.119681 0.106497 -0.24104699
-0.119678 0.106573 -0.241043
-0.119675 0.106649 -0.241045
-0.119672 0.106727 -0.241035
-0.11967 0.106805 -0.241025
-0.119668 0.10688 -0.24101099
-0.119665 0.106958 -0.240999
-0.119662 0.107034 -0.241008
-0.119658 0.107109 -0.241028
-0.119654 0.107187 -0.24104001
-0.119651 0.107263 -0.241044
-0.119648 0.107339 -0.24104799
-0.119645 0.107415 -0.241046
-0.119643 0.107492 -0.241027
-0.119641 0.10757 -0.241005
-0.119638 0.107646 -0.241007
-0.119634 0.107722 -0.241025
-0.119631 0.107798 -0.24103101
-0.119628 0.107874 -0.241027
-0.119625 0.107952 -0.241028
-0.119621 0.108028 -0.24103799
-0.119618 0.108105 -0.24105
-0.119615 0.108181 -0.24105
-0.119612 0.108258 -0.241036
-0.11961 0.108336 -0.241018
-0.119608 0.108411 -0.24100199
-0.119606 0.108489 -0.240991
-0.119603 0.108565 -0.240987
-0.119599 0.108641 -0.24099299
-0.119597 0.108719 -0.240977
-0.119595 0.108796 -0.240949
-0.119593 0.108872 -0.24093699
-0.11959 0.10895 -0.24094801
-0.119586 0.109026 -0.24096
-0.119583 0.109102 -0.240968
-0.11958 0.109178 -0.24096601
-0.119577 0.109254 -0.24095801
-0.119574 0.109332 -0.240964
-0.11957 0.109408 -0.240977
-0.119567 0.109484 -0.240979
-0.119564 0.10956 -0.240981
-0.119561 0.109636 -0.240981
-0.119558 0.109714 -0.240979
-0.119555 0.10979 -0.240981
-0.119552 0.109866 -0.240987
-0.119549 0.109943 -0.24099401
-0.119545 0.110019 -0.241
-0.119542 0.110097 -0.241
-0.119539 0.110172 -0.24099401
-0.119537 0.110248 -0.24099
-0.119534 0.110326 -0.24098399
-0.119532 0.110402 -0.24096499
-0.119529 0.110479 -0.240955
-0.119526 0.110556 -0.24096701
-0.119523 0.110632 -0.240969
-0.119521 0.110709 -0.240951
-0.119518 0.110785 -0.240941
-0.119515 0.110861 -0.240942
-0.119513 0.110939 -0.24093001
-0.11951 0.111014 -0.240924
-0.119506 0.111091 -0.24093799
-0.119503 0.111167 -0.240942
-0.1195 0.111245 -0.240934
-0.119498 0.11132 -0.24092899
-0.119495 0.111398 -0.24092899
-0.119492 0.111474 -0.240927
-0.119489 0.11155 -0.240923
-0.119486 0.111626 -0.24092899
-0.119482 0.111703 -0.24093901
-0.119479 0.111781 -0.24094699
-0.119476 0.111856 -0.240942
-0.119474 0.111932 -0.24093001
-0.119471 0.11201 -0.240932
-0.119467 0.112086 -0.240942
-0.119464 0.112162 -0.240944
-0.119461 0.112238 -0.24094599
-0.119458 0.112315 -0.240955
-0.119454 0.112393 -0.240961
-0.119452 0.112468 -0.240945
-0.11945 0.112546 -0.240931
-0.119447 0.112622 -0.240933
-0.119444 0.112698 -0.24092899
-0.119441 0.112774 -0.240924
-0.119438 0.112851 -0.240914
-0.119436 0.112927 -0.240894
-0.119433 0.113003 -0.240894
-0.11943 0.113079 -0.24089999
-0.119427 0.113157 -0.240898
-0.119424 0.113233 -0.240897
-0.119422 0.113311 -0.24089099
-0.119419 0.113387 -0.24089099
-0.119416 0.113462 -0.24088299
-0.119414 0.113538 -0.240871
-0.11941 0.113614 -0.24088299
-0.119406 0.113693 -0.240895
-0.119404 0.113768 -0.24089199
-0.1194 0.113845 -0.240898
-0.119397 0.113923 -0.24091201
-0.119394 0.113999 -0.240914
-0.119392 0.114074 -0.24088401
-0.119391 0.114151 -0.240844
-0.119388 0.114227 -0.24083699
-0.119384 0.114303 -0.240859
-0.11938 0.11438 -0.24089099
-0.119376 0.114458 -0.24090099
-0.119374 0.114534 -0.240889
-0.119371 0.11461 -0.240879
-0.119368 0.114688 -0.24087401
-0.119366 0.114763 -0.24086601
-0.119363 0.114839 -0.24086
-0.119361 0.114915 -0.24085
-0.119358 0.114991 -0.24083801
-0.119356 0.115069 -0.240832
-0.119353 0.115144 -0.240821
-0.11935 0.115222 -0.240831
-0.119346 0.115299 -0.240853
-0.119342 0.115375 -0.240863
-0.119339 0.115451 -0.24085701
-0.119337 0.115529 -0.240849
-0.119334 0.115604 -0.240839
-0.119331 0.11568 -0.240842
-0.119328 0.115757 -0.24085
-0.119324 0.115835 -0.24085601
-0.119321 0.115911 -0.24086601
-0.119318 0.115989 -0.24086
-0.119316 0.116064 -0.240844
-0.119313 0.11614 -0.240835
-0.119311 0.116216 -0.240833
-0.119308 0.116292 -0.240835
-0.119305 0.11637 -0.240831
-0.119302 0.116446 -0.240823
-0.119299 0.116522 -0.24082901
-0.119295 0.1166 -0.24083699
-0.119293 0.116676 -0.240822
-0.119291 0.116751 -0.24079999
-0.119289 0.116827 -0.240794
-0.119285 0.116903 -0.240796
-0.119282 0.116981 -0.24079999
-0.119279 0.117057 -0.240813
-0.119275 0.117135 -0.24081901
-0.119273 0.117211 -0.240813
-0.11927 0.117287 -0.240803
-0.119268 0.117362 -0.240789
-0.119265 0.11744 -0.24078099
-0.119262 0.117516 -0.240789
-0.119258 0.117593 -0.240798
-0.119256 0.117668 -0.240788
-0.119253 0.117746 -0.240776
-0.119251 0.117822 -0.24077401
-0.119247 0.1179 -0.240784
-0.119244 0.117976 -0.24078999
-0.119241 0.118052 -0.24079099
-0.119238 0.118128 -0.240785
-0.119236 0.118204 -0.240771
-0.119234 0.118281 -0.240749
-0.119231 0.118357 -0.240741
-0.119229 0.118433 -0.24072701
-0.119228 0.118508 -0.240692
-0.119226 0.118583 -0.24067201
-0.119222 0.118662 -0.240688
-0.119218 0.118738 -0.240696
-0.119216 0.118814 -0.24068999
-0.119213 0.11889 -0.24069101
-0.11921 0.118968 -0.240693
-0.119207 0.119043 -0.240679
-0.119204 0.119119 -0.240675
-0.1192 0.119198 -0.240697
-0.119197 0.119274 -0.240711
-0.119194 0.11935 -0.240707
-0.119191 0.119428 -0.240704
-0.119188 0.119504 -0.240706
-0.119184 0.119582 -0.24071801
-0.119181 0.119658 -0.24071801
-0.119179 0.119734 -0.240714
-0.119175 0.119812 -0.240714
-0.119173 0.119888 -0.24071001
-0.11917 0.119963 -0.24069899
-0.119167 0.120041 -0.240707
-0.119163 0.120118 -0.240725
-0.11916 0.120196 -0.240733
-0.119157 0.120272 -0.240723
-0.119155 0.120347 -0.240701
-0.119153 0.120423 -0.240692
-0.11915 0.120499 -0.240688
-0.119147 0.120575 -0.24067999
-0.119145 0.12065 -0.24066401
-0.119143 0.120726 -0.240646
-0.11914 0.120804 -0.24064399
-0.119137 0.120879 -0.240641
-0.119135 0.120955 -0.240629
-0.119132 0.121031 -0.240633
-0.119128 0.12111 -0.240647
-0.119124 0.121188 -0.240665
-0.119121 0.121264 -0.240667
-0.119119 0.121339 -0.24064399
-0.119117 0.121415 -0.24063
-0.119113 0.121491 -0.24063601
-0.11911 0.121569 -0.24065
-0.119106 0.121648 -0.24066
-0.119103 0.121724 -0.24066
-0.1191 0.121801 -0.24066
-0.119097 0.121878 -0.24067099
-0.119093 0.121956 -0.240677
-0.119091 0.122031 -0.24066301
-0.119089 0.122107 -0.240649
-0.119086 0.122183 -0.24064501
-0.119083 0.122259 -0.240641
-0.119081 0.122337 -0.240632
-0.119078 0.12241 -0.24061599
-0.119075 0.122488 -0.24061801
-0.119072 0.122564 -0.24062
-0.11907 0.12264 -0.240602
-0.119067 0.122718 -0.240594
-0.119064 0.122794 -0.240603
-0.119061 0.122872 -0.240603
-0.119058 0.122948 -0.240603
-0.119055 0.123024 -0.24060901
-0.119052 0.123102 -0.240611
-0.119049 0.123178 -0.24060901
-0.119046 0.123253 -0.24059799
-0.119044 0.123329 -0.240592
-0.11904 0.123407 -0.240596
-0.119037 0.123483 -0.24059799
-0.119035 0.123561 -0.240592
-0.119032 0.123637 -0.240584
-0.119029 0.123713 -0.240575
-0.119027 0.123788 -0.24056301
-0.119024 0.123864 -0.240565
-0.119021 0.123943 -0.240573
-0.119018 0.124018 -0.240565
-0.119016 0.124094 -0.240541
-0.119014 0.124167 -0.24052399
-0.119011 0.124245 -0.240518
-0.119008 0.124321 -0.240514
-0.119006 0.124399 -0.24051
-0.119003 0.124473 -0.2405
-0.119001 0.124548 -0.240484
-0.118998 0.124626 -0.240475
-0.118996 0.124702 -0.24046899
-0.118993 0.124778 -0.240455
-0.118991 0.124853 -0.24044099
-0.118988 0.124929 -0.240437
-0.118986 0.12500501 -0.240422
-0.118984 0.12507799 -0.240398
-0.118982 0.125154 -0.240382
-0.118979 0.125232 -0.240384
-0.118976 0.12530801 -0.240384
-0.118974 0.125383 -0.240357
-0.118972 0.125457 -0.240343
-0.118969 0.125535 -0.240343
-0.118967 0.12560999 -0.240327
-0.118965 0.12568399 -0.240309
-0.118962 0.125762 -0.240301
-0.118959 0.125837 -0.24029601
-0.118956 0.12591299 -0.240298
-0.118953 0.125991 -0.2403
-0.11895 0.126068 -0.24030399
-0.118947 0.12614299 -0.240298
-0.118945 0.126219 -0.240288
-0.118942 0.126297 -0.240281
-0.11894 0.12637 -0.240261
-0.118939 0.126444 -0.24023101
-0.118936 0.12651899 -0.240219
-0.118934 0.12659501 -0.240211
-0.118932 0.126671 -0.24019
-0.11893 0.126744 -0.240172
-0.118927 0.12682199 -0.24016599
-0.118925 0.12689599 -0.24015
-0.118923 0.12697101 -0.24013001
-0.11892 0.127047 -0.240123
-0.118918 0.127123 -0.240115
-0.118915 0.12719899 -0.240117
-0.118911 0.127277 -0.240123
-0.118909 0.127353 -0.24011301
-0.118907 0.127428 -0.240099
-0.118904 0.12750401 -0.24009401
-0.118901 0.12758 -0.240086
-0.118898 0.12765799 -0.24008401
-0.118895 0.12773401 -0.24008
-0.118893 0.127809 -0.240062
-0.118891 0.127885 -0.240059
-0.118887 0.12796099 -0.24006701
-0.118885 0.12803701 -0.24005701
-0.118883 0.12811001 -0.240023
-0.118881 0.128186 -0.240003
-0.118878 0.128262 -0.240008
-0.118875 0.12834001 -0.240016
-0.118872 0.128416 -0.24000999
-0.118869 0.128492 -0.240004
-0.118866 0.12857001 -0.240008
-0.118863 0.128646 -0.240008
-0.11886 0.12872399 -0.240008
-0.118857 0.128802 -0.240012
-0.118854 0.128878 -0.240015
-0.118851 0.12895399 -0.240013
-0.118848 0.129032 -0.24001899
-0.118844 0.12910999 -0.240031
-0.118841 0.129188 -0.24003901
-0.118837 0.129264 -0.240043
-0.118833 0.129345 -0.240059
-0.11883 0.12942301 -0.24007501
-0.118826 0.129501 -0.240088
-0.118822 0.12957899 -0.240106
-0.118818 0.12966 -0.240134
-0.118813 0.129741 -0.24016
-0.118809 0.12981901 -0.24018399
-0.118805 0.129899 -0.24020401
-0.1188 0.12998 -0.24023201
-0.118796 0.130059 -0.240256
-0.118792 0.13013899 -0.240274
-0.118788 0.130219 -0.2403
-0.118783 0.1303 -0.240334
-0.118779 0.130381 -0.24036001
-0.118775 0.130459 -0.24037801
-0.11877 0.130542 -0.24041
-0.118764 0.13062499 -0.24045999
-0.118758 0.13071001 -0.24051601
-0.118752 0.13079301 -0.240578
-0.119746 0.091573 -0.24231499
-0.119748 0.091668002 -0.242193
-0.119748 0.091756001 -0.242107
-0.119747 0.091839001 -0.242061
-0.119747 0.091923997 -0.24200299
-0.119746 0.092009999 -0.241937
-0.119746 0.092095003 -0.24187499
-0.119746 0.092180997 -0.24181101
-0.119745 0.092266001 -0.241749
-0.119745 0.092349 -0.241695
-0.119743 0.092432 -0.241653
-0.119742 0.092514999 -0.241605
-0.119741 0.092597999 -0.241559
-0.11974 0.092680998 -0.24151701
-0.119739 0.092762001 -0.241477
-0.119737 0.092843004 -0.241445
-0.119735 0.092923999 -0.24141701
-0.119733 0.093004003 -0.24138901
-0.119732 0.093084998 -0.241354
-0.11973 0.093163997 -0.24133
-0.119728 0.093244001 -0.24130601
-0.119726 0.093324997 -0.24128
-0.119724 0.093401998 -0.241258
-0.119721 0.093479998 -0.24124999
-0.119719 0.093557999 -0.24124201
-0.119716 0.093638003 -0.241228
-0.119714 0.093714997 -0.24121299
-0.119712 0.093792997 -0.241201
-0.119709 0.093870997 -0.241201
-0.119705 0.093947001 -0.241209
-0.119702 0.094022997 -0.241209
-0.119699 0.094100997 -0.24120501
-0.119697 0.094178997 -0.24119499
-0.119694 0.094255 -0.241188
-0.119691 0.094332002 -0.241182
-0.119688 0.094410002 -0.241182
-0.119685 0.094485998 -0.24118
-0.119683 0.094563998 -0.241166
-0.11968 0.094641998 -0.24115799
-0.119677 0.094719999 -0.24115799
-0.119675 0.094797 -0.24115001
-0.119672 0.094875 -0.24113899
-0.119669 0.094953001 -0.241133
-0.119666 0.095028996 -0.241133
-0.119664 0.095106997 -0.241127
-0.119661 0.095183 -0.24112099
-0.119658 0.095261998 -0.241111
-0.119656 0.095338002 -0.24110401
-0.119653 0.095416002 -0.24110401
-0.119649 0.095491998 -0.24111
-0.119646 0.095568001 -0.24111401
-0.119643 0.095643997 -0.24111401
-0.11964 0.095720001 -0.24112
-0.119637 0.095795996 -0.241126
-0.119634 0.095872 -0.241129
-0.11963 0.095949002 -0.24114101
-0.119627 0.096024998 -0.24115101
-0.119624 0.096101001 -0.241147
-0.119621 0.096176997 -0.241145
-0.119618 0.096254997 -0.241143
-0.119615 0.096331999 -0.241136
-0.119613 0.096409999 -0.24112999
-0.11961 0.096486002 -0.241128
-0.119607 0.096564002 -0.24112
-0.119604 0.096642002 -0.24111401
-0.119602 0.096717998 -0.24111
-0.119599 0.096795 -0.241106
-0.119596 0.096872002 -0.241109
-0.119592 0.096947998 -0.24111301
-0.119589 0.097025998 -0.241115
-0.119586 0.097099997 -0.241125
-0.119582 0.097176 -0.241137
-0.119579 0.097254001 -0.241135
-0.119576 0.097328 -0.241146
-0.119572 0.097404003 -0.241162
-0.119569 0.097479999 -0.24115799
-0.119567 0.097557999 -0.24115001
-0.119564 0.097634003 -0.241156
-0.11956 0.097709998 -0.241162
-0.119557 0.097787999 -0.241162
-0.119554 0.097864002 -0.24116699
-0.119551 0.097939998 -0.241175
-0.119547 0.098017 -0.24118499
-0.119544 0.098093003 -0.241189
-0.119541 0.098171003 -0.241183
-0.119538 0.098246999 -0.24118499
-0.119535 0.098323002 -0.241192
-0.119532 0.098398998 -0.24119
-0.119529 0.098476 -0.241184
-0.119526 0.098554 -0.24117801
-0.119523 0.098630004 -0.24118
-0.11952 0.098706 -0.241188
-0.119517 0.098782003 -0.241191
-0.119514 0.098860003 -0.24118701
-0.119512 0.098938003 -0.24117699
-0.119509 0.099013999 -0.241173
-0.119505 0.099091999 -0.241181
-0.119502 0.099168003 -0.241181
-0.1195 0.099246003 -0.241173
-0.119496 0.099321999 -0.241184
-0.119493 0.099395998 -0.24119601
-0.11949 0.099473998 -0.24119
-0.119487 0.099551998 -0.24118
-0.119485 0.099629998 -0.24117599
-0.119481 0.099706002 -0.241184
-0.119478 0.099781998 -0.24118599
-0.119475 0.099859998 -0.24118701
-0.119472 0.099936001 -0.24119499
-0.119468 0.10001 -0.241209
-0.119465 0.100086 -0.241221
-0.119461 0.100163 -0.241225
-0.119458 0.100239 -0.241227
-0.119455 0.100316 -0.24122401
-0.119453 0.100394 -0.24121401
-0.11945 0.100472 -0.24120399
-0.119447 0.100548 -0.241202
-0.119444 0.100626 -0.2412
-0.119442 0.100704 -0.24119
-0.11944 0.100781 -0.241174
-0.119437 0.100859 -0.24115901
-0.119435 0.100936 -0.24114899
-0.119432 0.101013 -0.241153
-0.119428 0.101087 -0.241171
-0.119424 0.101163 -0.241181
-0.119422 0.101241 -0.24116699
-0.119419 0.101318 -0.24115799
-0.119416 0.101396 -0.24115799
-0.119413 0.101472 -0.24116001
-0.11941 0.101549 -0.241164
-0.119407 0.101626 -0.24116001
-0.119405 0.101702 -0.241152
-0.119401 0.10178 -0.241156
-0.119398 0.101856 -0.241165
-0.119394 0.101931 -0.241181
-0.119391 0.102007 -0.24119499
-0.119388 0.102083 -0.24119499
-0.119385 0.102161 -0.24118701
-0.119382 0.102238 -0.24117699
-0.11938 0.102316 -0.241161
-0.119378 0.102394 -0.241154
-0.119375 0.10247 -0.241152
-0.119372 0.102548 -0.241154
-0.119368 0.102624 -0.24116001
-0.119365 0.1027 -0.24116001
-0.119363 0.102778 -0.24115001
-0.11936 0.102855 -0.241137
-0.119357 0.102933 -0.241137
-0.119354 0.103009 -0.241137
-0.119351 0.103085 -0.24114101
-0.119348 0.103161 -0.241143
-0.119346 0.103239 -0.24113099
-0.119343 0.103317 -0.241119
-0.11934 0.103393 -0.24111401
-0.119337 0.103468 -0.24111401
-0.119335 0.103546 -0.241108
-0.119332 0.103624 -0.241096
-0.119329 0.103702 -0.241092
-0.119326 0.103778 -0.241092
-0.119323 0.103854 -0.24109399
-0.11932 0.10393 -0.24110299
-0.119316 0.104006 -0.241115
-0.119313 0.104082 -0.24112301
-0.11931 0.10416 -0.241117
-0.119308 0.104236 -0.241107
-0.119305 0.104314 -0.241099
-0.119302 0.10439 -0.241098
-0.119299 0.104468 -0.24109399
-0.119297 0.104543 -0.24109
-0.119295 0.104623 -0.24105801
-0.119294 0.104702 -0.241018
-0.119291 0.104778 -0.241014
-0.119287 0.104854 -0.24104001
-0.119283 0.104928 -0.241053
-0.11928 0.105004 -0.24105699
-0.119277 0.105083 -0.24106701
-0.119274 0.105159 -0.24106701
-0.119271 0.105237 -0.241065
-0.119268 0.105312 -0.24105901
-0.119266 0.10539 -0.241046
-0.119263 0.105468 -0.241032
-0.11926 0.105544 -0.241036
-0.119257 0.10562 -0.241032
-0.119255 0.105697 -0.241018
-0.119252 0.105773 -0.24101
-0.119248 0.105851 -0.241024
-0.119245 0.105926 -0.241037
-0.119242 0.106004 -0.241045
-0.119239 0.10608 -0.24103899
-0.119236 0.106155 -0.24102899
-0.119234 0.106233 -0.241017
-0.119231 0.106309 -0.24101301
-0.119228 0.106387 -0.24101999
-0.119225 0.106463 -0.241024
-0.119222 0.106539 -0.241018
-0.119219 0.106617 -0.24101
-0.119217 0.106692 -0.240996
-0.119215 0.10677 -0.24098
-0.119211 0.106846 -0.240987
-0.119208 0.106922 -0.240999
-0.119204 0.106998 -0.241007
-0.119202 0.107076 -0.24100301
-0.119199 0.107154 -0.240989
-0.119197 0.10723 -0.240979
-0.119194 0.107305 -0.240968
-0.119192 0.107383 -0.24095599
-0.119189 0.107459 -0.240954
-0.119186 0.107537 -0.240962
-0.119182 0.107613 -0.24097601
-0.119178 0.107688 -0.24099
-0.119175 0.107766 -0.24100199
-0.119171 0.10784 -0.241015
-0.119168 0.107918 -0.241023
-0.119165 0.107994 -0.24101301
-0.119163 0.10807 -0.241007
-0.11916 0.108148 -0.241001
-0.119157 0.108224 -0.24099299
-0.119154 0.108302 -0.240998
-0.119151 0.108377 -0.240988
-0.11915 0.108455 -0.240962
-0.119147 0.108532 -0.24095
-0.119144 0.108609 -0.240954
-0.119141 0.108686 -0.24094599
-0.119139 0.108762 -0.240936
-0.119136 0.108838 -0.24093901
-0.119132 0.108914 -0.240949
-0.119129 0.10899 -0.240953
-0.119126 0.109068 -0.240953
-0.119123 0.109144 -0.240949
-0.119121 0.10922 -0.240941
-0.119118 0.109298 -0.240936
-0.119115 0.109374 -0.24093001
-0.119112 0.109451 -0.240926
-0.119109 0.109527 -0.240926
-0.119107 0.109603 -0.24092001
-0.119104 0.109681 -0.24090999
-0.119101 0.109757 -0.24092101
-0.119097 0.109834 -0.24093699
-0.119093 0.10991 -0.240951
-0.11909 0.109986 -0.240955
-0.119087 0.110062 -0.240961
-0.119084 0.110138 -0.240961
-0.119082 0.110216 -0.24094699
-0.119079 0.110291 -0.240934
-0.119077 0.110367 -0.24092799
-0.119073 0.110445 -0.24092799
-0.119071 0.110521 -0.24092001
-0.119069 0.110598 -0.24089199
-0.119067 0.110674 -0.240876
-0.119064 0.11075 -0.240881
-0.119061 0.110828 -0.240877
-0.119058 0.110904 -0.240877
-0.119055 0.110982 -0.240877
-0.119052 0.111058 -0.240877
-0.119049 0.111134 -0.240877
-0.119046 0.11121 -0.240878
-0.119043 0.111287 -0.24087401
-0.119041 0.111363 -0.24086
-0.119038 0.111439 -0.240848
-0.119036 0.111517 -0.24084
-0.119033 0.111592 -0.240834
-0.11903 0.111668 -0.240835
-0.119026 0.111747 -0.24085499
-0.119021 0.111822 -0.240895
-0.119017 0.111898 -0.24092899
-0.119013 0.111976 -0.240931
-0.119011 0.112052 -0.240915
-0.119009 0.112129 -0.24089301
-0.119007 0.112205 -0.24088199
-0.119004 0.112281 -0.24087401
-0.119002 0.112357 -0.240868
-0.118999 0.112435 -0.240862
-0.118996 0.11251 -0.240854
-0.118993 0.112586 -0.24085
-0.11899 0.112662 -0.240851
-0.118987 0.11274 -0.24085499
-0.118984 0.112816 -0.240853
-0.118982 0.112892 -0.24084499
-0.118979 0.11297 -0.240841
-0.118976 0.113046 -0.240831
-0.118973 0.113122 -0.240832
-0.11897 0.113198 -0.240844
-0.118967 0.113276 -0.240842
-0.118965 0.113351 -0.24082001
-0.118962 0.113427 -0.240812
-0.118959 0.113505 -0.240822
-0.118956 0.113581 -0.24082699
-0.118953 0.113657 -0.24082901
-0.118949 0.113734 -0.240841
-0.118946 0.11381 -0.240843
-0.118943 0.113887 -0.240839
-0.11894 0.113964 -0.24084499
-0.118936 0.11404 -0.24085701
-0.118933 0.114118 -0.24085601
-0.118931 0.114193 -0.240842
-0.118928 0.114269 -0.24083801
-0.118925 0.114345 -0.24085
-0.118921 0.114424 -0.24086
-0.118918 0.1145 -0.24085601
-0.118916 0.114575 -0.240843
-0.118914 0.114653 -0.240823
-0.118912 0.114728 -0.24079899
-0.11891 0.114804 -0.240777
-0.118908 0.114879 -0.240767
-0.118904 0.114956 -0.240779
-0.1189 0.115034 -0.24079999
-0.118897 0.11511 -0.240798
-0.118895 0.115188 -0.240786
-0.118892 0.115263 -0.240778
-0.118889 0.115339 -0.24078
-0.118886 0.115415 -0.24078
-0.118883 0.115491 -0.240775
-0.11888 0.115569 -0.24078301
-0.118877 0.115645 -0.240787
-0.118875 0.115721 -0.240769
-0.118872 0.115799 -0.240761
-0.118868 0.115875 -0.24077301
-0.118865 0.115951 -0.24078199
-0.118862 0.116027 -0.240788
-0.118858 0.116106 -0.240806
-0.118855 0.116182 -0.240802
-0.118853 0.116257 -0.240794
-0.11885 0.116335 -0.240784
-0.118848 0.116411 -0.24077
-0.118845 0.116487 -0.24076501
-0.118843 0.116562 -0.240753
-0.11884 0.116638 -0.24073701
-0.118838 0.116716 -0.240729
-0.118835 0.116792 -0.240733
-0.118832 0.116868 -0.240734
-0.118829 0.116945 -0.240722
-0.118826 0.117022 -0.24073
-0.118822 0.117098 -0.240738
-0.11882 0.117173 -0.24072599
-0.118818 0.117249 -0.24071001
-0.118815 0.117327 -0.240702
-0.118812 0.117403 -0.240713
-0.118808 0.117481 -0.240715
-0.118806 0.117557 -0.240701
-0.118803 0.117633 -0.240697
-0.1188 0.117709 -0.240707
-0.118796 0.117787 -0.24071699
-0.118793 0.117863 -0.24072599
-0.11879 0.117939 -0.24073
-0.118787 0.118015 -0.240724
-0.118785 0.118093 -0.240714
-0.118782 0.118169 -0.24070799
-0.118779 0.118247 -0.24071001
-0.118776 0.118322 -0.24070901
-0.118773 0.118398 -0.24069899
-0.118771 0.118474 -0.240683
-0.118769 0.118549 -0.240669
-0.118766 0.118625 -0.240661
-0.118764 0.118703 -0.24065299
-0.118761 0.118779 -0.240656
-0.118758 0.118855 -0.240656
-0.118755 0.118931 -0.24064399
-0.118752 0.119009 -0.240642
-0.11875 0.119084 -0.24063601
-0.118747 0.11916 -0.240632
-0.118743 0.119239 -0.240646
-0.118739 0.119315 -0.240659
-0.118736 0.119393 -0.240659
-0.118733 0.119469 -0.240659
-0.118731 0.119545 -0.240657
-0.118727 0.119621 -0.240659
-0.118724 0.119699 -0.240677
-0.11872 0.119777 -0.24069101
-0.118717 0.119853 -0.240688
-0.118715 0.119929 -0.24067201
-0.118713 0.120004 -0.24064399
-0.118711 0.12008 -0.240622
-0.118708 0.120156 -0.240624
-0.118705 0.120232 -0.240633
-0.118702 0.12031 -0.240633
-0.118699 0.120386 -0.24062499
-0.118697 0.120461 -0.240615
-0.118694 0.120539 -0.240615
-0.11869 0.120615 -0.240619
-0.118688 0.120691 -0.24061801
-0.118685 0.120767 -0.24061
-0.118682 0.120843 -0.240606
-0.118679 0.120921 -0.240606
-0.118676 0.120997 -0.240614
-0.118672 0.121075 -0.240622
-0.11867 0.121151 -0.24061599
-0.118667 0.121227 -0.240611
-0.118664 0.121305 -0.24060699
-0.118662 0.121378 -0.240587
-0.118659 0.121456 -0.240585
-0.118655 0.121535 -0.240603
-0.118651 0.121611 -0.24062499
-0.118647 0.121689 -0.240641
-0.118644 0.121767 -0.240646
-0.118642 0.121843 -0.24063399
-0.118639 0.121919 -0.240622
-0.118636 0.121995 -0.240624
-0.118633 0.122073 -0.240628
-0.11863 0.122149 -0.24062
-0.118628 0.122224 -0.240613
-0.118625 0.1223 -0.240605
-0.118622 0.122376 -0.240601
-0.118619 0.122454 -0.240601
-0.118617 0.12253 -0.240591
-0.118615 0.122606 -0.24057899
-0.118612 0.122683 -0.240578
-0.118609 0.122759 -0.240574
-0.118606 0.122835 -0.24057201
-0.118602 0.122913 -0.24058001
-0.118599 0.122989 -0.240582
-0.118597 0.123065 -0.24056
-0.118595 0.123141 -0.240545
-0.118593 0.123216 -0.240537
-0.11859 0.123292 -0.240527
-0.118587 0.123368 -0.240523
-0.118584 0.123446 -0.240521
-0.118581 0.123522 -0.240521
-0.118578 0.1236 -0.24053
-0.118575 0.123676 -0.240536
-0.118572 0.123754 -0.240538
-0.118568 0.12383 -0.24054199
-0.118565 0.123908 -0.240546
-0.118562 0.123984 -0.24054
-0.11856 0.12406 -0.240521
-0.118559 0.124133 -0.240495
-0.118557 0.124209 -0.24047901
-0.118554 0.124284 -0.240463
-0.118552 0.12436 -0.240449
-0.11855 0.124436 -0.24044
-0.118548 0.124511 -0.24042
-0.118545 0.124587 -0.240408
-0.118542 0.124663 -0.24041601
-0.118539 0.124741 -0.240418
-0.118536 0.124817 -0.24040399
-0.118534 0.124892 -0.240393
-0.118531 0.124968 -0.24038699
-0.118529 0.125044 -0.24037699
-0.118526 0.125122 -0.240371
-0.118523 0.12519699 -0.240363
-0.118521 0.12527101 -0.24034999
-0.118519 0.125347 -0.240326
-0.118518 0.12542 -0.24029601
-0.118516 0.125495 -0.24027599
-0.118513 0.125571 -0.240274
-0.11851 0.12564901 -0.240274
-0.118507 0.125725 -0.240271
-0.118505 0.125801 -0.24025699
-0.118503 0.12587599 -0.240237
-0.118501 0.12594999 -0.240219
-0.118498 0.126026 -0.24021301
-0.118495 0.126104 -0.240218
-0.118492 0.12617999 -0.240218
-0.118489 0.126258 -0.24021
-0.118487 0.126331 -0.240196
-0.118485 0.126407 -0.240178
-0.118483 0.12648199 -0.240165
-0.118481 0.12655599 -0.240145
-0.11848 0.12662899 -0.240107
-0.118478 0.12670501 -0.24008501
-0.118475 0.126781 -0.240089
-0.118471 0.12685899 -0.24009
-0.118469 0.12693401 -0.24008
-0.118466 0.12701 -0.240072
-0.118464 0.127084 -0.24006
-0.118462 0.12716 -0.24004801
-0.118459 0.12723701 -0.240044
-0.118456 0.127313 -0.24004699
-0.118453 0.127389 -0.24003699
-0.118451 0.12746499 -0.24002101
-0.118449 0.127538 -0.240007
-0.118446 0.127616 -0.240007
-0.118443 0.127692 -0.24000999
-0.11844 0.12777001 -0.240004
-0.118437 0.127846 -0.23999999
-0.118434 0.127922 -0.239998
-0.118431 0.12800001 -0.240006
-0.118427 0.128078 -0.240018
-0.118424 0.128157 -0.240024
-0.118421 0.128232 -0.24002101
-0.118419 0.128306 -0.240003
-0.118417 0.128382 -0.23999099
-0.118414 0.12845799 -0.239987
-0.118411 0.128535 -0.239979
-0.118408 0.128611 -0.23997299
-0.118406 0.12868699 -0.23997401
-0.118403 0.12876301 -0.239968
-0.1184 0.128839 -0.23996399
-0.118397 0.12891699 -0.239962
-0.118394 0.128993 -0.23996399
-0.11839 0.129071 -0.23997401
-0.118387 0.129149 -0.239988
-0.118383 0.129227 -0.239997
-0.11838 0.12930501 -0.239999
-0.118377 0.129382 -0.240007
-0.118373 0.12946001 -0.240015
-0.11837 0.129538 -0.240025
-0.118365 0.129619 -0.240059
-0.11836 0.12969901 -0.24009299
-0.118356 0.12977999 -0.240117
-0.118351 0.12986 -0.24014699
-0.118347 0.129941 -0.240169
-0.118343 0.13001899 -0.240187
-0.118339 0.130098 -0.240205
-0.118335 0.130178 -0.24022301
-0.118331 0.13025799 -0.240246
-0.118326 0.130339 -0.24027801
-0.118322 0.130418 -0.240302
-0.118319 0.130496 -0.24031
-0.118314 0.13057899 -0.240346
-0.118305 0.130669 -0.24045099
-0.118299 0.13075399 -0.240523
-0.118292 0.130842 -0.24059699
-0.118284 0.13093001 -0.24069101
-0.119463 0.091629997 -0.24235
-0.119464 0.091721997 -0.24224301
-0.119466 0.091815002 -0.242127
-0.119466 0.091899998 -0.24206901
-0.119464 0.091981001 -0.242037
-0.119464 0.092067003 -0.241963
-0.119465 0.092155002 -0.241879
-0.119464 0.092239998 -0.24181899
-0.119463 0.092322998 -0.241781
-0.119462 0.092405997 -0.241725
-0.119461 0.092491001 -0.24167299
-0.11946 0.092572004 -0.241634
-0.119458 0.092652999 -0.241606
-0.119457 0.092734002 -0.24157199
-0.119455 0.092814997 -0.24153399
-0.119454 0.092897996 -0.24149001
-0.119452 0.092978999 -0.241458
-0.119451 0.093059003 -0.241428
-0.119449 0.093138002 -0.24140801
-0.119447 0.093220003 -0.24138001
-0.119445 0.093299001 -0.241354
-0.119443 0.093378998 -0.24133199
-0.11944 0.093456 -0.24132299
-0.119438 0.093535997 -0.241309
-0.119436 0.093613997 -0.241293
-0.119433 0.093690999 -0.241285
-0.11943 0.093768999 -0.241281
-0.119427 0.093845002 -0.241281
-0.119424 0.093920998 -0.241281
-0.119421 0.093998998 -0.24127799
-0.119418 0.094075002 -0.24128599
-0.119415 0.094150998 -0.24129
-0.119412 0.094228998 -0.241276
-0.11941 0.094309002 -0.241262
-0.119407 0.094384 -0.241256
-0.119404 0.094462 -0.241256
-0.119401 0.09454 -0.24125101
-0.119399 0.094618 -0.241235
-0.119397 0.094695002 -0.24122301
-0.119394 0.094773002 -0.241217
-0.119391 0.094851002 -0.241207
-0.119388 0.094929002 -0.241203
-0.119386 0.095004998 -0.241197
-0.119383 0.095083997 -0.241183
-0.11938 0.09516 -0.241182
-0.119377 0.095238 -0.241182
-0.119374 0.095314004 -0.241182
-0.119371 0.095389999 -0.24119
-0.119367 0.095464997 -0.24120399
-0.119365 0.095541999 -0.24119601
-0.119362 0.095622003 -0.241183
-0.119359 0.095697999 -0.241183
-0.119356 0.095774002 -0.24118499
-0.119353 0.095852003 -0.241181
-0.11935 0.095927998 -0.24118499
-0.119347 0.096004002 -0.241193
-0.119343 0.096078001 -0.241208
-0.11934 0.096155003 -0.241218
-0.119337 0.096233003 -0.241216
-0.119334 0.096308 -0.241208
-0.119331 0.096387997 -0.2412
-0.119329 0.096464001 -0.24119601
-0.119326 0.096542001 -0.241184
-0.119324 0.096619003 -0.241175
-0.119321 0.096697003 -0.24116901
-0.119318 0.096772999 -0.241171
-0.119314 0.09685 -0.24118701
-0.119311 0.096923999 -0.241199
-0.119307 0.097000003 -0.241209
-0.119304 0.097075999 -0.241219
-0.119301 0.097152002 -0.241218
-0.119298 0.097230002 -0.241216
-0.119294 0.097304001 -0.24123199
