-0.0304366 -0.0382831 0.998803 0.00437497
-0.0314603 -0.0429456 0.998582 0.00338554
-0.0359869 -0.0403285 0.998538 0.0115735
-0.0342918 -0.0435343 0.998463 0.0116052
-0.0294033 -0.0422162 0.998676 0.00840381
-0.0210165 -0.047259 0.998662 0.000139883
-0.0198385 -0.0459303 0.998748 0.0014832
-0.019722 -0.0485236 0.998627 0.00115862
-0.0204547 -0.0426588 0.99888 0.00286555
-0.0166846 -0.043764 0.998903 0.000636233
-0.01221 -0.0403604 0.999111 0
-0.0145223 -0.0418319 0.999019 0.00350643
-0.0147765 -0.0389358 0.999132 0
-0.0104741 -0.0414617 0.999085 0
-0.0102868 -0.0362713 0.999289 0
-0.00926289 -0.0379945 0.999235 0
-0.0102441 -0.0402431 0.999137 0
-0.0118896 -0.0390348 0.999167 0
-0.0131173 -0.036128 0.999261 0
-0.0142238 -0.0360342 0.999249 0
-0.0150256 -0.0343431 0.999297 0
-0.0130543 -0.0343226 0.999326 0
-0.0146922 -0.0364689 0.999227 0
-0.0135688 -0.0356271 0.999273 0
-0.00893422 -0.0355958 0.999326 0
-0.0101732 -0.0373835 0.999249 0
-0.0132537 -0.0344966 0.999317 0
-0.015573 -0.0332934 0.999324 0
-0.0154233 -0.0272624 0.999509 0
-0.0179511 -0.0295579 0.999402 0
-0.0152868 -0.0273115 0.99951 0
-0.0132153 -0.0268867 0.999551 0
-0.00993392 -0.026033 0.999612 0
-0.014179 -0.0249442 0.999588 0
-0.0142858 -0.0215046 0.999667 0
-0.0138757 -0.0259761 0.999566 0
-0.0129613 -0.0214946 0.999685 0
-0.0183229 -0.0201346 0.999629 0.00170175
-0.0241472 -0.0172643 0.999559 0.00844854
-0.0220405 -0.0189864 0.999577 0.0066477
-0.0229025 -0.0187659 0.999562 0.00859033
-0.0212677 -0.0254696 0.999449 0.00573267
-0.0190685 -0.0256704 0.999489 0.00115452
-0.0167719 -0.0266496 0.999504 0
-0.0214193 -0.0300293 0.999319 0.00434154
-0.0251336 -0.0313582 0.999192 0.00874117
-0.0202763 -0.032045 0.999281 0.00631202
-0.0173319 -0.0370007 0.999165 0.00243191
-0.0132691 -0.0395779 0.999128 0
-0.00725065 -0.0470104 0.998868 0
-0.00228697 -0.049527 0.99877 0
-0.00657523 -0.0480615 0.998823 0
-0.00897719 -0.0482902 0.998793 0
-0.00768934 -0.0488052 0.998779 0
-0.00866889 -0.0487627 0.998773 0
-0.00850088 -0.0507582 0.998675 0
-0.0106536 -0.0497254 0.998706 0
-0.0114585 -0.0526115 0.998549 0
-0.0146043 -0.050106 0.998637 0
-0.0171861 -0.0507187 0.998565 0
-0.0145004 -0.0527055 0.998505 0
-0.0124347 -0.0559968 0.998353 0
-0.0114972 -0.0547679 0.998433 0
-0.0116674 -0.0587241 0.998206 0
-0.0144869 -0.0594707 0.998125 0
-0.019238 -0.0567212 0.998205 0
-0.0201147 -0.0572494 0.998157 0
-0.0208524 -0.0526525 0.998395 0.0021618
-0.0162669 -0.057713 0.998201 0
-0.0194964 -0.0533011 0.998388 0
-0.0232645 -0.0559934 0.99816 0
-0.023168 -0.0567265 0.998121 0
-0.0204105 -0.0605902 0.997954 0
-0.0164519 -0.0607572 0.998017 0
-0.0169896 -0.0610334 0.997991 0
-0.0174154 -0.0596618 0.998067 0
-0.0195014 -0.0594404 0.998041 8.92538e-05
-0.013896 -0.0659434 0.997727 0
-0.0149894 -0.0626169 0.997925 0
-0.0161839 -0.0629718 0.997884 0.00257695
-0.0237496 -0.0599202 0.997921 0.0135352
-0.0251075 -0.0601705 0.997872 0.0115964
-0.0247884 -0.0646062 0.997603 0.0105432
-0.0212443 -0.0662148 0.997579 0.00510366
-0.0158637 -0.070287 0.997401 0.00641395
-0.0143691 -0.0741059 0.997147 0.00459096
-0.0166363 -0.0747487 0.997064 0.00101424
-0.0147175 -0.0752859 0.997053 0
-0.0164694 -0.0799207 0.996665 0
-0.0201329 -0.0829087 0.996354 0
-0.0153104 -0.0871424 0.996078 0
-0.0125662 -0.0869116 0.996137 0
-0.0120752 -0.0924461 0.995644 0
-0.0164843 -0.0926397 0.995563 0
-0.0168394 -0.0938499 0.995444 0.00455186
-0.0177513 -0.0932692 0.995483 0.00352766
-0.0157608 -0.0963516 0.995223 0.00186477
-0.0157746 -0.0968079 0.995178 0
-0.0117028 -0.0991822 0.995 0
-0.0103605 -0.101172 0.994815 0.00129493
-0.013938 -0.10032 0.994858 0.0038663
-0.019102 -0.0971176 0.99509 0.00898183
-0.0196772 -0.0968578 0.995104 0.0121731
-0.0191821 -0.0977135 0.99503 0.0126116
-0.0171853 -0.0978001 0.995058 0.00851326
-0.01388 -0.0984725 0.995043 0.00774107
-0.0124318 -0.101103 0.994798 0.00650722
-0.0154991 -0.098733 0.994993 0.00640531
-0.0166275 -0.0957587 0.995266 0.0060529
-0.0176588 -0.0945518 0.995363 0.0093227
-0.0200513 -0.0949275 0.995282 0.00838204
-0.023677 -0.0940186 0.995289 0.0103585
-0.0201878 -0.0953309 0.995241 0.00560707
-0.0220605 -0.09709 0.995031 0.00852346
-0.0207621 -0.0935506 0.995398 0.00786172
-0.0216339 -0.0907057 0.995643 0.0106011
-0.0182655 -0.0925245 0.995543 0.00847362
-0.0210707 -0.0911192 0.995617 0.00823794
-0.02042 -0.0914531 0.9956 0.00528249
-0.0237476 -0.0917625 0.995498 0.00305201
-0.0230717 -0.0884975 0.995809 0
-0.0188556 -0.0876623 0.995972 0
-0.0187511 -0.0883964 0.995909 0
-0.0198272 -0.0877704 0.995943 0
-0.0196989 -0.0825596 0.996391 0
-0.0228775 -0.0811706 0.996438 0.00320381
-0.02252 -0.081239 0.99644 0.00458346
-0.0208709 -0.0787683 0.996674 0.00195554
-0.020894 -0.0780102 0.996734 0.00432761
-0.0230968 -0.0742133 0.996975 0.00358888
-0.0214821 -0.0725465 0.997134 0.00203793
-0.0218955 -0.0708619 0.997246 0
-0.025102 -0.0700163 0.99723 0.000349481
-0.0241502 -0.0712111 0.997169 0.00301453
-0.0275665 -0.0684244 0.997275 0.00687631
-0.025501 -0.0676912 0.99738 0.00628425
-0.0219619 -0.0701002 0.997298 0.000475317
-0.0231953 -0.0637105 0.997699 0.00495993
-0.0218781 -0.0655441 0.99761 0.00248021
-0.0204542 -0.0627916 0.997817 0.00138588
-0.0248828 -0.0611529 0.997818 0.00294855
-0.0261044 -0.0611121 0.99779 0.00374181
-0.0227807 -0.0607102 0.997895 0.00338256
-0.0230565 -0.0603887 0.997909 0.00150908
-0.0239567 -0.0572019 0.998075 0.00339439
-0.0243531 -0.0559804 0.998135 0.00432444
-0.0219728 -0.0552433 0.998231 0.00429644
-0.0212391 -0.0546508 0.99828 0.00284051
-0.0194404 -0.0539128 0.998356 0.000839115
-0.0198274 -0.0508933 0.998507 0.00287182
-0.0200591 -0.0509827 0.998498 0.000234357
-0.0196692 -0.0500288 0.998554 0
-0.0199653 -0.0505641 0.998521 0
-0.0196221 -0.0459915 0.998749 0
-0.0187809 -0.0463549 0.998748 0
-0.0207911 -0.0434218 0.99884 0
-0.0208533 -0.0436104 0.998831 0
-0.0195286 -0.0459649 0.998752 0
-0.0208273 -0.0429474 0.99886 0
-0.0229858 -0.0398801 0.99894 0.0038029
-0.0234625 -0.0376096 0.999017 0.00404281
-0.0222452 -0.0371902 0.999061 0.0025439
-0.0245883 -0.0347675 0.999093 0.00488521
-0.0221656 -0.0369343 0.999072 0.00445482
-0.0219162 -0.0340631 0.999179 0.000821268
-0.0189046 -0.0328261 0.999282 0.000889062
-0.0201872 -0.0310178 0.999315 0.00252837
-0.0222709 -0.0264724 0.999401 0.00469723
-0.0226808 -0.023736 0.999461 0.005059
-0.0236071 -0.0200463 0.99952 0.00383858
-0.0225881 -0.0152524 0.999628 0.00496145
-0.0232543 -0.00731759 0.999703 0.0078612
-0.0205744 -0.00522219 0.999775 0.00398453
-0.020455 -0.000805122 0.99979 0.00554832
-0.0204281 0.00293795 0.999787 0.00589172
-0.0243226 0.0120048 0.999632 0.0100696
-0.024599 0.0148761 0.999587 0.0105469
-0.0247 0.0208418 0.999478 0.0119342
-0.0232996 0.0271859 0.999359 0.0108907
-0.0226718 0.0300967 0.99929 0.0094903
-0.023929 0.0354558 0.999085 0.0114207
-0.022663 0.0395275 0.998961 0.0126666
-0.0202259 0.0389549 0.999036 0.00869462
-0.0201751 0.0485828 0.998615 0.00903546
-0.0191037 0.0518689 0.998471 0.00596984
-0.0214482 0.0527715 0.998376 0.0031775
-0.021714 0.0578021 0.998092 0.0028335
-0.0191139 0.0653045 0.997682 0.000972678
-0.0271824 -0.188451 0.981706 0
-0.0288025 -0.176962 0.983796 0
-0.0310356 -0.166945 0.985478 0.00212213
-0.0313054 -0.161301 0.986409 0.00403002
-0.0320566 -0.156964 0.987084 0.0019521
-0.0309926 -0.151264 0.988007 0.00237939
-0.0328134 -0.151309 0.987942 0
-0.0329048 -0.145881 0.988755 0.00462536
-0.0334183 -0.142069 0.989292 0.00406671
-0.0329909 -0.137566 0.989943 0.00402457
-0.0338929 -0.132537 0.990598 0.00318081
-0.0339147 -0.124771 0.991606 0.00570511
-0.0337526 -0.12288 0.991847 0.00495677
-0.0305807 -0.116645 0.992703 0.00373636
-0.0339639 -0.11146 0.993188 0.00553375
-0.032327 -0.106036 0.993837 0.000214493
-0.0332852 -0.103041 0.99412 0.00272246
-0.0356109 -0.102062 0.994141 0.00231668
-0.036045 -0.103756 0.993949 0.00370752
-0.0381965 -0.101737 0.994078 0.00418073
-0.0372658 -0.102997 0.993983 0.00446298
-0.0361733 -0.102987 0.994025 0.00126944
-0.035198 -0.100269 0.994337 0.00347767
-0.0334905 -0.0997273 0.994451 0.00244828
-0.0353612 -0.0973121 0.994626 0.00384869
-0.0347461 -0.0920877 0.995144 0.00173447
-0.0363125 -0.0935035 0.994956 0.00269078
-0.0359122 -0.0935154 0.99497 0
-0.0354495 -0.0949315 0.994852 0
-0.0380221 -0.0903321 0.995186 0
-0.0380678 -0.0873846 0.995447 0
-0.0395982 -0.0829484 0.995767 0.00297706
-0.0394434 -0.0826102 0.995801 0.00504584
-0.0420842 -0.0771911 0.996128 0.00876737
-0.0416076 -0.0761268 0.99623 0.00992335
-0.0417124 -0.0732633 0.99644 0.00813601
-0.0431183 -0.0697806 0.99663 0.0106636
-0.0435159 -0.0695177 0.996631 0.0114123
-0.0425617 -0.0667966 0.996858 0.0112882
-0.0435217 -0.0653358 0.996914 0.00939762
-0.0451151 -0.0634901 0.996962 0.0110614
-0.0451109 -0.0657778 0.996814 0.0103996
-0.0451556 -0.0620915 0.997048 0.0118533
-0.0460683 -0.0588509 0.997203 0.00998183
-0.0454704 -0.0562752 0.997379 0.00947851
-0.0467403 -0.0544417 0.997422 0.0102579
-0.0451094 -0.0527544 0.997588 0.00803821
-0.0449811 -0.0498041 0.997746 0.00671336
-0.0425562 -0.046487 0.998012 0.00781784
-0.0411643 -0.0461908 0.998084 0.00321618
-0.0424014 -0.0446457 0.998103 0.00434339
-0.0386603 -0.0459888 0.998194 0.00127516
-0.0401641 -0.0449132 0.998183 0.00111109
-0.0425449 -0.041439 0.998235 0.00217131
-0.041757 -0.0403965 0.998311 0.000791127
-0.0407614 -0.0410944 0.998324 0.00285425
-0.0391832 -0.0406248 0.998406 0.00249611
-0.0395386 -0.039493 0.998437 0.00365042
-0.0387785 -0.0376839 0.998537 0.00212289
-0.0332191 -0.036338 0.998787 0
-0.0313811 -0.0345738 0.998909 0
-0.0307415 -0.0319029 0.999018 0
-0.0344474 -0.0275612 0.999026 0
-0.0339797 -0.0245976 0.99912 0
-0.0350888 -0.021773 0.999147 0
-0.0338726 -0.0188498 0.999248 0
-0.0357524 -0.0145571 0.999255 0.00113565
-0.0352935 -0.0138656 0.999281 0.00192038
-0.0340583 -0.0132278 0.999332 0.00236709
-0.0257951 -0.0106969 0.99961 0.000925546
-0.0269537 -0.00790807 0.999605 0.000393944
-0.0318956 -0.00374518 0.999484 0.00247374
-0.0340633 -0.001422 0.999419 0.00229278
-0.0367355 0.00214145 0.999323 0.00699553
-0.03619 0.00292164 0.999341 0.00373933
-0.0371178 0.00296717 0.999306 0.00109203
-0.0354042 0.00272362 0.999369 0
-0.0362679 0.00412454 0.999334 0
-0.0342167 0.00459373 0.999404 0
-0.0333658 0.00484058 0.999431 0
-0.0306696 0.00380778 0.999522 0
-0.0329855 0.00431983 0.999446 0
-0.0348167 0.00575055 0.999377 0.00567291
-0.0400412 0.00617855 0.999179 0.00590101
-0.0397997 0.00826885 0.999174 0.00992337
-0.0424191 0.00955369 0.999054 0.0129546
-0.0394783 0.00897302 0.99918 0.00885056
-0.0394931 0.00823989 0.999186 0.0104854
-0.0376782 0.00783956 0.999259 0.00720292
-0.0358087 0.00658167 0.999337 0.00711039
-0.0372467 0.00851717 0.99927 0.00698074
-0.0393176 0.00827029 0.999193 0.00731995
-0.0377895 0.00526179 0.999272 0
-0.0401485 0.00574702 0.999177 0
-0.0412939 0.00751992 0.999119 0.00555615
-0.0400368 0.00754528 0.99917 0.00894478
-0.0377792 0.00742533 0.999259 0.0127578
-0.0388092 0.00884803 0.999207 0.0129918
-0.0403378 0.00813429 0.999153 0.0114815
-0.0409113 0.00903125 0.999122 0.012067
-0.0408752 0.00843672 0.999129 0.0120458
-0.0429371 0.00799411 0.999046 0.00990243
-0.04452 0.00654472 0.998987 0.00964286
-0.0452787 0.00662542 0.998952 0.0132098
-0.0440033 0.0057732 0.999015 0.0106143
-0.0433316 0.00659077 0.999039 0.010522
-0.0406343 0.00493184 0.999162 0.0102114
-0.0391232 0.00201187 0.999232 0.00893741
-0.0400206 0.00290281 0.999195 0.00802168
-0.0408784 0.00267465 0.999161 0.0124648
-0.0427963 0.00242914 0.999081 0.0184774
-0.0406391 -0.000478669 0.999174 0.0170271
-0.0392126 -0.0013656 0.99923 0.0183946
-0.0421414 -0.00217357 0.999109 0.017419
-0.0469251 -0.00221756 0.998896 0.0149129
-0.0467741 -0.0043197 0.998896 0.0117068
-0.0448698 -0.00376524 0.998986 0.0103204
-0.0418346 -0.00542688 0.99911 0.0128023
-0.0391327 -0.00638592 0.999214 0.015616
-0.0434968 -0.00815414 0.99902 0.017198
-0.0456443 -0.00867407 0.99892 0.0148918
-0.0409685 -0.0100802 0.99911 0.0123244
-0.0397795 -0.0115253 0.999142 0.0113894
-0.0401324 -0.0125032 0.999116 0.00677089
-0.0411506 -0.0146382 0.999046 0.00738091
-0.0439799 -0.0150795 0.998919 0.00946775
-0.0401099 -0.0154587 0.999076 0.00706761
-0.0338186 -0.0162165 0.999296 0.0040415
-0.0303672 -0.0178932 0.999379 0
-0.0311883 -0.0193413 0.999326 0
-0.0357144 -0.0182217 0.999196 0
-0.0359909 -0.0175521 0.999198 0
-0.0358884 -0.0170373 0.999211 0.00429171
-0.0448162 -0.0176609 0.998839 0.0113505
-0.0442343 -0.0177126 0.998864 0.0100902
-0.0454359 -0.0175033 0.998814 0.0129511
-0.0456189 -0.0176763 0.998802 0.0160385
-0.0390117 -0.0200451 0.999038 0.0100834
-0.0334734 -0.0240466 0.99915 0.00282775
-0.030475 -0.026704 0.999179 0
-0.0306612 -0.0278176 0.999143 0
-0.0328237 -0.0278879 0.999072 0
-0.0329241 -0.025796 0.999125 0
-0.0315708 -0.0242057 0.999208 0.00207197
-0.0294433 -0.0239205 0.99928 0.00265542
-0.0367095 -0.0227184 0.999068 0.00793435
-0.0367957 -0.0208875 0.999104 0.00743898
-0.0348712 -0.02061 0.999179 0.00252124
-0.0355689 -0.0191726 0.999183 0.00725739
-0.0385766 -0.0186181 0.999082 0.0102227
-0.0400466 -0.0185672 0.999025 0.0111368
-0.0356704 -0.019947 0.999165 0.00598664
-0.0354283 -0.0209923 0.999152 0.00163152
-0.0349798 -0.0194323 0.999199 0.00265206
-0.0387271 -0.016541 0.999113 0.00515934
-0.0395265 -0.0149912 0.999106 0.00360658
-0.0405681 -0.0135587 0.999085 0.00368427
-0.0383173 -0.0117747 0.999196 0.00329124
-0.035414 -0.0118264 0.999303 0.00208664
-0.0371519 -0.010082 0.999259 0.00804343
-0.0318774 -0.0110167 0.999431 0.00396752
-0.0317997 -0.01317 0.999407 0
-0.0368513 -0.0118031 0.999251 0.000547712
-0.0403158 -0.0104952 0.999132 0.00582298
-0.0423341 -0.0114406 0.999038 0.00767267
-0.0417525 -0.0104565 0.999073 0.00862318
-0.042362 -0.0117078 0.999034 0.0106127
-0.0415392 -0.0135575 0.999045 0.00740768
-0.0368202 -0.0185317 0.99915 0
-0.0317808 -0.021181 0.99927 0
-0.0318627 -0.0224975 0.999239 0
-0.0332395 -0.0232161 0.999178 0.00317
-0.0331149 -0.0235756 0.999173 0.00355492
-0.0325869 -0.0249769 0.999157 0
-0.0292992 -0.0283496 0.999169 0
-0.0321305 -0.0292678 0.999055 0
-0.0360435 -0.0282901 0.99895 0.00320898
-0.0356312 -0.0296583 0.998925 0
-0.0361099 -0.0286213 0.998938 0.000778905
-0.0384722 -0.026945 0.998896 0.00568711
-0.0362046 -0.028819 0.998929 0.0035239
-0.0342481 -0.0298952 0.998966 0.00243187
-0.0352429 -0.0302476 0.998921 0.00526841
-0.03553 -0.0298235 0.998924 0.00270633
-0.0369469 -0.0277925 0.998931 0.00695609
-0.0352572 -0.0271881 0.999008 0.00641144
-0.0415514 -0.0254499 0.998812 0.0119336
-0.0416831 -0.0229669 0.998867 0.0141753
-0.0405759 -0.0203042 0.99897 0.0175616
-0.0439181 -0.0194611 0.998846 0.0223298
-0.036568 -0.0180421 0.999168 0.019005
-0.0363289 -0.0186996 0.999165 0.0171716
-0.0313827 -0.0201981 0.999303 0.0111753
-0.0368367 -0.0198887 0.999123 0.00676261
-0.0451233 -0.0167049 0.998842 0.0129396
-0.0407847 -0.0163546 0.999034 0.0111352
-0.0427677 -0.0129357 0.999001 0.0181789
-0.0414989 -0.0100979 0.999088 0.0200062
-0.0403574 -0.0125085 0.999107 0.0167302
-0.0402839 -0.0113962 0.999123 0.0163872
-0.035387 -0.0127036 0.999293 0.0142706
-0.0368263 -0.00991587 0.999273 0.0156392
-0.0384587 -0.0106173 0.999204 0.0160764
-0.0365257 -0.0117365 0.999264 0.0127496
-0.0373746 -0.0107698 0.999243 0.0159934
-0.036659 -0.0111301 0.999266 0.0126761
-0.0367052 -0.0108787 0.999267 0.0125938
-0.0383267 -0.0108923 0.999206 0.0135873
-0.0349697 -0.0154638 0.999269 0.00847183
-0.0360216 -0.0179646 0.99919 0.00768171
-0.0348633 -0.0218096 0.999154 0.00562485
-0.0282561 -0.023519 0.999324 0.000530495
-0.0281714 -0.0279154 0.999213 0
-0.0227603 -0.029271 0.999312 0
-0.0285943 -0.0319175 0.999081 0
-0.0280376 -0.0347767 0.999002 0
-0.0274543 -0.0354871 0.998993 0
-0.0235579 -0.0372457 0.999028 0
-0.0259227 -0.0363767 0.999002 0
-0.0244344 -0.0362401 0.999044 0
-0.0241905 -0.034072 0.999127 0
-0.0197575 -0.0331751 0.999254 0
-0.0220273 -0.0300922 0.999304 0
-0.0216601 -0.0300389 0.999314 0
-0.0216773 -0.0304614 0.999301 0
-0.0226828 -0.0306898 0.999272 0
-0.0232343 -0.0307392 0.999257 0
-0.0197269 -0.0298253 0.99936 0
-0.0215553 -0.0286595 0.999357 0
-0.0246531 -0.0274473 0.999319 0
-0.0252109 -0.028223 0.999284 0.000538821
-0.0237172 -0.0274978 0.99934 0
-0.0234946 -0.0277984 0.999337 0.000766836
-0.0223372 -0.0290845 0.999327 0.00173116
-0.0202111 -0.032202 0.999277 0
-0.021805 -0.0323012 0.99924 0
-0.0232773 -0.0361332 0.999076 0
-0.018256 -0.0374593 0.999131 0
-0.0152896 -0.0426305 0.998974 0
-0.0132828 -0.0430279 0.998986 0
-0.0121016 -0.0438694 0.998964 0
-0.0123152 -0.0428459 0.999006 0
-0.0143569 -0.041009 0.999056 0
-0.0142264 -0.0390227 0.999137 0
-0.013576 -0.0398407 0.999114 0
-0.0149327 -0.039604 0.999104 0
-0.020384 -0.0393849 0.999016 0
-0.0210442 -0.0385909 0.999034 0
-0.0223237 -0.0357356 0.999112 0
-0.0234935 -0.0340789 0.999143 0
-0.0223029 -0.0339305 0.999175 0
-0.0234823 -0.0333093 0.999169 0
-0.0183322 -0.0356431 0.999196 0
-0.0205566 -0.0308785 0.999312 0
-0.0224835 -0.0305134 0.999281 0.000563132
-0.0216435 -0.0272866 0.999393 0.00543511
-0.026033 -0.0268824 0.9993 0.00674692
-0.0283127 -0.0263191 0.999253 0.00691611
-0.0258263 -0.025529 0.99934 0.00283072
-0.0277859 -0.0232403 0.999344 0.00669264
-0.0232071 -0.0219232 0.99949 0.00518922
-0.0251286 -0.0222589 0.999436 0.00894622
-0.022561 -0.0220932 0.999501 0.0102839
-0.0170733 -0.0232294 0.999584 0.00853458
-0.0182026 -0.025002 0.999522 0.00848529
-0.0202986 -0.0242994 0.999499 0.00810731
-0.0188221 -0.0265375 0.999471 0.00264525
-0.0194252 -0.0282745 0.999411 0
-0.0226892 -0.0297201 0.999301 0
-0.0233711 -0.027521 0.999348 0
-0.0236153 -0.0270917 0.999354 0.00357367
-0.023196 -0.0253153 0.99941 0.0026652
-0.0235972 -0.0252822 0.999402 0
-0.0242122 -0.0258509 0.999373 0.00231957
-0.0265566 -0.0262333 0.999303 0
-0.028096 -0.023858 0.99932 0.00183515
-0.0278567 -0.0232027 0.999343 0.00334952
-0.028063 -0.0255751 0.999279 0
-0.0265972 -0.0273733 0.999271 0
-0.0238139 -0.0257735 0.999384 0
-0.0241358 -0.0266117 0.999354 0
-0.0252741 -0.0232165 0.999411 0
-0.0286755 -0.0217073 0.999353 0.00397706
-0.0309221 -0.020453 0.999313 0.00735003
-0.0327405 -0.0178949 0.999304 0
-0.0313025 -0.0183477 0.999341 0
-0.0248228 -0.0183287 0.999524 0
-0.029625 -0.0166496 0.999422 0
-0.0345761 -0.0157791 0.999278 0
-0.036959 -0.0111592 0.999254 0.00259
-0.030045 -0.0144302 0.999444 0
-0.0276188 -0.0153501 0.999501 0
-0.0283333 -0.0181499 0.999434 0
-0.0269073 -0.0200695 0.999436 0
-0.0298961 -0.0187005 0.999378 0
-0.0274893 -0.0188009 0.999445 0
-0.0301606 -0.015387 0.999427 0
-0.0257411 -0.0137047 0.999575 0
-0.0286927 -0.0129905 0.999504 0
-0.0320928 -0.0118229 0.999415 0
-0.0284131 -0.0138374 0.999501 0
-0.0262336 -0.0126769 0.999575 0
-0.0285829 -0.0113522 0.999527 0
-0.03319 -0.00913728 0.999407 0
-0.0298747 -0.0138351 0.999458 0
-0.0293751 -0.0144686 0.999464 0
-0.0307386 -0.0142234 0.999426 0
-0.0248287 -0.0184779 0.999521 0
-0.0292332 -0.0161519 0.999442 0
-0.0332759 -0.0189781 0.999266 0
-0.0320873 -0.0222632 0.999237 0
-0.032618 -0.0225344 0.999214 0
-0.0366939 -0.0225823 0.999071 0
-0.0366505 -0.0234669 0.999053 0
-0.0364043 -0.0254792 0.999012 0
-0.0323797 -0.0305559 0.999008 0
-0.0300443 -0.0341085 0.998966 0
-0.0305628 -0.0347711 0.998928 0
-0.0288771 -0.0379356 0.998863 0
-0.0290318 -0.0400696 0.998775 0
-0.0330092 -0.0412512 0.998603 0
-0.030401 -0.0409768 0.998697 0
-0.0330749 -0.0425617 0.998546 0
-0.0287803 -0.0455839 0.998546 0
-0.0335939 -0.0440232 0.998465 0.00431773
-0.0321796 -0.0448503 0.998475 0.00322917
-0.0257616 -0.0429114 0.998747 0
-0.0271476 -0.0416831 0.998762 0.00140521
-0.0269529 -0.0404897 0.998816 0.00698797
-0.025937 -0.0409396 0.998825 0.00577783
-0.0320227 -0.0386509 0.99874 0.0142686
-0.0313914 -0.0414715 0.998646 0.0124861
-0.0231308 -0.0417641 0.99886 0.00229554
-0.020061 -0.0454766 0.998764 0
-0.0136228 -0.0423926 0.999008 0
-0.0151235 -0.0422706 0.998992 0
-0.0152899 -0.0427563 0.998969 0
-0.0155495 -0.0386941 0.99913 0
-0.0163171 -0.0373028 0.999171 0
-0.0156383 -0.0377914 0.999163 0
-0.0188275 -0.0334336 0.999264 0
-0.0209714 -0.0337013 0.999212 0
-0.0202484 -0.0296595 0.999355 0
-0.0208171 -0.0305695 0.999316 0.000664802
-0.0233253 -0.026268 0.999383 0.00536886
-0.0216788 -0.0239196 0.999479 0.00705974
-0.0168866 -0.025857 0.999523 0
-0.0134283 -0.0259509 0.999573 0
-0.0123351 -0.0249433 0.999613 0
-0.0138201 -0.0269567 0.999541 0
-0.015397 -0.0222715 0.999633 0
-0.0182527 -0.021662 0.999599 0
-0.0197804 -0.0159071 0.999678 0
-0.021831 -0.0183175 0.999594 0
-0.0216339 -0.0144469 0.999662 0
-0.0236025 -0.0129221 0.999638 0.00284812
-0.0267704 -0.00936357 0.999598 0.00715599
-0.0288722 -0.0104062 0.999529 0.0118657
-0.0328319 -0.00391155 0.999453 0.016874
-0.0320764 -0.00754874 0.999457 0.0189015
-0.0306628 -0.00985214 0.999481 0.0156432
-0.0331477 -0.0146907 0.999343 0.0153684
-0.0327341 -0.0166543 0.999325 0.0141098
-0.0321857 -0.0222668 0.999234 0.00904988
-0.0275214 -0.0274828 0.999243 0.00738609
-0.0249518 -0.0307264 0.999216 0.00464618
-0.0193269 -0.033729 0.999244 0
-0.0180833 -0.0373873 0.999137 0
-0.0167215 -0.0397746 0.999069 0
-0.0160864 -0.0438175 0.99891 0
-0.0121402 -0.0466077 0.998839 0
-0.00869177 -0.0505451 0.998684 0
-0.0132661 -0.0507437 0.998624 0
-0.0163336 -0.0546954 0.99837 0
-0.0154024 -0.0592846 0.998122 0
-0.0174269 -0.0589793 0.998107 0
-0.0188446 -0.0569754 0.998198 0
-0.015904 -0.0605596 0.998038 0
-0.0135757 -0.0591071 0.998159 0
-0.0124182 -0.0593635 0.998159 0
-0.0153536 -0.057547 0.998225 0
-0.0195952 -0.0595724 0.998032 0
-0.0192995 -0.0603309 0.997992 0
-0.0148907 -0.0621392 0.997956 0
-0.0144323 -0.063203 0.997896 0
-0.0154655 -0.0628008 0.997906 0
-0.0197275 -0.0626375 0.997841 0
-0.0209149 -0.0590062 0.998039 0
-0.0209828 -0.0559578 0.998213 0
-0.0198989 -0.0541434 0.998335 0
-0.0235445 -0.0538366 0.998272 0.00385865
-0.0185759 -0.0559182 0.998262 0.00155304
-0.0193268 -0.0568284 0.998197 0.00661024
-0.021962 -0.0597485 0.997972 0.00269225
-0.0234806 -0.0638728 0.997682 0
-0.0183215 -0.0664522 0.997621 0
-0.0212563 -0.0652508 0.997642 0
-0.0183562 -0.0625904 0.997871 0
-0.0203987 -0.0639548 0.997744 0
-0.0230176 -0.0619922 0.997811 0.00176347
-0.0166057 -0.0669811 0.997616 0
-0.0174029 -0.0702782 0.997376 0
-0.0167846 -0.0747209 0.997063 0
-0.0122552 -0.0796559 0.996747 0
-0.0114072 -0.0847933 0.996333 0
-0.0117516 -0.083982 0.996398 0
-0.0179788 -0.0863122 0.996106 0
-0.016161 -0.0826335 0.996449 0
-0.0139233 -0.0902849 0.995819 0
-0.00982447 -0.0966075 0.995274 0
-0.0147163 -0.0964825 0.995226 0
-0.0228318 -0.0940383 0.995307 0.000980818
-0.0220445 -0.094228 0.995307 0.00206234
-0.0224963 -0.0935397 0.995361 0.00205561
-0.0189036 -0.0976502 0.995041 0
-0.0210545 -0.0994238 0.994822 0
-0.0239224 -0.101128 0.994586 0.000920448
-0.023971 -0.0992578 0.994773 0
-0.024882 -0.0995406 0.994722 0.000268493
-0.0236995 -0.101581 0.994545 0
-0.0197217 -0.103472 0.994437 0
-0.0201031 -0.101038 0.994679 0.00342033
-0.0207925 -0.104156 0.994344 0.00967342
-0.0202983 -0.0974384 0.995035 0.00894172
-0.0204938 -0.0950525 0.995261 0.00717875
-0.0193949 -0.0963559 0.995158 0
-0.0214071 -0.0950365 0.995244 0.000756827
-0.0240757 -0.0940506 0.995276 0.00238965
-0.0214052 -0.0938166 0.995359 0.00305366
-0.0199624 -0.0922407 0.995537 0.00301629
-0.0206878 -0.0918477 0.995558 0.00285213
-0.0184871 -0.0907224 0.995705 0.00278882
-0.0168026 -0.0886128 0.995924 0.00301413
-0.0207882 -0.0886116 0.995849 0.0075814
-0.0216121 -0.0884331 0.995848 0.0112005
-0.0272837 -0.0870972 0.995826 0.0180112
-0.0319971 -0.0890819 0.99551 0.01904
-0.0301549 -0.0920276 0.9953 0.01208
-0.022814 -0.0952447 0.995192 0
-0.0235798 -0.0928946 0.995397 0.00130047
-0.0210091 -0.0930687 0.995438 0.0013323
-0.0209034 -0.086462 0.996036 0.00304568
-0.0232416 -0.0828665 0.99629 0.00428196
-0.027805 -0.0804006 0.996375 0.0058122
-0.0246859 -0.0795738 0.996523 0.00325996
-0.0260958 -0.0781716 0.996598 0.00615474
-0.0259582 -0.0788351 0.99655 0.00591647
-0.0257973 -0.0799322 0.996466 0.00241896
-0.0249469 -0.0796353 0.996512 0
-0.0270659 -0.0773103 0.99664 0.00266845
-0.0236414 -0.0810046 0.996433 0
-0.0281821 -0.077138 0.996622 0.00173966
-0.0291239 -0.0797028 0.996393 0
-0.029345 -0.0761643 0.996663 0.000455075
-0.0282465 -0.0780684 0.996548 0
-0.0285092 -0.0728546 0.996935 0.00275013
-0.0333655 -0.0717462 0.996865 0.00800549
-0.035227 -0.0678937 0.99707 0.00907765
-0.0374102 -0.0606177 0.99746 0.0125347
-0.0345867 -0.0585783 0.997684 0.00757237
-0.0326695 -0.0580871 0.997777 0.00452462
-0.0308821 -0.0563276 0.997935 0.00236996
-0.0322615 -0.0558351 0.997919 0.00784728
-0.0312999 -0.0501506 0.998251 0.00645937
-0.0300791 -0.0536614 0.998106 0.00263757
-0.0275056 -0.0493355 0.998403 0.000888348
-0.0275645 -0.0486104 0.998437 0.00395749
-0.0270315 -0.0475272 0.998504 0.00270349
-0.026553 -0.0511778 0.998337 0
-0.0272186 -0.0511535 0.99832 0
-0.028323 -0.0515764 0.998267 0
-0.0271483 -0.0509529 0.998332 0.00154067
-0.0249533 -0.0529342 0.998286 0
-0.0250457 -0.0511569 0.998376 0.000654291
-0.0276092 -0.050843 0.998325 0
-0.0272514 -0.0469436 0.998526 0
-0.0258564 -0.0474807 0.998537 0
-0.0276466 -0.0396083 0.998833 0.00035241
-0.0260658 -0.0385418 0.998917 0
-0.0271115 -0.0367206 0.998958 0.00280379
-0.024534 -0.0363764 0.999037 0.00200154
-0.0250012 -0.0382595 0.998955 0.00161329
-0.0246873 -0.0359221 0.99905 0.0033512
-0.0258285 -0.0353392 0.999042 0.00403871
-0.0255815 -0.0304182 0.99921 0.00574055
-0.0245586 -0.0304876 0.999233 0.00216176
-0.0267471 -0.0262171 0.999298 0.00120002
-0.024827 -0.0238582 0.999407 0
-0.0218827 -0.0295182 0.999325 0
-0.0235771 -0.0176533 0.999566 0
-0.0242684 -0.0172406 0.999557 4.90364e-05
-0.0247887 -0.0122258 0.999618 0.00196818
-0.0255788 -0.0118341 0.999603 0.000420845
-0.0270053 -0.0065349 0.999614 0
-0.0271442 -0.00455789 0.999621 0
-0.027218 0.0042478 0.99962 0
-0.026764 0.0165861 0.999504 0
-0.0301135 0.0229041 0.999284 0
-0.0268144 0.0216082 0.999407 0
-0.0265569 0.025782 0.999315 0
-0.0238846 0.0242703 0.99942 0
-0.0218307 0.0220836 0.999518 0
-0.0216426 0.0284091 0.999362 0
-0.0225861 0.0325585 0.999215 0
-0.0196761 0.033884 0.999232 0
-0.0190054 0.035052 0.999205 0
-0.0180063 0.0313833 0.999345 0
-0.0174637 0.0445581 0.998854 0
-0.0187481 0.0416088 0.998958 0
-0.0309149 -0.185709 0.982118 0
-0.0286905 -0.172878 0.984525 0
-0.0253382 -0.164423 0.986064 0
-0.0253406 -0.1608 0.986662 0
-0.0267213 -0.15318 0.987837 0
-0.0263704 -0.152027 0.988025 0.00151312
-0.0274891 -0.145011 0.989048 0.00492985
-0.0284866 -0.140777 0.989631 0.00301328
-0.0328375 -0.132669 0.990616 0.00680378
-0.0337554 -0.133388 0.990489 0.00406904
-0.0332774 -0.122495 0.991911 0.00332675
-0.0342111 -0.117402 0.992495 0.0065955
-0.0357266 -0.115866 0.992622 0.0058145
-0.0376752 -0.115139 0.992635 0.0115048
-0.0357555 -0.113655 0.992877 0.00987723
-0.0382534 -0.109035 0.993302 0.012884
-0.0398003 -0.101488 0.99404 0.0161841
-0.0399258 -0.102479 0.993934 0.0155224
-0.0402994 -0.108959 0.993229 0.00940826
-0.0389313 -0.106834 0.993514 0.00838001
-0.0372907 -0.105727 0.993696 0.00636997
-0.0376435 -0.103607 0.993906 0.00494731
-0.0369001 -0.10047 0.994256 0.0035556
-0.0361789 -0.100139 0.994315 0
-0.0372272 -0.0969884 0.994589 0.000869675
-0.0391684 -0.0969978 0.994514 3.95813e-05
-0.0408786 -0.0944594 0.994689 0.00183862
-0.0405972 -0.0911697 0.995007 0.00322097
-0.040667 -0.0875012 0.995334 0.0054931
-0.0406194 -0.0874452 0.995341 0.00441482
-0.0399027 -0.0829866 0.995752 0.00547345
-0.0410774 -0.0818773 0.995796 0.00426874
-0.0408308 -0.0806224 0.995908 0.00400133
-0.041261 -0.0791846 0.996006 0.00440011
-0.0446648 -0.0759468 0.996111 0.00793801
-0.0452608 -0.0734108 0.996274 0.00873269
-0.0451775 -0.0714417 0.996421 0.00918425
-0.0458773 -0.0718465 0.99636 0.00910425
-0.0464002 -0.0724291 0.996294 0.00771826
-0.0460446 -0.0711414 0.996403 0.00743887
-0.0469343 -0.0701309 0.996433 0.00521083
-0.0480325 -0.0663821 0.996637 0.00645724
-0.0459744 -0.0645124 0.996857 0.006213
-0.0479919 -0.0604814 0.997015 0.00838307
-0.0457831 -0.0586909 0.997226 0.00330837
-0.0435074 -0.0571177 0.997419 0.000904588
-0.0454215 -0.0528337 0.99757 0.00329861
-0.0449931 -0.0508349 0.997693 0.00307043
-0.0470299 -0.0489467 0.997694 0.00939432
-0.0447281 -0.0485596 0.997818 0.00421658
-0.0443199 -0.0464544 0.997937 0.00744675
-0.0437381 -0.0465873 0.997956 0.00566703
-0.0441041 -0.0431548 0.998094 0.00680372
-0.0455982 -0.0407444 0.998129 0.00827258
-0.0487145 -0.0381387 0.998084 0.00901955
-0.0490168 -0.0356366 0.998162 0.00716162
-0.0459183 -0.034413 0.998352 0.00316067
-0.042608 -0.0339331 0.998515 0.00124111
-0.0407679 -0.033145 0.998619 0
-0.0422506 -0.0310401 0.998625 0
-0.0417597 -0.0293785 0.998696 0
-0.0395727 -0.0275968 0.998836 0
-0.0354488 -0.0263167 0.999025 0
-0.0370532 -0.0182495 0.999147 0.000708627
-0.0400598 -0.0146049 0.999091 0.000107893
-0.0397042 -0.0125079 0.999133 0.00152391
-0.0398534 -0.00906389 0.999164 0.00572054
-0.0431385 -0.00335497 0.999063 0.00899707
-0.0373361 -0.00318614 0.999298 0.0064484
-0.0355423 -0.00414666 0.99936 0.00188333
-0.0395781 -7.16225e-05 0.999216 0.00671497
-0.0417996 0.00240411 0.999123 0.00765931
-0.0376493 0.00661277 0.999269 0.00886784
-0.038271 0.00905919 0.999226 0.014683
-0.0343972 0.00587591 0.999391 0.00740475
-0.0336318 0.00516682 0.999421 0.00774973
-0.0383642 0.00642557 0.999243 0.0112919
-0.0377812 0.00809396 0.999253 0.0118425
-0.0321957 0.00743841 0.999454 0.0112622
-0.0335953 0.00683361 0.999412 0.00606275
-0.0341807 0.00697621 0.999391 0.00736854
-0.0323465 0.00480283 0.999465 0.0020151
-0.0308018 0.00485859 0.999514 0
-0.0310093 0.00316654 0.999514 0
-0.029429 0.00290592 0.999563 0
-0.0310248 0.00580521 0.999502 0
-0.0351139 0.00568748 0.999367 0
-0.0380689 0.00716668 0.999249 0
-0.0405511 0.0109147 0.999118 0.00552359
-0.037825 0.0110412 0.999223 0.00459678
-0.0356001 0.0119108 0.999295 0.00436459
-0.0361869 0.00836426 0.99931 0.000697089
-0.0385993 0.00508113 0.999242 0
-0.0392629 0.00512915 0.999216 0
-0.041938 0.00536065 0.999106 0.000138104
-0.0417413 0.00431363 0.999119 0.00468692
-0.0370723 0.00210105 0.99931 0
-0.0361157 0.00215851 0.999345 0.00153421
-0.0384584 0.00092207 0.99926 0.0021078
-0.0348406 -0.00194456 0.999391 0
-0.0370785 -0.00122674 0.999312 0.00342849
-0.0377157 -0.0035403 0.999282 0
-0.042289 -0.00325627 0.9991 0.00126533
-0.0417314 -0.00304694 0.999124 0.00128864
-0.0442932 -0.000958957 0.999018 0.00465756
-0.0494002 0.00280834 0.998775 0.0145778
-0.0528647 0.00474352 0.99859 0.0193381
-0.0612912 0.00882678 0.998081 0.0307484
-0.0643958 0.00977808 0.997877 0.0346876
-0.0596873 0.00890713 0.998177 0.0353874
-0.0563931 0.00549922 0.998393 0.0325686
-0.0523305 0.00267689 0.998626 0.0284328
-0.053221 0.00188031 0.998581 0.0217538
-0.0532229 0.00184218 0.998581 0.0203015
-0.0486088 0.00205913 0.998816 0.0177049
-0.0500579 0.00203817 0.998744 0.0208665
-0.0518518 0.00349243 0.998649 0.0225305
-0.0542834 0.00290578 0.998521 0.0226968
-0.0531294 0.0024302 0.998585 0.0235776
-0.0495995 0.00118376 0.998769 0.0216766
-0.0427926 -0.000708937 0.999084 0.0155324
-0.0435562 -0.00365844 0.999044 0.0103685
-0.0478417 -0.00528411 0.998841 0.00816346
-0.0458934 -0.0091412 0.998904 0.0037132
-0.046072 -0.0103429 0.998885 0.00676793
-0.0455992 -0.0114965 0.998894 0.00444825
-0.0401836 -0.0129846 0.999108 0
-0.039128 -0.0141256 0.999134 0
-0.0418229 -0.0158269 0.999 0.00546444
-0.0437482 -0.0168647 0.9989 0.0079872
-0.0479927 -0.0167013 0.998708 0.0117444
-0.047402 -0.0177747 0.998718 0.0146626
-0.0519575 -0.0184755 0.998478 0.0149453
-0.049633 -0.0196063 0.998575 0.0126798
-0.0464671 -0.0227344 0.998661 0.0104419
-0.0436236 -0.0228489 0.998787 0.00769416
-0.0418258 -0.0225901 0.99887 0.00667175
-0.0460518 -0.0209058 0.99872 0.00764378
-0.0439048 -0.0220005 0.998793 0.00578104
-0.044692 -0.022975 0.998737 0.00590017
-0.0383236 -0.0251666 0.998948 0.00472656
-0.0396098 -0.0240968 0.998925 0.00699768
-0.0469456 -0.020118 0.998695 0.0151889
-0.0464177 -0.0191087 0.998739 0.0191581
-0.0431257 -0.0197003 0.998875 0.0178803
-0.0412179 -0.0215937 0.998917 0.013991
-0.0391465 -0.0221993 0.998987 0.00727939
-0.0411042 -0.022343 0.998905 0.0100578
-0.0402671 -0.0209053 0.99897 0.0052315
-0.036944 -0.0203055 0.999111 0.000411189
-0.0404846 -0.0172908 0.999031 0.00277497
-0.0407174 -0.0155398 0.99905 0.00646261
-0.0440664 -0.0135998 0.998936 0.00863899
-0.0433877 -0.0137721 0.998963 0.00331806
-0.0401177 -0.0165724 0.999058 0
-0.0346382 -0.0168618 0.999258 0
-0.0319307 -0.014088 0.999391 0.000827801
-0.0350123 -0.0114361 0.999322 0.00341259
-0.0322948 -0.0132699 0.99939 0.000815261
-0.0349703 -0.0141252 0.999289 0.000110024
-0.0393611 -0.0140602 0.999126 0.00519296
-0.0403376 -0.0126704 0.999106 0.00709862
-0.0411781 -0.0143925 0.999048 0.00686843
-0.0420473 -0.0165041 0.998979 0.00409383
-0.046418 -0.0159362 0.998795 0.00840282
-0.0524575 -0.0163286 0.99849 0.0152225
-0.0534793 -0.0171064 0.998422 0.0222529
-0.0499518 -0.0151485 0.998637 0.0253689
-0.0429684 -0.0154391 0.998957 0.0237396
-0.042166 -0.0181278 0.998946 0.017491
-0.0463767 -0.0193329 0.998737 0.0168604
-0.0471059 -0.0198465 0.998693 0.0154775
-0.0515463 -0.01965 0.998477 0.0162746
-0.0550933 -0.018811 0.998304 0.018228
-0.0536892 -0.0202942 0.998352 0.0175694
-0.0530437 -0.0207503 0.998377 0.0178075
-0.0515041 -0.0215949 0.998439 0.0166458
-0.0478214 -0.0218696 0.998616 0.0193186
-0.0429036 -0.0208073 0.998862 0.0208469
-0.0419046 -0.0189435 0.998942 0.0247387
-0.0465998 -0.0148329 0.998803 0.0309238
-0.0469269 -0.0151418 0.998784 0.0268912
-0.0485737 -0.0167514 0.998679 0.0251344
-0.0492702 -0.0195634 0.998594 0.0200779
-0.0475858 -0.0226037 0.998611 0.0164577
-0.043129 -0.0258624 0.998735 0.0105793
-0.0403016 -0.0243089 0.998892 0.00805039
-0.0385231 -0.0231858 0.998989 0.00641761
-0.0320115 -0.0241698 0.999195 0.00222674
-0.0292272 -0.0232958 0.999301 0.00142841
-0.0252363 -0.0236174 0.999402 0.00300796
-0.0226032 -0.0234463 0.99947 0.00301376
-0.0308632 -0.0204615 0.999314 0.00930746
-0.0396442 -0.0175332 0.99906 0.0124589
-0.0445296 -0.0184699 0.998837 0.0125346
-0.0410938 -0.0207121 0.998941 0.00507131
-0.0358853 -0.0205818 0.999144 0
-0.0329968 -0.0199436 0.999256 0
-0.0267269 -0.0208367 0.999426 0
-0.0297067 -0.0186019 0.999386 0
-0.0262103 -0.017306 0.999507 0
-0.0284703 -0.0182051 0.999429 0.00181375
-0.0357067 -0.0178501 0.999203 0.0079392
-0.0362022 -0.0202463 0.999139 0.00695214
-0.0365109 -0.0213788 0.999104 0.00572954
-0.0380612 -0.0217677 0.999038 0.00557121
-0.0351521 -0.0223075 0.999133 0.00210687
-0.0325833 -0.0218626 0.99923 0.00096738
-0.0284723 -0.0210954 0.999372 0
-0.0273594 -0.0205824 0.999414 0
-0.0280358 -0.0198666 0.999409 0
-0.0309468 -0.020382 0.999313 0.00167705
-0.0300287 -0.0207422 0.999334 0.00322986
-0.0277894 -0.0244108 0.999316 0.00212117
-0.0304867 -0.0218877 0.999295 0.00388591
-0.0346335 -0.0254157 0.999077 0.000444902
-0.0354392 -0.0227845 0.999112 0.000435028
-0.0354196 -0.0249375 0.999061 0
-0.0346056 -0.022367 0.999151 0.000110368
-0.0347731 -0.0247745 0.999088 0.00306959
-0.0339169 -0.0208088 0.999208 0.00437106
-0.0349551 -0.0224222 0.999137 0.00646827
-0.031855 -0.0189848 0.999312 0.00587412
-0.0319026 -0.0231416 0.999223 0.00123629
-0.0293918 -0.0227593 0.999309 0
-0.0292995 -0.0271235 0.999203 0
-0.036095 -0.0238812 0.999063 0
-0.0391977 -0.0249026 0.998921 0.000472736
-0.0385888 -0.021465 0.999025 0.002713
-0.0345238 -0.0268203 0.999044 0.00409635
-0.0294981 -0.0260818 0.999224 0.00283346
-0.022945 -0.030732 0.999264 0
-0.020343 -0.0325411 0.999263 0
-0.0196839 -0.032846 0.999267 0
-0.0250209 -0.0333246 0.999131 0
-0.028759 -0.033055 0.99904 0
-0.0284358 -0.0306737 0.999125 0
-0.026706 -0.0310331 0.999161 0
-0.0252756 -0.0328485 0.999141 0
-0.0239891 -0.0330687 0.999165 0
-0.0254794 -0.0328885 0.999134 0
-0.0221245 -0.033663 0.999188 0
-0.0191728 -0.0340403 0.999237 0
-0.0204947 -0.0334682 0.99923 0
-0.025084 -0.0336441 0.999119 0
-0.0263422 -0.0344277 0.99906 0
-0.0315336 -0.0347816 0.998897 0
-0.0301682 -0.0355524 0.998912 0
-0.0260693 -0.0381879 0.998931 0
-0.0264729 -0.0362841 0.998991 0
-0.0246133 -0.0341545 0.999113 0
-0.0209234 -0.034815 0.999175 0
-0.0195112 -0.0365551 0.999141 0
-0.0229203 -0.0352973 0.999114 0
-0.0224307 -0.0355417 0.999116 0
-0.0243475 -0.0337633 0.999133 0
-0.0263123 -0.0335069 0.999092 0
-0.0284983 -0.0313636 0.999102 0
-0.0281144 -0.0315826 0.999106 0
-0.0276384 -0.0284587 0.999213 0
-0.0231154 -0.0275504 0.999353 0
-0.0208796 -0.0243292 0.999486 0.000911376
-0.0174746 -0.0264834 0.999497 0
-0.01626 -0.0252939 0.999548 0
-0.0181343 -0.0265532 0.999483 0.000472349
-0.0174648 -0.0267937 0.999488 0.000894668
-0.023336 -0.0287374 0.999315 0
-0.027553 -0.0267696 0.999262 0.000724737
-0.0292346 -0.0269629 0.999209 0.000505203
-0.0274812 -0.0269632 0.999259 0.000271484
-0.0254785 -0.0286651 0.999264 0.00205331
-0.0238987 -0.0225128 0.999461 0.00166578
-0.0184067 -0.027597 0.99945 0
-0.0204801 -0.0223157 0.999541 0.000462242
-0.0226509 -0.0242442 0.999449 0
-0.0249925 -0.0237476 0.999406 0
-0.0292888 -0.0247823 0.999264 0
-0.0361327 -0.0211784 0.999123 0.0028941
-0.0340454 -0.0252347 0.999102 0.000964195
-0.0309222 -0.0250659 0.999207 0
-0.0277396 -0.0243483 0.999319 0
-0.029446 -0.0191432 0.999383 0.00565775
-0.0308723 -0.017596 0.999368 0.00589934
-0.0270538 -0.0172298 0.999485 0.00448034
-0.0282934 -0.011733 0.999531 0.00567243
-0.028065 -0.0111371 0.999544 0.00210429
-0.0351111 -0.0128438 0.999301 0.00144013
-0.0389542 -0.0123119 0.999165 0.0021217
-0.0446805 -0.00799778 0.998969 0.0110441
-0.0404537 -0.0115848 0.999114 0.0114858
-0.0358499 -0.0130944 0.999271 0.00396996
-0.0301342 -0.0147924 0.999436 0.000228883
-0.0251077 -0.0207308 0.99947 0
-0.024149 -0.0203377 0.999501 0
-0.0244016 -0.0238002 0.999419 0
-0.026683 -0.0244724 0.999344 0
-0.0302453 -0.0209686 0.999322 0
-0.0353174 -0.0182501 0.99921 0.00287648
-0.0347731 -0.0175175 0.999242 0
-0.035636 -0.017748 0.999207 7.75402e-05
-0.0322571 -0.0175203 0.999326 0
-0.0315291 -0.0203347 0.999296 0
-0.0296375 -0.0159759 0.999433 0
-0.0342264 -0.016831 0.999272 0
-0.0361303 -0.0116278 0.999279 0
-0.0315963 -0.0146704 0.999393 0
-0.0296075 -0.0182099 0.999396 0
-0.0287204 -0.0187932 0.999411 0
-0.0305478 -0.0208225 0.999316 0
-0.0365371 -0.0228671 0.999071 0
-0.034431 -0.0237085 0.999126 0
-0.0361445 -0.0254866 0.999022 0
-0.034882 -0.0234357 0.999117 0
-0.0318355 -0.0269016 0.999131 0
-0.0297817 -0.0281573 0.99916 0
-0.0267187 -0.0269718 0.999279 0
-0.0266303 -0.0341406 0.999062 0
-0.0268347 -0.0389867 0.998879 0
-0.0265556 -0.0415681 0.998783 0
-0.026308 -0.0437693 0.998695 0
-0.0232898 -0.0453744 0.998699 0
-0.022327 -0.0462141 0.998682 0
-0.0232236 -0.0436699 0.998776 0
-0.0243702 -0.0466461 0.998614 0
-0.0231528 -0.0463099 0.998659 0
-0.0208184 -0.0470809 0.998674 0
-0.018799 -0.0478432 0.998678 0
-0.0182449 -0.044587 0.998839 0
-0.0177136 -0.0418609 0.998966 0
-0.0238256 -0.0373126 0.99902 0
-0.0318352 -0.0354706 0.998864 0.0057154
-0.0346057 -0.0358417 0.998758 0.00852744
-0.0351963 -0.0333514 0.998824 0.00960419
-0.0316024 -0.0354409 0.998872 0.00495912
-0.0251309 -0.0390266 0.998922 0.00341716
-0.0203893 -0.0418051 0.998918 0
-0.0156167 -0.0387986 0.999125 0
-0.0114365 -0.0393654 0.999159 0
-0.0121957 -0.0389791 0.999166 0
-0.0146762 -0.0356239 0.999258 0
-0.0213066 -0.0342246 0.999187 0
-0.0261524 -0.0293049 0.999228 0
-0.0292773 -0.0284555 0.999166 0
-0.0294503 -0.0224069 0.999315 0.00329915
-0.0309312 -0.0177584 0.999364 0.00595648
-0.0270625 -0.0153431 0.999516 0.00139772
-0.0241729 -0.0170789 0.999562 0.000511152
-0.0250911 -0.0172637 0.999536 0.00496196
-0.0229749 -0.0182886 0.999569 0.0072744
-0.0237916 -0.0163736 0.999583 0.0101163
-0.0289175 -0.0176638 0.999426 0.00726446
-0.0372426 -0.0138449 0.99921 0.00761982
-0.0360934 -0.0186574 0.999174 0.00160492
-0.0362288 -0.0173466 0.999193 0.00258386
-0.0322098 -0.0219806 0.999239 0
-0.0303631 -0.022922 0.999276 0
-0.0270883 -0.0255253 0.999307 0
-0.0236561 -0.0229326 0.999457 0
-0.0210409 -0.0257916 0.999446 0
-0.0207272 -0.0213639 0.999557 0
-0.026132 -0.0226591 0.999402 0.00695441
-0.0332808 -0.0219341 0.999205 0.00513745
-0.0387864 -0.0263947 0.998899 0.00801595
-0.0345115 -0.0258455 0.99907 0.00105119
-0.0276901 -0.0320843 0.999102 0
-0.0223768 -0.0315629 0.999251 0
-0.0163584 -0.0353235 0.999242 0
-0.0165455 -0.0356977 0.999226 0
-0.0134074 -0.0383902 0.999173 0
-0.013251 -0.0396229 0.999127 0
-0.0136591 -0.0428539 0.998988 0
-0.0143115 -0.0450594 0.998882 0
-0.0234943 -0.0476453 0.998588 0
-0.0267552 -0.0485465 0.998462 0
-0.0258924 -0.0497114 0.998428 0
-0.0212945 -0.0512353 0.99846 0
-0.0254889 -0.0505637 0.998396 0
-0.0210789 -0.0543887 0.998297 0
-0.0148777 -0.0544 0.998408 0
-0.0137134 -0.0570553 0.998277 0
-0.0105054 -0.0584744 0.998234 0
-0.00747722 -0.0608232 0.998121 0
-0.0148127 -0.0531454 0.998477 0
-0.0245688 -0.0533511 0.998273 0
-0.0306556 -0.0546627 0.998034 0
-0.0323867 -0.0553537 0.997941 0
-0.0261676 -0.0590772 0.99791 0
-0.023949 -0.0620828 0.997784 0
-0.0187798 -0.0652176 0.997694 0
-0.0129804 -0.0676152 0.997627 0
-0.0114694 -0.0695525 0.997512 0
-0.00964869 -0.0735495 0.997245 0
-0.0123824 -0.0712793 0.997379 0
-0.0161945 -0.0781846 0.996807 0
-0.0145764 -0.077741 0.996867 0
-0.0210939 -0.079779 0.996589 0
-0.0243267 -0.0779636 0.996659 0
-0.023436 -0.0782592 0.996657 0
-0.019319 -0.0764078 0.996889 0
-0.0147318 -0.0803045 0.996661 0
-0.00853932 -0.0788776 0.996848 0
-0.0097647 -0.0787848 0.996844 0
-0.0125419 -0.0825899 0.996505 0
-0.0199077 -0.0826736 0.996378 0
-0.0232154 -0.0844885 0.996154 0
-0.0267664 -0.0859601 0.995939 0
-0.0280812 -0.0806539 0.996347 0.00649143
-0.0269882 -0.0847254 0.996039 0.00333054
-0.0289398 -0.0796882 0.9964 0.0042452
-0.0249995 -0.0833965 0.996203 0
-0.0236642 -0.0867806 0.995946 0
-0.0182194 -0.0898286 0.995791 0
-0.0196277 -0.087534 0.995968 0
-0.0212868 -0.0896853 0.995743 0
-0.0251353 -0.0872246 0.995872 0
-0.0255332 -0.0916508 0.995464 0
-0.0239883 -0.0940195 0.995281 0
-0.0255669 -0.0977663 0.994881 0.000851497
-0.0278528 -0.0957799 0.995013 0.00379909
-0.0290135 -0.101338 0.994429 0.00408559
-0.028591 -0.100461 0.99453 0
-0.0258124 -0.0982589 0.994826 0.00203296
-0.021289 -0.0980483 0.994954 0.00403962
-0.0266397 -0.0973826 0.99489 0.00876384
-0.0319715 -0.0908147 0.995354 0.0129271
-0.0377996 -0.0890565 0.995309 0.0159273
-0.0367086 -0.0875525 0.995483 0.0162306
-0.0309693 -0.0905006 0.995415 0.0176047
-0.0301344 -0.0904236 0.995447 0.0162432
-0.0320529 -0.0952966 0.994933 0.0134431
-0.0250605 -0.0957706 0.995088 0.00346932
-0.0223239 -0.0985125 0.994885 0.00295504
-0.0225518 -0.0968651 0.995042 0.00298643
-0.0234222 -0.0923999 0.995446 0.010397
-0.026544 -0.0925443 0.995355 0.00693557
-0.0301983 -0.0945231 0.995065 0.00572405
-0.0318826 -0.0937348 0.995087 0.00831738
-0.0372026 -0.0865134 0.995556 0.0153862
-0.038585 -0.0866254 0.995493 0.0175621
-0.0361246 -0.0860429 0.995636 0.0167225
-0.0347076 -0.0828041 0.995961 0.0193581
-0.0282841 -0.0827301 0.996171 0.0171677
-0.0275028 -0.0823699 0.996222 0.0125493
-0.0263471 -0.077972 0.996607 0.0130309
-0.0247056 -0.0814831 0.996368 0.00824329
-0.0310635 -0.0748273 0.996713 0.0110715
-0.0318874 -0.075585 0.996629 0.00627878
-0.0293812 -0.0772068 0.996582 0.00223776
-0.031887 -0.078807 0.99638 0.00469655
-0.033775 -0.0762167 0.996519 0.00349381
-0.0304715 -0.0782333 0.996469 0
-0.032895 -0.0773702 0.99646 0.00390585
-0.031213 -0.0764406 0.996585 0.00273529
-0.0292675 -0.0738612 0.996839 0
-0.0345373 -0.0676223 0.997113 0.0039944
-0.0331013 -0.0643642 0.997377 0.00655959
-0.0362777 -0.0636658 0.997312 0.0122277
-0.0363328 -0.062545 0.997381 0.00746365
-0.0369771 -0.0635557 0.997293 0.00991904
-0.0330316 -0.0599974 0.997652 0.00417502
-0.0340477 -0.0591891 0.997666 0.00577085
-0.0335084 -0.0584983 0.997725 0.00426663
-0.0348432 -0.0594883 0.997621 0.00974597
-0.0357545 -0.0567006 0.997751 0.00842245
-0.0358178 -0.0597629 0.99757 0.00759929
-0.0358417 -0.0500113 0.998105 0.00805017
-0.036224 -0.0473995 0.998219 0.00885733
-0.0340539 -0.0462041 0.998351 0.0082117
-0.0330593 -0.0484756 0.998277 0.0045581
-0.0337052 -0.0474924 0.998303 0.0047579
-0.0324064 -0.0503589 0.998205 0.00343642
-0.0318933 -0.0526339 0.998105 0.00190202
-0.0310224 -0.0508902 0.998222 0.0013469
-0.0286822 -0.0530421 0.99818 0.000809389
-0.0282313 -0.0512097 0.998289 0.000911998
-0.0271516 -0.050935 0.998333 0
-0.026075 -0.0512893 0.998343 0
-0.0268296 -0.0525269 0.998259 0
-0.0240449 -0.0508014 0.998419 0
-0.0248443 -0.0443921 0.998705 0
-0.0255784 -0.043431 0.998729 0
-0.0252753 -0.0426797 0.998769 0
-0.0283168 -0.0343838 0.999007 0
-0.0260915 -0.0340959 0.999078 0
-0.0260678 -0.0345825 0.999062 0
-0.0246975 -0.035427 0.999067 0
-0.0248183 -0.0329049 0.99915 0
-0.0245175 -0.0296933 0.999258 0
-0.0241595 -0.0268285 0.999348 0
-0.0242079 -0.0262338 0.999363 0
-0.0218847 -0.0238998 0.999475 0
-0.0219701 -0.0190673 0.999577 0
-0.0204982 -0.0158134 0.999665 0
-0.0212847 -0.0142516 0.999672 0
-0.019967 -0.0112885 0.999737 0
-0.0206204 -0.00736492 0.99976 0
-0.0198065 0.0034982 0.999798 0
-0.0197975 0.00927164 0.999761 0
-0.0219327 0.0139829 0.999662 0
-0.0237881 0.0185033 0.999546 0
-0.0224752 0.0143429 0.999645 0
-0.0213751 0.0151979 0.999656 0
-0.0208474 0.0123103 0.999707 0
-0.0205721 0.0136811 0.999695 0
-0.0208497 0.0191892 0.999598 0
-0.0228327 0.0303261 0.999279 0
-0.0257999 0.0364533 0.999002 0
-0.0223938 0.0411388 0.998902 0
-0.0239172 0.0442752 0.998733 0
-0.0454773 -0.170506 0.984307 0.0128107
-0.046069 -0.162321 0.985662 0.0141288
-0.0440677 -0.156181 0.986745 0.00868384
-0.0411705 -0.15329 0.987323 0.00977057
-0.0442454 -0.150397 0.987635 0.0120804
-0.0406297 -0.143614 0.988799 0.0123389
-0.0394219 -0.139645 0.989417 0.0133077
-0.0377695 -0.135552 0.99005 0.0127592
-0.0368446 -0.133375 0.990381 0.0156651
-0.03864 -0.13249 0.990431 0.0184417
-0.0372788 -0.127728 0.991108 0.0213134
-0.039762 -0.118587 0.992147 0.020897
-0.0410294 -0.119973 0.991929 0.0201055
-0.0431565 -0.120981 0.991716 0.0188133
-0.0418247 -0.114069 0.992592 0.0139229
-0.0407644 -0.112297 0.992838 0.0123536
-0.0417313 -0.108457 0.993225 0.0118732
-0.0432815 -0.107121 0.993303 0.0114644
-0.0454116 -0.106685 0.993255 0.00876327
-0.0441329 -0.103373 0.993663 0.00604937
-0.0443153 -0.100954 0.993904 0.00572306
-0.0436301 -0.0982666 0.994203 0.00335899
-0.0432813 -0.0949574 0.99454 0
-0.0445946 -0.089669 0.994973 0
-0.0453765 -0.0887138 0.995023 0
-0.0443562 -0.0854973 0.99535 0
-0.0449777 -0.0859278 0.995286 0
-0.0442272 -0.0832211 0.995549 0
-0.046565 -0.0818452 0.995557 0
-0.0457104 -0.0780957 0.995897 0.0021111
-0.0458989 -0.0778 0.995912 0.00233905
-0.0447504 -0.0748457 0.996191 0.00219366
-0.0475846 -0.0726 0.996225 0.00357399
-0.0471783 -0.0726044 0.996244 0.00309918
-0.0496935 -0.0697908 0.996323 0.00664094
-0.0487473 -0.0707958 0.996299 0.00447641
-0.048386 -0.0696041 0.996401 0.00269851
-0.0471158 -0.0677911 0.996586 0.00035712
-0.0476162 -0.0666623 0.996639 0.000388828
-0.0491197 -0.064161 0.99673 0.00435298
-0.0491969 -0.0631318 0.996792 0.00571512
-0.0506906 -0.0599081 0.996916 0.00748943
-0.0515739 -0.0567458 0.997056 0.0105699
-0.0505114 -0.0533256 0.997299 0.00689795
-0.0504905 -0.0538914 0.997269 0.00523643
-0.0500113 -0.0511005 0.997441 0.00712306
-0.05117 -0.0508796 0.997393 0.00751086
-0.0522823 -0.0537253 0.997186 0.00723868
-0.0472338 -0.0532922 0.997461 0
-0.0466561 -0.0499342 0.997662 0
-0.0472312 -0.0476172 0.997748 0
-0.0488698 -0.0453266 0.997776 0.00303404
-0.0503098 -0.0438113 0.997772 0.00110811
-0.0507649 -0.0422891 0.997815 0.00357215
-0.0448893 -0.0439295 0.998026 0
-0.0415631 -0.0418855 0.998258 0
-0.038196 -0.0417088 0.998399 0
-0.0412526 -0.0392777 0.998376 0
-0.0405926 -0.0354155 0.998548 0
-0.0416373 -0.0335521 0.998569 0
-0.0462993 -0.02753 0.998548 0
-0.0491734 -0.0247307 0.998484 0
-0.0452551 -0.0229805 0.998711 0.000144171
-0.0470148 -0.0179085 0.998734 0.00193366
-0.0468422 -0.0165643 0.998765 0.000132399
-0.0431693 -0.0152841 0.998951 0
-0.0454029 -0.0131707 0.998882 0
