-0.0773294 -0.013327 0.996917 0.00359335
-0.0786981 -0.0213663 0.996669 0.000419088
-0.0808033 -0.022138 0.996484 0
-0.0872961 -0.025894 0.995846 0
-0.0869562 -0.0282516 0.995811 0
-0.0957636 -0.0224535 0.995151 0.00216798
-0.0432489 -0.0280975 0.998669 0
-0.0415518 -0.0277197 0.998752 0
-0.0363737 -0.0292899 0.998909 0
-0.0362166 -0.0296694 0.998903 0
-0.0381256 -0.029985 0.998823 0
-0.0309431 -0.033441 0.998962 0
-0.0289669 -0.0364056 0.998917 0
-0.0242603 -0.0372295 0.999012 0
-0.0222073 -0.0380976 0.999027 0
-0.0191396 -0.0384322 0.999078 0
-0.0188692 -0.0334468 0.999262 0
-0.0163653 -0.0378038 0.999151 0
-0.0153097 -0.0376939 0.999172 0
-0.0113465 -0.0370569 0.999249 0
-0.0524384 -0.0204119 0.998416 0
-0.0538108 -0.0210879 0.998328 0
-0.0628335 -0.0169924 0.997879 0
-0.0683997 -0.0164904 0.997522 0
-0.0711197 -0.0168104 0.997326 0
-0.0745695 -0.019452 0.997026 0
-0.0797091 -0.0210873 0.996595 0.0014604
-0.0824127 -0.023229 0.996328 0
-0.0846391 -0.0238776 0.996126 0
-0.0879352 -0.0277903 0.995738 0
-0.0991698 -0.0218746 0.99483 0.0059846
-0.0487263 -0.0223519 0.998562 0
-0.0466776 -0.0252835 0.99859 0.000192547
-0.0478556 -0.0249208 0.998543 0.000461391
-0.0420029 -0.0306297 0.998648 0
-0.0395596 -0.0270155 0.998852 0
-0.0359815 -0.0293091 0.998923 0
-0.033184 -0.0368912 0.998768 0
-0.0294309 -0.0364807 0.998901 0
-0.0261837 -0.0355287 0.999026 0
-0.0229363 -0.0352816 0.999114 0
-0.0210918 -0.034835 0.999171 0
-0.0173989 -0.0338104 0.999277 0
-0.0158393 -0.0407601 0.999043 0
-0.0133468 -0.0413601 0.999055 0
-0.013178 -0.0429639 0.99899 0
-0.0530381 -0.0215096 0.998361 0
-0.0556175 -0.0229217 0.998189 0
-0.058697 -0.0169601 0.998132 0
-0.0642722 -0.0166371 0.997794 0.000500282
-0.0663306 -0.0150357 0.997684 0.0021403
-0.069707 -0.0203504 0.99736 0
-0.0741118 -0.0190083 0.997069 0
-0.081407 -0.0230121 0.996415 0.00244944
-0.0825706 -0.0227995 0.996324 0
-0.0869843 -0.0223802 0.995958 0
-0.0866741 -0.0206541 0.996023 0
-0.0538133 -0.0248548 0.998242 0.00752022
-0.0466942 -0.0280029 0.998517 7.63462e-05
-0.0431678 -0.0242899 0.998773 0.00344711
-0.0420423 -0.0293661 0.998684 0
-0.0401241 -0.0280068 0.998802 0.000884373
-0.0358262 -0.0295865 0.99892 0
-0.0302879 -0.0349426 0.99893 0
-0.0271282 -0.0385306 0.998889 0
-0.0224661 -0.0345368 0.999151 0
-0.0232215 -0.0325373 0.999201 0
-0.0194656 -0.0337781 0.99924 0
-0.014504 -0.0444888 0.998905 0
-0.0124389 -0.048314 0.998755 0
-0.0102125 -0.0434695 0.999003 0
-0.0103011 -0.0493419 0.998729 0
-0.00740991 -0.0536506 0.998532 0
-0.0499225 -0.0152137 0.998637 0.00151935
-0.0525324 -0.0181822 0.998454 0
-0.0528304 -0.0225392 0.998349 0
-0.0571706 -0.0202597 0.998159 0
-0.0618573 -0.0182204 0.997919 0.000131628
-0.0661238 -0.018017 0.997649 0
-0.0680553 -0.020103 0.997479 0
-0.0713381 -0.0248267 0.997143 0
-0.071534 -0.0262957 0.997092 0
-0.0800178 -0.022109 0.996548 0
-0.0857187 -0.018297 0.996151 0.00102481
-0.0882849 -0.0210586 0.995873 0
-0.0898164 -0.0191724 0.995774 0
-0.0584514 -0.0229474 0.998026 0.0112589
-0.0521502 -0.0248131 0.998331 0.00470877
-0.0495696 -0.0238798 0.998485 0.00347022
-0.0406734 -0.026357 0.998825 0.000914887
-0.0379287 -0.0304778 0.998816 0
-0.0396491 -0.0336847 0.998646 0
-0.0337276 -0.0334128 0.998872 0
-0.0330758 -0.031183 0.998966 0
-0.0245909 -0.0345455 0.999101 0
-0.0206089 -0.0344874 0.999193 0
-0.0219555 -0.0331405 0.99921 0
-0.0199422 -0.0389971 0.99904 0
-0.0178154 -0.0430538 0.998914 0
-0.0145282 -0.0479309 0.998745 0
-0.0127925 -0.049271 0.998704 0
-0.00994686 -0.0532822 0.99853 0
-0.00762388 -0.0547266 0.998472 0
-0.00628451 -0.059235 0.998224 0
-0.0509799 -0.0169663 0.998556 0.00502618
-0.0513175 -0.0177121 0.998525 0
-0.0547043 -0.0224183 0.998251 0
-0.0564949 -0.0237416 0.998121 0
-0.060227 -0.0237478 0.997902 0
-0.0644803 -0.0201784 0.997715 0
-0.0669857 -0.0270168 0.997388 0
-0.0682318 -0.0299749 0.997219 0
-0.0723696 -0.0274985 0.996999 0
-0.0796065 -0.0216214 0.996592 0
-0.0857185 -0.0170984 0.996173 0.000829949
-0.0886843 -0.0212795 0.995832 0
0.0324219 -0.0418499 0.998598 0
-0.0530004 -0.0272424 0.998223 0.00400629
-0.0511501 -0.0236145 0.998412 0.00411615
-0.0500388 -0.0224396 0.998495 0.00501712
-0.0386917 -0.0308914 0.998774 8.97581e-05
-0.0372384 -0.0313036 0.998816 0
-0.0341122 -0.0259759 0.99908 0
-0.0335575 -0.0283552 0.999034 0
-0.0276215 -0.0304137 0.999156 0
-0.0198662 -0.0374379 0.999101 0
-0.0200396 -0.0385401 0.999056 0
-0.0188706 -0.0390435 0.999059 0
-0.0190096 -0.0390776 0.999055 0
-0.0162023 -0.0476684 0.998732 0
-0.0134855 -0.0468725 0.99881 0
-0.00951301 -0.0551358 0.998434 0
-0.00972481 -0.0567437 0.998341 0
-0.0082543 -0.0610365 0.998101 0
-0.0498366 -0.0228754 0.998495 0.000992139
-0.0514079 -0.0210056 0.998457 0
-0.0543298 -0.0256566 0.998193 0
-0.0572048 -0.0238742 0.998077 0
-0.0592133 -0.0256435 0.997916 0
-0.0617001 -0.0296645 0.997654 0
-0.0646362 -0.030621 0.997439 0
-0.0683555 -0.0325591 0.99713 0
-0.0719306 -0.0303732 0.996947 0
-0.0774451 -0.0250683 0.996681 0
-0.0835142 -0.0233212 0.996234 0
-0.0902664 -0.018677 0.995742 0.00382531
0.0333486 -0.0428819 0.998523 0
-0.0559704 -0.0221639 0.998186 0.00742215
-0.052269 -0.0240277 0.998344 0.00705323
-0.0547614 -0.0189727 0.998319 0.0132002
-0.0443023 -0.0248772 0.998708 0.00985019
-0.03953 -0.0279788 0.998827 0.00403603
-0.0364024 -0.0272465 0.998966 0.00254597
-0.0341574 -0.0256888 0.999086 0.00321705
-0.029275 -0.0295711 0.999134 0.00417382
-0.0233794 -0.0332179 0.999175 0
-0.0212745 -0.0371853 0.999082 0
-0.0209848 -0.0360422 0.99913 0
-0.0186419 -0.0414761 0.998966 0
-0.0172917 -0.0426309 0.998941 0
-0.0154177 -0.0472908 0.998762 0
-0.00997272 -0.05569 0.998398 0
-0.010057 -0.0606373 0.998109 0
-0.011295 -0.0568593 0.998318 0
-0.0392197 -0.0302214 0.998774 0
-0.0435494 -0.0248552 0.998742 0.000358352
-0.0481837 -0.0224017 0.998587 0.00475162
-0.0494343 -0.0210959 0.998555 0.00424903
-0.0518372 -0.0240461 0.998366 0
-0.0523524 -0.0208471 0.998411 0
-0.0534142 -0.0247574 0.998266 0
-0.0581776 -0.0274434 0.997929 0
-0.0635075 -0.030661 0.99751 0
-0.0647735 -0.029433 0.997466 0
-0.0669401 -0.0343642 0.997165 0
-0.0707631 -0.0312418 0.997004 0
-0.0784068 -0.0277613 0.996535 0
-0.083199 -0.0219812 0.996291 0
-0.0908276 -0.0154943 0.995746 0.00599324
0.0298859 -0.042484 0.99865 0.00200188
-0.0610713 -0.0213333 0.997905 0.012058
-0.0613572 -0.020295 0.99791 0.0187147
-0.0622817 -0.0144703 0.997954 0.0178844
-0.0641049 -0.0134189 0.997853 0.023683
-0.0494092 -0.0147282 0.99867 0.0210734
-0.0438176 -0.0175925 0.998885 0.0168194
-0.0388092 -0.0220256 0.999004 0.0122939
-0.0342522 -0.0236394 0.999134 0.0134678
-0.0246133 -0.0326459 0.999164 0
-0.0210379 -0.0362864 0.99912 0
-0.0195853 -0.0327442 0.999272 0
-0.0194092 -0.040247 0.999001 0
-0.0179579 -0.0441162 0.998865 0
-0.0162553 -0.0479898 0.998716 0
-0.0176813 -0.046664 0.998754 0
-0.0126041 -0.0541587 0.998453 0
-0.0115253 -0.0565886 0.998331 0
-0.00974109 -0.0563417 0.998364 0
-0.0406518 -0.0292533 0.998745 0.000568641
-0.0437631 -0.0273842 0.998667 0.000622018
-0.0463576 -0.0244778 0.998625 0.00430328
-0.0497359 -0.021973 0.998521 0.00728959
-0.0518296 -0.0222044 0.998409 0.0059915
-0.0539235 -0.0212863 0.998318 0.0034115
-0.0552108 -0.0236324 0.998195 0.00303494
-0.0597602 -0.023684 0.997932 0.000357489
-0.0677661 -0.0221091 0.997456 0.00476117
-0.0666923 -0.0250467 0.997459 0
-0.0678438 -0.029965 0.997246 0
-0.0708768 -0.0307743 0.99701 0
-0.0801142 -0.0283363 0.996383 0
-0.0834172 -0.022978 0.99625 0
0.0308736 -0.0466557 0.998434 0
-0.0631182 -0.028731 0.997592 0.016178
-0.0666674 -0.0211985 0.99755 0.021014
-0.0638632 -0.018043 0.997795 0.0249093
-0.0624049 -0.0137893 0.997956 0.0261147
-0.0487887 -0.0153829 0.998691 0.0204907
-0.0441844 -0.0189609 0.998843 0.017875
-0.0384146 -0.0189359 0.999082 0.0197945
-0.0348677 -0.0267114 0.999035 0.0162366
-0.0242373 -0.0316667 0.999205 0.000331572
-0.020485 -0.0345918 0.999192 0
-0.0206285 -0.036069 0.999136 0
-0.0173945 -0.0422242 0.998957 0
-0.017157 -0.0512647 0.998538 0
-0.0192997 -0.0510466 0.99851 0
-0.0180594 -0.0510691 0.998532 0
-0.0180497 -0.0458132 0.998787 0
-0.00990662 -0.0519502 0.998601 0
-0.004059 -0.0491676 0.998782 0
-0.0412734 -0.0267041 0.998791 0.00476525
-0.0432522 -0.0273709 0.998689 0.00308884
-0.04619 -0.0243178 0.998637 0.00659709
-0.0487589 -0.0226085 0.998555 0.0110643
-0.0534778 -0.0254349 0.998245 0.00535198
-0.055478 -0.0258957 0.998124 0.00656189
-0.0603128 -0.0244235 0.997881 0.0136119
-0.0652266 -0.0205927 0.997658 0.011487
-0.0688109 -0.0208277 0.997412 0.011492
-0.0712861 -0.0220139 0.997213 0.00694547
-0.0711796 -0.0308517 0.996986 0
-0.0730021 -0.0322627 0.99681 0
-0.0771562 -0.0302225 0.996561 0
-0.0821981 -0.0264896 0.996264 0
-0.0657078 -0.0275915 0.997457 0.0179916
-0.0695148 -0.0251147 0.997265 0.0257968
-0.0647075 -0.0217074 0.997668 0.0237429
-0.0658548 -0.0142168 0.997728 0.03142
-0.0482265 -0.0168177 0.998695 0.0196911
-0.0415658 -0.017938 0.998975 0.0199346
-0.0386246 -0.0187539 0.999078 0.020978
-0.0325402 -0.0231417 0.999202 0.0152443
-0.0223946 -0.0372364 0.999056 0
-0.0197876 -0.0399047 0.999008 0
-0.0179366 -0.0467299 0.998747 0
-0.0172952 -0.0475386 0.99872 0
-0.0179456 -0.0488155 0.998647 0
-0.0185836 -0.0449363 0.998817 0
-0.0186695 -0.0432234 0.998891 0
-0.0190731 -0.0419757 0.998937 0
-0.014705 -0.0407417 0.999062 0
-0.0106701 -0.0503328 0.998676 0
-0.00521912 -0.0490015 0.998785 0
-0.00446141 -0.0490454 0.998787 0
-0.0357503 -0.0355842 0.998727 3.00942e-05
-0.0374849 -0.0302309 0.99884 0.00345975
-0.0408079 -0.0281569 0.99877 0.00217438
-0.0451885 -0.0237461 0.998696 0.00991091
-0.0504766 -0.0241414 0.998433 0.0134841
-0.0538937 -0.0253527 0.998225 0.00988679
-0.0578441 -0.024471 0.998026 0.00961658
-0.0613079 -0.0267545 0.99776 0.00787445
-0.0655964 -0.0213812 0.997617 0.0104225
-0.0691466 -0.0209351 0.997387 0.0123391
-0.0707976 -0.0264077 0.997141 0.00760757
-0.071284 -0.0273209 0.997082 0.00593514
-0.0722247 -0.0310069 0.996906 0
-0.0766079 -0.0277164 0.996676 0
-0.0799447 -0.0300775 0.996345 0
0.0289727 -0.0493651 0.998361 0
-0.0668167 -0.0281528 0.997368 0.00859836
-0.0588239 -0.0264606 0.997918 0.0155798
-0.062668 -0.0218278 0.997796 0.0223605
-0.0590115 -0.0246376 0.997953 0.0236652
-0.0621693 -0.0184999 0.997894 0.0307564
-0.0477037 -0.0216253 0.998627 0.0187958
-0.0415081 -0.0231631 0.99887 0.0119398
-0.0346636 -0.0236753 0.999119 0.0122445
-0.0284405 -0.0248286 0.999287 0.00478367
-0.019546 -0.0403289 0.998995 0
-0.0174329 -0.0427738 0.998933 0
-0.0148953 -0.0491002 0.998683 0
-0.01551 -0.0483605 0.998709 0
-0.0153295 -0.0502005 0.998621 0
-0.016874 -0.0483944 0.998686 0
-0.019195 -0.0405124 0.998995 0
-0.0172359 -0.0408882 0.999015 0
-0.0154602 -0.0393205 0.999107 0.0019053
-0.0111924 -0.0429566 0.999014 0
-0.00605055 -0.0452789 0.998956 0
-0.00287702 -0.0463582 0.998921 0
-0.0351746 -0.0318239 0.998874 0.00213296
-0.0408922 -0.03052 0.998697 0.00370866
-0.0445088 -0.0284505 0.998604 0.00969845
-0.0472313 -0.0265343 0.998531 0.0103773
-0.0541591 -0.0216071 0.998299 0.0125886
-0.05862 -0.0230301 0.998015 0.013
-0.0647177 -0.022931 0.99764 0.0169338
-0.0677785 -0.0227617 0.997441 0.013961
-0.0694729 -0.0201612 0.99738 0.0138936
-0.0689449 -0.0239544 0.997333 0.00828698
-0.0704715 -0.025037 0.997199 0.00691375
-0.0733406 -0.0253207 0.996985 0.00634137
-0.0769501 -0.0295208 0.996598 0
0.0328327 -0.0502752 0.998196 0
-0.0620926 -0.0240242 0.997781 0.0136331
-0.0614716 -0.022807 0.997848 0.0218166
-0.0600847 -0.0244528 0.997894 0.0220816
-0.0577687 -0.0265634 0.997977 0.0254475
-0.0423909 -0.0276663 0.998718 0.0118399
-0.041163 -0.0265148 0.998801 0.0112044
-0.0366896 -0.0252262 0.999008 0.0152278
-0.027563 -0.0279913 0.999228 0.00730557
-0.0199396 -0.0350967 0.999185 0
-0.0163796 -0.0424419 0.998965 0
-0.015228 -0.044429 0.998897 0
-0.0143037 -0.0423074 0.999002 0
-0.0138147 -0.0465075 0.998822 0
-0.0167349 -0.0439297 0.998894 0
-0.0169178 -0.0400507 0.999054 0
-0.0167657 -0.0405551 0.999037 0
-0.0142161 -0.0395041 0.999118 0.000382832
-0.0128965 -0.0398491 0.999123 0
-0.00530375 -0.0417231 0.999115 0
-0.00503993 -0.0395911 0.999203 0
-0.0220794 -0.0407825 0.998924 0
-0.0274747 -0.0345608 0.999025 0.00161365
-0.0351313 -0.0318344 0.998875 0.00246092
-0.0399042 -0.0294604 0.998769 0.00275983
-0.0427054 -0.0283292 0.998686 0.00996241
-0.0491158 -0.0218185 0.998555 0.0178549
-0.0569991 -0.0192009 0.99819 0.0180967
-0.0603143 -0.0183402 0.998011 0.0157728
-0.0630343 -0.0186774 0.997837 0.0163229
-0.068222 -0.016462 0.997534 0.0182924
-0.0722597 -0.0167631 0.997245 0.0180326
-0.0693108 -0.0232588 0.997324 0.00836277
-0.0720804 -0.0191343 0.997215 0.0102377
-0.0743692 -0.0214974 0.996999 0.00925862
-0.0758483 -0.0277855 0.996732 0
0.0367045 -0.0526125 0.99794 0
-0.0759683 -0.0258869 0.996774 0.0148524
-0.0638988 -0.0250273 0.997642 0.0154821
-0.0635815 -0.0282434 0.997577 0.0182192
-0.0600919 -0.0270217 0.997827 0.0173475
-0.0560276 -0.0288987 0.998011 0.0178223
-0.0353781 -0.0358607 0.99873 0
-0.0339965 -0.0350458 0.998807 0.00232869
-0.0311093 -0.0334752 0.998955 0.00575104
-0.0267545 -0.0323189 0.999119 0.00372959
-0.0201393 -0.038316 0.999063 0
-0.0158634 -0.0442613 0.998894 0
-0.0165674 -0.0425448 0.998957 0
-0.0133415 -0.0447233 0.99891 0
-0.0146429 -0.0414999 0.999031 0
-0.0163484 -0.0405785 0.999043 0
-0.01515 -0.0404721 0.999066 0
-0.0172471 -0.0428417 0.998933 0
-0.0150955 -0.0384936 0.999145 0
-0.0118738 -0.035999 0.999281 0.00387239
-0.0046971 -0.0402967 0.999177 0
-0.0225032 -0.0354101 0.99912 0
-0.0277215 -0.0320104 0.999103 0.00162501
-0.0317323 -0.0293714 0.999065 0.00423396
-0.0358373 -0.0312302 0.998869 0.0046869
-0.0390058 -0.0309675 0.998759 0.00591198
-0.0426364 -0.0289242 0.998672 0.0116269
-0.0505836 -0.0229624 0.998456 0.0177867
-0.0555566 -0.0176729 0.998299 0.0209131
-0.0586409 -0.0161792 0.998148 0.0202866
-0.062318 -0.0181548 0.997891 0.0140781
-0.0661301 -0.0169701 0.997667 0.0194179
-0.0722612 -0.016353 0.997252 0.0186736
-0.0703612 -0.017647 0.997365 0.00984006
-0.070947 -0.0175193 0.997326 0.0070578
-0.0740324 -0.0211973 0.997031 0.00522517
-0.0761982 -0.0319564 0.99658 0
0.0329238 -0.0520174 0.998103 0
-0.0730656 -0.02808 0.996932 0.00958999
-0.0713346 -0.0291402 0.997027 0.0153142
-0.0623996 -0.0322759 0.997529 0.0102438
-0.0599843 -0.0310955 0.997715 0.0142708
-0.0559248 -0.0328251 0.997895 0.00810164
-0.0506282 -0.0347687 0.998112 0.00552008
-0.0397169 -0.0352093 0.99859 0.000873396
-0.0358668 -0.0362505 0.998699 0.0026654
-0.0313152 -0.0385879 0.998764 0.00110508
-0.029555 -0.035914 0.998918 0.00700826
-0.0209915 -0.03737 0.999081 0
-0.0178077 -0.0349273 0.999231 0.00249874
-0.0157968 -0.0388871 0.999119 0
-0.01606 -0.043775 0.998912 0
-0.0152644 -0.0442149 0.998905 0
-0.0164483 -0.0406813 0.999037 0
-0.0166572 -0.0435536 0.998912 0
-0.016093 -0.0438325 0.998909 0
-0.0153094 -0.0427488 0.998969 0
-0.0114469 -0.0383292 0.9992 0.000175005
-0.00338733 -0.0464135 0.998917 0
-0.000263702 -0.0455252 0.998963 0
-0.0133948 -0.0321634 0.999393 0
-0.0303141 -0.0253766 0.999218 0.00536792
-0.0334428 -0.0293178 0.999011 0.00937047
-0.0356288 -0.0281131 0.99897 0.00925789
-0.0403202 -0.028036 0.998793 0.00735323
-0.0457207 -0.0257525 0.998622 0.0114406
-0.0511048 -0.0208901 0.998475 0.0157291
-0.0549882 -0.0171221 0.99834 0.0195623
-0.0555177 -0.0182061 0.998292 0.014712
-0.0618343 -0.0185768 0.997913 0.0132313
-0.0656957 -0.018158 0.997674 0.0161662
-0.0703183 -0.0162657 0.997392 0.0179105
-0.0708521 -0.0165228 0.99735 0.0128271
-0.0716908 -0.0184984 0.997255 0.0084475
-0.0736659 -0.0171117 0.997136 0.00673308
-0.0723328 -0.0341908 0.996794 0
0.0322 -0.0457621 0.998433 0
-0.0700947 -0.0306015 0.997071 0.0138318
-0.0621442 -0.0308351 0.997591 0.00976723
-0.0558576 -0.0319406 0.997928 0.0113201
-0.0509158 -0.0348152 0.998096 0.00509184
-0.0373392 -0.0385806 0.998558 0
-0.0381057 -0.0392206 0.998504 0
-0.0341268 -0.0360292 0.998768 0.00659262
-0.0298459 -0.0395848 0.99877 0.00444605
-0.0252914 -0.0360684 0.999029 0.00633737
-0.0199827 -0.0382588 0.999068 0.00586431
-0.0180231 -0.0380974 0.999111 0.00382726
-0.0154669 -0.041777 0.999007 0
-0.0165553 -0.0401888 0.999055 0
-0.0172527 -0.0372894 0.999156 0.00166648
-0.0154295 -0.0429163 0.99896 0
-0.0135907 -0.0378114 0.999192 0.000640477
-0.00969631 -0.0393452 0.999179 0
-0.00383756 -0.0399051 0.999196 0
-0.000768523 -0.0433415 0.99906 0
-0.0240384 -0.0303346 0.999251 0
-0.0310068 -0.0301459 0.999065 0.00283654
-0.0348996 -0.0248844 0.999081 0.00853399
-0.0389723 -0.0260918 0.9989 0.0114635
-0.0409092 -0.0294524 0.998729 0.00651208
-0.0453472 -0.0278011 0.998584 0.00829361
-0.0510459 -0.022924 0.998433 0.00953733
-0.0552908 -0.0190132 0.998289 0.0197675
-0.0572903 -0.0212362 0.998132 0.0160404
-0.0607406 -0.0214069 0.997924 0.0122267
-0.0661275 -0.0179499 0.99765 0.0131317
-0.0680937 -0.0169278 0.997535 0.0155593
-0.0684087 -0.017718 0.9975 0.009552
-0.0709641 -0.0158338 0.997353 0.00692184
-0.0700559 -0.0216292 0.997309 0
-0.0734159 -0.0284088 0.996897 0
0.0355596 -0.0447864 0.998363 0
-0.0694921 -0.0316891 0.997079 0.00977613
-0.0543789 -0.033344 0.997963 0.00586707
-0.0533444 -0.0311782 0.998089 0.00797323
-0.0513009 -0.0354355 0.998054 0.00157077
-0.0389346 -0.0374547 0.99854 0
-0.0410768 -0.0354906 0.998526 0.00364023
-0.0353508 -0.0385815 0.99863 0.00183539
-0.0296741 -0.0382264 0.998828 0.00618112
-0.0270635 -0.0369445 0.998951 0.0118637
-0.0217788 -0.0357568 0.999123 0.00701409
-0.0187073 -0.0363734 0.999163 0.00702048
-0.0161944 -0.040617 0.999044 0.00626271
-0.0189632 -0.0338056 0.999249 0.00940268
-0.0166744 -0.0357261 0.999223 0.00173921
-0.0145819 -0.040864 0.999058 0
-0.0161332 -0.0405931 0.999046 0.00238405
-0.0126194 -0.0352459 0.999299 0
-0.0028859 -0.0378281 0.99928 0
-0.00293751 -0.0373203 0.999299 0
0.00190122 -0.0308287 0.999523 0
-0.02618 -0.0283224 0.999256 0.00671049
-0.028611 -0.0275411 0.999211 0.00514696
-0.0314484 -0.0280235 0.999112 0.00404807
-0.0370405 -0.024638 0.99901 0.0101335
-0.0412621 -0.0262971 0.998802 0.00986971
-0.0419099 -0.0260511 0.998782 0.00641909
-0.044952 -0.025917 0.998653 0.0085654
-0.048715 -0.0255046 0.998487 0.00908802
-0.0540393 -0.0269132 0.998176 0.0163914
-0.055586 -0.0253558 0.998132 0.0143986
-0.0603535 -0.0175414 0.998023 0.00852118
-0.0637684 -0.0183225 0.997796 0.0121372
-0.0645981 -0.0207224 0.997696 0.0084345
-0.0691313 -0.0165457 0.99747 0.00999176
-0.0677548 -0.0208272 0.997485 0.00268681
-0.0680862 -0.0230062 0.997414 0
-0.0708571 -0.0269399 0.997123 0
-0.0662953 -0.0311313 0.997314 0.00348759
-0.0539819 -0.033343 0.997985 0
-0.0485321 -0.0348191 0.998215 0
-0.0477104 -0.0330684 0.998314 0.000654267
-0.0463059 -0.0295809 0.998489 0
-0.0388407 -0.034516 0.998649 0
-0.0413543 -0.0322187 0.998625 0.00315441
-0.0337565 -0.0375863 0.998723 0.00350783
-0.0323206 -0.038909 0.99872 0.00600846
-0.0287922 -0.0362717 0.998927 0.00976005
-0.0212124 -0.0364428 0.999111 0.00584644
-0.0195019 -0.0373604 0.999112 0.00791688
-0.0168901 -0.040349 0.999043 0.00697918
-0.0191647 -0.0360265 0.999167 0.00999678
-0.0179456 -0.0360357 0.999189 0.00292032
-0.0152304 -0.0394009 0.999107 0
-0.0166551 -0.0391336 0.999095 0.00144048
-0.013681 -0.0315226 0.999409 0.0020549
-0.00425348 -0.0332834 0.999437 0
-0.00245398 -0.0331934 0.999446 0
-0.00307456 -0.0325849 0.999464 0.00208772
-0.000581023 -0.0244826 0.9997 0.00240668
-0.0311392 -0.0230252 0.99925 0.00979232
-0.0342346 -0.0241583 0.999122 0.00888302
-0.0359712 -0.027402 0.998977 0.0091895
-0.0415039 -0.0248047 0.99883 0.00946652
-0.0433322 -0.0271 0.998693 0.00469677
-0.0463202 -0.0298788 0.99848 0.00652413
-0.0495648 -0.023602 0.998492 0.00989005
-0.0539572 -0.0235418 0.998266 0.0136679
-0.0563863 -0.0189356 0.998229 0.0142474
-0.0581768 -0.0163815 0.998172 0.0102899
-0.0622695 -0.0206726 0.997845 0.00963839
-0.0637183 -0.0235814 0.997689 0.00650198
-0.066799 -0.01635 0.997633 0.0074105
-0.0666066 -0.0204044 0.997571 0
-0.0658084 -0.0282023 0.997434 0
-0.0698446 -0.0321869 0.997038 0
-0.0635291 -0.034957 0.997368 0
-0.0638963 -0.0367445 0.99728 0
-0.0566703 -0.0335684 0.997828 0
-0.0518586 -0.0363315 0.997993 0
-0.0479433 -0.0314896 0.998353 0
-0.0419401 -0.0354613 0.998491 0
-0.0374425 -0.0356991 0.998661 0
-0.0373306 -0.0361139 0.99865 0.00471427
-0.0308699 -0.039847 0.998729 0.0071567
-0.0267766 -0.0358371 0.998999 0.00617612
-0.0239131 -0.0339431 0.999138 0.0135789
-0.0220386 -0.0339299 0.999181 0.00945303
-0.0186668 -0.0356668 0.999189 0.00720116
-0.0175232 -0.0345352 0.99925 0.00952901
-0.0179429 -0.0349518 0.999228 0.00551646
-0.0171892 -0.0352116 0.999232 0.00282595
-0.0145512 -0.0364715 0.999229 0.00410558
-0.0152112 -0.0362451 0.999227 0.00529784
-0.0140469 -0.0320391 0.999388 0.010286
-0.00606149 -0.0285148 0.999575 0.0026113
-0.00467641 -0.0268901 0.999627 0.0054523
-0.00440259 -0.0261323 0.999649 0.00673122
-0.0323959 -0.0196558 0.999282 0.0162941
-0.0359297 -0.0174613 0.999202 0.0169037
-0.0352872 -0.0262219 0.999033 0.00231116
-0.0357206 -0.0270834 0.998995 0.00125765
-0.0365417 -0.0254226 0.999009 0.00254593
-0.0442415 -0.0271268 0.998653 0.00990608
-0.047865 -0.0248483 0.998545 0.0130155
-0.0515996 -0.0218737 0.998428 0.0122559
-0.0536575 -0.0217603 0.998322 0.011038
-0.0562728 -0.0220529 0.998172 0.0142214
-0.056396 -0.0222907 0.99816 0.00952323
-0.0586399 -0.018699 0.998104 0.00936528
-0.0615137 -0.0196942 0.997912 0.00289001
-0.0634527 -0.019646 0.997791 0.000193943
-0.063048 -0.0260077 0.997672 0
-0.0642486 -0.0302062 0.997477 0
-0.0716194 -0.0304397 0.996967 0
-0.0691739 -0.0376371 0.996894 0
-0.0670632 -0.0387755 0.996995 0
-0.0609361 -0.0444383 0.997152 0
-0.0511058 -0.0415191 0.99783 0
-0.0463106 -0.0391346 0.99816 0
-0.0449493 -0.0361742 0.998334 0
-0.0327864 -0.0372623 0.998768 0
-0.0260277 -0.0331662 0.999111 0.00159517
-0.0233497 -0.03328 0.999173 0.00936445
-0.0238611 -0.0295326 0.999279 0.0133867
-0.0198788 -0.0286225 0.999393 0.0099328
-0.0166667 -0.0351057 0.999245 0.00632249
-0.0150997 -0.0375023 0.999182 0.00595187
-0.0145113 -0.0384021 0.999157 0.00235009
-0.0166024 -0.0340609 0.999282 0.005836
-0.0168997 -0.0312722 0.999368 0.00741965
-0.0147411 -0.0341869 0.999307 0.00933484
-0.0110101 -0.0267624 0.999581 0.0123534
-0.00777005 -0.0250969 0.999655 0.0112642
-0.0076985 -0.0220779 0.999727 0.0123148
-0.000992281 -0.0266866 0.999643 0.00153344
-0.0308918 -0.0180567 0.99936 0.0209057
-0.0325226 -0.0196092 0.999279 0.0130268
-0.0338072 -0.0222806 0.99918 0.00510633
-0.0335532 -0.0256289 0.999108 0.00115447
-0.0357058 -0.025839 0.999028 0.00496595
-0.0431991 -0.0258906 0.998731 0.01213
-0.0477027 -0.0248991 0.998551 0.0127702
-0.0511796 -0.0264311 0.99834 0.0130141
-0.0528811 -0.0273048 0.998227 0.0072886
-0.0561096 -0.0251379 0.998108 0.0125264
-0.0584923 -0.0234214 0.998013 0.00784909
-0.0579767 -0.0197514 0.998123 0.00499186
-0.0611634 -0.020147 0.997924 0.00192912
-0.061262 -0.0260841 0.997781 0
-0.0639622 -0.0255909 0.997624 0
-0.0642477 -0.027971 0.997542 0
-0.0705982 -0.0245202 0.997203 0
-0.0591092 -0.0465119 0.997167 0
-0.0560213 -0.0510483 0.997124 0
-0.0550434 -0.0451486 0.997463 0
-0.0438175 -0.0454605 0.998005 0
-0.0435614 -0.0420821 0.998164 0
-0.039545 -0.0412006 0.998368 0
-0.0239393 -0.0332409 0.999161 0
-0.0199414 -0.0312511 0.999313 0.000268836
-0.0209158 -0.0296303 0.999342 0.00318537
-0.0204338 -0.030734 0.999319 0.00985888
-0.0159855 -0.0367906 0.999195 0.000318852
-0.0155746 -0.0361183 0.999226 0.0023721
-0.0164001 -0.03478 0.99926 0.00385386
-0.0171525 -0.032 0.999341 0.0119779
-0.0177963 -0.0297887 0.999398 0.0118885
-0.0163484 -0.0267316 0.999509 0.0124753
-0.0114767 -0.023437 0.999659 0.012183
-0.00814957 -0.0244519 0.999668 0.0149809
-0.00731847 -0.0224493 0.999721 0.0157979
-0.00482514 -0.0243505 0.999692 0.00683175
0.00491455 -0.0317517 0.999484 0
-0.0240702 -0.02129 0.999484 0.0143584
-0.0310284 -0.0217721 0.999281 0.0212196
-0.0337597 -0.0222896 0.999181 0.00418881
-0.0353989 -0.0269488 0.99901 0.0048558
-0.0367419 -0.0266018 0.998971 0.00615214
-0.0405712 -0.0259984 0.998838 0.00892412
-0.0444966 -0.0254536 0.998685 0.0111776
-0.0479657 -0.0276431 0.998466 0.0125687
-0.0517378 -0.0298179 0.998215 0.00797765
-0.0571151 -0.0237518 0.998085 0.0113239
-0.0599183 -0.0244268 0.997904 0.0122285
-0.0625403 -0.0247243 0.997736 0.00652667
-0.0618308 -0.0249031 0.997776 0
-0.0622686 -0.027012 0.997694 0
-0.0640696 -0.0216643 0.99771 0.00109707
-0.0668436 -0.022495 0.99751 0
-0.0684572 -0.0285497 0.997245 0
-0.0625382 -0.0444559 0.997052 0
-0.0576817 -0.0457167 0.997288 0
-0.0544665 -0.0426074 0.997606 0
-0.0457206 -0.0442265 0.997975 0
-0.0418682 -0.0420624 0.998237 0
-0.0367386 -0.0437012 0.998369 0
-0.0251853 -0.0313115 0.999192 0.000199314
-0.0221746 -0.0283813 0.999351 0
-0.0174351 -0.0349748 0.999236 7.24699e-05
-0.0125745 -0.0383909 0.999184 0
-0.0139721 -0.0371269 0.999213 0
-0.0155674 -0.033091 0.999331 0.00110307
-0.0185783 -0.0280983 0.999433 0.0104197
-0.0176184 -0.0267468 0.999487 0.0114522
-0.0161654 -0.0258026 0.999536 0.0126435
-0.0123599 -0.0231705 0.999655 0.0162301
-0.00852245 -0.0187934 0.999787 0.0106987
-0.00723271 -0.0216355 0.99974 0.0112862
-0.00122547 -0.027914 0.99961 0.00604122
0.00699823 -0.0384387 0.999236 0
-0.00425284 -0.0292116 0.999564 0.000793209
-0.0189634 -0.0221752 0.999574 0.0102872
-0.0198948 -0.0193539 0.999615 0.01331
-0.0316034 -0.0257071 0.99917 0.0177157
-0.0320147 -0.0270495 0.999121 0.0101222
-0.0347949 -0.0265323 0.999042 0.00648188
-0.0377592 -0.0241969 0.998994 0.00980005
-0.0401091 -0.0241015 0.998905 0.00891223
-0.0422326 -0.0259954 0.99877 0.00659094
-0.0433974 -0.0308075 0.998583 0.00873632
-0.046243 -0.0300148 0.998479 0.0108841
-0.0509639 -0.0290463 0.998278 0.0110732
-0.0576949 -0.0268274 0.997974 0.013591
-0.0594892 -0.0257436 0.997897 0.0128451
-0.0628126 -0.0251727 0.997708 0.00772971
-0.0649201 -0.0288034 0.997475 0.00779154
-0.0653669 -0.0250493 0.997547 0.00401757
-0.0653195 -0.024333 0.997568 0.000558153
-0.0688447 -0.0209354 0.997408 0
-0.0715888 -0.0272781 0.997061 0
-0.0595866 -0.0451918 0.9972 0
-0.0602012 -0.0483664 0.997014 0
-0.0568326 -0.0456996 0.997337 0
-0.046406 -0.0383809 0.998185 0
-0.0410943 -0.0394092 0.998378 0
-0.0252741 -0.0297939 0.999237 0.00323129
-0.0228102 -0.0303251 0.99928 0.00228729
-0.0201709 -0.0295191 0.999361 0.00165632
-0.0145744 -0.0354573 0.999265 0
-0.012007 -0.0353933 0.999301 0
-0.0137528 -0.0349429 0.999295 0
-0.0138663 -0.0346953 0.999302 0
-0.0174068 -0.0286198 0.999439 0.00858448
-0.0192707 -0.0258759 0.999479 0.0131303
-0.0173964 -0.0210468 0.999627 0.0153213
-0.0143479 -0.0183651 0.999728 0.0161635
-0.0085597 -0.0224647 0.999711 0.00797801
-0.00573108 -0.0236862 0.999703 0.00526937
0.00038765 -0.0286232 0.99959 0.00454172
0.00591604 -0.037831 0.999267 0
0.00619538 -0.0351565 0.999363 0
-0.00422702 -0.032607 0.999459 0
-0.00549986 -0.0306164 0.999516 0
-0.0186931 -0.0225798 0.99957 0.0131271
-0.0271494 -0.0280644 0.999237 0.00682043
-0.0320641 -0.0281723 0.999089 0.00636349
-0.0323915 -0.0295193 0.999039 0.00457845
-0.0356181 -0.0236217 0.999086 0.00703633
-0.0385415 -0.0270249 0.998891 0.00733742
-0.0420805 -0.0286462 0.998703 0.0071063
-0.0451276 -0.029632 0.998542 0.00822908
-0.0472597 -0.029713 0.998441 0.0104676
-0.0517438 -0.0299776 0.99821 0.00751177
-0.0557968 -0.0299458 0.997993 0.00865164
-0.0586129 -0.0275756 0.9979 0.00959682
-0.0599452 -0.0306625 0.997731 0.00478706
-0.0635468 -0.0289231 0.99756 0.0069948
-0.0667806 -0.0265829 0.997414 0.00798642
-0.0664583 -0.0273827 0.997413 0
-0.0697821 -0.0233146 0.99729 0.000318945
-0.0728784 -0.0242517 0.997046 0
-0.067254 -0.0490523 0.996529 0
-0.0650412 -0.0488755 0.996685 0
-0.0609382 -0.046828 0.997042 0
-0.0578934 -0.044499 0.997331 0
-0.0503519 -0.0393699 0.997955 0
-0.0447104 -0.0382803 0.998266 0
-0.0390294 -0.042705 0.998325 0
-0.0206502 -0.0337164 0.999218 0.000507069
-0.01298 -0.0356146 0.999281 0
-0.0133293 -0.0355309 0.99928 0
-0.012671 -0.036144 0.999266 0
-0.0147357 -0.032135 0.999375 0
-0.0155737 -0.0310879 0.999395 0.00170438
-0.0167745 -0.028294 0.999459 0.0112606
-0.0163817 -0.0273497 0.999492 0.0153499
-0.0120022 -0.0276463 0.999546 0.0188514
-0.00606034 -0.0269149 0.999619 0.0136764
-0.00409278 -0.0266329 0.999637 0.0122508
0.000163598 -0.0311665 0.999514 0.00597501
0.006357 -0.0362182 0.999324 0
0.00609046 -0.0372325 0.999288 0
0.00779244 -0.0367155 0.999295 0
-0.00567222 -0.0333618 0.999427 0
-0.0193749 -0.0289037 0.999394 0.00863672
-0.0217827 -0.0288364 0.999347 0.00749871
-0.0239138 -0.0319285 0.999204 0.00196847
-0.0262992 -0.0350429 0.99904 9.55244e-05
-0.0328055 -0.0297875 0.999018 0.0028101
-0.0331651 -0.0262488 0.999105 0.00322944
-0.0351256 -0.0298071 0.998938 0.00151871
-0.0390437 -0.0293718 0.998806 0.00233266
-0.0460802 -0.0296654 0.998497 0.0100458
-0.0507847 -0.0269033 0.998347 0.0120953
-0.0554848 -0.0283124 0.998058 0.0110467
-0.0566248 -0.0258974 0.99806 0.0100876
-0.0599705 -0.0287523 0.997786 0.0116622
-0.0619229 -0.0255339 0.997754 0.00902845
-0.0685804 -0.0268601 0.997284 0.0103016
-0.0675777 -0.0252179 0.997395 0.00681262
-0.069805 -0.0251143 0.997244 0.00165082
-0.0693495 -0.0264093 0.997243 0
0.0116089 -0.0436839 0.998978 0.0010704
-0.0699381 -0.0480084 0.996395 0
-0.0585479 -0.0448975 0.997274 0
-0.055971 -0.0442307 0.997452 0
-0.0488465 -0.0431226 0.997875 0
-0.0482182 -0.0404477 0.998017 0
-0.0455194 -0.0377545 0.99825 0
-0.0176736 -0.0324185 0.999318 0
-0.0128829 -0.0363641 0.999256 0
-0.011671 -0.0315813 0.999433 0
-0.0109302 -0.0325892 0.999409 0
-0.0129102 -0.03284 0.999377 0
-0.013152 -0.0360797 0.999262 0
-0.0143637 -0.0373282 0.9992 0.00448733
-0.0147236 -0.0325641 0.999361 0.0110634
-0.0113165 -0.0251071 0.999621 0.0160069
-0.00638864 -0.0301465 0.999525 0.00847927
-0.00373115 -0.0350184 0.99938 0.00913328
6.15442e-05 -0.0350555 0.999385 0.00383869
0.0046327 -0.038267 0.999257 0
0.00574373 -0.0389182 0.999226 0
0.00631854 -0.0384776 0.99924 0
-0.00525279 -0.0307368 0.999514 3.03593e-05
-0.0169442 -0.0297965 0.999412 0.00476599
-0.0232238 -0.0387621 0.998979 0
-0.0238813 -0.0383289 0.99898 0
-0.0291254 -0.0291776 0.99915 0.00294093
-0.0319143 -0.0259736 0.999153 0.00196926
-0.0349432 -0.0290556 0.998967 0
-0.0394887 -0.0304274 0.998757 0.00153409
-0.0479526 -0.0250418 0.998536 0.013618
-0.0506802 -0.0266479 0.998359 0.0111881
-0.0548586 -0.0286038 0.998084 0.00660052
-0.0585536 -0.029975 0.997834 0.0107577
-0.0591959 -0.0302473 0.997788 0.00752484
-0.0648675 -0.0286911 0.997481 0.0121514
-0.0658404 -0.0258405 0.997496 0.010645
-0.0654514 -0.0266763 0.997499 0.00664624
-0.0667738 -0.0282353 0.997369 0
-0.0694037 -0.0243885 0.99729 0
0.0119889 -0.0450995 0.998911 0
-0.0649027 -0.0518213 0.996545 0
-0.0620176 -0.0502605 0.996809 0
-0.0633801 -0.0472227 0.996872 0
-0.0568889 -0.0475616 0.997247 0
-0.0473883 -0.0488673 0.997681 0
-0.0499864 -0.0458857 0.997695 0
-0.0453688 -0.045276 0.997944 0
-0.0162773 -0.0313913 0.999375 0
-0.0173611 -0.0287806 0.999435 0
-0.012448 -0.0344217 0.99933 0
-0.0106853 -0.0358728 0.999299 0
-0.0136202 -0.0372123 0.999215 0
-0.0125223 -0.0383964 0.999184 0
-0.0135061 -0.0391465 0.999142 0.00146936
-0.0119074 -0.0395078 0.999148 0.00222133
-0.00920818 -0.032034 0.999444 0.00595083
-0.00321558 -0.0370479 0.999308 0.000621225
-0.000863902 -0.0388243 0.999246 0.000709006
-0.00121617 -0.0353018 0.999376 0.00160088
0.00477241 -0.036511 0.999322 0
0.00390851 -0.0352627 0.99937 0
0.00228931 -0.0344537 0.999404 0
-0.00270844 -0.0358154 0.999355 0
-0.0044318 -0.0322882 0.999469 0
-0.0144409 -0.0335474 0.999333 0
-0.0168996 -0.0364506 0.999193 0.000327617
-0.0207216 -0.0364491 0.999121 0.00131295
-0.0236339 -0.036851 0.999041 0
-0.0293503 -0.0293204 0.999139 0.00550487
-0.0331515 -0.0272574 0.999079 0.00260985
-0.0363248 -0.030044 0.998888 0.00120547
-0.0403284 -0.0266801 0.99883 0.00300133
-0.0453491 -0.0260334 0.998632 0.00634197
-0.0506347 -0.0239454 0.99843 0.0130777
-0.0554632 -0.0250365 0.998147 0.0107158
-0.0581357 -0.0256051 0.99798 0.0088723
-0.061502 -0.0287274 0.997693 0.00592214
-0.0636882 -0.030061 0.997517 0.00848259
-0.0657471 -0.0265514 0.997483 0.00943163
-0.0664387 -0.0269984 0.997425 0.00666032
-0.0678452 -0.026591 0.997341 0.000341306
0.0053071 -0.0414983 0.999124 0
-0.0659131 -0.0470238 0.996717 0
-0.0582998 -0.0526165 0.996912 0
-0.0538189 -0.04999 0.997299 0
-0.0551143 -0.0476678 0.997342 0
-0.044721 -0.0487519 0.997809 0
-0.0420784 -0.0491077 0.997907 0
-0.0191141 -0.0250269 0.999504 0
-0.0160089 -0.0291567 0.999447 0.000787631
-0.0125166 -0.0338005 0.99935 0
-0.0116271 -0.0354312 0.999304 0
-0.0130915 -0.0364773 0.999249 0
-0.0128001 -0.033928 0.999342 0.000585517
-0.0126965 -0.0340007 0.999341 0.00120324
-0.00905119 -0.0409599 0.99912 0
-0.00609854 -0.0384591 0.999242 0.000713868
-0.000372841 -0.0419143 0.999121 0
-0.000885502 -0.0384889 0.999259 0
-0.001 -0.0340102 0.999421 0.00280028
0.00480629 -0.0344775 0.999394 0
0.0072457 -0.033504 0.999412 0
0.00293247 -0.0292506 0.999568 0
0.00126393 -0.0281933 0.999602 0.00328238
0.000457131 -0.0268811 0.999638 0.00385442
-0.000232612 -0.0351341 0.999383 0
-0.00456874 -0.0333245 0.999434 0
-0.0058867 -0.0353976 0.999356 0
-0.0152028 -0.0359427 0.999238 0.00336962
-0.015135 -0.0387876 0.999133 0
-0.0211315 -0.0341547 0.999193 0
-0.0212987 -0.0353033 0.99915 0
-0.0297399 -0.0277043 0.999174 0.00921682
-0.0344942 -0.0291071 0.998981 0.00502255
-0.0362587 -0.0276243 0.99896 0.00584375
-0.0422837 -0.0246442 0.998802 0.00726978
-0.0456632 -0.025252 0.998638 0.00590167
-0.0516579 -0.0252752 0.998345 0.0105854
-0.0559045 -0.0274682 0.998058 0.0079519
-0.0571801 -0.029724 0.997921 0.00711785
-0.0586335 -0.0337047 0.99771 0.00233102
-0.063088 -0.0306566 0.997537 0.00430329
-0.0660557 -0.0271642 0.997446 0.0057918
-0.0665451 -0.0272073 0.997412 0.000820342
-0.0702054 -0.0245268 0.997231 0.00142613
-0.0676831 -0.0464046 0.996627 0
-0.0617654 -0.0449151 0.99708 0
-0.0651969 -0.0426248 0.996962 0
-0.059055 -0.0420681 0.997368 0
-0.0461807 -0.0507724 0.997642 0
-0.0457728 -0.0504667 0.997676 0
-0.0206528 -0.0308328 0.999311 0.00299679
-0.0182439 -0.0292501 0.999406 0.000868502
-0.0156807 -0.0286089 0.999468 0.00278037
-0.0120099 -0.0342718 0.99934 0
-0.0134038 -0.0328257 0.999371 0.000881476
-0.0131337 -0.0357612 0.999274 0
-0.0118064 -0.035056 0.999316 0
-0.00786539 -0.040471 0.99915 0
-0.00599309 -0.0392662 0.999211 0.00063516
-0.00259423 -0.0376421 0.999288 0.00209249
-0.00142927 -0.0335035 0.999438 0.00362535
0.000536881 -0.032761 0.999463 0.00933545
0.0057752 -0.0282039 0.999585 0.00132969
0.00570964 -0.0300382 0.999532 0
0.00181627 -0.0272828 0.999626 0.00461311
0.00179069 -0.0306832 0.999528 0.00625245
0.00107239 -0.0315053 0.999503 0.00420173
-0.00114219 -0.0316762 0.999498 0.00511387
-0.00275949 -0.031523 0.999499 0.00525835
-0.00234113 -0.0340964 0.999416 0.00128523
-0.00398128 -0.0401171 0.999187 0
-0.0101889 -0.0411843 0.9991 0
-0.0117013 -0.0355992 0.999298 0
-0.0149004 -0.0350366 0.999275 0
-0.0215001 -0.0316357 0.999268 0.00418035
-0.0260816 -0.0325077 0.999131 0.00454974
-0.0289317 -0.0274881 0.999203 0.00648317
-0.0356345 -0.0278549 0.998977 0.010713
-0.0396373 -0.0247724 0.998907 0.0125148
-0.0431783 -0.0257764 0.998735 0.011718
-0.0453863 -0.0259086 0.998634 0.00432624
-0.0490175 -0.0228468 0.998537 0.00642989
-0.0560288 -0.0257907 0.998096 0.00598761
-0.0588979 -0.0298512 0.997818 0.00361983
-0.0584308 -0.0338197 0.997718 0
-0.0620045 -0.0321752 0.997557 0
-0.0633375 -0.0250855 0.997677 0.000450201
-0.0668316 -0.0311403 0.997278 0
-0.0688053 -0.0320847 0.997114 0
-0.0709303 -0.0355088 0.996849 0
-0.0725766 -0.0446679 0.996362 0
-0.0682239 -0.0429695 0.996744 0
-0.0635466 -0.0447598 0.996975 0
-0.0644606 -0.0419279 0.997039 0.00238657
-0.0532316 -0.0446651 0.997583 0
-0.0200699 -0.0288274 0.999383 0.00643777
-0.0153541 -0.0333351 0.999326 0.00548653
-0.0149214 -0.0334368 0.999329 0.00376782
-0.0119039 -0.036247 0.999272 0.0010985
-0.0129864 -0.0355245 0.999284 0
-0.011952 -0.0400056 0.999128 0.000946346
-0.00916794 -0.0418351 0.999082 0.000653323
-0.00352778 -0.0351865 0.999375 0.00482854
-0.00217038 -0.0320079 0.999485 0.00533621
-0.00229275 -0.0324245 0.999472 0.0087667
-0.00231281 -0.0254836 0.999673 0.0153452
0.00461436 -0.024918 0.999679 0.0084273
0.00667091 -0.0274132 0.999602 0.00693871
0.00591715 -0.0282462 0.999583 0.00851556
0.00463558 -0.0335944 0.999425 0.00325974
0.000501894 -0.0286036 0.999591 0.00531467
-0.00109884 -0.0302205 0.999543 0.00722777
-0.00325222 -0.0267799 0.999636 0.00528985
-0.00246526 -0.034137 0.999414 0
-0.00347299 -0.0385729 0.99925 0
-0.0103116 -0.0378906 0.999229 0
-0.0127433 -0.0308034 0.999444 0
-0.0205535 -0.0334567 0.999229 0.000658984
-0.0262854 -0.0270163 0.999289 0.0104257
-0.0295327 -0.0236237 0.999285 0.0118779
-0.0301795 -0.0266338 0.99919 0.00740522
-0.0330063 -0.0271985 0.999085 0.00570437
-0.0386882 -0.0276434 0.998869 0.00549837
-0.0416862 -0.0232104 0.998861 0.00719909
-0.0440177 -0.0239745 0.998743 0.00250184
-0.0452182 -0.0242604 0.998682 0
-0.0540887 -0.0283348 0.998134 0
-0.055358 -0.0300586 0.998014 0
-0.0585019 -0.031932 0.997777 0
-0.0626661 -0.0313067 0.997543 0
-0.0633104 -0.0318316 0.997486 0
-0.0628443 -0.0382998 0.997288 0
-0.0669813 -0.0408765 0.996917 0
-0.0700729 -0.0346424 0.99694 0
-0.0715982 -0.0414839 0.99657 0
-0.0702266 -0.0419113 0.99665 0
-0.06237 -0.0450082 0.997038 0
-0.0589219 -0.0467282 0.997168 0
-0.0231124 -0.0262064 0.999389 0.00911399
-0.0158168 -0.0289864 0.999455 0.00950947
-0.0146801 -0.0324121 0.999367 0.00805816
-0.012584 -0.0324596 0.999394 0.0051382
-0.0120146 -0.03306 0.999381 0.00324503
-0.00898456 -0.0390035 0.999199 0
-0.00950505 -0.0360954 0.999303 0.00966627
-0.00606529 -0.0335313 0.999419 0.010694
-0.00430777 -0.0289208 0.999572 0.0117567
-0.00543508 -0.0268042 0.999626 0.012895
-0.00222993 -0.0252269 0.999679 0.0167831
0.00279501 -0.0223723 0.999746 0.0170547
0.00653178 -0.0225205 0.999725 0.0124398
0.00740715 -0.0258521 0.999638 0.00735592
0.00420814 -0.0300117 0.999541 0.00519669
0.000333106 -0.0260057 0.999662 0.00937264
-0.00120921 -0.0294773 0.999565 0.00734334
-0.00193052 -0.0318342 0.999491 0.00240024
-0.00130659 -0.0326302 0.999467 0
-0.00416336 -0.0343896 0.9994 0
-0.0104612 -0.0296718 0.999505 0.000816109
-0.0152859 -0.0311555 0.999398 0.00130203
-0.0201577 -0.0302521 0.999339 0.00334818
-0.0274347 -0.0248685 0.999314 0.0103476
-0.0295607 -0.0229701 0.999299 0.0114361
-0.0314587 -0.0263315 0.999158 0.003232
-0.0334542 -0.0260986 0.999099 0.000374937
-0.0378055 -0.0252332 0.998966 0.00516218
-0.0415218 -0.0237974 0.998854 0.00556234
-0.0439183 -0.0209702 0.998815 0.00333461
-0.0454853 -0.021206 0.99874 0
-0.047531 -0.0268143 0.99851 0
-0.0534422 -0.0254328 0.998247 0
-0.0564604 -0.030608 0.997936 0
-0.0579861 -0.0330235 0.997771 0
-0.0611346 -0.0331474 0.997579 0
-0.0640814 -0.0407831 0.997111 0
-0.0669826 -0.0381502 0.997025 0
-0.0758508 -0.0452335 0.996093 0
-0.068206 -0.0439123 0.996704 0
-0.0648139 -0.0436219 0.996944 0
-0.0622657 -0.0443002 0.997076 0
-0.0564165 -0.0418444 0.99753 0
-0.0228702 -0.0227406 0.99948 0.0121137
-0.0184004 -0.0280609 0.999437 0.0107519
-0.0171239 -0.0247959 0.999546 0.012935
-0.012791 -0.0273452 0.999544 0.0111491
-0.0114848 -0.0306748 0.999463 0.00246765
-0.0112382 -0.0335903 0.999372 0.00688773
-0.00929117 -0.0323033 0.999435 0.0149278
-0.00890367 -0.0286058 0.999551 0.0172597
-0.0058796 -0.0228015 0.999723 0.0198679
-0.00280765 -0.0252518 0.999677 0.0179732
-0.000270847 -0.0243432 0.999704 0.0184732
0.0049084 -0.0250793 0.999673 0.0138128
0.00670452 -0.0231147 0.99971 0.0133758
0.00741859 -0.0255369 0.999646 0.007671
0.00563635 -0.0275095 0.999606 0.00957075
0.00185411 -0.030006 0.999548 0.00730475
0.000364862 -0.0292848 0.999571 0.00881408
-0.000108526 -0.0305684 0.999533 0.0075019
-0.00174682 -0.0312514 0.99951 0
-0.00323866 -0.0311162 0.99951 0
-0.010598 -0.0318906 0.999435 0.00202275
-0.0139126 -0.0345158 0.999307 0.00498024
-0.0199367 -0.0301405 0.999347 0.00453112
-0.0250019 -0.0291718 0.999262 0.00793279
-0.0306549 -0.0244512 0.999231 0.00968996
-0.0324319 -0.0235555 0.999196 0.00159155
-0.032691 -0.0297464 0.999023 0
-0.0389773 -0.0241161 0.998949 0.00441757
-0.042209 -0.022497 0.998855 0.00527326
-0.0433122 -0.0236377 0.998782 0
-0.0449719 -0.0266909 0.998632 0
-0.0479918 -0.026849 0.998487 0
-0.0534332 -0.0245607 0.998269 0
-0.0552206 -0.0345098 0.997878 0
-0.0580209 -0.0308881 0.997837 0
-0.0609494 -0.0334004 0.997582 0
-0.063134 -0.0351981 0.997384 0
-0.065932 -0.0336865 0.997255 0
-0.0815867 -0.0388373 0.995909 3.6272e-05
-0.0728257 -0.0462804 0.99627 0
-0.0624615 -0.0420974 0.997159 0.000692351
-0.0590614 -0.0433124 0.997314 0
-0.0537968 -0.0470262 0.997444 0
-0.0125267 -0.0267121 0.999565 0.0130845
-0.00815517 -0.031423 0.999473 0.00447028
-0.0103717 -0.0285593 0.999538 0.0138693
-0.0108882 -0.0275184 0.999562 0.0180477
-0.0075955 -0.0272952 0.999599 0.0180413
-0.00591724 -0.0245921 0.99968 0.0198273
-0.00303819 -0.024506 0.999695 0.0198564
-0.000682377 -0.0244921 0.9997 0.0203679
0.0076978 -0.0264725 0.99962 0.0096975
0.00510622 -0.0257509 0.999655 0.0122442
0.00757655 -0.0291618 0.999546 0.00587153
0.00511336 -0.0314846 0.999491 0.0102675
0.00536174 -0.032326 0.999463 0.00907551
0.0021581 -0.0300615 0.999546 0.00711405
0.000733374 -0.0339886 0.999422 0.00499184
-0.00193769 -0.0316311 0.999498 0
-0.00596236 -0.025801 0.999649 0
-0.00971234 -0.0359013 0.999308 0
-0.0123429 -0.031534 0.999426 0.000237234
-0.0164478 -0.0330886 0.999317 0
-0.0268479 -0.0262773 0.999294 0.0079002
-0.0300694 -0.0241247 0.999257 0.00985826
-0.0335442 -0.0262664 0.999092 0.00353641
-0.0386085 -0.0243909 0.998957 0.00416155
-0.0403967 -0.0223697 0.998933 0.00602702
-0.0424247 -0.0258248 0.998766 0.00276348
-0.043027 -0.0249453 0.998762 0
-0.0444956 -0.0259931 0.998671 0
-0.0481895 -0.0257275 0.998507 0
-0.0500572 -0.0299701 0.998297 0
-0.054621 -0.0311342 0.998022 0
-0.0590105 -0.0337722 0.997686 0
-0.061061 -0.0356467 0.997497 0
-0.0804318 -0.0385233 0.996015 0
-0.0688082 -0.0401421 0.996822 0
-0.0632271 -0.0444963 0.997007 0
-0.0533292 -0.0483207 0.997407 0
-0.0174214 -0.0251051 0.999533 0.0140984
-0.00925069 -0.028408 0.999554 0.00718653
-0.00930831 -0.0301944 0.999501 0.0118525
-0.0103216 -0.0288161 0.999531 0.0165908
-0.00637767 -0.0255005 0.999654 0.0185642
-0.00378651 -0.0281601 0.999596 0.0164342
-0.00296009 -0.0250338 0.999682 0.0236201
0.00230918 -0.0278341 0.99961 0.0128492
0.0083567 -0.0308018 0.999491 0.00669712
0.00980629 -0.0323204 0.999429 0.00578491
0.00864994 -0.0352326 0.999342 0
0.00579443 -0.0347916 0.999378 0.00638938
0.00522315 -0.0337931 0.999415 0.00463324
0.00406537 -0.0343939 0.9994 0.000718373
0.00155581 -0.0335556 0.999436 0.00386616
0.000138952 -0.0347059 0.999398 0
-0.00545252 -0.035872 0.999341 0
-0.0081764 -0.0370055 0.999282 0
-0.0123075 -0.035062 0.999309 0
-0.0184324 -0.0327746 0.999293 0
-0.0244437 -0.0252009 0.999384 0.00361785
-0.0312969 -0.0302256 0.999053 0.00693278
-0.0334736 -0.0256662 0.99911 0.0030182
-0.0377573 -0.0232789 0.999016 0.00288657
-0.0408369 -0.0280433 0.998772 0.00412718
-0.0429277 -0.025712 0.998747 0
-0.0431213 -0.0279367 0.998679 0
-0.0430652 -0.0316261 0.998572 0
-0.0489086 -0.0285606 0.998395 0
-0.0505051 -0.0272142 0.998353 0
-0.0572447 -0.0272753 0.997988 0
-0.0608989 -0.029821 0.997698 0
-0.0631379 -0.0355453 0.997372 0
-0.0815129 -0.0428621 0.99575 0
-0.0767502 -0.0426968 0.996136 0
-0.0686741 -0.0427983 0.996721 0
-0.0607786 -0.0425166 0.997245 0
-0.0539883 -0.0426419 0.997631 0
-0.0100756 -0.0285358 0.999542 0.00940694
-0.00940915 -0.0259213 0.99962 0.0109194
-0.00801723 -0.0274626 0.999591 0.0146901
-0.004491 -0.0299319 0.999542 0.0110927
-0.00297809 -0.029199 0.999569 0.0155457
-0.00138254 -0.0293308 0.999569 0.011646
0.00335739 -0.0296204 0.999556 0.0099428
0.00906657 -0.0340908 0.999378 0.00219549
0.00777332 -0.0326003 0.999438 0.006801
0.0102068 -0.0358981 0.999303 0
0.00738735 -0.0353848 0.999346 0
0.00559286 -0.0346396 0.999384 0.000331894
0.00314634 -0.0344506 0.999401 0.00238584
0.00202528 -0.0324964 0.99947 0.00251397
-0.000116351 -0.0342812 0.999412 0
-0.00230494 -0.03614 0.999344 0
-0.0107916 -0.0342294 0.999356 0
-0.0142723 -0.0335231 0.999336 0
-0.0191438 -0.0320933 0.999302 0
-0.0259514 -0.0222689 0.999415 0.00617989
-0.028482 -0.028552 0.999186 0.000672143
-0.0330104 -0.027545 0.999075 0.00269225
-0.0375719 -0.02683 0.998934 0.00558239
-0.039586 -0.0273316 0.998842 0.00164201
-0.0410115 -0.0263578 0.998811 0.000402793
-0.0454581 -0.028649 0.998555 0
-0.0472912 -0.0301678 0.998425 0
-0.0491103 -0.0269552 0.99843 0
-0.0516444 -0.0271018 0.998298 0
-0.0590844 -0.024682 0.997948 0.00264625
-0.0594504 -0.0249522 0.997919 0
-0.060503 -0.0314959 0.997671 0
-0.0651276 -0.0313318 0.997385 0
-0.0660945 -0.0278202 0.997425 0.00179742
-0.0814414 -0.0440304 0.995705 0
-0.0711183 -0.0437821 0.996507 0
-0.0615626 -0.0496778 0.996866 0
-0.0607757 -0.0466365 0.997061 0
-0.0125147 -0.0320057 0.999409 0.00407091
-0.00978374 -0.0273068 0.999579 0.0118897
-0.00835267 -0.0292956 0.999536 0.0103606
-0.00737013 -0.0284819 0.999567 0.0122758
-0.00524267 -0.0303129 0.999527 0.0157699
-0.00250913 -0.0265485 0.999644 0.0171233
0.00197046 -0.0298682 0.999552 0.00712485
0.00627595 -0.0297966 0.999536 0
0.00720195 -0.0310828 0.999491 0.00510983
0.00856413 -0.0317215 0.99946 0.00277589
0.00998625 -0.0373555 0.999252 0
0.0063211 -0.0310736 0.999497 0.00259796
0.00424537 -0.0332231 0.999439 0.00214632
0.00302483 -0.0341109 0.999414 0.00299541
0.000811659 -0.0360077 0.999351 0
0.00259888 -0.0398943 0.999201 0
-0.00394366 -0.034116 0.99941 0
-0.0109699 -0.0347424 0.999336 0
-0.0137573 -0.0359766 0.999258 0
-0.0183914 -0.0316243 0.999331 0
-0.0223282 -0.0303671 0.999289 0
-0.0246524 -0.0289265 0.999278 0
-0.0309406 -0.0334377 0.998962 0
-0.0375061 -0.0285618 0.998888 0.00599759
-0.0376931 -0.0274764 0.998912 0.00257116
-0.0421792 -0.0267796 0.998751 0.00344954
-0.0452024 -0.0280413 0.998584 0.000680649
-0.0482312 -0.0276144 0.998454 0.00305078
-0.0525055 -0.0277039 0.998236 0
-0.0562353 -0.0255239 0.998091 0.00509272
-0.0620935 -0.0267829 0.997711 0.0061639
-0.0660009 -0.0254097 0.997496 0.00861389
-0.0662992 -0.024931 0.997488 0.00684848
-0.0796448 -0.0457055 0.995775 0
-0.0727675 -0.0406892 0.996519 0
-0.0601597 -0.043069 0.997259 0
-0.0583312 -0.042694 0.997384 0
-0.011058 -0.0256338 0.99961 0.0137263
-0.00614492 -0.0316913 0.999479 0.00336682
-0.00508766 -0.0314389 0.999493 0.00680206
-0.00334849 -0.036693 0.999321 0.00593934
-0.00173459 -0.0327343 0.999463 0.00978364
0.00228203 -0.0376926 0.999287 0
0.00781068 -0.0314691 0.999474 0
0.00780361 -0.0310136 0.999488 0.0029702
0.00708309 -0.0286844 0.999563 0.00236803
0.00924167 -0.0391833 0.999189 0
0.00829565 -0.0349083 0.999356 0.00309199
0.00634284 -0.0341269 0.999397 0.00394891
0.00407354 -0.0322062 0.999473 0.000852571
0.00312089 -0.0338022 0.999424 0
0.00083759 -0.0368492 0.99932 0
-0.00247199 -0.040724 0.999167 0
-0.00875523 -0.0359874 0.999314 0
-0.0102794 -0.0360788 0.999296 0
-0.016639 -0.0331836 0.999311 0
-0.0205182 -0.0321699 0.999272 0
-0.0249469 -0.0336704 0.999122 0
-0.0297248 -0.0338492 0.998985 0
-0.0343674 -0.0308754 0.998932 0
-0.0380308 -0.0297279 0.998834 0.00103129
-0.0411308 -0.0307935 0.998679 0
-0.0448008 -0.030049 0.998544 0
-0.0473793 -0.0285327 0.998469 0.00540311
-0.0543144 -0.0251277 0.998208 0.00420242
-0.0565812 -0.0226499 0.998141 0.00994853
-0.0596007 -0.0225977 0.997966 0.00860368
-0.0627598 -0.0234228 0.997754 0.0100235
-0.064153 -0.025252 0.997621 0.00646447
-0.0801029 -0.0397938 0.995992 0
-0.0681104 -0.0393617 0.996901 0
-0.0576961 -0.040339 0.997519 0
-0.00802427 -0.0305683 0.9995 0.00594218
-0.00367257 -0.0356373 0.999358 0
-0.00256033 -0.0342509 0.99941 0.00389401
-0.00148975 -0.036385 0.999337 0
0.0020154 -0.0391618 0.999231 0
0.00827245 -0.0435156 0.999019 0
0.00974346 -0.0338573 0.999379 0
0.00811482 -0.0320328 0.999454 0
0.006894 -0.0399518 0.999178 0
0.00673389 -0.0369509 0.999294 0
0.00647034 -0.0344814 0.999384 0.000632207
