# .PCD v0.7 - Point Cloud Data file format
VERSION 0.7
FIELDS x y z
SIZE 4 4 4
TYPE F F F
COUNT 1 1 1
WIDTH 1334
HEIGHT 1
VIEWPOINT 0 0 0 1 0 0 0
POINTS 1334
DATA ascii
-0.080297433 0.11170585 -0.22687557
-0.080102757 0.11172324 -0.22689401
-0.079888999 0.11169934 -0.2268647
-0.0797114 0.11170421 -0.2268502
-0.079530001 0.111716 -0.22684
-0.079369001 0.111741 -0.226823
-0.079117 0.11170533 -0.22681068
-0.078910336 0.111747 -0.22682466
-0.078680433 0.11173613 -0.22684114
-0.078490101 0.1117007 -0.22685429
-0.078365199 0.11171339 -0.2268538
-0.078105003 0.11169367 -0.22687668
-0.077659003 0.111736 -0.226806
-0.077446997 0.1117905 -0.22681651
-0.086709 0.11181501 -0.226974
-0.086505249 0.11182075 -0.22696351
-0.086355001 0.11188734 -0.22696501
-0.085903332 0.11190356 -0.226886
-0.085698999 0.11193167 -0.22683333
-0.085523665 0.111944 -0.22681266
-0.085235998 0.111998 -0.22680201
-0.084249496 0.111958 -0.22680351
-0.084070995 0.1119545 -0.2268225
-0.083895996 0.111942 -0.22681201
-0.083483003 0.111997 -0.226804
-0.082668498 0.11196201 -0.22681549
-0.082512997 0.11192217 -0.226843
-0.082330666 0.11187766 -0.22684801
-0.082195997 0.1119145 -0.22690901
-0.081845 0.111904 -0.226881
-0.081479102 0.1119044 -0.22688131
-0.081227332 0.11190566 -0.22687566
-0.080969997 0.11189 -0.226852
-0.080703326 0.11188033 -0.22687767
-0.080498546 0.11188488 -0.22691554
-0.080321208 0.11191499 -0.22694559
-0.08010333 0.11190517 -0.22696368
-0.079876505 0.111894 -0.2269655
-0.0796808 0.11190619 -0.2269506
-0.079517327 0.11191222 -0.2269439
-0.079359002 0.11189733 -0.22690733
-0.079091333 0.11188533 -0.226891
-0.078924201 0.1118928 -0.22689641
-0.078725249 0.11190975 -0.226919
-0.078516006 0.11189963 -0.22692226
-0.078359753 0.11189125 -0.22693124
-0.078093499 0.1118865 -0.2269575
-0.077650003 0.11189034 -0.22687133
-0.077504203 0.1118917 -0.226873
-0.077297837 0.11189916 -0.22684133
-0.076863497 0.111951 -0.2268315
-0.076673001 0.111984 -0.226831
-0.076508872 0.11193614 -0.22683588
-0.076294497 0.11194324 -0.226853
-0.076115996 0.11189383 -0.22683434
-0.07590466 0.111945 -0.22684167
-0.075635999 0.111999 -0.226809
-0.059347 0.111934 -0.226862
-0.08585 0.112058 -0.2269745
-0.085672498 0.11207775 -0.22692502
-0.085511893 0.112105 -0.22692376
-0.085311599 0.1120954 -0.22685719
-0.084967494 0.1120985 -0.226835
-0.084606998 0.112122 -0.226831
-0.084478006 0.1121334 -0.22685421
-0.084334373 0.1121225 -0.22686912
-0.084105223 0.11211167 -0.22689711
-0.083885826 0.11209884 -0.22689249
-0.083705001 0.11209033 -0.22686951
-0.083541796 0.11209519 -0.22686961
-0.083307996 0.1120995 -0.22685301
-0.082982495 0.1120825 -0.226843
-0.082692429 0.11209671 -0.22688517
-0.082508281 0.11209714 -0.22694413
-0.082384005 0.1120725 -0.226927
-0.08219 0.11203 -0.226953
-0.081836998 0.112023 -0.226953
-0.081516996 0.1120496 -0.22695939
-0.081277333 0.11208666 -0.22694801
-0.080956995 0.1120865 -0.22695899
-0.080692999 0.112036 -0.226959
-0.080495499 0.112033 -0.22699
-0.080357999 0.11202399 -0.22699051
-0.080011003 0.112013 -0.22699
-0.079348996 0.112056 -0.22699399
-0.079065003 0.11206634 -0.22698033
-0.078906998 0.112033 -0.226971
-0.078717999 0.1120245 -0.22696599
-0.078508504 0.11201724 -0.226982
-0.078380004 0.112012 -0.226992
-0.077637494 0.112085 -0.226973
-0.077465333 0.1120565 -0.22695799
-0.077277005 0.11208637 -0.2269405
-0.076853 0.11210901 -0.226918
-0.076664999 0.1121035 -0.226905
-0.07649862 0.112093 -0.22691999
-0.076307125 0.11210975 -0.2269375
-0.076126002 0.1121008 -0.22693841
-0.075906627 0.11209299 -0.22692248
-0.075699992 0.11211266 -0.22689418
-0.075516596 0.1120892 -0.226863
-0.075218 0.112122 -0.226823
-0.075063497 0.112193 -0.22685051
-0.074889004 0.112186 -0.226826
-0.074710995 0.1121755 -0.22682449
-0.074491501 0.112166 -0.226827
-0.074260503 0.112153 -0.22682801
-0.059486799 0.1121022 -0.22686021
-0.085288502 0.1122365 -0.22693899
-0.084956497 0.1122575 -0.226934
-0.084601 0.112202 -0.226889
-0.084506333 0.11228299 -0.22696833
-0.084359005 0.1122725 -0.22695899
-0.084004998 0.112264 -0.22698601
-0.083833002 0.112257 -0.22698499
-0.083692998 0.1122535 -0.2269915
-0.083520502 0.11224 -0.226973
-0.0832965 0.1122595 -0.22695801
-0.0829705 0.1122445 -0.22695199
-0.082740501 0.1122035 -0.22695249
-0.076844998 0.112228 -0.226988
-0.076655999 0.112226 -0.226997
-0.076499999 0.11221299 -0.22699267
-0.075662002 0.11224499 -0.2269775
-0.075476669 0.11225667 -0.22696365
-0.075208001 0.112247 -0.22692099
-0.07505475 0.11231476 -0.2269305
-0.07488025 0.1123085 -0.2269125
-0.074702755 0.11229675 -0.2268995
-0.074568003 0.1122925 -0.22691301
-0.074300505 0.1122765 -0.226905
-0.074083202 0.11229379 -0.2269198
-0.073928401 0.1123122 -0.22687981
-0.073737249 0.11231676 -0.2268645
-0.0735135 0.11233725 -0.22684874
-0.073298499 0.112393 -0.226823
-0.073190004 0.11239 -0.226815
-0.059558 0.112237 -0.226879
-0.074827 0.112426 -0.226987
-0.074736997 0.112423 -0.226999
-0.074560001 0.112414 -0.22699399
-0.074390002 0.1124 -0.226972
-0.073726505 0.1124445 -0.2269765
-0.073487662 0.11244584 -0.22692633
-0.073316835 0.11249667 -0.2269215
-0.073121995 0.11249501 -0.22688633
-0.072911993 0.1125365 -0.226899
-0.072646998 0.112521 -0.22686
-0.072456501 0.112472 -0.22685799
-0.072255 0.1125206 -0.22690061
-0.072112605 0.1125128 -0.226859
-0.071920998 0.1125185 -0.22684275
-0.071780004 0.112552 -0.22684801
-0.072904006 0.112624 -0.22698501
-0.072640002 0.112607 -0.22693799
-0.072444998 0.112604 -0.226999
-0.072047003 0.112663 -0.226998
-0.071911 0.1126445 -0.2269475
-0.071687505 0.112628 -0.226895
-0.071482994 0.112668 -0.226888
-0.071284994 0.11271125 -0.22687
-0.071167 0.11271767 -0.22686434
-0.070943996 0.112727 -0.226842
-0.070757002 0.112722 -0.226834
-0.070465997 0.112673 -0.22685
-0.070305206 0.11270519 -0.226895
-0.070140198 0.11271501 -0.22689521
-0.069826998 0.112726 -0.2268815
-0.069631502 0.1127015 -0.226834
-0.069519505 0.11273549 -0.2268285
-0.069306999 0.112758 -0.2268115
-0.069137998 0.11279 -0.22683901
-0.068607002 0.112763 -0.22680201
-0.068478331 0.112767 -0.22685367
-0.068297252 0.11275225 -0.22684801
-0.067584001 0.112792 -0.226815
-0.066184998 0.112799 -0.22682001
-0.071143501 0.1128335 -0.226979
-0.070935003 0.112819 -0.226953
-0.070748001 0.112813 -0.226944
-0.069622003 0.112827 -0.22693101
-0.069512501 0.112821 -0.22690299
-0.069297999 0.1128485 -0.22691751
-0.0690865 0.1128775 -0.22693151
-0.068921335 0.11289233 -0.226918
-0.068737 0.1128615 -0.22691199
-0.0685056 0.11287 -0.22693798
-0.068319999 0.11284434 -0.22694667
-0.068196997 0.112829 -0.22691301
-0.067339003 0.112852 -0.22681101
-0.066744 0.112868 -0.226842
-0.066481002 0.11284339 -0.22688279
-0.066341996 0.112871 -0.226888
-0.066091247 0.11291724 -0.22689027
-0.065924004 0.112939 -0.22684599
-0.065747 0.11293 -0.226835
-0.064727753 0.084358752 -0.22676575
-0.064484 0.0843805 -0.22676349
-0.064167 0.084362 -0.22679099
-0.063449502 0.084397003 -0.2267665
-0.063322499 0.08439 -0.2267815
-0.065467663 0.084553003 -0.22676165
-0.065287836 0.084530003 -0.22676815
-0.065121658 0.084485672 -0.226767
-0.064847998 0.084473334 -0.226735
-0.064724751 0.084501505 -0.22670573
-0.064482249 0.084488496 -0.22670875
-0.064400002 0.084588997 -0.226659
-0.064119667 0.08450117 -0.22673585
-0.063959002 0.084541671 -0.22676401
-0.063505001 0.08449243 -0.22673701
-0.063296601 0.084489003 -0.22674799
-0.063067749 0.084519997 -0.22676301
-0.062831998 0.084576003 -0.226768
-0.062702 0.084568501 -0.22678301
-0.066638 0.084779002 -0.2267895
-0.066467665 0.084744669 -0.22677834
-0.066375002 0.084738337 -0.22678368
-0.066161998 0.084752001 -0.22679099
-0.065977 0.084744997 -0.22679199
-0.065743797 0.084714994 -0.22676602
-0.065490998 0.084721327 -0.22670299
-0.065284334 0.084708452 -0.22669345
-0.065117665 0.084700339 -0.22667801
-0.064843334 0.084686339 -0.22665733
-0.06472034 0.084679998 -0.22664966
-0.064557664 0.084673665 -0.22665334
-0.064397998 0.084695503 -0.2266255
-0.064114667 0.084714495 -0.22666335
-0.063941836 0.084707998 -0.22669868
-0.063488215 0.084685557 -0.22666144
-0.063316494 0.084674679 -0.22667919
-0.063126996 0.084680602 -0.22668299
-0.062829666 0.084717996 -0.22670233
-0.062698998 0.084710993 -0.22672534
-0.062517099 0.084716603 -0.2267603
-0.0623805 0.084727496 -0.226778
-0.067201003 0.084948003 -0.22679199
-0.067057662 0.084917665 -0.226777
-0.066899747 0.084899254 -0.226778
-0.06669528 0.084912717 -0.22674786
-0.066516548 0.084921092 -0.22674793
-0.066360332 0.084903337 -0.22673549
-0.066157661 0.084893666 -0.22676367
-0.065927334 0.084883176 -0.22676764
-0.065757401 0.084887601 -0.22671381
-0.065486498 0.0848995 -0.22664601
-0.065288626 0.084913626 -0.22662988
-0.065113999 0.084878504 -0.22661451
-0.064839996 0.084827997 -0.226605
-0.064677998 0.084818996 -0.22660901
-0.064553998 0.084815003 -0.226611
-0.06408675 0.084907755 -0.22661674
-0.063936502 0.084921159 -0.22663534
-0.063518494 0.084866002 -0.22661325
-0.063313499 0.084818497 -0.2266155
-0.063076667 0.084830321 -0.22663133
-0.062826499 0.084896505 -0.226623
-0.062687196 0.084910408 -0.22664201
-0.062507831 0.084916241 -0.22668834
-0.062321 0.084917404 -0.22673321
-0.067457005 0.085125498 -0.22678249
-0.0672765 0.085129999 -0.2267665
-0.067110665 0.085086666 -0.22673801
-0.066895172 0.085077338 -0.22672366
-0.066706501 0.0851015 -0.22668526
-0.066508196 0.085113503 -0.22669229
-0.066354506 0.085116506 -0.22668482
-0.066150993 0.085106336 -0.22673465
-0.065921493 0.085096501 -0.22671084
-0.065743662 0.085086167 -0.22665232
-0.065509669 0.085031666 -0.22662033
-0.062510252 0.085103504 -0.22662474
-0.062301997 0.085115165 -0.22668816
-0.067634806 0.085313395 -0.22677179
-0.067478001 0.085308403 -0.22674879
-0.067303255 0.085326746 -0.22671749
-0.06710422 0.085299216 -0.22669435
-0.066888995 0.085290007 -0.22667767
-0.066701166 0.085279167 -0.22665334
-0.066524096 0.085284904 -0.22665492
-0.066341594 0.085314199 -0.22666518
-0.066145003 0.08531934 -0.22668099
-0.065916993 0.085310005 -0.22663666
-0.065754332 0.085252337 -0.22660701
-0.062528998 0.085202001 -0.22661
-0.062261999 0.085308999 -0.2266655
-0.061860003 0.085340001 -0.226788
-0.068035997 0.085561998 -0.22678301
-0.067868002 0.085519001 -0.226786
-0.067728832 0.08547616 -0.22675334
-0.067526557 0.08549121 -0.22671522
-0.067317203 0.085509002 -0.2266798
-0.067097552 0.085512005 -0.22666001
-0.066881992 0.085502662 -0.22664499
-0.0666935 0.085491173 -0.22663634
-0.066514097 0.085476726 -0.22663847
-0.066343002 0.085470244 -0.22663501
-0.066141002 0.085497499 -0.2266165
-0.062219001 0.085501507 -0.226687
-0.061856668 0.085517325 -0.22672002
-0.06148167 0.085534163 -0.22678185
-0.061365999 0.085560001 -0.226777
-0.068460666 0.085749991 -0.2267925
-0.068295002 0.085748501 -0.226779
-0.068031996 0.085702658 -0.22673933
-0.067864001 0.085695334 -0.22672433
-0.067722335 0.085688658 -0.22671467
-0.067518167 0.085679494 -0.22667311
-0.067337595 0.085680597 -0.226649
-0.067090563 0.085723668 -0.22663122
-0.066875331 0.08571434 -0.22661416
-0.066702001 0.085655995 -0.22661667
-0.066528328 0.085625671 -0.22661799
-0.062213331 0.08567933 -0.22666366
-0.061852001 0.085695997 -0.2266645
-0.061476443 0.085711442 -0.22673967
-0.061361331 0.085702002 -0.226758
-0.068688832 0.085878998 -0.22677352
-0.068492562 0.085893884 -0.22676434
-0.068290003 0.085926332 -0.22674
-0.068025336 0.085915335 -0.22670901
-0.067856997 0.085908003 -0.22668934
-0.067716002 0.085901499 -0.22667234
-0.067511074 0.085891753 -0.22664815
-0.067304999 0.085877202 -0.22662921
-0.067086332 0.085866004 -0.22660601
-0.062206998 0.085891336 -0.22662133
-0.061848499 0.085838005 -0.22661999
-0.061463747 0.085914373 -0.22669388
-0.061323248 0.085929751 -0.226732
-0.069378003 0.086194001 -0.22679099
-0.068681337 0.086091004 -0.2267565
-0.06850411 0.086083554 -0.22674131
-0.0683522 0.086087801 -0.2267144
-0.068019331 0.086128332 -0.22666033
-0.067849331 0.086119331 -0.22667234
-0.067708828 0.086113162 -0.22664969
-0.067503169 0.086102925 -0.226641
-0.067310497 0.086089842 -0.22661351
-0.067164995 0.086081333 -0.22660667
-0.061463628 0.08610075 -0.226675
-0.061286498 0.086122997 -0.22671498
-0.069345996 0.086298503 -0.22678724
-0.068674333 0.086303495 -0.2267295
-0.068496332 0.086295001 -0.22673266
-0.068333663 0.086284667 -0.2267025
-0.068012506 0.086303994 -0.2266535
-0.067843005 0.086297005 -0.2266615
-0.067700833 0.086324334 -0.22664167
-0.067495085 0.08631476 -0.22663234
-0.067270756 0.086281247 -0.22661325
-0.061486829 0.086281665 -0.22665834
-0.061319832 0.086302161 -0.22667964
-0.069641002 0.086496003 -0.22679999
-0.069415003 0.086553 -0.226797
-0.069324858 0.086483561 -0.22678301
-0.068666331 0.086515002 -0.22672033
-0.068488777 0.086506993 -0.22671379
-0.068325996 0.086496167 -0.22669268
-0.068006001 0.086480342 -0.22665066
-0.067836665 0.086472668 -0.22665167
-0.067693755 0.086501248 -0.22664174
-0.067485094 0.086519636 -0.22662245
-0.067229666 0.086508669 -0.22661202
-0.061468251 0.086473502 -0.2266155
-0.061314225 0.086478554 -0.22665766
-0.069409333 0.086692996 -0.22679865
-0.069316857 0.086695857 -0.22677685
-0.068658166 0.08672633 -0.2267205
-0.06848067 0.086718105 -0.22671133
-0.068317667 0.086707674 -0.22668968
-0.068000004 0.086621001 -0.22666
-0.067895204 0.086701594 -0.2266566
-0.06768734 0.086677998 -0.226632
-0.067483887 0.086691886 -0.22661611
-0.067224003 0.086649001 -0.226603
-0.061473999 0.086670995 -0.2266075
-0.061296877 0.086682245 -0.22665174
-0.069308721 0.086886868 -0.22678927
-0.068650998 0.086903252 -0.22672425
-0.068465427 0.086909577 -0.22671315
-0.068309337 0.086919338 -0.22669582
-0.067904003 0.086899668 -0.22665916
-0.067678832 0.086889327 -0.226633
-0.067498773 0.086881012 -0.22663856
-0.067395665 0.086874999 -0.226614
-0.061434999 0.086984999 -0.226606
-0.061351001 0.086870998 -0.226603
-0.061197001 0.08689633 -0.22669733
-0.069281287 0.087117709 -0.22679372
-0.068653397 0.087065801 -0.226715
-0.068486892 0.087088116 -0.22671312
-0.068290196 0.087115601 -0.22670081
-0.067895502 0.087111495 -0.22666915
-0.067670666 0.087100498 -0.22663336
-0.067490779 0.08709234 -0.22663344
-0.067341752 0.087100498 -0.22660826
-0.061313003 0.087117665 -0.22660565
-0.061189666 0.087108999 -0.22667301
-0.069365203 0.087312594 -0.22678979
-0.068677999 0.087292671 -0.22673666
-0.06849125 0.087284423 -0.22672814
-0.068305597 0.087287202 -0.2266998
-0.067904197 0.087310001 -0.226675
-0.067681141 0.087323003 -0.22665258
-0.067481995 0.087303877 -0.226639
-0.067334749 0.087276995 -0.22661175
-0.067197502 0.08732 -0.22661501
-0.061306499 0.087293997 -0.226601
-0.061180666 0.087321661 -0.226685
-0.068669997 0.087503999 -0.22674032
-0.068511337 0.087497883 -0.22673978
-0.068323001 0.087485775 -0.22671311
-0.067963496 0.087503001 -0.226702
-0.067717336 0.087502994 -0.22667401
-0.067495994 0.087523274 -0.22665143
-0.067344509 0.087506831 -0.22661783
-0.067157201 0.087507397 -0.22661781
-0.061296001 0.087540999 -0.226602
-0.061173499 0.087497994 -0.22668099
-0.068660669 0.087715991 -0.226758
-0.068502218 0.087709777 -0.22675201
-0.068313777 0.087697551 -0.22673567
-0.067956001 0.087678999 -0.22670268
-0.067751206 0.0876844 -0.22668998
-0.067490399 0.087714292 -0.2266622
-0.067335337 0.087719001 -0.2266355
-0.06712243 0.087714143 -0.22661886
-0.06129 0.087683 -0.22661465
-0.06116667 0.087675005 -0.22669132
-0.068651341 0.087927334 -0.226777
-0.068493783 0.087921225 -0.22675923
-0.06830433 0.087909214 -0.22675377
-0.067947 0.087890327 -0.22671968
-0.067733832 0.087880827 -0.22669949
-0.067495801 0.087884299 -0.2266777
-0.067321397 0.087915398 -0.2266582
-0.067100503 0.087907001 -0.22662887
-0.066917755 0.087960258 -0.22661424
-0.061448999 0.087982997 -0.226605
-0.06131075 0.087915003 -0.22660825
-0.061157331 0.087886333 -0.22670366
-0.068644002 0.088102996 -0.226785
-0.068476282 0.088111997 -0.22677501
-0.068307623 0.088113002 -0.22676601
-0.0682 0.088184997 -0.226759
-0.067938 0.088103332 -0.226741
-0.067724496 0.088093497 -0.22671749
-0.06749741 0.088075697 -0.22669308
-0.06734629 0.088093713 -0.22665985
-0.067115597 0.0881138 -0.22665279
-0.066910893 0.088119112 -0.22662677
-0.061443333 0.088123344 -0.226611
-0.061355401 0.088098206 -0.22661701
-0.061149668 0.088099666 -0.22669201
-0.068638504 0.088245496 -0.22679201
-0.068486124 0.088283628 -0.22678837
-0.068334505 0.088301003 -0.22677274
-0.068193994 0.088325672 -0.22677
-0.067929 0.08831466 -0.22675
-0.067715503 0.088304669 -0.22673683
-0.067498773 0.088294223 -0.2267123
-0.067337997 0.088285774 -0.22668022
-0.067123599 0.088284396 -0.2266818
-0.066891424 0.088310711 -0.22662728
-0.066684999 0.0883338 -0.226613
-0.061435498 0.088300496 -0.2266275
-0.061322715 0.088333569 -0.22661772
-0.06114167 0.088311672 -0.22668867
-0.068493165 0.088464171 -0.22679466
-0.068314247 0.088460006 -0.22678126
-0.068186499 0.088502496 -0.226788
-0.067919999 0.088526666 -0.22676234
-0.067706503 0.088516831 -0.22675283
-0.067489773 0.088506006 -0.22672234
-0.067329004 0.088497102 -0.22669776
-0.067107663 0.088481329 -0.22668983
-0.066905499 0.08848162 -0.22665724
-0.066657402 0.088516004 -0.22662139
-0.066462591 0.088536002 -0.2266084
-0.061427999 0.088477671 -0.22663467
-0.061315339 0.08849933 -0.22662733
-0.061131999 0.088523664 -0.22671233
-0.068179667 0.088678665 -0.22679199
-0.067913502 0.088703007 -0.226761
-0.067688599 0.088713989 -0.22676781
-0.067480549 0.088718221 -0.22674356
-0.067319334 0.088709332 -0.22672367
-0.067097671 0.088693827 -0.22672033
-0.066897005 0.088675879 -0.22667788
-0.066691667 0.088697493 -0.22664516
-0.066464506 0.088697664 -0.22661467
-0.066354662 0.088726342 -0.22661066
-0.061418999 0.088690005 -0.22664601
-0.061307225 0.08867678 -0.2266518
-0.061124001 0.088700995 -0.226742
-0.067905001 0.088878669 -0.22678767
-0.067699395 0.088883802 -0.2267832
-0.067470573 0.088909432 -0.22676742
-0.06731011 0.088921003 -0.22673909
-0.067089006 0.088905007 -0.22672834
-0.0669185 0.088896997 -0.22670166
-0.0667115 0.088878505 -0.22666788
-0.066478558 0.088875331 -0.22664244
-0.0663248 0.088923 -0.22662358
-0.066177003 0.088926665 -0.22661102
-0.061410666 0.088901997 -0.22664566
-0.061298445 0.088888004 -0.22665922
-0.061115667 0.088877343 -0.22676533
-0.067899004 0.089019999 -0.226796
-0.067673802 0.089067198 -0.22679301
-0.067465998 0.089081123 -0.22677888
-0.067294143 0.089112572 -0.22675546
-0.06708017 0.089116998 -0.22674115
-0.066910006 0.089109004 -0.22670799
-0.066738501 0.089100994 -0.22668834
-0.066513889 0.089088663 -0.2266611
-0.066312753 0.089078002 -0.2266335
-0.066168994 0.089103997 -0.22663149
-0.065999001 0.089130998 -0.226602
-0.061403498 0.089079 -0.226661
-0.061299801 0.089109108 -0.2266856
-0.061107665 0.089090668 -0.22675399
-0.0676305 0.089255005 -0.22679099
-0.067465 0.089298747 -0.22679549
-0.067327268 0.089283817 -0.22677737
-0.067063607 0.089315005 -0.22675161
-0.066900164 0.089320995 -0.22673066
-0.066729836 0.089313835 -0.22669685
-0.066505104 0.089300662 -0.22667477
-0.066303581 0.089289583 -0.22665466
-0.066161998 0.089279659 -0.22663467
-0.065945253 0.089288749 -0.22662126
-0.065715 0.089330003 -0.226602
-0.061307911 0.089316078 -0.22669916
-0.061097998 0.089302003 -0.226779
-0.06745775 0.089474753 -0.22679925
-0.067258827 0.089483835 -0.22678483
-0.067073002 0.08948461 -0.2267528
-0.066893496 0.089497499 -0.22673525
-0.066720165 0.089525998 -0.22671901
-0.066495672 0.089512557 -0.22669601
-0.066294581 0.089501165 -0.2266677
-0.066152334 0.089491002 -0.22665833
-0.065937497 0.089464746 -0.22663699
-0.065707855 0.089491569 -0.22661784
-0.065385997 0.089564994 -0.22660899
-0.061292086 0.089521363 -0.22670089
-0.061092 0.089445002 -0.226798
-0.067432001 0.089631997 -0.22679999
-0.067261003 0.089649342 -0.22678433
-0.067036249 0.089664005 -0.2267825
-0.066885166 0.089674331 -0.22676133
-0.066713251 0.089702003 -0.2267285
-0.06648656 0.089724109 -0.22671421
-0.066285089 0.089713596 -0.22668892
-0.066142999 0.089703999 -0.22668235
-0.065973669 0.08969634 -0.22666134
-0.065699443 0.08968278 -0.22663222
-0.065522999 0.089602001 -0.226602
-0.06538 0.089705005 -0.22662249
-0.061301444 0.089695439 -0.2267198
-0.067061998 0.089848004 -0.22679766
-0.066876002 0.089886665 -0.22678049
-0.066705339 0.089878671 -0.22674465
-0.066478997 0.089900665 -0.22672801
-0.066296123 0.089917876 -0.22671138
-0.066165328 0.089916833 -0.22668785
-0.065964334 0.089908332 -0.22667766
-0.065701999 0.089886621 -0.22665
-0.065532498 0.089902759 -0.22663151
-0.065373003 0.089882672 -0.22662967
-0.065086998 0.089933001 -0.22660799
-0.061686501 0.089936495 -0.22663501
-0.061300803 0.089877091 -0.22674219
-0.061195999 0.089911997 -0.226748
-0.066859402 0.090084001 -0.2267874
-0.066696003 0.090091012 -0.22676551
-0.066492856 0.090068713 -0.22673829
-0.066324107 0.090094998 -0.22672513
-0.066151001 0.090115204 -0.226697
-0.065955333 0.090121001 -0.22669066
-0.065726668 0.090110503 -0.22666566
-0.06554617 0.090098828 -0.22665316
-0.065324001 0.090091497 -0.22663
-0.065144248 0.090096749 -0.22660874
-0.061677996 0.090114661 -0.22665866
-0.061303776 0.090097219 -0.22673923
-0.061188001 0.090088993 -0.22677167
-0.066818506 0.090273499 -0.22679749
-0.066678204 0.090288796 -0.22677679
-0.066499002 0.090291165 -0.22675699
-0.066312745 0.090282671 -0.22674219
-0.066155598 0.090285003 -0.2267122
-0.065947503 0.090296999 -0.226706
-0.065717675 0.090322666 -0.22667634
-0.065537162 0.090310998 -0.22666682
-0.065355666 0.090306669 -0.22663666
-0.06513533 0.090291001 -0.22661665
-0.064961337 0.090328999 -0.22660367
-0.062033001 0.090342 -0.226601
-0.061670002 0.090326667 -0.22665834
-0.061295331 0.090309888 -0.22674131
-0.061179999 0.090301 -0.22676666
-0.066653751 0.090530999 -0.22678775
-0.066490002 0.090503164 -0.22676833
-0.066304006 0.090494834 -0.22675127
-0.066141002 0.09048266 -0.22672784
-0.065940998 0.090473674 -0.22669999
-0.065710753 0.090498999 -0.226679
-0.065528505 0.090522826 -0.22667933
-0.065346666 0.090518661 -0.22665167
-0.065126114 0.090503 -0.22663344
-0.064938501 0.090493999 -0.22662
-0.062026665 0.090485007 -0.22661366
-0.061663002 0.090503998 -0.22666299
-0.061279126 0.090512998 -0.22676837
-0.061170999 0.090514332 -0.22678067
-0.06662 0.090796001 -0.226794
-0.066481166 0.090715669 -0.22678266
-0.066295333 0.090706743 -0.22675724
-0.066132165 0.090694837 -0.22673784
-0.06593167 0.090686001 -0.22672565
-0.065702662 0.090675674 -0.22669882
-0.065521002 0.090699494 -0.226688
-0.065338999 0.090695001 -0.226661
-0.065117665 0.090714663 -0.22663744
-0.064930327 0.090705 -0.22661901
-0.062071394 0.090713397 -0.2266212
-0.061654668 0.090680666 -0.22669034
-0.061286144 0.09068571 -0.226789
-0.061165001 0.090655997 -0.22679099
-0.066464201 0.090913199 -0.22679219
-0.066286005 0.090919167 -0.22677593
-0.066123493 0.090907 -0.22675067
-0.06592267 0.09089867 -0.22673734
-0.065693833 0.090887666 -0.22670901
-0.065513499 0.09087617 -0.22669549
-0.065331668 0.090871669 -0.22667301
-0.065101877 0.090917498 -0.22664514
-0.06492167 0.090917341 -0.22662668
-0.062305003 0.090891004 -0.226603
-0.062063597 0.090911798 -0.22662421
-0.061645668 0.090893 -0.22670268
-0.061278433 0.090878293 -0.22679557
-0.066422999 0.091103002 -0.2267925
-0.066290282 0.091092281 -0.22677772
-0.066135123 0.091130123 -0.22676577
-0.065913998 0.09111134 -0.22674966
-0.065684505 0.091100663 -0.22672665
-0.065504827 0.091088831 -0.22670417
-0.065322667 0.091084339 -0.22668535
-0.065109715 0.091090001 -0.22667113
-0.064903602 0.091115996 -0.22664699
-0.0645945 0.091077998 -0.226603
-0.064305 0.091169998 -0.226601
-0.062119998 0.091112994 -0.2266258
-0.061998002 0.091158003 -0.2266615
-0.061636332 0.091106333 -0.226725
-0.066413 0.091351002 -0.226799
-0.066297568 0.091264859 -0.22679071
-0.066135831 0.091298334 -0.22676432
-0.065903999 0.091323338 -0.22677232
-0.065676004 0.091312498 -0.22673418
-0.065496005 0.091301002 -0.22671835
-0.065314002 0.091296338 -0.22670166
-0.065093227 0.091281444 -0.22668277
-0.0649148 0.0912866 -0.2266566
-0.064525001 0.091321848 -0.22660913
-0.064298339 0.091311991 -0.22661233
-0.062275399 0.091321401 -0.226615
-0.062162399 0.091285802 -0.2266212
-0.0619925 0.091298997 -0.226652
-0.06162867 0.091317661 -0.22670966
-0.066409998 0.091421001 -0.226795
-0.066128336 0.091474995 -0.22677299
-0.065896496 0.091499999 -0.2267805
-0.065667003 0.091524839 -0.22674833
-0.065487169 0.091512837 -0.22672482
-0.065305665 0.091508329 -0.22669435
-0.065084785 0.091493219 -0.22668423
-0.064897001 0.091484003 -0.2266763
-0.064482711 0.09151201 -0.22662115
-0.064289667 0.091524005 -0.22661799
-0.062277894 0.091491006 -0.22661588
-0.0621485 0.091483176 -0.22663383
-0.061985333 0.091475666 -0.22666399
-0.061621502 0.091495 -0.2267105
-0.066119663 0.091686994 -0.22678301
-0.065889664 0.09167666 -0.226788
-0.065660253 0.0917015 -0.22674
-0.065478504 0.091724835 -0.22673351
-0.065296002 0.091720998 -0.22672333
-0.065076329 0.091705225 -0.22668798
-0.0648885 0.091696002 -0.22668082
-0.064496875 0.0916835 -0.22663064
-0.064283505 0.091700003 -0.226605
-0.06249867 0.091759332 -0.22661102
-0.062219664 0.091701664 -0.22660701
-0.062139999 0.09169551 -0.22663419
-0.061976999 0.091688335 -0.226659
-0.061614335 0.09167134 -0.22671266
-0.066130005 0.091912329 -0.22679235
-0.065881997 0.091888666 -0.22677667
-0.065652505 0.091878176 -0.22676234
-0.065471254 0.091901504 -0.226739
-0.065288499 0.091898002 -0.22673801
-0.065067664 0.09191744 -0.22669476
-0.064880006 0.091908008 -0.22668219
-0.064501576 0.091876864 -0.226639
-0.064324997 0.091892406 -0.2266176
-0.063876003 0.091994002 -0.226602
-0.062916502 0.091913 -0.226606
-0.062506497 0.091924667 -0.22661035
-0.062288728 0.091922902 -0.2266148
-0.062132001 0.091907501 -0.22662765
-0.061967999 0.091900669 -0.22668399
-0.06160767 0.091882668 -0.22668099
-0.066095747 0.092101619 -0.22679023
-0.065873004 0.092100672 -0.22678833
-0.06566675 0.092074499 -0.2267715
-0.065497123 0.092089504 -0.22675338
-0.065281339 0.09207467 -0.22673833
-0.065090999 0.0920965 -0.22670925
-0.064913116 0.092121892 -0.22669066
-0.064510167 0.09210033 -0.22663482
-0.064329162 0.092091329 -0.226624
-0.063871503 0.092101 -0.22660449
-0.063615002 0.092055 -0.226604
-0.063288331 0.092109673 -0.22660632
-0.063123003 0.092098996 -0.22660351
-0.062949002 0.092092 -0.22660901
-0.062484 0.092112668 -0.22662033
-0.062274139 0.092107847 -0.2266113
-0.062134858 0.092130288 -0.22662215
-0.061958998 0.092113338 -0.22668999
-0.061601002 0.092026003 -0.226695
-0.061595999 0.092132002 -0.226716
-0.066085666 0.092310995 -0.22679132
-0.065864332 0.092313342 -0.22679199
-0.065680668 0.092304997 -0.22675699
-0.065500446 0.092293441 -0.22675321
-0.065272667 0.092286669 -0.22674334
-0.065084502 0.092272826 -0.22670799
-0.064906165 0.092298329 -0.22669084
-0.064501829 0.092312001 -0.22663617
-0.064321004 0.092303336 -0.22662467
-0.064098001 0.092358001 -0.226601
-0.063864 0.092277341 -0.22661801
-0.063605502 0.092300996 -0.22660151
-0.063279331 0.09232267 -0.22662067
-0.062940173 0.092304669 -0.22661866
-0.062725335 0.092293344 -0.22661166
-0.062471502 0.09225975 -0.22661926
-0.062310286 0.092291579 -0.22663414
-0.062134717 0.092312567 -0.22662927
-0.061950665 0.092325665 -0.22669166
-0.061588332 0.092309333 -0.226734
-0.066091001 0.092464 -0.22679301
-0.065856002 0.092525341 -0.22679166
-0.065672003 0.09251833 -0.22677533
-0.065503374 0.092497498 -0.22676049
-0.065297753 0.092517249 -0.22674824
-0.065075673 0.092485838 -0.22671634
-0.064899117 0.092475675 -0.22669476
-0.064492993 0.092524998 -0.22664432
-0.064311996 0.092516005 -0.22663815
-0.064091675 0.092500001 -0.22660299
-0.06385567 0.092489995 -0.22661532
-0.063685 0.092410997 -0.226605
-0.063272506 0.092499003 -0.2266265
-0.063046999 0.092591003 -0.226605
-0.0629315 0.092516668 -0.22662367
-0.062714003 0.092575997 -0.226611
-0.062484335 0.092490338 -0.22661185
-0.062293667 0.092483439 -0.22664343
-0.062141001 0.092485383 -0.22664937
-0.061944 0.092501998 -0.2266835
-0.061579999 0.092521332 -0.22673367
-0.066019505 0.092709005 -0.22679999
-0.0656645 0.092694998 -0.22677501
-0.065528333 0.09272033 -0.22676633
-0.065324828 0.092711836 -0.22674984
-0.065067001 0.09269733 -0.22671467
-0.064890221 0.092687674 -0.22670402
-0.06448625 0.092701755 -0.22664049
-0.064291202 0.092713609 -0.226648
-0.06408333 0.092712007 -0.22660667
-0.063850999 0.092632003 -0.226603
-0.063672498 0.092728004 -0.226611
-0.0635885 0.092724994 -0.2266095
-0.063265003 0.092676662 -0.22662668
-0.063098997 0.092701003 -0.2266105
-0.062915795 0.092714801 -0.2266202
-0.062708668 0.092717342 -0.22661333
-0.06247583 0.092702836 -0.22661264
-0.062285557 0.092695557 -0.22663821
-0.062127002 0.092687666 -0.22664145
-0.061937999 0.092678666 -0.22666633
-0.061573997 0.092699006 -0.2267165
-0.066074334 0.092889331 -0.22679432
-0.065840498 0.092914999 -0.22679549
-0.065658003 0.092871666 -0.22676902
-0.065521248 0.092897996 -0.22676599
-0.065316334 0.092924334 -0.22674817
-0.06505917 0.092909835 -0.22670799
-0.06492617 0.092902504 -0.22669834
-0.064794995 0.092895992 -0.226686
-0.064479001 0.092877835 -0.22664334
-0.064309403 0.092883997 -0.22664741
-0.064071998 0.092993997 -0.226602
-0.063838497 0.092948005 -0.226606
-0.063698605 0.092919007 -0.2266092
-0.063581325 0.092902005 -0.22661467
-0.063257001 0.092888333 -0.22662432
-0.063038997 0.092803001 -0.226606
-0.062925205 0.092885204 -0.22662139
-0.062467501 0.092914827 -0.22661202
-0.06225986 0.092916571 -0.2266257
-0.062118992 0.092899114 -0.22663079
-0.061928999 0.092891335 -0.22667401
-0.061567664 0.092874669 -0.22670233
-0.066066332 0.09310133 -0.22679199
-0.065834001 0.093091004 -0.22678132
-0.065650001 0.093083672 -0.22677065
-0.065514661 0.093074329 -0.22675999
-0.065310501 0.093100995 -0.22672549
-0.065051995 0.093121164 -0.22668783
-0.064918004 0.093114339 -0.22669484
-0.064787336 0.093107335 -0.22666834
-0.064470336 0.093090169 -0.2266525
-0.064289667 0.093081325 -0.22663502
-0.064067498 0.093100995 -0.22660899
-0.063831329 0.093125336 -0.22660966
-0.063744999 0.093047 -0.226604
-0.063575998 0.093043998 -0.226603
-0.063249327 0.093099661 -0.22660701
-0.063024998 0.093157001 -0.226602
-0.062917396 0.093069598 -0.22663382
-0.062692001 0.093142003 -0.226605
-0.062450804 0.093113005 -0.22661841
-0.062268779 0.093120329 -0.22663856
-0.062110443 0.093112215 -0.226638
-0.061920669 0.093103327 -0.22667368
-0.061558336 0.093088001 -0.226722
-0.066084504 0.093315497 -0.22679549
-0.065824993 0.093304001 -0.226795
-0.065641336 0.093295999 -0.226772
-0.065506324 0.093286999 -0.22676183
-0.065303333 0.093277663 -0.22673483
-0.065044746 0.093298495 -0.22669125
-0.064909659 0.093326159 -0.22669216
-0.064778998 0.093318999 -0.22666867
-0.064462498 0.093302161 -0.22664517
-0.064281166 0.093293332 -0.22664034
-0.064062506 0.093242005 -0.22661
-0.063826002 0.093267001 -0.226602
-0.063650504 0.093293995 -0.226604
-0.063241005 0.093311667 -0.226604
-0.063047498 0.093371004 -0.22660649
-0.062942997 0.093261495 -0.22661099
-0.062686004 0.093283333 -0.22662199
-0.062462199 0.093283601 -0.22660621
-0.062261838 0.093296833 -0.22663499
-0.062096249 0.093315005 -0.22662914
-0.061911669 0.093317002 -0.22668767
-0.061551001 0.093299665 -0.22670698
-0.066071592 0.093513601 -0.22679479
-0.065884605 0.093532801 -0.22679201
-0.065633662 0.093508005 -0.22675566
-0.06549833 0.093499161 -0.22675149
-0.065294676 0.093489833 -0.22673233
-0.065038167 0.093474001 -0.22668399
-0.064903498 0.093502499 -0.2266835
-0.064771995 0.093495995 -0.22667
-0.064454503 0.093513839 -0.22663665
-0.064272828 0.093505502 -0.22664285
-0.064056002 0.093418002 -0.226604
-0.063232332 0.093524329 -0.22661765
-0.063092202 0.093487397 -0.2266088
-0.062851503 0.093540996 -0.226612
-0.062677674 0.093495995 -0.22661334
-0.062454801 0.093467996 -0.2266086
-0.062277332 0.093474448 -0.22662967
-0.062115248 0.093493879 -0.22663699
-0.061904669 0.093528003 -0.22666132
-0.061541665 0.093512334 -0.22672166
-0.061223 0.093505658 -0.22678865
-0.066070005 0.093704246 -0.22678798
-0.065877795 0.093716197 -0.22678638
-0.065626003 0.093719006 -0.22673666
-0.06549 0.093710668 -0.226748
-0.065286495 0.093702339 -0.22673149
-0.065035202 0.093673207 -0.2266984
-0.064910285 0.093690567 -0.22669657
-0.064764671 0.093672663 -0.226677
-0.064446002 0.093726158 -0.22663999
-0.064278401 0.093703195 -0.2266254
-0.064199999 0.093785003 -0.22663
-0.063807502 0.093725994 -0.22660351
-0.063551001 0.093680002 -0.22661369
-0.0632255 0.093700998 -0.22661701
-0.063116506 0.093694501 -0.22661251
-0.062845334 0.093716331 -0.22660333
-0.062669337 0.093708001 -0.22662167
-0.062479001 0.093764998 -0.226604
-0.062303998 0.093679249 -0.22662202
-0.062114004 0.093680084 -0.22664392
-0.0618985 0.093704 -0.22665051
-0.061533332 0.093725003 -0.22672267
-0.066062666 0.093881331 -0.22678518
-0.065904997 0.093888 -0.22678781
-0.0656185 0.093896501 -0.22674701
-0.065481998 0.093922675 -0.22674567
-0.065278329 0.093913667 -0.22672683
-0.065050006 0.093899004 -0.22666435
-0.064923003 0.093893677 -0.22668457
-0.064756997 0.093884341 -0.226659
-0.064481497 0.093906 -0.22664
-0.064359002 0.093897998 -0.2266175
-0.064194329 0.093927331 -0.22663568
-0.063802004 0.093868002 -0.22660899
-0.063798003 0.093973003 -0.226603
-0.063546002 0.093822002 -0.226604
-0.063221999 0.093806997 -0.226606
-0.062914997 0.093955666 -0.22661035
-0.062664002 0.093850002 -0.226606
-0.062473997 0.093872502 -0.226605
-0.062294148 0.093919709 -0.22661187
-0.062106088 0.093891747 -0.22663826
-0.061891001 0.093881331 -0.22665767
-0.061529003 0.093900502 -0.22667101
-0.061202999 0.093999997 -0.22679099
-0.066054836 0.094092995 -0.22678065
-0.065964997 0.094088674 -0.22679067
-0.065703996 0.094076999 -0.22675182
-0.065474749 0.094099507 -0.226744
-0.065285005 0.094111204 -0.22671258
-0.065081254 0.094132252 -0.22667551
-0.064914554 0.094105564 -0.22668822
-0.064748995 0.094096005 -0.22665267
-0.064473994 0.094082333 -0.22664367
-0.064352334 0.094074331 -0.22661549
-0.064135663 0.094087668 -0.22661801
-0.063746497 0.094146997 -0.226601
-0.062919378 0.094082877 -0.22661613
-0.062461 0.094191998 -0.226613
-0.062222332 0.094109334 -0.22661901
-0.062097996 0.094104163 -0.22663122
-0.061882332 0.094094671 -0.22667134
-0.061521668 0.094077326 -0.226671
-0.061202001 0.094071999 -0.22676501
-0.0611725 0.094137996 -0.226769
-0.066072747 0.094316877 -0.22677913
-0.065957002 0.094301336 -0.226789
-0.065714397 0.094276406 -0.22676241
-0.065487571 0.094287291 -0.22673313
-0.065332502 0.094302997 -0.2267125
-0.065097801 0.094314799 -0.22668681
-0.064906448 0.094318002 -0.22668532
-0.064740993 0.094308339 -0.226649
-0.064465664 0.094294667 -0.22664201
-0.064343669 0.094286829 -0.22661932
-0.064181 0.094280995 -0.226622
-0.062865496 0.094214 -0.226605
-0.062458999 0.094260998 -0.22661
-0.0623255 0.094361499 -0.22660249
-0.062090248 0.094315998 -0.22662206
-0.061873663 0.094307333 -0.22667134
-0.061513003 0.094289668 -0.22668464
-0.061167751 0.094244003 -0.22677851
-0.066048995 0.094528712 -0.22677687
-0.065948665 0.094513334 -0.226789
-0.065780006 0.094504662 -0.22675867
-0.065505661 0.094490781 -0.22672875
-0.065325327 0.094480671 -0.22671901
-0.065123394 0.094486795 -0.2266936
-0.064889289 0.094508715 -0.226666
-0.064732336 0.094520666 -0.22664833
-0.064458005 0.094506659 -0.22663064
-0.064373665 0.094501674 -0.226622
-0.064172663 0.094493665 -0.22662167
-0.062207498 0.094498999 -0.22660799
-0.062072299 0.094513699 -0.2266134
-0.06186533 0.094519667 -0.226667
-0.061505001 0.094502002 -0.22667335
-0.066212505 0.094706997 -0.22679999
-0.066047594 0.094689198 -0.22677879
-0.065955758 0.094742998 -0.22677326
-0.065771334 0.094717331 -0.226761
-0.065498114 0.094702668 -0.22671045
-0.065317668 0.094691999 -0.22670734
-0.065100335 0.094682992 -0.22667234
-0.064903125 0.094679624 -0.226658
-0.064726502 0.094696999 -0.22663501
-0.064450666 0.094718672 -0.22661035
-0.064365663 0.094712995 -0.22661167
-0.064164333 0.094705671 -0.22661901
-0.062443502 0.094650999 -0.2266095
-0.062204 0.094603002 -0.226603
-0.062129334 0.094673507 -0.22660834
-0.061928 0.094696753 -0.22662351
-0.06149767 0.094714008 -0.22664833
-0.061100166 0.094724 -0.22678934
-0.066222504 0.094901994 -0.22678925
-0.066052325 0.094872661 -0.22676001
-0.065966003 0.094902754 -0.226759
-0.065765001 0.094893999 -0.226744
-0.065516286 0.094906293 -0.22670843
-0.065345801 0.094919398 -0.22668262
-0.065091833 0.094895504 -0.22667301
-0.064886227 0.094881997 -0.22664112
-0.064718999 0.094874658 -0.22663601
-0.064443499 0.094895005 -0.22661051
-0.064360999 0.094853997 -0.226603
-0.064157501 0.094881997 -0.2266185
-0.062151 0.094816998 -0.226602
-0.061853666 0.094871663 -0.22662668
-0.061488997 0.094926 -0.22665733
-0.061112661 0.094914228 -0.22677189
-0.060993999 0.094977997 -0.22679999
-0.066282995 0.095099159 -0.22678234
-0.066116698 0.095105305 -0.22676651
-0.065959334 0.095079161 -0.22674601
-0.065758668 0.095069997 -0.22672999
-0.065518603 0.095114604 -0.22670579
-0.065348335 0.095117159 -0.226656
-0.065084167 0.095107011 -0.22666134
-0.064878337 0.095094338 -0.2266331
-0.064711668 0.09508533 -0.22661968
-0.064437002 0.095071003 -0.2266055
-0.061845999 0.095082663 -0.22660899
-0.0614825 0.095102996 -0.22664699
-0.061097749 0.095117003 -0.22677149
-0.060990497 0.095082998 -0.226788
-0.066437997 0.095394 -0.22679999
-0.066299997 0.095313005 -0.22678615
-0.06611409 0.095303327 -0.22676541
-0.065951668 0.095290504 -0.22673567
-0.065750331 0.095281668 -0.22672968
-0.065529801 0.095285997 -0.22670381
-0.065330602 0.095315799 -0.22668318
-0.065156668 0.095326006 -0.22666566
-0.06493701 0.095309444 -0.22663434
-0.06474933 0.09529984 -0.22662216
-0.064430997 0.095213003 -0.226606
-0.061891597 0.095284 -0.22662339
-0.061475668 0.095279671 -0.22664233
-0.061117169 0.095293999 -0.22676216
-0.066434503 0.095498502 -0.22679
-0.066291668 0.09552484 -0.22678466
-0.066106327 0.095514499 -0.22675335
-0.06594301 0.09550333 -0.22674383
-0.065742008 0.09549433 -0.22672565
-0.065513663 0.095483333 -0.22669883
-0.065342002 0.095486201 -0.2266752
-0.065150499 0.095501006 -0.22664851
-0.064929336 0.095521107 -0.22661954
-0.064765498 0.095494747 -0.22661075
-0.061828669 0.095508337 -0.22662266
-0.061467331 0.095492333 -0.22664635
-0.061091337 0.095480889 -0.22675334
-0.060973 0.095545001 -0.22679
-0.066427998 0.095674992 -0.22678833
-0.066285253 0.095701501 -0.22677624
-0.0660882 0.095712401 -0.22675118
-0.0659355 0.095714837 -0.22672451
-0.065733999 0.095706999 -0.22672267
-0.065505333 0.095695667 -0.22669315
-0.065325662 0.095683835 -0.226669
-0.065144002 0.095678002 -0.22664134
-0.064922504 0.0956975 -0.22661716
-0.064779334 0.095725663 -0.22660768
-0.061460663 0.095703334 -0.22661734
-0.061084773 0.095690995 -0.22671522
-0.060968667 0.095685005 -0.22675999
-0.06644275 0.095906503 -0.22678176
-0.066278495 0.095878161 -0.22677135
-0.066102304 0.095883898 -0.22675149
-0.065927334 0.095927171 -0.22672065
-0.065726332 0.095918 -0.22670834
-0.065498002 0.095907331 -0.22667666
-0.065317832 0.095895 -0.22665602
-0.065134995 0.095890671 -0.22665267
-0.0648918 0.095844202 -0.22661522
-0.061452001 0.095916666 -0.22662501
-0.061075337 0.095905103 -0.22673601
-0.060959999 0.095898002 -0.22676234
-0.066477142 0.096104003 -0.22678401
-0.066270672 0.096089505 -0.22675799
-0.066084661 0.096080922 -0.22673891
-0.065920249 0.096104249 -0.2267205
-0.065719001 0.096130006 -0.22669201
-0.065490164 0.096118659 -0.226662
-0.065310001 0.096106499 -0.22664984
-0.065126665 0.096102662 -0.226647
-0.064907871 0.096077129 -0.22660461
-0.064769 0.096009001 -0.226603
-0.061443001 0.096129 -0.226624
-0.061067224 0.096117891 -0.22673543
-0.060951997 0.096110664 -0.22676134
-0.066450506 0.096315168 -0.22677635
-0.066262506 0.096302159 -0.22675234
-0.066092297 0.0962869 -0.22674122
-0.065934874 0.096290126 -0.22670874
-0.065712005 0.096306995 -0.22668651
-0.065473601 0.096315794 -0.2266608
-0.065301992 0.096318506 -0.22664087
-0.065118335 0.096315004 -0.22664534
-0.064852752 0.096313745 -0.22660975
-0.061439 0.096270002 -0.226603
-0.061060853 0.096308574 -0.22671357
-0.060899567 0.096330576 -0.22676127
-0.0666565 0.096501499 -0.22679201
-0.066532254 0.096496001 -0.22678176
-0.066301219 0.096517667 -0.22675933
-0.066094339 0.096506886 -0.22673522
-0.065934226 0.096494332 -0.22670412
-0.065705664 0.096482664 -0.22667266
-0.065485001 0.096487403 -0.2266622
-0.0652854 0.096516207 -0.22663322
-0.065111667 0.096525669 -0.22661966
-0.0648688 0.096494995 -0.22660699
-0.061428502 0.096518002 -0.22660801
-0.061087798 0.096489802 -0.22671521
-0.060916334 0.09649799 -0.22673734
-0.066649668 0.096677341 -0.22678633
-0.066525333 0.096672833 -0.22678018
-0.066281997 0.096719876 -0.226748
-0.066086002 0.096719548 -0.22673267
-0.065926224 0.096706778 -0.22669832
-0.065697335 0.096695006 -0.22667634
-0.065468006 0.096684672 -0.226662
-0.065296799 0.096686602 -0.2266324
-0.065104999 0.096703 -0.22661
-0.061425 0.096623003 -0.226601
-0.061075166 0.096686669 -0.22670366
-0.060909331 0.096675001 -0.22673509
-0.066938505 0.096943006 -0.226798
-0.066642664 0.096889339 -0.22676635
-0.066517673 0.096884497 -0.22676916
-0.066341802 0.096888199 -0.2267504
-0.066100329 0.096907668 -0.22671157
-0.065917999 0.096918434 -0.22669101
-0.065689668 0.096906997 -0.22666733
-0.065460332 0.096896328 -0.22664733
-0.065303996 0.096866742 -0.22661799
-0.065095998 0.096950002 -0.226603
-0.061067834 0.096898168 -0.22668566
-0.060930572 0.096878424 -0.22671656
-0.0607985 0.096920498 -0.22677401
-0.066933997 0.097050004 -0.22679999
-0.066678502 0.097104341 -0.22677666
-0.0665095 0.097096831 -0.22676182
-0.066324838 0.097084999 -0.22673585
-0.066109635 0.097080916 -0.2267181
-0.065904371 0.097119376 -0.22666276
-0.065681338 0.097119004 -0.22666033
-0.065452509 0.097107671 -0.22663532
-0.065316997 0.097098328 -0.22661966
-0.065089665 0.097091995 -0.22661133
-0.061059669 0.097111166 -0.22668499
-0.06094417 0.097100504 -0.22669166
-0.060791332 0.097098328 -0.22678767
-0.066925004 0.097296506 -0.226796
-0.066682331 0.0973415 -0.22678252
-0.066502161 0.097308166 -0.22674751
-0.066316493 0.09729749 -0.22673483
-0.066094667 0.097285666 -0.22670849
-0.065912999 0.097291283 -0.22666256
-0.065675005 0.097296 -0.226651
-0.065468252 0.097303003 -0.22661625
-0.065345198 0.0973268 -0.22661181
-0.061051328 0.097323507 -0.22668034
-0.060935002 0.097314507 -0.22670168
-0.06078333 0.097310327 -0.226771
-0.066918336 0.097473659 -0.22678733
-0.066692576 0.097510286 -0.22676928
-0.066493504 0.097521164 -0.22674716
-0.066308998 0.097508825 -0.22671717
-0.066086836 0.097498089 -0.22669834
-0.065897554 0.097482555 -0.22665602
-0.065667666 0.097472668 -0.22665566
-0.065483496 0.097498998 -0.226605
-0.065391995 0.097529002 -0.22661567
-0.061391 0.097475 -0.226606
-0.061044753 0.097500503 -0.22666951
-0.060927499 0.097526498 -0.22668749
-0.060775328 0.097523332 -0.22676533
-0.066910334 0.097685672 -0.22678234
-0.066709124 0.097681865 -0.22676787
-0.0664865 0.097698495 -0.2267465
-0.066300504 0.097721666 -0.22671767
-0.066105559 0.097712114 -0.22670357
-0.065915994 0.097697996 -0.22666879
-0.065659337 0.097685665 -0.22665133
-0.065476336 0.097676329 -0.22661133
-0.0653845 0.097705498 -0.22661799
-0.061037663 0.09767767 -0.22666933
-0.06092025 0.097703993 -0.22668926
-0.060769498 0.097698495 -0.2267455
-0.066921994 0.097915001 -0.2267832
-0.066690445 0.097884998 -0.22676311
-0.066480495 0.0978745 -0.22673149
-0.066294 0.097898751 -0.22671649
-0.066097774 0.097923785 -0.22668754
-0.065907665 0.097910672 -0.22666673
-0.065652333 0.097896002 -0.226629
-0.065468661 0.097888328 -0.22660466
-0.065378003 0.097882003 -0.22660734
-0.061029833 0.097890832 -0.22666799
-0.060913503 0.097881667 -0.226689
-0.060763001 0.097875662 -0.226731
-0.06691967 0.098113336 -0.22677267
-0.066724837 0.098100662 -0.22677483
-0.066513777 0.098087996 -0.22672711
-0.066287003 0.098075666 -0.22671217
-0.066091336 0.098100334 -0.22667967
-0.065892637 0.098114915 -0.2266559
-0.065644674 0.098107666 -0.22661601
-0.065461501 0.098065004 -0.22660351
-0.065373003 0.098024003 -0.22660699
-0.061048333 0.098106004 -0.22665299
-0.060935557 0.098095447 -0.22667034
-0.060754333 0.098089665 -0.22674167
-0.067277998 0.098204002 -0.22679999
-0.067087196 0.098308198 -0.2267888
-0.066932373 0.098317496 -0.22676289
-0.066716999 0.098312162 -0.22676682
-0.066505782 0.098300338 -0.2267219
-0.066279672 0.098286837 -0.22669584
-0.066084333 0.09827733 -0.22668144
-0.065892592 0.098299503 -0.22665361
-0.065633997 0.098390996 -0.226614
-0.065450504 0.098347999 -0.226611
-0.061039332 0.098320998 -0.22666733
-0.060927108 0.09830834 -0.2266748
-0.06074667 0.098302335 -0.22672801
-0.067094237 0.098478884 -0.22678579
-0.066939712 0.098490432 -0.22677256
-0.06670934 0.098524332 -0.22675532
-0.066497773 0.098512664 -0.22671577
-0.066271 0.09850017 -0.22669733
-0.066076003 0.09849 -0.22667688
-0.065904096 0.098476402 -0.22664042
-0.065685667 0.098511338 -0.22661901
-0.065445997 0.098453999 -0.22660901
-0.061031997 0.098497495 -0.22667199
-0.060918782 0.098521337 -0.22667199
-0.06073733 0.098516338 -0.22674167
-0.067258671 0.098699331 -0.22679533
-0.067077368 0.098691374 -0.22678825
-0.066925228 0.098681331 -0.22675644
-0.066702753 0.098700248 -0.226743
-0.066479623 0.098715253 -0.22670662
-0.066263333 0.098711334 -0.22668152
-0.066068441 0.098701447 -0.22666343
-0.065907665 0.098689333 -0.22663611
-0.06572479 0.098664403 -0.22662301
-0.061025664 0.098674335 -0.22665666
-0.060911998 0.098699175 -0.22666733
-0.060729668 0.098728329 -0.22672933
-0.067271754 0.098931 -0.22679576
-0.067077443 0.098904334 -0.22678712
-0.066916779 0.098894119 -0.22675925
-0.066697001 0.098875999 -0.22672166
-0.066511504 0.098879181 -0.22670932
-0.066275857 0.098924704 -0.22667857
-0.066060334 0.098913454 -0.22665769
-0.065899223 0.098901786 -0.22663532
-0.065716796 0.098877199 -0.22661801
-0.061017334 0.098886997 -0.22665434
-0.060904998 0.098875992 -0.22666889
-0.060722001 0.098907001 -0.2267485
-0.067502499 0.0991005 -0.22679299
-0.067278802 0.099111997 -0.22678919
-0.06707 0.099115998 -0.226772
-0.066908769 0.09910588 -0.22675143
-0.06668783 0.099089831 -0.22673732
-0.066517666 0.099080168 -0.22670299
-0.066329837 0.099081837 -0.22667401
-0.066096708 0.099127151 -0.22665288
-0.065917753 0.099116586 -0.22663356
-0.06577567 0.099107333 -0.22662599
-0.061009333 0.099100329 -0.22665066
-0.060897216 0.09908855 -0.22665834
-0.060715001 0.099085003 -0.22674198
-0.067497998 0.099206999 -0.226796
-0.067290999 0.099282399 -0.22677
-0.067061424 0.099307857 -0.22676672
-0.066901118 0.099317886 -0.2267348
-0.066680327 0.099301495 -0.22671783
-0.066510163 0.099291831 -0.22669001
-0.06633883 0.099283665 -0.22666901
-0.066124432 0.099290423 -0.22664759
-0.065911122 0.099293374 -0.22662511
-0.065767668 0.099319667 -0.22661667
-0.0610025 0.099276498 -0.22664601
-0.060899697 0.099309295 -0.22665361
-0.060706001 0.099297665 -0.226748
-0.067487665 0.099489667 -0.22678034
-0.067274168 0.099479824 -0.22676651
-0.067093596 0.099483997 -0.22675481
-0.066919804 0.099497005 -0.2267354
-0.066672668 0.099512666 -0.22670852
-0.066502161 0.099503823 -0.22667849
-0.066330664 0.099496 -0.22666848
-0.066106334 0.099480778 -0.22663587
-0.065945573 0.099484146 -0.22662842
-0.065761499 0.099495001 -0.2266095
-0.060907584 0.099518418 -0.22667058
-0.060698003 0.099510662 -0.22674768
-0.067856997 0.099723332 -0.22679067
-0.067480005 0.099702328 -0.22677167
-0.067266166 0.099691994 -0.22675951
-0.067078337 0.099680997 -0.22674634
-0.066919915 0.099681355 -0.22673336
-0.066664331 0.099725664 -0.22670467
-0.066494502 0.099715501 -0.22666831
-0.066322833 0.099707507 -0.22665767
-0.066098116 0.099693112 -0.22663456
-0.065949164 0.099686831 -0.22662999
-0.065754332 0.099673003 -0.22660899
-0.060887802 0.099717408 -0.2266815
-0.060690671 0.099723004 -0.22673066
-0.068178505 0.099914998 -0.22679549
-0.067847997 0.099936001 -0.22679999
-0.067735001 0.099962994 -0.226798
-0.067472667 0.099912666 -0.22674866
-0.067257829 0.099904507 -0.22675818
-0.06707117 0.09989199 -0.22672634
-0.06690558 0.099885993 -0.22671866
-0.066657245 0.099902496 -0.22670749
