# .PCD v0.7 - Point Cloud Data file format
VERSION 0.7
FIELDS x y z
SIZE 4 4 4
TYPE F F F
COUNT 1 1 1
WIDTH 1594
HEIGHT 1
VIEWPOINT 0 0 0 1 0 0 0
POINTS 1594
DATA ascii
-0.038475 -0.078045 -0.175967
-0.038476 -0.077967 -0.175911
-0.038475 -0.077889 -0.175869
-0.038474 -0.077814 -0.175843
-0.038473 -0.077737 -0.175814
-0.038472 -0.077661 -0.175786
-0.038471 -0.077584 -0.175762
-0.038470 -0.077508 -0.175734
-0.038469 -0.077433 -0.175715
-0.038467 -0.077359 -0.175709
-0.038464 -0.077283 -0.175705
-0.038464 -0.077206 -0.175667
-0.038464 -0.077129 -0.175610
-0.038463 -0.077054 -0.175580
-0.038462 -0.076978 -0.175564
-0.038460 -0.076903 -0.175553
-0.038458 -0.076829 -0.175543
-0.038456 -0.076753 -0.175539
-0.038454 -0.076679 -0.175535
-0.038452 -0.076605 -0.175540
-0.038449 -0.076531 -0.175544
-0.038447 -0.076457 -0.175548
-0.038444 -0.076382 -0.175562
-0.038440 -0.076310 -0.175585
-0.038436 -0.076235 -0.175617
-0.038432 -0.076163 -0.175653
-0.038429 -0.076090 -0.175681
-0.038424 -0.076017 -0.175730
-0.038418 -0.075947 -0.175812
-0.038412 -0.075875 -0.175896
-0.038403 -0.075808 -0.176045
-0.038255 -0.075863 -0.179133
-0.038253 -0.075787 -0.179131
-0.038226 -0.075733 -0.179661
-0.037149 -0.054693 -0.188563
-0.037237 -0.054773 -0.186804
-0.037238 -0.054699 -0.186732
-0.037240 -0.054625 -0.186651
-0.037240 -0.054550 -0.186589
-0.037240 -0.054473 -0.186555
-0.037239 -0.054398 -0.186516
-0.037239 -0.054321 -0.186470
-0.037239 -0.054243 -0.186428
-0.037238 -0.054166 -0.186392
-0.037237 -0.054089 -0.186371
-0.037235 -0.054009 -0.186361
-0.037233 -0.053929 -0.186351
-0.037230 -0.053849 -0.186345
-0.037228 -0.053769 -0.186345
-0.037226 -0.053689 -0.186345
-0.037223 -0.053609 -0.186349
-0.037220 -0.053527 -0.186357
-0.037217 -0.053447 -0.186360
-0.037215 -0.053365 -0.186356
-0.037212 -0.053285 -0.186370
-0.037209 -0.053203 -0.186386
-0.037206 -0.053123 -0.186386
-0.037204 -0.053043 -0.186378
-0.037202 -0.052963 -0.186376
-0.037199 -0.052881 -0.186378
-0.037196 -0.052801 -0.186391
-0.037193 -0.052716 -0.186409
-0.037190 -0.052636 -0.186417
-0.037187 -0.052554 -0.186421
-0.037184 -0.052474 -0.186431
-0.037181 -0.052392 -0.186439
-0.037178 -0.052309 -0.186449
-0.037175 -0.052227 -0.186467
-0.037172 -0.052145 -0.186477
-0.037169 -0.052065 -0.186477
-0.037166 -0.051982 -0.186501
-0.037162 -0.051900 -0.186523
-0.037158 -0.051815 -0.186543
-0.037156 -0.051735 -0.186550
-0.037153 -0.051655 -0.186544
-0.037151 -0.051573 -0.186550
-0.037147 -0.051491 -0.186562
-0.037145 -0.051411 -0.186570
-0.037142 -0.051329 -0.186576
-0.037139 -0.051247 -0.186588
-0.037136 -0.051167 -0.186592
-0.037134 -0.051085 -0.186584
-0.037132 -0.051005 -0.186582
-0.037129 -0.050925 -0.186587
-0.037127 -0.050845 -0.186583
-0.037124 -0.050765 -0.186581
-0.037122 -0.050683 -0.186583
-0.037119 -0.050603 -0.186583
-0.037116 -0.050521 -0.186591
-0.037113 -0.050438 -0.186603
-0.037110 -0.050356 -0.186613
-0.037107 -0.050274 -0.186633
-0.037103 -0.050192 -0.186647
-0.037101 -0.050110 -0.186648
-0.037099 -0.050030 -0.186644
-0.037096 -0.049950 -0.186642
-0.037094 -0.049870 -0.186638
-0.037091 -0.049788 -0.186640
-0.037088 -0.049706 -0.186648
-0.037086 -0.049626 -0.186652
-0.037084 -0.049546 -0.186640
-0.037082 -0.049466 -0.186629
-0.037080 -0.049386 -0.186629
-0.037077 -0.049304 -0.186629
-0.037075 -0.049224 -0.186623
-0.037072 -0.049142 -0.186623
-0.037069 -0.049060 -0.186635
-0.037066 -0.048980 -0.186645
-0.037063 -0.048896 -0.186655
-0.037060 -0.048813 -0.186669
-0.037056 -0.048731 -0.186691
-0.037053 -0.048647 -0.186707
-0.037051 -0.048567 -0.186707
-0.037049 -0.048487 -0.186696
-0.037047 -0.048407 -0.186688
-0.037044 -0.048325 -0.186686
-0.037042 -0.048245 -0.186688
-0.037039 -0.048165 -0.186682
-0.037037 -0.048085 -0.186672
-0.037035 -0.048005 -0.186674
-0.037032 -0.047923 -0.186681
-0.037030 -0.047843 -0.186673
-0.037028 -0.047764 -0.186661
-0.037026 -0.047684 -0.186657
-0.037023 -0.047602 -0.186663
-0.037020 -0.047520 -0.186667
-0.037017 -0.047437 -0.186673
-0.037014 -0.047355 -0.186689
-0.037011 -0.047271 -0.186705
-0.037007 -0.047188 -0.186721
-0.037004 -0.047106 -0.186733
-0.037002 -0.047024 -0.186734
-0.037000 -0.046944 -0.186728
-0.036997 -0.046864 -0.186730
-0.036995 -0.046785 -0.186724
-0.036993 -0.046705 -0.186712
-0.036990 -0.046623 -0.186714
-0.036988 -0.046543 -0.186720
-0.036985 -0.046461 -0.186722
-0.036983 -0.046381 -0.186717
-0.036980 -0.046297 -0.186721
-0.036977 -0.046217 -0.186727
-0.036976 -0.046137 -0.186709
-0.036974 -0.046059 -0.186689
-0.036972 -0.045980 -0.186685
-0.036970 -0.045898 -0.186683
-0.036967 -0.045816 -0.186687
-0.036964 -0.045735 -0.186692
-0.036962 -0.045653 -0.186692
-0.036959 -0.045571 -0.186698
-0.036956 -0.045489 -0.186700
-0.036954 -0.045409 -0.186696
-0.036952 -0.045330 -0.186692
-0.036949 -0.045248 -0.186690
-0.036947 -0.045168 -0.186686
-0.036944 -0.045086 -0.186692
-0.036941 -0.045003 -0.186700
-0.036938 -0.044921 -0.186707
-0.036936 -0.044839 -0.186709
-0.036933 -0.044759 -0.186707
-0.036931 -0.044677 -0.186715
-0.036928 -0.044595 -0.186717
-0.036926 -0.044515 -0.186713
-0.036924 -0.044436 -0.186695
-0.036922 -0.044356 -0.186683
-0.036920 -0.044276 -0.186681
-0.036917 -0.044194 -0.186682
-0.036915 -0.044114 -0.186678
-0.036912 -0.044032 -0.186682
-0.036910 -0.043950 -0.186684
-0.036907 -0.043870 -0.186678
-0.036905 -0.043790 -0.186676
-0.036902 -0.043708 -0.186678
-0.036901 -0.043628 -0.186666
-0.036898 -0.043549 -0.186661
-0.036895 -0.043466 -0.186671
-0.036893 -0.043384 -0.186675
-0.036890 -0.043304 -0.186675
-0.036887 -0.043218 -0.186695
-0.036883 -0.043133 -0.186715
-0.036880 -0.043051 -0.186717
-0.036878 -0.042972 -0.186709
-0.036877 -0.042894 -0.186695
-0.036875 -0.042814 -0.186677
-0.036873 -0.042737 -0.186666
-0.036871 -0.042655 -0.186654
-0.036869 -0.042575 -0.186658
-0.036866 -0.042493 -0.186666
-0.036863 -0.042409 -0.186670
-0.036860 -0.042326 -0.186682
-0.036857 -0.042244 -0.186682
-0.036856 -0.042167 -0.186666
-0.036853 -0.042087 -0.186664
-0.036850 -0.042003 -0.186672
-0.036848 -0.041923 -0.186669
-0.036846 -0.041841 -0.186669
-0.036844 -0.041763 -0.186649
-0.036842 -0.041683 -0.186645
-0.036838 -0.041597 -0.186671
-0.036835 -0.041512 -0.186685
-0.036832 -0.041430 -0.186687
-0.036830 -0.041351 -0.186677
-0.036828 -0.041271 -0.186671
-0.036825 -0.041189 -0.186670
-0.036824 -0.041111 -0.186658
-0.036821 -0.041029 -0.186662
-0.036818 -0.040945 -0.186674
-0.036816 -0.040865 -0.186668
-0.036813 -0.040783 -0.186670
-0.036809 -0.040698 -0.186692
-0.036806 -0.040614 -0.186700
-0.036804 -0.040535 -0.186690
-0.036802 -0.040455 -0.186684
-0.036799 -0.040373 -0.186688
-0.036798 -0.040295 -0.186673
-0.036796 -0.040215 -0.186659
-0.036793 -0.040133 -0.186667
-0.037447 -0.090301 -0.177579
-0.037444 -0.090225 -0.177582
-0.037443 -0.090148 -0.177562
-0.037441 -0.090070 -0.177546
-0.037439 -0.089994 -0.177546
-0.037437 -0.089920 -0.177545
-0.037435 -0.089841 -0.177523
-0.037434 -0.089763 -0.177507
-0.037432 -0.089687 -0.177499
-0.037431 -0.089608 -0.177471
-0.037429 -0.089530 -0.177457
-0.037427 -0.089454 -0.177456
-0.037424 -0.089382 -0.177476
-0.037421 -0.089309 -0.177490
-0.037418 -0.089233 -0.177493
-0.037416 -0.089158 -0.177485
-0.037414 -0.089083 -0.177491
-0.037411 -0.089009 -0.177507
-0.037408 -0.088935 -0.177510
-0.037406 -0.088857 -0.177498
-0.037404 -0.088781 -0.177498
-0.037401 -0.088707 -0.177504
-0.037399 -0.088631 -0.177501
-0.037397 -0.088555 -0.177499
-0.037394 -0.088481 -0.177505
-0.037392 -0.088407 -0.177513
-0.037389 -0.088331 -0.177520
-0.037389 -0.088250 -0.177472
-0.037390 -0.088166 -0.177394
-0.037389 -0.088088 -0.177374
-0.037387 -0.088012 -0.177368
-0.037385 -0.087936 -0.177362
-0.037383 -0.087861 -0.177355
-0.037380 -0.087785 -0.177353
-0.037378 -0.087710 -0.177365
-0.037374 -0.087638 -0.177391
-0.037371 -0.087564 -0.177404
-0.037368 -0.087491 -0.177426
-0.037366 -0.087415 -0.177424
-0.037364 -0.087339 -0.177416
-0.037362 -0.087262 -0.177395
-0.037360 -0.087184 -0.177387
-0.037358 -0.087110 -0.177387
-0.037355 -0.087036 -0.177393
-0.037353 -0.086962 -0.177404
-0.037350 -0.086886 -0.177410
-0.037348 -0.086810 -0.177410
-0.037346 -0.086734 -0.177396
-0.037347 -0.086651 -0.177327
-0.037346 -0.086570 -0.177285
-0.037344 -0.086494 -0.177283
-0.037342 -0.086419 -0.177277
-0.037340 -0.086343 -0.177277
-0.037337 -0.086269 -0.177284
-0.037335 -0.086194 -0.177288
-0.037332 -0.086118 -0.177288
-0.037330 -0.086042 -0.177288
-0.037327 -0.085968 -0.177301
-0.037324 -0.085896 -0.177319
-0.037323 -0.085817 -0.177285
-0.037321 -0.085741 -0.177279
-0.037320 -0.085661 -0.177251
-0.037318 -0.085585 -0.177246
-0.037315 -0.085513 -0.177266
-0.037311 -0.085439 -0.177286
-0.037309 -0.085364 -0.177295
-0.037306 -0.085290 -0.177303
-0.037304 -0.085216 -0.177309
-0.037302 -0.085139 -0.177283
-0.037302 -0.085058 -0.177243
-0.037300 -0.084982 -0.177236
-0.037298 -0.084906 -0.177228
-0.037296 -0.084830 -0.177222
-0.037294 -0.084754 -0.177220
-0.037291 -0.084680 -0.177225
-0.037288 -0.084606 -0.177237
-0.037286 -0.084530 -0.177245
-0.037283 -0.084456 -0.177249
-0.037281 -0.084380 -0.177252
-0.037278 -0.084306 -0.177254
-0.037276 -0.084230 -0.177250
-0.037274 -0.084152 -0.177240
-0.037272 -0.084078 -0.177237
-0.037270 -0.084002 -0.177241
-0.037267 -0.083928 -0.177245
-0.037265 -0.083852 -0.177243
-0.037263 -0.083776 -0.177242
-0.037260 -0.083702 -0.177250
-0.037257 -0.083628 -0.177254
-0.037256 -0.083550 -0.177240
-0.037254 -0.083474 -0.177227
-0.037253 -0.083393 -0.177189
-0.037253 -0.083316 -0.177147
-0.037251 -0.083240 -0.177143
-0.037248 -0.083164 -0.177143
-0.037247 -0.083088 -0.177134
-0.037244 -0.083012 -0.177132
-0.037242 -0.082938 -0.177138
-0.037239 -0.082862 -0.177146
-0.037236 -0.082788 -0.177153
-0.037234 -0.082714 -0.177159
-0.037233 -0.082635 -0.177121
-0.037232 -0.082557 -0.177099
-0.037230 -0.082481 -0.177093
-0.037228 -0.082406 -0.177078
-0.037226 -0.082328 -0.177068
-0.037224 -0.082252 -0.177060
-0.037222 -0.082176 -0.177054
-0.037220 -0.082102 -0.177051
-0.037218 -0.082026 -0.177055
-0.037215 -0.081950 -0.177055
-0.037215 -0.081871 -0.177015
-0.037217 -0.081789 -0.176918
-0.037216 -0.081712 -0.176894
-0.037214 -0.081636 -0.176882
-0.037212 -0.081560 -0.176878
-0.037209 -0.081484 -0.176880
-0.037207 -0.081410 -0.176877
-0.037206 -0.081333 -0.176861
-0.037206 -0.081254 -0.176815
-0.037205 -0.081177 -0.176779
-0.037203 -0.081101 -0.176780
-0.037200 -0.081025 -0.176774
-0.037199 -0.080949 -0.176760
-0.037197 -0.080873 -0.176756
-0.037195 -0.080799 -0.176753
-0.037192 -0.080723 -0.176751
-0.037190 -0.080647 -0.176753
-0.037187 -0.080573 -0.176761
-0.037185 -0.080499 -0.176768
-0.037183 -0.080423 -0.176756
-0.037184 -0.080343 -0.176690
-0.037184 -0.080264 -0.176640
-0.037182 -0.080188 -0.176616
-0.037181 -0.080111 -0.176601
-0.037179 -0.080037 -0.176595
-0.037178 -0.079959 -0.176569
-0.037177 -0.079882 -0.176537
-0.037175 -0.079806 -0.176526
-0.037173 -0.079729 -0.176512
-0.037172 -0.079653 -0.176484
-0.037172 -0.079574 -0.176444
-0.037170 -0.079500 -0.176439
-0.037168 -0.079424 -0.176433
-0.037166 -0.079349 -0.176421
-0.037164 -0.079273 -0.176409
-0.037163 -0.079196 -0.176384
-0.037162 -0.079120 -0.176362
-0.037160 -0.079044 -0.176350
-0.037158 -0.078969 -0.176340
-0.037157 -0.078891 -0.176307
-0.037161 -0.078808 -0.176185
-0.037161 -0.078729 -0.176125
-0.037160 -0.078654 -0.176103
-0.037159 -0.078577 -0.176073
-0.037158 -0.078501 -0.176052
-0.037156 -0.078425 -0.176036
-0.037155 -0.078350 -0.176012
-0.037154 -0.078273 -0.175984
-0.037153 -0.078197 -0.175961
-0.037151 -0.078121 -0.175949
-0.037149 -0.078046 -0.175939
-0.037149 -0.077969 -0.175887
-0.037150 -0.077890 -0.175832
-0.037149 -0.077813 -0.175792
-0.037148 -0.077737 -0.175772
-0.037146 -0.077661 -0.175762
-0.037144 -0.077588 -0.175747
-0.037143 -0.077512 -0.175731
-0.037141 -0.077437 -0.175713
-0.037140 -0.077361 -0.175697
-0.037139 -0.077284 -0.175660
-0.037140 -0.077205 -0.175588
-0.037140 -0.077130 -0.175552
-0.037139 -0.077053 -0.175512
-0.037137 -0.076977 -0.175501
-0.037135 -0.076903 -0.175495
-0.037133 -0.076828 -0.175493
-0.037131 -0.076755 -0.175501
-0.037128 -0.076679 -0.175498
-0.037126 -0.076606 -0.175492
-0.037124 -0.076531 -0.175500
-0.037121 -0.076457 -0.175505
-0.037119 -0.076383 -0.175513
-0.037115 -0.076309 -0.175543
-0.037111 -0.076236 -0.175579
-0.037107 -0.076163 -0.175620
-0.037101 -0.076093 -0.175702
-0.037094 -0.076023 -0.175786
-0.037087 -0.075953 -0.175902
-0.037080 -0.075883 -0.175997
-0.036894 -0.075894 -0.179851
-0.036887 -0.075822 -0.179948
-0.036883 -0.075745 -0.179996
-0.036879 -0.075671 -0.180024
-0.036876 -0.075594 -0.180046
-0.036872 -0.075520 -0.180082
-0.036604 -0.075666 -0.185729
-0.036601 -0.075588 -0.185745
-0.036597 -0.075509 -0.185773
-0.036593 -0.075431 -0.185803
-0.035704 -0.055322 -0.191423
-0.035703 -0.055241 -0.191385
-0.035701 -0.055159 -0.191379
-0.035787 -0.055154 -0.189581
-0.035783 -0.055069 -0.189611
-0.035784 -0.054995 -0.189545
-0.035787 -0.054921 -0.189440
-0.035788 -0.054845 -0.189380
-0.035787 -0.054765 -0.189350
-0.035913 -0.054764 -0.186732
-0.035913 -0.054689 -0.186683
-0.035913 -0.054613 -0.186627
-0.035914 -0.054538 -0.186563
-0.035914 -0.054463 -0.186512
-0.035915 -0.054389 -0.186448
-0.035915 -0.054314 -0.186400
-0.035913 -0.054232 -0.186390
-0.035911 -0.054154 -0.186388
-0.035909 -0.054075 -0.186363
-0.035908 -0.053997 -0.186337
-0.035906 -0.053917 -0.186329
-0.035904 -0.053838 -0.186323
-0.035902 -0.053758 -0.186321
-0.035899 -0.053678 -0.186319
-0.035897 -0.053596 -0.186324
-0.035894 -0.053515 -0.186332
-0.035891 -0.053433 -0.186342
-0.035888 -0.053353 -0.186350
-0.035885 -0.053271 -0.186354
-0.035882 -0.053191 -0.186358
-0.035880 -0.053111 -0.186358
-0.035878 -0.053029 -0.186354
-0.035875 -0.052949 -0.186356
-0.035872 -0.052869 -0.186365
-0.035869 -0.052787 -0.186379
-0.035866 -0.052704 -0.186383
-0.035864 -0.052624 -0.186387
-0.035861 -0.052542 -0.186395
-0.035858 -0.052462 -0.186405
-0.035854 -0.052378 -0.186421
-0.035851 -0.052297 -0.186435
-0.035848 -0.052215 -0.186445
-0.035845 -0.052133 -0.186463
-0.035842 -0.052051 -0.186477
-0.035839 -0.051968 -0.186487
-0.035835 -0.051886 -0.186501
-0.035832 -0.051804 -0.186514
-0.035829 -0.051722 -0.186524
-0.035827 -0.051642 -0.186520
-0.035825 -0.051562 -0.186518
-0.035822 -0.051482 -0.186516
-0.035819 -0.051400 -0.186528
-0.035816 -0.051317 -0.186544
-0.035813 -0.051235 -0.186550
-0.035811 -0.051155 -0.186550
-0.035809 -0.051075 -0.186543
-0.035806 -0.050993 -0.186537
-0.035804 -0.050913 -0.186543
-0.035801 -0.050831 -0.186551
-0.035798 -0.050751 -0.186553
-0.035795 -0.050669 -0.186557
-0.035792 -0.050587 -0.186567
-0.035789 -0.050505 -0.186583
-0.035785 -0.050422 -0.186605
-0.035782 -0.050340 -0.186615
-0.035779 -0.050258 -0.186625
-0.035776 -0.050175 -0.186635
-0.035774 -0.050095 -0.186642
-0.035771 -0.050013 -0.186642
-0.035769 -0.049934 -0.186626
-0.035768 -0.049856 -0.186614
-0.035765 -0.049774 -0.186618
-0.035762 -0.049692 -0.186628
-0.035759 -0.049610 -0.186630
-0.035757 -0.049532 -0.186618
-0.035756 -0.049452 -0.186607
-0.035753 -0.049370 -0.186605
-0.035750 -0.049290 -0.186609
-0.035748 -0.049208 -0.186611
-0.035745 -0.049128 -0.186617
-0.035742 -0.049046 -0.186625
-0.035739 -0.048964 -0.186633
-0.035736 -0.048879 -0.186653
-0.035732 -0.048797 -0.186669
-0.035730 -0.048715 -0.186671
-0.035728 -0.048637 -0.186658
-0.035726 -0.048557 -0.186648
-0.035724 -0.048478 -0.186638
-0.035722 -0.048396 -0.186636
-0.035719 -0.048314 -0.186648
-0.035715 -0.048231 -0.186662
-0.035713 -0.048149 -0.186666
-0.035710 -0.048069 -0.186674
-0.035707 -0.047987 -0.186678
-0.035705 -0.047907 -0.186673
-0.035703 -0.047827 -0.186661
-0.035701 -0.047748 -0.186655
-0.035699 -0.047666 -0.186649
-0.035696 -0.047586 -0.186643
-0.035694 -0.047506 -0.186639
-0.035692 -0.047426 -0.186639
-0.035689 -0.047344 -0.186643
-0.035686 -0.047262 -0.186650
-0.035683 -0.047180 -0.186652
-0.035681 -0.047100 -0.186654
-0.035678 -0.047017 -0.186662
-0.035675 -0.046935 -0.186664
-0.035673 -0.046855 -0.186664
-0.035670 -0.046773 -0.186670
-0.035667 -0.046691 -0.186680
-0.035665 -0.046609 -0.186680
-0.035662 -0.046529 -0.186682
-0.035660 -0.046447 -0.186677
-0.035658 -0.046367 -0.186669
-0.035655 -0.046285 -0.186679
-0.035651 -0.046201 -0.186699
-0.035649 -0.046121 -0.186693
-0.035647 -0.046041 -0.186683
-0.035644 -0.045959 -0.186683
-0.035642 -0.045879 -0.186681
-0.035640 -0.045799 -0.186681
-0.035637 -0.045717 -0.186687
-0.035634 -0.045635 -0.186688
-0.035632 -0.045553 -0.186684
-0.035629 -0.045473 -0.186684
-0.035627 -0.045393 -0.186682
-0.035624 -0.045311 -0.186686
-0.035622 -0.045229 -0.186686
-0.035620 -0.045149 -0.186680
-0.035618 -0.045070 -0.186668
-0.035615 -0.044990 -0.186669
-0.035613 -0.044908 -0.186667
-0.035611 -0.044828 -0.186659
-0.035608 -0.044746 -0.186657
-0.035606 -0.044666 -0.186659
-0.035603 -0.044584 -0.186661
-0.035600 -0.044502 -0.186667
-0.035598 -0.044422 -0.186663
-0.035596 -0.044340 -0.186659
-0.035593 -0.044258 -0.186667
-0.035590 -0.044178 -0.186672
-0.035588 -0.044096 -0.186674
-0.035585 -0.044014 -0.186674
-0.035583 -0.043932 -0.186674
-0.035580 -0.043852 -0.186672
-0.035578 -0.043772 -0.186666
-0.035576 -0.043690 -0.186664
-0.035574 -0.043612 -0.186650
-0.035573 -0.043535 -0.186629
-0.035570 -0.043453 -0.186635
-0.035566 -0.043368 -0.186655
-0.035564 -0.043286 -0.186653
-0.035561 -0.043204 -0.186659
-0.035557 -0.043120 -0.186677
-0.035554 -0.043038 -0.186687
-0.035552 -0.042958 -0.186681
-0.035550 -0.042876 -0.186673
-0.035548 -0.042796 -0.186669
-0.035546 -0.042714 -0.186663
-0.035543 -0.042634 -0.186660
-0.035541 -0.042552 -0.186666
-0.035537 -0.042468 -0.186678
-0.035534 -0.042386 -0.186690
-0.035531 -0.042301 -0.186708
-0.035529 -0.042222 -0.186702
-0.035527 -0.042144 -0.186678
-0.035526 -0.042065 -0.186660
-0.035524 -0.041985 -0.186652
-0.035522 -0.041905 -0.186643
-0.035519 -0.041823 -0.186649
-0.035515 -0.041738 -0.186677
-0.035512 -0.041654 -0.186687
-0.035510 -0.041574 -0.186679
-0.035508 -0.041495 -0.186663
-0.035506 -0.041415 -0.186665
-0.035503 -0.041332 -0.186673
-0.035500 -0.041248 -0.186677
-0.035497 -0.041166 -0.186679
-0.035494 -0.041084 -0.186689
-0.035491 -0.041002 -0.186696
-0.035489 -0.040920 -0.186700
-0.035486 -0.040838 -0.186704
-0.035483 -0.040754 -0.186714
-0.035479 -0.040669 -0.186736
-0.035477 -0.040587 -0.186730
-0.035477 -0.040514 -0.186690
-0.035475 -0.040437 -0.186666
-0.035472 -0.040352 -0.186680
-0.035469 -0.040268 -0.186702
-0.035467 -0.040188 -0.186691
-0.036596 -0.090325 -0.177408
-0.036594 -0.090250 -0.177400
-0.036592 -0.090172 -0.177394
-0.036590 -0.090098 -0.177395
-0.036587 -0.090023 -0.177411
-0.036586 -0.089942 -0.177367
-0.036587 -0.089860 -0.177305
-0.036584 -0.089786 -0.177311
-0.036581 -0.089711 -0.177322
-0.036578 -0.089637 -0.177332
-0.036576 -0.089563 -0.177340
-0.036573 -0.089489 -0.177348
-0.036570 -0.089414 -0.177365
-0.036567 -0.089342 -0.177375
-0.036565 -0.089264 -0.177365
-0.036563 -0.089189 -0.177363
-0.036561 -0.089114 -0.177370
-0.036558 -0.089039 -0.177364
-0.036556 -0.088964 -0.177370
-0.036554 -0.088889 -0.177366
-0.036552 -0.088811 -0.177345
-0.036550 -0.088733 -0.177337
-0.036548 -0.088659 -0.177349
-0.036545 -0.088587 -0.177363
-0.036542 -0.088512 -0.177374
-0.036540 -0.088437 -0.177368
-0.036538 -0.088359 -0.177358
-0.036536 -0.088283 -0.177350
-0.036536 -0.088202 -0.177300
-0.036534 -0.088124 -0.177291
-0.036532 -0.088050 -0.177291
-0.036530 -0.087974 -0.177285
-0.036527 -0.087898 -0.177291
-0.036524 -0.087826 -0.177306
-0.036521 -0.087752 -0.177318
-0.036519 -0.087676 -0.177312
-0.036517 -0.087598 -0.177302
-0.036515 -0.087522 -0.177295
-0.036514 -0.087445 -0.177277
-0.036512 -0.087367 -0.177255
-0.036510 -0.087291 -0.177251
-0.036508 -0.087217 -0.177258
-0.036505 -0.087143 -0.177266
-0.036503 -0.087067 -0.177264
-0.036500 -0.086991 -0.177266
-0.036498 -0.086917 -0.177274
-0.036495 -0.086843 -0.177283
-0.036493 -0.086767 -0.177271
-0.036492 -0.086688 -0.177233
-0.036491 -0.086608 -0.177207
-0.036491 -0.086529 -0.177172
-0.036489 -0.086452 -0.177148
-0.036487 -0.086376 -0.177146
-0.036485 -0.086300 -0.177148
-0.036482 -0.086226 -0.177154
-0.036479 -0.086151 -0.177169
-0.036476 -0.086077 -0.177179
-0.036474 -0.086003 -0.177179
-0.036474 -0.085922 -0.177133
-0.036472 -0.085845 -0.177116
-0.036469 -0.085770 -0.177126
-0.036467 -0.085694 -0.177124
-0.036465 -0.085620 -0.177124
-0.036462 -0.085546 -0.177133
-0.036460 -0.085470 -0.177135
-0.036457 -0.085396 -0.177139
-0.036455 -0.085320 -0.177141
-0.036453 -0.085244 -0.177134
-0.036451 -0.085169 -0.177122
-0.036449 -0.085091 -0.177112
-0.036447 -0.085015 -0.177104
-0.036446 -0.084937 -0.177088
-0.036444 -0.084862 -0.177079
-0.036441 -0.084788 -0.177083
-0.036438 -0.084713 -0.177097
-0.036436 -0.084637 -0.177095
-0.036434 -0.084561 -0.177090
-0.036432 -0.084487 -0.177094
-0.036429 -0.084411 -0.177098
-0.036427 -0.084334 -0.177082
-0.036426 -0.084258 -0.177063
-0.036424 -0.084180 -0.177055
-0.036421 -0.084106 -0.177059
-0.036419 -0.084032 -0.177063
-0.036417 -0.083956 -0.177060
-0.036414 -0.083880 -0.177062
-0.036412 -0.083804 -0.177060
-0.036411 -0.083729 -0.177042
-0.036409 -0.083653 -0.177035
-0.036406 -0.083577 -0.177033
-0.036405 -0.083499 -0.177015
-0.036404 -0.083422 -0.176987
-0.036402 -0.083346 -0.176977
-0.036400 -0.083268 -0.176962
-0.036398 -0.083193 -0.176958
-0.036395 -0.083118 -0.176968
-0.036393 -0.083044 -0.176972
-0.036391 -0.082969 -0.176963
-0.036389 -0.082893 -0.176963
-0.036386 -0.082818 -0.176969
-0.036385 -0.082741 -0.176947
-0.036384 -0.082662 -0.176916
-0.036382 -0.082586 -0.176902
-0.036381 -0.082510 -0.176884
-0.036379 -0.082434 -0.176878
-0.036376 -0.082358 -0.176879
-0.036374 -0.082283 -0.176873
-0.036372 -0.082209 -0.176875
-0.036369 -0.082134 -0.176885
-0.036367 -0.082058 -0.176890
-0.036366 -0.081981 -0.176864
-0.036365 -0.081902 -0.176814
-0.036365 -0.081825 -0.176784
-0.036363 -0.081749 -0.176772
-0.036361 -0.081671 -0.176753
-0.036360 -0.081594 -0.176731
-0.036358 -0.081518 -0.176723
-0.036356 -0.081442 -0.176723
-0.036353 -0.081368 -0.176726
-0.036351 -0.081294 -0.176734
-0.036349 -0.081218 -0.176728
-0.036348 -0.081139 -0.176684
-0.036347 -0.081063 -0.176673
-0.036344 -0.080987 -0.176669
-0.036342 -0.080911 -0.176663
-0.036340 -0.080838 -0.176655
-0.036338 -0.080760 -0.176647
-0.036336 -0.080686 -0.176650
-0.036334 -0.080612 -0.176648
-0.036332 -0.080534 -0.176634
-0.036331 -0.080459 -0.176616
-0.036330 -0.080379 -0.176577
-0.036330 -0.080301 -0.176523
-0.036330 -0.080224 -0.176481
-0.036329 -0.080146 -0.176453
-0.036327 -0.080071 -0.176436
-0.036325 -0.079995 -0.176438
-0.036323 -0.079921 -0.176440
-0.036321 -0.079845 -0.176426
-0.036320 -0.079768 -0.176397
-0.036319 -0.079690 -0.176375
-0.036317 -0.079614 -0.176357
-0.036315 -0.079539 -0.176349
-0.036314 -0.079463 -0.176326
-0.036313 -0.079386 -0.176296
-0.036312 -0.079310 -0.176278
-0.036310 -0.079233 -0.176262
-0.036308 -0.079157 -0.176248
-0.036307 -0.079081 -0.176233
-0.036305 -0.079005 -0.176227
-0.036306 -0.078927 -0.176153
-0.036309 -0.078843 -0.176041
-0.036308 -0.078768 -0.176002
-0.036308 -0.078691 -0.175962
-0.036306 -0.078614 -0.175946
-0.036304 -0.078540 -0.175942
-0.036303 -0.078462 -0.175917
-0.036301 -0.078389 -0.175907
-0.036299 -0.078313 -0.175903
-0.036298 -0.078237 -0.175877
-0.036297 -0.078160 -0.175848
-0.036296 -0.078083 -0.175812
-0.036296 -0.078007 -0.175780
-0.036294 -0.077932 -0.175754
-0.036294 -0.077853 -0.175713
-0.036293 -0.077777 -0.175691
-0.036292 -0.077702 -0.175669
-0.036290 -0.077628 -0.175659
-0.036288 -0.077552 -0.175646
-0.036287 -0.077475 -0.175624
-0.036286 -0.077400 -0.175596
-0.036286 -0.077323 -0.175548
-0.036285 -0.077246 -0.175505
-0.036285 -0.077169 -0.175457
-0.036284 -0.077093 -0.175427
-0.036282 -0.077019 -0.175429
-0.036280 -0.076943 -0.175430
-0.036278 -0.076870 -0.175410
-0.036277 -0.076794 -0.175394
-0.036274 -0.076720 -0.175396
-0.036271 -0.076646 -0.175411
-0.036268 -0.076571 -0.175427
-0.036266 -0.076499 -0.175441
-0.036262 -0.076425 -0.175465
-0.036259 -0.076352 -0.175488
-0.036256 -0.076278 -0.175506
-0.036251 -0.076205 -0.175548
-0.036246 -0.076133 -0.175619
-0.036241 -0.076062 -0.175667
-0.036237 -0.075988 -0.175699
-0.036230 -0.075919 -0.175815
-0.035988 -0.075823 -0.180769
-0.035970 -0.075760 -0.181101
-0.035727 -0.075809 -0.186175
-0.035723 -0.075730 -0.186191
-0.035721 -0.075648 -0.186193
-0.035719 -0.075568 -0.186188
-0.034940 -0.055292 -0.189404
-0.034940 -0.055215 -0.189354
-0.034940 -0.055136 -0.189310
-0.034938 -0.055059 -0.189285
-0.034936 -0.054977 -0.189277
-0.034965 -0.054876 -0.188609
-0.034987 -0.054838 -0.188146
-0.034983 -0.054756 -0.188161
-0.035059 -0.054815 -0.186629
-0.035059 -0.054738 -0.186584
-0.035059 -0.054663 -0.186526
-0.035060 -0.054586 -0.186472
-0.035060 -0.054512 -0.186418
-0.035061 -0.054437 -0.186353
-0.035061 -0.054362 -0.186301
-0.035059 -0.054283 -0.186285
-0.035057 -0.054205 -0.186273
-0.035056 -0.054125 -0.186258
-0.035054 -0.054045 -0.186250
-0.035051 -0.053966 -0.186246
-0.035049 -0.053886 -0.186242
-0.035047 -0.053806 -0.186242
-0.035044 -0.053724 -0.186248
-0.035041 -0.053643 -0.186254
-0.035038 -0.053563 -0.186256
-0.035036 -0.053481 -0.186253
-0.035034 -0.053404 -0.186243
-0.035032 -0.053324 -0.186233
-0.035029 -0.053242 -0.186243
-0.035026 -0.053161 -0.186255
-0.035023 -0.053079 -0.186261
-0.035020 -0.052997 -0.186275
-0.035017 -0.052917 -0.186281
-0.035014 -0.052835 -0.186291
-0.035011 -0.052752 -0.186312
-0.035008 -0.052670 -0.186324
-0.035005 -0.052588 -0.186330
-0.035002 -0.052508 -0.186332
-0.035000 -0.052426 -0.186338
-0.034996 -0.052346 -0.186350
-0.034993 -0.052263 -0.186360
-0.034990 -0.052181 -0.186374
-0.034987 -0.052099 -0.186388
-0.034984 -0.052016 -0.186402
-0.034981 -0.051934 -0.186414
-0.034978 -0.051854 -0.186422
-0.034975 -0.051772 -0.186427
-0.034972 -0.051690 -0.186443
-0.034969 -0.051607 -0.186455
-0.034966 -0.051527 -0.186465
-0.034963 -0.051445 -0.186471
-0.034961 -0.051365 -0.186467
-0.034958 -0.051285 -0.186465
-0.034956 -0.051203 -0.186469
-0.034953 -0.051123 -0.186471
-0.034951 -0.051041 -0.186463
-0.034949 -0.050961 -0.186462
-0.034946 -0.050881 -0.186470
-0.034943 -0.050799 -0.186476
-0.034940 -0.050717 -0.186484
-0.034937 -0.050635 -0.186496
-0.034934 -0.050552 -0.186508
-0.034931 -0.050472 -0.186510
-0.034928 -0.050390 -0.186516
-0.034925 -0.050308 -0.186534
-0.034922 -0.050226 -0.186544
-0.034920 -0.050146 -0.186535
-0.034918 -0.050066 -0.186527
-0.034915 -0.049986 -0.186527
-0.034913 -0.049906 -0.186519
-0.034911 -0.049827 -0.186513
-0.034909 -0.049745 -0.186511
-0.034907 -0.049665 -0.186499
-0.034905 -0.049585 -0.186491
-0.034901 -0.049503 -0.186510
-0.034898 -0.049420 -0.186526
-0.034895 -0.049338 -0.186534
-0.034892 -0.049256 -0.186540
-0.034890 -0.049176 -0.186544
-0.034887 -0.049094 -0.186548
-0.034884 -0.049012 -0.186552
-0.034881 -0.048930 -0.186566
-0.034878 -0.048847 -0.186574
-0.034876 -0.048768 -0.186566
-0.034874 -0.048688 -0.186561
-0.034871 -0.048606 -0.186567
-0.034868 -0.048526 -0.186569
-0.034866 -0.048446 -0.186559
-0.034864 -0.048366 -0.186553
-0.034861 -0.048284 -0.186563
-0.034858 -0.048199 -0.186585
-0.034855 -0.048117 -0.186593
-0.034853 -0.048037 -0.186587
-0.034850 -0.047957 -0.186583
-0.034848 -0.047877 -0.186580
-0.034846 -0.047796 -0.186576
-0.034843 -0.047713 -0.186584
-0.034840 -0.047631 -0.186590
-0.034837 -0.047551 -0.186592
-0.034834 -0.047469 -0.186604
-0.034832 -0.047387 -0.186608
-0.034829 -0.047307 -0.186606
-0.034826 -0.047223 -0.186622
-0.034822 -0.047138 -0.186644
-0.034819 -0.047058 -0.186650
-0.034817 -0.046976 -0.186645
-0.034815 -0.046898 -0.186633
-0.034813 -0.046817 -0.186629
-0.034810 -0.046737 -0.186633
-0.034808 -0.046657 -0.186625
-0.034807 -0.046577 -0.186609
-0.034804 -0.046497 -0.186603
-0.034802 -0.046415 -0.186609
-0.034799 -0.046333 -0.186612
-0.034797 -0.046253 -0.186608
-0.034794 -0.046171 -0.186608
-0.034792 -0.046091 -0.186608
-0.034789 -0.046009 -0.186608
-0.034786 -0.045927 -0.186612
-0.034784 -0.045847 -0.186616
-0.034781 -0.045765 -0.186620
-0.034778 -0.045683 -0.186628
-0.034775 -0.045599 -0.186638
-0.034773 -0.045519 -0.186633
-0.034771 -0.045441 -0.186617
-0.034770 -0.045362 -0.186597
-0.034768 -0.045282 -0.186591
-0.034765 -0.045200 -0.186593
-0.034763 -0.045120 -0.186585
-0.034761 -0.045040 -0.186581
-0.034758 -0.044958 -0.186586
-0.034756 -0.044878 -0.186580
-0.034754 -0.044798 -0.186572
-0.034751 -0.044716 -0.186570
-0.034749 -0.044636 -0.186572
-0.034746 -0.044554 -0.186570
-0.034744 -0.044474 -0.186566
-0.034742 -0.044395 -0.186558
-0.034739 -0.044313 -0.186556
-0.034737 -0.044233 -0.186565
-0.034734 -0.044151 -0.186561
-0.034733 -0.044075 -0.186531
-0.034732 -0.043996 -0.186507
-0.034729 -0.043913 -0.186523
-0.034726 -0.043831 -0.186537
-0.034723 -0.043747 -0.186541
-0.034720 -0.043667 -0.186541
-0.034718 -0.043585 -0.186540
-0.034715 -0.043505 -0.186544
-0.034713 -0.043423 -0.186544
-0.034710 -0.043343 -0.186540
-0.034708 -0.043261 -0.186548
-0.034705 -0.043177 -0.186556
-0.034702 -0.043097 -0.186554
-0.034700 -0.043015 -0.186554
-0.034697 -0.042933 -0.186556
-0.034694 -0.042851 -0.186560
-0.034691 -0.042769 -0.186568
-0.034689 -0.042687 -0.186575
-0.034686 -0.042604 -0.186581
-0.034683 -0.042520 -0.186591
-0.034680 -0.042440 -0.186595
-0.034677 -0.042358 -0.186595
-0.034675 -0.042276 -0.186603
-0.034672 -0.042194 -0.186605
-0.034670 -0.042114 -0.186589
-0.034668 -0.042035 -0.186581
-0.034666 -0.041955 -0.186577
-0.034664 -0.041875 -0.186570
-0.034662 -0.041795 -0.186566
-0.034659 -0.041713 -0.186562
-0.034657 -0.041631 -0.186562
-0.034654 -0.041549 -0.186562
-0.034652 -0.041471 -0.186550
-0.034650 -0.041391 -0.186546
-0.034647 -0.041307 -0.186554
-0.034644 -0.041223 -0.186574
-0.034641 -0.041141 -0.186575
-0.034639 -0.041061 -0.186571
-0.034636 -0.040979 -0.186571
-0.034634 -0.040899 -0.186561
-0.034631 -0.040817 -0.186567
-0.034627 -0.040728 -0.186609
-0.034625 -0.040649 -0.186597
-0.034624 -0.040573 -0.186575
-0.034621 -0.040491 -0.186569
-0.034619 -0.040409 -0.186571
-0.034616 -0.040329 -0.186570
-0.034614 -0.040247 -0.186568
-0.036207 -0.090340 -0.177345
-0.036205 -0.090265 -0.177357
-0.036202 -0.090191 -0.177362
-0.036200 -0.090115 -0.177364
-0.036197 -0.090043 -0.177380
-0.036194 -0.089969 -0.177394
-0.036193 -0.089889 -0.177363
-0.036193 -0.089808 -0.177315
-0.036191 -0.089731 -0.177299
-0.036188 -0.089657 -0.177303
-0.036186 -0.089583 -0.177313
-0.036183 -0.089508 -0.177322
-0.036181 -0.089431 -0.177308
-0.036179 -0.089355 -0.177298
-0.036177 -0.089277 -0.177292
-0.036175 -0.089203 -0.177291
-0.036173 -0.089127 -0.177295
-0.036169 -0.089055 -0.177313
-0.036166 -0.088982 -0.177329
-0.036164 -0.088906 -0.177330
-0.036162 -0.088830 -0.177328
-0.036159 -0.088754 -0.177328
-0.036157 -0.088680 -0.177334
-0.036155 -0.088606 -0.177335
-0.036152 -0.088530 -0.177333
-0.036150 -0.088456 -0.177343
-0.036147 -0.088380 -0.177339
-0.036147 -0.088299 -0.177292
-0.036145 -0.088222 -0.177278
-0.036143 -0.088147 -0.177288
-0.036140 -0.088073 -0.177292
-0.036138 -0.087996 -0.177280
-0.036137 -0.087918 -0.177265
-0.036135 -0.087842 -0.177259
-0.036132 -0.087768 -0.177265
-0.036129 -0.087696 -0.177281
-0.036126 -0.087619 -0.177288
-0.036125 -0.087542 -0.177270
-0.036123 -0.087466 -0.177254
-0.036121 -0.087388 -0.177246
-0.036119 -0.087313 -0.177241
-0.036117 -0.087237 -0.177233
-0.036115 -0.087163 -0.177237
-0.036112 -0.087087 -0.177243
-0.036110 -0.087012 -0.177248
-0.036107 -0.086938 -0.177256
-0.036104 -0.086862 -0.177264
-0.036102 -0.086788 -0.177260
-0.036102 -0.086705 -0.177204
-0.036102 -0.086626 -0.177161
-0.036100 -0.086549 -0.177149
-0.036098 -0.086471 -0.177135
-0.036096 -0.086395 -0.177129
-0.036094 -0.086321 -0.177134
-0.036091 -0.086247 -0.177142
-0.036090 -0.086169 -0.177128
-0.036088 -0.086094 -0.177118
-0.036086 -0.086018 -0.177113
-0.036083 -0.085942 -0.177111
-0.036081 -0.085868 -0.177113
-0.036078 -0.085792 -0.177117
-0.036076 -0.085716 -0.177117
-0.036074 -0.085642 -0.177118
-0.036071 -0.085568 -0.177122
-0.036069 -0.085492 -0.177122
-0.036067 -0.085416 -0.177116
-0.036065 -0.085338 -0.177109
-0.036064 -0.085260 -0.177085
-0.036062 -0.085185 -0.177071
-0.036059 -0.085110 -0.177089
-0.036057 -0.085036 -0.177086
-0.036055 -0.084959 -0.177070
-0.036053 -0.084883 -0.177062
-0.036051 -0.084807 -0.177066
-0.036048 -0.084733 -0.177073
-0.036045 -0.084659 -0.177085
-0.036043 -0.084583 -0.177085
-0.036041 -0.084505 -0.177065
-0.036040 -0.084429 -0.177048
-0.036037 -0.084353 -0.177048
-0.036035 -0.084277 -0.177044
-0.036033 -0.084202 -0.177038
-0.036031 -0.084126 -0.177034
-0.036029 -0.084052 -0.177035
-0.036027 -0.083976 -0.177029
-0.036024 -0.083900 -0.177031
-0.036022 -0.083826 -0.177035
-0.036020 -0.083750 -0.177028
-0.036019 -0.083671 -0.177000
-0.036017 -0.083595 -0.176994
-0.036014 -0.083521 -0.176996
-0.036013 -0.083443 -0.176979
-0.036012 -0.083366 -0.176949
-0.036010 -0.083290 -0.176941
-0.036007 -0.083214 -0.176945
-0.036005 -0.083140 -0.176944
-0.036003 -0.083062 -0.176938
-0.036000 -0.082988 -0.176948
-0.035998 -0.082916 -0.176958
-0.035996 -0.082838 -0.176949
-0.035994 -0.082760 -0.176923
-0.035993 -0.082683 -0.176897
-0.035992 -0.082606 -0.176871
-0.035990 -0.082530 -0.176861
-0.035988 -0.082456 -0.176868
-0.035985 -0.082380 -0.176872
-0.035983 -0.082304 -0.176870
-0.035981 -0.082230 -0.176864
-0.035978 -0.082154 -0.176867
-0.035976 -0.082078 -0.176867
-0.035976 -0.081999 -0.176813
-0.035976 -0.081920 -0.176765
-0.035974 -0.081844 -0.176754
-0.035973 -0.081767 -0.176738
-0.035971 -0.081691 -0.176722
-0.035969 -0.081615 -0.176710
-0.035968 -0.081538 -0.176700
-0.035965 -0.081464 -0.176703
-0.035963 -0.081389 -0.176707
-0.035961 -0.081312 -0.176693
-0.035959 -0.081236 -0.176687
-0.035957 -0.081160 -0.176670
-0.035956 -0.081085 -0.176654
-0.035955 -0.081007 -0.176632
-0.035953 -0.080931 -0.176624
-0.035950 -0.080857 -0.176629
-0.035948 -0.080781 -0.176625
-0.035946 -0.080706 -0.176613
-0.035944 -0.080630 -0.176611
-0.035941 -0.080556 -0.176614
-0.035940 -0.080480 -0.176598
-0.035941 -0.080398 -0.176516
-0.035940 -0.080321 -0.176484
-0.035939 -0.080245 -0.176463
-0.035937 -0.080167 -0.176449
-0.035936 -0.080092 -0.176437
-0.035934 -0.080016 -0.176429
-0.035932 -0.079940 -0.176419
-0.035930 -0.079864 -0.176404
-0.035929 -0.079789 -0.176384
-0.035929 -0.079710 -0.176342
-0.035927 -0.079634 -0.176324
-0.035925 -0.079558 -0.176313
-0.035924 -0.079483 -0.176297
-0.035922 -0.079405 -0.176279
-0.035921 -0.079332 -0.176263
-0.035919 -0.079254 -0.176256
-0.035917 -0.079180 -0.176244
-0.035915 -0.079104 -0.176232
-0.035913 -0.079028 -0.176224
-0.035913 -0.078949 -0.176179
-0.035918 -0.078865 -0.176029
-0.035917 -0.078789 -0.175999
-0.035916 -0.078712 -0.175963
-0.035915 -0.078635 -0.175935
-0.035914 -0.078559 -0.175914
-0.035912 -0.078484 -0.175896
-0.035911 -0.078408 -0.175870
-0.035910 -0.078331 -0.175848
-0.035907 -0.078257 -0.175857
-0.035905 -0.078183 -0.175863
-0.035903 -0.078107 -0.175845
-0.035904 -0.078028 -0.175785
-0.035903 -0.077953 -0.175754
-0.035902 -0.077876 -0.175726
-0.035901 -0.077800 -0.175690
-0.035900 -0.077723 -0.175662
-0.035898 -0.077647 -0.175649
-0.035898 -0.077572 -0.175621
-0.035896 -0.077496 -0.175597
-0.035895 -0.077421 -0.175581
-0.035894 -0.077344 -0.175540
-0.035895 -0.077265 -0.175468
-0.035894 -0.077192 -0.175452
-0.035892 -0.077116 -0.175443
-0.035891 -0.077040 -0.175425
-0.035889 -0.076965 -0.175413
-0.035887 -0.076891 -0.175405
-0.035885 -0.076817 -0.175400
-0.035882 -0.076741 -0.175404
-0.035880 -0.076667 -0.175410
-0.035878 -0.076593 -0.175410
-0.035874 -0.076518 -0.175427
-0.035871 -0.076446 -0.175453
-0.035867 -0.076373 -0.175481
-0.035864 -0.076301 -0.175513
-0.035860 -0.076226 -0.175548
-0.035855 -0.076155 -0.175606
-0.035849 -0.076083 -0.175668
-0.035843 -0.076011 -0.175748
-0.035837 -0.075942 -0.175829
-0.035739 -0.075953 -0.177875
-0.035733 -0.075879 -0.177951
-0.035728 -0.075806 -0.178018
-0.035650 -0.075797 -0.179630
-0.035433 -0.075824 -0.184132
-0.035414 -0.075761 -0.184485
-0.035412 -0.075683 -0.184485
-0.035409 -0.075603 -0.184489
-0.035324 -0.075594 -0.186251
-0.035321 -0.075514 -0.186253
-0.035318 -0.075434 -0.186269
-0.034551 -0.055319 -0.189343
-0.034550 -0.055240 -0.189302
-0.034548 -0.055160 -0.189288
-0.034546 -0.055078 -0.189284
-0.034544 -0.054996 -0.189284
-0.034542 -0.054916 -0.189272
-0.034668 -0.054759 -0.186563
-0.034667 -0.054682 -0.186517
-0.034668 -0.054610 -0.186458
-0.034668 -0.054533 -0.186406
-0.034668 -0.054456 -0.186364
-0.034668 -0.054381 -0.186320
-0.034667 -0.054304 -0.186285
-0.034665 -0.054224 -0.186265
-0.034664 -0.054146 -0.186253
-0.034662 -0.054067 -0.186245
-0.034659 -0.053987 -0.186237
-0.034657 -0.053907 -0.186229
-0.034655 -0.053827 -0.186230
-0.034652 -0.053745 -0.186238
-0.034649 -0.053665 -0.186244
-0.034647 -0.053585 -0.186238
-0.034644 -0.053503 -0.186242
-0.034641 -0.053423 -0.186254
-0.034639 -0.053342 -0.186258
-0.034636 -0.053261 -0.186252
-0.034634 -0.053183 -0.186243
-0.034631 -0.053100 -0.186259
-0.034628 -0.053018 -0.186281
-0.034625 -0.052936 -0.186285
-0.034622 -0.052856 -0.186283
-0.034620 -0.052774 -0.186289
-0.034616 -0.052692 -0.186301
-0.034613 -0.052611 -0.186315
-0.034611 -0.052529 -0.186315
-0.034608 -0.052449 -0.186315
-0.034605 -0.052367 -0.186331
-0.034601 -0.052285 -0.186353
-0.034598 -0.052202 -0.186370
-0.034595 -0.052120 -0.186384
-0.034591 -0.052038 -0.186402
-0.034588 -0.051955 -0.186416
-0.034586 -0.051873 -0.186420
-0.034583 -0.051793 -0.186430
-0.034580 -0.051711 -0.186440
-0.034577 -0.051629 -0.186448
-0.034574 -0.051546 -0.186458
-0.034571 -0.051466 -0.186462
-0.034569 -0.051386 -0.186460
-0.034566 -0.051304 -0.186471
-0.034562 -0.051222 -0.186485
-0.034559 -0.051140 -0.186495
-0.034557 -0.051060 -0.186489
-0.034556 -0.050982 -0.186465
-0.034554 -0.050903 -0.186455
-0.034551 -0.050821 -0.186455
-0.034548 -0.050740 -0.186467
-0.034545 -0.050656 -0.186477
-0.034542 -0.050576 -0.186486
-0.034539 -0.050494 -0.186498
-0.034536 -0.050409 -0.186520
-0.034533 -0.050329 -0.186530
-0.034530 -0.050247 -0.186524
-0.034529 -0.050170 -0.186502
-0.034528 -0.050092 -0.186486
-0.034525 -0.050010 -0.186482
-0.034523 -0.049932 -0.186477
-0.034521 -0.049853 -0.186463
-0.034519 -0.049771 -0.186463
-0.034515 -0.049688 -0.186483
-0.034512 -0.049604 -0.186503
-0.034509 -0.049524 -0.186507
-0.034506 -0.049442 -0.186513
-0.034503 -0.049359 -0.186525
-0.034500 -0.049277 -0.186529
-0.034498 -0.049197 -0.186523
-0.034496 -0.049117 -0.186525
-0.034493 -0.049035 -0.186534
-0.034490 -0.048953 -0.186542
-0.034486 -0.048869 -0.186558
-0.034483 -0.048786 -0.186572
-0.034481 -0.048707 -0.186564
-0.034479 -0.048629 -0.186548
-0.034477 -0.048549 -0.186544
-0.034475 -0.048467 -0.186542
-0.034472 -0.048385 -0.186546
-0.034469 -0.048305 -0.186553
-0.034467 -0.048223 -0.186555
-0.034464 -0.048141 -0.186561
-0.034461 -0.048059 -0.186569
-0.034458 -0.047977 -0.186577
-0.034455 -0.047896 -0.186581
-0.034453 -0.047814 -0.186585
-0.034450 -0.047732 -0.186595
-0.034447 -0.047652 -0.186591
-0.034445 -0.047573 -0.186579
-0.034443 -0.047490 -0.186587
-0.034439 -0.047408 -0.186600
-0.034437 -0.047326 -0.186606
-0.034433 -0.047242 -0.186632
-0.034429 -0.047159 -0.186650
-0.034427 -0.047079 -0.186642
-0.034425 -0.047000 -0.186628
-0.034424 -0.046920 -0.186616
-0.034421 -0.046840 -0.186610
-0.034419 -0.046758 -0.186610
-0.034416 -0.046678 -0.186615
-0.034414 -0.046596 -0.186609
-0.034412 -0.046518 -0.186593
-0.034410 -0.046437 -0.186593
-0.034406 -0.046354 -0.186611
-0.034403 -0.046272 -0.186621
-0.034402 -0.046192 -0.186607
-0.034400 -0.046112 -0.186599
-0.034397 -0.046031 -0.186595
-0.034395 -0.045951 -0.186586
-0.034393 -0.045871 -0.186582
-0.034390 -0.045789 -0.186592
-0.034386 -0.045704 -0.186610
-0.034383 -0.045622 -0.186620
-0.034380 -0.045540 -0.186630
-0.034378 -0.045458 -0.186628
-0.034376 -0.045380 -0.186610
-0.034375 -0.045303 -0.186588
-0.034373 -0.045223 -0.186575
-0.034371 -0.045143 -0.186563
-0.034369 -0.045064 -0.186555
-0.034367 -0.044984 -0.186547
-0.034365 -0.044904 -0.186545
-0.034362 -0.044820 -0.186551
-0.034360 -0.044740 -0.186551
-0.034357 -0.044660 -0.186548
-0.034355 -0.044578 -0.186542
-0.034353 -0.044498 -0.186544
-0.034349 -0.044414 -0.186554
-0.034347 -0.044334 -0.186550
-0.034345 -0.044254 -0.186548
-0.034342 -0.044172 -0.186554
-0.034339 -0.044090 -0.186564
-0.034336 -0.044005 -0.186576
-0.034333 -0.043925 -0.186576
-0.034331 -0.043846 -0.186567
-0.034329 -0.043766 -0.186559
-0.034327 -0.043684 -0.186555
-0.034324 -0.043602 -0.186557
-0.034321 -0.043520 -0.186565
-0.034318 -0.043437 -0.186581
-0.034315 -0.043353 -0.186591
-0.034314 -0.043278 -0.186563
-0.034313 -0.043198 -0.186543
-0.034310 -0.043116 -0.186550
-0.034306 -0.043034 -0.186564
-0.034304 -0.042952 -0.186562
-0.034301 -0.042870 -0.186568
-0.034298 -0.042786 -0.186580
-0.034295 -0.042706 -0.186582
-0.034293 -0.042624 -0.186578
-0.034290 -0.042541 -0.186584
-0.034288 -0.042459 -0.186588
-0.034285 -0.042377 -0.186592
-0.034281 -0.042293 -0.186616
-0.034277 -0.042208 -0.186638
-0.034276 -0.042131 -0.186613
-0.034274 -0.042051 -0.186601
-0.034272 -0.041969 -0.186597
-0.034270 -0.041889 -0.186597
-0.034268 -0.041810 -0.186587
-0.034266 -0.041730 -0.186579
-0.034263 -0.041648 -0.186579
-0.034260 -0.041566 -0.186587
-0.034258 -0.041486 -0.186581
-0.034257 -0.041408 -0.186558
-0.034254 -0.041326 -0.186552
-0.034252 -0.041246 -0.186554
-0.034250 -0.041165 -0.186550
-0.034247 -0.041082 -0.186560
-0.034243 -0.040998 -0.186576
-0.034241 -0.040918 -0.186570
-0.034238 -0.040834 -0.186588
-0.034234 -0.040747 -0.186608
-0.034233 -0.040670 -0.186588
-0.034231 -0.040592 -0.186567
-0.034229 -0.040512 -0.186565
-0.034227 -0.040433 -0.186557
-0.034224 -0.040351 -0.186551
-0.034222 -0.040271 -0.186547
-0.035967 -0.090362 -0.177377
-0.035964 -0.090288 -0.177383
-0.035962 -0.090212 -0.177383
-0.035960 -0.090136 -0.177377
-0.035958 -0.090060 -0.177378
-0.035955 -0.089984 -0.177376
-0.035954 -0.089907 -0.177352
-0.035953 -0.089829 -0.177330
-0.035951 -0.089754 -0.177327
-0.035949 -0.089676 -0.177321
-0.035946 -0.089602 -0.177317
-0.035944 -0.089526 -0.177317
-0.035941 -0.089453 -0.177342
-0.035937 -0.089381 -0.177366
-0.035935 -0.089307 -0.177376
-0.035932 -0.089234 -0.177390
-0.035928 -0.089160 -0.177409
-0.035926 -0.089084 -0.177403
-0.035926 -0.089005 -0.177363
-0.035924 -0.088925 -0.177343
-0.035922 -0.088849 -0.177337
-0.035920 -0.088775 -0.177342
-0.035917 -0.088699 -0.177342
-0.035916 -0.088622 -0.177324
-0.035914 -0.088546 -0.177322
-0.035910 -0.088475 -0.177351
-0.035906 -0.088404 -0.177389
-0.035906 -0.088322 -0.177329
-0.035906 -0.088241 -0.177285
-0.035904 -0.088163 -0.177272
-0.035902 -0.088087 -0.177262
-0.035900 -0.088011 -0.177260
-0.035898 -0.087937 -0.177268
-0.035895 -0.087863 -0.177283
-0.035892 -0.087789 -0.177295
-0.035889 -0.087716 -0.177309
-0.035886 -0.087642 -0.177319
-0.035884 -0.087565 -0.177302
-0.035884 -0.087485 -0.177270
-0.035881 -0.087409 -0.177268
-0.035879 -0.087335 -0.177270
-0.035877 -0.087258 -0.177254
-0.035875 -0.087182 -0.177247
-0.035873 -0.087108 -0.177257
-0.035870 -0.087031 -0.177265
-0.035867 -0.086957 -0.177269
-0.035865 -0.086881 -0.177272
-0.035864 -0.086804 -0.177246
-0.035863 -0.086725 -0.177208
-0.035862 -0.086647 -0.177186
-0.035860 -0.086571 -0.177181
-0.035857 -0.086495 -0.177179
-0.035855 -0.086420 -0.177177
-0.035853 -0.086344 -0.177175
-0.035851 -0.086270 -0.177178
-0.035848 -0.086193 -0.177182
-0.035847 -0.086116 -0.177162
-0.035844 -0.086040 -0.177158
-0.035842 -0.085966 -0.177162
-0.035840 -0.085890 -0.177153
-0.035838 -0.085812 -0.177139
-0.035836 -0.085737 -0.177131
-0.035834 -0.085661 -0.177125
-0.035832 -0.085585 -0.177128
-0.035829 -0.085511 -0.177136
-0.035827 -0.085437 -0.177140
-0.035824 -0.085361 -0.177140
-0.035823 -0.085281 -0.177107
-0.035822 -0.085204 -0.177079
-0.035820 -0.085128 -0.177075
-0.035818 -0.085054 -0.177079
-0.035816 -0.084978 -0.177078
-0.035813 -0.084902 -0.177076
-0.035811 -0.084826 -0.177076
-0.035809 -0.084752 -0.177078
-0.035806 -0.084676 -0.177084
-0.035803 -0.084602 -0.177095
-0.035800 -0.084527 -0.177105
-0.035798 -0.084453 -0.177105
-0.035797 -0.084374 -0.177075
-0.035796 -0.084297 -0.177056
-0.035793 -0.084221 -0.177056
-0.035791 -0.084147 -0.177054
-0.035789 -0.084071 -0.177054
-0.035786 -0.083997 -0.177057
-0.035784 -0.083921 -0.177061
-0.035781 -0.083846 -0.177065
-0.035779 -0.083771 -0.177061
-0.035778 -0.083693 -0.177032
-0.035777 -0.083614 -0.177000
-0.035776 -0.083536 -0.176978
-0.035775 -0.083459 -0.176952
-0.035773 -0.083383 -0.176942
-0.035771 -0.083307 -0.176943
-0.035768 -0.083231 -0.176943
-0.035766 -0.083155 -0.176935
-0.035764 -0.083080 -0.176927
-0.035761 -0.083007 -0.176944
-0.035758 -0.082933 -0.176958
-0.035756 -0.082857 -0.176950
-0.035755 -0.082780 -0.176926
-0.035753 -0.082702 -0.176915
-0.035752 -0.082626 -0.176901
-0.035750 -0.082550 -0.176893
-0.035747 -0.082475 -0.176891
-0.035745 -0.082399 -0.176884
-0.035743 -0.082323 -0.176878
-0.035741 -0.082247 -0.176870
-0.035740 -0.082171 -0.176854
-0.035738 -0.082096 -0.176847
-0.035737 -0.082018 -0.176821
-0.035736 -0.081939 -0.176793
-0.035734 -0.081865 -0.176789
-0.035732 -0.081787 -0.176769
-0.035731 -0.081710 -0.176742
-0.035730 -0.081634 -0.176724
-0.035727 -0.081558 -0.176724
-0.035725 -0.081482 -0.176722
-0.035723 -0.081407 -0.176713
-0.035721 -0.081331 -0.176709
-0.035720 -0.081255 -0.176689
-0.035718 -0.081178 -0.176663
-0.035716 -0.081102 -0.176656
-0.035714 -0.081028 -0.176658
-0.035712 -0.080952 -0.176654
-0.035710 -0.080876 -0.176646
-0.035708 -0.080800 -0.176641
-0.035705 -0.080726 -0.176645
-0.035703 -0.080650 -0.176649
-0.035701 -0.080574 -0.176643
-0.035700 -0.080497 -0.176611
-0.035701 -0.080417 -0.176538
-0.035700 -0.080339 -0.176502
-0.035698 -0.080265 -0.176504
-0.035696 -0.080188 -0.176486
-0.035696 -0.080111 -0.176451
-0.035694 -0.080035 -0.176435
-0.035692 -0.079959 -0.176427
-0.035691 -0.079884 -0.176407
-0.035690 -0.079806 -0.176384
-0.035688 -0.079730 -0.176378
-0.035686 -0.079655 -0.176364
-0.035686 -0.079578 -0.176318
-0.035684 -0.079500 -0.176300
-0.035682 -0.079426 -0.176297
-0.035680 -0.079350 -0.176287
-0.035679 -0.079273 -0.176269
-0.035677 -0.079197 -0.176257
-0.035675 -0.079123 -0.176248
-0.035673 -0.079047 -0.176242
-0.035672 -0.078970 -0.176212
-0.035675 -0.078888 -0.176106
-0.035675 -0.078812 -0.176055
-0.035675 -0.078733 -0.176007
-0.035674 -0.078655 -0.175975
-0.035673 -0.078580 -0.175955
-0.035671 -0.078502 -0.175928
-0.035670 -0.078427 -0.175910
-0.035669 -0.078351 -0.175888
-0.035668 -0.078274 -0.175856
-0.035666 -0.078198 -0.175841
-0.035664 -0.078125 -0.175831
-0.035664 -0.078047 -0.175801
-0.035663 -0.077970 -0.175761
-0.035663 -0.077893 -0.175724
-0.035661 -0.077818 -0.175698
-0.035661 -0.077742 -0.175668
-0.035659 -0.077666 -0.175656
-0.035657 -0.077593 -0.175649
-0.035655 -0.077517 -0.175645
-0.035653 -0.077441 -0.175625
-0.035653 -0.077364 -0.175573
-0.035653 -0.077287 -0.175528
-0.035652 -0.077210 -0.175496
-0.035651 -0.077135 -0.175476
-0.035649 -0.077061 -0.175462
-0.035648 -0.076985 -0.175445
-0.035646 -0.076910 -0.175433
-0.035644 -0.076836 -0.175433
-0.035642 -0.076760 -0.175425
-0.035640 -0.076686 -0.175420
-0.035637 -0.076612 -0.175432
-0.035634 -0.076537 -0.175444
-0.035631 -0.076465 -0.175461
-0.035627 -0.076390 -0.175493
-0.035623 -0.076319 -0.175535
-0.035619 -0.076246 -0.175583
-0.035614 -0.076173 -0.175636
-0.035609 -0.076102 -0.175692
-0.035603 -0.076031 -0.175762
-0.035593 -0.075963 -0.175934
-0.035497 -0.075973 -0.177935
-0.035495 -0.075897 -0.177927
-0.035493 -0.075821 -0.177919
-0.035365 -0.075697 -0.180492
-0.035051 -0.075640 -0.186971
-0.034987 -0.075605 -0.188267
-0.034984 -0.075527 -0.188283
-0.034752 -0.075289 -0.192955
-0.034749 -0.075207 -0.192965
-0.034300 -0.055239 -0.189503
-0.034299 -0.055159 -0.189487
-0.034297 -0.055079 -0.189463
-0.034296 -0.054998 -0.189439
-0.034352 -0.055023 -0.188299
-0.034350 -0.054943 -0.188291
-0.034347 -0.054861 -0.188297
-0.034427 -0.054777 -0.186581
-0.034427 -0.054700 -0.186531
-0.034427 -0.054625 -0.186475
-0.034427 -0.054548 -0.186437
-0.034426 -0.054471 -0.186398
