# .PCD v0.7 - Point Cloud Data file format
VERSION 0.7
FIELDS x y z
SIZE 4 4 4
TYPE F F F
COUNT 1 1 1
WIDTH 1323
HEIGHT 1
VIEWPOINT 0 0 0 1 0 0 0
POINTS 1323
DATA ascii
-0.065105669 -0.265118 -0.33670014
-0.064945668 -0.26510999 -0.33678833
-0.090884 -0.26488736 -0.33672735
-0.090698339 -0.26490533 -0.33666599
-0.090537995 -0.26491702 -0.33663198
-0.065265998 -0.26490653 -0.33660799
-0.065114856 -0.26491627 -0.3366847
-0.064956002 -0.26488662 -0.33676139
-0.091082998 -0.26465899 -0.33679199
-0.090868331 -0.26467919 -0.33670464
-0.090682335 -0.26469681 -0.33664966
-0.090519667 -0.26470497 -0.33664799
-0.065254003 -0.26476401 -0.33660701
-0.065115668 -0.26469365 -0.336676
-0.064895585 -0.26469025 -0.33675948
-0.091072001 -0.26451999 -0.33677864
-0.090852752 -0.26450199 -0.33671948
-0.090664677 -0.26448584 -0.33665529
-0.090502657 -0.264496 -0.33663735
-0.065099664 -0.26448384 -0.33665368
-0.064886101 -0.26448557 -0.33674738
-0.064756498 -0.264523 -0.336775
-0.091059998 -0.26437801 -0.33678401
-0.090884663 -0.26432499 -0.33671701
-0.090707988 -0.26430437 -0.33667523
-0.090514004 -0.26426649 -0.33664
-0.065083824 -0.26427436 -0.33663067
-0.064916745 -0.26430273 -0.33672652
-0.091033995 -0.26406252 -0.33678299
-0.090865999 -0.26411334 -0.33672833
-0.090737201 -0.26411161 -0.33667079
-0.090517201 -0.2640872 -0.3366352
-0.06506975 -0.2640985 -0.33662048
-0.064900003 -0.26412168 -0.33675417
-0.091018997 -0.26388666 -0.33679101
-0.090847999 -0.26390067 -0.33674034
-0.090710007 -0.26391464 -0.33668265
-0.090527192 -0.2639184 -0.33663279
-0.065054171 -0.26391867 -0.33663967
-0.064864747 -0.26392063 -0.33673376
-0.064776003 -0.26387352 -0.3367815
-0.091008 -0.26374599 -0.33678901
-0.090829335 -0.26368865 -0.33675501
-0.090691663 -0.26370198 -0.336696
-0.090498991 -0.26372167 -0.33663651
-0.065081663 -0.26370564 -0.33662033
-0.064909339 -0.26370373 -0.33668825
-0.064785495 -0.26372999 -0.33678001
-0.09081167 -0.26347634 -0.336759
-0.090672173 -0.26348734 -0.33672416
-0.090480834 -0.26350966 -0.33664617
-0.065071002 -0.26356599 -0.33660901
-0.064891003 -0.26348901 -0.3366999
-0.064688005 -0.26344857 -0.33678672
-0.090702005 -0.26329115 -0.33675316
-0.090495341 -0.26329333 -0.33667782
-0.090397999 -0.26323 -0.336647
-0.065041997 -0.26321101 -0.33660799
-0.064895287 -0.26328614 -0.33670071
-0.064684249 -0.26328471 -0.33675349
-0.064556003 -0.26331753 -0.33678597
-0.090719998 -0.26312569 -0.336777
-0.090536401 -0.26308823 -0.3367162
-0.090384334 -0.263087 -0.33667064
-0.065058328 -0.26308835 -0.33662799
-0.064895496 -0.26309925 -0.33669624
-0.064715363 -0.2631081 -0.33674908
-0.064593002 -0.26310849 -0.33675402
-0.090669997 -0.26291332 -0.33679631
-0.090537801 -0.2629146 -0.33674562
-0.090365328 -0.26287368 -0.336694
-0.090155497 -0.262867 -0.33662701
-0.065058671 -0.26292199 -0.33662733
-0.064880498 -0.26292065 -0.33670282
-0.064700499 -0.26291519 -0.33678094
-0.090511836 -0.26271603 -0.33675835
-0.090348497 -0.26269349 -0.33671999
-0.090139993 -0.26269099 -0.33663797
-0.089810997 -0.262638 -0.33660099
-0.065063 -0.26272377 -0.33663774
-0.06489525 -0.26269764 -0.33669937
-0.064697661 -0.26271698 -0.33677977
-0.090495244 -0.262537 -0.33678448
-0.090331338 -0.26251301 -0.33675468
-0.09011966 -0.26247433 -0.33667266
-0.089899793 -0.26250339 -0.33661598
-0.065106332 -0.26248968 -0.33662984
-0.064914145 -0.2625007 -0.33670473
-0.064756796 -0.26247239 -0.3367624
-0.090314999 -0.26233301 -0.336779
-0.090102501 -0.26229501 -0.33670402
-0.089897797 -0.26229042 -0.33663341
-0.08975675 -0.26226825 -0.33661252
-0.088647 -0.262265 -0.336606
-0.065089501 -0.26230901 -0.33665451
-0.06491334 -0.26227483 -0.33671632
-0.064782001 -0.26227632 -0.33674467
-0.090086341 -0.262115 -0.33673334
-0.0898984 -0.26211637 -0.336665
-0.089717664 -0.26207384 -0.33662263
-0.089566 -0.262016 -0.33660099
-0.088899501 -0.2620815 -0.33660349
-0.088670202 -0.26210779 -0.3366228
-0.088535003 -0.26205799 -0.33661801
-0.066523001 -0.26201099 -0.33660099
-0.066276334 -0.26204202 -0.33660734
-0.066166997 -0.26209 -0.33662131
-0.065987997 -0.26203299 -0.33660901
-0.065072998 -0.26212731 -0.33667997
-0.064897746 -0.26209503 -0.33672801
-0.064766496 -0.262097 -0.33675402
-0.090065993 -0.26189831 -0.33677337
-0.089871496 -0.26191598 -0.33669415
-0.089700744 -0.26189375 -0.33665401
-0.089514397 -0.26186123 -0.3366138
-0.089308284 -0.26184243 -0.33661744
-0.088899404 -0.26188979 -0.33661842
-0.088693753 -0.26189676 -0.33665112
-0.088475168 -0.26191616 -0.33664384
-0.088294499 -0.26188999 -0.33662301
-0.088197 -0.26187399 -0.336604
-0.078584999 -0.26180899 -0.33660299
-0.074564002 -0.26184601 -0.33660701
-0.066463165 -0.26190647 -0.33662304
-0.066301666 -0.26190498 -0.33664584
-0.066148996 -0.261906 -0.33666301
-0.06597466 -0.26188669 -0.33663335
-0.065543674 -0.26190799 -0.33661699
-0.065389998 -0.26191768 -0.33661699
-0.065052502 -0.26190865 -0.33671865
-0.064879835 -0.26191103 -0.33677134
-0.064751998 -0.26195002 -0.3367835
-0.090052001 -0.26175299 -0.33680001
-0.089850999 -0.26169863 -0.33673453
-0.089683831 -0.26171336 -0.33668566
-0.089490004 -0.26169699 -0.33663601
-0.089295574 -0.26170745 -0.3366423
-0.089106776 -0.26166213 -0.33662266
-0.088907503 -0.26168919 -0.33664265
-0.088713147 -0.26170012 -0.33667132
-0.088501148 -0.26169583 -0.33668786
-0.088306502 -0.26168478 -0.33669448
-0.088142499 -0.261713 -0.336629
-0.086324662 -0.26166567 -0.33661333
-0.082480393 -0.26166999 -0.33663481
-0.082356997 -0.26162401 -0.336611
-0.080694333 -0.26169935 -0.336622
-0.080502003 -0.26167399 -0.33662099
-0.080164999 -0.26166099 -0.33660701
-0.078573003 -0.26169899 -0.33663601
-0.0783865 -0.2616955 -0.33662599
-0.078186497 -0.26164103 -0.33662498
-0.076641999 -0.26167899 -0.33664301
-0.076446332 -0.26168236 -0.33668032
-0.076293327 -0.26169351 -0.3366448
-0.076179504 -0.26166999 -0.33662
-0.074654251 -0.2616455 -0.33661848
-0.074510336 -0.26170084 -0.33666864
-0.074301854 -0.26168001 -0.33662316
-0.066486701 -0.26172832 -0.33664319
-0.066303365 -0.26171467 -0.33668655
-0.066132665 -0.26172534 -0.33668435
-0.065955505 -0.2617 -0.336689
-0.065703005 -0.26168433 -0.33663568
-0.065522335 -0.26168799 -0.33666036
-0.065369993 -0.26169899 -0.33664632
-0.065073997 -0.26168934 -0.33674264
-0.064947836 -0.26169148 -0.33677316
-0.089874998 -0.26151448 -0.33678401
-0.089704551 -0.26149157 -0.33674568
-0.089471839 -0.26151383 -0.33668551
-0.089294553 -0.26152235 -0.33666691
-0.089097001 -0.261493 -0.33665311
-0.088889748 -0.26150775 -0.33668125
-0.088703595 -0.26148659 -0.33671337
-0.088552751 -0.26149425 -0.33672273
-0.088319004 -0.26148152 -0.33675703
-0.088084497 -0.26151669 -0.33666417
-0.086828999 -0.26143599 -0.336604
-0.086645 -0.26144001 -0.33661601
-0.086299397 -0.26152709 -0.33664909
-0.086193502 -0.26148951 -0.33664501
-0.084452003 -0.261471 -0.33660099
-0.084309004 -0.26142702 -0.336622
-0.082604997 -0.261462 -0.33663201
-0.082455754 -0.261502 -0.33667699
-0.082275219 -0.26148021 -0.33665124
-0.080848999 -0.261415 -0.336604
-0.08071766 -0.26148316 -0.33664533
-0.080482997 -0.26148799 -0.33668533
-0.080117859 -0.26151028 -0.33662844
-0.078736 -0.2614795 -0.33662501
-0.078554995 -0.26151499 -0.33668432
-0.07836733 -0.26151034 -0.33668467
-0.078088336 -0.26148069 -0.33664051
-0.077933334 -0.26143333 -0.33662966
-0.077790998 -0.2614505 -0.336631
-0.076882496 -0.26149499 -0.33663148
-0.076619327 -0.261516 -0.33677936
-0.076426998 -0.26149648 -0.33673701
-0.076274 -0.26150724 -0.3367075
-0.0760924 -0.26149654 -0.33666471
-0.075991333 -0.261507 -0.33662665
-0.075793996 -0.26144499 -0.336606
-0.074804001 -0.26147601 -0.336631
-0.074664004 -0.26148757 -0.33666918
-0.074514434 -0.26147914 -0.33671734
-0.074291334 -0.26148877 -0.33669466
-0.074097127 -0.26149359 -0.33664429
-0.072463498 -0.26144201 -0.33661199
-0.072301336 -0.26144767 -0.33661899
-0.072162494 -0.26145452 -0.336615
-0.066734001 -0.26142499 -0.33661401
-0.066475004 -0.26149955 -0.33668897
-0.0663011 -0.26151183 -0.33670509
-0.066131502 -0.261484 -0.33674824
-0.065937996 -0.26151633 -0.33672598
-0.065684497 -0.2615 -0.33668
-0.065505505 -0.26150599 -0.33669102
-0.065347999 -0.26147732 -0.33670297
-0.065054663 -0.26147267 -0.33676401
-0.064974502 -0.26151001 -0.336779
-0.089705199 -0.2613166 -0.33678263
-0.089500144 -0.26129258 -0.33673286
-0.089286298 -0.2612974 -0.33671182
-0.089094095 -0.26132196 -0.33669281
-0.088889852 -0.2613163 -0.33671898
-0.088703997 -0.26131061 -0.33675399
-0.088555001 -0.26128948 -0.33678699
-0.088302009 -0.2613005 -0.33678901
-0.088138342 -0.26128799 -0.33675703
-0.087911002 -0.26131168 -0.33665916
-0.086815 -0.26129201 -0.33662799
-0.086673833 -0.26129302 -0.33665034
-0.086287111 -0.26129791 -0.33672288
-0.086114004 -0.2613 -0.33667523
-0.085960999 -0.26126301 -0.33661801
-0.084481664 -0.26132014 -0.33664784
-0.084308252 -0.26129374 -0.33664373
-0.084077001 -0.261273 -0.33662599
-0.082716398 -0.26131001 -0.33662161
-0.082515717 -0.26132745 -0.33669701
-0.082322501 -0.26128933 -0.33671865
-0.082110196 -0.26129019 -0.33667782
-0.08190725 -0.26127899 -0.33662075
-0.080881998 -0.26130724 -0.336622
-0.080699004 -0.2613 -0.33669502
-0.0804625 -0.26130101 -0.33676302
-0.080082327 -0.26129827 -0.33670634
-0.079826333 -0.26132134 -0.33663002
-0.079221003 -0.26121199 -0.33660999
-0.079100505 -0.2612215 -0.33660549
-0.078873798 -0.2612558 -0.33663741
-0.078717999 -0.2612963 -0.33666834
-0.078532003 -0.26129201 -0.33676133
-0.078343332 -0.26128498 -0.33676767
-0.078088574 -0.26131314 -0.33672056
-0.077923194 -0.26128539 -0.33669901
-0.077710748 -0.26128826 -0.33664447
-0.0774948 -0.26123902 -0.3366248
-0.077331997 -0.26122001 -0.336606
-0.077058397 -0.26129541 -0.33661836
-0.076915801 -0.26129419 -0.33667579
-0.076606996 -0.261372 -0.33679
-0.076408334 -0.26131099 -0.33679464
-0.076324999 -0.261352 -0.33677799
-0.076089613 -0.2613067 -0.33675167
-0.075974002 -0.26126248 -0.33673298
-0.075701833 -0.26127636 -0.33664551
-0.075505748 -0.2612415 -0.33661073
-0.075235002 -0.26124701 -0.33660799
-0.07506375 -0.2613205 -0.33662274
-0.074936628 -0.26129612 -0.33663151
-0.074712709 -0.26130685 -0.33669838
-0.074528247 -0.26132926 -0.3367545
-0.074271329 -0.26130036 -0.33676401
-0.07407707 -0.26128578 -0.3367075
-0.073928274 -0.26129463 -0.33665928
-0.073738001 -0.26124802 -0.336615
-0.072836995 -0.26124299 -0.33661002
-0.072700359 -0.26126847 -0.336624
-0.072494902 -0.26128468 -0.3366535
-0.072299667 -0.26129889 -0.33666077
-0.072100639 -0.26130486 -0.33664855
-0.071927004 -0.26125199 -0.33660901
-0.070473 -0.261237 -0.33662701
-0.070355497 -0.26128149 -0.33662099
-0.070170999 -0.2612915 -0.33663499
-0.068419002 -0.261208 -0.33661199
-0.0682735 -0.2612235 -0.336604
-0.066982001 -0.26120201 -0.336611
-0.066720001 -0.26127934 -0.33664069
-0.0664635 -0.26129213 -0.33670074
-0.066311002 -0.26127827 -0.33674502
-0.066123329 -0.26132903 -0.336786
-0.065922 -0.26136699 -0.33677801
-0.065665334 -0.26131198 -0.33673966
-0.065488666 -0.26132199 -0.336723
-0.065328501 -0.26129001 -0.33676499
-0.089518599 -0.2610862 -0.33678001
-0.089305699 -0.26109391 -0.3367438
-0.089108557 -0.26109526 -0.33673593
-0.088895224 -0.26110956 -0.33674842
-0.088723004 -0.261143 -0.33678499
-0.088124 -0.26114199 -0.33678901
-0.087888993 -0.26109114 -0.33671984
-0.087676197 -0.26109582 -0.33662641
-0.087534003 -0.261051 -0.33660099
-0.087017998 -0.261011 -0.33661899
-0.086891674 -0.26107851 -0.33664981
-0.086688995 -0.26106864 -0.33667201
-0.086285852 -0.26108858 -0.33677158
-0.086122997 -0.26108813 -0.33675072
-0.085921422 -0.26110512 -0.33667359
-0.085698001 -0.26105601 -0.336604
-0.084939003 -0.261026 -0.336606
-0.084683001 -0.26109836 -0.33663103
-0.084459163 -0.26109985 -0.33670852
-0.084289007 -0.26110801 -0.33670518
-0.084060669 -0.26112232 -0.33668533
-0.083866999 -0.261105 -0.33661902
-0.083769999 -0.26107401 -0.33661801
-0.082857504 -0.26109174 -0.336629
-0.082704835 -0.26110503 -0.33667484
-0.08251217 -0.26109532 -0.33675766
-0.08230456 -0.26110643 -0.33676332
-0.082106747 -0.26112473 -0.33673826
-0.081859 -0.26109082 -0.33667919
-0.081714243 -0.26107225 -0.33662874
-0.081510499 -0.26102948 -0.33661598
-0.081099555 -0.26111999 -0.3366209
-0.080898896 -0.26112354 -0.33666033
-0.080680162 -0.26111466 -0.33675134
-0.080033608 -0.26109239 -0.3367728
-0.079807997 -0.261136 -0.33667803
-0.079796001 -0.26102501 -0.33671799
-0.079241246 -0.2611005 -0.33662924
-0.079082556 -0.26109785 -0.33664799
-0.078913003 -0.26108032 -0.33667085
-0.078752398 -0.26108998 -0.33671078
-0.078033499 -0.26113051 -0.336779
-0.077908859 -0.26112673 -0.33675629
-0.077713497 -0.26111767 -0.33671686
-0.077497832 -0.26109752 -0.33666703
-0.077321999 -0.26111251 -0.33662498
-0.077051997 -0.26108703 -0.33668384
-0.076909333 -0.26108918 -0.33671847
-0.076039001 -0.261161 -0.33679551
-0.075968996 -0.26113099 -0.33679003
-0.075673804 -0.2610932 -0.3367058
-0.075509466 -0.26109067 -0.33666945
-0.075301558 -0.2610983 -0.33665276
-0.075066835 -0.26109949 -0.33667549
-0.074917831 -0.26111111 -0.3366864
-0.074688241 -0.26111263 -0.33677039
-0.074569002 -0.26117799 -0.33678001
-0.074271329 -0.26116768 -0.33678934
-0.074085504 -0.26114649 -0.33676401
-0.073918894 -0.26111132 -0.33673599
-0.073701464 -0.26109231 -0.33666751
-0.073556401 -0.26106241 -0.33663577
-0.073089831 -0.26109052 -0.33662602
-0.072894499 -0.26109734 -0.33663067
-0.072712123 -0.26109499 -0.33667174
-0.072517999 -0.2610909 -0.33669811
-0.072320223 -0.2610971 -0.33673415
-0.072097585 -0.26108846 -0.33672428
-0.071894832 -0.26107433 -0.33667919
-0.071750998 -0.26104 -0.33662897
-0.070960999 -0.26101202 -0.33662552
-0.070638336 -0.26108265 -0.33663797
-0.070457332 -0.26108599 -0.33667803
-0.0703355 -0.26109299 -0.33668935
-0.070093006 -0.26111358 -0.33667129
-0.06992425 -0.2610665 -0.33664525
-0.068452001 -0.26108223 -0.33660823
-0.068263248 -0.26111352 -0.33662224
-0.068196997 -0.261006 -0.336685
-0.067788996 -0.26108932 -0.33663335
-0.067189999 -0.261053 -0.336606
-0.066972502 -0.26109201 -0.33662498
-0.066703498 -0.26109749 -0.33666599
-0.06647066 -0.261105 -0.33675668
-0.066338338 -0.26113668 -0.33678767
-0.065650001 -0.261163 -0.33679199
-0.065476507 -0.26114953 -0.33669299
-0.089285001 -0.26092303 -0.33677775
-0.089095421 -0.26088294 -0.33677956
-0.088927999 -0.26090601 -0.33678341
-0.088794 -0.26096401 -0.336788
-0.087801002 -0.26095501 -0.33669901
-0.087694712 -0.2608867 -0.33669981
-0.0875035 -0.26088232 -0.33662951
-0.087252997 -0.26085001 -0.33660501
-0.087057747 -0.26089299 -0.33666727
-0.086901248 -0.26089627 -0.33669052
-0.086730257 -0.26089674 -0.33668798
-0.086595997 -0.26090097 -0.336689
-0.086286001 -0.2609345 -0.33679
-0.0861625 -0.26093751 -0.336786
-0.085909627 -0.26089939 -0.3367523
-0.085683011 -0.26090732 -0.33665332
-0.085487001 -0.26085499 -0.336602
-0.085236996 -0.260856 -0.336647
-0.085088 -0.26087457 -0.33662829
-0.084957331 -0.26088101 -0.33662665
-0.084661998 -0.26088098 -0.33667302
-0.084484339 -0.26088035 -0.33674702
-0.084317498 -0.26089025 -0.3367869
-0.08403834 -0.260901 -0.33674869
-0.083846003 -0.26091734 -0.33670101
-0.083711997 -0.26091379 -0.3366496
-0.083563998 -0.26090401 -0.33661598
-0.083301 -0.2608375 -0.33662251
-0.083071001 -0.26085198 -0.33664399
-0.082857668 -0.26089001 -0.3366735
-0.082682826 -0.26088467 -0.33673084
-0.082552001 -0.26094401 -0.33679
-0.082290001 -0.260959 -0.33679801
-0.082018338 -0.26091632 -0.33675969
-0.0818564 -0.26091081 -0.33674681
-0.081674002 -0.26090699 -0.33668599
-0.081495665 -0.26088151 -0.3366625
-0.081078216 -0.26090077 -0.33666855
-0.080899574 -0.26091167 -0.33672169
-0.080738999 -0.260883 -0.33677661
-0.079782501 -0.2609095 -0.3367815
-0.079523675 -0.26089466 -0.33668733
-0.079294831 -0.26091033 -0.33667579
-0.079121657 -0.260919 -0.33671498
-0.078925833 -0.26089299 -0.33672902
-0.078716002 -0.26091179 -0.33677119
-0.077679999 -0.26094198 -0.33678165
-0.077522337 -0.26090732 -0.33673069
-0.077346168 -0.260921 -0.33671236
-0.077033997 -0.26090276 -0.33673224
-0.076912999 -0.260914 -0.33677235
-0.075745001 -0.260993 -0.33678901
-0.075530402 -0.26090041 -0.33674598
-0.07532686 -0.26091698 -0.33670568
-0.075129002 -0.26089701 -0.33674836
-0.074915692 -0.26089722 -0.33675355
-0.074750997 -0.26095599 -0.33678901
-0.073858999 -0.260997 -0.33679399
-0.073720999 -0.26090562 -0.33676103
-0.073513918 -0.26088971 -0.33669832
-0.07331156 -0.26088911 -0.33666289
-0.073082797 -0.2608937 -0.3366951
-0.0728845 -0.26091862 -0.33669478
-0.072700769 -0.26090309 -0.33673063
-0.072516747 -0.26091012 -0.33674976
-0.072342001 -0.26099101 -0.33678564
-0.0720938 -0.26093239 -0.33678579
-0.071873799 -0.26091582 -0.336757
-0.071692005 -0.2608901 -0.33669904
-0.07147038 -0.26090261 -0.33664501
-0.071312003 -0.26088125 -0.33664399
-0.071071833 -0.26089683 -0.3366265
-0.070948258 -0.26089799 -0.33667526
-0.070617497 -0.260892 -0.33671951
-0.070439503 -0.26090199 -0.336716
-0.070316255 -0.26090601 -0.336748
-0.070086256 -0.26092178 -0.336761
-0.069903225 -0.26089445 -0.33672845
-0.069706202 -0.26090059 -0.33665439
-0.0695685 -0.26089197 -0.33661002
-0.069302 -0.26083601 -0.33661801
-0.069050506 -0.26082051 -0.336624
-0.068914331 -0.26084569 -0.33661631
-0.068695202 -0.26088679 -0.3366372
-0.068507373 -0.26090324 -0.33664462
-0.068342842 -0.26091567 -0.33668852
-0.068185501 -0.26089251 -0.33671799
-0.067711674 -0.26091599 -0.33669534
-0.067499876 -0.26087138 -0.33668226
-0.067295834 -0.26089266 -0.33667043
-0.067171663 -0.26089731 -0.33668366
-0.066952325 -0.26090434 -0.33669165
-0.066686496 -0.26094449 -0.33672798
-0.066473 -0.260975 -0.336799
-0.089055993 -0.26074198 -0.33679602
-0.087724254 -0.26070026 -0.33675575
-0.087487631 -0.26069349 -0.33669153
-0.087237664 -0.26070234 -0.33665064
-0.087091662 -0.26070431 -0.33671299
-0.086918108 -0.26071376 -0.33672631
-0.086725205 -0.260732 -0.33670342
-0.085828662 -0.26067832 -0.336777
-0.085662 -0.26068866 -0.33669865
-0.085471332 -0.26070634 -0.33665201
-0.085227996 -0.26072064 -0.33662167
-0.085083999 -0.26072016 -0.33662978
-0.084940247 -0.26069975 -0.33665901
-0.084645502 -0.26070049 -0.336698
-0.084467001 -0.260699 -0.33678001
-0.084379002 -0.260737 -0.336786
-0.083825998 -0.26072949 -0.33676702
-0.083678663 -0.26070401 -0.33673599
-0.083543994 -0.26071832 -0.33668467
-0.083287001 -0.26069102 -0.33665752
-0.083055004 -0.260701 -0.336703
-0.082853995 -0.26071733 -0.33671868
-0.082690403 -0.260694 -0.33677319
-0.081671499 -0.26074201 -0.33675301
-0.08147575 -0.260694 -0.33673197
-0.081078604 -0.2606864 -0.33676741
-0.080925122 -0.26068231 -0.33675855
-0.080783002 -0.26075301 -0.33678499
-0.079501502 -0.26070249 -0.33678102
-0.079269506 -0.26068285 -0.33677602
-0.079094179 -0.26070553 -0.33676729
-0.07891871 -0.26072901 -0.33677086
-0.078757003 -0.26077801 -0.33680001
-0.077463001 -0.26076001 -0.336795
-0.077329502 -0.26076949 -0.33677649
-0.077042997 -0.260786 -0.336786
-0.076972 -0.26078999 -0.33678848
-0.075502001 -0.26079023 -0.33677751
-0.07534425 -0.26077825 -0.33676276
-0.075149998 -0.26077199 -0.33678734
-0.074957997 -0.26076901 -0.33679748
-0.073537201 -0.26074162 -0.33677739
-0.073333628 -0.26070687 -0.33674851
-0.073085248 -0.26071337 -0.336748
-0.072910666 -0.26073134 -0.33677065
-0.072712131 -0.26073101 -0.33678412
-0.072503 -0.260773 -0.33678901
-0.071878999 -0.26079899 -0.33678001
-0.071741335 -0.26075467 -0.33678368
-0.071485557 -0.26069891 -0.33672753
-0.071316876 -0.26068366 -0.33671737
-0.071065143 -0.26071414 -0.33671641
-0.07094387 -0.26069775 -0.33675414
-0.070602998 -0.260775 -0.33679101
-0.070427999 -0.26078901 -0.33675
-0.070344999 -0.260795 -0.33675799
-0.069805004 -0.260748 -0.33678901
-0.069674663 -0.26068902 -0.33673799
-0.069546334 -0.26069933 -0.336707
-0.06938 -0.26070932 -0.33669901
-0.069088496 -0.26069868 -0.3366878
-0.068911247 -0.26070449 -0.33668199
-0.068682998 -0.26071024 -0.3367115
-0.068483427 -0.26070428 -0.33674341
-0.068295747 -0.26070577 -0.33679
-0.068169333 -0.2607123 -0.33673903
-0.067510754 -0.26070499 -0.33677351
-0.067285858 -0.26070744 -0.33674401
-0.067166664 -0.26069432 -0.33676067
-0.087660998 -0.26058999 -0.336795
-0.087521747 -0.26052776 -0.33677199
-0.087286398 -0.26048902 -0.33673221
-0.087072335 -0.26048931 -0.33674034
-0.086908281 -0.26051456 -0.33677617
-0.086742997 -0.26052999 -0.33676499
-0.0856435 -0.26050499 -0.33674651
-0.085449338 -0.26048499 -0.33671167
-0.085210502 -0.260539 -0.336656
-0.085077323 -0.26051146 -0.33668199
-0.084931426 -0.26050314 -0.33672455
-0.084628001 -0.26054701 -0.33677351
-0.083663493 -0.260555 -0.33678001
-0.083520658 -0.26049435 -0.33676234
-0.083348334 -0.26050967 -0.33668232
-0.083110996 -0.260508 -0.33676267
-0.082864501 -0.260557 -0.33676451
-0.082783997 -0.26055801 -0.336777
-0.081464 -0.26058251 -0.336766
-0.081022501 -0.26049602 -0.33679003
-0.080942497 -0.26053649 -0.33677951
-0.073358998 -0.2605935 -0.336797
-0.071352497 -0.260539 -0.33678752
-0.071025997 -0.26055101 -0.33679599
-0.069362 -0.26055199 -0.33678299
-0.069112003 -0.2605775 -0.33676299
-0.068910502 -0.26056725 -0.33676675
-0.068670005 -0.26059598 -0.33676651
-0.067235 -0.26059401 -0.336797
-0.087319337 -0.26034868 -0.33677998
-0.087124497 -0.260299 -0.33678851
-0.086952001 -0.26034901 -0.336799
-0.085431002 -0.260333 -0.33678699
-0.085111573 -0.26030213 -0.33676001
-0.084929287 -0.2603147 -0.3367677
-0.083328001 -0.26034799 -0.336799
-0.083172999 -0.260355 -0.336781
-0.087186001 -0.260185 -0.33679801
-0.077939004 -0.274268 -0.336595
-0.077679001 -0.27420601 -0.33659801
-0.077486999 -0.274216 -0.33659199
-0.077399001 -0.27421999 -0.336597
-0.078570001 -0.27401701 -0.336595
-0.078107998 -0.274084 -0.33655283
-0.077931002 -0.27412999 -0.33654901
-0.077672333 -0.27407065 -0.33652499
-0.077479668 -0.27408037 -0.3365247
-0.077312998 -0.27406266 -0.33654985
-0.077099398 -0.2740376 -0.33656162
-0.076010004 -0.27401 -0.33659101
-0.075908005 -0.27401149 -0.33658499
-0.080026999 -0.273839 -0.33657765
-0.079906598 -0.27387759 -0.33656061
-0.079763502 -0.27385998 -0.33653802
-0.079521999 -0.27390167 -0.336575
-0.079331666 -0.27388299 -0.33655468
-0.079112001 -0.27387178 -0.3365615
-0.078906335 -0.27386633 -0.33657667
-0.078681394 -0.2738834 -0.33656001
-0.078517333 -0.27388299 -0.33654186
-0.078383334 -0.27388933 -0.33651969
-0.078101449 -0.27391535 -0.33644068
-0.077924505 -0.27396101 -0.33643299
-0.077663004 -0.2738995 -0.33644903
-0.077472001 -0.273911 -0.33643401
-0.077309996 -0.27388 -0.33647716
-0.077108942 -0.27389848 -0.33650503
-0.076822504 -0.2738705 -0.336564
-0.076644577 -0.27388358 -0.33657083
-0.076486394 -0.27386323 -0.33656245
-0.076327503 -0.273853 -0.336566
-0.076062903 -0.27388248 -0.33653387
-0.075910442 -0.27387643 -0.33650002
-0.075679004 -0.27384984 -0.33653769
-0.075533666 -0.27384701 -0.33653665
-0.080310002 -0.273653 -0.33657899
-0.080085501 -0.27368274 -0.33653378
-0.079914875 -0.27367663 -0.33647913
-0.079753667 -0.27368966 -0.336472
-0.079573333 -0.273698 -0.33648834
-0.07938733 -0.27369568 -0.33647001
-0.079110324 -0.27372 -0.33645779
-0.07889922 -0.27372989 -0.33650935
-0.07869 -0.27371961 -0.33647799
-0.078506336 -0.27367815 -0.33644986
-0.078375995 -0.27371949 -0.33642051
-0.077657998 -0.27379799 -0.33640099
-0.077233002 -0.27374399 -0.336431
-0.077087693 -0.27371582 -0.33642215
-0.076814331 -0.27370098 -0.33647099
-0.07664378 -0.27370846 -0.3364726
-0.076494001 -0.27371272 -0.33649138
-0.076321162 -0.27371749 -0.33648619
-0.07609725 -0.2737186 -0.33646888
-0.075920425 -0.27371159 -0.33642259
-0.075670332 -0.27367979 -0.33645424
-0.075513996 -0.27369133 -0.33644566
-0.075308561 -0.27369079 -0.33653846
-0.07513871 -0.27365327 -0.33657727
-0.080309659 -0.27351466 -0.33654109
-0.080128178 -0.27350834 -0.336481
-0.079935566 -0.27348843 -0.33642897
-0.079746 -0.273554 -0.33641499
-0.079379 -0.273559 -0.33642
-0.079121001 -0.27356249 -0.3364225
-0.078899503 -0.27353388 -0.33642262
-0.078717001 -0.273597 -0.33642301
-0.078543 -0.27353901 -0.336404
-0.076470569 -0.27354726 -0.33642429
-0.076314002 -0.27358103 -0.33642101
-0.076114997 -0.27358699 -0.336409
-0.075292423 -0.27350715 -0.33643547
-0.075088494 -0.27349055 -0.33649939
-0.074963003 -0.27348599 -0.33654875
-0.074703708 -0.27346057 -0.33659285
-0.074011996 -0.2734355 -0.33657551
-0.073876671 -0.27342901 -0.33656266
-0.073755667 -0.27340734 -0.33658502
-0.081823997 -0.273222 -0.336593
-0.081690997 -0.27322599 -0.33657849
-0.081458002 -0.27323699 -0.33659199
-0.081067003 -0.27326757 -0.33655143
-0.080816001 -0.27327666 -0.33658668
-0.080556668 -0.27328733 -0.33652532
-0.080317572 -0.27331731 -0.33646727
-0.080128714 -0.27335715 -0.33642599
-0.075027995 -0.27335766 -0.33644167
-0.074874714 -0.27330846 -0.33651045
-0.074707925 -0.27330244 -0.33654925
-0.074517146 -0.2733033 -0.33655617
-0.074312896 -0.27331388 -0.33655104
-0.07408645 -0.27332091 -0.33654261
-0.07386183 -0.27327082 -0.33647168
-0.073727585 -0.27327242 -0.33650967
-0.073508568 -0.27324256 -0.33657798
-0.073344998 -0.27321851 -0.33658552
-0.082035333 -0.273029 -0.33656669
-0.081883006 -0.27307338 -0.33655939
-0.081682168 -0.27308834 -0.33654085
-0.081452668 -0.273103 -0.33651033
-0.081079006 -0.27311084 -0.33647174
-0.080803499 -0.27310351 -0.33655602
-0.080798998 -0.273002 -0.33649799
-0.080544002 -0.27308235 -0.33646202
-0.080335326 -0.27314463 -0.33641663
-0.07481233 -0.27309665 -0.33642831
-0.074697338 -0.27309814 -0.33645234
-0.074523501 -0.27310166 -0.33648464
-0.074334361 -0.27311626 -0.33646217
-0.074093118 -0.27312109 -0.33646604
-0.073996998 -0.27316248 -0.336456
-0.073719382 -0.27310339 -0.33642325
-0.073530339 -0.27307811 -0.33648267
-0.073337093 -0.27307701 -0.33653629
-0.07315325 -0.27303702 -0.33657002
-0.082059607 -0.272892 -0.3365446
-0.081879549 -0.27287611 -0.33649477
-0.081669666 -0.27288336 -0.33646765
-0.081440002 -0.27289701 -0.33644101
-0.081059337 -0.27292344 -0.33643612
-0.0807935 -0.27289999 -0.33644801
-0.080536 -0.272946 -0.33641699
-0.074871004 -0.27295199 -0.336402
-0.074690998 -0.2729328 -0.3364186
-0.074538998 -0.27293369 -0.33641729
-0.073482662 -0.27292332 -0.33641365
-0.073319502 -0.27289402 -0.33644575
-0.073096938 -0.27288434 -0.33653018
-0.072976001 -0.27281901 -0.33656901
-0.082457662 -0.27265301 -0.33658031
-0.082084425 -0.27273288 -0.33651319
-0.081928 -0.27268797 -0.33644012
-0.081704497 -0.27270925 -0.33642074
-0.0810638 -0.2727412 -0.33641821
-0.080788001 -0.272798 -0.33640099
-0.073231995 -0.27271551 -0.336411
-0.073085614 -0.27267969 -0.33644444
-0.0729215 -0.27268168 -0.33652851
-0.083645001 -0.27242601 -0.33658302
-0.083512001 -0.27242601 -0.33659399
-0.083277665 -0.27246499 -0.33658233
-0.083181001 -0.27244699 -0.33658999
-0.082985505 -0.27250051 -0.336584
-0.082703494 -0.27246097 -0.33656049
-0.082505003 -0.27248824 -0.33655044
-0.082096398 -0.27252823 -0.3364442
-0.081961498 -0.27259749 -0.33640748
-0.073056892 -0.27248722 -0.33642012
-0.072929747 -0.27246648 -0.33646414
-0.072722748 -0.27246612 -0.3365511
-0.072470203 -0.27244538 -0.33657339
-0.072293498 -0.272425 -0.33659101
-0.071953498 -0.27244598 -0.33659852
-0.083842501 -0.27224749 -0.33656099
-0.083722658 -0.27228752 -0.33654895
-0.083549671 -0.27228934 -0.33652532
-0.083317779 -0.27230144 -0.33654469
-0.083142169 -0.2723105 -0.33655381
-0.082909331 -0.27233052 -0.33654866
-0.082716167 -0.27227297 -0.33648154
-0.082493216 -0.272284 -0.33647361
-0.073022999 -0.272331 -0.336409
-0.072895668 -0.27231333 -0.33643636
-0.072704993 -0.27228841 -0.3364974
-0.072476886 -0.27228078 -0.33651453
-0.072295338 -0.27228856 -0.33652812
-0.072043337 -0.2722995 -0.3365438
-0.071922779 -0.27231023 -0.33652979
-0.071568996 -0.27227849 -0.33653802
-0.084307 -0.272044 -0.33658499
-0.084064797 -0.27207461 -0.3365384
-0.083832674 -0.27207634 -0.33649698
-0.083711505 -0.27208385 -0.3364602
-0.083537005 -0.27208433 -0.33645999
-0.083305769 -0.27209657 -0.33647078
-0.083129831 -0.27210566 -0.33648133
-0.082897164 -0.27212501 -0.33647481
-0.082720995 -0.27211264 -0.33643165
-0.082514808 -0.272089 -0.33642921
-0.082399003 -0.27215099 -0.33641201
-0.072840497 -0.27216399 -0.336413
-0.07270775 -0.27212125 -0.33644098
-0.072473124 -0.27208322 -0.33644927
-0.072303504 -0.27210701 -0.33644465
-0.072084717 -0.27209327 -0.33643886
-0.071921006 -0.27209929 -0.33642831
-0.071560003 -0.27210867 -0.33646265
-0.071318664 -0.27209318 -0.33656284
-0.085220002 -0.271864 -0.33658701
-0.085151337 -0.27186999 -0.33656633
-0.084953502 -0.2718465 -0.33656001
-0.084713668 -0.27189133 -0.33656049
-0.084516495 -0.27189767 -0.33657613
-0.084299326 -0.27190664 -0.33652535
-0.084146 -0.27191499 -0.33648467
-0.083889395 -0.271882 -0.3364504
-0.083746001 -0.271945 -0.33642301
-0.083480999 -0.2719135 -0.33641601
-0.083326198 -0.27191719 -0.33641618
-0.0831118 -0.27191439 -0.33642441
-0.082909666 -0.27196565 -0.33641401
-0.082744002 -0.271997 -0.336402
-0.07269267 -0.271992 -0.33641768
-0.072536997 -0.27193201 -0.33641601
-0.072293997 -0.27194601 -0.336402
-0.071552001 -0.27197099 -0.33641201
-0.071291879 -0.27192038 -0.33649814
-0.071099006 -0.27187502 -0.33654866
-0.070952997 -0.27186 -0.33659899
-0.085558996 -0.2716715 -0.33656999
-0.085300997 -0.27172321 -0.3365539
-0.085141003 -0.2717005 -0.33650899
-0.084943332 -0.27167532 -0.33650336
-0.084702335 -0.27168748 -0.33647683
-0.084503829 -0.27169302 -0.33651164
-0.084287338 -0.27170232 -0.33644602
-0.084132671 -0.271709 -0.33642936
-0.083985999 -0.271761 -0.33641702
-0.071270004 -0.27174151 -0.33642501
-0.071114831 -0.27171552 -0.33648017
-0.070920005 -0.2717078 -0.336559
-0.085876577 -0.27146813 -0.33657286
-0.0858 -0.27142 -0.33656001
-0.085548662 -0.27150068 -0.33651301
-0.08531414 -0.27152613 -0.33649588
-0.085156597 -0.27151281 -0.33646199
-0.0849315 -0.27150351 -0.33647001
-0.084687501 -0.27148053 -0.33643952
-0.084491163 -0.27148736 -0.336449
-0.084274501 -0.2715295 -0.336429
-0.071065754 -0.27152824 -0.33642799
-0.070901506 -0.27151617 -0.33650616
-0.070748001 -0.271476 -0.33657449
-0.086098999 -0.271256 -0.33659899
-0.085913599 -0.27127928 -0.33652228
-0.085792668 -0.27128467 -0.33650532
-0.085536331 -0.27129599 -0.33644733
-0.085330404 -0.27132443 -0.33642799
-0.085153498 -0.271355 -0.33642149
-0.084922999 -0.27136651 -0.33642399
-0.084722504 -0.27130699 -0.336409
-0.0844815 -0.2713505 -0.33641949
-0.071011998 -0.27130333 -0.33641198
-0.070882596 -0.27132201 -0.33646098
-0.070695557 -0.27130792 -0.33650529
-0.070471503 -0.27127877 -0.336577
-0.070262 -0.27128851 -0.336568
-0.070069499 -0.27123401 -0.33656448
-0.06988778 -0.27128211 -0.33657509
-0.069748998 -0.27121699 -0.33656001
-0.069595002 -0.27122101 -0.336588
-0.086090334 -0.27111802 -0.33655098
-0.085919194 -0.27109674 -0.33647144
-0.085780002 -0.27107999 -0.33643731
-0.070843004 -0.27110031 -0.33642936
-0.070707135 -0.27111042 -0.33645153
-0.070495129 -0.27109951 -0.33649012
-0.070252992 -0.27111968 -0.33649066
-0.070065007 -0.271101 -0.336474
-0.069876999 -0.27107885 -0.33648288
-0.069743 -0.271083 -0.33648536
-0.069522247 -0.27107939 -0.33655661
-0.086314499 -0.27086252 -0.33657199
-0.086077332 -0.27091369 -0.33648834
-0.085967995 -0.27092749 -0.33643526
-0.070715502 -0.270962 -0.33641702
-0.070479803 -0.2709454 -0.3364262
-0.070242003 -0.27094752 -0.3364355
-0.070056498 -0.2709645 -0.33642599
-0.0698568 -0.27091542 -0.33641821
-0.069734998 -0.27094701 -0.33642599
-0.069502108 -0.27088398 -0.33647755
-0.069314599 -0.270877 -0.33655259
-0.086659998 -0.27060801 -0.336588
-0.086492002 -0.27064249 -0.33655751
-0.086304329 -0.270693 -0.336514
-0.086064674 -0.27070901 -0.33642635
-0.085963666 -0.27071598 -0.33642969
-0.069444999 -0.27072832 -0.33642697
-0.069274373 -0.27069539 -0.3364926
-0.069133252 -0.27067274 -0.33655551
-0.068998002 -0.27063501 -0.33658201
-0.087098666 -0.27046433 -0.33658531
-0.086969666 -0.270466 -0.33659199
-0.086710706 -0.27048486 -0.33656999
-0.086480655 -0.27047032 -0.33652031
-0.086290002 -0.27048567 -0.3364723
-0.086053997 -0.27057001 -0.33641201
-0.069247 -0.27051851 -0.33642948
-0.069145329 -0.27048302 -0.33648983
-0.068990663 -0.27049831 -0.33652601
-0.087635003 -0.27021 -0.336593
-0.087509751 -0.2702485 -0.33656451
-0.087378345 -0.27028832 -0.33656967
-0.08707583 -0.27030501 -0.33653799
-0.086950995 -0.27030584 -0.33655736
-0.086720377 -0.27032077 -0.33650324
-0.086468503 -0.270298 -0.336487
-0.086275995 -0.27027932 -0.33642635
-0.069120668 -0.27032468 -0.33643231
-0.068978667 -0.27029398 -0.33645299
-0.087644756 -0.27005452 -0.33656752
-0.087498993 -0.2700775 -0.33651701
-0.087366998 -0.27008533 -0.33648765
-0.087063164 -0.27010065 -0.33647332
-0.086937509 -0.27010098 -0.33650002
-0.086697772 -0.27012402 -0.33646339
-0.086458661 -0.27012834 -0.33642367
-0.087698147 -0.26991269 -0.33655259
-0.087486662 -0.26987419 -0.33645013
-0.087351672 -0.26987836 -0.33645865
-0.087043598 -0.26991019 -0.33641821
-0.086924165 -0.26989636 -0.33644533
-0.086704291 -0.26992628 -0.33642215
-0.086448997 -0.26999199 -0.336402
-0.087899797 -0.26969081 -0.33656222
-0.087686256 -0.26973525 -0.33650687
-0.087518334 -0.269712 -0.3364253
-0.087343998 -0.26974201 -0.33640799
-0.0869155 -0.26975951 -0.33640599
-0.088224001 -0.26940399 -0.33659601
-0.088145666 -0.26948035 -0.33657035
-0.087903 -0.26949999 -0.33649418
-0.087700836 -0.26952183 -0.33644581
-0.087588668 -0.26952365 -0.33644
-0.068304002 -0.26945099 -0.33659899
-0.088279754 -0.26927799 -0.33658025
-0.088131338 -0.269274 -0.3365297
-0.087902598 -0.2693052 -0.33646879
-0.087660998 -0.26938701 -0.336413
-0.087580003 -0.26938701 -0.33640501
-0.068469003 -0.2692695 -0.33655798
-0.068260804 -0.269301 -0.3365562
-0.068087496 -0.26926601 -0.3365795
-0.067935668 -0.26928467 -0.33658567
-0.088630997 -0.26903901 -0.33659601
-0.088480994 -0.26908201 -0.33655301
-0.088302873 -0.269131 -0.3365435
-0.088145666 -0.26908734 -0.336512
-0.087944664 -0.26908001 -0.33642066
-0.068459332 -0.26910001 -0.33649334
-0.068263002 -0.26912674 -0.33649677
-0.068087637 -0.26910684 -0.33651811
-0.067908779 -0.2691251 -0.33654043
-0.067634001 -0.269061 -0.336566
-0.088868 -0.26880601 -0.33658901
-0.088622667 -0.26890266 -0.33655402
-0.088470332 -0.268911 -0.33650365
-0.088321827 -0.26891583 -0.33648649
-0.088147826 -0.26892501 -0.33649281
-0.068450496 -0.268931 -0.33640999
-0.068270661 -0.26890436 -0.33642399
-0.068114333 -0.26890644 -0.33645409
-0.06792482 -0.26892611 -0.33645102
-0.067628004 -0.26892999 -0.336485
-0.067355998 -0.26893231 -0.33657002
-0.089079998 -0.268655 -0.33659801
-0.088926502 -0.26869899 -0.336577
-0.088685997 -0.26869166 -0.33652166
-0.088455997 -0.26870432 -0.33646631
-0.088308997 -0.26871151 -0.33642414
-0.088143401 -0.26873261 -0.33645022
-0.068039998 -0.26877201 -0.33640999
-0.067987002 -0.268776 -0.33640301
-0.067618996 -0.26876 -0.336411
-0.067344666 -0.26873001 -0.33648467
-0.067085855 -0.26869828 -0.33653656
-0.089294001 -0.268437 -0.33658549
-0.089108802 -0.2685034 -0.33655319
-0.088914834 -0.26852798 -0.33653632
-0.088750333 -0.268482 -0.336476
-0.088557996 -0.268511 -0.33644974
-0.088292003 -0.26850331 -0.3364172
-0.088163495 -0.26854351 -0.33643401
-0.067335993 -0.26855952 -0.33641249
-0.067071877 -0.26852062 -0.33651489
-0.066962004 -0.26853299 -0.336593
-0.0894095 -0.2682595 -0.336573
-0.089285828 -0.26830032 -0.33654264
-0.089105666 -0.26831183 -0.33650601
-0.088901162 -0.2683225 -0.3364903
-0.088735998 -0.26827502 -0.33643734
-0.088580668 -0.26828566 -0.33641434
-0.088263668 -0.26834133 -0.33640566
-0.067067429 -0.26833156 -0.33646289
-0.066953793 -0.26828238 -0.33654398
-0.089463502 -0.2681005 -0.336568
-0.08930251 -0.26808426 -0.33650911
-0.089091659 -0.26810634 -0.33645883
-0.088887997 -0.26811817 -0.33643317
-0.088723496 -0.26810348 -0.33640802
-0.088569999 -0.26814801 -0.33640599
-0.067059658 -0.26810852 -0.33646348
-0.06693133 -0.26811564 -0.33652198
-0.089501202 -0.2678856 -0.33656898
-0.089299336 -0.26788667 -0.33647045
-0.089124002 -0.26789632 -0.33643103
-0.088811003 -0.26798201 -0.336418
-0.088715002 -0.26799801 -0.336411
-0.067028001 -0.267975 -0.33641601
-0.066901423 -0.26791573 -0.33650425
-0.066798002 -0.26782301 -0.33658701
-0.089639001 -0.26765299 -0.33658999
-0.089538246 -0.26772162 -0.33655649
-0.089314997 -0.26770234 -0.33644065
-0.089157 -0.26772201 -0.336411
-0.066874333 -0.26769719 -0.33647349
-0.0667606 -0.2676712 -0.33656779
-0.089641251 -0.26749524 -0.33657351
-0.089515671 -0.26752555 -0.33651376
-0.089354999 -0.2675015 -0.33644998
-0.066849247 -0.26750851 -0.33641875
-0.066741832 -0.26747969 -0.3365145
-0.089664742 -0.26728275 -0.33656663
-0.089499883 -0.2673178 -0.33649123
-0.0893455 -0.2673645 -0.33642352
-0.066823997 -0.26734999 -0.33640301
-0.066709712 -0.26728171 -0.3364864
-0.066597 -0.26726601 -0.33657199
-0.089814 -0.26700601 -0.33659801
-0.089693502 -0.2670944 -0.33654672
-0.089505814 -0.267104 -0.3364599
-0.066714749 -0.26709872 -0.33644751
-0.066589661 -0.267131 -0.33651498
-0.089828335 -0.26688835 -0.33658966
-0.089681126 -0.2668865 -0.33653814
-0.089519598 -0.26690829 -0.33643919
-0.089394495 -0.26687402 -0.33641398
-0.066685498 -0.26694149 -0.33644378
-0.066575669 -0.26692334 -0.33647433
-0.089862667 -0.26672599 -0.33657002
-0.089707732 -0.26671165 -0.33651796
-0.089524373 -0.26670125 -0.33642176
-0.066657998 -0.26678699 -0.33642399
-0.066558994 -0.26671368 -0.33646098
-0.066368997 -0.266637 -0.33659899
-0.089891665 -0.26651248 -0.33657566
-0.089697629 -0.26652119 -0.33650544
-0.08954417 -0.26648 -0.33642802
-0.066547498 -0.26654151 -0.336418
-0.066361338 -0.26650333 -0.33653966
-0.089875005 -0.26630366 -0.33656132
-0.089701995 -0.26631767 -0.33649021
-0.08957199 -0.26626566 -0.33643064
-0.066345334 -0.26629367 -0.3365213
-0.090172999 -0.26600099 -0.33659199
-0.089859836 -0.26609632 -0.33653352
-0.089685895 -0.26610932 -0.33646977
-0.089578994 -0.2661247 -0.33642665
-0.066331662 -0.26608768 -0.33647069
-0.090135336 -0.26588634 -0.33659163
-0.089919567 -0.26588988 -0.33655229
-0.089692824 -0.26589346 -0.33646035
-0.089562334 -0.26591599 -0.33642033
-0.066322997 -0.26595101 -0.33643001
-0.066045001 -0.26580101 -0.33659801
-0.090231493 -0.265683 -0.336595
-0.090108998 -0.26572549 -0.33657566
-0.089913398 -0.26568341 -0.3365466
-0.089704596 -0.2656967 -0.33645231
-0.089580335 -0.26570234 -0.33640766
-0.066038504 -0.265699 -0.33657101
-0.065696001 -0.265607 -0.33659399
-0.090297334 -0.26550797 -0.33657798
-0.090092994 -0.26551718 -0.33656064
-0.089920603 -0.26551455 -0.33654001
-0.089717574 -0.2654694 -0.33645001
-0.089554168 -0.26549301 -0.33640918
-0.066026337 -0.26552665 -0.33653665
-0.065845333 -0.26552966 -0.336575
-0.065688998 -0.26550448 -0.33657199
-0.090282999 -0.26533276 -0.33657551
-0.090092711 -0.26529583 -0.33655903
-0.089895494 -0.26532134 -0.33652082
-0.089708202 -0.26528138 -0.33646601
-0.066010661 -0.26531669 -0.33651367
-0.065830998 -0.26532164 -0.33653569
-0.065676667 -0.2653313 -0.33653936
-0.090338007 -0.2650485 -0.33658099
-0.09010122 -0.2650961 -0.3365508
-0.089879327 -0.26511315 -0.336503
-0.089690663 -0.26511568 -0.33646402
-0.089572497 -0.26506698 -0.33640951
-0.065905161 -0.26511016 -0.33650234
-0.065661006 -0.265122 -0.33651796
-0.065366663 -0.26511768 -0.33658934
-0.090326667 -0.26487699 -0.33654568
-0.090094626 -0.26489353 -0.33655536
-0.089882858 -0.26489383 -0.33648485
-0.089685835 -0.26491714 -0.33645821
-0.089560173 -0.26492533 -0.33642015
-0.0659355 -0.26491699 -0.33647102
-0.065705799 -0.26489457 -0.33648679
-0.065330498 -0.26490849 -0.33656773
-0.090311006 -0.26470101 -0.33655301
-0.090108663 -0.26467434 -0.3365438
-0.08992286 -0.26470199 -0.33647817
-0.089701742 -0.2647 -0.33643436
-0.089546502 -0.264752 -0.33640897
-0.065963328 -0.26468933 -0.33644032
-0.065706499 -0.26469833 -0.33646467
-0.065299794 -0.26468301 -0.33656082
-0.090297997 -0.26452801 -0.33653769
-0.090096004 -0.26450098 -0.33652201
-0.089925498 -0.26447949 -0.33648118
-0.08969675 -0.26448986 -0.33642584
-0.089522749 -0.26447049 -0.3364175
-0.065948002 -0.26448035 -0.33641329
-0.065688998 -0.26448599 -0.336467
-0.065273993 -0.26448298 -0.33657932
-0.090278663 -0.26431468 -0.33656502
-0.090081505 -0.26432651 -0.33652332
-0.089899607 -0.26428261 -0.3364906
-0.089699998 -0.26429486 -0.33645028
-0.089537568 -0.26428241 -0.33642784
-0.065934002 -0.26430401 -0.33640897
-0.06574934 -0.26427066 -0.33645234
-0.065595001 -0.26427963 -0.33645833
-0.065266594 -0.26428542 -0.33656961
-0.090260662 -0.26410267 -0.33657265
-0.090064496 -0.26411617 -0.33652198
-0.089903608 -0.26411301 -0.33649302
-0.089690603 -0.2640892 -0.33644801
-0.089548804 -0.26410979 -0.3364276
-0.065919004 -0.26412669 -0.33641601
-0.065734498 -0.26409301 -0.336456
-0.065580994 -0.264103 -0.33645302
-0.065245755 -0.2641305 -0.336568
-0.065197997 -0.264061 -0.33657399
-0.09024433 -0.26389363 -0.33656135
-0.090056002 -0.26391882 -0.3365272
-0.089895852 -0.26390642 -0.3364923
-0.089685 -0.26390019 -0.33643803
-0.089519501 -0.26389027 -0.33641323
-0.065901667 -0.26391497 -0.33640864
-0.065719664 -0.26391566 -0.33646068
-0.065564997 -0.26392433 -0.33647034
-0.065270998 -0.26391968 -0.33653867
-0.065186001 -0.26391765 -0.33658066
-0.090227008 -0.26368335 -0.33656201
-0.090070337 -0.26369098 -0.33654466
-0.089904219 -0.26370525 -0.33648601
-0.089676805 -0.2637074 -0.33646083
-0.066137999 -0.26369199 -0.33640099
-0.065884329 -0.26370367 -0.33640537
-0.065701 -0.26370201 -0.33647466
-0.065548003 -0.26371202 -0.33646432
-0.065253668 -0.26370665 -0.33654103
-0.065168671 -0.263706 -0.33658203
-0.090209 -0.263473 -0.33656335
-0.090054996 -0.26348367 -0.33651504
-0.089910433 -0.26350001 -0.33651641
-0.089700423 -0.26350829 -0.3364647
-0.089515664 -0.263486 -0.33642134
-0.089360997 -0.263464 -0.336404
-0.065863505 -0.26345399 -0.336413
-0.065683 -0.26348868 -0.33647534
-0.06553033 -0.26350001 -0.33646235
-0.065236002 -0.26349369 -0.33654299
-0.065116398 -0.2634806 -0.33658201
-0.090099603 -0.2632812 -0.33654898
-0.089910328 -0.26327735 -0.33652768
-0.089731 -0.2632935 -0.33647466
-0.0895091 -0.2633155 -0.33643621
-0.089383334 -0.26331967 -0.33640668
-0.08918 -0.26326299 -0.33640599
-0.066643 -0.263313 -0.33641335
-0.066497497 -0.26329786 -0.33640766
-0.066324502 -0.26328874 -0.33641499
-0.0661055 -0.26330101 -0.33641201
-0.065847002 -0.26327333 -0.33643803
-0.065666668 -0.26327699 -0.33646798
-0.065513 -0.26328734 -0.33646366
-0.065218665 -0.26328233 -0.336537
-0.0651014 -0.2632966 -0.33657798
-0.0901158 -0.26310879 -0.33656642
-0.089895502 -0.26310125 -0.33653051
-0.089713998 -0.26308349 -0.33647284
-0.089503005 -0.26309723 -0.33644247
-0.089313708 -0.26310346 -0.33641073
-0.089085005 -0.26312533 -0.33641502
-0.088907249 -0.2630955 -0.33640799
-0.088727996 -0.263098 -0.33642849
-0.066648833 -0.26309502 -0.33642414
-0.066497333 -0.26310542 -0.33643499
-0.066307664 -0.26310802 -0.33644199
-0.066088334 -0.26311901 -0.33644965
-0.065832004 -0.26309651 -0.33644098
-0.065651 -0.2631 -0.33647501
-0.065494001 -0.26307234 -0.336485
-0.065205 -0.26313701 -0.33656299
-0.065160006 -0.2631005 -0.33658153
-0.090060674 -0.26296067 -0.33657336
-0.089897282 -0.26291341 -0.33654043
-0.089685202 -0.26288339 -0.33650261
-0.089483999 -0.26288342 -0.33646366
-0.089299694 -0.26289821 -0.3364476
-0.089120708 -0.26290041 -0.33643341
-0.088903286 -0.26291516 -0.33644253
-0.088683859 -0.26291201 -0.336445
-0.088522002 -0.262862 -0.33642399
-0.066635206 -0.26289257 -0.33644742
-0.066503815 -0.26288989 -0.33645955
-0.066314377 -0.26287976 -0.33647636
-0.066068001 -0.26290235 -0.33647898
-0.065816 -0.262916 -0.33646536
-0.065635331 -0.26291999 -0.33649468
-0.065477997 -0.26289299 -0.33649701
-0.065187998 -0.26292399 -0.33655968
-0.089913249 -0.26271474 -0.33657974
-0.089690402 -0.26271075 -0.33652341
-0.089481004 -0.26271099 -0.33649603
-0.089300901 -0.26268101 -0.33648333
-0.089120328 -0.26269546 -0.33645976
-0.088914156 -0.26269817 -0.33647564
-0.08871758 -0.26271257 -0.33649513
-0.0885434 -0.26270321 -0.33644882
-0.088322505 -0.26266399 -0.33642352
-0.066635504 -0.26269299 -0.33649001
-0.06650833 -0.26269522 -0.3364929
-0.066294432 -0.26269287 -0.33650774
-0.066047661 -0.26268435 -0.33651766
-0.065802 -0.26277101 -0.33648399
-0.065687798 -0.26268962 -0.33649397
-0.06546367 -0.26271632 -0.33649501
-0.065168001 -0.26270732 -0.33658502
-0.089925498 -0.26249149 -0.33659202
-0.089695498 -0.26249939 -0.33655852
-0.089483671 -0.262523 -0.33653054
-0.089299187 -0.26249406 -0.33648506
-0.089099884 -0.26247922 -0.3365007
-0.088893659 -0.26248214 -0.33651802
-0.088714503 -0.26248166 -0.33655885
-0.088532001 -0.26249734 -0.33650732
-0.088315398 -0.2625002 -0.33647698
-0.074697003 -0.26243699 -0.336404
-0.066835001 -0.26248401 -0.33640599
-0.066617332 -0.26250866 -0.33653331
-0.066495724 -0.26251599 -0.33653837
-0.066299498 -0.26251552 -0.33654112
-0.066032499 -0.26250499 -0.33652601
-0.065733999 -0.26250327 -0.33651149
-0.065503404 -0.26247862 -0.33653584
-0.089695498 -0.26232702 -0.33658898
-0.089507781 -0.26230875 -0.33654499
-0.089305893 -0.26231423 -0.33651164
-0.089101143 -0.26229644 -0.33651027
-0.088875748 -0.26230076 -0.3365615
-0.088714667 -0.26231363 -0.33658066
-0.088511832 -0.26228169 -0.33654597
-0.088286169 -0.26229933 -0.33651915
-0.088085502 -0.26229301 -0.33642697
-0.086902671 -0.26223865 -0.33640635
-0.086723 -0.26224199 -0.33643299
-0.086456001 -0.262254 -0.336431
-0.082686499 -0.26230201 -0.33643201
-0.082528196 -0.26225179 -0.33642164
-0.080750003 -0.26222101 -0.33642101
-0.080565333 -0.26229969 -0.33644402
-0.078634001 -0.26225999 -0.336418
-0.078445002 -0.262252 -0.33643299
-0.078247003 -0.26220101 -0.33641201
-0.076708004 -0.26230949 -0.336431
-0.076467 -0.26228282 -0.33645082
-0.076261997 -0.26222849 -0.33640999
-0.074881002 -0.26221699 -0.336402
-0.074689403 -0.26227754 -0.3364366
-0.074492835 -0.26230398 -0.33643052
-0.074323997 -0.26225576 -0.33641976
-0.066817999 -0.26230398 -0.33643165
-0.066602997 -0.262362 -0.336564
-0.066507168 -0.2623024 -0.33657157
-0.066331998 -0.26229826 -0.33656949
-0.066102661 -0.26231831 -0.3365545
-0.065762505 -0.26230651 -0.33651102
-0.065501332 -0.26227733 -0.33655083
-0.089479119 -0.26210451 -0.33656165
-0.089292116 -0.26210502 -0.33655211
-0.089132667 -0.26212123 -0.33653012
-0.088904142 -0.26213044 -0.33658555
-0.088734001 -0.26219299 -0.336597
-0.088479668 -0.26211166 -0.33659101
-0.088257201 -0.26209819 -0.3365604
-0.08806733 -0.26211101 -0.33647299
-0.087888747 -0.26210502 -0.33641425
-0.08690533 -0.26209483 -0.33643198
-0.086740598 -0.26207682 -0.3364884
-0.086440004 -0.26210532 -0.33648899
-0.086317427 -0.26209345 -0.33644575
-0.084675804 -0.26210842 -0.33641958
-0.084469497 -0.262097 -0.33642149
-0.084352002 -0.26206899 -0.336418
-0.082716338 -0.26212534 -0.33644065
-0.082480833 -0.26209867 -0.33646598
-0.082305253 -0.26207751 -0.33643401
-0.082004003 -0.26203099 -0.33641601
-0.081001997 -0.26207799 -0.33640701
-0.080886997 -0.26206699 -0.33643416
-0.080735996 -0.26210549 -0.33649403
-0.080543667 -0.26207969 -0.33650231
-0.080212668 -0.26210967 -0.33643401
-0.080139503 -0.2620475 -0.3364245
-0.078859329 -0.26208332 -0.33642066
-0.078659497 -0.262088 -0.33649725
-0.078427337 -0.26210132 -0.3365097
-0.078234501 -0.26209003 -0.336456
-0.078080334 -0.26204866 -0.3364183
-0.077912338 -0.26203164 -0.336427
-0.077172004 -0.26204401 -0.336404
-0.076944999 -0.26209003 -0.33643001
-0.076689668 -0.26212567 -0.33648133
-0.076447748 -0.262097 -0.33651251
-0.076241799 -0.2620908 -0.33647838
-0.076135166 -0.26208606 -0.33643767
-0.075856 -0.26203799 -0.33641699
-0.074898332 -0.26209399 -0.33643365
-0.074713498 -0.26210684 -0.33647999
-0.074500501 -0.26208812 -0.33650488
-0.074280091 -0.26209709 -0.336465
-0.074133001 -0.26204368 -0.33642414
-0.072676003 -0.26207414 -0.33642402
-0.072490886 -0.26208258 -0.33643475
-0.072310492 -0.26206577 -0.33642602
-0.068499997 -0.26201999 -0.33640099
-0.066803999 -0.26215801 -0.336465
-0.066794001 -0.26204902 -0.33647701
-0.066503637 -0.26209298 -0.33658198
-0.066343002 -0.262115 -0.3365837
-0.066001996 -0.26217899 -0.336575
-0.065995 -0.26210499 -0.336593
-0.065746665 -0.26212731 -0.33652198
-0.065484747 -0.26209626 -0.33657253
-0.089468002 -0.26195401 -0.33658201
-0.089289799 -0.26194444 -0.33659321
