-0.144401 0.006033 0.088272
-0.144246 0.005816 0.087972
-0.144215 0.005581 0.087856
-0.144185 0.005346 0.087742
-0.144152 0.005110 0.087623
-0.144122 0.004875 0.087508
-0.144093 0.004639 0.087394
-0.144065 0.004402 0.087282
-0.144034 0.004166 0.087166
-0.144002 0.003930 0.087048
-0.143967 0.003694 0.086926
-0.143934 0.003457 0.086806
-0.143905 0.003220 0.086691
-0.143875 0.002982 0.086577
-0.143849 0.002744 0.086466
-0.143943 0.002491 0.086537
-0.143923 0.002252 0.086437
-0.143904 0.002013 0.086336
-0.143884 0.001773 0.086235
-0.143848 0.001535 0.086112
-0.143820 0.001296 0.085999
-0.143790 0.001057 0.085883
-0.143762 0.000817 0.085770
-0.143730 0.000578 0.085651
-0.143702 0.000338 0.085538
-0.143671 0.000098 0.085420
-0.143628 -0.000141 0.085285
-0.143436 -0.000365 0.084926
-0.143384 -0.000604 0.084777
-0.143076 -0.000817 0.084245
-0.143042 -0.001059 0.084121
-0.143010 -0.001301 0.084002
-0.142979 -0.001543 0.083884
-0.142948 -0.001785 0.083765
-0.142918 -0.002028 0.083649
-0.143026 -0.002284 0.083739
-0.142993 -0.002527 0.083617
-0.142961 -0.002770 0.083497
-0.142785 -0.003001 0.083161
-0.142753 -0.003245 0.083040
-0.142717 -0.003488 0.082915
-0.142685 -0.003733 0.082794
-0.142650 -0.003977 0.082668
-0.142615 -0.004221 0.082544
-0.142582 -0.004466 0.082422
-0.142551 -0.004712 0.082302
-0.142517 -0.004957 0.082178
-0.142483 -0.005203 0.082056
-0.142452 -0.005449 0.081936
-0.142418 -0.005695 0.081811
-0.142385 -0.005941 0.081689
-0.142350 -0.006188 0.081563
-0.142319 -0.006435 0.081444
-0.142286 -0.006682 0.081322
-0.142252 -0.006930 0.081197
-0.142214 -0.007177 0.081066
-0.142181 -0.007425 0.080944
-0.142151 -0.007673 0.080825
-0.142120 -0.007922 0.080705
-0.142092 -0.008171 0.080589
-0.142058 -0.008420 0.080465
-0.142025 -0.008669 0.080341
-0.141989 -0.008918 0.080213
-0.141957 -0.009168 0.080092
-0.141922 -0.009417 0.079964
-0.141887 -0.009667 0.079839
-0.141857 -0.009918 0.079719
-0.141827 -0.010169 0.079599
-0.141794 -0.010420 0.079476
-0.141761 -0.010671 0.079352
-0.141725 -0.010922 0.079223
-0.141692 -0.011174 0.079099
-0.141658 -0.011426 0.078974
-0.141627 -0.011678 0.078852
-0.141597 -0.011930 0.078733
-0.141565 -0.012183 0.078610
-0.141531 -0.012436 0.078484
-0.141350 -0.012684 0.078135
-0.141315 -0.012938 0.078008
-0.141279 -0.013191 0.077878
-0.141387 -0.013450 0.077967
-0.141354 -0.013704 0.077843
-0.141320 -0.013958 0.077716
-0.141287 -0.014213 0.077591
-0.141106 -0.014464 0.077241
-0.141215 -0.014723 0.077332
-0.141178 -0.014978 0.077201
-0.141141 -0.015234 0.077070
-0.141105 -0.015490 0.076940
-0.141072 -0.015746 0.076815
-0.141044 -0.016003 0.076696
-0.141016 -0.016259 0.076578
-0.140984 -0.016516 0.076455
-0.140947 -0.016774 0.076323
-0.140912 -0.017031 0.076193
-0.140732 -0.017288 0.075844
-0.140703 -0.017546 0.075724
-0.140674 -0.017804 0.075604
-0.140776 -0.018064 0.075685
-0.140737 -0.018322 0.075549
-0.140700 -0.018581 0.075416
-0.140672 -0.018841 0.075298
-0.140649 -0.019100 0.075186
-0.141498 -0.019357 0.076407
-0.141612 -0.019615 0.076505
-0.140860 -0.019879 0.075280
-0.140822 -0.020139 0.075147
-0.140796 -0.020399 0.075030
-0.140617 -0.020661 0.074680
-0.140740 -0.020921 0.074792
-0.140704 -0.021182 0.074662
-0.140824 -0.021441 0.074768
-0.140795 -0.021702 0.074647
-0.140912 -0.021962 0.074750
-0.140586 -0.022229 0.074175
-0.140402 -0.022494 0.073816
-0.140372 -0.022757 0.073693
-0.140339 -0.023020 0.073565
-0.140445 -0.023280 0.073651
-0.140402 -0.023544 0.073509
-0.140072 -0.023816 0.072925
-0.140037 -0.024081 0.072794
-0.140005 -0.024345 0.072667
-0.140128 -0.024605 0.072779
-0.140109 -0.024870 0.072673
-0.139671 -0.025149 0.071923
-0.139641 -0.025415 0.071799
-0.139611 -0.025682 0.071675
-0.139715 -0.025943 0.071757
-0.139548 -0.026215 0.071423
-0.139519 -0.026482 0.071300
-0.139487 -0.026750 0.071172
-0.139629 -0.027009 0.071314
-0.139776 -0.027269 0.071461
-0.139930 -0.027528 0.071622
-0.139793 -0.027800 0.071333
-0.139943 -0.028059 0.071486
-0.140093 -0.028318 0.071639
-0.140261 -0.028575 0.071819
-0.140431 -0.028832 0.072004
-0.140926 -0.029071 0.072689
-0.141560 -0.029300 0.073591
-0.142021 -0.029537 0.074224
-0.144922 -0.029625 0.078626
-0.145222 -0.029867 0.079013
-0.145521 -0.030108 0.079399
-0.145829 -0.030348 0.079800
-0.146132 -0.030587 0.080192
-0.146429 -0.030826 0.080575
-0.146716 -0.031065 0.080942
-0.147012 -0.031303 0.081326
-0.147299 -0.031541 0.081694
-0.147462 -0.031787 0.081870
-0.147744 -0.032024 0.082232
-0.148033 -0.032259 0.082603
-0.148329 -0.032494 0.082987
-0.148617 -0.032728 0.083358
-0.148903 -0.032962 0.083726
-0.149199 -0.033194 0.084109
-0.149486 -0.033427 0.084479
-0.149770 -0.033658 0.084846
-0.150053 -0.033890 0.085209
-0.150340 -0.034120 0.085580
-0.150627 -0.034350 0.085951
-0.150907 -0.034579 0.086312
-0.151194 -0.034808 0.086683
-0.151480 -0.035035 0.087052
-0.151644 -0.035274 0.087233
-0.151918 -0.035502 0.087584
-0.152192 -0.035729 0.087935
-0.152470 -0.035955 0.088294
-0.152750 -0.036180 0.088656
-0.153033 -0.036404 0.089022
-0.153314 -0.036628 0.089386
-0.153459 -0.036865 0.089538
-0.153734 -0.037089 0.089891
-0.153995 -0.037313 0.090224
-0.154267 -0.037535 0.090574
-0.154541 -0.037756 0.090928
-0.154821 -0.037976 0.091291
-0.155087 -0.038197 0.091632
-0.155359 -0.038417 0.091982
-0.155631 -0.038636 0.092334
-0.155902 -0.038854 0.092684
-0.156171 -0.039072 0.093031
-0.156197 -0.039319 0.092998
-0.156588 -0.039521 0.093535
-0.156742 -0.039752 0.093702
-0.157006 -0.039969 0.094043
-0.157272 -0.040184 0.094385
-0.157540 -0.040399 0.094731
-0.157805 -0.040613 0.095073
-0.158071 -0.040827 0.095416
-0.158331 -0.041041 0.095750
-0.158597 -0.041253 0.096094
-0.158860 -0.041465 0.096434
-0.159123 -0.041677 0.096774
-0.159382 -0.041888 0.097107
-0.159643 -0.042099 0.097444
-0.159905 -0.042308 0.097783
-0.160163 -0.042518 0.098115
-0.160422 -0.042727 0.098449
-0.160678 -0.042936 0.098779
-0.160938 -0.043144 0.099113
-0.161198 -0.043350 0.099451
-0.161459 -0.043557 0.099789
-0.161718 -0.043762 0.100123
-0.161852 -0.043987 0.100262
-0.162104 -0.044193 0.100586
-0.162354 -0.044398 0.100909
-0.162612 -0.044602 0.101242
-0.162759 -0.044823 0.101401
-0.163121 -0.045009 0.101900
-0.163380 -0.045210 0.102237
-0.163640 -0.045411 0.102574
-0.163888 -0.045613 0.102894
-0.164138 -0.045815 0.103216
-0.164388 -0.046015 0.103539
-0.164640 -0.046215 0.103865
-0.164894 -0.046414 0.104194
-0.165144 -0.046613 0.104518
-0.165394 -0.046811 0.104842
-0.165635 -0.047010 0.105151
-0.165755 -0.047231 0.105269
-0.165881 -0.047450 0.105399
-0.166117 -0.047649 0.105700
-0.166362 -0.047845 0.106016
-0.166608 -0.048041 0.106334
-0.166850 -0.048237 0.106646
-0.167094 -0.048432 0.106962
-0.167346 -0.048625 0.107289
-0.167590 -0.048819 0.107606
-0.167833 -0.049012 0.107920
-0.168070 -0.049206 0.108225
-0.168308 -0.049399 0.108532
-0.168547 -0.049592 0.108839
-0.168789 -0.049783 0.109153
-0.169028 -0.049974 0.109462
-0.169261 -0.050166 0.109762
-0.169495 -0.050357 0.110062
-0.169633 -0.050567 0.110211
-0.169869 -0.050757 0.110516
-0.170105 -0.050946 0.110822
-0.170340 -0.051135 0.111125
-0.170571 -0.051324 0.111422
-0.170804 -0.051512 0.111722
-0.171040 -0.051699 0.112028
-0.171277 -0.051885 0.112336
-0.171504 -0.052072 0.112627
-0.171737 -0.052258 0.112928
-0.171971 -0.052443 0.113232
-0.172199 -0.052629 0.113524
-0.172431 -0.052813 0.113825
-0.172661 -0.052997 0.114122
-0.172886 -0.053182 0.114412
-0.173114 -0.053365 0.114706
-0.173346 -0.053547 0.115007
-0.173575 -0.053729 0.115303
-0.173806 -0.053910 0.115603
-0.174031 -0.054092 0.115893
-0.174156 -0.054297 0.116024
-0.174383 -0.054478 0.116317
-0.174603 -0.054660 0.116599
-0.174824 -0.054841 0.116883
-0.174950 -0.055044 0.117017
-0.175270 -0.055200 0.117460
-0.175494 -0.055378 0.117749
-0.175719 -0.055556 0.118040
-0.175939 -0.055734 0.118324
-0.176068 -0.055935 0.118462
-0.176286 -0.056113 0.118743
-0.176506 -0.056290 0.119027
-0.176732 -0.056465 0.119321
-0.176947 -0.056642 0.119597
-0.177163 -0.056818 0.119874
-0.177380 -0.056993 0.120155
-0.177599 -0.057168 0.120438
-0.177816 -0.057343 0.120718
-0.177937 -0.057542 0.120844
-0.178150 -0.057717 0.121118
-0.178368 -0.057889 0.121400
-0.178581 -0.058063 0.121675
-0.178799 -0.058234 0.121957
-0.179015 -0.058406 0.122237
-0.179230 -0.058577 0.122515
-0.179445 -0.058748 0.122793
-0.179659 -0.058919 0.123069
-0.179874 -0.059089 0.123347
-0.180087 -0.059259 0.123623
-0.180302 -0.059427 0.123903
-0.180515 -0.059596 0.124177
-0.180729 -0.059764 0.124455
-0.180939 -0.059932 0.124726
-0.181151 -0.060100 0.125002
-0.181359 -0.060268 0.125269
-0.181568 -0.060435 0.125539
-0.181777 -0.060602 0.125810
-0.181985 -0.060769 0.126078
-0.182194 -0.060934 0.126349
-0.182400 -0.061100 0.126614
-0.182611 -0.061264 0.126888
-0.182816 -0.061430 0.127153
-0.183025 -0.061594 0.127423
-0.183228 -0.061758 0.127686
-0.183439 -0.061921 0.127959
-0.183639 -0.062085 0.128218
-0.183840 -0.062249 0.128475
-0.183950 -0.062442 0.128587
-0.184151 -0.062605 0.128847
-0.184352 -0.062767 0.129105
-0.184473 -0.062955 0.129235
-0.184670 -0.063118 0.129489
-0.184871 -0.063279 0.129748
-0.185073 -0.063440 0.130009
-0.185272 -0.063601 0.130266
-0.185473 -0.063761 0.130525
-0.185669 -0.063921 0.130778
-0.185871 -0.064080 0.131040
-0.186073 -0.064238 0.131302
-0.186275 -0.064396 0.131564
-0.186473 -0.064554 0.131819
-0.186670 -0.064712 0.132074
-0.186868 -0.064869 0.132330
-0.187157 -0.064995 0.132735
-0.187362 -0.065149 0.133003
-0.187565 -0.065303 0.133267
-0.187761 -0.065459 0.133521
-0.187952 -0.065616 0.133767
-0.188059 -0.065801 0.133876
-0.188248 -0.065959 0.134118
-0.188442 -0.066113 0.134369
-0.188633 -0.066269 0.134614
-0.188745 -0.066451 0.134733
-0.188925 -0.066610 0.134961
-0.189027 -0.066796 0.135061
-0.189204 -0.066954 0.135285
-0.189310 -0.067138 0.135393
-0.189493 -0.067294 0.135627
-0.189596 -0.067478 0.135731
-0.189765 -0.067638 0.135942
-0.189780 -0.067855 0.135901
-0.189952 -0.068013 0.136117
-0.189967 -0.068230 0.136076
-0.190134 -0.068389 0.136285
-0.190148 -0.068606 0.136243
-0.190316 -0.068765 0.136453
-0.190327 -0.068982 0.136406
-0.190420 -0.069169 0.136493
-0.190506 -0.069358 0.136568
-0.190602 -0.069544 0.136661
-0.190683 -0.069734 0.136730
-0.190696 -0.069951 0.136686
-0.190787 -0.070138 0.136769
-0.190957 -0.070294 0.136984
-0.190966 -0.070512 0.136933
-0.191139 -0.070667 0.137151
-0.191147 -0.070886 0.137100
-0.191239 -0.071071 0.137186
-0.191326 -0.071259 0.137264
-0.191424 -0.071442 0.137359
-0.191508 -0.071630 0.137433
-0.191598 -0.071816 0.137517
-0.191684 -0.072003 0.137593
-0.191783 -0.072185 0.137690
-0.191786 -0.072406 0.137630
-0.191869 -0.072595 0.137701
-0.191962 -0.072778 0.137790
-0.192049 -0.072965 0.137868
-0.192142 -0.073149 0.137956
-0.192151 -0.073367 0.137905
-0.192322 -0.073518 0.138123
-0.192416 -0.073701 0.138212
-0.192494 -0.073890 0.138276
-0.192497 -0.074111 0.138216
-0.192492 -0.074336 0.138143
-0.192500 -0.074555 0.138090
-0.192588 -0.074740 0.138172
-0.166081 -0.092034 0.092649
-0.166198 -0.092252 0.092762
-0.166590 -0.092340 0.093336
-0.166990 -0.092423 0.093922
-0.167402 -0.092499 0.094528
-0.168481 -0.092257 0.096247
-0.168589 -0.092475 0.096347
-0.168707 -0.092687 0.096465
-0.168817 -0.092904 0.096569
-0.168810 -0.093176 0.096479
-0.168924 -0.093389 0.096591
-0.169041 -0.093602 0.096707
-0.169271 -0.093759 0.097012
-0.169403 -0.093963 0.097154
-0.169519 -0.094175 0.097270
-0.173475 -0.092496 0.103798
-0.173576 -0.092708 0.103891
-0.173692 -0.092913 0.104008
-0.173795 -0.093124 0.104104
-0.173801 -0.093383 0.104036
-0.173916 -0.093587 0.104153
-0.174140 -0.093737 0.104450
-0.174257 -0.093940 0.104570
-0.174261 -0.094200 0.104499
-0.167236 -0.098856 0.092414
-0.166770 -0.099372 0.091551
-0.166618 -0.099726 0.091216
-0.166717 -0.099952 0.091300
-0.166712 -0.100231 0.091211
-0.166709 -0.100510 0.091125
-0.166936 -0.100668 0.091425
-0.166936 -0.100945 0.091344
-0.167057 -0.101158 0.091467
-0.167182 -0.101369 0.091595
-0.167413 -0.101523 0.091903
-0.167417 -0.101799 0.091828
-0.167541 -0.102009 0.091956
-0.167665 -0.102220 0.092083
-0.167896 -0.102373 0.092391
-0.167899 -0.102648 0.092316
-0.168022 -0.102858 0.092442
-0.168149 -0.103066 0.092574
-0.168262 -0.103281 0.092684
-0.168387 -0.103490 0.092814
-0.168630 -0.103634 0.093142
-0.168629 -0.103911 0.093060
-0.068452 0.091927 -0.000421
-0.070179 0.090881 0.001908
-0.070423 0.090483 0.002163
-0.070875 0.089995 0.002710
-0.070847 0.089716 0.002586
-0.071042 0.089341 0.002773
-0.071221 0.088972 0.002939
-0.071189 0.088695 0.002808
-0.071383 0.088320 0.002995
-0.071586 0.087942 0.003194
-0.071549 0.087666 0.003058
-0.071987 0.087189 0.003586
-0.072184 0.086814 0.003776
-0.072402 0.086431 0.003998
-0.072360 0.086158 0.003852
-0.072779 0.085690 0.004356
-0.072729 0.085420 0.004200
-0.072685 0.085148 0.004053
-0.073129 0.084671 0.004592
-0.073103 0.084391 0.004469
-0.073551 0.083914 0.005013
-0.073527 0.083633 0.004895
-0.073944 0.083170 0.005395
-0.073910 0.082894 0.005262
-0.074093 0.082528 0.005434
-0.074296 0.082154 0.005635
-0.074247 0.081883 0.005480
-0.074436 0.081515 0.005662
-0.074618 0.081150 0.005833
-0.075069 0.080677 0.006383
-0.075060 0.080390 0.006285
-0.075029 0.080112 0.006157
-0.075447 0.079654 0.006660
-0.075661 0.079278 0.006876
-0.075845 0.078914 0.007050
-0.075816 0.078635 0.006924
-0.076016 0.078265 0.007122
-0.076215 0.077896 0.007318
-0.076645 0.077436 0.007839
-0.076618 0.077157 0.007716
-0.076793 0.076798 0.007878
-0.076767 0.076517 0.007757
-0.076970 0.076148 0.007957
-0.077169 0.075780 0.008153
-0.077361 0.075416 0.008340
-0.077566 0.075047 0.008544
-0.077758 0.074683 0.008731
-0.077959 0.074315 0.008931
-0.078131 0.073959 0.009089
-0.078102 0.073680 0.008963
-0.078298 0.073316 0.009156
-0.078494 0.072951 0.009348
-0.078450 0.072678 0.009200
-0.078850 0.072237 0.009682
-0.078822 0.071958 0.009557
-0.079014 0.071596 0.009744
-0.079231 0.071225 0.009967
-0.079189 0.070950 0.009822
-0.079604 0.070506 0.010325
-0.079581 0.070225 0.010208
-0.080012 0.069776 0.010735
-0.079974 0.069500 0.010595
-0.080157 0.069144 0.010770
-0.080363 0.068779 0.010978
-0.080781 0.068337 0.011486
-0.080749 0.068059 0.011357
-0.080698 0.067787 0.011200
-0.081094 0.067355 0.011677
-0.081065 0.067076 0.011551
-0.081257 0.066717 0.011740
-0.081473 0.066351 0.011962
-0.081677 0.065989 0.012166
-0.081855 0.065637 0.012335
-0.082053 0.065277 0.012532
-0.082012 0.065002 0.012389
-0.082421 0.064569 0.012887
-0.082390 0.064290 0.012758
-0.082587 0.063932 0.012954
-0.082574 0.063647 0.012850
-0.082992 0.063213 0.013362
-0.083187 0.062857 0.013555
-0.083356 0.062510 0.013711
-0.083318 0.062233 0.013571
-0.083515 0.061877 0.013768
-0.083688 0.061529 0.013929
-0.083889 0.061172 0.014131
-0.084070 0.060821 0.014306
-0.084044 0.060541 0.014183
-0.084229 0.060189 0.014364
-0.084405 0.059842 0.014530
-0.084374 0.059562 0.014401
-0.084781 0.059138 0.014899
-0.084757 0.058857 0.014779
-0.084951 0.058504 0.014972
-0.085135 0.058154 0.015150
-0.085283 0.057817 0.015277
-0.085237 0.057542 0.015126
-0.085402 0.057199 0.015277
-0.085098 0.057007 0.014758
-0.085018 0.056742 0.014558
-0.141760 0.038406 0.095793
-0.141878 0.038147 0.095898
-0.142129 0.037847 0.096192
-0.142117 0.037630 0.096111
-0.142104 0.037413 0.096027
-0.142223 0.037155 0.096133
-0.142348 0.036895 0.096248
-0.142466 0.036637 0.096352
-0.142599 0.036375 0.096479
-0.142726 0.036115 0.096597
-0.142851 0.035856 0.096711
-0.142958 0.035603 0.096800
-0.142947 0.035385 0.096720
-0.143071 0.035126 0.096833
-0.143190 0.034869 0.096940
-0.143314 0.034611 0.097053
-0.143305 0.034393 0.096975
-0.143556 0.034097 0.097272
-0.143684 0.033838 0.097391
-0.143816 0.033578 0.097517
-0.143801 0.033361 0.097431
-0.143910 0.033109 0.097522
-0.144039 0.032850 0.097644
-0.144160 0.032594 0.097754
-0.144286 0.032336 0.097871
-0.144276 0.032118 0.097792
-0.144525 0.031826 0.098085
-0.144642 0.031571 0.098190
-0.144776 0.031312 0.098319
-0.144769 0.031093 0.098244
-0.145007 0.030805 0.098523
-0.145005 0.030585 0.098456
-0.145255 0.030294 0.098752
-0.145259 0.030072 0.098693
-0.145508 0.029783 0.098988
-0.145505 0.029562 0.098920
-0.145627 0.029308 0.099031
-0.145863 0.029023 0.099307
-0.145861 0.028803 0.099239
-0.146107 0.028515 0.099532
-0.146101 0.028297 0.099458
-0.146086 0.028079 0.099372
-0.146197 0.027829 0.099467
-0.146173 0.027614 0.099368
-0.146149 0.027400 0.099268
-0.146114 0.027187 0.099152
-0.146083 0.026974 0.099044
-0.145935 0.026791 0.098763
-0.145906 0.026576 0.098657
-0.146005 0.026328 0.098735
-0.145980 0.026113 0.098633
-0.145952 0.025897 0.098528
-0.145924 0.025682 0.098422
-0.145896 0.025466 0.098316
-0.145871 0.025250 0.098214
-0.145845 0.025033 0.098112
-0.145817 0.024817 0.098006
-0.145658 0.024633 0.097709
-0.145628 0.024416 0.097600
-0.145600 0.024199 0.097493
-0.145572 0.023982 0.097386
-0.145541 0.023766 0.097276
-0.145513 0.023548 0.097170
-0.145483 0.023330 0.097061
-0.145453 0.023113 0.096951
-0.145418 0.022896 0.096834
-0.145389 0.022678 0.096725
-0.145360 0.022459 0.096618
-0.145334 0.022240 0.096514
-0.145304 0.022022 0.096403
-0.145273 0.021803 0.096293
-0.145240 0.021585 0.096178
-0.145205 0.021366 0.096062
-0.145173 0.021147 0.095948
-0.145144 0.020927 0.095839
-0.145118 0.020707 0.095735
-0.145093 0.020485 0.095632
-0.145064 0.020265 0.095523
-0.145033 0.020044 0.095411
-0.145000 0.019824 0.095296
-0.144971 0.019603 0.095187
-0.144944 0.019381 0.095082
-0.144919 0.019159 0.094978
-0.144892 0.018936 0.094872
-0.144860 0.018715 0.094758
-0.144828 0.018493 0.094644
-0.144675 0.018297 0.094353
-0.144645 0.018074 0.094242
-0.144615 0.017851 0.094131
-0.144584 0.017629 0.094019
-0.144554 0.017405 0.093907
-0.144525 0.017182 0.093797
-0.144496 0.016958 0.093688
-0.144470 0.016733 0.093581
-0.144440 0.016509 0.093471
-0.144277 0.016311 0.093164
-0.144364 0.016063 0.093224
-0.144333 0.015838 0.093111
-0.144301 0.015614 0.092996
-0.144150 0.015412 0.092707
-0.144238 0.015163 0.092769
-0.144091 0.014960 0.092484
-0.144063 0.014733 0.092376
-0.144036 0.014507 0.092267
-0.144003 0.014281 0.092152
-0.143973 0.014054 0.092039
-0.143943 0.013827 0.091926
-0.143913 0.013600 0.091814
-0.143883 0.013373 0.091701
-0.143853 0.013145 0.091589
-0.143823 0.012917 0.091477
-0.143794 0.012689 0.091365
-0.143888 0.012439 0.091436
-0.143857 0.012211 0.091322
-0.143828 0.011982 0.091211
-0.143675 0.011774 0.090916
-0.143646 0.011545 0.090805
-0.143617 0.011315 0.090694
-0.143588 0.011086 0.090582
-0.143556 0.010856 0.090467
-0.143523 0.010627 0.090349
-0.143491 0.010397 0.090232
-0.143461 0.010166 0.090119
-0.143430 0.009936 0.090004
-0.143400 0.009705 0.089890
-0.143367 0.009474 0.089772
-0.143334 0.009243 0.089655
-0.143301 0.009012 0.089536
-0.143272 0.008780 0.089424
-0.143243 0.008548 0.089311
-0.143217 0.008315 0.089204
-0.143188 0.008082 0.089092
-0.143159 0.007849 0.088979
-0.143124 0.007617 0.088857
-0.143089 0.007385 0.088737
-0.143057 0.007152 0.088620
-0.143028 0.006918 0.088506
-0.143000 0.006684 0.088396
-0.142973 0.006449 0.088285
-0.142941 0.006215 0.088167
-0.142909 0.005981 0.088051
-0.142878 0.005746 0.087934
-0.142848 0.005511 0.087821
-0.142817 0.005276 0.087704
-0.142784 0.005041 0.087584
-0.142750 0.004806 0.087463
-0.142719 0.004570 0.087348
-0.142691 0.004334 0.087236
-0.142662 0.004097 0.087123
-0.142633 0.003860 0.087009
-0.142601 0.003624 0.086890
-0.142570 0.003387 0.086774
-0.142538 0.003150 0.086656
-0.142509 0.002912 0.086542
-0.142481 0.002674 0.086429
-0.142456 0.002436 0.086321
-0.142430 0.002197 0.086211
-0.142398 0.001959 0.086092
-0.142374 0.001719 0.085986
-0.142345 0.001480 0.085872
-0.142313 0.001242 0.085753
-0.142279 0.001003 0.085632
-0.142241 0.000764 0.085504
-0.142214 0.000524 0.085392
-0.142319 0.000269 0.085478
-0.142150 0.000044 0.085154
-0.141973 -0.000181 0.084818
-0.141922 -0.000420 0.084670
-0.141749 -0.000647 0.084339
-0.141707 -0.000887 0.084205
-0.141672 -0.001129 0.084081
-0.141640 -0.001371 0.083961
-0.141612 -0.001613 0.083846
-0.141584 -0.001856 0.083734
-0.141556 -0.002099 0.083619
-0.141526 -0.002342 0.083503
-0.141494 -0.002585 0.083382
-0.141460 -0.002828 0.083259
-0.141423 -0.003071 0.083131
-0.141392 -0.003315 0.083013
-0.141362 -0.003560 0.082896
-0.141329 -0.003804 0.082774
-0.141290 -0.004048 0.082643
-0.141251 -0.004292 0.082512
-0.141212 -0.004537 0.082380
-0.141176 -0.004782 0.082253
-0.141139 -0.005027 0.082126
-0.141105 -0.005272 0.082001
-0.141073 -0.005518 0.081880
-0.141046 -0.005765 0.081768
-0.141024 -0.006012 0.081662
-0.140998 -0.006260 0.081549
-0.140964 -0.006506 0.081425
-0.140925 -0.006753 0.081293
-0.140889 -0.007000 0.081165
-0.140856 -0.007248 0.081044
-0.140824 -0.007496 0.080921
-0.140789 -0.007744 0.080796
-0.140754 -0.007992 0.080670
-0.140727 -0.008241 0.080554
-0.140702 -0.008491 0.080443
-0.140674 -0.008740 0.080328
-0.140642 -0.008990 0.080207
-0.140610 -0.009239 0.080084
-0.140574 -0.009489 0.079956
-0.140538 -0.009739 0.079829
-0.140504 -0.009990 0.079703
-0.140471 -0.010240 0.079580
-0.140295 -0.010484 0.079238
-0.140255 -0.010735 0.079104
-0.140356 -0.010993 0.079184
-0.140324 -0.011245 0.079060
-0.140293 -0.011497 0.078939
-0.140267 -0.011749 0.078826
-0.140092 -0.011996 0.078487
-0.140057 -0.012249 0.078359
-0.140161 -0.012507 0.078442
-0.140124 -0.012760 0.078312
-0.140091 -0.013013 0.078186
-0.140059 -0.013267 0.078064
-0.140025 -0.013521 0.077937
-0.139987 -0.013775 0.077805
-0.139946 -0.014029 0.077668
-0.139778 -0.014280 0.077339
-0.139600 -0.014532 0.076993
-0.139710 -0.014791 0.077085
-0.139675 -0.015047 0.076956
-0.139639 -0.015302 0.076826
-0.139462 -0.015556 0.076483
-0.139428 -0.015813 0.076356
-0.139393 -0.016069 0.076226
-0.139359 -0.016327 0.076100
-0.139327 -0.016584 0.075975
-0.139293 -0.016842 0.075848
-0.139258 -0.017100 0.075719
-0.139219 -0.017358 0.075584
-0.139322 -0.017617 0.075665
-0.139293 -0.017876 0.075545
-0.139276 -0.018135 0.075443
-0.139387 -0.018394 0.075537
-0.140555 -0.018654 0.077243
-0.139319 -0.018912 0.075281
-0.139139 -0.019172 0.074930
-0.139105 -0.019432 0.074802
-0.140740 -0.019685 0.077224
-0.140867 -0.019942 0.077343
-0.140122 -0.020206 0.076128
-0.139950 -0.020466 0.075789
-0.139764 -0.020728 0.075428
-0.139730 -0.020988 0.075301
-0.139681 -0.021249 0.075149
-0.139647 -0.021510 0.075021
-0.139756 -0.021769 0.075112
-0.139582 -0.022033 0.074769
-0.139545 -0.022295 0.074635
-0.139208 -0.022563 0.074043
-0.138867 -0.022832 0.073443
-0.138675 -0.023099 0.073073
-0.138936 -0.023356 0.073395
-0.138555 -0.023629 0.072733
-0.138315 -0.023899 0.072289
-0.139227 -0.024137 0.073611
-0.138617 -0.024418 0.072596
-0.138737 -0.024678 0.072704
-0.138447 -0.024952 0.072182
-0.138112 -0.025228 0.071589
-0.138097 -0.025494 0.071488
-0.138358 -0.025750 0.071811
-0.138168 -0.026022 0.071443
-0.138260 -0.026284 0.071506
-0.138225 -0.026551 0.071375
-0.138207 -0.026818 0.071269
-0.138212 -0.027084 0.071198
-0.138211 -0.027350 0.071119
-0.138364 -0.027609 0.071276
-0.138526 -0.027868 0.071447
-0.138687 -0.028126 0.071618
-0.138711 -0.028391 0.071578
-0.138884 -0.028648 0.071765
-0.139218 -0.028896 0.072203
-0.139869 -0.029125 0.073129
-0.142815 -0.029220 0.077599
-0.143109 -0.029464 0.077975
-0.143406 -0.029707 0.078358
-0.143846 -0.029940 0.078962
-0.144152 -0.030181 0.079357
-0.144455 -0.030421 0.079750
-0.144750 -0.030660 0.080130
-0.145053 -0.030899 0.080522
-0.145351 -0.031137 0.080907
-0.145653 -0.031375 0.081299
-0.145940 -0.031612 0.081668
-0.146107 -0.031858 0.081850
-0.146394 -0.032095 0.082219
-0.146679 -0.032331 0.082585
-0.146975 -0.032565 0.082968
-0.147266 -0.032799 0.083343
-0.147555 -0.033033 0.083717
-0.147841 -0.033266 0.084084
-0.148119 -0.033499 0.084440
-0.148277 -0.033742 0.084611
-0.148563 -0.033973 0.084979
-0.148852 -0.034203 0.085354
-0.149145 -0.034433 0.085733
-0.149556 -0.034651 0.086296
-0.149722 -0.034890 0.086479
-0.150007 -0.035118 0.086847
-0.150285 -0.035346 0.087206
-0.150566 -0.035573 0.087568
-0.150845 -0.035800 0.087928
-0.151122 -0.036026 0.088284
-0.151401 -0.036251 0.088644
-0.151551 -0.036489 0.088803
-0.151830 -0.036713 0.089164
-0.152098 -0.036937 0.089507
-0.152365 -0.037162 0.089848
-0.152628 -0.037385 0.090184
-0.152906 -0.037607 0.090544
-0.153065 -0.037841 0.090718
-0.153459 -0.038048 0.091259
-0.153614 -0.038282 0.091427
-0.154002 -0.038488 0.091959
-0.154280 -0.038707 0.092318
-0.154437 -0.038939 0.092490
-0.154704 -0.039157 0.092834
-0.154968 -0.039376 0.093173
-0.155239 -0.039592 0.093523
-0.155383 -0.039824 0.093675
-0.155647 -0.040041 0.094015
-0.155914 -0.040256 0.094359
-0.156185 -0.040470 0.094710
-0.156452 -0.040684 0.095055
-0.156720 -0.040898 0.095402
-0.156981 -0.041112 0.095737
-0.157245 -0.041324 0.096078
-0.157507 -0.041536 0.096416
-0.157771 -0.041748 0.096757
-0.158031 -0.041959 0.097092
-0.158288 -0.042170 0.097422
-0.158550 -0.042380 0.097760
-0.158805 -0.042590 0.098089
-0.159066 -0.042799 0.098426
-0.159326 -0.043007 0.098761
-0.159587 -0.043214 0.099099
-0.159842 -0.043422 0.099427
-0.159988 -0.043646 0.099584
-0.160131 -0.043870 0.099737
-0.160383 -0.044076 0.100061
-0.160636 -0.044282 0.100388
-0.160890 -0.044487 0.100714
-0.161141 -0.044692 0.101037
-0.161395 -0.044896 0.101366
-0.161655 -0.045098 0.101704
-0.161914 -0.045300 0.102039
-0.162278 -0.045484 0.102541
-0.162533 -0.045685 0.102872
-0.162795 -0.045884 0.103214
-0.163047 -0.046085 0.103540
-0.163291 -0.046286 0.103853
-0.163543 -0.046485 0.104180
-0.163790 -0.046684 0.104498
-0.164040 -0.046883 0.104820
-0.164284 -0.047081 0.105135
-0.164404 -0.047302 0.105254
-0.164533 -0.047520 0.105387
-0.164766 -0.047720 0.105684
-0.165005 -0.047917 0.105991
-0.165248 -0.048114 0.106304
-0.165487 -0.048310 0.106612
-0.165734 -0.048505 0.106931
-0.165985 -0.048698 0.107259
-0.166230 -0.048891 0.107575
-0.166469 -0.049085 0.107883
-0.166704 -0.049280 0.108186
-0.166946 -0.049472 0.108499
-0.167189 -0.049664 0.108814
-0.167435 -0.049854 0.109132
-0.167673 -0.050046 0.109439
-0.167903 -0.050238 0.109735
-0.168038 -0.050449 0.109878
-0.168272 -0.050640 0.110180
-0.168510 -0.050829 0.110487
-0.168748 -0.051018 0.110796
-0.168984 -0.051207 0.111101
-0.169220 -0.051395 0.111406
-0.169456 -0.051582 0.111711
-0.169693 -0.051768 0.112019
-0.169928 -0.051955 0.112322
-0.170162 -0.052141 0.112626
-0.170396 -0.052327 0.112927
-0.170623 -0.052513 0.113220
-0.170852 -0.052698 0.113515
-0.171082 -0.052883 0.113812
-0.171310 -0.053068 0.114107
-0.171538 -0.053252 0.114399
-0.171762 -0.053436 0.114688
-0.171885 -0.053643 0.114815
-0.172020 -0.053848 0.114961
-0.172350 -0.054006 0.115418
-0.172472 -0.054212 0.115544
-0.172792 -0.054371 0.115986
-0.172924 -0.054575 0.116128
-0.173149 -0.054755 0.116419
-0.173374 -0.054935 0.116708
-0.173593 -0.055116 0.116990
-0.173817 -0.055295 0.117281
-0.174040 -0.055474 0.117568
-0.174362 -0.055628 0.118014
-0.174495 -0.055828 0.118158
-0.174714 -0.056006 0.118441
-0.174935 -0.056184 0.118726
-0.175154 -0.056361 0.119008
-0.175371 -0.056538 0.119288
-0.175585 -0.056715 0.119563
-0.175706 -0.056916 0.119688
-0.176023 -0.057066 0.120128
-0.176245 -0.057239 0.120417
-0.176467 -0.057412 0.120705
-0.176687 -0.057586 0.120989
-0.176900 -0.057760 0.121264
-0.177018 -0.057959 0.121386
-0.177229 -0.058134 0.121656
-0.177445 -0.058306 0.121936
-0.177660 -0.058478 0.122214
-0.177873 -0.058650 0.122488
-0.178086 -0.058821 0.122763
-0.178307 -0.058990 0.123052
-0.178532 -0.059157 0.123345
-0.178740 -0.059328 0.123613
-0.178952 -0.059497 0.123886
-0.179157 -0.059668 0.124150
-0.179372 -0.059836 0.124428
-0.179587 -0.060003 0.124707
-0.179800 -0.060170 0.124984
-0.180010 -0.060338 0.125255
-0.180219 -0.060505 0.125525
-0.180431 -0.060671 0.125800
-0.180641 -0.060837 0.126073
-0.180847 -0.061004 0.126338
-0.181050 -0.061170 0.126599
-0.181262 -0.061334 0.126875
-0.181461 -0.061502 0.127129
-0.181665 -0.061666 0.127393
-0.181871 -0.061831 0.127658
-0.182086 -0.061992 0.127939
-0.182289 -0.062155 0.128201
-0.182492 -0.062319 0.128464
-0.182604 -0.062510 0.128578
-0.182806 -0.062673 0.128839
-0.183006 -0.062836 0.129097
-0.183205 -0.062999 0.129353
-0.183400 -0.063163 0.129602
-0.183601 -0.063324 0.129862
-0.183722 -0.063510 0.129992
-0.183925 -0.063670 0.130254
-0.184122 -0.063831 0.130509
-0.184319 -0.063992 0.130762
-0.184518 -0.064151 0.131019
-0.184717 -0.064310 0.131277
-0.184920 -0.064467 0.131541
-0.185126 -0.064623 0.131809
-0.185329 -0.064779 0.132073
-0.185527 -0.064936 0.132329
-0.185811 -0.065064 0.132726
-0.186014 -0.065218 0.132990
-0.186218 -0.065372 0.133257
-0.186412 -0.065528 0.133507
-0.186517 -0.065715 0.133612
-0.186708 -0.065872 0.133858
-0.186905 -0.066026 0.134113
-0.187098 -0.066181 0.134362
-0.187284 -0.066338 0.134600
-0.187392 -0.066522 0.134711
-0.187570 -0.066681 0.134937
-0.187589 -0.066897 0.134903
-0.187849 -0.067026 0.135262
-0.187955 -0.067210 0.135369
-0.188138 -0.067366 0.135602
-0.188244 -0.067549 0.135711
-0.188416 -0.067708 0.135928
-0.188428 -0.067926 0.135881
-0.188520 -0.068113 0.135967
-0.188607 -0.068303 0.136045
-0.188702 -0.068490 0.136135
-0.188793 -0.068678 0.136219
-0.188889 -0.068864 0.136310
-0.188974 -0.069054 0.136384
-0.189066 -0.069241 0.136471
-0.189074 -0.069460 0.136418
-0.189242 -0.069617 0.136629
-0.189251 -0.069836 0.136578
-0.189423 -0.069991 0.136796
-0.189432 -0.070210 0.136745
-0.189598 -0.070367 0.136953
-0.189608 -0.070586 0.136904
-0.189620 -0.070803 0.136859
-0.189789 -0.070959 0.137071
-0.189883 -0.071143 0.137160
-0.189970 -0.071331 0.137238
-0.190071 -0.071513 0.137339
-0.190155 -0.071701 0.137412
-0.190164 -0.071920 0.137361
-0.190337 -0.072072 0.137581
-0.190354 -0.072287 0.137544
-0.190516 -0.072443 0.137746
-0.190525 -0.072662 0.137694
-0.190615 -0.072847 0.137779
-0.190705 -0.073032 0.137862
-0.190795 -0.073217 0.137944
-0.190881 -0.073404 0.138022
-0.190979 -0.073585 0.138118
-0.191069 -0.073769 0.138202
-0.191154 -0.073956 0.138276
-0.191154 -0.074178 0.138212
-0.191232 -0.074367 0.138276
-0.191244 -0.074585 0.138229
-0.191326 -0.074772 0.138300
-0.191331 -0.074993 0.138243
-0.165758 -0.091626 0.094340
-0.165834 -0.091862 0.094386
-0.166089 -0.092012 0.094731
-0.166194 -0.092233 0.094827
-0.166584 -0.092318 0.095398
-0.166982 -0.092399 0.095981
-0.167227 -0.092551 0.096310
-0.167467 -0.092705 0.096632
-0.167473 -0.092971 0.096563
-0.167589 -0.093184 0.096678
-0.167700 -0.093399 0.096784
-0.167823 -0.093608 0.096911
-0.167935 -0.093823 0.097019
-0.168058 -0.094031 0.097146
-0.168305 -0.094179 0.097479
-0.168677 -0.094265 0.098021
-0.169306 -0.094222 0.098996
-0.169635 -0.094326 0.099467
-0.169996 -0.094413 0.099992
-0.172579 -0.093390 0.104233
-0.172686 -0.093598 0.104336
-0.172787 -0.093809 0.104429
-0.172784 -0.094072 0.104347
-0.172911 -0.094271 0.104482
-0.165586 -0.099081 0.091893
-0.165412 -0.099446 0.091521
-0.165379 -0.099740 0.091385
-0.165356 -0.100028 0.091265
-0.165235 -0.100368 0.090982
-0.165463 -0.100526 0.091282
-0.165586 -0.100739 0.091408
-0.165586 -0.101016 0.091327
-0.165708 -0.101229 0.091451
-0.165940 -0.101383 0.091760
-0.165944 -0.101657 0.091686
-0.166065 -0.101870 0.091809
-0.166183 -0.102084 0.091925
-0.166308 -0.102294 0.092055
-0.166421 -0.102510 0.092165
-0.166545 -0.102721 0.092292
-0.166661 -0.102935 0.092407
-0.166787 -0.103144 0.092536
-0.166902 -0.103358 0.092649
-0.167036 -0.103561 0.092796
-0.167282 -0.103703 0.093128
-0.167280 -0.103981 0.093045
-0.065292 0.091753 -0.000310
-0.067260 0.090602 0.002356
-0.067500 0.090206 0.002607
-0.067710 0.089823 0.002816
-0.067663 0.089552 0.002664
-0.067863 0.089175 0.002859
-0.068054 0.088801 0.003042
-0.068255 0.088424 0.003237
-0.068462 0.088044 0.003443
-0.068409 0.087775 0.003283
-0.068588 0.087408 0.003448
-0.068791 0.087030 0.003647
-0.068759 0.086753 0.003517
-0.069207 0.086272 0.004061
-0.069411 0.085895 0.004261
-0.069622 0.085515 0.004473
-0.069582 0.085241 0.004331
-0.069767 0.084873 0.004505
-0.069981 0.084492 0.004721
-0.070169 0.084123 0.004900
-0.070383 0.083743 0.005116
-0.070340 0.083470 0.004970
-0.070752 0.083010 0.005463
-0.070702 0.082739 0.005308
-0.070676 0.082459 0.005186
-0.071116 0.081988 0.005720
-0.071076 0.081714 0.005578
-0.071261 0.081347 0.005754
-0.071443 0.080983 0.005924
-0.071642 0.080612 0.006119
-0.071858 0.080233 0.006339
-0.071832 0.079953 0.006217
-0.072032 0.079582 0.006413
-0.072226 0.079214 0.006602
-0.072649 0.078755 0.007113
-0.072627 0.078473 0.006996
-0.072814 0.078108 0.007175
-0.073025 0.077734 0.007388
-0.072996 0.077455 0.007262
-0.073431 0.076994 0.007790
-0.073398 0.076716 0.007659
-0.073819 0.076262 0.008168
-0.073788 0.075983 0.008039
-0.073978 0.075619 0.008223
-0.074174 0.075253 0.008415
-0.074132 0.074979 0.008271
-0.074554 0.074526 0.008783
-0.074528 0.074246 0.008661
-0.074722 0.073882 0.008849
-0.074914 0.073518 0.009036
-0.075338 0.073067 0.009552
-0.075314 0.072786 0.009432
-0.075279 0.072509 0.009298
-0.075691 0.072064 0.009796
-0.075668 0.071783 0.009678
-0.076089 0.071335 0.010191
-0.076061 0.071055 0.010066
-0.076018 0.070781 0.009919
-0.076418 0.070343 0.010402
-0.076392 0.070063 0.010280
-0.076832 0.069611 0.010820
-0.076799 0.069333 0.010688
-0.076977 0.068978 0.010855
-0.077175 0.068616 0.011051
-0.077595 0.068174 0.011564
-0.077567 0.067894 0.011439
-0.077762 0.067534 0.011631
-0.077930 0.067184 0.011785
-0.077903 0.066904 0.011661
-0.078103 0.066543 0.011860
-0.078291 0.066186 0.012044
-0.078491 0.065826 0.012243
-0.078668 0.065474 0.012410
-0.078872 0.065112 0.012616
-0.078834 0.064836 0.012477
-0.079014 0.064483 0.012649
-0.079207 0.064126 0.012839
-0.079388 0.063774 0.013011
-0.079367 0.063491 0.012896
-0.079776 0.063061 0.013394
-0.079986 0.062699 0.013609
-0.080167 0.062348 0.013782
-0.080138 0.062068 0.013657
-0.080106 0.061789 0.013526
-0.080495 0.061368 0.013996
-0.080464 0.061089 0.013867
-0.080656 0.060735 0.014056
-0.080857 0.060378 0.014259
-0.081050 0.060024 0.014450
-0.081231 0.059674 0.014623
-0.081430 0.059319 0.014823
-0.081622 0.058966 0.015014
-0.081588 0.058688 0.014880
-0.081766 0.058340 0.015050
-0.081722 0.058065 0.014902
-0.082096 0.057654 0.015352
-0.082051 0.057379 0.015203
-0.082210 0.057038 0.015346
-0.081904 0.056846 0.014823
-0.081806 0.056587 0.014597
-0.138576 0.038242 0.095878
-0.138687 0.037986 0.095973
-0.138679 0.037767 0.095896
-0.138920 0.037471 0.096177
-0.138921 0.037249 0.096113
-0.139176 0.036949 0.096414
-0.139173 0.036728 0.096346
-0.139282 0.036474 0.096438
-0.139408 0.036214 0.096553
-0.139531 0.035955 0.096665
-0.139664 0.035693 0.096791
-0.139770 0.035440 0.096879
-0.139761 0.035222 0.096801
-0.139888 0.034962 0.096920
-0.140009 0.034705 0.097029
-0.140137 0.034445 0.097149
-0.140246 0.034191 0.097241
-0.140379 0.033931 0.097368
-0.140505 0.033673 0.097484
-0.140637 0.033413 0.097609
-0.140747 0.033160 0.097702
-0.140737 0.032941 0.097624
-0.140864 0.032683 0.097742
-0.140982 0.032428 0.097847
-0.141107 0.032171 0.097962
-0.141098 0.031952 0.097885
-0.141346 0.031660 0.098179
-0.141462 0.031406 0.098280
-0.141589 0.031149 0.098399
-0.141579 0.030931 0.098320
-0.141572 0.030712 0.098246
-0.141815 0.030423 0.098532
-0.141933 0.030169 0.098638
-0.142061 0.029912 0.098758
-0.142058 0.029692 0.098689
-0.142298 0.029405 0.098971
-0.142424 0.029150 0.099089
-0.142680 0.028859 0.099395
-0.142679 0.028639 0.099327
-0.142799 0.028385 0.099436
-0.142917 0.028132 0.099543
-0.142902 0.027916 0.099457
-0.143009 0.027666 0.099546
-0.142983 0.027452 0.099444
-0.142840 0.027268 0.099173
-0.142938 0.027021 0.099249
-0.142910 0.026807 0.099144
-0.142883 0.026592 0.099040
-0.142857 0.026377 0.098938
-0.142828 0.026163 0.098830
-0.142797 0.025948 0.098720
-0.142637 0.025767 0.098422
-0.142606 0.025552 0.098312
-0.142578 0.025336 0.098206
-0.142554 0.025119 0.098106
-0.142659 0.024870 0.098194
-0.142630 0.024654 0.098086
-0.142468 0.024470 0.097786
-0.142439 0.024254 0.097677
-0.142410 0.024037 0.097569
-0.142379 0.023821 0.097458
-0.142351 0.023603 0.097352
-0.142326 0.023385 0.097249
-0.142299 0.023167 0.097145
-0.142271 0.022949 0.097038
-0.142241 0.022731 0.096928
-0.142215 0.022512 0.096826
-0.142189 0.022293 0.096721
-0.142158 0.022074 0.096610
-0.142119 0.021858 0.096487
-0.142082 0.021641 0.096367
-0.142046 0.021423 0.096248
-0.142013 0.021204 0.096134
-0.141983 0.020985 0.096024
-0.141959 0.020764 0.095922
-0.141934 0.020543 0.095819
-0.141905 0.020322 0.095710
-0.141877 0.020101 0.095603
-0.141847 0.019881 0.095493
-0.141818 0.019660 0.095384
-0.141791 0.019438 0.095278
-0.141763 0.019217 0.095170
-0.141736 0.018994 0.095064
-0.141574 0.018801 0.094760
-0.141539 0.018580 0.094642
-0.141505 0.018359 0.094525
-0.141352 0.018162 0.094234
-0.141324 0.017939 0.094126
-0.141428 0.017688 0.094211
-0.141401 0.017464 0.094104
-0.141372 0.017241 0.093995
-0.141212 0.017044 0.093693
-0.141180 0.016820 0.093578
-0.141151 0.016596 0.093468
-0.141126 0.016371 0.093364
-0.141230 0.016119 0.093450
-0.141192 0.015897 0.093325
-0.141158 0.015672 0.093209
-0.141128 0.015448 0.093097
-0.141093 0.015223 0.092978
-0.140939 0.015021 0.092684
-0.140911 0.014795 0.092575
-0.140883 0.014569 0.092465
-0.140853 0.014342 0.092354
-0.140824 0.014116 0.092242
-0.140795 0.013889 0.092132
-0.140766 0.013662 0.092021
-0.140857 0.013413 0.092087
-0.140705 0.013207 0.091795
-0.140672 0.012980 0.091678
-0.140764 0.012731 0.091745
-0.140733 0.012503 0.091632
-0.140582 0.012296 0.091340
-0.140550 0.012068 0.091224
-0.140518 0.011840 0.091109
-0.140486 0.011611 0.090993
-0.140456 0.011382 0.090880
-0.140426 0.011153 0.090767
-0.140399 0.010922 0.090658
-0.140369 0.010693 0.090546
-0.140338 0.010463 0.090431
-0.140307 0.010233 0.090317
-0.140399 0.009982 0.090384
-0.140368 0.009752 0.090268
-0.140215 0.009541 0.089973
-0.140179 0.009311 0.089851
-0.140145 0.009080 0.089732
-0.140110 0.008849 0.089610
-0.140080 0.008617 0.089496
-0.140049 0.008385 0.089381
-0.140023 0.008152 0.089273
-0.139997 0.007919 0.089166
-0.139970 0.007686 0.089056
-0.139939 0.007453 0.088941
-0.139907 0.007220 0.088824
-0.139875 0.006987 0.088706
-0.139844 0.006754 0.088590
-0.139811 0.006520 0.088472
-0.139780 0.006286 0.088357
-0.139752 0.006052 0.088244
-0.139724 0.005817 0.088134
-0.139693 0.005582 0.088016
-0.139661 0.005347 0.087900
-0.139630 0.005112 0.087784
-0.139599 0.004877 0.087667
-0.139569 0.004641 0.087552
-0.139538 0.004405 0.087436
-0.139511 0.004169 0.087325
-0.139482 0.003932 0.087213
-0.139454 0.003696 0.087099
-0.139421 0.003459 0.086980
-0.139390 0.003222 0.086863
-0.139354 0.002986 0.086740
-0.139323 0.002748 0.086623
-0.139294 0.002510 0.086509
-0.139272 0.002271 0.086405
-0.139250 0.002032 0.086301
-0.139357 0.001778 0.086390
-0.139201 0.001554 0.086086
-0.139169 0.001315 0.085968
-0.139137 0.001076 0.085849
-0.139227 0.000824 0.085912
-0.139061 0.000599 0.085594
-0.139033 0.000359 0.085479
-0.139007 0.000119 0.085370
-0.138953 -0.000119 0.085217
-0.138771 -0.000344 0.084874
-0.138595 -0.000570 0.084539
-0.138560 -0.000811 0.084416
-0.138526 -0.001052 0.084293
-0.138493 -0.001294 0.084172
-0.138459 -0.001535 0.084050
-0.138427 -0.001777 0.083930
-0.138397 -0.002020 0.083813
-0.138366 -0.002263 0.083694
-0.138335 -0.002506 0.083576
-0.138302 -0.002749 0.083454
-0.138268 -0.002992 0.083331
-0.138231 -0.003235 0.083203
-0.138199 -0.003479 0.083083
-0.138166 -0.003723 0.082961
-0.138136 -0.003968 0.082844
-0.138100 -0.004212 0.082717
-0.138066 -0.004456 0.082593
-0.138034 -0.004701 0.082472
-0.138000 -0.004947 0.082350
-0.137965 -0.005192 0.082224
-0.137930 -0.005438 0.082099
-0.137896 -0.005683 0.081975
-0.137863 -0.005930 0.081852
-0.137831 -0.006176 0.081731
-0.137797 -0.006423 0.081607
-0.137765 -0.006670 0.081486
-0.137731 -0.006917 0.081361
-0.137700 -0.007165 0.081242
-0.137669 -0.007412 0.081122
-0.137636 -0.007660 0.080999
-0.137600 -0.007908 0.080871
-0.137565 -0.008157 0.080745
-0.137535 -0.008405 0.080626
-0.137510 -0.008655 0.080515
-0.137482 -0.008904 0.080400
-0.137451 -0.009154 0.080279
-0.137416 -0.009403 0.080152
-0.137381 -0.009653 0.080025
-0.137346 -0.009903 0.079899
-0.137314 -0.010154 0.079776
-0.137281 -0.010404 0.079653
-0.137252 -0.010655 0.079535
-0.137221 -0.010907 0.079414
-0.137188 -0.011158 0.079291
-0.137152 -0.011410 0.079161
-0.137114 -0.011661 0.079030
-0.137077 -0.011913 0.078901
-0.137044 -0.012166 0.078775
-0.137011 -0.012418 0.078652
-0.136977 -0.012671 0.078525
-0.136801 -0.012920 0.078184
-0.136766 -0.013173 0.078057
-0.136732 -0.013427 0.077931
-0.136698 -0.013681 0.077803
-0.136810 -0.013940 0.077899
-0.136778 -0.014194 0.077776
-0.136743 -0.014449 0.077647
-0.136706 -0.014704 0.077516
-0.136393 -0.014953 0.076965
-0.136355 -0.015208 0.076832
-0.136319 -0.015464 0.076702
-0.136284 -0.015721 0.076574
-0.136249 -0.015977 0.076445
-0.136215 -0.016234 0.076319
-0.136181 -0.016491 0.076192
-0.136147 -0.016749 0.076065
-0.136115 -0.017006 0.075940
-0.136085 -0.017264 0.075818
-0.136191 -0.017524 0.075904
-0.136164 -0.017782 0.075787
-0.136136 -0.018041 0.075668
-0.136104 -0.018299 0.075545
-0.136072 -0.018558 0.075420
-0.136036 -0.018817 0.075290
-0.136139 -0.019077 0.075371
-0.136112 -0.019337 0.075253
-0.137279 -0.019593 0.076959
-0.137255 -0.019851 0.076847
-0.137230 -0.020109 0.076734
-0.137362 -0.020367 0.076859
-0.137649 -0.020623 0.077222
-0.137462 -0.020883 0.076861
-0.137421 -0.021143 0.076721
-0.137234 -0.021404 0.076360
-0.136927 -0.021668 0.075814
-0.136893 -0.021929 0.075685
-0.136856 -0.022190 0.075553
-0.136814 -0.022451 0.075412
-0.136628 -0.022715 0.075052
-0.136307 -0.022983 0.074483
-0.136111 -0.023250 0.074106
-0.136358 -0.023506 0.074407
-0.136007 -0.023777 0.073791
-0.135679 -0.024049 0.073211
-0.136376 -0.024292 0.074204
-0.135770 -0.024573 0.073197
-0.135734 -0.024837 0.073064
-0.135707 -0.025102 0.072946
-0.135232 -0.025382 0.072139
-0.135203 -0.025648 0.072017
-0.135183 -0.025914 0.071908
-0.135273 -0.026176 0.071968
-0.135216 -0.026443 0.071804
-0.135177 -0.026710 0.071667
-0.135181 -0.026976 0.071593
-0.135330 -0.027235 0.071746
-0.135630 -0.027487 0.072130
-0.135777 -0.027746 0.072279
-0.135938 -0.028003 0.072449
-0.135971 -0.028267 0.072422
-0.136440 -0.028508 0.073067
-0.136643 -0.028763 0.073303
-0.136829 -0.029017 0.073512
-0.136859 -0.029281 0.073480
-0.137174 -0.029527 0.073889
-0.139948 -0.029627 0.078095
-0.140388 -0.029862 0.078697
-0.140684 -0.030103 0.079078
-0.140983 -0.030344 0.079465
-0.141279 -0.030585 0.079845
-0.141568 -0.030825 0.080216
-0.141865 -0.031064 0.080599
-0.142037 -0.031311 0.080789
-0.142465 -0.031540 0.081376
-0.142759 -0.031777 0.081755
-0.142929 -0.032023 0.081943
-0.143218 -0.032259 0.082314
-0.143506 -0.032495 0.082685
-0.143798 -0.032729 0.083063
-0.144093 -0.032963 0.083443
-0.144380 -0.033197 0.083813
-0.144666 -0.033430 0.084181
-0.144949 -0.033663 0.084545
-0.145231 -0.033895 0.084908
-0.145517 -0.034126 0.085277
-0.145802 -0.034356 0.085644
-0.145965 -0.034597 0.085822
-0.146255 -0.034826 0.086198
-0.146542 -0.035055 0.086569
-0.146828 -0.035283 0.086939
-0.147107 -0.035510 0.087299
-0.147384 -0.035738 0.087655
-0.147665 -0.035964 0.088017
-0.147815 -0.036203 0.088177
-0.148092 -0.036429 0.088533
-0.148368 -0.036654 0.088889
-0.148644 -0.036878 0.089243
-0.148920 -0.037102 0.089600
-0.149191 -0.037325 0.089947
-0.149456 -0.037549 0.090286
-0.149731 -0.037771 0.090642
-0.150004 -0.037992 0.090993
-0.150280 -0.038213 0.091350
-0.150434 -0.038447 0.091518
-0.150824 -0.038653 0.092052
-0.150984 -0.038885 0.092227
-0.151252 -0.039104 0.092573
-0.151521 -0.039322 0.092919
-0.151785 -0.039540 0.093259
-0.151934 -0.039772 0.093418
-0.152199 -0.039989 0.093760
-0.152465 -0.040205 0.094102
-0.152734 -0.040420 0.094449
-0.153004 -0.040635 0.094799
-0.153266 -0.040850 0.095136
-0.153528 -0.041064 0.095473
-0.153792 -0.041277 0.095814
-0.154056 -0.041490 0.096155
-0.154319 -0.041702 0.096494
-0.154585 -0.041913 0.096838
-0.154850 -0.042124 0.097180
-0.155110 -0.042334 0.097516
-0.155370 -0.042544 0.097850
-0.155628 -0.042754 0.098183
-0.155889 -0.042963 0.098521
-0.156145 -0.043171 0.098850
-0.156404 -0.043379 0.099185
-0.156552 -0.043603 0.099345
-0.156810 -0.043810 0.099679
-0.156952 -0.044034 0.099829
-0.157206 -0.044240 0.100156
-0.157570 -0.044428 0.100657
-0.157718 -0.044650 0.100819
-0.157973 -0.044855 0.101147
-0.158223 -0.045059 0.101470
-0.158476 -0.045262 0.101796
-0.158735 -0.045464 0.102131
-0.159102 -0.045647 0.102639
-0.159358 -0.045848 0.102970
-0.159616 -0.046048 0.103306
-0.159874 -0.046248 0.103641
-0.160118 -0.046449 0.103954
-0.160363 -0.046649 0.104270
-0.160610 -0.046848 0.104589
-0.160861 -0.047046 0.104914
-0.161100 -0.047246 0.105220
-0.161220 -0.047466 0.105339
-0.161350 -0.047685 0.105473
-0.161581 -0.047885 0.105768
-0.161825 -0.048081 0.106082
-0.162068 -0.048278 0.106396
-0.162310 -0.048474 0.106707
-0.162554 -0.048669 0.107022
-0.162803 -0.048862 0.107346
-0.163043 -0.049057 0.107656
-0.163282 -0.049251 0.107964
-0.163421 -0.049464 0.108113
-0.163763 -0.049637 0.108584
-0.164006 -0.049828 0.108900
-0.164248 -0.050019 0.109213
-0.164384 -0.050232 0.109358
-0.164619 -0.050423 0.109660
-0.164859 -0.050613 0.109972
-0.165092 -0.050804 0.110271
-0.165325 -0.050994 0.110572
-0.165562 -0.051183 0.110877
-0.165799 -0.051372 0.111184
-0.166035 -0.051560 0.111489
-0.166273 -0.051746 0.111798
-0.166511 -0.051933 0.112106
-0.166745 -0.052119 0.112410
-0.166977 -0.052306 0.112708
-0.167208 -0.052492 0.113007
-0.167444 -0.052677 0.113313
-0.167672 -0.052862 0.113607
-0.167905 -0.053046 0.113908
-0.168134 -0.053231 0.114203
-0.168364 -0.053414 0.114501
-0.168588 -0.053599 0.114789
-0.168811 -0.053783 0.115075
-0.168834 -0.054013 0.115043
-0.169151 -0.054174 0.115479
-0.169284 -0.054378 0.115623
-0.169512 -0.054559 0.115919
-0.169743 -0.054739 0.116218
-0.169966 -0.054920 0.116506
-0.170194 -0.055099 0.116800
-0.170413 -0.055280 0.117082
-0.170638 -0.055459 0.117374
-0.170866 -0.055637 0.117669
-0.171183 -0.055791 0.118109
-0.171312 -0.055993 0.118246
-0.171532 -0.056170 0.118530
-0.171752 -0.056348 0.118814
-0.171973 -0.056524 0.119100
-0.172194 -0.056701 0.119385
-0.172408 -0.056878 0.119660
-0.172627 -0.057054 0.119942
-0.172846 -0.057229 0.120225
-0.173070 -0.057402 0.120516
-0.173290 -0.057575 0.120801
-0.173507 -0.057749 0.121082
-0.173719 -0.057924 0.121354
-0.173835 -0.058124 0.121473
-0.174049 -0.058297 0.121749
-0.174264 -0.058470 0.122026
-0.174478 -0.058642 0.122303
-0.174697 -0.058812 0.122588
-0.174913 -0.058983 0.122867
-0.175129 -0.059153 0.123147
-0.175349 -0.059321 0.123434
-0.175558 -0.059492 0.123703
-0.175769 -0.059662 0.123975
-0.175979 -0.059831 0.124245
-0.176197 -0.059998 0.124529
-0.176409 -0.060166 0.124804
-0.176619 -0.060334 0.125075
-0.176827 -0.060502 0.125343
-0.177041 -0.060668 0.125622
-0.177253 -0.060834 0.125896
-0.177457 -0.061002 0.126159
-0.177666 -0.061167 0.126428
-0.177872 -0.061333 0.126695
-0.178083 -0.061498 0.126968
-0.178290 -0.061662 0.127237
-0.178496 -0.061827 0.127503
-0.178695 -0.061993 0.127758
-0.178898 -0.062157 0.128020
-0.179100 -0.062322 0.128279
-0.179304 -0.062485 0.128543
-0.179509 -0.062647 0.128809
-0.179715 -0.062808 0.129076
-0.179826 -0.062999 0.129190
-0.180027 -0.063162 0.129449
-0.180227 -0.063324 0.129706
-0.180422 -0.063487 0.129956
-0.180541 -0.063674 0.130083
-0.180744 -0.063834 0.130347
-0.180942 -0.063994 0.130601
-0.181142 -0.064154 0.130860
-0.181343 -0.064313 0.131120
-0.181542 -0.064472 0.131378
-0.181745 -0.064629 0.131642
-0.181944 -0.064787 0.131898
-0.182144 -0.064944 0.132158
-0.182426 -0.065073 0.132551
-0.182630 -0.065227 0.132817
-0.182745 -0.065412 0.132938
-0.183115 -0.065509 0.133475
-0.183232 -0.065692 0.133599
-0.183422 -0.065849 0.133844
-0.183526 -0.066036 0.133948
-0.183719 -0.066192 0.134197
-0.183913 -0.066346 0.134447
-0.184101 -0.066502 0.134689
-0.184209 -0.066687 0.134800
-0.184387 -0.066846 0.135025
-0.184411 -0.067060 0.134999
-0.184674 -0.067187 0.135363
-0.184777 -0.067372 0.135466
-0.184959 -0.067529 0.135697
-0.185059 -0.067714 0.135795
-0.185152 -0.067902 0.135884
-0.185241 -0.068091 0.135963
-0.185336 -0.068278 0.136054
-0.185426 -0.068467 0.136135
-0.185522 -0.068653 0.136227
-0.185611 -0.068842 0.136309
-0.185706 -0.069028 0.136400
-0.185790 -0.069218 0.136472
