-0.026374 -0.036980 -0.185300
-0.026372 -0.036900 -0.185300
-0.026369 -0.036820 -0.185308
-0.026366 -0.036740 -0.185304
-0.026365 -0.036661 -0.185290
-0.026362 -0.036581 -0.185295
-0.026359 -0.036500 -0.185301
-0.026357 -0.036421 -0.185295
-0.026355 -0.036341 -0.185293
-0.026352 -0.036261 -0.185297
-0.026349 -0.036180 -0.185305
-0.026346 -0.036098 -0.185327
-0.026343 -0.036018 -0.185341
-0.026340 -0.035938 -0.185344
-0.026337 -0.035857 -0.185354
-0.026334 -0.035775 -0.185372
-0.026331 -0.035695 -0.185366
-0.026330 -0.035615 -0.185352
-0.026328 -0.035536 -0.185338
-0.026326 -0.035458 -0.185330
-0.026324 -0.035378 -0.185319
-0.026322 -0.035299 -0.185305
-0.026320 -0.035219 -0.185299
-0.026318 -0.035139 -0.185299
-0.026315 -0.035059 -0.185303
-0.026312 -0.034979 -0.185307
-0.026310 -0.034897 -0.185309
-0.026308 -0.034819 -0.185299
-0.026305 -0.034737 -0.185304
-0.026302 -0.034657 -0.185314
-0.026299 -0.034576 -0.185330
-0.026296 -0.034494 -0.185342
-0.026293 -0.034414 -0.185348
-0.026290 -0.034334 -0.185360
-0.026287 -0.034253 -0.185368
-0.026285 -0.034173 -0.185364
-0.026283 -0.034094 -0.185353
-0.026282 -0.034014 -0.185331
-0.026280 -0.033935 -0.185309
-0.026278 -0.033857 -0.185301
-0.026276 -0.033777 -0.185297
-0.026274 -0.033697 -0.185279
-0.026273 -0.033618 -0.185258
-0.026271 -0.033538 -0.185242
-0.026270 -0.033461 -0.185212
-0.026268 -0.033381 -0.185208
-0.026264 -0.033299 -0.185232
-0.026260 -0.033216 -0.185278
-0.026256 -0.033133 -0.185302
-0.026254 -0.033055 -0.185296
-0.026252 -0.032975 -0.185290
-0.026249 -0.032893 -0.185303
-0.026245 -0.032810 -0.185333
-0.026242 -0.032730 -0.185335
-0.026240 -0.032651 -0.185325
-0.026238 -0.032571 -0.185321
-0.026235 -0.032491 -0.185329
-0.026232 -0.032411 -0.185331
-0.026231 -0.032331 -0.185315
-0.026229 -0.032251 -0.185300
-0.026227 -0.032174 -0.185288
-0.026225 -0.032092 -0.185282
-0.026223 -0.032014 -0.185270
-0.026221 -0.031934 -0.185260
-0.026219 -0.031854 -0.185262
-0.026216 -0.031774 -0.185268
-0.026213 -0.031692 -0.185271
-0.026211 -0.031612 -0.185271
-0.026209 -0.031532 -0.185267
-0.026205 -0.031450 -0.185281
-0.026202 -0.031370 -0.185293
-0.026200 -0.031290 -0.185297
-0.026197 -0.031207 -0.185301
-0.026194 -0.031127 -0.185305
-0.026191 -0.031047 -0.185315
-0.026188 -0.030965 -0.185342
-0.026184 -0.030882 -0.185366
-0.026181 -0.030802 -0.185366
-0.026180 -0.030723 -0.185346
-0.026179 -0.030645 -0.185310
-0.026178 -0.030566 -0.185294
-0.026176 -0.030486 -0.185280
-0.026174 -0.030408 -0.185269
-0.026172 -0.030328 -0.185265
-0.026169 -0.030248 -0.185263
-0.026167 -0.030169 -0.185253
-0.026166 -0.030089 -0.185239
-0.026162 -0.030007 -0.185251
-0.026159 -0.029924 -0.185269
-0.026156 -0.029844 -0.185273
-0.026154 -0.029764 -0.185282
-0.026151 -0.029682 -0.185292
-0.026148 -0.029602 -0.185296
-0.026146 -0.029522 -0.185290
-0.026143 -0.029442 -0.185294
-0.026140 -0.029360 -0.185310
-0.026137 -0.029277 -0.185322
-0.026134 -0.029197 -0.185320
-0.026133 -0.029118 -0.185306
-0.026130 -0.029038 -0.185309
-0.026128 -0.028958 -0.185305
-0.026127 -0.028881 -0.185265
-0.026125 -0.028803 -0.185253
-0.026123 -0.028721 -0.185245
-0.026121 -0.028643 -0.185239
-0.026119 -0.028563 -0.185240
-0.026116 -0.028481 -0.185240
-0.026114 -0.028401 -0.185242
-0.026111 -0.028319 -0.185250
-0.026108 -0.028239 -0.185256
-0.026106 -0.028159 -0.185252
-0.026103 -0.028077 -0.185262
-0.026100 -0.027997 -0.185276
-0.026097 -0.027915 -0.185278
-0.026094 -0.027834 -0.185287
-0.026091 -0.027752 -0.185299
-0.026088 -0.027670 -0.185319
-0.026085 -0.027590 -0.185319
-0.026084 -0.027510 -0.185301
-0.026082 -0.027431 -0.185287
-0.026079 -0.027351 -0.185287
-0.026077 -0.027271 -0.185281
-0.026076 -0.027193 -0.185266
-0.026074 -0.027113 -0.185254
-0.026071 -0.027033 -0.185250
-0.026069 -0.026954 -0.185244
-0.026066 -0.026871 -0.185252
-0.026064 -0.026791 -0.185256
-0.026061 -0.026709 -0.185252
-0.026059 -0.026629 -0.185254
-0.026056 -0.026549 -0.185257
-0.026054 -0.026467 -0.185255
-0.026052 -0.026390 -0.185251
-0.026049 -0.026308 -0.185251
-0.026046 -0.026227 -0.185259
-0.026043 -0.026145 -0.185267
-0.026041 -0.026063 -0.185269
-0.026038 -0.025983 -0.185265
-0.026036 -0.025903 -0.185260
-0.026034 -0.025824 -0.185256
-0.026032 -0.025744 -0.185254
-0.026029 -0.025664 -0.185252
-0.026027 -0.025584 -0.185244
-0.026026 -0.025504 -0.185228
-0.026024 -0.025426 -0.185218
-0.026022 -0.025347 -0.185207
-0.026018 -0.025187 -0.185191
-0.026015 -0.025107 -0.185187
-0.026013 -0.025027 -0.185175
-0.026011 -0.024947 -0.185173
-0.026008 -0.024865 -0.185181
-0.026005 -0.024785 -0.185190
-0.026003 -0.024703 -0.185190
-0.026000 -0.024623 -0.185190
-0.025998 -0.024541 -0.185194
-0.025995 -0.024461 -0.185198
-0.025993 -0.024381 -0.185196
-0.025991 -0.024301 -0.185180
-0.025989 -0.024224 -0.185162
-0.025987 -0.024144 -0.185153
-0.025985 -0.024064 -0.185143
-0.025983 -0.023984 -0.185137
-0.025981 -0.023904 -0.185141
-0.025978 -0.023824 -0.185139
-0.025976 -0.023745 -0.185127
-0.025975 -0.023667 -0.185104
-0.025974 -0.023590 -0.185084
-0.025972 -0.023510 -0.185064
-0.025971 -0.023433 -0.185046
-0.025968 -0.023351 -0.185046
-0.025965 -0.023270 -0.185052
-0.025963 -0.023191 -0.185046
-0.025962 -0.023113 -0.185031
-0.025960 -0.023033 -0.185021
-0.025957 -0.022953 -0.185017
-0.025955 -0.022871 -0.185023
-0.025952 -0.022791 -0.185019
-0.025951 -0.022714 -0.184997
-0.025950 -0.022636 -0.184980
-0.025947 -0.022554 -0.184978
-0.025945 -0.022474 -0.184976
-0.025943 -0.022397 -0.184966
-0.025941 -0.022317 -0.184954
-0.025940 -0.022239 -0.184932
-0.025938 -0.022162 -0.184907
-0.025937 -0.022084 -0.184885
-0.025935 -0.022007 -0.184873
-0.025934 -0.021927 -0.184859
-0.025932 -0.021847 -0.184851
-0.025929 -0.021767 -0.184849
-0.025928 -0.021690 -0.184832
-0.025927 -0.021612 -0.184804
-0.025925 -0.021532 -0.184796
-0.025922 -0.021452 -0.184802
-0.025919 -0.021370 -0.184798
-0.025917 -0.021290 -0.184796
-0.025914 -0.021210 -0.184802
-0.025911 -0.021128 -0.184811
-0.025908 -0.021044 -0.184827
-0.025904 -0.020959 -0.184853
-0.025900 -0.020875 -0.184883
-0.025896 -0.020790 -0.184909
-0.025892 -0.020705 -0.184941
-0.025888 -0.020619 -0.184977
-0.025884 -0.020534 -0.185007
-0.027291 -0.055081 -0.186301
-0.027291 -0.054998 -0.186253
-0.027290 -0.054915 -0.186220
-0.027291 -0.054828 -0.186138
-0.027298 -0.054735 -0.185936
-0.027299 -0.054651 -0.185862
-0.027297 -0.054570 -0.185868
-0.027290 -0.054495 -0.185946
-0.027289 -0.054413 -0.185924
-0.027290 -0.054329 -0.185842
-0.027289 -0.054247 -0.185826
-0.027286 -0.054167 -0.185826
-0.027284 -0.054087 -0.185831
-0.027281 -0.054007 -0.185833
-0.027278 -0.053927 -0.185837
-0.027276 -0.053845 -0.185827
-0.027275 -0.053766 -0.185805
-0.027275 -0.053681 -0.185747
-0.027275 -0.053598 -0.185695
-0.027273 -0.053517 -0.185681
-0.027272 -0.053435 -0.185663
-0.027269 -0.053357 -0.185666
-0.027266 -0.053277 -0.185684
-0.027263 -0.053198 -0.185696
-0.027261 -0.053117 -0.185684
-0.027259 -0.053037 -0.185672
-0.027256 -0.052957 -0.185686
-0.027252 -0.052878 -0.185706
-0.027249 -0.052800 -0.185727
-0.027246 -0.052720 -0.185739
-0.027243 -0.052640 -0.185743
-0.027241 -0.052560 -0.185741
-0.027238 -0.052479 -0.185747
-0.027236 -0.052399 -0.185751
-0.027233 -0.052319 -0.185757
-0.027231 -0.052239 -0.185754
-0.027230 -0.052158 -0.185720
-0.027229 -0.052077 -0.185690
-0.027227 -0.051997 -0.185680
-0.027225 -0.051915 -0.185674
-0.027222 -0.051835 -0.185670
-0.027220 -0.051755 -0.185668
-0.027217 -0.051675 -0.185668
-0.027215 -0.051595 -0.185673
-0.027213 -0.051515 -0.185665
-0.027210 -0.051436 -0.185661
-0.027207 -0.051355 -0.185677
-0.027204 -0.051275 -0.185687
-0.027203 -0.051195 -0.185669
-0.027200 -0.051114 -0.185665
-0.027197 -0.051035 -0.185685
-0.027194 -0.050957 -0.185696
-0.027192 -0.050875 -0.185692
-0.027190 -0.050795 -0.185682
-0.027189 -0.050712 -0.185642
-0.027188 -0.050633 -0.185608
-0.027187 -0.050551 -0.185584
-0.027185 -0.050470 -0.185568
-0.027183 -0.050390 -0.185567
-0.027180 -0.050310 -0.185581
-0.027176 -0.050231 -0.185601
-0.027174 -0.050153 -0.185607
-0.027171 -0.050073 -0.185615
-0.027168 -0.049993 -0.185625
-0.027165 -0.049912 -0.185633
-0.027162 -0.049832 -0.185637
-0.027160 -0.049754 -0.185638
-0.027158 -0.049672 -0.185634
-0.027156 -0.049593 -0.185628
-0.027153 -0.049513 -0.185624
-0.027151 -0.049433 -0.185622
-0.027148 -0.049353 -0.185622
-0.027146 -0.049273 -0.185612
-0.027145 -0.049191 -0.185597
-0.027143 -0.049112 -0.185581
-0.027141 -0.049032 -0.185569
-0.027139 -0.048952 -0.185569
-0.027136 -0.048872 -0.185571
-0.027134 -0.048792 -0.185563
-0.027132 -0.048710 -0.185563
-0.027129 -0.048632 -0.185571
-0.027126 -0.048552 -0.185578
-0.027124 -0.048472 -0.185576
-0.027122 -0.048392 -0.185570
-0.027119 -0.048310 -0.185572
-0.027116 -0.048232 -0.185580
-0.027114 -0.048152 -0.185574
-0.027111 -0.048072 -0.185580
-0.027108 -0.047992 -0.185591
-0.027106 -0.047912 -0.185589
-0.027103 -0.047832 -0.185591
-0.027101 -0.047752 -0.185591
-0.027099 -0.047672 -0.185571
-0.027098 -0.047591 -0.185553
-0.027096 -0.047511 -0.185545
-0.027093 -0.047431 -0.185553
-0.027090 -0.047352 -0.185566
-0.027087 -0.047270 -0.185570
-0.027085 -0.047192 -0.185572
-0.027082 -0.047110 -0.185574
-0.027080 -0.047032 -0.185574
-0.027078 -0.046953 -0.185562
-0.027076 -0.046871 -0.185544
-0.027074 -0.046791 -0.185537
-0.027072 -0.046711 -0.185527
-0.027070 -0.046631 -0.185525
-0.027067 -0.046551 -0.185535
-0.027064 -0.046471 -0.185537
-0.027062 -0.046391 -0.185537
-0.027059 -0.046311 -0.185547
-0.027056 -0.046231 -0.185551
-0.027054 -0.046151 -0.185544
-0.027053 -0.046072 -0.185522
-0.027052 -0.045992 -0.185496
-0.027049 -0.045910 -0.185492
-0.027047 -0.045832 -0.185490
-0.027045 -0.045752 -0.185486
-0.027042 -0.045672 -0.185491
-0.027039 -0.045592 -0.185505
-0.027036 -0.045512 -0.185517
-0.027033 -0.045432 -0.185525
-0.027031 -0.045352 -0.185513
-0.027029 -0.045272 -0.185503
-0.027027 -0.045192 -0.185501
-0.027024 -0.045112 -0.185505
-0.027021 -0.045032 -0.185510
-0.027019 -0.044952 -0.185510
-0.027017 -0.044872 -0.185506
-0.027014 -0.044792 -0.185504
-0.027012 -0.044712 -0.185512
-0.027009 -0.044632 -0.185520
-0.027007 -0.044552 -0.185504
-0.027006 -0.044473 -0.185477
-0.027004 -0.044393 -0.185473
-0.027001 -0.044313 -0.185473
-0.026999 -0.044233 -0.185467
-0.026996 -0.044153 -0.185473
-0.026993 -0.044073 -0.185495
-0.026989 -0.043992 -0.185513
-0.026986 -0.043912 -0.185527
-0.026983 -0.043834 -0.185548
-0.026980 -0.043753 -0.185552
-0.026978 -0.043671 -0.185552
-0.026976 -0.043594 -0.185546
-0.026974 -0.043512 -0.185532
-0.026972 -0.043432 -0.185514
-0.026970 -0.043353 -0.185500
-0.026968 -0.043273 -0.185493
-0.026966 -0.043193 -0.185485
-0.026964 -0.043113 -0.185483
-0.026961 -0.043033 -0.185491
-0.026959 -0.042953 -0.185477
-0.026959 -0.042874 -0.185437
-0.026956 -0.042794 -0.185441
-0.026953 -0.042714 -0.185450
-0.026951 -0.042634 -0.185444
-0.026948 -0.042554 -0.185462
-0.026944 -0.042473 -0.185488
-0.026941 -0.042393 -0.185506
-0.026938 -0.042313 -0.185516
-0.026935 -0.042233 -0.185516
-0.026934 -0.042153 -0.185496
-0.026933 -0.042074 -0.185471
-0.026931 -0.041994 -0.185465
-0.026928 -0.041913 -0.185475
-0.026925 -0.041833 -0.185479
-0.026922 -0.041753 -0.185485
-0.026920 -0.041673 -0.185485
-0.026918 -0.041594 -0.185471
-0.026916 -0.041514 -0.185456
-0.026915 -0.041434 -0.185440
-0.026913 -0.041355 -0.185430
-0.026910 -0.041275 -0.185432
-0.026907 -0.041194 -0.185436
-0.026905 -0.041114 -0.185438
-0.026902 -0.041034 -0.185444
-0.026899 -0.040954 -0.185458
-0.026896 -0.040874 -0.185459
-0.026894 -0.040794 -0.185469
-0.026890 -0.040714 -0.185485
-0.026887 -0.040633 -0.185493
-0.026885 -0.040553 -0.185495
-0.026883 -0.040473 -0.185493
-0.026881 -0.040394 -0.185479
-0.026880 -0.040314 -0.185444
-0.026878 -0.040235 -0.185436
-0.026876 -0.040155 -0.185418
-0.026875 -0.040075 -0.185406
-0.026872 -0.039995 -0.185406
-0.026870 -0.039915 -0.185408
-0.026867 -0.039835 -0.185406
-0.026865 -0.039756 -0.185401
-0.026863 -0.039676 -0.185391
-0.026860 -0.039596 -0.185395
-0.026858 -0.039516 -0.185403
-0.026855 -0.039435 -0.185411
-0.026851 -0.039355 -0.185427
-0.026848 -0.039275 -0.185443
-0.026846 -0.039195 -0.185447
-0.026844 -0.039115 -0.185436
-0.026841 -0.039035 -0.185436
-0.026838 -0.038955 -0.185450
-0.026835 -0.038874 -0.185456
-0.026833 -0.038795 -0.185450
-0.026832 -0.038715 -0.185426
-0.026830 -0.038635 -0.185412
-0.026828 -0.038556 -0.185407
-0.026826 -0.038476 -0.185401
-0.026824 -0.038396 -0.185393
-0.026822 -0.038316 -0.185385
-0.026819 -0.038236 -0.185379
-0.026818 -0.038157 -0.185361
-0.026816 -0.038077 -0.185349
-0.026813 -0.037997 -0.185354
-0.026810 -0.037917 -0.185366
-0.026807 -0.037836 -0.185384
-0.026804 -0.037756 -0.185400
-0.026801 -0.037676 -0.185416
-0.026797 -0.037595 -0.185428
-0.026795 -0.037513 -0.185430
-0.026792 -0.037433 -0.185436
-0.026789 -0.037353 -0.185442
-0.026786 -0.037273 -0.185463
-0.026783 -0.037193 -0.185469
-0.026782 -0.037113 -0.185447
-0.026781 -0.037034 -0.185417
-0.026779 -0.036954 -0.185405
-0.026777 -0.036874 -0.185393
-0.026775 -0.036796 -0.185386
-0.026772 -0.036714 -0.185388
-0.026770 -0.036634 -0.185386
-0.026768 -0.036555 -0.185382
-0.026766 -0.036475 -0.185378
-0.026763 -0.036395 -0.185370
-0.026761 -0.036315 -0.185376
-0.026758 -0.036235 -0.185384
-0.026755 -0.036154 -0.185399
-0.026751 -0.036072 -0.185415
-0.026749 -0.035992 -0.185421
-0.026746 -0.035912 -0.185429
-0.026743 -0.035831 -0.185439
-0.026740 -0.035751 -0.185443
-0.026737 -0.035669 -0.185455
-0.026734 -0.035589 -0.185463
-0.026732 -0.035509 -0.185459
-0.026729 -0.035429 -0.185462
-0.026727 -0.035349 -0.185454
-0.026727 -0.035272 -0.185422
-0.026725 -0.035192 -0.185410
-0.026723 -0.035112 -0.185400
-0.026721 -0.035033 -0.185392
-0.026718 -0.034953 -0.185394
-0.026715 -0.034873 -0.185399
-0.026713 -0.034793 -0.185399
-0.026710 -0.034710 -0.185409
-0.026707 -0.034630 -0.185421
-0.026704 -0.034550 -0.185423
-0.026701 -0.034468 -0.185435
-0.026698 -0.034388 -0.185447
-0.026696 -0.034308 -0.185449
-0.026693 -0.034227 -0.185459
-0.026689 -0.034145 -0.185480
-0.026686 -0.034065 -0.185490
-0.026684 -0.033985 -0.185486
-0.026682 -0.033905 -0.185470
-0.026681 -0.033826 -0.185448
-0.026680 -0.033748 -0.185418
-0.026679 -0.033669 -0.185397
-0.026676 -0.033589 -0.185391
-0.026674 -0.033509 -0.185387
-0.026672 -0.033429 -0.185377
-0.026670 -0.033349 -0.185373
-0.026667 -0.033269 -0.185379
-0.026664 -0.033189 -0.185389
-0.026662 -0.033107 -0.185391
-0.026659 -0.033027 -0.185390
-0.026657 -0.032947 -0.185388
-0.026654 -0.032867 -0.185400
-0.026651 -0.032787 -0.185406
-0.026649 -0.032705 -0.185408
-0.026646 -0.032625 -0.185418
-0.026642 -0.032542 -0.185438
-0.026639 -0.032460 -0.185454
-0.026636 -0.032380 -0.185454
-0.026634 -0.032300 -0.185443
-0.026632 -0.032222 -0.185437
-0.026631 -0.032143 -0.185425
-0.026629 -0.032063 -0.185409
-0.026614 -0.031581 -0.185408
-0.026612 -0.031501 -0.185400
-0.026610 -0.031421 -0.185402
-0.026607 -0.031341 -0.185404
-0.026604 -0.031259 -0.185406
-0.026602 -0.031181 -0.185404
-0.026600 -0.031099 -0.185401
-0.026597 -0.031019 -0.185407
-0.026594 -0.030939 -0.185415
-0.026591 -0.030857 -0.185421
-0.026588 -0.030777 -0.185431
-0.026586 -0.030695 -0.185427
-0.026585 -0.030617 -0.185409
-0.026582 -0.030537 -0.185403
-0.026580 -0.030455 -0.185410
-0.026577 -0.030375 -0.185416
-0.026575 -0.030295 -0.185410
-0.026573 -0.030215 -0.185398
-0.026570 -0.030135 -0.185402
-0.026567 -0.030053 -0.185410
-0.026564 -0.029973 -0.185418
-0.026562 -0.029893 -0.185418
-0.026560 -0.029813 -0.185407
-0.026558 -0.029734 -0.185397
-0.026556 -0.029654 -0.185391
-0.026554 -0.029574 -0.185385
-0.026551 -0.029494 -0.185385
-0.026548 -0.029412 -0.185391
-0.026545 -0.029331 -0.185407
-0.026542 -0.029249 -0.185415
-0.026539 -0.029169 -0.185428
-0.026537 -0.029087 -0.185426
-0.026536 -0.029010 -0.185402
-0.026534 -0.028932 -0.185384
-0.026533 -0.028853 -0.185354
-0.026532 -0.028775 -0.185328
-0.026530 -0.028695 -0.185323
-0.026526 -0.028613 -0.185355
-0.026522 -0.028530 -0.185385
-0.026519 -0.028448 -0.185389
-0.026517 -0.028368 -0.185383
-0.026515 -0.028289 -0.185367
-0.026513 -0.028209 -0.185363
-0.026510 -0.028128 -0.185371
-0.026507 -0.028046 -0.185375
-0.026505 -0.027966 -0.185373
-0.026503 -0.027887 -0.185364
-0.026501 -0.027807 -0.185358
-0.026498 -0.027727 -0.185364
-0.026495 -0.027644 -0.185376
-0.026492 -0.027562 -0.185384
-0.026490 -0.027483 -0.185372
-0.026488 -0.027405 -0.185364
-0.026486 -0.027325 -0.185365
-0.026483 -0.027243 -0.185371
-0.026480 -0.027160 -0.185381
-0.026477 -0.027078 -0.185389
-0.026474 -0.026998 -0.185395
-0.026471 -0.026918 -0.185403
-0.026469 -0.026836 -0.185407
-0.026467 -0.026756 -0.185397
-0.026465 -0.026676 -0.185385
-0.026463 -0.026599 -0.185374
-0.026461 -0.026519 -0.185368
-0.026459 -0.026437 -0.185364
-0.026456 -0.026357 -0.185358
-0.026455 -0.026277 -0.185346
-0.026452 -0.026197 -0.185344
-0.026449 -0.026117 -0.185352
-0.026447 -0.026035 -0.185356
-0.026445 -0.025955 -0.185347
-0.026443 -0.025878 -0.185333
-0.026441 -0.025798 -0.185329
-0.026438 -0.025716 -0.185329
-0.026436 -0.025636 -0.185331
-0.026433 -0.025556 -0.185331
-0.026431 -0.025474 -0.185333
-0.026428 -0.025392 -0.185343
-0.026425 -0.025311 -0.185352
-0.026423 -0.025232 -0.185332
-0.026422 -0.025157 -0.185300
-0.026421 -0.025077 -0.185280
-0.026419 -0.024999 -0.185270
-0.026416 -0.024917 -0.185272
-0.026414 -0.024835 -0.185281
-0.026411 -0.024755 -0.185287
-0.026408 -0.024673 -0.185287
-0.026405 -0.024593 -0.185293
-0.026403 -0.024511 -0.185297
-0.026401 -0.024431 -0.185291
-0.026399 -0.024353 -0.185275
-0.026397 -0.024274 -0.185257
-0.026395 -0.024194 -0.185252
-0.026393 -0.024114 -0.185246
-0.026391 -0.024036 -0.185234
-0.026389 -0.023956 -0.185228
-0.026387 -0.023874 -0.185226
-0.026384 -0.023795 -0.185222
-0.026382 -0.023715 -0.185214
-0.026382 -0.023639 -0.185183
-0.026381 -0.023562 -0.185147
-0.026379 -0.023483 -0.185137
-0.026377 -0.023403 -0.185131
-0.026375 -0.023323 -0.185121
-0.026373 -0.023245 -0.185110
-0.026371 -0.023165 -0.185104
-0.026369 -0.023085 -0.185102
-0.026367 -0.023006 -0.185092
-0.026364 -0.022926 -0.185086
-0.026362 -0.022846 -0.185082
-0.026360 -0.022766 -0.185072
-0.026358 -0.022686 -0.185061
-0.026356 -0.022609 -0.185051
-0.026354 -0.022529 -0.185041
-0.026352 -0.022449 -0.185031
-0.026351 -0.022371 -0.185021
-0.026348 -0.022291 -0.185013
-0.026347 -0.022212 -0.184998
-0.026346 -0.022136 -0.184970
-0.026345 -0.022059 -0.184938
-0.026344 -0.021984 -0.184904
-0.026343 -0.021907 -0.184877
-0.026342 -0.021829 -0.184859
-0.026340 -0.021749 -0.184851
-0.026337 -0.021669 -0.184847
-0.026335 -0.021589 -0.184849
-0.026333 -0.021509 -0.184841
-0.026331 -0.021430 -0.184833
-0.026328 -0.021347 -0.184840
-0.026325 -0.021267 -0.184846
-0.026323 -0.021187 -0.184846
-0.026320 -0.021105 -0.184846
-0.026317 -0.021021 -0.184866
-0.026313 -0.020936 -0.184892
-0.026309 -0.020854 -0.184912
-0.026305 -0.020769 -0.184942
-0.026301 -0.020682 -0.184982
-0.026296 -0.020596 -0.185018
-0.026291 -0.020507 -0.185070
-0.027785 -0.055344 -0.185804
-0.027784 -0.055260 -0.185774
-0.027783 -0.055179 -0.185744
-0.027782 -0.055096 -0.185710
-0.027782 -0.055013 -0.185661
-0.027782 -0.054928 -0.185603
-0.027781 -0.054847 -0.185577
-0.027779 -0.054767 -0.185567
-0.027777 -0.054685 -0.185547
-0.027776 -0.054604 -0.185527
-0.027773 -0.054524 -0.185531
-0.027771 -0.054444 -0.185533
-0.027769 -0.054362 -0.185514
-0.027767 -0.054281 -0.185496
-0.027765 -0.054201 -0.185500
-0.027762 -0.054123 -0.185504
-0.027760 -0.054041 -0.185488
-0.027759 -0.053959 -0.185468
-0.027757 -0.053878 -0.185448
-0.027755 -0.053798 -0.185438
-0.027752 -0.053718 -0.185449
-0.027749 -0.053640 -0.185465
-0.027746 -0.053561 -0.185485
-0.027742 -0.053481 -0.185505
-0.027740 -0.053403 -0.185507
-0.027738 -0.053323 -0.185501
-0.027735 -0.053241 -0.185505
-0.027732 -0.053163 -0.185512
-0.027730 -0.053083 -0.185510
-0.027728 -0.053003 -0.185508
-0.027725 -0.052923 -0.185510
-0.027722 -0.052842 -0.185524
-0.027719 -0.052764 -0.185538
-0.027716 -0.052684 -0.185546
-0.027713 -0.052604 -0.185552
-0.027710 -0.052526 -0.185559
-0.027708 -0.052446 -0.185555
-0.027706 -0.052364 -0.185547
-0.027704 -0.052284 -0.185537
-0.027702 -0.052204 -0.185531
-0.027700 -0.052124 -0.185525
-0.027697 -0.052044 -0.185527
-0.027694 -0.051964 -0.185542
-0.027691 -0.051886 -0.185560
-0.027688 -0.051806 -0.185570
-0.027685 -0.051726 -0.185570
-0.027683 -0.051646 -0.185562
-0.027681 -0.051566 -0.185560
-0.027678 -0.051486 -0.185568
-0.027676 -0.051406 -0.185571
-0.027673 -0.051326 -0.185567
-0.027670 -0.051246 -0.185575
-0.027668 -0.051165 -0.185581
-0.027665 -0.051085 -0.185581
-0.027663 -0.051005 -0.185581
-0.027661 -0.050926 -0.185577
-0.027659 -0.050846 -0.185565
-0.027656 -0.050766 -0.185562
-0.027654 -0.050686 -0.185568
-0.027651 -0.050606 -0.185572
-0.027648 -0.050526 -0.185578
-0.027646 -0.050446 -0.185578
-0.027643 -0.050365 -0.185592
-0.027638 -0.050287 -0.185628
-0.027635 -0.050208 -0.185644
-0.027633 -0.050128 -0.185641
-0.027631 -0.050049 -0.185631
-0.027629 -0.049967 -0.185615
-0.027627 -0.049887 -0.185609
-0.027625 -0.049807 -0.185611
-0.027622 -0.049727 -0.185609
-0.027620 -0.049647 -0.185597
-0.027618 -0.049568 -0.185588
-0.027616 -0.049486 -0.185586
-0.027614 -0.049406 -0.185584
-0.027611 -0.049326 -0.185580
-0.027609 -0.049246 -0.185568
-0.027608 -0.049166 -0.185556
-0.027605 -0.049086 -0.185560
-0.027602 -0.049006 -0.185578
-0.027598 -0.048928 -0.185597
-0.027595 -0.048847 -0.185607
-0.027592 -0.048767 -0.185617
-0.027589 -0.048687 -0.185629
-0.027587 -0.048609 -0.185637
-0.027584 -0.048529 -0.185635
-0.027582 -0.048449 -0.185629
-0.027580 -0.048367 -0.185618
-0.027578 -0.048287 -0.185612
-0.027576 -0.048208 -0.185604
-0.027574 -0.048128 -0.185588
-0.027572 -0.048046 -0.185578
-0.027570 -0.047966 -0.185572
-0.027568 -0.047886 -0.185572
-0.027565 -0.047806 -0.185576
-0.027563 -0.047726 -0.185569
-0.027561 -0.047647 -0.185563
-0.027558 -0.047567 -0.185559
-0.027556 -0.047487 -0.185561
-0.027553 -0.047406 -0.185573
-0.027550 -0.047328 -0.185585
-0.027547 -0.047246 -0.185589
-0.027544 -0.047168 -0.185602
-0.027541 -0.047087 -0.185616
-0.027538 -0.047007 -0.185632
-0.027535 -0.046929 -0.185638
-0.027533 -0.046847 -0.185638
-0.027530 -0.046769 -0.185636
-0.027529 -0.046688 -0.185610
-0.027527 -0.046608 -0.185601
-0.027525 -0.046528 -0.185593
-0.027523 -0.046446 -0.185581
-0.027521 -0.046369 -0.185575
-0.027518 -0.046286 -0.185585
-0.027515 -0.046208 -0.185589
-0.027513 -0.046128 -0.185585
-0.027511 -0.046048 -0.185581
-0.027509 -0.045969 -0.185574
-0.027507 -0.045887 -0.185566
-0.027504 -0.045807 -0.185564
-0.027502 -0.045729 -0.185568
-0.027498 -0.045648 -0.185584
-0.027495 -0.045568 -0.185598
-0.027492 -0.045488 -0.185604
-0.027490 -0.045408 -0.185601
-0.027488 -0.045328 -0.185587
-0.027486 -0.045249 -0.185583
-0.027484 -0.045169 -0.185587
-0.027481 -0.045088 -0.185593
-0.027479 -0.045009 -0.185579
-0.027478 -0.044929 -0.185557
-0.027475 -0.044847 -0.185559
-0.027472 -0.044769 -0.185562
-0.027471 -0.044687 -0.185548
-0.027469 -0.044608 -0.185534
-0.027466 -0.044528 -0.185534
-0.027464 -0.044448 -0.185530
-0.027462 -0.044368 -0.185530
-0.027459 -0.044288 -0.185544
-0.027455 -0.044207 -0.185561
-0.027452 -0.044129 -0.185573
-0.027449 -0.044049 -0.185583
-0.027446 -0.043969 -0.185595
-0.027444 -0.043888 -0.185601
-0.027440 -0.043808 -0.185617
-0.027437 -0.043728 -0.185641
-0.027434 -0.043647 -0.185655
-0.027431 -0.043567 -0.185654
-0.027429 -0.043487 -0.185654
-0.027427 -0.043408 -0.185642
-0.027426 -0.043328 -0.185612
-0.027424 -0.043249 -0.185590
-0.027423 -0.043169 -0.185580
-0.027420 -0.043087 -0.185574
-0.027418 -0.043009 -0.185575
-0.027415 -0.042929 -0.185581
-0.027412 -0.042849 -0.185585
-0.027410 -0.042769 -0.185585
-0.027407 -0.042689 -0.185603
-0.027403 -0.042608 -0.185619
-0.027401 -0.042528 -0.185613
-0.027399 -0.042449 -0.185611
-0.027395 -0.042368 -0.185636
-0.027392 -0.042288 -0.185654
-0.027389 -0.042207 -0.185666
-0.027387 -0.042127 -0.185662
-0.027384 -0.042047 -0.185666
-0.027381 -0.041967 -0.185678
-0.027379 -0.041887 -0.185672
-0.027377 -0.041808 -0.185656
-0.027375 -0.041728 -0.185641
-0.027373 -0.041648 -0.185631
-0.027372 -0.041569 -0.185619
-0.027370 -0.041487 -0.185607
-0.027367 -0.041407 -0.185601
-0.027365 -0.041329 -0.185593
-0.027363 -0.041247 -0.185583
-0.027361 -0.041167 -0.185578
-0.027358 -0.041087 -0.185588
-0.027355 -0.041007 -0.185600
-0.027352 -0.040927 -0.185608
-0.027350 -0.040847 -0.185612
-0.027347 -0.040767 -0.185614
-0.027345 -0.040687 -0.185618
-0.027342 -0.040607 -0.185612
-0.027340 -0.040527 -0.185613
-0.027336 -0.040446 -0.185635
-0.027334 -0.040366 -0.185643
-0.027331 -0.040286 -0.185635
-0.027329 -0.040206 -0.185637
-0.027326 -0.040126 -0.185637
-0.027326 -0.040047 -0.185593
-0.027323 -0.039888 -0.185562
-0.027321 -0.039808 -0.185552
-0.027318 -0.039728 -0.185552
-0.027315 -0.039648 -0.185566
-0.027312 -0.039568 -0.185578
-0.027309 -0.039486 -0.185584
-0.027307 -0.039406 -0.185592
-0.027304 -0.039328 -0.185587
-0.027303 -0.039246 -0.185571
-0.027300 -0.039166 -0.185577
-0.027296 -0.039085 -0.185597
-0.027293 -0.039005 -0.185611
-0.027291 -0.038925 -0.185617
-0.027288 -0.038845 -0.185625
-0.027285 -0.038765 -0.185637
-0.027282 -0.038683 -0.185644
-0.027280 -0.038605 -0.185634
-0.027278 -0.038525 -0.185616
-0.027277 -0.038446 -0.185602
-0.027274 -0.038366 -0.185602
-0.027272 -0.038284 -0.185592
-0.027270 -0.038206 -0.185586
-0.027268 -0.038126 -0.185587
-0.027265 -0.038044 -0.185587
-0.027263 -0.037964 -0.185583
-0.027260 -0.037884 -0.185585
-0.027258 -0.037804 -0.185583
-0.027255 -0.037724 -0.185587
-0.027253 -0.037644 -0.185587
-0.027251 -0.037564 -0.185579
-0.027249 -0.037484 -0.185572
-0.027246 -0.037404 -0.185572
-0.027243 -0.037324 -0.185584
-0.027240 -0.037242 -0.185600
-0.027237 -0.037162 -0.185600
-0.027235 -0.037082 -0.185598
-0.027232 -0.037002 -0.185612
-0.027229 -0.036921 -0.185624
-0.027227 -0.036841 -0.185621
-0.027224 -0.036762 -0.185615
-0.027222 -0.036682 -0.185605
-0.027221 -0.036602 -0.185593
-0.027218 -0.036522 -0.185601
-0.027215 -0.036440 -0.185607
-0.027213 -0.036360 -0.185599
-0.027211 -0.036280 -0.185589
-0.027208 -0.036200 -0.185590
-0.027206 -0.036120 -0.185590
-0.027203 -0.036040 -0.185590
-0.027201 -0.035960 -0.185590
-0.027199 -0.035880 -0.185586
-0.027196 -0.035800 -0.185594
-0.027193 -0.035720 -0.185604
-0.027190 -0.035638 -0.185605
-0.027187 -0.035558 -0.185615
-0.027184 -0.035476 -0.185627
-0.027182 -0.035398 -0.185621
-0.027180 -0.035318 -0.185613
-0.027178 -0.035238 -0.185605
-0.027176 -0.035158 -0.185605
-0.027172 -0.035076 -0.185621
-0.027170 -0.034996 -0.185629
-0.027167 -0.034916 -0.185628
-0.027165 -0.034836 -0.185626
-0.027162 -0.034754 -0.185630
-0.027160 -0.034674 -0.185622
-0.027159 -0.034596 -0.185600
-0.027157 -0.034517 -0.185578
-0.027155 -0.034437 -0.185571
-0.027152 -0.034357 -0.185581
-0.027149 -0.034274 -0.185595
-0.027146 -0.034194 -0.185605
-0.027143 -0.034114 -0.185611
-0.027141 -0.034034 -0.185601
-0.027139 -0.033955 -0.185595
-0.027136 -0.033872 -0.185609
-0.027133 -0.033792 -0.185611
-0.027131 -0.033712 -0.185606
-0.027130 -0.033633 -0.185592
-0.027127 -0.033553 -0.185592
-0.027125 -0.033471 -0.185592
-0.027122 -0.033391 -0.185600
-0.027119 -0.033310 -0.185614
-0.027116 -0.033230 -0.185610
-0.027115 -0.033151 -0.185580
-0.027113 -0.033071 -0.185569
-0.027111 -0.032991 -0.185565
-0.027109 -0.032914 -0.185555
-0.027106 -0.032832 -0.185561
-0.027103 -0.032751 -0.185571
-0.027101 -0.032671 -0.185563
-0.027099 -0.032592 -0.185557
-0.027096 -0.032509 -0.185572
-0.027093 -0.032427 -0.185588
-0.027090 -0.032347 -0.185594
-0.027088 -0.032267 -0.185582
-0.027086 -0.032187 -0.185574
-0.027084 -0.032110 -0.185562
-0.027082 -0.032030 -0.185550
-0.027080 -0.031950 -0.185546
-0.027077 -0.031868 -0.185553
-0.027074 -0.031788 -0.185563
-0.027071 -0.031705 -0.185575
-0.027068 -0.031625 -0.185585
-0.027066 -0.031545 -0.185579
-0.027064 -0.031466 -0.185567
-0.027062 -0.031386 -0.185557
-0.027060 -0.031306 -0.185547
-0.027058 -0.031226 -0.185542
-0.027056 -0.031146 -0.185542
-0.027053 -0.031064 -0.185546
-0.027050 -0.030984 -0.185554
-0.027047 -0.030904 -0.185558
-0.027046 -0.030824 -0.185548
-0.027044 -0.030744 -0.185538
-0.027041 -0.030665 -0.185535
-0.027039 -0.030585 -0.185525
-0.027037 -0.030505 -0.185529
-0.027034 -0.030423 -0.185535
-0.027031 -0.030343 -0.185533
-0.027029 -0.030261 -0.185537
-0.027026 -0.030180 -0.185547
-0.027023 -0.030100 -0.185555
-0.027020 -0.030018 -0.185559
-0.027018 -0.029938 -0.185554
-0.027016 -0.029858 -0.185554
-0.027013 -0.029778 -0.185552
-0.027011 -0.029699 -0.185538
-0.027009 -0.029619 -0.185530
-0.027007 -0.029539 -0.185520
-0.027005 -0.029457 -0.185524
-0.027002 -0.029377 -0.185534
-0.026999 -0.029297 -0.185539
-0.026997 -0.029215 -0.185539
-0.026994 -0.029135 -0.185533
-0.026992 -0.029055 -0.185527
-0.026990 -0.028975 -0.185531
-0.026987 -0.028895 -0.185535
-0.026985 -0.028813 -0.185533
-0.026982 -0.028733 -0.185527
-0.026980 -0.028653 -0.185532
-0.026977 -0.028571 -0.185538
-0.026974 -0.028491 -0.185542
-0.026972 -0.028409 -0.185546
-0.026969 -0.028329 -0.185542
-0.026967 -0.028249 -0.185530
-0.026966 -0.028171 -0.185516
-0.026964 -0.028092 -0.185508
-0.026961 -0.028012 -0.185511
-0.026958 -0.027929 -0.185517
-0.026956 -0.027847 -0.185521
-0.026954 -0.027770 -0.185495
-0.026955 -0.027697 -0.185427
-0.026955 -0.027620 -0.185388
-0.026945 -0.027525 -0.185529
-0.026943 -0.027446 -0.185515
-0.026942 -0.027368 -0.185502
-0.026940 -0.027288 -0.185496
-0.026937 -0.027206 -0.185498
-0.026934 -0.027126 -0.185500
-0.026932 -0.027044 -0.185504
-0.026929 -0.026962 -0.185518
-0.026926 -0.026881 -0.185528
-0.026923 -0.026799 -0.185532
-0.026921 -0.026720 -0.185522
-0.026920 -0.026642 -0.185499
-0.026918 -0.026562 -0.185491
-0.026915 -0.026482 -0.185491
-0.026913 -0.026400 -0.185491
-0.026910 -0.026320 -0.185489
-0.026908 -0.026240 -0.185485
-0.026906 -0.026161 -0.185483
-0.026903 -0.026078 -0.185488
-0.026900 -0.025998 -0.185488
-0.026898 -0.025919 -0.185484
-0.026896 -0.025839 -0.185474
-0.026894 -0.025759 -0.185464
-0.026892 -0.025679 -0.185462
-0.026889 -0.025597 -0.185466
-0.026887 -0.025517 -0.185464
-0.026885 -0.025437 -0.185459
-0.026882 -0.025357 -0.185459
-0.026880 -0.025275 -0.185461
-0.026877 -0.025195 -0.185455
-0.026876 -0.025118 -0.185435
-0.026874 -0.025038 -0.185429
-0.026872 -0.024958 -0.185421
-0.026870 -0.024878 -0.185414
-0.026867 -0.024798 -0.185410
-0.026865 -0.024718 -0.185408
-0.026863 -0.024639 -0.185400
-0.026861 -0.024559 -0.185396
-0.026858 -0.024477 -0.185392
-0.026856 -0.024397 -0.185390
-0.026853 -0.024317 -0.185392
-0.026852 -0.024237 -0.185381
-0.026850 -0.024158 -0.185365
-0.026848 -0.024078 -0.185359
-0.026846 -0.024000 -0.185345
-0.026844 -0.023920 -0.185333
-0.026842 -0.023840 -0.185331
-0.026839 -0.023758 -0.185336
-0.026838 -0.023681 -0.185316
-0.026837 -0.023606 -0.185276
-0.026836 -0.023528 -0.185254
-0.026834 -0.023448 -0.185240
-0.026832 -0.023369 -0.185231
-0.026830 -0.023289 -0.185229
-0.026828 -0.023209 -0.185223
-0.026826 -0.023129 -0.185211
-0.026824 -0.023049 -0.185201
-0.026821 -0.022969 -0.185201
-0.026819 -0.022887 -0.185203
-0.026816 -0.022807 -0.185199
-0.026815 -0.022730 -0.185178
-0.026814 -0.022652 -0.185154
-0.026812 -0.022575 -0.185140
-0.026810 -0.022495 -0.185134
-0.026808 -0.022415 -0.185130
-0.026806 -0.022335 -0.185115
-0.026807 -0.022263 -0.185053
-0.026806 -0.022188 -0.185015
-0.026804 -0.022108 -0.185005
-0.026803 -0.022030 -0.184988
-0.026801 -0.021953 -0.184968
-0.026800 -0.021875 -0.184952
-0.026798 -0.021795 -0.184942
-0.026795 -0.021715 -0.184942
-0.026793 -0.021635 -0.184936
-0.026791 -0.021556 -0.184928
-0.026789 -0.021476 -0.184925
-0.026786 -0.021396 -0.184925
-0.026784 -0.021316 -0.184919
-0.026782 -0.021236 -0.184909
-0.026780 -0.021156 -0.184907
-0.026777 -0.021074 -0.184913
-0.026774 -0.020992 -0.184929
-0.026771 -0.020907 -0.184939
-0.026767 -0.020825 -0.184957
-0.026763 -0.020738 -0.184999
-0.026758 -0.020649 -0.185049
-0.026753 -0.020562 -0.185095
-0.026747 -0.020471 -0.185161
-0.028232 -0.055400 -0.185863
-0.028234 -0.055312 -0.185771
-0.028234 -0.055229 -0.185726
-0.028234 -0.055144 -0.185652
-0.028234 -0.055060 -0.185600
-0.028234 -0.054978 -0.185564
-0.028232 -0.054897 -0.185536
-0.028231 -0.054815 -0.185518
-0.028229 -0.054734 -0.185498
-0.028228 -0.054651 -0.185468
-0.028227 -0.054569 -0.185436
-0.028225 -0.054490 -0.185425
-0.028223 -0.054408 -0.185425
-0.028220 -0.054329 -0.185431
-0.028217 -0.054249 -0.185437
-0.028215 -0.054169 -0.185435
-0.028212 -0.054091 -0.185445
-0.028209 -0.054011 -0.185455
-0.028207 -0.053931 -0.185452
-0.028205 -0.053849 -0.185446
-0.028202 -0.053771 -0.185454
-0.028199 -0.053691 -0.185472
-0.028195 -0.053612 -0.185488
-0.028192 -0.053532 -0.185500
-0.028190 -0.053454 -0.185508
-0.028187 -0.053374 -0.185520
-0.028183 -0.053295 -0.185537
-0.028180 -0.053215 -0.185551
-0.028178 -0.053135 -0.185543
-0.028176 -0.053056 -0.185527
-0.028174 -0.052974 -0.185519
-0.028172 -0.052894 -0.185513
-0.028169 -0.052814 -0.185517
-0.028167 -0.052736 -0.185528
-0.028164 -0.052655 -0.185536
-0.028161 -0.052575 -0.185544
-0.028158 -0.052497 -0.185556
-0.028155 -0.052417 -0.185560
-0.028153 -0.052337 -0.185562
-0.028150 -0.052257 -0.185570
-0.028147 -0.052178 -0.185584
-0.028144 -0.052098 -0.185593
-0.028141 -0.052018 -0.185597
-0.028139 -0.051940 -0.185603
-0.028135 -0.051860 -0.185617
-0.028132 -0.051781 -0.185637
-0.028129 -0.051701 -0.185651
-0.028127 -0.051621 -0.185649
-0.028125 -0.051541 -0.185636
-0.028122 -0.051460 -0.185634
-0.028120 -0.051381 -0.185636
-0.028119 -0.051300 -0.185606
-0.028116 -0.051218 -0.185606
-0.028114 -0.051140 -0.185606
-0.028111 -0.051058 -0.185608
-0.028109 -0.050978 -0.185602
-0.028107 -0.050898 -0.185601
-0.028104 -0.050818 -0.185609
-0.028101 -0.050740 -0.185621
-0.028098 -0.050660 -0.185631
-0.028095 -0.050579 -0.185643
-0.028091 -0.050501 -0.185665
-0.028088 -0.050421 -0.185677
-0.028085 -0.050342 -0.185694
-0.028082 -0.050262 -0.185714
-0.028079 -0.050184 -0.185728
-0.028076 -0.050104 -0.185738
-0.028073 -0.050023 -0.185740
-0.028071 -0.049944 -0.185736
-0.028069 -0.049862 -0.185714
-0.028069 -0.049781 -0.185678
-0.028067 -0.049701 -0.185673
-0.028064 -0.049621 -0.185665
-0.028062 -0.049541 -0.185657
-0.028060 -0.049461 -0.185657
-0.028057 -0.049381 -0.185663
-0.028055 -0.049301 -0.185659
-0.028053 -0.049220 -0.185643
-0.028051 -0.049142 -0.185644
-0.028047 -0.049061 -0.185668
-0.028044 -0.048981 -0.185680
-0.028041 -0.048903 -0.185692
-0.028038 -0.048822 -0.185708
-0.028035 -0.048744 -0.185724
-0.028032 -0.048662 -0.185726
-0.028030 -0.048584 -0.185728
-0.028026 -0.048504 -0.185751
-0.028023 -0.048423 -0.185759
-0.028021 -0.048344 -0.185751
-0.028019 -0.048264 -0.185747
-0.028017 -0.048184 -0.185741
-0.028015 -0.048102 -0.185721
-0.028013 -0.048023 -0.185709
-0.028012 -0.047943 -0.185694
-0.028009 -0.047861 -0.185690
-0.028007 -0.047781 -0.185688
-0.028005 -0.047701 -0.185680
-0.028003 -0.047621 -0.185672
-0.028000 -0.047542 -0.185670
-0.027997 -0.047461 -0.185682
-0.027994 -0.047381 -0.185698
-0.027992 -0.047303 -0.185703
-0.027989 -0.047221 -0.185709
-0.027985 -0.047142 -0.185735
-0.027981 -0.047062 -0.185759
-0.027979 -0.046984 -0.185763
-0.027976 -0.046904 -0.185763
-0.027974 -0.046822 -0.185765
-0.027971 -0.046744 -0.185768
-0.027969 -0.046662 -0.185770
-0.027966 -0.046584 -0.185768
-0.027964 -0.046504 -0.185758
-0.027963 -0.046422 -0.185730
-0.027962 -0.046341 -0.185704
-0.027959 -0.046261 -0.185712
-0.027956 -0.046183 -0.185718
-0.027955 -0.046103 -0.185707
-0.027953 -0.046021 -0.185693
-0.027950 -0.045941 -0.185697
-0.027947 -0.045861 -0.185707
-0.027944 -0.045783 -0.185721
-0.027941 -0.045702 -0.185733
-0.027938 -0.045622 -0.185745
-0.027935 -0.045542 -0.185747
-0.027933 -0.045462 -0.185748
-0.027930 -0.045382 -0.185758
-0.027927 -0.045302 -0.185776
-0.027924 -0.045221 -0.185786
-0.027922 -0.045142 -0.185772
-0.027921 -0.045062 -0.185750
-0.027919 -0.044981 -0.185724
-0.027918 -0.044901 -0.185707
-0.027916 -0.044822 -0.185695
-0.027913 -0.044742 -0.185695
-0.027911 -0.044661 -0.185697
-0.027908 -0.044581 -0.185703
-0.027906 -0.044501 -0.185703
-0.027904 -0.044422 -0.185689
-0.027902 -0.044342 -0.185684
-0.027899 -0.044260 -0.185688
-0.027896 -0.044182 -0.185700
-0.027893 -0.044101 -0.185718
-0.027889 -0.044021 -0.185732
-0.027887 -0.043941 -0.185738
-0.027884 -0.043861 -0.185740
-0.027881 -0.043781 -0.185748
-0.027879 -0.043701 -0.185749
-0.027877 -0.043621 -0.185745
-0.027874 -0.043540 -0.185757
-0.027871 -0.043460 -0.185763
-0.027869 -0.043380 -0.185755
-0.027867 -0.043301 -0.185747
-0.027864 -0.043221 -0.185751
-0.027861 -0.043140 -0.185763
-0.027858 -0.043060 -0.185778
-0.027855 -0.042980 -0.185784
-0.027853 -0.042900 -0.185770
-0.027852 -0.042821 -0.185754
-0.027849 -0.042741 -0.185754
-0.027847 -0.042659 -0.185756
-0.027844 -0.042581 -0.185758
-0.027841 -0.042500 -0.185764
-0.027838 -0.042418 -0.185773
-0.027836 -0.042340 -0.185781
-0.027833 -0.042258 -0.185785
-0.027830 -0.042178 -0.185793
-0.027828 -0.042100 -0.185793
-0.027825 -0.042018 -0.185791
-0.027823 -0.041938 -0.185789
-0.027820 -0.041858 -0.185793
-0.027818 -0.041778 -0.185792
-0.027816 -0.041698 -0.185780
-0.027814 -0.041618 -0.185778
-0.027811 -0.041538 -0.185782
-0.027808 -0.041458 -0.185784
-0.027805 -0.041378 -0.185794
-0.027802 -0.041298 -0.185808
-0.027800 -0.041218 -0.185807
-0.027798 -0.041138 -0.185793
-0.027796 -0.041056 -0.185777
-0.027795 -0.040977 -0.185757
-0.027793 -0.040897 -0.185753
-0.027790 -0.040817 -0.185749
-0.027788 -0.040737 -0.185743
-0.027786 -0.040657 -0.185743
-0.027783 -0.040577 -0.185746
-0.027781 -0.040497 -0.185740
-0.027778 -0.040417 -0.185744
-0.027776 -0.040337 -0.185750
-0.027773 -0.040257 -0.185754
-0.027771 -0.040177 -0.185754
-0.027768 -0.040097 -0.185752
-0.027766 -0.040015 -0.185750
-0.027763 -0.039935 -0.185757
-0.027760 -0.039855 -0.185769
-0.027757 -0.039775 -0.185775
-0.027755 -0.039695 -0.185775
-0.027752 -0.039615 -0.185773
-0.027750 -0.039535 -0.185771
-0.027748 -0.039455 -0.185763
-0.027746 -0.039375 -0.185750
-0.027744 -0.039296 -0.185738
-0.027742 -0.039216 -0.185738
-0.027739 -0.039135 -0.185750
-0.027736 -0.039053 -0.185750
-0.027734 -0.038974 -0.185738
-0.027732 -0.038894 -0.185738
-0.027729 -0.038813 -0.185752
-0.027726 -0.038733 -0.185761
-0.027723 -0.038653 -0.185767
-0.027721 -0.038573 -0.185769
-0.027718 -0.038493 -0.185765
-0.027716 -0.038413 -0.185753
-0.027715 -0.038334 -0.185739
-0.027712 -0.038252 -0.185739
-0.027709 -0.038172 -0.185751
-0.027706 -0.038091 -0.185768
-0.027703 -0.038011 -0.185768
-0.027702 -0.037932 -0.185748
-0.027700 -0.037852 -0.185738
-0.027698 -0.037772 -0.185734
-0.027695 -0.037692 -0.185732
-0.027693 -0.037612 -0.185734
-0.027690 -0.037532 -0.185741
-0.027687 -0.037450 -0.185743
-0.027685 -0.037370 -0.185751
-0.027682 -0.037290 -0.185763
-0.027679 -0.037209 -0.185769
-0.027677 -0.037130 -0.185759
-0.027675 -0.037050 -0.185743
-0.027673 -0.036970 -0.185737
-0.027671 -0.036890 -0.185736
-0.027668 -0.036808 -0.185736
-0.027665 -0.036728 -0.185742
-0.027663 -0.036648 -0.185746
-0.027660 -0.036568 -0.185748
-0.027657 -0.036488 -0.185754
-0.027654 -0.036406 -0.185762
-0.027653 -0.036328 -0.185752
-0.027652 -0.036249 -0.185719
-0.027650 -0.036169 -0.185697
-0.027648 -0.036089 -0.185697
-0.027645 -0.036009 -0.185707
-0.027642 -0.035927 -0.185709
-0.027640 -0.035847 -0.185717
-0.027637 -0.035767 -0.185727
-0.027634 -0.035686 -0.185733
-0.027631 -0.035604 -0.185738
-0.027628 -0.035524 -0.185746
-0.027626 -0.035444 -0.185740
-0.027624 -0.035365 -0.185734
-0.027621 -0.035284 -0.185738
-0.027619 -0.035204 -0.185738
-0.027616 -0.035124 -0.185738
-0.027614 -0.035042 -0.185742
-0.027611 -0.034962 -0.185751
-0.027608 -0.034882 -0.185749
-0.027606 -0.034802 -0.185743
-0.027604 -0.034723 -0.185731
-0.027603 -0.034643 -0.185717
-0.027600 -0.034563 -0.185711
-0.027598 -0.034483 -0.185707
-0.027596 -0.034403 -0.185710
-0.027593 -0.034321 -0.185712
-0.027591 -0.034241 -0.185712
-0.027588 -0.034161 -0.185710
-0.027585 -0.034081 -0.185716
-0.027582 -0.033999 -0.185730
-0.027580 -0.033919 -0.185730
-0.027577 -0.033839 -0.185728
-0.027575 -0.033759 -0.185723
-0.027573 -0.033679 -0.185715
-0.027571 -0.033599 -0.185715
-0.027568 -0.033519 -0.185713
-0.027566 -0.033437 -0.185711
-0.027563 -0.033357 -0.185717
-0.027560 -0.033277 -0.185729
-0.027558 -0.033195 -0.185727
-0.027556 -0.033117 -0.185714
-0.027555 -0.033038 -0.185676
-0.027554 -0.032961 -0.185656
-0.027551 -0.032879 -0.185662
-0.027548 -0.032798 -0.185670
-0.027546 -0.032718 -0.185674
-0.027543 -0.032636 -0.185678
-0.027540 -0.032556 -0.185678
-0.027539 -0.032477 -0.185667
-0.027537 -0.032397 -0.185647
-0.027534 -0.032317 -0.185651
-0.027531 -0.032235 -0.185661
-0.027529 -0.032155 -0.185661
-0.027527 -0.032077 -0.185655
-0.027525 -0.031995 -0.185649
-0.027522 -0.031915 -0.185646
-0.027520 -0.031835 -0.185650
-0.027517 -0.031755 -0.185656
-0.027514 -0.031673 -0.185660
-0.027512 -0.031593 -0.185652
-0.027510 -0.031515 -0.185640
-0.027509 -0.031436 -0.185626
-0.027507 -0.031356 -0.185615
-0.027504 -0.031276 -0.185615
-0.027502 -0.031194 -0.185617
-0.027499 -0.031114 -0.185623
-0.027496 -0.031032 -0.185631
-0.027494 -0.030952 -0.185631
-0.027491 -0.030872 -0.185627
-0.027489 -0.030792 -0.185621
-0.027487 -0.030712 -0.185614
-0.027485 -0.030632 -0.185612
-0.027482 -0.030552 -0.185614
-0.027480 -0.030470 -0.185616
-0.027477 -0.030390 -0.185624
-0.027474 -0.030308 -0.185634
-0.027471 -0.030226 -0.185642
-0.027468 -0.030145 -0.185652
-0.027465 -0.030065 -0.185656
-0.027463 -0.029983 -0.185658
-0.027460 -0.029903 -0.185655
-0.027458 -0.029823 -0.185649
-0.027455 -0.029743 -0.185653
-0.027453 -0.029664 -0.185647
-0.027451 -0.029584 -0.185633
-0.027449 -0.029504 -0.185627
-0.027447 -0.029422 -0.185627
-0.027444 -0.029342 -0.185640
-0.027441 -0.029260 -0.185648
-0.027438 -0.029180 -0.185650
-0.027435 -0.029097 -0.185664
-0.027433 -0.029017 -0.185656
-0.027431 -0.028938 -0.185642
-0.027429 -0.028860 -0.185630
-0.027427 -0.028778 -0.185630
-0.027424 -0.028698 -0.185638
-0.027421 -0.028616 -0.185643
-0.027419 -0.028536 -0.185647
-0.027416 -0.028456 -0.185645
-0.027414 -0.028374 -0.185641
-0.027412 -0.028296 -0.185625
-0.027411 -0.028217 -0.185605
-0.027409 -0.028137 -0.185597
-0.027406 -0.028057 -0.185598
-0.027404 -0.027977 -0.185596
-0.027402 -0.027897 -0.185590
-0.027399 -0.027815 -0.185590
-0.027397 -0.027735 -0.185592
-0.027394 -0.027655 -0.185594
-0.027391 -0.027573 -0.185600
-0.027389 -0.027493 -0.185590
-0.027387 -0.027413 -0.185581
-0.027385 -0.027333 -0.185583
-0.027382 -0.027253 -0.185587
-0.027380 -0.027171 -0.185587
-0.027377 -0.027091 -0.185585
-0.027375 -0.027009 -0.185587
-0.027373 -0.026929 -0.185583
-0.027370 -0.026849 -0.185585
-0.027367 -0.026767 -0.185597
-0.027364 -0.026687 -0.185604
-0.027362 -0.026605 -0.185600
-0.027360 -0.026525 -0.185590
-0.027358 -0.026448 -0.185578
-0.027355 -0.026366 -0.185578
-0.027353 -0.026286 -0.185582
-0.027351 -0.026206 -0.185574
-0.027348 -0.026126 -0.185571
-0.027345 -0.026044 -0.185583
-0.027342 -0.025959 -0.185603
-0.027339 -0.025879 -0.185603
-0.027338 -0.025800 -0.185585
-0.027336 -0.025722 -0.185565
-0.027334 -0.025642 -0.185559
-0.027332 -0.025562 -0.185557
-0.027330 -0.025482 -0.185554
-0.027327 -0.025400 -0.185554
-0.027324 -0.025320 -0.185556
-0.027322 -0.025238 -0.185564
-0.027319 -0.025158 -0.185566
-0.027317 -0.025079 -0.185552
-0.027316 -0.025001 -0.185534
-0.027314 -0.024921 -0.185518
-0.027312 -0.024842 -0.185509
-0.027310 -0.024762 -0.185501
-0.027308 -0.024682 -0.185499
-0.027306 -0.024602 -0.185491
-0.027304 -0.024522 -0.185483
-0.027301 -0.024442 -0.185481
-0.027299 -0.024360 -0.185481
-0.027297 -0.024282 -0.185472
-0.027295 -0.024203 -0.185456
-0.027293 -0.024123 -0.185440
-0.027291 -0.024043 -0.185432
-0.027289 -0.023964 -0.185426
-0.027287 -0.023884 -0.185422
-0.027285 -0.023804 -0.185414
-0.027283 -0.023724 -0.185411
-0.027280 -0.023644 -0.185405
-0.027279 -0.023567 -0.185383
-0.027278 -0.023489 -0.185351
-0.027277 -0.023412 -0.185331
-0.027275 -0.023334 -0.185310
-0.027274 -0.023255 -0.185294
-0.027272 -0.023175 -0.185290
-0.027269 -0.023095 -0.185290
-0.027267 -0.023015 -0.185286
-0.027265 -0.022935 -0.185276
-0.027263 -0.022855 -0.185268
-0.027261 -0.022775 -0.185255
-0.027260 -0.022700 -0.185229
-0.027258 -0.022620 -0.185211
-0.027256 -0.022541 -0.185201
-0.027254 -0.022461 -0.185193
-0.027253 -0.022383 -0.185172
-0.027252 -0.022308 -0.185134
-0.027252 -0.022233 -0.185098
-0.027250 -0.022155 -0.185080
-0.027248 -0.022076 -0.185072
-0.027246 -0.021996 -0.185061
-0.027245 -0.021918 -0.185041
-0.027244 -0.021841 -0.185021
-0.027242 -0.021761 -0.185009
-0.027240 -0.021681 -0.185001
-0.027238 -0.021604 -0.184984
-0.027237 -0.021528 -0.184960
-0.027235 -0.021446 -0.184952
-0.027232 -0.021366 -0.184956
-0.027230 -0.021284 -0.184958
-0.027227 -0.021204 -0.184964
-0.027224 -0.021122 -0.184972
-0.027221 -0.021040 -0.184972
-0.027218 -0.020960 -0.184983
-0.027215 -0.020875 -0.185003
-0.027211 -0.020791 -0.185029
-0.027206 -0.020704 -0.185072
-0.027202 -0.020619 -0.185096
-0.027199 -0.020535 -0.185116
-0.028686 -0.055445 -0.185807
-0.028684 -0.055366 -0.185799
-0.028684 -0.055281 -0.185748
-0.028684 -0.055198 -0.185694
-0.028683 -0.055115 -0.185654
-0.028683 -0.055032 -0.185620
-0.028682 -0.054950 -0.185588
-0.028680 -0.054869 -0.185572
-0.028680 -0.054786 -0.185524
-0.028679 -0.054703 -0.185486
-0.028677 -0.054621 -0.185468
-0.028675 -0.054541 -0.185455
-0.028674 -0.054462 -0.185443
-0.028671 -0.054380 -0.185435
-0.028669 -0.054300 -0.185431
-0.028667 -0.054220 -0.185433
-0.028664 -0.054140 -0.185431
-0.028662 -0.054060 -0.185429
-0.028659 -0.053980 -0.185439
-0.028656 -0.053902 -0.185448
-0.028654 -0.053822 -0.185452
-0.028651 -0.053741 -0.185460
-0.028648 -0.053663 -0.185472
-0.028644 -0.053583 -0.185488
-0.028641 -0.053504 -0.185512
-0.028637 -0.053426 -0.185534
-0.028635 -0.053346 -0.185543
-0.028632 -0.053267 -0.185555
-0.028629 -0.053187 -0.185567
-0.028626 -0.053109 -0.185577
-0.028623 -0.053029 -0.185577
-0.028621 -0.052947 -0.185565
-0.028619 -0.052869 -0.185569
-0.028617 -0.052787 -0.185562
-0.028614 -0.052707 -0.185562
-0.028612 -0.052627 -0.185562
-0.028609 -0.052549 -0.185568
-0.028606 -0.052469 -0.185576
-0.028603 -0.052389 -0.185578
-0.028600 -0.052311 -0.185604
-0.028596 -0.052232 -0.185633
-0.028593 -0.052152 -0.185635
-0.028591 -0.052072 -0.185635
-0.028588 -0.051992 -0.185637
-0.028585 -0.051914 -0.185655
-0.028581 -0.051835 -0.185683
-0.028578 -0.051754 -0.185703
-0.028575 -0.051676 -0.185717
-0.028572 -0.051596 -0.185726
-0.028570 -0.051516 -0.185726
-0.028567 -0.051436 -0.185722
-0.028566 -0.051355 -0.185704
-0.028564 -0.051275 -0.185690
-0.028562 -0.051193 -0.185678
-0.028559 -0.051113 -0.185680
-0.028557 -0.051033 -0.185686
-0.028554 -0.050955 -0.185691
-0.028551 -0.050875 -0.185697
-0.028548 -0.050795 -0.185705
-0.028546 -0.050715 -0.185707
-0.028543 -0.050634 -0.185715
-0.028540 -0.050554 -0.185719
-0.028538 -0.050474 -0.185725
-0.028535 -0.050396 -0.185738
-0.028532 -0.050316 -0.185746
-0.028529 -0.050236 -0.185746
-0.028526 -0.050155 -0.185766
-0.028523 -0.050077 -0.185786
-0.028520 -0.049997 -0.185790
-0.028517 -0.049917 -0.185790
-0.028515 -0.049837 -0.185786
-0.028513 -0.049757 -0.185781
-0.028511 -0.049677 -0.185777
-0.028509 -0.049596 -0.185767
-0.028507 -0.049516 -0.185749
-0.028505 -0.049436 -0.185751
-0.028501 -0.049356 -0.185765
-0.028499 -0.049276 -0.185769
-0.028496 -0.049196 -0.185772
-0.028494 -0.049116 -0.185764
-0.028492 -0.049036 -0.185768
-0.028488 -0.048957 -0.185784
-0.028486 -0.048877 -0.185790
-0.028483 -0.048795 -0.185784
-0.028481 -0.048716 -0.185774
-0.028479 -0.048636 -0.185768
-0.028477 -0.048556 -0.185771
-0.028474 -0.048477 -0.185785
-0.028471 -0.048397 -0.185797
-0.028467 -0.048317 -0.185811
-0.028465 -0.048237 -0.185809
-0.028463 -0.048157 -0.185805
-0.028460 -0.048077 -0.185815
-0.028457 -0.047997 -0.185825
-0.028455 -0.047917 -0.185818
-0.028453 -0.047835 -0.185806
-0.028450 -0.047757 -0.185808
