# .PCD v0.7 - Point Cloud Data file format
VERSION 0.7
FIELDS x y z
SIZE 4 4 4
TYPE F F F
COUNT 1 1 1
WIDTH 1459
HEIGHT 1
VIEWPOINT 0 0 0 1 0 0 0
POINTS 1459
DATA ascii
-0.11066 -0.019762 -0.26515701
-0.110657 -0.019685 -0.265149
-0.110654 -0.019609001 -0.26515099
-0.110651 -0.019531 -0.265149
-0.110648 -0.019455001 -0.26514399
-0.110645 -0.019377001 -0.26514599
-0.110641 -0.019300999 -0.265156
-0.110638 -0.019224999 -0.26516601
-0.110635 -0.019146999 -0.26516199
-0.110632 -0.019068999 -0.26515499
-0.11063 -0.018990999 -0.26513901
-0.110627 -0.018916 -0.26512501
-0.110625 -0.01884 -0.26511899
-0.110622 -0.018762 -0.265113
-0.110619 -0.018684 -0.26510501
-0.110616 -0.018608 -0.265104
-0.110613 -0.01853 -0.2651
-0.110611 -0.018455001 -0.26508999
-0.110608 -0.018377 -0.265082
-0.110605 -0.018301001 -0.26507801
-0.110602 -0.018223001 -0.26508501
-0.110598 -0.018145001 -0.26508701
-0.110595 -0.018069001 -0.26508901
-0.110592 -0.017991001 -0.26508901
-0.110589 -0.017914999 -0.265091
-0.110586 -0.017836999 -0.26508299
-0.110583 -0.017761 -0.26508
-0.11058 -0.017682999 -0.265086
-0.110577 -0.017607 -0.26509401
-0.110573 -0.017529 -0.26509801
-0.11057 -0.017450999 -0.26509401
-0.110568 -0.017375 -0.26508099
-0.110565 -0.017299 -0.26508299
-0.110561 -0.017221 -0.26510501
-0.110557 -0.017143 -0.26512301
-0.110553 -0.017066 -0.26513299
-0.11055 -0.016988 -0.26513699
-0.110547 -0.016912 -0.265136
-0.110544 -0.016835 -0.26512399
-0.110541 -0.016759001 -0.26512399
-0.110537 -0.01668 -0.26514199
-0.110533 -0.016602 -0.265158
-0.11053 -0.016526001 -0.265158
-0.110527 -0.016448 -0.26515901
-0.110524 -0.016372001 -0.265167
-0.11052 -0.016294001 -0.26516899
-0.110518 -0.016217999 -0.265165
-0.110515 -0.016140001 -0.26515701
-0.110512 -0.016062001 -0.265154
-0.110509 -0.015985999 -0.265154
-0.110506 -0.015908999 -0.26515201
-0.110503 -0.015833 -0.26514199
-0.110501 -0.015755 -0.26512799
-0.110498 -0.015679 -0.265127
-0.110495 -0.015601 -0.265129
-0.110492 -0.015523 -0.265127
-0.110489 -0.015448 -0.26511699
-0.110486 -0.015372 -0.265109
-0.110483 -0.015294 -0.26510701
-0.11048 -0.015216 -0.26510799
-0.110477 -0.01514 -0.265104
-0.110475 -0.015062 -0.26509199
-0.110472 -0.014987 -0.265084
-0.110469 -0.014909 -0.265084
-0.110466 -0.014832 -0.265093
-0.110462 -0.014754 -0.265095
-0.11046 -0.014677 -0.26508099
-0.110458 -0.014601 -0.26506501
-0.110454 -0.014523 -0.26506501
-0.110452 -0.014447 -0.26506001
-0.110449 -0.01437 -0.265046
-0.110446 -0.014294 -0.265048
-0.110442 -0.014215 -0.26505801
-0.110439 -0.014137 -0.26506001
-0.110437 -0.014062 -0.26504999
-0.110434 -0.013984 -0.26504299
-0.110431 -0.013908 -0.26504299
-0.110428 -0.01383 -0.26504099
-0.110425 -0.013754 -0.265037
-0.110422 -0.013676 -0.26503301
-0.11042 -0.013601 -0.26502401
-0.110416 -0.013523 -0.265026
-0.110413 -0.013446 -0.26503
-0.11041 -0.013369 -0.265028
-0.110407 -0.013291 -0.26502201
-0.110404 -0.013215 -0.26501599
-0.110401 -0.013137 -0.265017
-0.110398 -0.013061 -0.265021
-0.110395 -0.012983 -0.26502901
-0.110391 -0.012905 -0.26503301
-0.110388 -0.012827 -0.265035
-0.110385 -0.012751 -0.265035
-0.110382 -0.012675 -0.26503199
-0.11038 -0.012597 -0.26501599
-0.110377 -0.012521 -0.265008
-0.110373 -0.012443 -0.26501799
-0.11037 -0.012365 -0.26503199
-0.110366 -0.012287 -0.265039
-0.110363 -0.012209 -0.26504901
-0.110359 -0.012133 -0.265057
-0.110356 -0.012055 -0.26505101
-0.110354 -0.011979 -0.26504499
-0.110351 -0.011901 -0.26504099
-0.110348 -0.011823 -0.26504001
-0.110344 -0.011747 -0.26505199
-0.11034 -0.011669 -0.265062
-0.110338 -0.011591 -0.26505199
-0.110335 -0.011515 -0.26504201
-0.110332 -0.011437 -0.265048
-0.110329 -0.011361 -0.26504499
-0.110327 -0.011284 -0.26502699
-0.110323 -0.011208 -0.26502901
-0.11032 -0.011129 -0.265039
-0.110317 -0.011052 -0.26503301
-0.110315 -0.010976 -0.26501799
-0.110312 -0.010898 -0.26501
-0.110309 -0.010822 -0.26500401
-0.110307 -0.010747 -0.26498201
-0.110305 -0.010669 -0.264974
-0.1103 -0.010591 -0.264999
-0.110297 -0.010512 -0.26500899
-0.110294 -0.010437 -0.265003
-0.110291 -0.010359 -0.26500499
-0.110287 -0.010281 -0.26500699
-0.110285 -0.010205 -0.265001
-0.110282 -0.010127 -0.26498401
-0.11028 -0.010052 -0.26496601
-0.110277 -0.0099759996 -0.26495999
-0.110274 -0.0098980004 -0.26495999
-0.110271 -0.0098200003 -0.26495999
-0.110268 -0.0097439997 -0.264963
-0.110265 -0.0096659996 -0.26495299
-0.110263 -0.0095910002 -0.26493499
-0.110261 -0.009513 -0.264927
-0.110257 -0.0094370004 -0.26493499
-0.110254 -0.0093590003 -0.264943
-0.110251 -0.0092810001 -0.26494199
-0.110248 -0.0092049995 -0.264934
-0.110245 -0.0091270003 -0.26493201
-0.110242 -0.0090509998 -0.26492399
-0.110239 -0.0089729996 -0.264916
-0.110237 -0.008897 -0.26491299
-0.110234 -0.0088200001 -0.26489899
-0.110232 -0.0087440005 -0.26488101
-0.110229 -0.0086679999 -0.26488101
-0.110225 -0.0085880002 -0.264891
-0.110222 -0.0085119996 -0.26488799
-0.11022 -0.008436 -0.26487601
-0.110216 -0.0083560003 -0.26489201
-0.110211 -0.0082769999 -0.26492801
-0.110207 -0.0081989998 -0.26494199
-0.110204 -0.0081209997 -0.26494399
-0.110201 -0.0080429995 -0.26494601
-0.110197 -0.0079650003 -0.26495501
-0.110194 -0.0078870002 -0.26496699
-0.11019 -0.0078090001 -0.26497301
-0.110187 -0.007731 -0.26497701
-0.110183 -0.0076549998 -0.264983
-0.11018 -0.0075759999 -0.26498899
-0.110176 -0.0074979998 -0.26499999
-0.110173 -0.0074200002 -0.26500201
-0.11017 -0.007342 -0.26500601
-0.110166 -0.0072639999 -0.26501599
-0.110163 -0.0071859998 -0.265026
-0.110159 -0.0071080001 -0.265028
-0.110156 -0.00703 -0.26502401
-0.110154 -0.0069539999 -0.265017
-0.110151 -0.0068760002 -0.26501501
-0.110148 -0.0067980001 -0.265017
-0.110145 -0.0067230002 -0.26500499
-0.110143 -0.0066470001 -0.264979
-0.11014 -0.006569 -0.26497799
-0.110137 -0.0064909998 -0.26498801
-0.110134 -0.0064150002 -0.26498401
-0.110131 -0.0063370001 -0.26497599
-0.110129 -0.0062620002 -0.26496401
-0.110127 -0.0061860001 -0.264945
-0.110125 -0.0061110002 -0.26492101
-0.110122 -0.0060330001 -0.26491901
-0.110119 -0.005957 -0.26491299
-0.110116 -0.0058789998 -0.26490501
-0.110113 -0.0058010002 -0.26490799
-0.110109 -0.005723 -0.264918
-0.110107 -0.0056469999 -0.26491001
-0.110104 -0.0055689998 -0.264902
-0.110101 -0.0054919999 -0.264898
-0.110098 -0.0054159998 -0.264898
-0.110095 -0.0053380001 -0.26489699
-0.110093 -0.005262 -0.26487699
-0.110091 -0.0051870001 -0.264855
-0.110088 -0.005111 -0.264851
-0.110086 -0.0050349999 -0.26483601
-0.110083 -0.0049589998 -0.26482201
-0.11008 -0.0048810001 -0.26482201
-0.110076 -0.004801 -0.26483801
-0.110073 -0.0047229999 -0.264846
-0.110069 -0.0046450002 -0.26484799
-0.110066 -0.0045690001 -0.26484901
-0.110063 -0.004491 -0.264853
-0.11006 -0.0044129998 -0.26484501
-0.110058 -0.0043370002 -0.264837
-0.110054 -0.0042570001 -0.26484701
-0.11005 -0.0041789999 -0.26486501
-0.110047 -0.0041009998 -0.264869
-0.110044 -0.0040230001 -0.26486799
-0.110041 -0.003945 -0.26486599
-0.110037 -0.0038670001 -0.26486999
-0.110034 -0.003791 -0.26487201
-0.110031 -0.0037130001 -0.26487601
-0.110027 -0.003635 -0.26488
-0.110024 -0.0035570001 -0.26487899
-0.110022 -0.0034789999 -0.264871
-0.110018 -0.0034010001 -0.26488101
-0.110014 -0.0033229999 -0.26489499
-0.11001 -0.003242 -0.264911
-0.110007 -0.0031640001 -0.26491499
-0.110004 -0.003086 -0.26491499
-0.110001 -0.0030080001 -0.264918
-0.109997 -0.00293 -0.26492199
-0.109994 -0.0028520001 -0.26492801
-0.10999 -0.0027739999 -0.264934
-0.109987 -0.002696 -0.26493999
-0.109984 -0.0026179999 -0.26494399
-0.109981 -0.00254 -0.264945
-0.109977 -0.0024619999 -0.264945
-0.109974 -0.002384 -0.264945
-0.109971 -0.0023060001 -0.264947
-0.109968 -0.00223 -0.264947
-0.109965 -0.0021520001 -0.264943
-0.109962 -0.002074 -0.26494601
-0.109959 -0.0019960001 -0.26494601
-0.109956 -0.0019180001 -0.26494601
-0.109952 -0.00184 -0.26494801
-0.109949 -0.001762 -0.264952
-0.109946 -0.001684 -0.264956
-0.109943 -0.001606 -0.264954
-0.10994 -0.00153 -0.26495099
-0.109937 -0.001453 -0.264947
-0.109934 -0.001375 -0.264943
-0.109931 -0.001297 -0.264943
-0.109928 -0.001219 -0.264943
-0.109925 -0.001143 -0.26493999
-0.109922 -0.0010629999 -0.26493999
-0.109919 -0.00098699995 -0.264938
-0.109916 -0.00090899999 -0.26493201
-0.109913 -0.00083099998 -0.26492599
-0.10991 -0.00075499999 -0.26492199
-0.109908 -0.00067799998 -0.26491299
-0.109905 -0.00060199999 -0.26490501
-0.109902 -0.00052399997 -0.26489899
-0.109899 -0.00044800001 -0.264889
-0.109897 -0.00037299999 -0.26487699
-0.109894 -0.00029500001 -0.264878
-0.109891 -0.00021699999 -0.264878
-0.109888 -0.000139 -0.26487201
-0.109885 -6.0999999e-05 -0.26486799
-0.109882 1.5e-05 -0.264864
-0.109879 9.3000002e-05 -0.26485601
-0.109877 0.00016900001 -0.264853
-0.109873 0.00024699999 -0.264855
-0.109871 0.00032399999 -0.26484701
-0.109868 0.00039999999 -0.26484099
-0.109864 0.00047999999 -0.26484701
-0.109861 0.000558 -0.264853
-0.109858 0.00063600001 -0.26484999
-0.109855 0.00071400002 -0.26484999
-0.109851 0.00079199998 -0.26485601
-0.109848 0.00086999999 -0.264864
-0.109844 0.00095100002 -0.26486999
-0.109841 0.001029 -0.26487401
-0.109837 0.001107 -0.26488501
-0.109834 0.0011849999 -0.264891
-0.109831 0.001263 -0.26488501
-0.109828 0.001341 -0.26488301
-0.109825 0.001419 -0.264891
-0.109821 0.001499 -0.26490301
-0.109818 0.001577 -0.26490501
-0.109815 0.001655 -0.264902
-0.109812 0.001733 -0.264902
-0.109808 0.0018110001 -0.26490599
-0.109805 0.0018889999 -0.26490399
-0.109802 0.0019650001 -0.2649
-0.109799 0.002043 -0.264898
-0.109797 0.0021200001 -0.264889
-0.109794 0.002196 -0.26488101
-0.109791 0.0022740001 -0.26488301
-0.109787 0.002354 -0.264889
-0.109784 0.0024319999 -0.26488701
-0.109782 0.002508 -0.26488101
-0.109779 0.0025859999 -0.264878
-0.109775 0.002664 -0.264884
-0.109771 0.0027439999 -0.26489601
-0.109768 0.0028220001 -0.264898
-0.109765 0.0029 -0.26489201
-0.109762 0.0029760001 -0.26488799
-0.109759 0.003056 -0.26489401
-0.109755 0.0031340001 -0.26490301
-0.109752 0.003212 -0.26490101
-0.109749 0.0032899999 -0.26489899
-0.109746 0.003368 -0.26489699
-0.109743 0.0034459999 -0.26489699
-0.10974 0.0035240001 -0.26489699
-0.109737 0.003602 -0.26489601
-0.109734 0.0036800001 -0.26489601
-0.10973 0.003758 -0.26490599
-0.109726 0.0038399999 -0.26492199
-0.109723 0.003916 -0.26492199
-0.10972 0.0039940001 -0.264916
-0.109717 0.0040739998 -0.26492399
-0.109713 0.004152 -0.26493099
-0.10971 0.0042300001 -0.26493099
-0.109707 0.0043080002 -0.264929
-0.109704 0.0043859999 -0.26492101
-0.109702 0.004462 -0.26491699
-0.109699 0.0045400001 -0.26491499
-0.109695 0.0046179998 -0.26492
-0.109692 0.0046979999 -0.26492399
-0.109689 0.004774 -0.264916
-0.109686 0.0048509999 -0.26491001
-0.109683 0.004929 -0.264916
-0.10968 0.0050070002 -0.26491401
-0.109677 0.0050829998 -0.264907
-0.109674 0.005161 -0.26490101
-0.109672 0.0052370001 -0.264891
-0.109669 0.005314 -0.26488101
-0.109666 0.0053900001 -0.26487499
-0.109663 0.0054680002 -0.26487201
-0.109661 0.0055459999 -0.26486599
-0.109658 0.005622 -0.26485199
-0.109656 0.0056949998 -0.26483801
-0.109653 0.005773 -0.264828
-0.10965 0.0058510001 -0.26482701
-0.109647 0.0059290002 -0.26482901
-0.109644 0.0060069999 -0.26482701
-0.109641 0.006083 -0.264819
-0.109638 0.0061610001 -0.264815
-0.109636 0.006236 -0.26480901
-0.109633 0.0063140001 -0.26480201
-0.10963 0.0063900002 -0.264792
-0.109628 0.0064659999 -0.26478001
-0.109625 0.006544 -0.26477399
-0.109622 0.0066189999 -0.26477
-0.109619 0.006697 -0.26476699
-0.109617 0.0067730001 -0.26475301
-0.109614 0.0068490002 -0.264741
-0.109612 0.0069260001 -0.26473099
-0.109609 0.0070020002 -0.264725
-0.109606 0.0070799999 -0.26472399
-0.109603 0.007156 -0.264718
-0.109601 0.0072320001 -0.26470801
-0.109598 0.0073119998 -0.26470599
-0.109595 0.0073870001 -0.2647
-0.109592 0.0074629998 -0.264691
-0.109589 0.0075409999 -0.264689
-0.109586 0.007619 -0.26469499
-0.109582 0.0076990002 -0.26470101
-0.109579 0.0077769998 -0.26470301
-0.109576 0.007855 -0.26469901
-0.109573 0.0079330001 -0.264698
-0.110534 -0.027398 -0.26657099
-0.110539 -0.027311999 -0.26639101
-0.110545 -0.027225999 -0.26620299
-0.110546 -0.027141999 -0.26609901
-0.110548 -0.02706 -0.265995
-0.11055 -0.026978999 -0.26588801
-0.110551 -0.026897 -0.2658
-0.110551 -0.026815999 -0.265724
-0.110551 -0.026736001 -0.26565999
-0.110551 -0.026657 -0.2656
-0.11055 -0.026578 -0.26555201
-0.110549 -0.026497001 -0.26550701
-0.110548 -0.026419999 -0.26546299
-0.110547 -0.026339 -0.26541701
-0.110546 -0.02626 -0.26537499
-0.110544 -0.026183 -0.26533899
-0.110543 -0.026103999 -0.26530701
-0.110541 -0.026025999 -0.265284
-0.110539 -0.025947001 -0.26526201
-0.110537 -0.025869001 -0.26524001
-0.110534 -0.025792001 -0.26522401
-0.110532 -0.025714001 -0.26520801
-0.11053 -0.025637001 -0.26518399
-0.110528 -0.025559001 -0.265167
-0.110525 -0.025481001 -0.26516101
-0.110522 -0.025405001 -0.26516101
-0.110519 -0.025327001 -0.26515901
-0.110516 -0.025250001 -0.265147
-0.110514 -0.025172001 -0.26513401
-0.110511 -0.025095999 -0.26512599
-0.110508 -0.025017999 -0.26512399
-0.110505 -0.024941999 -0.26512599
-0.110502 -0.024863999 -0.26512599
-0.110499 -0.024785999 -0.265122
-0.110496 -0.024711 -0.26512101
-0.110493 -0.024633 -0.265113
-0.11049 -0.024555 -0.26510701
-0.110487 -0.024479 -0.26510701
-0.110484 -0.024401 -0.26510701
-0.110481 -0.024325 -0.26510799
-0.110478 -0.024249 -0.26511201
-0.110474 -0.024171 -0.26511601
-0.110471 -0.024093 -0.26511201
-0.110468 -0.024017001 -0.26511201
-0.110465 -0.023941001 -0.26512301
-0.110461 -0.023863001 -0.265129
-0.110458 -0.023786999 -0.265131
-0.110455 -0.023708999 -0.265131
-0.110452 -0.023631001 -0.265131
-0.110449 -0.023554999 -0.26513901
-0.110445 -0.023479 -0.26514199
-0.110443 -0.023401 -0.265138
-0.110439 -0.023325 -0.26514399
-0.110435 -0.023247 -0.265156
-0.110432 -0.02317 -0.26515999
-0.110429 -0.023092 -0.26515999
-0.110426 -0.023017 -0.26516101
-0.110423 -0.022938 -0.26516899
-0.110419 -0.022862 -0.26517299
-0.110416 -0.022784 -0.26517099
-0.110413 -0.022708001 -0.26517901
-0.110409 -0.02263 -0.26518801
-0.110406 -0.022554001 -0.26519001
-0.110403 -0.022476001 -0.26518801
-0.1104 -0.022399999 -0.26518801
-0.110397 -0.022324 -0.26518601
-0.110394 -0.022245999 -0.26518199
-0.110391 -0.022167999 -0.265185
-0.110388 -0.022092 -0.265187
-0.110385 -0.022015 -0.265183
-0.110382 -0.021939 -0.265185
-0.110378 -0.021861 -0.265187
-0.110376 -0.021785 -0.26518601
-0.110372 -0.021707 -0.26518601
-0.110369 -0.021631001 -0.26518399
-0.110367 -0.021553 -0.265176
-0.110364 -0.021475 -0.265176
-0.11036 -0.021399001 -0.26518399
-0.110357 -0.021321001 -0.265187
-0.110354 -0.021245001 -0.265187
-0.11035 -0.021168999 -0.26519299
-0.110347 -0.021090999 -0.26519299
-0.110345 -0.021012999 -0.265187
-0.110341 -0.020936999 -0.26519001
-0.110338 -0.020858999 -0.265194
-0.110335 -0.020783 -0.265192
-0.110332 -0.020705 -0.26518801
-0.110329 -0.020629 -0.26518399
-0.110326 -0.020551 -0.26518399
-0.110323 -0.020474 -0.26517701
-0.11032 -0.020398 -0.26517701
-0.110317 -0.02032 -0.26517501
-0.110315 -0.020244 -0.26515901
-0.110312 -0.020166 -0.265149
-0.110309 -0.020088 -0.26514801
-0.110307 -0.020012001 -0.26514399
-0.110303 -0.019934 -0.26514399
-0.1103 -0.019858001 -0.26515001
-0.110297 -0.019780001 -0.265156
-0.110294 -0.019703999 -0.265154
-0.110291 -0.019626999 -0.26515099
-0.110288 -0.019548999 -0.265147
-0.110285 -0.019472999 -0.26514101
-0.110282 -0.019394999 -0.265131
-0.110279 -0.019319 -0.265131
-0.110276 -0.019241 -0.26513401
-0.110274 -0.019165 -0.26512399
-0.110271 -0.019088 -0.26511401
-0.110268 -0.01901 -0.265104
-0.110266 -0.018934 -0.26508799
-0.110264 -0.018857 -0.265071
-0.110261 -0.018779 -0.26505899
-0.110259 -0.018703001 -0.26504901
-0.110256 -0.018625 -0.26504701
-0.110253 -0.018549001 -0.26504701
-0.11025 -0.018471999 -0.26504001
-0.110247 -0.018395999 -0.26503
-0.110244 -0.018317999 -0.265026
-0.110241 -0.018242 -0.265026
-0.110238 -0.018164 -0.26502001
-0.110236 -0.018088 -0.26501301
-0.110233 -0.01801 -0.26501501
-0.110229 -0.017934 -0.265017
-0.110226 -0.017856 -0.265019
-0.110223 -0.01778 -0.265021
-0.11022 -0.017702 -0.26502299
-0.110217 -0.017624 -0.26502201
-0.110214 -0.017548 -0.26501799
-0.110211 -0.017471001 -0.265012
-0.110208 -0.017395001 -0.26501799
-0.110204 -0.017317999 -0.265028
-0.110201 -0.017240999 -0.26502401
-0.110198 -0.017162999 -0.26502299
-0.110195 -0.017086999 -0.26502499
-0.110192 -0.017008999 -0.26502699
-0.110189 -0.016933 -0.26502901
-0.110186 -0.016855 -0.26502499
-0.110183 -0.016779 -0.26502001
-0.11018 -0.016701 -0.26501
-0.110178 -0.016625 -0.26500401
-0.110175 -0.016547 -0.26499999
-0.110172 -0.016469 -0.26499799
-0.110169 -0.016394001 -0.26499599
-0.110166 -0.016316 -0.26499501
-0.110163 -0.016240001 -0.26499301
-0.11016 -0.016163999 -0.26499301
-0.110156 -0.016085999 -0.26499501
-0.110153 -0.016008001 -0.265001
-0.11015 -0.015931999 -0.26500401
-0.110146 -0.015853999 -0.26501
-0.110143 -0.015776999 -0.26501799
-0.11014 -0.015698999 -0.26502001
-0.110137 -0.015624 -0.26501
-0.110135 -0.015546 -0.26499999
-0.110132 -0.015468 -0.26499701
-0.110129 -0.015392 -0.26499099
-0.110126 -0.015314 -0.264983
-0.110124 -0.015239 -0.26497301
-0.110121 -0.015161 -0.26496699
-0.110118 -0.015085 -0.26496199
-0.110115 -0.015009 -0.264952
-0.110113 -0.014931 -0.26494199
-0.11011 -0.014856 -0.264936
-0.110107 -0.014778 -0.264934
-0.110104 -0.0147 -0.26493099
-0.110101 -0.014624 -0.26493499
-0.110097 -0.014546 -0.26493901
-0.110095 -0.01447 -0.26493499
-0.110092 -0.014392 -0.26493299
-0.110088 -0.014316 -0.264934
-0.110085 -0.014238 -0.264934
-0.110082 -0.01416 -0.264934
-0.110079 -0.014084 -0.26493201
-0.110076 -0.014006 -0.26493201
-0.110073 -0.01393 -0.264936
-0.11007 -0.013852 -0.26494101
-0.110067 -0.013776 -0.26493701
-0.110064 -0.013698 -0.26493499
-0.110061 -0.01362 -0.26493499
-0.110057 -0.013544 -0.26493499
-0.110055 -0.013468 -0.26493099
-0.110052 -0.013391 -0.26493001
-0.110049 -0.013313 -0.26492801
-0.110045 -0.013237 -0.26493201
-0.110042 -0.013159 -0.26492801
-0.11004 -0.013083 -0.26492
-0.110036 -0.013005 -0.26492301
-0.110033 -0.012929 -0.26493299
-0.11003 -0.012851 -0.26493299
-0.110027 -0.012773 -0.264927
-0.110024 -0.012697 -0.26491699
-0.110021 -0.012619 -0.26491699
-0.110018 -0.012543 -0.26492199
-0.110015 -0.012465 -0.26492399
-0.110012 -0.012389 -0.264918
-0.110009 -0.012311 -0.264918
-0.110006 -0.012234 -0.26491201
-0.110003 -0.012158 -0.264909
-0.11 -0.01208 -0.264907
-0.109997 -0.012004 -0.26490501
-0.109994 -0.011926 -0.26490501
-0.109991 -0.01185 -0.26489899
-0.109989 -0.011772 -0.26488599
-0.109986 -0.011697 -0.26487401
-0.109984 -0.011621 -0.264864
-0.109981 -0.011543 -0.26486
-0.109978 -0.011465 -0.26486
-0.109975 -0.011389 -0.26484999
-0.109972 -0.011311 -0.26484901
-0.109969 -0.011235 -0.26485899
-0.109966 -0.011157 -0.26485899
-0.109963 -0.011081 -0.264851
-0.10996 -0.011003 -0.264855
-0.109956 -0.010925 -0.26485801
-0.109953 -0.01085 -0.26485401
-0.10995 -0.010772 -0.26485601
-0.109947 -0.010694 -0.26485801
-0.109944 -0.010618 -0.26485801
-0.109941 -0.01054 -0.26485601
-0.109938 -0.010464 -0.26486301
-0.109934 -0.010386 -0.26486501
-0.109931 -0.010308 -0.26486099
-0.109928 -0.010232 -0.26486501
-0.109925 -0.010154 -0.264869
-0.109922 -0.010076 -0.264871
-0.109918 -0.0099999998 -0.26487401
-0.109915 -0.0099219996 -0.264878
-0.109912 -0.0098440005 -0.26488
-0.109909 -0.0097660003 -0.26488
-0.109906 -0.0096899997 -0.26487201
-0.109903 -0.0096140001 -0.26486701
-0.1099 -0.009536 -0.264869
-0.109897 -0.0094579998 -0.264871
-0.109894 -0.0093799997 -0.26486701
-0.109891 -0.0093040001 -0.26486301
-0.109888 -0.0092280004 -0.26486301
-0.109885 -0.0091500003 -0.264864
-0.109882 -0.0090720002 -0.26486599
-0.109879 -0.008994 -0.26486599
-0.109876 -0.0089180004 -0.26486
-0.109873 -0.0088400003 -0.26486
-0.109869 -0.0087620001 -0.26486501
-0.109866 -0.0086859995 -0.26486301
-0.109863 -0.0086080004 -0.264869
-0.10986 -0.0085300002 -0.26487499
-0.109857 -0.0084539996 -0.264869
-0.109854 -0.0083769998 -0.26486099
-0.109851 -0.0083010001 -0.264864
-0.109848 -0.008223 -0.26486599
-0.109845 -0.0081449999 -0.26486599
-0.109842 -0.0080690002 -0.264864
-0.109839 -0.0079910001 -0.26485601
-0.109836 -0.0079150004 -0.264851
-0.109833 -0.0078370003 -0.26484099
-0.109831 -0.007762 -0.26483101
-0.109828 -0.0076839998 -0.26482499
-0.109825 -0.0076080002 -0.264819
-0.109822 -0.0075300001 -0.264815
-0.10982 -0.0074539999 -0.26480401
-0.109817 -0.0073759998 -0.26480201
-0.109813 -0.0072980002 -0.26481399
-0.10981 -0.00722 -0.26481599
-0.109807 -0.0071439999 -0.26481399
-0.109804 -0.0070659998 -0.26481101
-0.109801 -0.0069880001 -0.26481301
-0.109797 -0.006912 -0.26482099
-0.109794 -0.0068339999 -0.264819
-0.109791 -0.0067560002 -0.264817
-0.109788 -0.0066780001 -0.26482299
-0.109784 -0.0066 -0.26482999
-0.109782 -0.0065239999 -0.264824
-0.109779 -0.006447 -0.26481801
-0.109776 -0.0063709999 -0.26481399
-0.109773 -0.0062930002 -0.26481199
-0.10977 -0.0062150001 -0.264806
-0.109767 -0.0061389999 -0.26480699
-0.109764 -0.0060609998 -0.26481101
-0.10976 -0.0059830002 -0.264815
-0.109757 -0.005905 -0.26482099
-0.109754 -0.0058269999 -0.264819
-0.109752 -0.0057509998 -0.26480499
-0.10975 -0.0056779999 -0.264772
-0.109748 -0.0056030001 -0.26474801
-0.109745 -0.0055249999 -0.264752
-0.10974 -0.005444 -0.26478201
-0.109737 -0.0053659999 -0.26479399
-0.109734 -0.0052880002 -0.26478899
-0.109731 -0.0052120001 -0.264781
-0.109728 -0.005134 -0.26477301
-0.109726 -0.0050579999 -0.26476699
-0.109723 -0.0049800002 -0.26476699
-0.109719 -0.0049020001 -0.26476899
-0.109717 -0.0048270002 -0.26475799
-0.109714 -0.0047510001 -0.26474801
-0.109711 -0.004673 -0.26474801
-0.109708 -0.0045969998 -0.26475
-0.109705 -0.0045190002 -0.26475
-0.109702 -0.0044410001 -0.264743
-0.109699 -0.0043629999 -0.264741
-0.109696 -0.0042869998 -0.264745
-0.109692 -0.0042070001 -0.26475701
-0.109688 -0.004129 -0.26476899
-0.109685 -0.0040509999 -0.264777
-0.109682 -0.0039730002 -0.26478001
-0.109678 -0.0038950001 -0.26478201
-0.109675 -0.003817 -0.264788
-0.109672 -0.0037390001 -0.26479
-0.109668 -0.0036609999 -0.264792
-0.109665 -0.003583 -0.26479599
-0.109662 -0.0035049999 -0.26479799
-0.109659 -0.003429 -0.26479301
-0.109656 -0.0033509999 -0.26478499
-0.109653 -0.003273 -0.26479301
-0.10965 -0.0031950001 -0.26479501
-0.109647 -0.003119 -0.26479301
-0.109644 -0.0030410001 -0.26478601
-0.109641 -0.002965 -0.26477799
-0.109638 -0.0028850001 -0.264788
-0.109634 -0.002807 -0.264792
-0.109631 -0.0027290001 -0.26479399
-0.109628 -0.0026529999 -0.26479799
-0.109624 -0.002573 -0.264806
-0.109621 -0.0024969999 -0.26480499
-0.109618 -0.002419 -0.264799
-0.109615 -0.0023409999 -0.264799
-0.109612 -0.002263 -0.26480699
-0.109608 -0.0021850001 -0.264817
-0.109605 -0.002107 -0.26482099
-0.109602 -0.0020290001 -0.26481801
-0.109599 -0.001951 -0.26482001
-0.109595 -0.0018729999 -0.264826
-0.109592 -0.001795 -0.26482999
-0.109588 -0.001717 -0.26483601
-0.109585 -0.001639 -0.26483801
-0.109583 -0.001561 -0.26483101
-0.109579 -0.001483 -0.264833
-0.109576 -0.001405 -0.26483899
-0.109573 -0.001327 -0.26484299
-0.10957 -0.001249 -0.26484099
-0.109567 -0.001173 -0.26483101
-0.109564 -0.001095 -0.26482001
-0.109561 -0.001019 -0.26482001
-0.109558 -0.00094100001 -0.26482201
-0.109555 -0.000864 -0.26481801
-0.109552 -0.00078599999 -0.26481599
-0.109549 -0.00070999999 -0.264808
-0.109547 -0.00063199998 -0.26480299
-0.109544 -0.00055599998 -0.26479301
-0.109542 -0.000481 -0.264779
-0.109538 -0.00040300001 -0.264781
-0.109535 -0.00032200001 -0.26478699
-0.109532 -0.00024699999 -0.26478001
-0.10953 -0.00017100001 -0.264772
-0.109527 -9.3000002e-05 -0.26476601
-0.109524 -1.5e-05 -0.264768
-0.10952 6.2999999e-05 -0.264768
-0.109517 0.000141 -0.26477599
-0.109514 0.00021899999 -0.264781
-0.109511 0.00029699999 -0.26477101
-0.109508 0.000375 -0.26477101
-0.109504 0.000455 -0.26478499
-0.1095 0.00053299998 -0.26479301
-0.109497 0.00060899998 -0.26479101
-0.109494 0.00068900001 -0.26479501
-0.109491 0.00076700002 -0.26480401
-0.109487 0.00084499997 -0.264806
-0.109484 0.00092299999 -0.26480201
-0.109482 0.00099900004 -0.26479799
-0.109478 0.001079 -0.26480001
-0.109475 0.001157 -0.264808
-0.109471 0.001237 -0.26482099
-0.109468 0.001315 -0.26482099
-0.109465 0.001391 -0.26482299
-0.109461 0.001474 -0.26483899
-0.109457 0.0015519999 -0.26484901
-0.109454 0.00163 -0.26484299
-0.109451 0.001708 -0.26484501
-0.109447 0.001786 -0.26485401
-0.109444 0.001866 -0.264864
-0.109441 0.001942 -0.264862
-0.109438 0.00202 -0.26485199
-0.109436 0.0020949999 -0.26483601
-0.109433 0.002173 -0.26483801
-0.109429 0.0022539999 -0.26485199
-0.109425 0.0023320001 -0.26485899
-0.109422 0.00241 -0.26486301
-0.109418 0.0024900001 -0.264869
-0.109416 0.002566 -0.26486301
-0.109413 0.0026430001 -0.26485699
-0.109409 0.002724 -0.264873
-0.109405 0.0028019999 -0.264882
-0.109402 0.00288 -0.264878
-0.109399 0.0029579999 -0.264878
-0.109396 0.0030360001 -0.264884
-0.109392 0.003116 -0.26489201
-0.109389 0.0031959999 -0.2649
-0.109385 0.003274 -0.264902
-0.109383 0.0033499999 -0.26489899
-0.109379 0.003428 -0.26489899
-0.109376 0.0035079999 -0.264907
-0.109373 0.0035860001 -0.264907
-0.10937 0.003664 -0.26490301
-0.109367 0.0037420001 -0.26490501
-0.109363 0.00382 -0.26491299
-0.109359 0.0038999999 -0.26492199
-0.109356 0.003978 -0.26492599
-0.109353 0.0040560002 -0.26492599
-0.10935 0.0041339998 -0.26493201
-0.109346 0.0042119999 -0.26493201
-0.109344 0.0042900001 -0.26492599
-0.10934 0.0043680002 -0.264927
-0.109337 0.0044459999 -0.264927
-0.109334 0.004524 -0.264929
-0.109331 0.0046040001 -0.26493099
-0.109328 0.0046799998 -0.26493099
-0.109324 0.0047599999 -0.26493299
-0.109321 0.0048380001 -0.26493299
-0.109318 0.0049160002 -0.264934
-0.109315 0.0049939998 -0.264938
-0.109312 0.005072 -0.264934
-0.109309 0.0051480001 -0.26492399
-0.109306 0.005225 -0.264918
-0.109304 0.0053010001 -0.264911
-0.109301 0.0053790002 -0.26490301
-0.109298 0.0054549999 -0.26489899
-0.109295 0.005533 -0.264891
-0.109293 0.0056079999 -0.26488101
-0.10929 0.005684 -0.26487601
-0.109287 0.0057620001 -0.26487201
-0.109284 0.0058400002 -0.26486999
-0.109281 0.0059179999 -0.264864
-0.109279 0.005994 -0.26485801
-0.109275 0.0060720001 -0.26486
-0.109272 0.0061519998 -0.264862
-0.109269 0.0062279999 -0.264855
-0.109267 0.0063029998 -0.264837
-0.109265 0.0063789999 -0.264819
-0.109262 0.0064539998 -0.26480901
-0.10926 0.0065319999 -0.264806
-0.109256 0.00661 -0.26481199
-0.109253 0.0066880002 -0.26481599
-0.10925 0.0067639998 -0.26480401
-0.109248 0.0068399999 -0.264788
-0.109246 0.0069149998 -0.264777
-0.109243 0.0069909999 -0.26476499
-0.10924 0.007069 -0.264761
-0.109237 0.0071470002 -0.26475501
-0.109235 0.0072229998 -0.26474699
-0.109232 0.0073009999 -0.264743
-0.109229 0.0073790001 -0.26474401
-0.109226 0.0074539999 -0.26473799
-0.109223 0.0075320001 -0.26473001
-0.10922 0.0076100002 -0.264732
-0.109217 0.0076879999 -0.264734
-0.109214 0.007766 -0.26473001
-0.109211 0.0078419996 -0.264723
-0.109208 0.0079180002 -0.26471499
-0.110254 -0.027321 -0.26627499
-0.110254 -0.027241999 -0.26621699
-0.110257 -0.027156999 -0.266078
-0.110259 -0.027076 -0.26597801
-0.11026 -0.026996 -0.26589
-0.11026 -0.026913 -0.26581201
-0.11026 -0.026835 -0.26575401
-0.11026 -0.026752001 -0.26568601
-0.110259 -0.026673 -0.26563299
-0.110258 -0.026594 -0.26558301
-0.110258 -0.026513999 -0.26552299
-0.110257 -0.026435001 -0.265477
-0.110256 -0.026356 -0.265439
-0.110254 -0.026278 -0.265405
-0.110253 -0.026199 -0.265374
-0.110251 -0.02612 -0.26533601
-0.11025 -0.026040999 -0.26529801
-0.110248 -0.025963999 -0.265268
-0.110246 -0.025885999 -0.265248
-0.110244 -0.025807999 -0.265232
-0.110242 -0.025730999 -0.26521301
-0.11024 -0.025651 -0.26518899
-0.110237 -0.025574001 -0.26517901
-0.110234 -0.025498001 -0.26518101
-0.110231 -0.025420001 -0.26517501
-0.110229 -0.025342001 -0.26515999
-0.110226 -0.025265001 -0.26514399
-0.110224 -0.025188999 -0.265136
-0.110221 -0.025110999 -0.26513001
-0.110218 -0.025033001 -0.26512599
-0.110215 -0.024956999 -0.26512399
-0.110212 -0.024878999 -0.26512101
-0.110209 -0.024801999 -0.265113
-0.110206 -0.024726 -0.265113
-0.110203 -0.02465 -0.26511899
-0.1102 -0.024572 -0.26511899
-0.110197 -0.024494 -0.26511201
-0.110194 -0.024416 -0.26509601
-0.110192 -0.02434 -0.26508799
-0.110189 -0.024262 -0.26508799
-0.110186 -0.024184 -0.26508799
-0.110183 -0.024109 -0.26508701
-0.110179 -0.02403 -0.26508901
-0.110177 -0.023955001 -0.26508501
-0.110174 -0.023877 -0.26507899
-0.110171 -0.023801001 -0.26507699
-0.110167 -0.023723001 -0.26508701
-0.110164 -0.023646999 -0.26509601
-0.11016 -0.023568001 -0.2651
-0.110157 -0.023491999 -0.265104
-0.110154 -0.023414001 -0.265104
-0.110151 -0.023337999 -0.26510999
-0.110147 -0.023262 -0.26512599
-0.110143 -0.023184 -0.26513299
-0.11014 -0.023108 -0.265129
-0.110137 -0.02303 -0.265131
-0.110134 -0.022954 -0.265131
-0.110131 -0.022876 -0.265131
-0.110128 -0.0228 -0.26513201
-0.110125 -0.022722 -0.26512799
-0.110122 -0.022646001 -0.26513201
-0.110118 -0.022568 -0.26514399
-0.110115 -0.022492001 -0.26514399
-0.110113 -0.022414001 -0.26513201
-0.11011 -0.022338999 -0.265127
-0.110107 -0.022260999 -0.265129
-0.110103 -0.022183999 -0.26513699
-0.1101 -0.022105999 -0.26513901
-0.110097 -0.02203 -0.26514101
-0.110093 -0.021952 -0.26515001
-0.11009 -0.021876 -0.265154
-0.110087 -0.021798 -0.26515201
-0.110084 -0.021722 -0.26515201
-0.110081 -0.021644 -0.265156
-0.110077 -0.021568 -0.265156
-0.110075 -0.02149 -0.26515099
-0.110071 -0.021414001 -0.26515701
-0.110068 -0.021336 -0.265163
-0.110065 -0.021260001 -0.265167
-0.110062 -0.021182001 -0.26515901
-0.110059 -0.021105001 -0.26515001
-0.110056 -0.021028999 -0.26515201
-0.110053 -0.020950999 -0.265158
-0.110049 -0.020874999 -0.26516199
-0.110046 -0.020799 -0.26515999
-0.110043 -0.020721 -0.265156
-0.110041 -0.020643 -0.26515299
-0.110038 -0.020564999 -0.265149
-0.110035 -0.020489 -0.265147
-0.110032 -0.020413 -0.26513901
-0.110029 -0.020335 -0.26513299
-0.110026 -0.020258 -0.26512799
-0.110024 -0.02018 -0.26511601
-0.110021 -0.020104 -0.26511201
-0.110018 -0.020028001 -0.26511401
-0.110015 -0.019950001 -0.26511601
-0.110011 -0.019872 -0.26511401
-0.110009 -0.019796001 -0.265111
-0.110006 -0.019718001 -0.26510701
-0.110003 -0.019641999 -0.26510701
-0.11 -0.019564001 -0.26510501
-0.109997 -0.019489 -0.26508901
-0.109995 -0.019410999 -0.26507801
-0.109992 -0.019332999 -0.26507601
-0.109989 -0.019257 -0.26507199
-0.109986 -0.01918 -0.26505801
-0.109984 -0.019104 -0.265046
-0.109981 -0.019026 -0.265035
-0.109979 -0.018949 -0.26502499
-0.109976 -0.018873001 -0.265021
-0.109973 -0.018795 -0.26501501
-0.109971 -0.018719001 -0.265001
-0.109968 -0.018641001 -0.264992
-0.109965 -0.018565999 -0.26498401
-0.109963 -0.018487999 -0.264974
-0.10996 -0.018409999 -0.26496601
-0.109958 -0.018333999 -0.264952
-0.109955 -0.018257 -0.264943
-0.109952 -0.018181 -0.26493901
-0.109949 -0.018103 -0.26493701
-0.109946 -0.018027 -0.26493701
-0.109943 -0.017949 -0.26493901
-0.10994 -0.017873 -0.26493499
-0.109937 -0.017795 -0.26492801
-0.109935 -0.017720001 -0.264918
-0.109932 -0.017642001 -0.26491401
-0.109929 -0.017565999 -0.26491001
-0.109926 -0.017488001 -0.264902
-0.109924 -0.017411999 -0.264893
-0.109921 -0.017333999 -0.26488301
-0.109919 -0.017259 -0.26486701
-0.109916 -0.017181 -0.26486301
-0.109912 -0.017105 -0.264869
-0.109909 -0.017027 -0.26486999
-0.109906 -0.016951 -0.264864
-0.109903 -0.016873 -0.264862
-0.1099 -0.016797001 -0.264862
-0.109897 -0.016719 -0.26486
-0.109894 -0.016643001 -0.26485699
-0.109891 -0.016565001 -0.26486701
-0.109887 -0.016488999 -0.26487899
-0.109884 -0.016411001 -0.26488501
-0.10988 -0.016333001 -0.26489499
-0.109877 -0.016256999 -0.26490501
-0.109873 -0.016179999 -0.26491401
-0.10987 -0.016101999 -0.26492199
-0.109866 -0.016026 -0.26492599
-0.109863 -0.015947999 -0.26492801
-0.10986 -0.015869999 -0.264938
-0.109856 -0.015794 -0.26494801
-0.109853 -0.015716 -0.26495299
-0.10985 -0.01564 -0.264947
-0.109847 -0.015562 -0.26493901
-0.109844 -0.015486 -0.26493701
-0.109841 -0.015408 -0.26493499
-0.109838 -0.015332 -0.26493201
-0.109836 -0.015255 -0.26492199
-0.109833 -0.015179 -0.26490799
-0.109831 -0.015101 -0.26489201
-0.109829 -0.015026 -0.26488
-0.109825 -0.014948 -0.26488501
-0.109822 -0.014872 -0.26488301
-0.10982 -0.014794 -0.264871
-0.109817 -0.014718 -0.26486501
-0.109814 -0.01464 -0.26486501
-0.109811 -0.014564 -0.26486301
-0.109808 -0.014486 -0.264862
-0.109805 -0.01441 -0.264864
-0.109802 -0.014332 -0.264864
-0.109799 -0.014257 -0.26485801
-0.109796 -0.014179 -0.26485601
-0.109793 -0.014103 -0.264853
-0.10979 -0.014025 -0.26484099
-0.109787 -0.013949 -0.26484099
-0.109784 -0.013871 -0.26484901
-0.10978 -0.013793 -0.264851
-0.109778 -0.013717 -0.26484501
-0.109775 -0.013639 -0.264846
-0.109772 -0.013563 -0.264846
-0.109768 -0.013487 -0.264846
-0.109765 -0.013409 -0.264844
-0.109763 -0.013332 -0.26483601
-0.10976 -0.013256 -0.26482499
-0.109758 -0.01318 -0.264815
-0.109755 -0.013102 -0.26481301
-0.109752 -0.013024 -0.26480901
-0.109749 -0.012949 -0.264801
-0.109746 -0.012871 -0.26479399
-0.109743 -0.012795 -0.26479
-0.10974 -0.012719 -0.264788
-0.109737 -0.012641 -0.26478601
-0.109735 -0.012565 -0.26478001
-0.109732 -0.012487 -0.26477501
-0.109729 -0.012411 -0.26477101
-0.109726 -0.012333 -0.26477301
-0.109723 -0.012256 -0.26477301
-0.10972 -0.01218 -0.26476899
-0.109717 -0.012102 -0.264761
-0.109714 -0.012026 -0.26475999
-0.109711 -0.01195 -0.26476401
-0.109708 -0.011872 -0.26476201
-0.109705 -0.011794 -0.26475999
-0.109702 -0.011718 -0.26476201
-0.109698 -0.01164 -0.264763
-0.109696 -0.011564 -0.264761
-0.109693 -0.011486 -0.26475501
-0.10969 -0.01141 -0.26475301
-0.109687 -0.011332 -0.26475301
-0.109684 -0.011256 -0.264754
-0.10968 -0.011178 -0.26475599
-0.109677 -0.0111 -0.26475999
-0.109674 -0.011024 -0.26476401
-0.10967 -0.010946 -0.26476601
-0.109667 -0.010868 -0.26476601
-0.109664 -0.010792 -0.26476499
-0.109661 -0.010715 -0.26476499
-0.109658 -0.010638 -0.26476699
-0.109655 -0.010561 -0.26476499
-0.109652 -0.010485 -0.26476499
-0.109649 -0.010407 -0.26476899
-0.109645 -0.010328 -0.26477599
-0.109642 -0.01025 -0.26477799
-0.109639 -0.010174 -0.26478001
-0.109636 -0.010097 -0.26477799
-0.109633 -0.010021 -0.26478001
-0.109629 -0.0099419998 -0.26478601
-0.109626 -0.0098639997 -0.26478899
-0.109623 -0.0097859995 -0.26479301
-0.109619 -0.0097099999 -0.264799
-0.109616 -0.0096319998 -0.26480299
-0.109613 -0.0095539996 -0.26480699
-0.10961 -0.009478 -0.26480901
-0.109606 -0.0093999999 -0.26481
-0.109604 -0.0093219997 -0.264806
-0.1096 -0.0092460001 -0.264806
-0.109597 -0.009168 -0.264808
-0.109594 -0.0090910001 -0.26480201
-0.109592 -0.0090150004 -0.264799
-0.109588 -0.0089370003 -0.264797
-0.109585 -0.0088609997 -0.264797
-0.109582 -0.0087829996 -0.26479501
-0.109579 -0.0087069999 -0.26479301
-0.109577 -0.0086289998 -0.26478899
-0.109574 -0.0085509997 -0.26478401
-0.109571 -0.008475 -0.26478001
-0.109568 -0.0083980002 -0.264772
-0.109566 -0.0083219996 -0.26475799
-0.109563 -0.0082459999 -0.26474401
-0.109561 -0.0081709996 -0.26472899
-0.109559 -0.0080949999 -0.26471299
-0.109557 -0.0080169998 -0.26469499
-0.109555 -0.007944 -0.26467499
-0.109552 -0.0078659998 -0.26465601
-0.10955 -0.007791 -0.264642
-0.109547 -0.0077149998 -0.26463601
-0.109544 -0.0076370002 -0.26463801
-0.109541 -0.0075610001 -0.26463801
-0.109538 -0.0074829999 -0.26464301
-0.109534 -0.0074049998 -0.26465699
-0.10953 -0.0073259999 -0.264667
-0.109527 -0.0072479998 -0.264667
-0.109524 -0.0071700001 -0.264667
-0.109521 -0.0070930002 -0.264667
-0.109518 -0.0070170001 -0.26466799
-0.109515 -0.006939 -0.26466399
-0.109512 -0.0068629999 -0.26465601
-0.109509 -0.0067850002 -0.26465601
-0.109505 -0.0067070001 -0.26466599
-0.109502 -0.006629 -0.26467401
-0.109499 -0.0065529998 -0.26467699
-0.109496 -0.0064750002 -0.26467699
-0.109492 -0.006397 -0.26468101
-0.109489 -0.0063189999 -0.26468301
-0.109486 -0.0062409998 -0.264687
-0.109482 -0.0061639999 -0.26469499
-0.109479 -0.0060840002 -0.26470301
-0.109476 -0.0060080001 -0.26470399
-0.109472 -0.00593 -0.26470399
-0.109469 -0.0058519999 -0.26470399
-0.109466 -0.0057740002 -0.26471201
-0.109462 -0.0056960001 -0.264718
-0.109459 -0.00562 -0.26471901
-0.109456 -0.0055419998 -0.264723
-0.109453 -0.0054640002 -0.26472101
-0.10945 -0.005388 -0.26471901
-0.109447 -0.0053099999 -0.26471901
-0.109444 -0.005233 -0.26471099
-0.109441 -0.0051569999 -0.26470801
-0.109439 -0.0050809998 -0.26469201
-0.109437 -0.0050050002 -0.264678
-0.109434 -0.004927 -0.264678
-0.10943 -0.0048489999 -0.26468
-0.109428 -0.004772 -0.26467299
-0.109425 -0.0046959999 -0.26466301
-0.109422 -0.0046199998 -0.26465899
-0.109419 -0.0045420001 -0.26466301
-0.109415 -0.004464 -0.264671
-0.109412 -0.0043859999 -0.264671
-0.109409 -0.0043080002 -0.26466799
-0.109406 -0.0042320001 -0.26466799
-0.109403 -0.004154 -0.26467201
-0.109399 -0.0040759998 -0.264678
-0.109396 -0.0039980002 -0.26468199
-0.109393 -0.00392 -0.26468199
-0.10939 -0.0038419999 -0.26468301
-0.109387 -0.003764 -0.26468301
-0.109384 -0.0036879999 -0.26468101
-0.109381 -0.00361 -0.26467299
-0.109378 -0.0035339999 -0.26466301
-0.109376 -0.003459 -0.26465601
-0.109373 -0.0033809999 -0.26465401
-0.10937 -0.003303 -0.26464599
-0.109367 -0.0032269999 -0.26463601
-0.109365 -0.003151 -0.26463199
-0.109362 -0.0030739999 -0.26462701
-0.109359 -0.002996 -0.26462501
-0.109356 -0.0029200001 -0.26462099
-0.109353 -0.002842 -0.26461899
-0.10935 -0.0027640001 -0.264613
-0.109347 -0.002688 -0.264613
-0.109344 -0.0026100001 -0.26461801
-0.10934 -0.002532 -0.264626
-0.109337 -0.002452 -0.26463199
-0.109333 -0.0023759999 -0.26463601
-0.10933 -0.002298 -0.26463401
-0.109327 -0.0022199999 -0.26463401
-0.109324 -0.002144 -0.264631
-0.109321 -0.0020659999 -0.264631
-0.109317 -0.001986 -0.26464301
-0.109313 -0.001905 -0.26466501
-0.109309 -0.0018269999 -0.26467699
-0.109306 -0.001749 -0.26468101
-0.109303 -0.001671 -0.26468101
-0.1093 -0.001593 -0.26468399
-0.109296 -0.001515 -0.26468799
-0.109293 -0.001437 -0.2647
-0.109289 -0.001359 -0.2647
-0.109287 -0.001281 -0.26469401
-0.109284 -0.001205 -0.26469201
-0.10928 -0.001125 -0.264696
-0.109277 -0.001049 -0.26469901
-0.109274 -0.000971 -0.26469299
-0.109272 -0.000895 -0.26468301
-0.109269 -0.000818 -0.26468101
-0.109266 -0.00073999999 -0.26468101
-0.109262 -0.00066199998 -0.26468199
-0.10926 -0.00058599998 -0.264676
-0.109257 -0.00050800003 -0.26466799
-0.109253 -0.00042999999 -0.26467401
-0.10925 -0.00034999999 -0.26468799
-0.109246 -0.000271 -0.264698
-0.109243 -0.000193 -0.2647
-0.10924 -0.000115 -0.26470101
-0.109236 -3.7000002e-05 -0.264707
-0.109233 4.3e-05 -0.26471499
-0.109229 0.000121 -0.26472101
-0.109226 0.000197 -0.26471299
-0.109223 0.000275 -0.26471701
-0.109219 0.000355 -0.26473099
-0.109216 0.00043300001 -0.26473799
-0.109212 0.00051099999 -0.26474401
-0.109209 0.00059100002 -0.264754
-0.109205 0.00066899997 -0.26475599
-0.109202 0.00074699998 -0.26475599
-0.109199 0.000825 -0.26475599
-0.109196 0.00090300001 -0.264763
-0.109192 0.00098100002 -0.26477101
-0.109189 0.001059 -0.26477301
-0.109186 0.001137 -0.26477101
-0.109183 0.0012150001 -0.26476499
-0.10918 0.0012910001 -0.264761
-0.109177 0.0013689999 -0.26475999
-0.109174 0.001447 -0.26475799
-0.109171 0.001525 -0.26475999
-0.109168 0.001603 -0.26476201
-0.109165 0.001681 -0.26475799
-0.109162 0.001759 -0.26475799
-0.109158 0.001837 -0.264768
-0.109154 0.001917 -0.26478499
-0.109151 0.0019970001 -0.26478899
-0.109148 0.002073 -0.26478899
-0.109144 0.0021510001 -0.26479101
-0.109141 0.002229 -0.26479101
-0.109138 0.0023070001 -0.26478699
-0.109135 0.002385 -0.26479
-0.109132 0.0024649999 -0.26479599
-0.109128 0.002543 -0.264808
-0.109124 0.002626 -0.264828
-0.10912 0.0027040001 -0.26483801
-0.109116 0.002784 -0.264846
-0.109113 0.0028619999 -0.26484999
-0.10911 0.00294 -0.26484999
-0.109107 0.0030179999 -0.264855
-0.109103 0.0030990001 -0.264871
-0.109099 0.003179 -0.26488301
-0.109095 0.0032569999 -0.264891
-0.109092 0.003335 -0.26489699
-0.109089 0.0034129999 -0.264893
-0.109087 0.003488 -0.264873
-0.109084 0.0035679999 -0.264878
-0.109079 0.0036490001 -0.26489601
-0.109076 0.003727 -0.26490399
-0.109073 0.0038050001 -0.26490799
-0.109069 0.003885 -0.264916
-0.109065 0.0039650002 -0.26492599
-0.109062 0.0040429998 -0.264936
-0.109059 0.0041209999 -0.264934
-0.109055 0.0041990001 -0.26493499
-0.109052 0.00428 -0.264947
-0.109048 0.0043580001 -0.26495099
-0.109046 0.004435 -0.264945
-0.109042 0.0045139999 -0.26495099
-0.109038 0.0045940001 -0.26495901
-0.109035 0.0046720002 -0.264965
-0.109032 0.0047519999 -0.264972
-0.109029 0.00483 -0.26496801
-0.109026 0.0049060001 -0.26496601
-0.109022 0.0049859998 -0.26497
-0.109019 0.0050639999 -0.264972
-0.109016 0.005142 -0.264972
-0.109013 0.0052200002 -0.26496801
-0.10901 0.0052970001 -0.26496699
-0.109007 0.0053730002 -0.264963
-0.109004 0.0054509998 -0.264961
-0.109001 0.005529 -0.26495701
-0.108998 0.0056070001 -0.26495099
-0.108996 0.0056810002 -0.264936
-0.108993 0.0057580001 -0.26492801
-0.10899 0.005839 -0.26493999
-0.108987 0.0059159999 -0.264936
-0.108985 0.00599 -0.264916
-0.108982 0.0060660001 -0.26490501
-0.108979 0.006143 -0.26489499
-0.108977 0.0062190001 -0.26488501
-0.108974 0.0062950002 -0.26487699
-0.108971 0.0063729999 -0.26487699
-0.108968 0.006453 -0.26488501
-0.108965 0.0065310001 -0.264882
-0.108962 0.0066069998 -0.26486799
-0.10896 0.0066820001 -0.26485401
-0.108957 0.0067599998 -0.26485401
-0.108953 0.0068379999 -0.264864
-0.10895 0.006916 -0.26486099
-0.108948 0.0069920002 -0.26484501
-0.108946 0.0070679998 -0.26482701
-0.108943 0.0071450002 -0.26482701
-0.108939 0.0072240001 -0.26483101
-0.108936 0.0073020002 -0.264833
-0.108933 0.0073790001 -0.264826
-0.108931 0.0074550002 -0.26481199
-0.108928 0.0075309998 -0.264808
-0.108925 0.007609 -0.264806
-0.108922 0.0076870001 -0.264808
-0.108918 0.0077669998 -0.264817
-0.108916 0.0078429999 -0.26480499
-0.108914 0.0079180002 -0.26478499
-0.110038 -0.027419999 -0.266431
-0.110039 -0.027339 -0.26632899
-0.110041 -0.027256999 -0.26622099
-0.110044 -0.027174 -0.266101
-0.110045 -0.027092 -0.26600599
-0.110046 -0.027009999 -0.265926
-0.110046 -0.026929 -0.26584801
-0.110046 -0.026849 -0.26577401
-0.110047 -0.026768001 -0.26570401
-0.110046 -0.026688 -0.26564401
-0.110045 -0.026609 -0.26559901
-0.110045 -0.026529999 -0.26554701
-0.110043 -0.026450999 -0.26550299
-0.110042 -0.026372001 -0.26546299
-0.110041 -0.026293 -0.26542699
-0.110039 -0.026214 -0.26539099
-0.110038 -0.026133999 -0.26535001
-0.110037 -0.026056999 -0.26531401
-0.110035 -0.025978001 -0.26528201
-0.110033 -0.025900999 -0.26525399
-0.110031 -0.025823001 -0.26523399
-0.110029 -0.025744 -0.26521599
-0.110027 -0.025666 -0.26518899
-0.110025 -0.025589 -0.26517299
-0.110022 -0.025511 -0.26516101
-0.11002 -0.025433 -0.26515099
-0.110017 -0.025355 -0.26514101
-0.110014 -0.025280001 -0.26513001
-0.110012 -0.025202001 -0.265118
-0.110009 -0.025124 -0.265118
-0.110006 -0.025048001 -0.26512
-0.110003 -0.024970001 -0.26511201
-0.11 -0.024893001 -0.26509899
-0.109998 -0.024815001 -0.265091
-0.109995 -0.024738999 -0.265091
-0.109992 -0.024661001 -0.26508701
-0.109989 -0.024584999 -0.26508501
-0.109986 -0.024506999 -0.26508501
-0.109983 -0.024429001 -0.265084
-0.10998 -0.024352999 -0.26507401
-0.109977 -0.024276 -0.265066
-0.109974 -0.024197999 -0.265064
-0.109971 -0.024122 -0.265064
-0.109968 -0.024044 -0.26506299
-0.109965 -0.023968 -0.26506701
-0.109962 -0.023892 -0.26506901
-0.109958 -0.023814 -0.265071
-0.109955 -0.023738001 -0.26507899
-0.109951 -0.023659 -0.265091
-0.109948 -0.023584001 -0.26508799
-0.109946 -0.023506001 -0.26507801
-0.109942 -0.023428001 -0.265082
-0.109939 -0.023352001 -0.26508999
-0.109936 -0.023274001 -0.26509199
-0.109933 -0.023197999 -0.265095
-0.109929 -0.023122 -0.26509899
-0.109926 -0.023043999 -0.26509899
-0.109923 -0.022967 -0.26510301
-0.10992 -0.022888999 -0.265109
-0.109917 -0.022813 -0.26510701
-0.109914 -0.022736 -0.265104
-0.109911 -0.02266 -0.26510599
-0.109907 -0.022581 -0.26511401
-0.109904 -0.022505 -0.265122
-0.109901 -0.022427 -0.26512
-0.109898 -0.022352001 -0.26510701
-0.109895 -0.022274001 -0.26510301
-0.109892 -0.022198001 -0.265109
-0.109889 -0.022120001 -0.26511499
-0.109885 -0.022043001 -0.265127
-0.109882 -0.021966999 -0.26513299
-0.109878 -0.021888999 -0.26513401
-0.109875 -0.021810999 -0.26513201
-0.109872 -0.021736 -0.26512799
-0.109869 -0.021658 -0.26512799
-0.109866 -0.021582 -0.26513001
-0.109863 -0.021504 -0.265131
-0.10986 -0.021428 -0.26513699
-0.109856 -0.021349 -0.265145
-0.109853 -0.021273 -0.26515099
-0.10985 -0.021197001 -0.26515701
-0.109846 -0.021119 -0.26515499
-0.109844 -0.021042001 -0.26514599
-0.109841 -0.020964 -0.26514199
-0.109838 -0.020888001 -0.26514801
-0.109834 -0.020811999 -0.26515201
-0.109831 -0.020733999 -0.26515201
-0.109829 -0.020656001 -0.26514301
-0.109826 -0.020579999 -0.26514101
-0.109822 -0.020501999 -0.26514301
-0.10982 -0.020426 -0.26513699
-0.109817 -0.020347999 -0.26512501
-0.109814 -0.020269999 -0.26512301
-0.109811 -0.020194 -0.26512399
-0.109808 -0.020117 -0.26511401
-0.109806 -0.020041 -0.265104
-0.109803 -0.019963 -0.265104
-0.1098 -0.019885 -0.2651
-0.109797 -0.019809 -0.265093
-0.109794 -0.019732 -0.26508701
-0.109791 -0.019656001 -0.26508099
-0.109789 -0.019578001 -0.265075
-0.109786 -0.019502001 -0.26506701
-0.109783 -0.019424001 -0.26505801
-0.109781 -0.019347001 -0.26504999
-0.109778 -0.019270999 -0.265044
-0.109775 -0.019192999 -0.26503
-0.109773 -0.019117 -0.26501799
-0.10977 -0.01904 -0.265012
-0.109767 -0.018962 -0.26500699
-0.109765 -0.018886 -0.264999
-0.109762 -0.018808 -0.264981
-0.10976 -0.018733 -0.26496899
-0.109757 -0.018655 -0.264961
-0.109755 -0.018577 -0.26495001
-0.109752 -0.018501 -0.26494399
-0.109749 -0.018423 -0.264936
-0.109747 -0.018347999 -0.26492399
-0.109744 -0.018270001 -0.26491201
-0.109742 -0.018193999 -0.26490101
-0.109738 -0.018115999 -0.26490101
-0.109735 -0.01804 -0.26490501
-0.109732 -0.017963 -0.26489899
-0.10973 -0.017887 -0.26488101
-0.109728 -0.017809 -0.264862
-0.109725 -0.017734 -0.26485601
-0.109722 -0.017656 -0.26485601
-0.109719 -0.017580001 -0.26485601
-0.109716 -0.017502001 -0.26485199
-0.109714 -0.017426001 -0.26484299
-0.109711 -0.017348001 -0.26482901
-0.109708 -0.017273 -0.26482499
-0.109705 -0.017194999 -0.26482499
-0.109702 -0.017116999 -0.264819
-0.109699 -0.017041 -0.264819
-0.109696 -0.016965 -0.264824
-0.109693 -0.016887 -0.26482201
-0.10969 -0.016811 -0.26481801
-0.109687 -0.016733 -0.26481199
-0.109684 -0.016657 -0.26481
-0.109681 -0.016579 -0.264815
-0.109677 -0.016503001 -0.26482499
-0.109673 -0.016425001 -0.26484099
-0.10967 -0.016346 -0.264851
-0.109666 -0.01627 -0.26485899
-0.109663 -0.016194001 -0.264873
-0.109659 -0.016116001 -0.264884
-0.109656 -0.016039999 -0.26488799
-0.109652 -0.015961999 -0.264902
-0.109648 -0.015883001 -0.26491401
-0.109645 -0.015807001 -0.26492
-0.109642 -0.015729001 -0.26492599
-0.109638 -0.015652999 -0.264929
-0.109635 -0.015575 -0.26493299
-0.109632 -0.015499 -0.26493901
-0.109629 -0.015421 -0.26493499
-0.109626 -0.015345 -0.26492301
-0.109624 -0.015268 -0.26491401
-0.109621 -0.01519 -0.26490399
-0.109619 -0.015114 -0.26488999
-0.109616 -0.015039 -0.264878
-0.109614 -0.014961 -0.26486599
-0.109611 -0.014885 -0.26485899
-0.109608 -0.014807 -0.264855
-0.109605 -0.014731 -0.264853
-0.109603 -0.014654 -0.26484099
-0.1096 -0.014578 -0.264833
-0.109597 -0.0145 -0.26483101
-0.109594 -0.014424 -0.264828
-0.109591 -0.014346 -0.264826
-0.109588 -0.01427 -0.26482201
-0.109585 -0.014192 -0.264828
-0.109581 -0.014116 -0.26483601
-0.109578 -0.014038 -0.26483101
-0.109576 -0.013962 -0.26482299
-0.109573 -0.013884 -0.264819
-0.10957 -0.013809 -0.26481301
-0.109567 -0.013731 -0.26481101
-0.109564 -0.013655 -0.264808
-0.109561 -0.013577 -0.26479799
-0.109558 -0.013501 -0.26480001
-0.109555 -0.013423 -0.26480401
-0.109552 -0.013347 -0.26480001
-0.109549 -0.013269 -0.264792
-0.109547 -0.013194 -0.26478499
-0.109544 -0.013116 -0.26477101
-0.109542 -0.01304 -0.26475701
