# .PCD v0.7 - Point Cloud Data file format
VERSION 0.7
FIELDS x y z
SIZE 4 4 4
TYPE F F F
COUNT 1 1 1
WIDTH 1463
HEIGHT 1
VIEWPOINT 0 0 0 1 0 0 0
POINTS 1463
DATA ascii
-0.079409003 0.15442701 -0.22663499
-0.079406999 0.154496 -0.226623
-0.079403996 0.154568 -0.226613
-0.079402 0.15463801 -0.226614
-0.079398997 0.15470999 -0.226616
-0.079396002 0.15478 -0.22661
-0.079393998 0.154852 -0.226595
-0.079392001 0.154921 -0.226577
-0.079388998 0.154993 -0.226579
-0.079387002 0.155063 -0.226576
-0.079384997 0.15513299 -0.22656
-0.079383001 0.155204 -0.22654399
-0.079380997 0.155274 -0.22652701
-0.079379 0.15534399 -0.226515
-0.079375997 0.155415 -0.226515
-0.079373002 0.155485 -0.22651599
-0.079369999 0.15555701 -0.226512
-0.079368003 0.155627 -0.226492
-0.079366997 0.155696 -0.226473
-0.079364002 0.15576801 -0.226469
-0.079360999 0.155838 -0.226465
-0.079359002 0.15591 -0.226455
-0.079356998 0.15598001 -0.22644401
-0.079355001 0.156049 -0.22643401
-0.079351999 0.156121 -0.22642399
-0.079350002 0.15619101 -0.22641499
-0.079347 0.156261 -0.22641701
-0.079343997 0.156333 -0.226421
-0.079342 0.15640301 -0.22641601
-0.079338998 0.15647399 -0.226402
-0.079337001 0.156544 -0.22639
-0.079334997 0.15661401 -0.22637901
-0.079333 0.15668599 -0.22637101
-0.079329997 0.156756 -0.226367
-0.079328001 0.15682501 -0.226358
-0.079325996 0.156895 -0.22634
-0.079324 0.156967 -0.226326
-0.079320997 0.15703601 -0.22632299
-0.079319 0.15710799 -0.226309
-0.079317003 0.157176 -0.22628701
-0.079314001 0.15724801 -0.22628599
-0.079311997 0.157317 -0.226284
-0.079309002 0.157389 -0.226274
-0.079306997 0.15745901 -0.226266
-0.079305001 0.157529 -0.226255
-0.079302996 0.157598 -0.22624101
-0.079300001 0.15767001 -0.22623301
-0.079297997 0.15774 -0.22622199
-0.079296 0.157809 -0.226206
-0.079294004 0.15788101 -0.22619601
-0.079291001 0.157951 -0.226193
-0.079288997 0.158021 -0.22618701
-0.079286002 0.15809099 -0.226179
-0.079283997 0.158162 -0.226164
-0.079282999 0.158232 -0.226138
-0.079281002 0.158301 -0.226124
-0.079278 0.158371 -0.226125
-0.079274997 0.15844101 -0.226117
-0.079273 0.15851299 -0.22610299
-0.079272002 0.158582 -0.22608399
-0.079269998 0.15865199 -0.226068
-0.079267003 0.158722 -0.226072
-0.079264 0.158794 -0.226071
-0.079262003 0.15886401 -0.226055
-0.079259999 0.158933 -0.226045
-0.079256997 0.159003 -0.226044
-0.079254001 0.15907501 -0.226036
-0.079251997 0.159145 -0.226032
-0.079249002 0.159217 -0.226025
-0.079246998 0.15928701 -0.226017
-0.079245001 0.159356 -0.226007
-0.079242997 0.159426 -0.22599401
-0.079240002 0.15949599 -0.225988
-0.079236999 0.159568 -0.22599401
-0.079233997 0.159638 -0.225996
-0.079232 0.15970799 -0.225987
-0.079228997 0.15978 -0.225987
-0.079226002 0.159852 -0.225991
-0.079223 0.159922 -0.22599
-0.079221003 0.159991 -0.225982
-0.079218 0.160063 -0.225978
-0.079214998 0.160133 -0.225981
-0.079213001 0.16020299 -0.22597501
-0.079209998 0.160275 -0.225967
-0.079207003 0.160345 -0.225972
-0.079204001 0.16041701 -0.22598401
-0.0792 0.16049001 -0.226004
-0.079195999 0.16056199 -0.22602201
-0.079193003 0.160634 -0.22603101
-0.079190001 0.160706 -0.22603901
-0.079186998 0.160776 -0.226041
-0.079182997 0.160851 -0.22605699
-0.079178996 0.160923 -0.22608601
-0.079175003 0.160996 -0.226106
-0.079172 0.16106801 -0.226116
-0.079168998 0.16113999 -0.22612999
-0.079164997 0.161213 -0.226153
-0.079159997 0.16128699 -0.226183
-0.079155996 0.16136 -0.22620501
-0.079153001 0.161432 -0.226219
-0.079149 0.161505 -0.226244
-0.079144001 0.161579 -0.226276
-0.07914 0.161654 -0.22631399
-0.079135001 0.16172899 -0.226356
-0.079130001 0.16180401 -0.226394
-0.079125002 0.161879 -0.22644
-0.079118997 0.161956 -0.226493
-0.079113998 0.16203099 -0.22654501
-0.079107001 0.162108 -0.226613
-0.079101004 0.162186 -0.226677
-0.079094999 0.16226301 -0.22674499
-0.079089001 0.162343 -0.226815
-0.079080999 0.162423 -0.226915
-0.080107003 0.133645 -0.22735
-0.080107003 0.13372301 -0.22727799
-0.080109 0.13380501 -0.227182
-0.080108002 0.133881 -0.227126
-0.080108002 0.133958 -0.22706801
-0.080108002 0.13403501 -0.227015
-0.080107003 0.13411 -0.22697499
-0.080105998 0.134185 -0.226935
-0.080104999 0.13426 -0.22689299
-0.080103002 0.134335 -0.226862
-0.080100998 0.134409 -0.226836
-0.0801 0.134482 -0.226814
-0.080098003 0.134554 -0.226798
-0.080095001 0.134628 -0.226785
-0.080094002 0.134701 -0.226757
-0.080091998 0.134774 -0.22672699
-0.080090001 0.134846 -0.226714
-0.080087997 0.134918 -0.22669999
-0.080086 0.13499101 -0.226684
-0.080084004 0.13506299 -0.226668
-0.080081999 0.13513599 -0.226649
-0.080078997 0.135208 -0.22663701
-0.080077 0.135278 -0.226631
-0.080075003 0.135352 -0.226622
-0.080072999 0.135423 -0.226606
-0.080069996 0.135497 -0.226588
-0.080068 0.13556799 -0.226574
-0.080066003 0.135638 -0.226567
-0.080063999 0.135712 -0.226555
-0.080061004 0.135784 -0.226541
-0.080058999 0.135856 -0.226537
-0.080055997 0.13592599 -0.22654399
-0.080053002 0.135994 -0.22655
-0.080049999 0.136066 -0.22655401
-0.080045998 0.136134 -0.226565
-0.080044001 0.136206 -0.22656099
-0.080041997 0.136278 -0.226547
-0.080039002 0.13634899 -0.226548
-0.080035999 0.13642 -0.226556
-0.080031998 0.13649 -0.22656401
-0.080030002 0.13655999 -0.22656301
-0.080026999 0.136632 -0.22656099
-0.080023997 0.136702 -0.22656301
-0.080021001 0.13677201 -0.226576
-0.080017999 0.136842 -0.226586
-0.080015004 0.136912 -0.226586
-0.080012001 0.13698199 -0.22658999
-0.080008999 0.137054 -0.226593
-0.080006003 0.137124 -0.22659899
-0.080003001 0.13719399 -0.22659899
-0.079999998 0.137266 -0.226604
-0.079997003 0.137335 -0.22661801
-0.079993002 0.13740499 -0.22663
-0.07999 0.137477 -0.226631
-0.079988003 0.137547 -0.226631
-0.079985 0.13761701 -0.226639
-0.079980999 0.137687 -0.22665
-0.079977997 0.137757 -0.226658
-0.079975002 0.13782901 -0.226658
-0.079972997 0.137899 -0.22665399
-0.079970002 0.137971 -0.22665299
-0.079967 0.13803899 -0.22666501
-0.079962999 0.13811 -0.226679
-0.079960003 0.13818 -0.226688
-0.079957001 0.13824999 -0.226698
-0.079953 0.13832 -0.22671001
-0.079949997 0.13839 -0.226721
-0.079947002 0.13846099 -0.226731
-0.079944 0.138531 -0.226739
-0.079939999 0.13860101 -0.226752
-0.079937004 0.138671 -0.226762
-0.079934001 0.138741 -0.22677
-0.079930998 0.138813 -0.22677
-0.079928003 0.13888299 -0.226771
-0.079925999 0.138953 -0.22677299
-0.079921998 0.139025 -0.22678301
-0.079919003 0.13909601 -0.226794
-0.079916 0.139164 -0.226806
-0.079911999 0.139236 -0.226816
-0.079908997 0.13930599 -0.226823
-0.079907 0.139378 -0.22682101
-0.079903997 0.139448 -0.226825
-0.079901002 0.13951799 -0.22682101
-0.079898998 0.13959201 -0.226806
-0.079896003 0.139662 -0.22680999
-0.079892002 0.139732 -0.22683001
-0.079888999 0.1398 -0.226849
-0.079884999 0.139871 -0.226859
-0.079882003 0.139943 -0.22686499
-0.079879001 0.14001299 -0.22687399
-0.079875998 0.140083 -0.226878
-0.079873003 0.140155 -0.22688399
-0.07987 0.140223 -0.226897
-0.079866998 0.140295 -0.22690301
-0.079864003 0.140367 -0.226897
-0.079861 0.14043701 -0.22689299
-0.079857998 0.14050899 -0.226896
-0.079856001 0.140579 -0.226898
-0.079852 0.14064901 -0.226906
-0.079848997 0.14072099 -0.22691301
-0.079846002 0.140791 -0.226915
-0.079843 0.140861 -0.226919
-0.079839997 0.14093199 -0.22693001
-0.079837002 0.141004 -0.226936
-0.079834998 0.141076 -0.22693001
-0.079832003 0.141147 -0.22691999
-0.079829998 0.14121699 -0.226915
-0.079827003 0.141289 -0.226905
-0.079824999 0.141361 -0.22690301
-0.079820998 0.141431 -0.22691
-0.079818003 0.14150301 -0.226914
-0.079815 0.141573 -0.22692201
-0.079811998 0.141643 -0.22693001
-0.079809003 0.14171501 -0.22692899
-0.079806998 0.141785 -0.226923
-0.079804003 0.141857 -0.226919
-0.079801999 0.141929 -0.22691201
-0.079800002 0.14199901 -0.22690199
-0.079796001 0.14207099 -0.22691
-0.079792999 0.142141 -0.226923
-0.079790004 0.142213 -0.226927
-0.079787001 0.14228299 -0.226925
-0.079784997 0.142353 -0.226923
-0.079781003 0.142425 -0.226928
-0.079778999 0.14249501 -0.226932
-0.079775997 0.14256699 -0.226926
-0.079774 0.142639 -0.226917
-0.079770997 0.14271 -0.226909
-0.079769 0.142782 -0.226899
-0.079765998 0.14285199 -0.22689401
-0.079763003 0.142924 -0.226898
-0.07976 0.142994 -0.226908
-0.079756998 0.14306401 -0.22691
-0.079754002 0.14313599 -0.22691301
-0.079751998 0.143208 -0.226905
-0.079749003 0.14328 -0.226899
-0.079746 0.14335001 -0.226906
-0.079742998 0.14342 -0.226914
-0.079740003 0.143492 -0.226918
-0.079737 0.143562 -0.22692201
-0.079733998 0.14363401 -0.22692101
-0.079732001 0.143704 -0.226909
-0.079729997 0.143776 -0.226897
-0.079727001 0.143848 -0.226896
-0.079724997 0.14391699 -0.22689
-0.079722002 0.143989 -0.226888
-0.079719 0.144061 -0.226887
-0.079715997 0.144131 -0.226887
-0.079713002 0.14420301 -0.226891
-0.079709999 0.144273 -0.226895
-0.079708003 0.144345 -0.22689
-0.079705 0.14441501 -0.22689
-0.079701997 0.144485 -0.22689401
-0.079699002 0.144557 -0.22689299
-0.079696998 0.144629 -0.22688501
-0.079694003 0.144701 -0.226881
-0.079691 0.14477099 -0.22688
-0.079689004 0.144843 -0.226878
-0.079686001 0.144913 -0.22687399
-0.079682998 0.14498401 -0.226872
-0.079681002 0.14505599 -0.226871
-0.079677999 0.145126 -0.226871
-0.079674996 0.14519601 -0.226871
-0.079672001 0.14526799 -0.22687
-0.079669997 0.14534 -0.226868
-0.079667002 0.14541 -0.22687
-0.079663999 0.145482 -0.22686701
-0.079660997 0.14555199 -0.226863
-0.079659 0.145624 -0.226863
-0.079655997 0.145694 -0.22686499
-0.079653002 0.145766 -0.22687
-0.07965 0.14583801 -0.22686
-0.079648003 0.145907 -0.22684599
-0.079645 0.145979 -0.226851
-0.079641998 0.14605001 -0.226863
-0.079639003 0.14612199 -0.226859
-0.079636998 0.146191 -0.226844
-0.079635002 0.146263 -0.226836
-0.079631999 0.14633501 -0.226842
-0.079628997 0.146405 -0.226844
-0.079626001 0.146477 -0.22684699
-0.079622999 0.146547 -0.226853
-0.079620004 0.146617 -0.226849
-0.079617999 0.146689 -0.22684
-0.079614997 0.146761 -0.22683799
-0.079612002 0.14683101 -0.22684
-0.079609998 0.14690299 -0.226835
-0.079607002 0.146972 -0.226825
-0.079604998 0.147044 -0.226823
-0.079602003 0.14711399 -0.22682101
-0.079599001 0.147186 -0.226818
-0.079595998 0.147256 -0.22682001
-0.079593003 0.147328 -0.22682799
-0.07959 0.14739799 -0.226827
-0.079588003 0.14747 -0.22682101
-0.079585001 0.147542 -0.22682101
-0.079582997 0.14761201 -0.226816
-0.079580002 0.147682 -0.22681201
-0.079576999 0.147754 -0.22682001
-0.079573996 0.147824 -0.22682799
-0.079571001 0.14789601 -0.22681899
-0.079568997 0.147967 -0.226803
-0.079566002 0.148037 -0.226805
-0.079562999 0.14811 -0.22682001
-0.079559997 0.14817999 -0.226824
-0.079557002 0.148252 -0.226818
-0.079554997 0.148321 -0.226809
-0.079552002 0.14839301 -0.226807
-0.079549 0.148463 -0.226809
-0.079547003 0.148535 -0.226809
-0.079544 0.148607 -0.226808
-0.079540998 0.14867701 -0.226806
-0.079538003 0.148747 -0.22680999
-0.079535998 0.148819 -0.226807
-0.079533003 0.148891 -0.226795
-0.079530999 0.14896099 -0.22679301
-0.079526998 0.149033 -0.22680201
-0.079524003 0.149103 -0.22680999
-0.079521 0.149175 -0.22680999
-0.079519004 0.14924499 -0.22679999
-0.079516001 0.149317 -0.226805
-0.079512998 0.149387 -0.226817
-0.079510003 0.14945699 -0.22681899
-0.079507001 0.149529 -0.22682001
-0.079504997 0.149599 -0.226808
-0.079503 0.14967 -0.226786
-0.079499997 0.14974201 -0.226781
-0.079498 0.149812 -0.226779
-0.079494998 0.149884 -0.226769
-0.079493001 0.14995401 -0.226771
-0.079489 0.15002599 -0.22679
-0.079485998 0.150096 -0.226796
-0.079483002 0.150166 -0.22679199
-0.07948 0.15023801 -0.22679099
-0.079478003 0.15030999 -0.226785
-0.079475001 0.15038 -0.226787
-0.079471998 0.150452 -0.22679199
-0.079470001 0.15052199 -0.22678401
-0.079467997 0.150593 -0.22676601
-0.079465002 0.150663 -0.22675601
-0.079461999 0.15073501 -0.226759
-0.079460002 0.150805 -0.226757
-0.079457 0.150877 -0.226753
-0.079453997 0.150947 -0.22676
-0.079451002 0.15101901 -0.226762
-0.079448 0.151089 -0.22676
-0.079444997 0.151161 -0.226761
-0.079443 0.15123101 -0.226761
-0.079439998 0.15130299 -0.226761
-0.079437003 0.151373 -0.226759
-0.079434 0.151445 -0.226758
-0.079432003 0.15151501 -0.22675399
-0.079429001 0.15158699 -0.22675
-0.079426996 0.151658 -0.226743
-0.079424001 0.151728 -0.22673699
-0.079420999 0.15180001 -0.22673699
-0.079419002 0.15187 -0.22674
-0.079415999 0.15194 -0.22674
-0.079412997 0.15201201 -0.22673801
-0.079410002 0.152082 -0.226739
-0.079407997 0.152154 -0.226733
-0.079405002 0.152226 -0.226723
-0.079402998 0.15229499 -0.22670899
-0.079401001 0.152367 -0.226706
-0.079397999 0.152437 -0.226712
-0.079395004 0.152509 -0.22671001
-0.079392001 0.15257899 -0.22670899
-0.079389997 0.152649 -0.226703
-0.079387002 0.152721 -0.226697
-0.079384997 0.15279099 -0.226694
-0.079382002 0.152863 -0.22669201
-0.079379 0.152935 -0.22669999
-0.079375997 0.153005 -0.226702
-0.079374 0.15307599 -0.226687
-0.079370998 0.153146 -0.226679
-0.079368003 0.153218 -0.226685
-0.079365 0.15328801 -0.226694
-0.079363003 0.153358 -0.226684
-0.079360999 0.15343 -0.22665399
-0.079360001 0.15349901 -0.226629
-0.079356998 0.15357099 -0.22661901
-0.079354003 0.153641 -0.226625
-0.079350002 0.153713 -0.22664499
-0.079347 0.15378501 -0.22665399
-0.079343997 0.153855 -0.226656
-0.079342 0.153927 -0.22665399
-0.079338998 0.153997 -0.226657
-0.079336002 0.15406699 -0.226659
-0.079333 0.154139 -0.226661
-0.079329997 0.154209 -0.226656
-0.079328001 0.15428101 -0.226642
-0.079325996 0.15435 -0.22662599
-0.079324 0.154422 -0.226611
-0.079322003 0.15449201 -0.226601
-0.079319 0.15456399 -0.226603
-0.079315998 0.154634 -0.22659899
-0.079314001 0.154706 -0.226596
-0.079310998 0.15477601 -0.226596
-0.079309002 0.154847 -0.226588
-0.079305999 0.154917 -0.226575
-0.079304002 0.15498701 -0.226565
-0.079301 0.15505899 -0.22657099
-0.079297997 0.155129 -0.226576
-0.079296 0.155201 -0.22657
-0.079292998 0.15527099 -0.22656
-0.079291001 0.155342 -0.226541
-0.079288997 0.155412 -0.226523
-0.079287 0.155481 -0.226513
-0.079283997 0.155553 -0.226512
-0.079282001 0.155623 -0.22650801
-0.079279996 0.15569501 -0.226496
-0.079277001 0.155765 -0.226485
-0.079274997 0.155834 -0.22647899
-0.079273 0.15590601 -0.226465
-0.079269998 0.155976 -0.226455
-0.079268001 0.156046 -0.226446
-0.079265997 0.15611701 -0.226432
-0.079263002 0.156187 -0.226428
-0.079260997 0.156259 -0.22642501
-0.079258002 0.15632901 -0.226419
-0.079255998 0.156399 -0.226409
-0.079254001 0.15647 -0.22639801
-0.079250999 0.15654001 -0.226394
-0.079249002 0.15661199 -0.22639
-0.079245999 0.156682 -0.226377
-0.079244003 0.15675101 -0.226365
-0.079241998 0.156821 -0.22635099
-0.079240002 0.156891 -0.22633199
-0.079237998 0.15696201 -0.226322
-0.079235002 0.157032 -0.226316
-0.079232998 0.157104 -0.22631299
-0.079230003 0.15717401 -0.22630499
-0.079227999 0.157244 -0.226289
-0.079226002 0.157313 -0.226282
-0.079223998 0.15738501 -0.226272
-0.079222001 0.157455 -0.226252
-0.079219997 0.157524 -0.226243
-0.079217002 0.157594 -0.226237
-0.079214998 0.157666 -0.226229
-0.079213001 0.157736 -0.226208
-0.079210997 0.157805 -0.22619
-0.079209 0.157875 -0.22618601
-0.079205997 0.157947 -0.226188
-0.079203002 0.15801699 -0.226175
-0.079200998 0.158086 -0.226165
-0.079198003 0.158158 -0.226163
-0.079195999 0.158228 -0.22615001
-0.079194002 0.158298 -0.226138
-0.079191998 0.15837 -0.226134
-0.079189003 0.158439 -0.226125
-0.079186998 0.158509 -0.226119
-0.079185002 0.15857901 -0.226107
-0.079182997 0.158648 -0.22608399
-0.079181001 0.158718 -0.226064
-0.079178996 0.158788 -0.22605599
-0.079177 0.158859 -0.226041
-0.079173997 0.15892901 -0.22603901
-0.079171002 0.15900099 -0.22604901
-0.079167999 0.159071 -0.22605
-0.079166003 0.159141 -0.226042
-0.079163 0.15921301 -0.226032
-0.079161003 0.159283 -0.226019
-0.079158999 0.159352 -0.226007
-0.079157002 0.159422 -0.22599301
-0.079154998 0.159492 -0.22598
-0.079152003 0.159564 -0.22598
-0.079149 0.15963399 -0.225986
-0.079145998 0.159704 -0.22598299
-0.079143003 0.159776 -0.22598299
-0.07914 0.159848 -0.225989
-0.079138003 0.159918 -0.22598299
-0.079135001 0.159987 -0.225978
-0.079131998 0.16005901 -0.22598
-0.079130001 0.160129 -0.225978
-0.079126999 0.160201 -0.225981
-0.079122998 0.160273 -0.225989
-0.079121001 0.16034301 -0.225991
-0.079117998 0.160414 -0.22599401
-0.079113998 0.160486 -0.226004
-0.079111002 0.160558 -0.22600999
-0.079108 0.16063 -0.226018
-0.079104997 0.16070201 -0.226027
-0.079102002 0.160772 -0.22602899
-0.079099 0.160844 -0.226041
-0.079094999 0.160917 -0.226063
-0.079089999 0.160991 -0.22609
-0.079086997 0.161064 -0.22611199
-0.079081997 0.161136 -0.226138
-0.079077996 0.161211 -0.22616
-0.079075001 0.161283 -0.226179
-0.079071 0.161355 -0.226191
-0.079067998 0.161428 -0.226209
-0.079062998 0.16150001 -0.226239
-0.079058997 0.161575 -0.226263
-0.079054996 0.16164801 -0.22629599
-0.079049997 0.161724 -0.22633199
-0.079044998 0.161799 -0.22638001
-0.079039 0.16187499 -0.22643401
-0.079034999 0.16194899 -0.226466
-0.07903 0.16202401 -0.226501
-0.079025 0.162099 -0.226547
-0.079019003 0.162176 -0.22661901
-0.079011999 0.162256 -0.226695
-0.079003997 0.16233601 -0.226785
-0.078996003 0.162416 -0.22688501
-0.080017 0.133633 -0.227404
-0.080018997 0.133716 -0.2273
-0.080018997 0.13379499 -0.227226
-0.080020003 0.133875 -0.227136
-0.080020003 0.13395099 -0.22707701
-0.080020003 0.13403 -0.227019
-0.080018997 0.134105 -0.22696701
-0.080017999 0.13417999 -0.226927
-0.080017 0.13425501 -0.226896
-0.080015004 0.13432901 -0.22687
-0.080013998 0.13440201 -0.226844
-0.080012001 0.13447499 -0.22682001
-0.080009997 0.134547 -0.226803
-0.080008 0.13462099 -0.226789
-0.080004998 0.134692 -0.226779
-0.080003001 0.134766 -0.226763
-0.080000997 0.134838 -0.226744
-0.079999 0.134909 -0.226726
-0.079997003 0.134983 -0.22670799
-0.079994999 0.13505501 -0.22669899
-0.079993002 0.13512599 -0.226685
-0.079990998 0.135199 -0.22665501
-0.07999 0.13527501 -0.226623
-0.079988003 0.135346 -0.22661
-0.079985 0.135416 -0.22660799
-0.079981998 0.13549 -0.22659799
-0.079980001 0.13556001 -0.22659101
-0.079976998 0.13563199 -0.22659101
-0.079975002 0.135704 -0.226583
-0.079971999 0.135775 -0.22657099
-0.079970002 0.13584501 -0.22657
-0.079967 0.13591699 -0.22657
-0.079963997 0.135987 -0.226568
-0.079962 0.136059 -0.226565
-0.079958998 0.13612901 -0.22656301
-0.079956003 0.13620099 -0.226565
-0.079953 0.136271 -0.226566
-0.079949997 0.13634101 -0.226568
-0.079947002 0.136411 -0.226576
-0.079944 0.136481 -0.22657999
-0.079940997 0.136553 -0.226585
-0.079938002 0.136623 -0.226595
-0.079934999 0.136694 -0.226601
-0.079931997 0.136764 -0.226604
-0.079929002 0.136834 -0.226606
-0.079925999 0.136905 -0.226602
-0.079922996 0.136976 -0.226613
-0.079920001 0.13704599 -0.22661699
-0.079917997 0.137117 -0.226605
-0.079915002 0.137189 -0.226603
-0.079911999 0.13726 -0.226612
-0.079908997 0.137328 -0.22662801
-0.079905003 0.137398 -0.226642
-0.079902001 0.13747001 -0.226647
-0.079898998 0.13754 -0.226647
-0.079896003 0.13761 -0.226651
-0.079893 0.13767999 -0.22666401
-0.079889998 0.137751 -0.22667199
-0.079887003 0.137823 -0.22667199
-0.079884 0.13789199 -0.226671
-0.079880998 0.137963 -0.22668099
-0.079878002 0.138033 -0.22669099
-0.079875 0.13810299 -0.226696
-0.079871997 0.138175 -0.226698
-0.079869002 0.138245 -0.226696
-0.079866 0.138317 -0.226696
-0.079862997 0.13838699 -0.226703
-0.079860002 0.138455 -0.226721
-0.079856001 0.13852599 -0.226733
-0.079852998 0.138596 -0.226744
-0.079850003 0.138666 -0.22676
-0.079846002 0.13873599 -0.22677401
-0.079843 0.138807 -0.226787
-0.079839997 0.138877 -0.226789
-0.079837002 0.138947 -0.22679099
-0.079833999 0.139019 -0.226797
-0.079830997 0.139089 -0.226804
-0.079828002 0.13915899 -0.22680201
-0.079824999 0.139231 -0.22680201
-0.079821996 0.139301 -0.226817
-0.079819001 0.13937099 -0.226827
-0.079815999 0.139441 -0.226831
-0.079813004 0.139511 -0.226836
-0.079809003 0.139584 -0.22684599
-0.079806998 0.139653 -0.22684
-0.079804003 0.139725 -0.226845
-0.079801001 0.139796 -0.22685701
-0.079797 0.13986599 -0.22686701
-0.079793997 0.139936 -0.22687501
-0.079791002 0.14000601 -0.22688
-0.079787999 0.14007799 -0.22688
-0.079786003 0.140148 -0.22688
-0.079782002 0.14022 -0.226889
-0.079778999 0.14029001 -0.226891
-0.079777002 0.14036 -0.226895
-0.079773001 0.140433 -0.22691
-0.079769999 0.140503 -0.226916
-0.079767004 0.14057299 -0.22691201
-0.079764001 0.140645 -0.226914
-0.079760998 0.140715 -0.226927
-0.079758003 0.14078499 -0.22693101
-0.079755999 0.140857 -0.22692101
-0.079752997 0.140928 -0.226916
-0.079751 0.141 -0.22691201
-0.079747997 0.14106999 -0.22691201
-0.079745002 0.14114 -0.22692101
-0.079742 0.141212 -0.226917
-0.079740003 0.141284 -0.226907
-0.079737 0.14135601 -0.226907
-0.079733998 0.141424 -0.226918
-0.079731002 0.141496 -0.22691999
-0.079728 0.14156801 -0.22691999
-0.079724997 0.141638 -0.226925
-0.079722002 0.141708 -0.226927
-0.079719 0.14178 -0.22692899
-0.079715997 0.14184999 -0.226936
-0.079713002 0.141922 -0.22693799
-0.079709999 0.141992 -0.22693799
-0.079706997 0.14206401 -0.22694001
-0.079704002 0.142134 -0.226943
-0.079701997 0.142206 -0.226937
-0.079700001 0.142278 -0.226925
-0.079696998 0.14234801 -0.22692201
-0.079694003 0.14241999 -0.226918
-0.079691999 0.142492 -0.22691201
-0.079689004 0.142564 -0.226914
-0.079686001 0.142634 -0.226915
-0.079682998 0.142704 -0.226919
-0.079680003 0.142776 -0.226919
-0.079677001 0.142846 -0.22692201
-0.079673998 0.14291801 -0.226928
-0.079671003 0.142988 -0.226928
-0.079668999 0.14306 -0.22693101
-0.079666004 0.14313 -0.22693101
-0.079663999 0.14320099 -0.226919
-0.079660997 0.143273 -0.226905
-0.079658002 0.143345 -0.226908
-0.079655997 0.143415 -0.226906
-0.079651996 0.14348701 -0.226914
-0.07965 0.143557 -0.226919
-0.079646997 0.143629 -0.226909
-0.079645 0.14369901 -0.226899
-0.079641998 0.14377099 -0.226904
-0.079639003 0.143841 -0.226914
-0.079636 0.143913 -0.22691
-0.079632998 0.143985 -0.22690199
-0.079630002 0.14405499 -0.226909
-0.079627998 0.144127 -0.226899
-0.079626001 0.144198 -0.226881
-0.079622999 0.14426801 -0.226882
-0.079620004 0.14433999 -0.226888
-0.079617001 0.14441 -0.226898
-0.079613999 0.14448 -0.22689299
-0.079612002 0.14455201 -0.22688299
-0.079608999 0.14462399 -0.226881
-0.079607002 0.144696 -0.22687501
-0.079604 0.144766 -0.22687601
-0.079600997 0.14483599 -0.226888
-0.079598002 0.144908 -0.22689
-0.079595 0.144978 -0.226887
-0.079593003 0.14505 -0.226879
-0.07959 0.14512099 -0.226871
-0.079586998 0.145191 -0.226872
-0.079585001 0.145263 -0.226862
-0.079582997 0.145335 -0.226854
-0.079579003 0.14540499 -0.22686601
-0.079576001 0.145475 -0.226877
-0.079572998 0.145547 -0.226873
-0.079570003 0.145619 -0.226877
-0.079567 0.145689 -0.22688399
-0.079565004 0.145761 -0.22687601
-0.079562001 0.145831 -0.226868
-0.079559997 0.14590301 -0.226864
-0.079557002 0.14597499 -0.226859
-0.079553999 0.146045 -0.226861
-0.079550996 0.146117 -0.22686499
-0.079549 0.14618701 -0.22686601
-0.079545997 0.14625899 -0.22685599
-0.079544 0.146328 -0.22685
-0.079539999 0.146401 -0.226859
-0.079536997 0.14647099 -0.22686701
-0.079535 0.146542 -0.22685701
-0.079533003 0.146612 -0.22684599
-0.079530001 0.14668401 -0.22683799
-0.079527996 0.146754 -0.226836
-0.079525001 0.146826 -0.22683799
-0.079521999 0.146898 -0.22683699
-0.079520002 0.14696801 -0.22682901
-0.079516999 0.14703999 -0.226827
-0.079513997 0.14711 -0.22683001
-0.079511002 0.147182 -0.226832
-0.079507999 0.14725199 -0.226842
-0.079504997 0.147322 -0.22684801
-0.079502001 0.147394 -0.22683901
-0.079499997 0.14746501 -0.226823
-0.079498 0.14753699 -0.226815
-0.079494998 0.147607 -0.22681201
-0.079492003 0.147677 -0.226814
-0.079489 0.14774901 -0.226826
-0.079485998 0.147819 -0.226825
-0.079484001 0.147891 -0.22681101
-0.079480998 0.147963 -0.226805
-0.079479001 0.14803299 -0.226808
-0.079475999 0.148105 -0.22681201
-0.079472996 0.148175 -0.226816
-0.079469003 0.148247 -0.226826
-0.079466999 0.14831699 -0.226823
-0.079464003 0.148389 -0.226815
-0.079461999 0.148458 -0.22681101
-0.079458997 0.14853001 -0.226804
-0.079456002 0.14860199 -0.22680201
-0.079452999 0.148672 -0.22680999
-0.079449996 0.14874201 -0.22681201
-0.079447001 0.14881399 -0.226817
-0.079443999 0.148885 -0.226825
-0.079441004 0.148956 -0.226823
-0.079438999 0.14902601 -0.226816
-0.079437003 0.14909799 -0.226806
-0.079434 0.14917 -0.226796
-0.079432003 0.14924 -0.22679099
-0.079429001 0.149312 -0.226799
-0.079425 0.149382 -0.226813
-0.079421997 0.149452 -0.226817
-0.07942 0.149524 -0.226808
-0.079416998 0.14959399 -0.22680201
-0.079414003 0.149666 -0.226806
-0.079411998 0.149736 -0.226807
-0.079410002 0.14980701 -0.226789
-0.079406999 0.14987899 -0.22677501
-0.079403996 0.149949 -0.22678
-0.079401001 0.150021 -0.226788
-0.079397999 0.15009101 -0.226798
-0.079395004 0.150161 -0.22680201
-0.079392999 0.150233 -0.22679301
-0.079389997 0.150305 -0.226781
-0.079388 0.15037499 -0.22677299
-0.079384997 0.150447 -0.22677401
-0.079382002 0.150517 -0.226776
-0.079379 0.150589 -0.22678199
-0.079375997 0.15065899 -0.226785
-0.079374 0.150731 -0.22678301
-0.079370998 0.150801 -0.226779
-0.079369001 0.15087201 -0.226768
-0.079365999 0.150942 -0.226758
-0.079363003 0.151014 -0.226762
-0.079360001 0.15108401 -0.22677
-0.079357997 0.15115599 -0.226763
-0.079356 0.151226 -0.226749
-0.079352997 0.151298 -0.22674499
-0.079350002 0.15136801 -0.226744
-0.079347998 0.151439 -0.226742
-0.079345003 0.151509 -0.22673801
-0.079342 0.151581 -0.226739
-0.079338998 0.15165301 -0.226743
-0.079336002 0.151724 -0.226751
-0.079333 0.151795 -0.22674499
-0.079331003 0.15186501 -0.226734
-0.079328999 0.151935 -0.22673
-0.079325996 0.152007 -0.226732
-0.079323001 0.152077 -0.226733
-0.079319999 0.15214901 -0.22672901
-0.079317003 0.15222099 -0.226731
-0.079314999 0.152291 -0.22673
-0.079311997 0.152363 -0.226722
-0.07931 0.15243199 -0.22671799
-0.079306997 0.152504 -0.226716
-0.079304002 0.152574 -0.226717
-0.079301998 0.15264399 -0.226707
-0.079300001 0.152716 -0.226689
-0.079296999 0.152786 -0.226684
-0.079294004 0.152858 -0.226688
-0.079291999 0.15293001 -0.226686
-0.079288997 0.152999 -0.226687
-0.079286002 0.153072 -0.22669099
-0.079282999 0.15314201 -0.226693
-0.079279996 0.15321299 -0.226687
-0.079278 0.153283 -0.226686
-0.079274997 0.15335301 -0.226684
-0.079272002 0.15342499 -0.226686
-0.079268999 0.153497 -0.226685
-0.079267003 0.153567 -0.226669
-0.079264998 0.15363599 -0.226651
-0.079263002 0.153708 -0.226652
-0.079259001 0.153781 -0.22666
-0.079256997 0.15385 -0.22665399
-0.079254001 0.15392201 -0.22665501
-0.079250999 0.153992 -0.226659
-0.079248004 0.154062 -0.22666501
-0.079245001 0.15413401 -0.22666501
-0.079242997 0.15420599 -0.22666
-0.079240002 0.154276 -0.22665
-0.079237998 0.154346 -0.226638
-0.079236001 0.15441801 -0.226633
-0.079232998 0.15448999 -0.226633
-0.079230003 0.154559 -0.226623
-0.079228997 0.15462901 -0.226602
-0.079226002 0.15470099 -0.226594
-0.079223998 0.154771 -0.226592
-0.079221003 0.154842 -0.226585
-0.079218999 0.15491199 -0.22657301
-0.079216003 0.154984 -0.226569
-0.079213001 0.155054 -0.22657201
-0.079210997 0.15512399 -0.22657201
-0.079208001 0.155196 -0.22657
-0.079204999 0.155266 -0.22656401
-0.079203002 0.15533701 -0.226551
-0.079200998 0.155407 -0.226533
-0.079199001 0.155477 -0.226523
-0.079196997 0.15554801 -0.22651599
-0.079194002 0.155618 -0.226504
-0.079191998 0.15569 -0.226486
-0.079190001 0.15576001 -0.22647899
-0.079186998 0.15583 -0.22647899
-0.079185002 0.155901 -0.226473
-0.079182997 0.15597101 -0.22645999
-0.079180002 0.15604299 -0.22645
-0.079177998 0.156113 -0.22644401
-0.079175003 0.156183 -0.226447
-0.079172 0.15625501 -0.226449
-0.079170004 0.156324 -0.226437
-0.079167999 0.156396 -0.226419
-0.079166003 0.15646601 -0.226404
-0.079163998 0.156535 -0.22639
-0.079161003 0.156607 -0.226384
-0.079158001 0.15667699 -0.226385
-0.079155996 0.156749 -0.226383
-0.079154 0.156819 -0.22636899
-0.079152003 0.15688799 -0.226354
-0.079149999 0.156958 -0.22633401
-0.079148002 0.15702701 -0.226322
-0.079144001 0.15710001 -0.226329
-0.079141997 0.15717 -0.226331
-0.07914 0.157239 -0.226303
-0.079139002 0.157308 -0.226274
-0.079136997 0.157378 -0.226254
-0.079135001 0.15744901 -0.226238
-0.079132996 0.157519 -0.226229
-0.079130001 0.157589 -0.226227
-0.079126999 0.15766101 -0.22622301
-0.079125002 0.157731 -0.22622199
-0.079121999 0.157803 -0.22621401
-0.079120003 0.157873 -0.22621
-0.079117998 0.157942 -0.22619499
-0.079116002 0.158012 -0.22616699
-0.079113998 0.158081 -0.22615699
-0.079111002 0.158153 -0.226156
-0.079108998 0.158223 -0.22614799
-0.079106003 0.15829299 -0.226146
-0.079103999 0.158365 -0.22613899
-0.079102002 0.158434 -0.226119
-0.079099998 0.15850399 -0.226101
-0.079097003 0.158574 -0.2261
-0.079094999 0.158646 -0.226098
-0.079092003 0.15871499 -0.226088
-0.079089999 0.158785 -0.226069
-0.079088002 0.15885501 -0.226053
-0.079085998 0.158924 -0.22604699
-0.079083003 0.158996 -0.226044
-0.079080999 0.15906601 -0.22603799
-0.079077996 0.159136 -0.22603799
-0.079076 0.159208 -0.226032
-0.079072997 0.15927801 -0.226027
-0.079071 0.159348 -0.22602101
-0.079067998 0.159419 -0.226013
-0.079066001 0.15948901 -0.226006
-0.079062998 0.159559 -0.226004
-0.079060003 0.159631 -0.225998
-0.079057999 0.159701 -0.225989
-0.079054996 0.159771 -0.225989
-0.079052001 0.159843 -0.225995
-0.079048999 0.159915 -0.226
-0.079046004 0.15998501 -0.226
-0.079043999 0.160055 -0.225996
-0.079040997 0.160127 -0.22599
-0.079039 0.160197 -0.225989
-0.079035997 0.16026799 -0.225987
-0.079033002 0.160338 -0.22598299
-0.079030998 0.16040801 -0.225978
-0.079028003 0.16047999 -0.22598
-0.079024002 0.160552 -0.22599199
-0.079020999 0.160625 -0.226013
-0.079016998 0.160697 -0.22603901
-0.079012997 0.16077 -0.226059
-0.079008996 0.160842 -0.226069
-0.079006001 0.160914 -0.226078
-0.079002999 0.16098601 -0.22608399
-0.079000004 0.16105901 -0.226098
-0.078996003 0.16113099 -0.226116
-0.078992002 0.161203 -0.226137
-0.078988001 0.161276 -0.226161
-0.078984 0.16135 -0.22618499
-0.078979999 0.161423 -0.226207
-0.078975998 0.161495 -0.22623099
-0.078971997 0.16157 -0.226262
-0.078966998 0.161645 -0.2263
-0.078961998 0.16171999 -0.22634
-0.078956999 0.16179401 -0.226382
-0.078952 0.161869 -0.22642
-0.078947999 0.161944 -0.226457
-0.078942999 0.162019 -0.22648899
-0.078938 0.162094 -0.22653501
-0.078930996 0.162174 -0.226621
-0.078924999 0.162251 -0.226687
-0.078918003 0.162329 -0.226769
-0.078909002 0.162411 -0.226881
-0.078899004 0.162496 -0.227015
-0.079922996 0.133633 -0.22735199
-0.079922996 0.13371 -0.22729801
-0.079922996 0.133788 -0.22723
-0.079924002 0.13387001 -0.227136
-0.079924002 0.133947 -0.22707599
-0.079922996 0.13402399 -0.227029
-0.079921998 0.13409799 -0.22697701
-0.079921998 0.13417301 -0.226933
-0.079920001 0.134249 -0.22690099
-0.079919003 0.134322 -0.22687399
-0.079916999 0.134397 -0.226842
-0.079915002 0.134469 -0.22682799
-0.079912998 0.134541 -0.226818
-0.079910003 0.13461401 -0.226803
-0.079907998 0.13468599 -0.226795
-0.079906002 0.134758 -0.226787
-0.079902999 0.13483 -0.226777
-0.079901002 0.134901 -0.226762
-0.079898998 0.134975 -0.226742
-0.079897001 0.13504601 -0.22671799
-0.079894997 0.13512 -0.226703
-0.079893 0.13519201 -0.226687
-0.079891004 0.13526499 -0.22666299
-0.079889998 0.13533799 -0.226643
-0.079888001 0.13541 -0.226624
-0.079885997 0.135483 -0.226602
-0.079884 0.135555 -0.226588
-0.079880998 0.135627 -0.226579
-0.079879001 0.135699 -0.22657099
-0.079875998 0.13576999 -0.22656301
-0.079874001 0.135842 -0.226559
-0.079870999 0.135912 -0.226558
-0.079869002 0.135984 -0.22655
-0.079866 0.13605601 -0.22654
-0.079864003 0.136126 -0.226539
-0.079860002 0.136196 -0.226551
-0.079856999 0.136264 -0.226569
-0.079852998 0.136335 -0.226578
-0.079851002 0.136406 -0.22657201
-0.079847999 0.13647801 -0.226568
-0.079844996 0.136548 -0.226576
-0.079842001 0.136618 -0.226579
-0.079838999 0.13668799 -0.22658101
-0.079836003 0.13676099 -0.226587
-0.079833001 0.136829 -0.22660001
-0.079829998 0.13690101 -0.22660799
-0.079827003 0.136971 -0.226604
-0.079824001 0.137041 -0.226605
-0.079821996 0.137113 -0.226601
-0.079819001 0.13718399 -0.226593
-0.079815999 0.137254 -0.226596
-0.079813004 0.137325 -0.22661
-0.079809003 0.137393 -0.22662801
-0.079806 0.137463 -0.22664399
-0.079802997 0.13753401 -0.22665501
-0.079800002 0.13760599 -0.226657
-0.079797 0.137676 -0.226661
-0.079793997 0.13774601 -0.226666
-0.079791002 0.137816 -0.226668
-0.079787999 0.137886 -0.22667401
-0.079784997 0.13795801 -0.22668099
-0.079782002 0.138028 -0.226679
-0.079778999 0.1381 -0.226679
-0.079775997 0.13817 -0.226685
-0.079773001 0.13823999 -0.226694
-0.079769999 0.13831 -0.226698
-0.079767004 0.13838001 -0.226702
-0.079764001 0.138451 -0.226715
-0.07976 0.138523 -0.226721
-0.079758003 0.138592 -0.226715
-0.079755001 0.13866401 -0.226716
-0.079751998 0.138735 -0.22672801
-0.079747997 0.13880301 -0.226744
-0.079745002 0.138873 -0.226761
-0.079741001 0.138944 -0.22677501
-0.079737999 0.13901401 -0.22678301
-0.079735003 0.139084 -0.226786
-0.079732001 0.139154 -0.226798
-0.079728 0.13922399 -0.226814
-0.079724997 0.139294 -0.226822
-0.079722002 0.139367 -0.226831
-0.079719 0.139437 -0.22683699
-0.079715997 0.139507 -0.226841
-0.079713002 0.139577 -0.22685
-0.079709999 0.13964701 -0.22686
-0.079705998 0.13971899 -0.22687
-0.079703003 0.139789 -0.226879
-0.079700001 0.13986 -0.22688299
-0.079696998 0.13992999 -0.226887
-0.079694003 0.140002 -0.226887
-0.079691999 0.140074 -0.226886
-0.079689004 0.14014301 -0.226886
-0.079686001 0.14021499 -0.226882
-0.079682998 0.140285 -0.226887
-0.079680003 0.140356 -0.226895
-0.079677001 0.14042801 -0.226899
-0.079673998 0.140497 -0.22689401
-0.079672001 0.140569 -0.22689401
-0.079668999 0.14063901 -0.226898
-0.079666004 0.14071199 -0.2269
-0.079663001 0.140782 -0.22690301
-0.079659998 0.140854 -0.226905
-0.079657003 0.14092299 -0.22690099
-0.079654999 0.140995 -0.2269
-0.079650998 0.141066 -0.22691
-0.079648003 0.14113601 -0.226918
-0.079645 0.14120799 -0.226917
-0.079643004 0.141278 -0.22691301
-0.079640001 0.141349 -0.22691099
-0.079636998 0.14141899 -0.22691099
-0.079634003 0.141491 -0.226914
-0.079631999 0.141563 -0.22691201
-0.079628997 0.141633 -0.22691201
-0.079626001 0.14170501 -0.22691301
-0.079622999 0.141775 -0.22691301
-0.079620004 0.141847 -0.226919
-0.079617001 0.141918 -0.226927
-0.079613999 0.141987 -0.226926
-0.079612002 0.142059 -0.226918
-0.079608999 0.142131 -0.226918
-0.079605997 0.14220101 -0.226919
-0.079603001 0.14227299 -0.22692101
-0.079599999 0.142343 -0.226923
-0.079598002 0.142415 -0.22692201
-0.079595 0.14248499 -0.226928
-0.079591997 0.142557 -0.22693001
-0.079589002 0.142627 -0.22693001
-0.079585999 0.142699 -0.226925
-0.079584002 0.14277101 -0.226919
-0.079581 0.142841 -0.22691099
-0.079577997 0.142913 -0.22691201
-0.079576001 0.142985 -0.22691201
-0.079573996 0.14305399 -0.226898
-0.079571001 0.14312799 -0.226887
-0.079567999 0.143198 -0.22690099
-0.079563998 0.143269 -0.226917
-0.079562001 0.14333799 -0.22691099
-0.079559997 0.14341 -0.226896
-0.079557002 0.143482 -0.226882
-0.079554997 0.143554 -0.226878
-0.079552002 0.14362399 -0.226881
-0.079549 0.143696 -0.226887
-0.079545997 0.143766 -0.226895
-0.079542004 0.14383601 -0.226904
-0.079539999 0.14390799 -0.22690199
-0.079536997 0.14398 -0.22689401
-0.079535 0.14405 -0.22688399
-0.079533003 0.14412101 -0.226877
-0.079530001 0.14419299 -0.226879
-0.079526998 0.144263 -0.226879
-0.079524003 0.144335 -0.226878
-0.079521 0.14440501 -0.22687601
-0.079519004 0.14447699 -0.22687601
-0.079516001 0.144547 -0.226881
-0.079512998 0.144619 -0.22688501
-0.079510003 0.14468899 -0.226889
-0.079507001 0.144761 -0.226887
-0.079503998 0.144831 -0.22688399
-0.079501003 0.144903 -0.226888
-0.079498 0.14497299 -0.226888
-0.079496004 0.145045 -0.226881
-0.079493999 0.145117 -0.226871
-0.079490997 0.14518601 -0.226859
-0.079489 0.14525799 -0.22685599
-0.079484999 0.145328 -0.22686601
-0.079481997 0.145401 -0.22687
-0.07948 0.14546999 -0.226864
-0.079476997 0.145542 -0.22686701
-0.079474002 0.145614 -0.226869
-0.079471 0.145684 -0.22686701
-0.079469003 0.14575601 -0.226868
-0.079466 0.145826 -0.22686601
-0.079464003 0.145898 -0.226854
-0.079461001 0.14597 -0.22684599
-0.079457998 0.14603999 -0.226849
-0.079455003 0.14611199 -0.226853
-0.079452001 0.146182 -0.226861
-0.079448998 0.14625201 -0.226862
-0.079447001 0.14632399 -0.226858
-0.079443999 0.146396 -0.226852
-0.079442002 0.146465 -0.226845
-0.079438999 0.14653701 -0.226843
-0.079435997 0.146607 -0.226841
-0.079434 0.146679 -0.22683901
-0.079430997 0.146749 -0.226834
-0.079428002 0.14682101 -0.22683001
-0.079425998 0.14689299 -0.226826
-0.079423003 0.146963 -0.22682901
-0.07942 0.147035 -0.226835
-0.079416998 0.14710499 -0.226835
-0.079414003 0.147177 -0.226834
-0.079411998 0.147247 -0.22682799
-0.079409003 0.147319 -0.226822
-0.079406001 0.14738899 -0.226826
-0.079402998 0.147461 -0.226835
-0.079400003 0.147531 -0.226835
-0.079397 0.14760301 -0.226833
-0.079395004 0.147673 -0.22682799
-0.079392001 0.147744 -0.226822
-0.079389997 0.14781401 -0.226814
-0.079388 0.14788599 -0.226809
-0.079384997 0.147958 -0.22681101
-0.079380997 0.148028 -0.22681899
-0.079379 0.1481 -0.226813
-0.079377003 0.14816999 -0.226804
-0.079374 0.148242 -0.226798
-0.079370998 0.148312 -0.22679999
-0.079368003 0.148384 -0.226809
-0.079365 0.148454 -0.226809
-0.079361998 0.148526 -0.226809
-0.079359002 0.148596 -0.22682001
-0.079356 0.14866801 -0.226822
-0.079354003 0.148738 -0.226814
-0.079351 0.14881 -0.226818
-0.079347998 0.14888 -0.226823
-0.079345003 0.14895201 -0.226815
-0.079342999 0.149021 -0.226809
-0.079340003 0.149093 -0.226804
-0.079337999 0.149165 -0.226798
-0.079334997 0.149235 -0.226798
-0.079332002 0.149307 -0.226803
-0.079328999 0.149377 -0.22680099
-0.079327002 0.14944699 -0.22679099
-0.079324 0.149519 -0.226785
-0.079320997 0.149589 -0.22679
-0.079318002 0.149661 -0.22679199
-0.079314999 0.149731 -0.22679999
-0.079311997 0.149803 -0.226805
-0.079309002 0.149875 -0.226807
-0.079306997 0.14994501 -0.226803
-0.079304002 0.15001699 -0.226794
-0.079301 0.150087 -0.226796
-0.079299003 0.150157 -0.226796
-0.079296 0.15022799 -0.226788
-0.079294004 0.1503 -0.226785
-0.079291001 0.15037 -0.226781
-0.079287998 0.150442 -0.226777
-0.079285003 0.15051199 -0.226786
-0.079282001 0.150584 -0.226796
-0.079278998 0.150654 -0.226796
-0.079277001 0.15072601 -0.22679099
-0.079273999 0.150796 -0.226779
-0.079272002 0.150868 -0.226769
-0.079268999 0.150938 -0.226772
-0.079265997 0.15101001 -0.226776
-0.079263002 0.15108 -0.22677401
-0.079260997 0.151152 -0.226768
-0.079258002 0.15122101 -0.226761
-0.079255998 0.15129299 -0.226757
-0.079253003 0.151363 -0.226759
-0.07925 0.151435 -0.22676
-0.079246998 0.15150499 -0.22675601
-0.079245001 0.151577 -0.226748
-0.079241998 0.151649 -0.226742
-0.079240002 0.15171801 -0.226735
-0.079236999 0.15178999 -0.226733
-0.079235002 0.15186 -0.226733
-0.079232 0.15193 -0.226732
-0.079228997 0.15200201 -0.226726
-0.079227 0.152072 -0.226716
-0.079225004 0.152144 -0.226703
-0.079222001 0.152216 -0.226707
-0.079218 0.15228599 -0.22671901
-0.079214998 0.152358 -0.226726
-0.079213001 0.152428 -0.226722
-0.079209998 0.1525 -0.226712
-0.079208001 0.152569 -0.226706
-0.079204999 0.152639 -0.226703
-0.079203002 0.152711 -0.22669899
-0.0792 0.15278301 -0.22670101
-0.079195999 0.152853 -0.226712
-0.079194002 0.152925 -0.226706
-0.079191998 0.15299501 -0.226696
-0.079189003 0.15306699 -0.226693
-0.079186 0.153137 -0.226697
-0.079182997 0.153209 -0.22669099
-0.079181001 0.15327901 -0.226685
-0.079177998 0.153349 -0.226686
-0.079175003 0.153421 -0.226686
-0.079172999 0.153492 -0.22668
-0.079170004 0.15356199 -0.22668301
-0.079167001 0.153634 -0.226685
-0.079163998 0.153704 -0.226685
-0.079162002 0.153776 -0.226678
-0.079159997 0.153846 -0.22666401
-0.079157002 0.153918 -0.226662
-0.079154 0.153988 -0.226667
-0.079150997 0.15406001 -0.22666299
-0.079149 0.15413 -0.22665501
-0.079147004 0.154199 -0.226643
-0.079144001 0.15427101 -0.22664
-0.079141997 0.154341 -0.226634
-0.079139002 0.154413 -0.22662599
-0.079135999 0.154485 -0.226629
-0.079134002 0.15455499 -0.22662701
-0.079131998 0.154624 -0.226611
-0.079129003 0.154696 -0.226604
-0.079126 0.15476599 -0.226604
-0.079124004 0.154838 -0.22659799
-0.079121001 0.154908 -0.226597
-0.079118997 0.15498 -0.226587
-0.079117 0.155049 -0.22657099
-0.079113998 0.155119 -0.22656199
-0.079112001 0.155191 -0.226558
-0.079108998 0.155261 -0.22655401
-0.079107001 0.155333 -0.226548
-0.079103999 0.155403 -0.226547
-0.079101004 0.15547401 -0.226539
-0.079099998 0.155544 -0.22651701
-0.079097003 0.155614 -0.22650801
-0.079094999 0.15568499 -0.22650599
-0.079092003 0.155755 -0.2265
-0.079089999 0.155827 -0.226493
-0.079086997 0.15589701 -0.226485
-0.079085 0.155967 -0.226475
-0.079081997 0.156039 -0.22647201
-0.079080001 0.15610801 -0.22646201
-0.079077996 0.156178 -0.22644401
-0.079076 0.15625 -0.226429
-0.079075001 0.15631901 -0.22640701
-0.079072997 0.156388 -0.226385
-0.079070002 0.15645801 -0.22637799
-0.079066999 0.15652999 -0.22638001
-0.079063997 0.156602 -0.226384
-0.079062 0.156672 -0.226384
-0.079060003 0.15674201 -0.22637101
-0.079057999 0.15681399 -0.226353
-0.079054996 0.156883 -0.226347
-0.079053 0.15695301 -0.22634199
-0.079049997 0.15702499 -0.22633199
-0.079048 0.157095 -0.226318
-0.079046004 0.15716401 -0.226309
-0.079043001 0.15723599 -0.226309
-0.079040997 0.157306 -0.22629701
-0.079039 0.15737601 -0.226274
-0.079037003 0.157445 -0.226262
-0.079034999 0.157515 -0.226246
-0.079033002 0.157584 -0.22623099
-0.07903 0.157656 -0.22623099
-0.079026997 0.157728 -0.22623301
-0.079025 0.15779801 -0.226218
-0.079024002 0.157868 -0.22619601
-0.079020999 0.15793701 -0.22619399
-0.079017997 0.15800899 -0.22618701
-0.079016 0.158079 -0.226175
-0.079014003 0.158149 -0.22615699
-0.079011999 0.158218 -0.226144
-0.079010002 0.158288 -0.226138
-0.079007998 0.15836 -0.226126
-0.079005003 0.158429 -0.22611301
-0.079002999 0.158499 -0.226099
-0.079001002 0.15856899 -0.226089
-0.078998998 0.158639 -0.226082
-0.078996003 0.158711 -0.226078
-0.078993998 0.15877999 -0.226068
-0.078991003 0.15885 -0.226059
-0.078988999 0.158922 -0.22604901
-0.078987002 0.158989 -0.226033
-0.078984998 0.159061 -0.226018
-0.078983001 0.15913101 -0.22601201
-0.078979999 0.159201 -0.226004
-0.078977004 0.159273 -0.226004
-0.078974999 0.159343 -0.226005
-0.078971997 0.159412 -0.225995
-0.07897 0.159482 -0.22598299
-0.078966998 0.159554 -0.22598
-0.078964002 0.159624 -0.22598401
-0.078961998 0.159696 -0.225982
-0.078959003 0.159766 -0.225977
-0.078956001 0.15983801 -0.225977
-0.078952998 0.159908 -0.225981
-0.078951001 0.15998 -0.22597601
-0.078947999 0.16005 -0.225972
-0.078946002 0.160119 -0.225968
-0.078942999 0.160191 -0.225969
-0.078939997 0.16026101 -0.225971
-0.078937002 0.16033299 -0.225969
-0.078934997 0.160403 -0.225963
-0.078932002 0.160475 -0.225968
-0.078928001 0.16054501 -0.22598
-0.078924999 0.16062 -0.22599199
-0.078920998 0.16069201 -0.226014
-0.078916997 0.16076501 -0.226035
-0.078914002 0.16083699 -0.226045
-0.078910001 0.160909 -0.226061
-0.078906 0.160982 -0.226083
-0.078902997 0.161054 -0.226096
-0.078900002 0.161126 -0.226106
-0.078896001 0.16119801 -0.226118
-0.078892998 0.16127101 -0.22613201
-0.078888997 0.16134299 -0.226151
-0.078884996 0.161415 -0.226175
-0.078879997 0.16148999 -0.226217
-0.078874998 0.16156501 -0.22624899
-0.078870997 0.16163801 -0.22627801
-0.078867003 0.16171201 -0.226312
-0.078861997 0.161787 -0.226356
-0.078856997 0.161862 -0.22639
-0.078851998 0.161937 -0.22643401
-0.078846999 0.162012 -0.226482
-0.078841001 0.16208901 -0.226531
-0.078835003 0.162166 -0.226597
-0.078828998 0.16224401 -0.22667301
-0.078822002 0.162324 -0.226751
-0.078814 0.162404 -0.22685499
-0.078803003 0.16249099 -0.226996
-0.079824999 0.13361201 -0.227496
-0.079829 0.133699 -0.227354
-0.079829998 0.133781 -0.22725099
-0.079830997 0.13385899 -0.227175
-0.079830997 0.133938 -0.22711299
-0.079830997 0.134014 -0.227055
-0.079829998 0.134091 -0.22700299
-0.079829 0.134166 -0.226962
-0.079828002 0.134241 -0.226926
-0.079825997 0.134313 -0.226904
-0.079824001 0.134386 -0.22688
-0.079823002 0.134462 -0.226853
-0.079820998 0.134533 -0.226833
-0.079818003 0.13460501 -0.226823
-0.079815999 0.13467699 -0.226815
-0.079814002 0.13474999 -0.226804
-0.079811998 0.134822 -0.226786
-0.079809003 0.134894 -0.22678
-0.079806998 0.134967 -0.226757
-0.079806 0.135041 -0.226723
-0.079804003 0.135114 -0.22670101
-0.079801999 0.135188 -0.226679
-0.079801001 0.135259 -0.22665399
-0.079798996 0.135332 -0.22663
-0.079797 0.135406 -0.22660799
-0.079795003 0.13547701 -0.226594
-0.079792 0.13554899 -0.226587
-0.079790004 0.135621 -0.22657301
-0.079787999 0.135693 -0.226565
-0.079784997 0.135765 -0.22656401
-0.079782002 0.13583501 -0.22656199
-0.079779997 0.13590699 -0.22656199
-0.079777002 0.135977 -0.22656401
-0.079774 0.13604701 -0.226565
-0.079772003 0.13612001 -0.22654501
-0.079770997 0.13619301 -0.226513
-0.079768002 0.13626499 -0.226502
-0.079764999 0.136335 -0.226512
-0.079760998 0.13640399 -0.22653399
-0.079758003 0.136472 -0.226557
-0.079754002 0.13654201 -0.226567
-0.079751 0.13661399 -0.22657099
-0.079747997 0.136684 -0.226576
-0.079746 0.13675401 -0.226576
-0.079742998 0.13682599 -0.226574
-0.079738997 0.136897 -0.226586
-0.079736002 0.13696501 -0.226601
-0.079732999 0.137035 -0.226611
-0.079728998 0.137105 -0.226623
-0.079726003 0.13717499 -0.226632
-0.079723999 0.137247 -0.226624
-0.079720996 0.137317 -0.22662
-0.079718001 0.13738699 -0.22662701
-0.079714999 0.13745899 -0.226633
-0.079712003 0.137529 -0.22663499
-0.079709999 0.137601 -0.22663
-0.079706997 0.13767099 -0.22662801
-0.079703003 0.137741 -0.226642
-0.079700001 0.137812 -0.226652
-0.079696998 0.13788199 -0.226659
-0.079694003 0.137954 -0.226659
-0.079691 0.138024 -0.22666501
-0.079687998 0.138092 -0.226684
-0.079683997 0.138163 -0.226702
-0.079681002 0.13823301 -0.22671001
-0.079677999 0.138303 -0.226721
-0.079673998 0.138373 -0.226733
-0.079671003 0.13844299 -0.22673699
-0.079668 0.138515 -0.22674
-0.079666004 0.138585 -0.226742
-0.079663001 0.138657 -0.226742
-0.079659998 0.13872699 -0.22673599
-0.079657003 0.138797 -0.226741
-0.079654001 0.138869 -0.226749
-0.079650998 0.13893899 -0.226751
-0.079648003 0.139009 -0.226758
-0.079645 0.139079 -0.22676399
-0.079641998 0.13914999 -0.226772
-0.079637997 0.13922 -0.226789
-0.079635002 0.13929 -0.226797
-0.079631999 0.13936201 -0.226805
-0.079627998 0.139431 -0.226822
-0.079625003 0.13950101 -0.22683001
-0.079622 0.13957299 -0.226832
-0.079618998 0.139643 -0.226842
-0.079616003 0.139713 -0.226851
-0.079613 0.13978501 -0.226843
-0.079611003 0.13985699 -0.226831
-0.079608001 0.139929 -0.226832
-0.079604998 0.13999701 -0.22684599
-0.079600997 0.14006899 -0.226862
-0.079598002 0.140139 -0.22687
-0.079595998 0.140209 -0.22686499
-0.079593003 0.14028101 -0.226859
-0.079590999 0.14035299 -0.226853
-0.079588003 0.140425 -0.226854
-0.079585001 0.140495 -0.22686
-0.079581998 0.14056499 -0.226864
-0.079577997 0.140635 -0.226881
-0.079575002 0.140706 -0.226897
-0.079571001 0.14077599 -0.226907
-0.079567999 0.140846 -0.22691999
-0.079565004 0.140916 -0.226928
-0.079562001 0.14098801 -0.226926
-0.079559997 0.141058 -0.22692201
-0.079557002 0.14113 -0.22692101
-0.079553999 0.141202 -0.22692101
-0.079552002 0.14127199 -0.22691301
-0.079549 0.141344 -0.226908
-0.079545997 0.141415 -0.226906
-0.079543002 0.141486 -0.22691
-0.079539999 0.14155801 -0.22691201
-0.079538003 0.141627 -0.226907
-0.079535 0.141699 -0.226909
-0.079531997 0.14177001 -0.226915
-0.079529002 0.14184099 -0.226914
-0.079526998 0.141911 -0.226906
-0.079524003 0.141983 -0.22690199
-0.079521 0.142055 -0.226907
-0.079517998 0.142125 -0.226907
-0.079515003 0.142197 -0.226909
-0.079512998 0.142267 -0.226905
-0.079510003 0.14233699 -0.22691
-0.079507001 0.142409 -0.226918
-0.079503998 0.142479 -0.226918
-0.079501003 0.142551 -0.226917
-0.079498 0.14262301 -0.22691099
-0.079496004 0.142693 -0.22690301
-0.079493001 0.142765 -0.22691
-0.079489999 0.14283501 -0.226918
-0.079487003 0.14290699 -0.226916
-0.079484999 0.142979 -0.2269
-0.079483002 0.14305 -0.226873
