-0.0583458 -0.104711 0.99279 0
-0.0613522 -0.109365 0.992106 0
-0.0603265 -0.114343 0.991608 0
-0.059088 -0.121182 0.99087 0
-0.0612695 -0.122339 0.990595 0
-0.0611628 -0.125705 0.99018 0
-0.0559317 -0.13106 0.989795 0
-0.0521645 -0.134268 0.989571 0
-0.0509517 -0.136856 0.98928 0
-0.0474294 -0.137297 0.989394 0
-0.0460401 -0.135265 0.989739 0
-0.0457978 -0.131499 0.990258 0
-0.0461346 -0.125685 0.990997 0
-0.0474632 -0.122561 0.991325 0
-0.0521206 -0.123213 0.991011 0
-0.0565194 -0.115814 0.991662 0
-0.0620314 -0.117235 0.991165 0
-0.0660516 -0.116033 0.991047 0.00583936
-0.066881 -0.113389 0.991297 0.00971883
-0.0666453 -0.0997876 0.992774 0.0176144
-0.0645795 -0.102079 0.992678 0.0145605
-0.0653602 -0.103463 0.992483 0.0166986
-0.0701884 -0.103254 0.992175 0.0234599
-0.0750925 -0.0938374 0.992752 0.0300026
-0.0776542 -0.0789396 0.99385 0.0384818
-0.0748297 -0.0776133 0.994171 0.0396238
-0.0671834 -0.0806498 0.994476 0.0377228
-0.0669569 -0.0789018 0.994631 0.0397379
-0.0664896 -0.0707074 0.995279 0.0387216
-0.0653345 -0.0743204 0.995092 0.0340813
-0.0691288 -0.0638555 0.995562 0.0397807
-0.0696338 -0.0617515 0.99566 0.0450159
-0.0679111 -0.0662738 0.995488 0.0431725
-0.0606738 -0.066059 0.995969 0.0326937
-0.0602845 -0.0595841 0.996401 0.0316393
-0.0585138 -0.0601483 0.996473 0.0263406
-0.0583018 -0.0644475 0.996217 0.0234896
-0.0604514 -0.0471891 0.997055 0.0277908
-0.0622301 -0.0415557 0.997196 0.0292216
-0.0653717 -0.038022 0.997136 0.0284935
-0.0691992 -0.0390457 0.996838 0.0302581
-0.0700309 -0.0424668 0.99664 0.0321989
-0.0716826 -0.0322953 0.996904 0.0330497
-0.0716288 -0.0363513 0.996769 0.0351336
-0.0688698 -0.0324167 0.997099 0.0318893
-0.0674173 -0.0267394 0.997366 0.031881
-0.0639443 -0.0345825 0.997354 0.0268478
-0.0603751 -0.0289476 0.997756 0.0232661
-0.0574038 -0.0368563 0.99767 0.0207001
-0.0552237 -0.037014 0.997788 0.0204632
-0.0560057 -0.0351021 0.997813 0.0222149
-0.0564815 -0.0385702 0.997658 0.0194341
-0.0600516 -0.0430367 0.997267 0.0127832
-0.0640274 -0.0305177 0.997481 0.0183127
-0.0626225 -0.032283 0.997515 0.017305
-0.0643044 -0.0232809 0.997659 0.0220585
-0.0657032 -0.0248061 0.997531 0.0271842
-0.0660959 -0.025589 0.997485 0.0334998
-0.0659686 -0.0266345 0.997466 0.0359781
-0.0661584 -0.0168568 0.997667 0.0339223
-0.0650202 -0.0250229 0.99757 0.0303463
-0.0644418 -0.0230064 0.997656 0.0319607
-0.0616406 -0.0142323 0.997997 0.0301699
-0.061812 -0.0111246 0.998026 0.0313384
-0.0609675 -0.00489993 0.998128 0.0268237
-0.0575315 -0.0123038 0.998268 0.0171073
-0.0554005 -0.0182859 0.998297 0.0129539
-0.0545969 -0.0211877 0.998284 0.0117318
-0.0544077 -0.0186244 0.998345 0.0106121
-0.0549983 -0.0163982 0.998352 0.0134995
-0.0543865 -0.0232523 0.998249 0.0150726
-0.0551684 -0.0137966 0.998382 0.0184058
-0.0561671 0.00192196 0.99842 0.0219948
-0.057158 0.00544839 0.99835 0.0224922
-0.0602189 0.018714 0.99801 0.0282619
-0.0612199 0.0190309 0.997943 0.0296828
-0.0596822 0.0168864 0.998075 0.026363
-0.0596781 0.0109755 0.998157 0.0232392
-0.0578748 0.00316931 0.998319 0.0220953
-0.0554648 -0.0113356 0.998396 0.0207637
-0.0563521 -0.00286758 0.998407 0.0214386
-0.0553598 0.00133034 0.998466 0.0181031
-0.0560843 0.0051776 0.998413 0.0152997
-0.0581995 0.018875 0.998127 0.0201858
-0.0599063 0.0395304 0.997421 0.0239038
-0.0600559 0.041788 0.99732 0.0256211
-0.0611768 0.0490217 0.996922 0.0288678
-0.0604584 0.0474512 0.997042 0.019057
-0.0595671 0.0527844 0.996828 0.0151145
-0.0570075 0.0501324 0.997114 0.013583
-0.0553579 0.0576862 0.996799 0.0120133
-0.0554068 0.062831 0.996485 0.0161949
-0.0593647 0.0727998 0.995578 0.0243196
-0.057162 0.0633997 0.99635 0.0225926
-0.0541753 -0.0676534 0.996237 0
-0.0536944 -0.0828887 0.995111 0
-0.0526202 -0.0872787 0.994793 0
-0.053045 -0.0737116 0.995868 0
-0.0559329 -0.0474312 0.997307 0.00912559
-0.0604179 -0.02162 0.997939 0.0187102
-0.0628232 -0.0110129 0.997964 0.0295964
-0.0649721 -0.00316899 0.997882 0.0380455
-0.0657844 -0.0013309 0.997833 0.041742
-0.0665519 0.00183808 0.997781 0.0433113
-0.0664887 -0.00577347 0.99777 0.0451764
-0.0642191 -0.00712407 0.99791 0.0435574
-0.0608782 -0.0167471 0.998005 0.0391291
-0.0583904 -0.0267806 0.997934 0.0339854
-0.0566975 -0.0276005 0.99801 0.0309716
-0.0545487 -0.0335505 0.997947 0.0240874
-0.0522681 -0.0404433 0.997814 0.0159331
-0.0491605 -0.0394423 0.998012 0.0130071
-0.0512638 -0.0349683 0.998073 0.0182654
-0.0493977 -0.0387755 0.998026 0.0119312
-0.048873 -0.0366105 0.998134 0.0151101
-0.0467235 -0.0290649 0.998485 0.00923869
-0.0457254 -0.0252804 0.998634 0.00521944
-0.0469918 -0.00967043 0.998848 0.00547666
-0.0481804 -0.00744552 0.998811 0.00459049
-0.0497457 -0.0130726 0.998676 0.00674524
-0.0500622 -0.00878442 0.998707 0.0070307
-0.0507113 -0.0101929 0.998661 0.0078891
-0.0498851 -0.0139426 0.998658 0.00716227
-0.0485978 -0.0139634 0.998721 0.00722607
-0.0502832 -0.0114169 0.99867 0.00528476
-0.0493644 -0.00750677 0.998753 0.00636046
-0.0492126 -0.0064519 0.998767 0.00348885
-0.0482913 -0.00510371 0.99882 0.00082128
-0.0493557 0.000381582 0.998781 0
-0.0497913 -0.00115773 0.998759 0
-0.0521362 0.00331225 0.998634 0
-0.0529953 0.00843276 0.998559 0
-0.0559114 0.0152709 0.998319 0
-0.0555961 0.018787 0.998277 0.000305026
-0.0546873 0.0179417 0.998342 0.00128284
-0.0577041 0.0231354 0.998066 0.00378797
-0.0565945 0.0215974 0.998164 0.00451421
-0.0581772 0.0299602 0.997857 0.00531712
-0.0605929 0.0365997 0.997491 0.00966433
-0.0630383 0.0287976 0.997596 0.00998034
-0.0641251 0.0425704 0.997033 0.0147581
-0.0623035 0.0441149 0.997082 0.0110815
-0.0604857 0.049446 0.996944 0.0112689
-0.0600242 0.0479528 0.997044 0.0117755
-0.0605266 0.0510057 0.996863 0.0126202
-0.0594268 0.0507759 0.99694 0.0110659
-0.0579919 0.0338056 0.997745 0.00733705
-0.0554771 0.0353844 0.997833 0.00577558
-0.0576678 0.0311532 0.99785 0.00630435
-0.0582762 0.0381573 0.997571 0.00734248
-0.0569873 0.0319648 0.997863 0.00124887
-0.0595595 0.0340571 0.997644 0.00194804
-0.0627903 0.0323482 0.997502 0
-0.0637241 0.0271348 0.997599 0
-0.0650813 0.029918 0.997431 0.00473119
-0.0625377 0.0314395 0.997547 0.0022551
-0.0630205 0.0341718 0.997427 0.00036464
-0.0642532 0.046216 0.996863 0.00137686
-0.0671956 0.0457619 0.99669 0.0047717
-0.0676842 0.0448334 0.996699 0.00213589
-0.0669861 0.0428802 0.996832 0.00311401
-0.0677397 0.0493969 0.996479 0.00509959
-0.0679567 0.0538187 0.996236 0.0088986
-0.0638016 0.0531635 0.996545 0.000590251
-0.0605192 0.0411848 0.997317 0
-0.0622322 0.0343931 0.997469 0
-0.0620213 0.0448594 0.997066 0
-0.0597205 0.0453421 0.997185 0
-0.0573517 0.0532346 0.996934 0
-0.0577235 0.0485507 0.997151 0
-0.0577754 0.0518174 0.996984 0
-0.0572313 0.0479455 0.997209 0
-0.0582548 0.0517079 0.996962 0.00304223
-0.0620892 0.0571344 0.996434 0.00741667
-0.0607313 0.0623692 0.996204 0.00766976
-0.0586301 0.06629 0.996076 0.00916807
-0.0603628 0.0650069 0.996058 0.0143197
-0.063792 0.0680173 0.995643 0.0251174
-0.0621193 0.0729714 0.995398 0.0218256
-0.0623255 0.0647784 0.995951 0.0168016
-0.0648796 0.0651067 0.995767 0.015551
-0.0699244 0.0563612 0.995959 0.0185278
-0.0712076 0.0551759 0.995934 0.0154166
-0.072401 0.0570957 0.99574 0.0111467
-0.0735683 0.0519575 0.995936 0.00380409
-0.0732163 0.0594982 0.99554 0
-0.0758215 0.0544304 0.995635 0.000455193
-0.0734894 0.0660916 0.995104 0
-0.0717776 0.0554645 0.995877 0
-0.068926 0.0515705 0.996288 0
-0.0663252 0.0435037 0.996849 0
-0.0651964 0.0408959 0.997034 0
-0.0654733 0.0448724 0.996845 0
-0.0636878 0.0393726 0.997193 0
-0.0614983 0.0366512 0.997434 0
-0.0613026 0.039051 0.997355 0
-0.0596502 0.0331958 0.997667 0
-0.0569205 0.0398345 0.997584 0
-0.0571199 0.0395869 0.997582 0
-0.0581153 0.0466976 0.997217 0
-0.0578349 0.0380452 0.997601 0
-0.0584145 0.0418914 0.997413 0
-0.0593691 0.0356917 0.997598 0
-0.0621647 0.0384267 0.997326 0
-0.0626481 0.0316148 0.997535 0
-0.0612749 0.0278613 0.997732 0
-0.0645734 0.0225224 0.997659 0
-0.0665537 0.0174929 0.997629 0
-0.0679754 0.0210527 0.997465 0.00365196
-0.0676151 0.0196995 0.997517 0.00677894
-0.0639828 0.0202354 0.997746 0.011006
-0.0654649 0.027562 0.997474 0.0220772
-0.0672362 0.0391013 0.996971 0.029467
-0.0703926 0.0357332 0.996879 0.0355937
-0.0727941 0.03463 0.996746 0.0392012
-0.0718131 0.0383187 0.996682 0.0385815
-0.0715831 0.0291421 0.997009 0.0360968
-0.0714277 0.0340126 0.996866 0.0340069
-0.0716096 0.0270154 0.997067 0.0326021
-0.0687357 0.0230832 0.997368 0.0266008
-0.06543 0.00975658 0.997809 0.0252788
-0.061837 0.0073903 0.998059 0.0175726
-0.0575172 -0.000129223 0.998344 0.00348844
-0.0582081 0.00255958 0.998301 0
-0.0586301 0.00465815 0.998269 0
-0.0601972 -0.00393003 0.998179 0
-0.0597014 -0.00513403 0.998203 0
-0.0573747 -0.00735584 0.998326 0
-0.0573603 -0.0059631 0.998336 0
-0.0549879 -0.00561404 0.998471 0
-0.0568748 -0.00724425 0.998355 0
-0.053451 -0.0161623 0.99844 0
-0.0503457 -0.026231 0.998387 0
-0.0457053 -0.0400217 0.998153 0
-0.0454773 -0.0367077 0.998291 0
-0.0433918 -0.0492189 0.997845 0
-0.0459743 -0.0473371 0.99782 0
-0.0479921 -0.0515509 0.997517 0
-0.0463399 -0.0573496 0.997278 0
-0.0487857 -0.0533024 0.997386 0
-0.0492644 -0.0544936 0.997298 0
-0.0525924 -0.0425943 0.997707 0
-0.0527481 -0.0435975 0.997656 0
-0.0567204 -0.0334816 0.997829 0
-0.0610226 -0.0387327 0.997385 0
-0.0632349 -0.0365309 0.99733 0
-0.0629586 -0.0301939 0.997559 0
-0.0627524 -0.0258699 0.997694 0
-0.0642954 -0.0116231 0.997863 0
-0.0648534 -0.00686273 0.997871 0.00530951
-0.0661368 0.00366553 0.997804 0.0121118
-0.0669625 -0.00456518 0.997745 0.0133659
-0.0693576 -0.000511749 0.997592 0.0184984
-0.0672023 -0.00157614 0.997738 0.0205372
-0.0652914 -0.000810949 0.997866 0.022342
-0.0632394 -0.00193075 0.997997 0.0255736
-0.0612041 -0.0127539 0.998044 0.0262795
-0.0617841 -0.0137578 0.997995 0.0281948
-0.061762 -0.0222131 0.997844 0.0250329
-0.0613107 -0.0209622 0.997899 0.0170792
-0.0618415 -0.0208913 0.997867 0.0145062
-0.0626542 -0.012342 0.997959 0.0146535
-0.0651954 -0.0130911 0.997787 0.0177851
-0.0689649 -0.0137011 0.997525 0.0200758
-0.0717481 -0.015366 0.997304 0.0238385
-0.0719352 -0.0157999 0.997284 0.0254499
-0.072617 -0.0145158 0.997254 0.0238536
-0.0715034 -0.0155359 0.997319 0.0229969
-0.0701622 -0.0159446 0.997408 0.0225386
-0.0685899 -0.0224444 0.997392 0.0197875
-0.0660466 -0.0256604 0.997487 0.0118869
-0.0679658 -0.0238875 0.997402 0.00966565
-0.0677 -0.0202867 0.997499 0.00750166
-0.0681897 -0.0164146 0.997537 0.00417258
-0.069367 -0.0120181 0.997519 0.00575684
-0.070596 -0.00672204 0.997482 0.00826752
-0.0667022 -0.0122781 0.997697 0.000442325
-0.0636314 -0.0229517 0.99771 0
-0.0606116 -0.0232948 0.99789 0
-0.0573778 -0.0302842 0.997893 0
-0.0539615 -0.0317115 0.998039 0
-0.0509803 -0.0458143 0.997648 0
-0.0484937 -0.0567088 0.997212 0
-0.0477753 -0.0600006 0.997054 0
-0.0478987 -0.0656131 0.996695 0
-0.0494527 -0.0650046 0.996659 0
-0.0542483 -0.0665886 0.996305 0
-0.0560628 -0.0699447 0.995974 0
-0.0569307 -0.0678687 0.996069 0
-0.0597594 -0.0686783 0.995847 0
-0.0572191 -0.0655459 0.996208 0
-0.0541815 -0.0732675 0.995839 0
-0.0541883 -0.0619444 0.996607 0
-0.0536313 -0.0682086 0.996229 0
-0.0534247 -0.0606553 0.996728 0
-0.0511398 -0.0626732 0.996723 0
-0.0491935 -0.0540984 0.997323 0
-0.0497112 -0.0485037 0.997585 0
-0.0495534 -0.0402558 0.99796 0
-0.0493406 -0.0379645 0.99806 0
-0.0506182 -0.0269406 0.998355 0
-0.0531224 -0.0218601 0.998349 0
-0.0540898 -0.0140634 0.998437 0
-0.0554383 -0.0180377 0.998299 0
-0.0573768 -0.0111974 0.99829 0
-0.0582815 -0.0142322 0.998199 0
-0.0641511 -0.00975293 0.997892 0
-0.0693181 -0.0141677 0.997494 0
-0.073721 -0.0117948 0.997209 0
-0.0741198 -0.0168421 0.997107 0
-0.0756924 -0.0162544 0.996999 0
-0.0754204 -0.019299 0.996965 0
-0.0759579 -0.0166376 0.996972 0
-0.0753343 -0.01623 0.997026 0
-0.0764687 -0.00832779 0.997037 0.00377051
-0.0758893 -0.0133906 0.997026 0.00642916
-0.0759941 -0.00947017 0.997063 0.0100075
-0.0744016 -0.00728994 0.997202 0.0094105
-0.0741246 -0.00812592 0.997216 0.0100188
-0.0742779 -0.0117508 0.997168 0.00741358
-0.0719803 -0.0143891 0.997302 0.00651675
-0.0716673 -0.0121407 0.997355 0.0119228
-0.070772 -0.00605749 0.997474 0.0177849
-0.0722205 -0.00191501 0.997387 0.0204558
-0.0728555 0.00497285 0.99733 0.0222383
-0.0707676 -0.000531321 0.997493 0.0207448
-0.0708417 -0.0022237 0.997485 0.0173453
-0.0758982 -0.000335272 0.997116 0.0245312
-0.0789274 -0.00558952 0.996865 0.0256978
-0.084473 -0.00354118 0.996419 0.0312563
-0.0885689 0.00129513 0.996069 0.0349477
-0.0896146 0.000754634 0.995976 0.0370451
-0.0868144 0.003459 0.996219 0.0371482
-0.0844266 -0.00183162 0.996428 0.0373865
-0.0811507 -0.000880445 0.996701 0.0368484
-0.0807595 -0.00508247 0.996721 0.0405992
-0.0773219 -0.0057225 0.99699 0.0417485
-0.0815881 -0.00900817 0.996625 0.0474033
-0.0844346 -0.00509401 0.996416 0.0479202
-0.0855268 -0.0100242 0.996285 0.0433501
-0.0836141 -0.0192838 0.996312 0.0399224
-0.0868043 -0.0202137 0.99602 0.0430144
-0.0888222 -0.0234356 0.995772 0.0398926
-0.0898412 -0.0227096 0.995697 0.0352917
-0.0895201 -0.0259186 0.995648 0.0336392
-0.0907055 -0.0220445 0.995634 0.03082
-0.0881202 -0.0197605 0.995914 0.0280354
-0.0876817 -0.0183282 0.99598 0.0327862
-0.085926 -0.0137079 0.996207 0.0367032
-0.0805546 -0.00826479 0.996716 0.0363498
-0.077065 -0.0111235 0.996964 0.0315261
-0.0730126 -0.0163339 0.997197 0.0261235
-0.0697156 -0.0266919 0.99721 0.0199945
-0.0675288 -0.0377304 0.997004 0.0130273
-0.0702243 -0.0417211 0.996658 0.00996137
-0.0749202 -0.0360649 0.996537 0.0130579
-0.0819267 -0.0331728 0.996086 0.0202899
-0.0892186 -0.0240999 0.99572 0.0257894
-0.0947553 -0.0238777 0.995214 0.0294974
-0.0977446 -0.0246265 0.994907 0.0317514
-0.0985283 -0.0283607 0.99473 0.0334377
-0.095208 -0.0347349 0.994851 0.0307152
-0.0913325 -0.0404907 0.994997 0.0261607
-0.0850397 -0.0468553 0.995275 0.0202735
-0.0754209 -0.0622087 0.995209 0.00605604
-0.0695799 -0.0744703 0.994793 0
-0.0659804 -0.0795936 0.994641 0
-0.0617342 -0.0932708 0.993725 0
-0.0592158 -0.0830346 0.994786 0
-0.0588826 -0.0871478 0.994454 0
-0.060941 -0.0771985 0.995152 0
-0.0622675 -0.0658567 0.995884 0
-0.0638854 -0.0575244 0.996298 0.00609895
-0.0640185 -0.05252 0.996566 0.0118391
-0.065662 -0.0520143 0.996485 0.0140185
-0.0629698 -0.0440839 0.997041 0.010395
-0.0606275 -0.0514279 0.996835 0.00551352
-0.0584349 -0.0550721 0.996771 0
-0.059109 -0.05866 0.996527 0
-0.0617972 -0.0612579 0.996207 0
-0.0645792 -0.0628281 0.995933 0
-0.0667412 -0.0707047 0.995262 0
-0.0692112 -0.0711289 0.995063 0.00153955
-0.0702866 -0.0813046 0.994208 0.000796283
-0.067991 -0.084628 0.99409 0
-0.0663701 -0.0829049 0.994345 0
-0.0672595 -0.0886404 0.99379 0
-0.0667393 -0.088907 0.993802 0
-0.0602539 -0.100509 0.99311 0
-0.0577588 -0.104906 0.992803 0
-0.055631 -0.111241 0.992235 0
-0.0561282 -0.110522 0.992287 0
-0.0572718 -0.112491 0.992001 0
-0.055841 -0.117266 0.991529 0
-0.0557383 -0.11103 0.992253 0
-0.056379 -0.112573 0.992043 0
-0.0574587 -0.116692 0.991505 0
-0.057812 -0.107809 0.992489 0
-0.0580712 -0.106436 0.992622 0.00325297
-0.0576616 -0.0970362 0.993609 0.00618151
-0.0542219 -0.104494 0.993046 0
-0.0540452 -0.104748 0.993029 0
-0.0522066 -0.109363 0.99263 0
-0.0542419 -0.11555 0.99182 0
-0.0566279 -0.11314 0.991964 0
-0.0572388 -0.115158 0.991697 0
-0.0573015 -0.115811 0.991617 0
-0.0548456 -0.124765 0.990669 0
-0.0584335 -0.118904 0.991185 0
-0.0583841 -0.124346 0.99052 0
-0.0574169 -0.123 0.990744 0
-0.0581425 -0.119011 0.991189 0
-0.0601211 -0.112884 0.991788 0
-0.0597594 -0.1243 0.990443 0
-0.0575754 -0.121865 0.990875 0
-0.0583145 -0.124339 0.990525 0
-0.0590169 -0.108676 0.992324 0
-0.0584907 -0.109683 0.992244 0.00443745
-0.0601908 -0.102771 0.992882 0.014579
-0.064482 -0.100835 0.992811 0.0198696
-0.0674644 -0.102272 0.992466 0.024717
-0.0676362 -0.102099 0.992472 0.0251812
-0.0661516 -0.0954811 0.993231 0.0252814
-0.0591644 -0.102311 0.992991 0.00976836
-0.055793 -0.106974 0.992695 0.00538326
-0.059038 -0.0974187 0.993491 0.014691
-0.0618892 -0.0881264 0.994185 0.0200092
-0.0646614 -0.0823578 0.994503 0.0257338
-0.065601 -0.0745289 0.995059 0.0251562
-0.0652822 -0.0772015 0.994876 0.0259296
-0.0620705 -0.0711966 0.995529 0.0260144
-0.0673334 -0.0734555 0.995023 0.0322869
-0.067156 -0.0625502 0.99578 0.0321542
-0.0703124 -0.0548969 0.996013 0.0359248
-0.0690843 -0.046839 0.996511 0.0336738
-0.0663329 -0.045961 0.996738 0.0329645
-0.0647353 -0.0636152 0.995873 0.0280996
-0.0706789 -0.0507549 0.996207 0.036998
-0.0701222 -0.045321 0.996508 0.0344064
-0.0700319 -0.0414921 0.996682 0.0371888
-0.071345 -0.0341988 0.996865 0.0414755
-0.0733197 -0.0326115 0.996775 0.0420928
-0.0711702 -0.0277865 0.997077 0.0377997
-0.0742791 -0.0249721 0.996925 0.0408856
-0.0739727 -0.026521 0.996908 0.0389252
-0.0676684 -0.0348342 0.9971 0.0357534
-0.0624212 -0.0330616 0.997502 0.0314773
-0.0599742 -0.0316441 0.997698 0.0261345
-0.0616433 -0.0423002 0.997202 0.0200287
-0.0612856 -0.03548 0.99749 0.0180493
-0.0613753 -0.0427389 0.997199 0.0240674
-0.0599809 -0.0415347 0.997335 0.027768
-0.0620327 -0.0354984 0.997443 0.0314804
-0.0602373 -0.0338173 0.997611 0.0290148
-0.0589978 -0.0431827 0.997324 0.0272248
-0.0597323 -0.0509784 0.996912 0.0291014
-0.0606332 -0.0455988 0.997118 0.0305305
-0.0613359 -0.039223 0.997346 0.0315062
-0.0625632 -0.0362645 0.997382 0.0313322
-0.0623941 -0.0348544 0.997443 0.0292918
-0.0620873 -0.0349413 0.997459 0.028259
-0.0623358 -0.0511983 0.996741 0.0255836
-0.0614329 -0.0511294 0.996801 0.0224076
-0.0596644 -0.0413039 0.997364 0.0237266
-0.0534006 -0.0459661 0.997515 0.0166787
-0.0510662 -0.0408506 0.99786 0.0122759
-0.0499901 -0.0368192 0.998071 0.011519
-0.0503453 -0.0387118 0.997981 0.0120175
-0.052125 -0.0268132 0.998281 0.0139421
-0.0508666 -0.0206212 0.998493 0.00957832
-0.0519586 -0.00449155 0.998639 0.0126428
-0.0511812 -0.00617201 0.99867 0.0100089
-0.0542208 0.00318178 0.998524 0.0148959
-0.05722 0.000278796 0.998362 0.0209075
-0.0601338 -0.000501786 0.99819 0.0287618
-0.0618168 0.0135103 0.997996 0.0316457
-0.0646219 0.0239632 0.997622 0.0416785
-0.0623068 0.0089019 0.998017 0.0354746
-0.0599013 0.0270656 0.997837 0.0320679
-0.0577253 0.019599 0.99814 0.0259415
-0.0559669 0.0190948 0.99825 0.0199546
-0.0554587 0.028878 0.998043 0.0185167
-0.0585475 0.0442265 0.997304 0.0284252
-0.0600709 0.042899 0.997272 0.0323483
-0.0609309 0.0576017 0.996478 0.0366401
-0.0629651 0.0827702 0.994578 0.0386855
-0.0656526 0.0962225 0.993192 0.0420845
-0.0674693 0.113257 0.991272 0.0456007
-0.0645216 0.099073 0.992986 0.0374616
-0.0601454 0.0742456 0.995425 0.0285919
-0.0552113 0.041207 0.997624 0.0166359
-0.0532815 0.0280119 0.998187 0.0116895
-0.0525533 0.0429785 0.997693 0.010094
-0.0504427 0.0508397 0.997432 0.00700855
-0.0480631 0.046597 0.997757 0.00350529
-0.0455127 0.0495724 0.997733 0.000852785
-0.0500331 0.0815632 0.995412 0.0163752
-0.0533492 0.132005 0.989812 0.0246187
-0.0541668 -0.0805747 0.995276 0
-0.0553413 -0.0831754 0.994997 0
-0.0538389 -0.0869218 0.994759 0
-0.0540866 -0.0878928 0.99466 0
-0.0567725 -0.068312 0.996047 0.00543149
-0.0594005 -0.041823 0.997358 0.014939
-0.0615815 -0.0195903 0.99791 0.0211115
-0.064009 -0.00978469 0.997901 0.0282826
-0.0660276 -0.0071264 0.997792 0.0345089
-0.0691195 0.00809736 0.997576 0.0439327
-0.0680654 0.00660863 0.997659 0.0438089
-0.0648059 0.00382698 0.997891 0.04418
-0.0629965 0.00336363 0.998008 0.0440376
-0.0599496 -0.0130728 0.998116 0.0367771
-0.0556003 -0.0255692 0.998126 0.0297719
-0.0544771 -0.0321776 0.997996 0.027009
-0.0520995 -0.0426971 0.997729 0.0240581
-0.0513134 -0.0388611 0.997926 0.023595
-0.0502197 -0.039576 0.997954 0.0189617
-0.0484921 -0.0434824 0.997877 0.0155411
-0.0465078 -0.0418279 0.998042 0.0109414
-0.0456042 -0.0370993 0.99827 0.00331777
-0.0455981 -0.026826 0.9986 0.00115934
-0.0448914 -0.0273549 0.998617 0
-0.0474584 -0.0185126 0.998702 0.000235809
-0.0475422 -0.0183935 0.9987 0
-0.0502062 -0.00899857 0.998698 0.00519436
-0.0539343 -0.00992186 0.998495 0.0130277
-0.052052 -0.0167789 0.998503 0.0124581
-0.0511314 -0.0149217 0.99858 0.0106203
-0.0488821 -0.0114009 0.998739 0.00669131
-0.0501838 -0.0110529 0.998679 0.00300112
-0.0478734 -0.0108855 0.998794 0
-0.0498348 -0.0101746 0.998706 0
-0.0507117 -0.000909922 0.998713 0
-0.0528956 -0.000991863 0.9986 0
-0.0529158 0.00617959 0.99858 0
-0.0541354 0.00889073 0.998494 0
-0.0511837 0.00558752 0.998674 0
-0.0521049 0.0128996 0.998558 0.00131745
-0.0557751 0.0183008 0.998276 0.00403728
-0.0568966 0.0216938 0.998144 0.00529214
-0.0590331 0.0237683 0.997973 0.00773143
-0.0625772 0.0295582 0.997602 0.00960014
-0.0617469 0.0277814 0.997705 0.0112768
-0.0639248 0.0322536 0.997433 0.0143267
-0.0627726 0.0416503 0.997158 0.0141137
-0.0623644 0.0425903 0.997144 0.0110457
-0.0610421 0.0473287 0.997012 0.0127702
-0.0607681 0.0449706 0.997138 0.0164522
-0.0630104 0.0524025 0.996636 0.0157962
-0.0642851 0.0541849 0.996459 0.0128135
-0.0620629 0.0433636 0.99713 0.00770738
-0.0582385 0.0330288 0.997756 0.00476298
-0.0613623 0.0306682 0.997644 0.00381676
-0.0614831 0.0314327 0.997613 0.00289502
-0.0634502 0.0266325 0.99763 0.00465321
-0.0620368 0.0285396 0.997666 0.00231428
-0.0620249 0.0278748 0.997685 0.00420554
-0.0630599 0.0264966 0.997658 0.00464609
-0.0636773 0.0343387 0.99738 0.0108381
-0.0639512 0.0374915 0.997248 0.0102156
-0.0615828 0.0382622 0.997368 0.00236455
-0.066169 0.0446679 0.996808 0.00315412
-0.0666799 0.0475648 0.99664 0.00271846
-0.0651513 0.0475072 0.996744 0.00413801
-0.0673143 0.0496047 0.996498 0.008533
-0.0657345 0.0473598 0.996713 0.00554331
-0.0678763 0.0453845 0.996661 0.00381318
-0.0660771 0.052567 0.996429 4.75476e-06
-0.0666365 0.0460923 0.996712 0
-0.0670626 0.037461 0.997045 0
-0.0675945 0.0486522 0.996526 0
-0.0636222 0.0474618 0.996845 0
-0.060788 0.0552384 0.996621 0
-0.0576538 0.0490889 0.997129 0
-0.0551286 0.0500663 0.997223 0
-0.0561163 0.0467604 0.997329 0
-0.0564258 0.0533205 0.996982 0
-0.0578395 0.0555696 0.996778 0.000870458
-0.0589107 0.0568255 0.996645 0.00622881
-0.0609863 0.0606258 0.996296 0.0123443
-0.0617231 0.0633104 0.996083 0.0163015
-0.0622491 0.0602231 0.996242 0.0215774
-0.0637492 0.0691193 0.995569 0.0213183
-0.0651205 0.0686026 0.995516 0.0222014
-0.0667599 0.0750976 0.994939 0.0230055
-0.0710616 0.0718813 0.994879 0.0239309
-0.0750867 0.0725024 0.994538 0.0234496
-0.0748843 0.0620241 0.995261 0.016932
-0.0761272 0.0626434 0.995128 0.0100449
-0.0759826 0.0590315 0.99536 0.00287837
-0.0743234 0.0591305 0.99548 0
-0.0759903 0.0620343 0.995177 0.00156008
-0.0754539 0.0597459 0.995358 0.00300485
-0.0703914 0.0480926 0.996359 0
-0.0666696 0.043231 0.996838 0
-0.0644187 0.0410938 0.997077 0
-0.0617813 0.0406361 0.997262 0
-0.0615837 0.0400852 0.997297 0
-0.0600302 0.0306828 0.997725 0
-0.0610689 0.0379081 0.997413 0
-0.0608615 0.0319787 0.997634 0
-0.0602447 0.0402565 0.997372 0
-0.0594454 0.0370194 0.997545 0
-0.0591969 0.0441783 0.997268 0
-0.0586694 0.0436403 0.997323 0
-0.0566738 0.0454618 0.997357 0
-0.0575281 0.0345299 0.997747 0
-0.0583028 0.0361866 0.997643 0
-0.0615028 0.0321694 0.997588 0
-0.0630611 0.0315788 0.99751 0
-0.0662812 0.0252861 0.997481 0
-0.0686173 0.0239013 0.997357 0
-0.0705985 0.0227138 0.997246 0
-0.072005 0.022266 0.997156 0.00669558
-0.0724572 0.0294563 0.996936 0.0114646
-0.0737567 0.0329033 0.996733 0.0178042
-0.0733016 0.0371168 0.996619 0.0247104
-0.0716548 0.0322794 0.996907 0.0294027
-0.0722926 0.0312883 0.996893 0.0336353
-0.0684742 0.0356984 0.997014 0.0319766
-0.06976 0.0359414 0.996916 0.0354026
-0.0695931 0.0324687 0.997047 0.0314762
-0.0701552 0.033395 0.996977 0.0315557
-0.0661052 0.0280571 0.997418 0.0281528
-0.0631414 0.020669 0.997791 0.0252336
-0.0600595 0.011344 0.99813 0.0211148
-0.0588148 0.00396918 0.998261 0.0140055
-0.0585508 0.00259971 0.998281 0.00846284
-0.0574326 0.00222285 0.998347 0
-0.0576233 -0.00217256 0.998336 0
-0.0558663 -0.00991388 0.998389 0
-0.0567751 -0.0139613 0.998289 0
-0.0573547 -0.0130223 0.998269 0
-0.0572991 -0.0168175 0.998215 0
-0.0547627 -0.018008 0.998337 0
-0.0530801 -0.0242995 0.998295 0
-0.0521149 -0.0250415 0.998327 0
-0.050372 -0.0362833 0.998071 0
-0.0480105 -0.0371651 0.998155 0
-0.0460509 -0.0463631 0.997863 0
-0.0461028 -0.0499832 0.997685 0
-0.0457484 -0.0521554 0.997591 0
-0.0463466 -0.049504 0.997698 0
-0.0466498 -0.0518809 0.997563 0
-0.0487219 -0.0560337 0.997239 0
-0.0509381 -0.0447905 0.997697 0
-0.0537249 -0.0341677 0.997971 0
-0.0554564 -0.0287196 0.998048 0
-0.0575306 -0.0283667 0.997941 0
-0.0621081 -0.0318023 0.997563 0
-0.0626861 -0.0232587 0.997762 0
-0.0633976 -0.0226259 0.997732 0.000380867
-0.0669172 -0.0109752 0.997698 0.00373996
-0.0681675 -0.00304489 0.997669 0.00721423
-0.0723198 0.00302783 0.997377 0.0130751
-0.0730552 0.00276754 0.997324 0.0155088
-0.0758626 0.00170127 0.997117 0.0237415
-0.0746019 0.00342505 0.997207 0.0268006
-0.0694264 0.00111383 0.997586 0.025204
-0.0688168 0.00262201 0.997626 0.0310764
-0.0636409 -0.00475962 0.997962 0.0287068
-0.060249 -0.0147486 0.998074 0.0264624
-0.0596965 -0.0222407 0.997969 0.0196289
-0.0591606 -0.0288262 0.997832 0.0125857
-0.0609362 -0.0251741 0.997824 0.010078
-0.0623151 -0.0152242 0.99794 0.0109639
-0.0624373 -0.0168659 0.997906 0.0146318
-0.06139 -0.0203613 0.997906 0.0120977
-0.0583857 -0.0301588 0.997838 0.00806641
-0.0576626 -0.0365823 0.997666 0.00834169
-0.0609199 -0.0301155 0.997688 0.00913118
-0.0621948 -0.0300552 0.997611 0.0123941
-0.0625023 -0.0224101 0.997793 0.0109199
-0.0653566 -0.0316904 0.997359 0.0127438
-0.0679563 -0.0315023 0.997191 0.00799028
-0.0703361 -0.0318915 0.997013 0.00822998
-0.0689552 -0.0291796 0.997193 0.000160435
-0.0700821 -0.0237652 0.997258 0
-0.0684635 -0.0250085 0.99734 0
-0.0662074 -0.0265057 0.997454 0
-0.0628707 -0.0362678 0.997362 0
-0.0611366 -0.0342897 0.99754 0
-0.0596954 -0.0339477 0.997639 0
-0.0581509 -0.0297294 0.997865 0
-0.0543001 -0.0352354 0.997903 0
-0.0506682 -0.0413734 0.997858 0
-0.0481913 -0.060234 0.99702 0
-0.0461625 -0.062089 0.997002 0
-0.0433528 -0.0715834 0.996492 0
-0.0454154 -0.0626795 0.997 0
-0.0461051 -0.0647233 0.996838 0
-0.0468447 -0.0648174 0.996797 0
-0.0499932 -0.0679073 0.996438 0
-0.0530729 -0.0659326 0.996412 0
-0.0542277 -0.0648259 0.996422 0
-0.0537139 -0.0635323 0.996533 0
-0.0560988 -0.0611668 0.99655 0
-0.0571331 -0.0632337 0.996362 0
-0.0591359 -0.0563006 0.996661 0
-0.0596908 -0.052683 0.996826 0
-0.0607193 -0.0473679 0.99703 0
-0.0583524 -0.0384562 0.997555 0
-0.059012 -0.032191 0.997738 0
-0.0607104 -0.0280597 0.997761 0
-0.0642737 -0.0144165 0.997828 0
-0.0655614 -0.0131533 0.997762 0
-0.0659447 0.00216209 0.997821 0
-0.0614076 -0.00816245 0.998079 0
-0.0604321 -0.00213013 0.99817 0
-0.0614421 -0.00681369 0.998087 0
-0.0626175 -0.00293851 0.998033 0
-0.0681866 -0.00558194 0.997657 0
-0.07036 -0.00208457 0.997519 0
-0.0724529 -0.00420973 0.997363 0
-0.0725081 -0.000934199 0.997367 0
-0.0778485 -0.00461221 0.996955 0.000939939
-0.0801024 -0.00539785 0.996772 0.0043551
-0.082568 -0.00725157 0.996559 0.00761445
-0.0825251 -0.000325883 0.996589 0.00980525
-0.0837507 -0.00432141 0.996477 0.0148338
-0.0830851 -1.62031e-05 0.996542 0.0159894
-0.0822216 -0.00664834 0.996592 0.015796
-0.0819376 -0.00689927 0.996614 0.0142835
-0.0792305 -0.0171907 0.996708 0.0102574
-0.0774915 -0.0101391 0.996942 0.0123836
-0.0754654 -0.00991078 0.997099 0.0148501
-0.0756013 -0.00674358 0.997115 0.0155068
-0.0744381 -0.00443657 0.997216 0.0176064
-0.0742849 0.00228223 0.997234 0.0201348
-0.0719219 -0.000827114 0.99741 0.022948
-0.0715644 -0.000107423 0.997436 0.0241082
-0.0722991 -0.00487484 0.997371 0.0248707
-0.075885 -0.000446667 0.997117 0.0284597
-0.0805351 -0.00514409 0.996738 0.0319612
-0.0838395 0.0053722 0.996465 0.0381011
-0.0880243 0.00546798 0.996103 0.0438692
-0.0900851 0.0164289 0.995799 0.0474116
-0.0899587 0.0177445 0.995787 0.0505995
-0.0886243 0.017171 0.995917 0.0449982
-0.0844978 0.00870369 0.996386 0.0419479
-0.0812719 0.00347267 0.996686 0.0440917
-0.0849166 0.0020364 0.996386 0.04792
-0.0890488 0.00123971 0.996027 0.0481165
-0.0897468 -0.00726382 0.995938 0.0420505
-0.0901428 -0.0170801 0.995782 0.0382897
-0.0943037 -0.0227772 0.995283 0.0397819
-0.0960573 -0.0169378 0.995232 0.0438452
-0.0977257 -0.0164011 0.995078 0.0433222
-0.0948744 -0.018398 0.995319 0.0368127
-0.0908367 -0.0182212 0.995699 0.0280387
-0.0866411 -0.0236607 0.995959 0.0244106
-0.0807949 -0.0258444 0.996396 0.0228771
-0.0762652 -0.0262937 0.996741 0.0244655
-0.0758716 -0.0123682 0.997041 0.0305248
-0.0742992 -0.0192543 0.99705 0.0259129
-0.0726308 -0.0206173 0.997146 0.0221217
-0.0702021 -0.0304356 0.997068 0.015824
-0.0711634 -0.0333519 0.996907 0.0164073
-0.071806 -0.0383281 0.996682 0.0152449
-0.0741034 -0.0324772 0.996722 0.0193511
-0.0810985 -0.029226 0.996278 0.0225144
-0.0881287 -0.0202607 0.995903 0.0274507
-0.0951066 -0.0155244 0.995346 0.0309056
-0.0956454 -0.0187122 0.99524 0.0319353
-0.0965508 -0.0302872 0.994867 0.0339279
-0.0929314 -0.03158 0.995172 0.0271999
-0.0888497 -0.0414358 0.995183 0.0182764
-0.0865308 -0.0501929 0.994984 0.0124712
-0.0814208 -0.0556811 0.995123 0.00435086
-0.076705 -0.0685953 0.994691 0
-0.0724679 -0.0774638 0.994358 0
-0.069968 -0.0846451 0.993952 0
-0.0654157 -0.0830162 0.994399 0
-0.0650407 -0.0805622 0.994625 0
-0.0665862 -0.0729153 0.995113 0
-0.0671686 -0.0677882 0.995436 0
-0.0653555 -0.0612058 0.995983 0.00339172
-0.0623582 -0.060571 0.996214 0.00592372
-0.0605904 -0.0524771 0.996782 0.0126666
-0.0572082 -0.0513482 0.997041 0.00637189
-0.0597299 -0.0495321 0.996985 0.00588386
-0.0563262 -0.0558152 0.996851 0
-0.0551707 -0.0602129 0.99666 0
-0.0552118 -0.0656369 0.996315 0
-0.0570999 -0.0661516 0.996174 0
-0.0587161 -0.0736152 0.995557 0
-0.0644162 -0.0758867 0.995034 0
-0.0677317 -0.0791087 0.994562 0
-0.069853 -0.0817088 0.994205 0
-0.0705002 -0.0863809 0.993765 0
-0.0727045 -0.0858203 0.993654 0
-0.0700103 -0.0968589 0.992833 0
-0.0635019 -0.103408 0.99261 0
-0.0590918 -0.107738 0.992422 0
-0.0569936 -0.107691 0.992549 0
-0.0564403 -0.112507 0.992047 0
-0.0548127 -0.116498 0.991677 0
-0.0555026 -0.114208 0.991905 0
-0.0562033 -0.11323 0.991978 0
-0.05944 -0.11165 0.991968 0
-0.0603193 -0.117056 0.991292 0
-0.0587566 -0.113158 0.991838 0
-0.06047 -0.10554 0.992575 0.00278023
-0.0572899 -0.0985246 0.993484 0.00144588
-0.0515476 -0.106901 0.992933 0
-0.0537195 -0.103978 0.993128 0
-0.05254 -0.112282 0.992286 0
-0.0539742 -0.108276 0.992655 0
-0.056451 -0.114601 0.991806 0
-0.0562869 -0.114949 0.991775 0
-0.054767 -0.116287 0.991705 0
-0.0577982 -0.119157 0.991192 0
-0.0590742 -0.119873 0.99103 0
-0.0626168 -0.123947 0.990311 0
-0.0631395 -0.11817 0.990984 0
-0.0636686 -0.118093 0.990959 0
-0.0652536 -0.109786 0.991811 0
-0.0623935 -0.120285 0.990777 0
-0.0593335 -0.121205 0.990853 0
-0.0570806 -0.121117 0.990996 0
-0.0576446 -0.107934 0.992485 0
-0.0569495 -0.101595 0.993194 0.00473012
-0.0577196 -0.0996182 0.99335 0.0126283
-0.0604622 -0.0984748 0.993301 0.0178218
-0.0625482 -0.105904 0.992407 0.0196806
-0.0651577 -0.105221 0.992312 0.0249775
-0.0660191 -0.0968786 0.993104 0.0246581
-0.0604598 -0.104278 0.992709 0.0145652
-0.0545563 -0.104078 0.993072 0
-0.0576576 -0.102829 0.993027 0.00966086
-0.0562565 -0.0993651 0.993459 0.0157611
-0.0612002 -0.0883609 0.994207 0.0231452
-0.0622628 -0.0809529 0.994771 0.0239621
-0.0619338 -0.0790749 0.994943 0.0190562
-0.0648176 -0.068487 0.995544 0.0266067
-0.067426 -0.0705474 0.995227 0.0315535
-0.0692268 -0.0627686 0.995624 0.0329316
-0.0699023 -0.0594182 0.995783 0.0313566
-0.0700577 -0.05568 0.995988 0.0313977
-0.0679018 -0.0548568 0.996183 0.0288638
-0.0680137 -0.0576906 0.996015 0.031041
-0.0720891 -0.0520376 0.99604 0.037099
-0.0730546 -0.0397312 0.996536 0.0393705
-0.0716659 -0.0368358 0.996748 0.0401593
-0.073642 -0.0308666 0.996807 0.0415878
-0.0741056 -0.0300863 0.996796 0.0458007
-0.0749021 -0.0231816 0.996921 0.0455331
-0.073929 -0.0186424 0.997089 0.0422054
-0.0700232 -0.0211517 0.997321 0.0377668
-0.0695769 -0.0244135 0.997278 0.0321905
-0.0664761 -0.0307803 0.997313 0.0279891
-0.0658659 -0.0397801 0.997035 0.0273279
-0.0638695 -0.0427549 0.997042 0.0243347
-0.0641486 -0.0357477 0.9973 0.026516
-0.0632608 -0.0322387 0.997476 0.0286908
-0.0616272 -0.0349416 0.997487 0.0293151
-0.0565438 -0.0472991 0.997279 0.0236869
-0.0569276 -0.04132 0.997523 0.0257862
-0.0570127 -0.0440408 0.997402 0.0272244
-0.0573945 -0.0406608 0.997523 0.0285695
-0.0607089 -0.035316 0.997531 0.0330652
-0.0615294 -0.0307261 0.997632 0.0347835
-0.0614327 -0.0341355 0.997527 0.0319263
-0.0604642 -0.0261058 0.997829 0.0314602
-0.0608556 -0.0325128 0.997617 0.0313805
-0.0604161 -0.0442121 0.997194 0.0268583
-0.0557037 -0.0537687 0.996999 0.0208927
-0.0575707 -0.0474375 0.997214 0.0200378
-0.0529471 -0.0478608 0.99745 0.0131329
-0.0497396 -0.058022 0.997075 0.00985624
-0.0480927 -0.0459518 0.997785 0.00748221
-0.0491678 -0.0458175 0.997739 0.0071595
-0.0500638 -0.0299491 0.998297 0.00422397
-0.0518607 -0.0282434 0.998255 0.00926891
-0.0509506 -0.0216353 0.998467 0.00745054
-0.0516046 -0.0113935 0.998603 0.00491538
-0.0524335 -0.0061119 0.998606 0.0119413
-0.0561896 0.00195042 0.998418 0.022344
-0.0600566 0.00878946 0.998156 0.0302918
-0.0643401 0.023187 0.997659 0.0375394
-0.0647883 0.0241626 0.997607 0.0377092
-0.0638368 0.027892 0.997571 0.0373503
-0.0615921 0.0127253 0.99802 0.0322657
-0.0595769 0.0194531 0.998034 0.0279115
-0.0561112 0.0330574 0.997877 0.0261547
-0.057276 0.0385931 0.997612 0.0288414
-0.0582275 0.0396204 0.997517 0.029141
-0.0595192 0.0495773 0.996995 0.0335457
-0.062526 0.0595267 0.996267 0.0364198
-0.0642727 0.0819622 0.994561 0.041992
-0.0655539 0.102339 0.992587 0.0424396
-0.0666126 0.10679 0.992048 0.0397786
-0.0642675 0.0949642 0.993404 0.0348346
-0.0596655 0.0611209 0.996345 0.020339
-0.0564064 0.0372123 0.997714 0.010388
-0.053121 0.0302862 0.998129 0.00707816
-0.0513637 0.0384823 0.997938 0.00956732
-0.0503398 0.0533628 0.997306 0.00559224
-0.0515328 0.0830917 0.995209 0.0107918
-0.0510922 0.0781849 0.995629 0.0120161
-0.0526748 0.0974807 0.993842 0.0163769
-0.054152 0.12302 0.990926 0.0239777
-0.0543391 -0.0900375 0.994455 0
-0.0545515 -0.0791749 0.995367 0
-0.0545086 -0.0914875 0.994313 0
-0.0537143 -0.0816497 0.995213 0
-0.0558876 -0.0746089 0.995646 0.00704982
-0.0585554 -0.0488342 0.997089 0.0158844
-0.0625069 -0.0353385 0.997419 0.0211358
-0.0639785 -0.0219714 0.997709 0.0273014
-0.0660352 0.000882447 0.997817 0.0371668
-0.0669473 0.00479888 0.997745 0.0415718
-0.0652731 0.00501668 0.997855 0.0421434
-0.0646216 0.00841541 0.997874 0.0451143
-0.0601313 -0.00585554 0.998173 0.0417091
-0.0601121 -0.0116252 0.998124 0.0420358
-0.0591129 -0.00732607 0.998224 0.04029
-0.0562945 -0.0240091 0.998125 0.0334361
-0.0542403 -0.0307509 0.998054 0.0307806
-0.0524287 -0.025402 0.998302 0.0284784
-0.0517535 -0.0267964 0.9983 0.0265433
-0.0496693 -0.031588 0.998266 0.0194352
-0.0489415 -0.0315963 0.998302 0.0128484
-0.0468628 -0.0429971 0.997976 0.00724125
-0.0455088 -0.0387443 0.998212 0.00252065
-0.0466192 -0.0279776 0.998521 0.000234493
-0.0466433 -0.0242235 0.998618 0
-0.0493378 -0.0206026 0.99857 0.00378434
-0.0528739 -0.0118652 0.998531 0.00931267
-0.0542531 -0.0139457 0.99843 0.0100758
-0.0531064 -0.0146156 0.998482 0.0105759
-0.0503445 -0.0178577 0.998572 0.00467761
-0.0521272 -0.0110456 0.998579 0.0068093
-0.0487298 -0.00899528 0.998771 0.00508039
-0.0472303 -0.0121759 0.99881 0.00115385
-0.0489587 -0.00753897 0.998772 0
-0.0521561 -0.00719958 0.998613 0
-0.0541041 -0.00426716 0.998526 0
-0.0530843 0.00678258 0.998567 0
-0.0535959 0.000793784 0.998562 0
-0.0542031 0.00774298 0.9985 0
-0.052561 0.00804336 0.998585 0
-0.0556099 0.0169535 0.998309 0.00325629
-0.0594745 0.0231666 0.997961 0.010216
-0.0597249 0.0262378 0.99787 0.0111573
-0.0603674 0.0326278 0.997643 0.015662
-0.0605355 0.0353269 0.997541 0.0150467
-0.060997 0.0291946 0.997711 0.0125046
-0.0617472 0.0379683 0.997369 0.0119178
-0.0590434 0.0450242 0.99724 0.00948913
-0.0598647 0.0473304 0.997084 0.0152699
-0.0618891 0.0489943 0.99688 0.0175851
-0.0654388 0.0552709 0.996325 0.0207735
-0.0672027 0.0529537 0.996333 0.0169579
-0.0657359 0.0448396 0.996829 0.0120646
-0.0662748 0.0405269 0.996978 0.0108027
-0.0658885 0.0319009 0.997317 0.0085213
-0.0647801 0.0302578 0.997441 0.00649282
-0.0659281 0.0255705 0.997497 0.00656807
-0.0650711 0.0300983 0.997427 0.00522895
-0.0633028 0.0318939 0.997485 0.00649448
-0.0633399 0.0297235 0.997549 0.00380247
-0.0642667 0.0368375 0.997253 0.00538459
-0.0640607 0.033315 0.99739 0.00745342
-0.0683449 0.0441044 0.996686 0.0079439
-0.0679228 0.044568 0.996695 0.0078526
-0.0662138 0.0422624 0.99691 0.0014656
-0.0658794 0.0459269 0.99677 0.00205364
-0.0672041 0.0498841 0.996491 0.010736
-0.0646119 0.0480703 0.996752 0.00445196
-0.0674544 0.0453654 0.996691 0.00557865
-0.0660384 0.0584899 0.996101 0.00125926
-0.0653346 0.0507708 0.996571 0
-0.0659924 0.0413967 0.996961 0
-0.066465 0.0421688 0.996897 0
-0.0617684 0.0406208 0.997264 0
-0.0602004 0.0467823 0.997089 0
-0.0563968 0.0436229 0.997455 0
-0.0528696 0.0401531 0.997794 0
-0.0533359 0.0362388 0.997919 0
-0.0542716 0.0457155 0.997479 0
-0.0565628 0.0512372 0.997083 0
-0.0589884 0.0572583 0.996615 0.00555475
-0.0622539 0.0618147 0.996144 0.0120261
-0.0639504 0.0631817 0.995951 0.0160421
-0.0636317 0.0610976 0.996101 0.0157331
-0.0665531 0.066533 0.995562 0.0225507
-0.0679972 0.0722523 0.995066 0.0249597
-0.0705125 0.0813551 0.994188 0.0292682
-0.0701319 0.0740728 0.994784 0.0229781
-0.0706621 0.0720649 0.994894 0.0206408
-0.0702516 0.0657052 0.995363 0.0185554
-0.0703013 0.0618884 0.995604 0.0131737
-0.06745 0.0532774 0.996299 0.00291626
-0.0669859 0.0568673 0.996132 0.000197272
-0.0682206 0.0585568 0.99595 0.00118519
-0.0677225 0.061402 0.995813 0.00147316
-0.0684847 0.0540718 0.996186 0.00367232
-0.0698561 0.0562796 0.995968 0.0058826
-0.0681411 0.0474514 0.996547 0.00225558
-0.0654394 0.0399396 0.997057 0
-0.0636058 0.0383502 0.997238 0
-0.0630433 0.0358091 0.997368 0
-0.0640796 0.0401596 0.997136 0
-0.0645766 0.0336212 0.997346 0
-0.0651431 0.0389207 0.997117 0
-0.0664207 0.0379455 0.99707 0
-0.0660311 0.0436322 0.996863 0
-0.0632301 0.0430248 0.997071 0
-0.0611681 0.0472978 0.997006 0.00136599
-0.0620191 0.0444135 0.997086 0.00574519
-0.0630482 0.043376 0.997067 0.00838346
-0.0647305 0.03897 0.997142 0.00769232
-0.0653403 0.0414903 0.997 0.00499792
-0.0686504 0.0370412 0.996953 0.00767196
-0.0704625 0.0414141 0.996654 0.00835097
-0.0717289 0.0377377 0.99671 0.0107847
-0.0723408 0.0344327 0.996785 0.0157821
-0.0760066 0.0420419 0.996221 0.0258935
-0.0780502 0.0441456 0.995972 0.0336831
-0.073836 0.0498072 0.996026 0.0318823
-0.0719502 0.0378295 0.996691 0.0312913
-0.0732843 0.0400123 0.996508 0.0328307
-0.0738499 0.040451 0.996449 0.0335888
-0.0785279 0.0412545 0.996058 0.0398033
-0.0793517 0.0399429 0.996046 0.0390933
-0.0772158 0.0374884 0.996309 0.0371893
-0.0757445 0.0390733 0.996361 0.0345845
-0.0726157 0.024602 0.997057 0.0307634
-0.0707904 0.0147796 0.997382 0.0302196
-0.0654997 0.0111139 0.997791 0.0232457
-0.0622842 0.00756965 0.99803 0.0173185
-0.0605551 0.00945841 0.99812 0.0112863
-0.0580047 0.00241678 0.998313 0.00134982
-0.0576567 -0.00318983 0.998331 0
-0.0567605 -0.00694369 0.998364 0
-0.0563876 -0.0146406 0.998302 0
-0.0559338 -0.013047 0.998349 0
-0.0554271 -0.0156303 0.99834 0
-0.0539457 -0.0181066 0.99838 0
-0.0532027 -0.0239879 0.998296 0
-0.0505342 -0.0339309 0.998146 0
-0.0483513 -0.0382075 0.998099 0
-0.0484073 -0.0428727 0.997907 0
-0.0482621 -0.0478773 0.997687 0
-0.0511782 -0.0490421 0.997485 0
-0.0520079 -0.0464345 0.997567 0
-0.0549423 -0.0485089 0.997311 0
-0.0562673 -0.0475618 0.997282 0
-0.0572562 -0.0355789 0.997725 0
-0.0602769 -0.0331438 0.997631 0
-0.0604967 -0.0185264 0.997996 0
-0.0603266 -0.0206129 0.997966 0
-0.0624605 -0.0155798 0.997926 0
-0.0633088 -0.0152173 0.997878 0.00511568
-0.0650435 -0.01075 0.997825 0.0102122
-0.0667796 -0.00461043 0.997757 0.0107286
-0.0677078 -0.00173908 0.997704 0.0119571
-0.0681625 0.00219029 0.997672 0.0129949
-0.0675649 -0.00379456 0.997708 0.01266
-0.0700119 0.00116648 0.997545 0.0182589
-0.0707803 -0.000293529 0.997492 0.0229774
-0.0692132 -0.000778095 0.997602 0.025755
-0.0701627 0.00189283 0.997534 0.0316356
-0.0649114 0.00112998 0.99789 0.0270816
-0.0646231 -0.0111145 0.997848 0.0275853
-0.0637688 -0.0193205 0.997778 0.0183845
-0.0621002 -0.0246409 0.997766 0.0104811
-0.0621222 -0.0258727 0.997733 0.00796852
-0.063097 -0.0227953 0.997747 0.00966025
-0.0633794 -0.0181895 0.997824 0.0115595
-0.0638267 -0.0220479 0.997717 0.0135041
-0.060776 -0.0297466 0.997708 0.0073434
-0.0614636 -0.0356639 0.997472 0.00838521
-0.060857 -0.0300083 0.997695 0.00756198
-0.057516 -0.0357549 0.997704 0.00171678
-0.0586244 -0.0291677 0.997854 0.00418939
-0.0610295 -0.0341848 0.99755 0.0103563
-0.0642295 -0.0327882 0.997396 0.00669343
-0.0657173 -0.0367824 0.99716 0.00543301
-0.0669384 -0.0306097 0.997287 0.000852134
-0.0684747 -0.03074 0.997179 0
-0.0675479 -0.0279659 0.997324 0
-0.0671313 -0.0333914 0.997185 0
-0.0645012 -0.0389538 0.997157 0
-0.0637756 -0.0435626 0.997013 0
-0.0621202 -0.0354516 0.997439 0
-0.05953 -0.0351546 0.997607 0
-0.0551847 -0.0417174 0.997604 0
-0.0506738 -0.0497961 0.997473 0
-0.0477882 -0.0578702 0.99718 0
-0.0450717 -0.0624893 0.997027 0
-0.0451443 -0.0660944 0.996792 0
-0.0454422 -0.0651098 0.996843 0
-0.0486448 -0.0666911 0.996587 0
-0.050963 -0.0613799 0.996813 0
-0.0510176 -0.0618239 0.996782 0
-0.0511123 -0.0615719 0.996793 0
-0.0503861 -0.0627898 0.996754 0
-0.0488146 -0.0638912 0.996762 0
-0.0509735 -0.0612749 0.996818 0
-0.0540587 -0.0610577 0.996669 0
-0.0566694 -0.0552888 0.996861 0
-0.0582023 -0.052876 0.996903 0
-0.0626067 -0.0435422 0.997088 0
-0.0657945 -0.0342538 0.997245 0
-0.0675678 -0.0266482 0.997359 0
-0.0702166 -0.0224607 0.997279 0
-0.072866 -0.010226 0.997289 0
-0.0722831 -0.0077389 0.997354 0
-0.070208 0.00717641 0.997507 0
-0.0679364 0.00143429 0.997689 0
-0.0654891 0.006125 0.997835 0
-0.0651761 0.00377984 0.997867 0
-0.0658675 0.00170704 0.997827 0
-0.0679337 -0.00463519 0.997679 0
-0.0679681 -0.0039098 0.99768 0
-0.069261 -0.00915999 0.997557 0
-0.0723517 -0.00309762 0.997374 0
-0.0736998 -0.012572 0.997201 0
-0.0749352 -0.0121174 0.997115 0
-0.0734958 -0.0170652 0.99715 0
-0.0728683 -0.0100729 0.997291 0
-0.0738885 -0.0156759 0.997143 0
-0.0756636 -0.0107787 0.997075 0.00285273
-0.0758203 -0.0145552 0.997015 0.00121226
-0.0791246 -0.0113744 0.9968 0.00347175
-0.0811897 -0.0144216 0.996594 0.00753511
-0.0813684 -0.00682901 0.996661 0.012977
-0.0819428 -0.00548102 0.996622 0.0161907
-0.0808424 -0.000862302 0.996727 0.0194743
-0.0775463 -0.00918393 0.996946 0.0196407
-0.0763852 -0.00095423 0.997078 0.0217042
-0.0785147 0.000798267 0.996913 0.0321628
-0.0759335 0.00481879 0.997101 0.0329786
-0.0764094 -1.40969e-06 0.997077 0.0344186
-0.0773287 0.00050301 0.997006 0.0357369
-0.080101 -0.00149824 0.996786 0.0398337
-0.0863046 0.00962206 0.996222 0.0476671
-0.0897067 0.0162642 0.995835 0.0506821
-0.0916113 0.0152317 0.995678 0.0491784
-0.0906218 0.0170742 0.995739 0.0491131
-0.0883538 0.0160211 0.99596 0.0472534
-0.0879448 0.010837 0.996066 0.0491456
-0.0867449 0.0115008 0.996164 0.0501659
-0.0894655 0.0088387 0.995951 0.0502027
-0.0945607 0.00617095 0.9955 0.0511292
-0.0943446 -0.00242027 0.995537 0.0422115
-0.0949749 -0.0139254 0.995382 0.0371653
-0.0961668 -0.0168194 0.995223 0.0378424
-0.0995733 -0.0204423 0.99482 0.0396933
-0.0982618 -0.0172043 0.995012 0.0368503
-0.0953899 -0.0178172 0.995281 0.034012
-0.0909149 -0.0119198 0.995787 0.0272091
-0.086691 -0.0235569 0.995957 0.0221399
-0.0806777 -0.0226374 0.996483 0.023959
-0.0765391 -0.028668 0.996654 0.0218951
-0.0752115 -0.0142312 0.997066 0.029449
-0.072099 -0.0153643 0.997279 0.0265659
-0.0688565 -0.0154215 0.997507 0.0233155
-0.0692824 -0.023003 0.997332 0.0202638
-0.0714397 -0.0276263 0.997062 0.021171
-0.0730167 -0.0341197 0.996747 0.0196259
-0.0793971 -0.0309001 0.996364 0.0244314
-0.0860486 -0.0246093 0.995987 0.0302859
-0.0948176 -0.0146152 0.995387 0.0335032
-0.0950675 -0.0186381 0.995296 0.0335753
-0.096231 -0.0235986 0.995079 0.0336289
-0.0957746 -0.0282363 0.995002 0.0362175
-0.0941016 -0.0352009 0.99494 0.030274
-0.0897838 -0.0456613 0.994914 0.0189189
-0.0846576 -0.0555428 0.994861 0.0076405
-0.080862 -0.0545783 0.99523 0.00246712
-0.0746132 -0.0725031 0.994573 0
-0.0695966 -0.0761372 0.994666 0
-0.0686293 -0.0894399 0.993625 0
-0.0662362 -0.0801205 0.994582 0
-0.0679206 -0.0793303 0.994532 0
-0.071716 -0.0667731 0.995188 0.00345091
-0.0720265 -0.0638566 0.995357 0.00844959
-0.0671493 -0.0636112 0.995713 0.00443883
-0.0625133 -0.0587507 0.996313 0.00558314
-0.0608179 -0.0544068 0.996665 0.00706821
-0.057848 -0.0562685 0.996738 0.00194941
-0.056017 -0.048757 0.997239 0.000595301
-0.0571651 -0.0530366 0.996955 0.000808061
-0.0554103 -0.0548135 0.996958 0
-0.0561415 -0.0585358 0.996705 0
-0.0578085 -0.0634622 0.996309 0
-0.0620557 -0.0673298 0.995799 0
-0.0654281 -0.0710451 0.995325 0
-0.0716829 -0.0715448 0.994858 0
-0.071969 -0.0808291 0.994126 0
-0.071101 -0.0851792 0.993825 0
-0.0728259 -0.0847366 0.993738 0
-0.068926 -0.093755 0.993207 0
-0.0628167 -0.103541 0.99264 0
-0.0589487 -0.109178 0.992273 0
-0.0531926 -0.116357 0.991782 0
-0.0550072 -0.111841 0.992203 0
-0.0573978 -0.118239 0.991325 0
-0.0578642 -0.119981 0.991088 0
-0.0559831 -0.115961 0.991675 0
-0.055098 -0.118454 0.99143 0
-0.0557135 -0.116965 0.991572 0
-0.0587278 -0.112011 0.99197 0
-0.061199 -0.102847 0.992813 0
-0.0582639 -0.102195 0.993057 0
-0.0540017 -0.102688 0.993247 0
-0.0547851 -0.103136 0.993157 0
-0.054549 -0.103751 0.993106 0
-0.0557449 -0.110434 0.992319 0
-0.0577218 -0.109841 0.992272 0
-0.0600343 -0.112731 0.99181 0
-0.0607898 -0.110764 0.991986 0
-0.0620284 -0.118102 0.991062 0
-0.0612829 -0.119821 0.990902 0
-0.0649919 -0.120241 0.990615 0
-0.0658787 -0.1135 0.991351 0
-0.0666264 -0.114177 0.991224 0
-0.0663503 -0.111218 0.991579 0
-0.0640776 -0.112612 0.991571 0
-0.0616232 -0.109463 0.992079 0
-0.0569362 -0.113535 0.991901 0
-0.0564578 -0.105022 0.992866 0.00279552
-0.056506 -0.100333 0.993348 0.00352747
-0.0539831 -0.0978649 0.993735 0.0033859
-0.0534877 -0.101985 0.993347 0.00556614
-0.0582931 -0.101966 0.993078 0.0173395
-0.0594686 -0.10818 0.992351 0.0188238
-0.0620369 -0.0974777 0.993302 0.0201293
-0.0593665 -0.1074 0.992442 0.0115746
-0.0575563 -0.0997609 0.993345 0.00287522
-0.0590086 -0.102295 0.993002 0.00803766
-0.0582373 -0.0999173 0.99329 0.0132631
-0.0596442 -0.0949448 0.993694 0.0188455
-0.0616449 -0.087604 0.994246 0.0169057
-0.0631967 -0.0783857 0.994918 0.0171479
-0.0630505 -0.0703696 0.995526 0.0193806
-0.0648759 -0.0757912 0.995011 0.0236741
-0.0678691 -0.0666137 0.995468 0.0214313
-0.0751389 -0.0627071 0.995199 0.0318396
-0.0759081 -0.0547665 0.99561 0.0335942
-0.0742726 -0.0509616 0.995935 0.0333296
-0.0709054 -0.0542445 0.996007 0.0327307
-0.0714443 -0.0511276 0.996133 0.0353605
-0.0711425 -0.0382441 0.996733 0.036169
-0.0712945 -0.0359894 0.996806 0.0373043
-0.0726312 -0.0331536 0.996808 0.0362811
-0.0746177 -0.0223591 0.996961 0.0433155
-0.0755962 -0.0199959 0.996938 0.0428438
-0.0722925 -0.022999 0.997118 0.0399691
-0.0666027 -0.0236423 0.997499 0.0331813
-0.0656271 -0.0306182 0.997374 0.0286842
-0.0652396 -0.0332642 0.997315 0.0292399
-0.0636309 -0.0349523 0.997361 0.028044
-0.0635699 -0.039701 0.997187 0.0284223
-0.0633903 -0.0344681 0.997393 0.0286664
-0.0626594 -0.0325986 0.997502 0.0268805
-0.0609949 -0.0395366 0.997355 0.0221387
-0.0632772 -0.036128 0.997342 0.0245978
-0.0639999 -0.0449372 0.996938 0.0262702
-0.0618698 -0.0436204 0.997131 0.0302987
-0.0638491 -0.0359907 0.99731 0.0329499
-0.0622344 -0.031577 0.997562 0.0329055
-0.0621505 -0.0325512 0.997536 0.0375902
-0.0613305 -0.0295815 0.997679 0.0351395
-0.0595627 -0.0290868 0.997801 0.0308023
-0.0605763 -0.0236318 0.997884 0.0294423
-0.0585236 -0.0488231 0.997091 0.0252612
-0.0559668 -0.0444583 0.997442 0.0222557
-0.0534756 -0.0521861 0.997205 0.0186692
