-0.257829 -0.076991 0.963118 0.0249097
0.348722 -0.195525 0.916604 0.0416392
0.340339 -0.177593 0.92338 0.0291193
0.318325 -0.139661 0.937637 0
-0.257855 0.0196315 0.965984 0
-0.257126 0.000997714 0.966377 0
-0.253707 -0.0220814 0.967029 0.00121887
-0.251173 -0.0415607 0.96705 0.00348557
-0.24404 -0.0500585 0.968472 0.00697293
0.327517 -0.161252 0.930984 0.0200974
0.316157 -0.139749 0.938357 0
0.328323 -0.13671 0.93462 0
-0.274104 -0.0133833 0.961607 0
-0.260486 0.0194993 0.965281 0
-0.250779 0.0271745 0.967663 0
-0.243422 0.0297396 0.969464 0
0.323882 -0.138729 0.935871 0
0.33533 -0.152089 0.929743 0
-0.29082 -0.0138766 0.956677 0.00152227
-0.268326 0.00352477 0.963322 0
-0.264656 0.0252735 0.964012 0
-0.252631 0.0262528 0.967206 0
-0.250015 0.0119125 0.968169 0
-0.325066 -0.0357042 0.945017 0.0261069
-0.288602 -0.0100508 0.957396 0
-0.28282 -0.00825408 0.959137 0.00759292
-0.373683 -0.0853283 0.923624 0.0435459
-0.346978 -0.0490705 0.936589 0.0417552
-0.309527 -0.0128088 0.950804 0.0247831
-0.378929 -0.0502641 0.92406 0.0454415
-0.365506 -0.0509312 0.929414 0.0412218
-0.355434 -0.0501359 0.933356 0.0494292
-0.373269 -0.00674557 0.927699 0.0378738
-0.370896 -0.0233497 0.928381 0.0355249
-0.343997 -0.0245769 0.938649 0.0246643
-0.342707 -0.0296748 0.938974 0.034057
-0.351663 0.022104 0.935866 0.0190358
-0.343419 0.0166954 0.939034 0.0152806
-0.338889 0.00981892 0.940775 0.0165675
-0.33767 0.043837 0.940243 0.0131455
-0.329445 0.0430591 0.943192 0.0140008
-0.336332 0.0175842 0.941579 0.0158877
-0.352096 0.0477604 0.934745 0.0142688
-0.339984 0.0531245 0.93893 0.0151825
-0.334614 0.0413719 0.941447 0.0190869
-0.357399 0.0355322 0.933276 0.0147532
-0.364611 0.0289085 0.930711 0.026224
-0.345684 0.0317692 0.937813 0.0162468
-0.368626 0.02476 0.929248 0.0191608
-0.352614 0.0272995 0.935371 0.0115056
-0.367047 0.0138364 0.9301 0.0334148
-0.363982 0.0264799 0.93103 0.0194718
-0.342254 0.034596 0.93897 0.0162079
-0.331225 0.047131 0.942374 0.000312805
-0.338738 0.0254751 0.940536 0.0133508
-0.338991 0.0393755 0.939965 0.00490042
-0.360553 0.0162082 0.932598 0.0227106
-0.335823 0.0222632 0.941662 0.0168173
-0.346705 0.0449269 0.936898 0.0132764
-0.339415 0.0355331 0.939965 0.0180654
-0.336747 0.0264278 0.941224 0.0185518
-0.33976 0.0492405 0.939222 0.00655262
-0.340539 0.0466967 0.93907 0.0175552
-0.328105 0.0374228 0.9439 0.0157562
-0.332085 0.0564445 0.941559 0.00338274
-0.319148 0.0592996 0.945848 0
-0.321878 0.0506595 0.945425 0
-0.321594 0.0503361 0.945539 0.00410849
-0.329025 0.0596069 0.942438 0.00242558
-0.320801 0.0585331 0.945336 0
-0.314065 0.0662017 0.947091 0
-0.320012 0.082526 0.943812 0
-0.315296 0.0817899 0.945462 0
-0.315401 0.0724619 0.946188 0
-0.324604 0.0918 0.941385 0
-0.321601 0.091111 0.942482 0
-0.319555 0.0800674 0.944179 0.00333801
-0.330197 0.0957909 0.939039 0
-0.3179 0.0942075 0.943432 0
-0.30411 0.08369 0.948954 0
-0.317428 0.108649 0.942038 0
-0.318312 0.107352 0.941888 0
-0.310365 0.0997795 0.945366 0
-0.322572 0.107983 0.940365 0
-0.319526 0.105538 0.941682 0
-0.334629 0.0905656 0.937988 0.0160652
-0.335198 0.113485 0.935288 0
-0.328665 0.107303 0.938331 0.00441068
-0.336101 0.084324 0.938044 0.0170739
-0.350516 0.1104 0.930027 0.00838718
-0.340101 0.106413 0.934349 0.0119606
-0.338196 0.104252 0.935283 0.018814
-0.334609 0.0982972 0.937216 0.0173818
-0.338785 0.114832 0.93383 0.010904
-0.337653 0.111023 0.9347 0.0140756
-0.332532 0.112879 0.936312 0.0169207
-0.334666 0.121819 0.93443 0.00568362
-0.333935 0.122281 0.934631 0.0153648
-0.336842 0.125192 0.933201 0.0249555
-0.34561 0.118573 0.930857 0.0262814
-0.350044 0.117664 0.929314 0.0351935
-0.346346 0.10822 0.931844 0.0403127
-0.328548 0.138169 0.934326 0.0118916
-0.327303 0.128582 0.93613 0.0168262
-0.331752 0.114227 0.936426 0.0279595
-0.347279 0.106774 0.931663 0.0424182
-0.325332 0.137894 0.935491 0.0109213
-0.325608 0.123831 0.937361 0.0183966
-0.32846 0.123002 0.936475 0.0218737
-0.324456 0.135991 0.936074 0.00684789
-0.315785 0.136444 0.938969 0.00571438
-0.315613 0.128868 0.940096 0.013895
-0.315711 0.143452 0.937949 0
-0.317057 0.137956 0.938319 0.00464076
-0.316459 0.127052 0.940059 0.012657
-0.321652 0.118688 0.93939 0.0274112
-0.316932 0.145286 0.937254 0
-0.318529 0.138189 0.937786 0.00456305
-0.320599 0.138451 0.937042 0.015066
-0.316186 0.139589 0.938372 0.0206889
-0.325141 0.146128 0.934307 0.00712602
-0.312326 0.152271 0.937692 0.00208586
-0.316199 0.145219 0.937513 0.0133039
-0.318384 0.155012 0.935202 0
-0.31871 0.145791 0.936573 0.00477303
-0.30324 0.146708 0.941553 0.00186879
-0.320298 0.149821 0.935395 0
-0.31188 0.147069 0.93867 0
-0.316478 0.132905 0.939243 0
-0.30335 0.126343 0.944466 0
-0.337659 0.149508 0.929319 0.0147605
-0.324983 0.144292 0.934648 0.00850013
-0.312196 0.125785 0.941654 0
-0.298532 0.12582 0.94607 0
-0.326086 0.146148 0.933975 0.0063846
-0.31564 0.146414 0.937515 0
-0.310603 0.13098 0.941472 0
-0.302902 0.13229 0.943795 0
-0.319593 0.151875 0.935304 0
-0.316041 0.128233 0.940039 0.00597279
-0.302299 0.118133 0.945865 0
-0.295654 0.121335 0.947558 0
-0.312495 0.137034 0.939983 0
-0.308645 0.125037 0.942923 0
-0.300985 0.116671 0.946465 0
-0.292941 0.114256 0.949279 0
-0.313542 0.123201 0.941548 0.00357004
-0.297023 0.120492 0.947237 0
-0.295407 0.117798 0.948081 0
-0.313407 0.13008 0.940667 0
-0.297134 0.124135 0.946732 0.00226448
-0.320944 0.113822 0.940234 0.0138004
-0.298838 0.110985 0.947828 0
-0.284639 0.121716 0.950876 0
-0.342193 0.110385 0.933123 0.0258486
-0.297599 0.115943 0.947625 0
-0.288812 0.134916 0.947832 0
-0.312724 0.108932 0.943577 0.00363165
-0.299365 0.109476 0.947837 0
-0.295182 0.110573 0.949021 0
-0.320084 0.103359 0.941734 0.0128952
-0.297212 0.113214 0.948076 0
-0.28746 0.111842 0.95124 0
-0.315066 0.0859214 0.945172 0.006878
-0.299115 0.0983433 0.949136 0
-0.288704 0.0830933 0.953806 0
-0.289969 0.0787436 0.953791 0.00798088
-0.307962 0.0953289 0.946611 0
-0.297803 0.0976694 0.949618 0
-0.28997 0.0855698 0.953203 0
-0.29649 0.0716364 0.952346 0.0137386
-0.31152 0.0918765 0.945787 0
-0.309597 0.0869593 0.946883 0
-0.294495 0.0760984 0.952618 0
-0.2907 0.0785587 0.953584 0.00811402
-0.304669 0.0856786 0.948597 0.000592364
-0.301597 0.0835047 0.949772 0.00115959
-0.31078 0.0614577 0.948493 0.028525
-0.31816 0.0761703 0.944972 0.0126929
-0.316116 0.0667774 0.946367 0.0172686
-0.298238 0.0864322 0.95057 0.0148092
-0.292309 0.0875426 0.952309 0.0206641
-0.321339 0.0725646 0.94418 0.0100828
-0.308875 0.0790194 0.947814 0.00943127
-0.293312 0.0918759 0.951592 0.0120368
-0.284328 0.0717069 0.956042 0.011854
0.266576 -0.00467628 0.963803 0
-0.3147 0.0767582 0.946083 0.00257214
-0.309085 0.0787966 0.947765 0.00527495
-0.299669 0.083375 0.950393 2.73882e-05
-0.291619 0.0923481 0.952066 0.00748231
-0.284858 0.0747227 0.955653 0.00555307
-0.275124 0.0773951 0.958288 0.00166341
0.265951 -0.00758207 0.963957 0
-0.30849 0.0927077 0.946699 0.00401539
-0.292771 0.08492 0.952404 0
-0.28137 0.061056 0.957655 0
-0.280565 0.0640811 0.957693 0
-0.310829 0.0862583 0.946544 0.00429083
-0.308093 0.0555768 0.949732 0.00188952
-0.287349 0.0518535 0.956421 0
-0.282 0.0490914 0.958158 0
-0.315621 0.0755149 0.945876 0.0104623
-0.302543 0.0626765 0.951073 0
-0.300111 0.0464238 0.952774 0.0075734
-0.283699 0.059906 0.95704 0
0.27461 0.00694647 0.961531 0
-0.304648 0.0753856 0.949477 0.0071257
-0.292117 0.0683962 0.953934 0.00155114
-0.279978 0.064911 0.957809 0.00378408
0.27628 0.000837429 0.961077 0
-0.297251 0.0772254 0.951671 0
-0.290545 0.0679325 0.954447 0.00318128
-0.286203 0.0563715 0.956509 0.010265
0.272154 -0.00029553 0.962254 0
-0.304475 0.0651009 0.950293 0.00528892
-0.300021 0.0721132 0.951203 0.0145081
-0.288516 0.0557417 0.955851 0.00997763
0.266786 -0.0101658 0.963702 0
-0.288045 0.0595957 0.955761 0.00140343
-0.285837 0.0619884 0.956271 0.00741516
-0.271088 0.049554 0.961278 0.00807162
0.263675 -0.0192618 0.964419 0
-0.291505 0.0720293 0.953853 0
-0.281802 0.0729136 0.956698 0
-0.269083 0.0398698 0.962291 0.0113816
-0.255212 0.0359812 0.966215 0.00517509
0.272735 -0.0230939 0.961812 0.0218462
-0.289638 0.0538412 0.955621 0
-0.283833 0.0572229 0.957165 0.00905396
-0.274831 0.0371332 0.960775 0.0125358
-0.26007 0.037917 0.964845 0.0043863
0.274608 -0.0251941 0.961226 0.0221183
-0.298705 0.0436483 0.953347 0.0112754
-0.2875 0.0656918 0.955525 0.00790016
-0.271616 0.0477597 0.96122 0.00288397
-0.257901 0.0468926 0.965033 0.00295508
0.280126 -0.0309839 0.959463 0.0315186
0.266727 -0.0292544 0.963328 0.0162502
-0.313771 0.0357762 0.948825 0.0219131
-0.300782 0.0365549 0.952992 0.0134083
-0.284614 0.0324121 0.958094 0.00884766
-0.263405 0.0196777 0.964485 0
0.259004 -0.032562 0.965327 0.00997305
-0.30925 0.0375405 0.950239 0.00658732
-0.298932 0.0386295 0.953492 0.00769914
-0.283162 0.0290912 0.958631 0.00392249
-0.266412 0.0216504 0.963616 0
0.251987 -0.0351506 0.967092 0.00545956
-0.313557 0.0314581 0.949048 0.00907321
-0.299412 0.0364948 0.953426 0.00476274
-0.286301 0.02562 0.957797 0
-0.263162 0.0296723 0.964295 0
0.250601 -0.0483229 0.966884 0.00887223
-0.314089 0.0330117 0.948819 0.00831159
-0.311691 0.0328615 0.949615 0.0117835
-0.285125 0.0228737 0.958217 0
-0.257158 0.0238251 0.966076 0
-0.244542 0.0242724 0.969335 0
0.266977 -0.0490442 0.962454 0.00818476
-0.306646 0.00990853 0.951772 0.00697686
-0.292065 0.00341629 0.956392 0.00222321
-0.264445 0.0176028 0.96424 0
-0.249989 0.0139611 0.968148 0
-0.238373 0.0128322 0.971089 0
0.259796 -0.05713 0.963972 0.00908908
-0.318047 0.00602356 0.948056 0.0135573
-0.304908 0.0113875 0.952314 0.0164316
-0.268857 0.0016975 0.963179 0
-0.247212 -0.007304 0.968934 0
-0.241405 0.00485314 0.970412 0
0.250966 -0.0622562 0.965992 0.00622408
-0.311457 0.00701644 0.950234 0.0062985
-0.298259 0.0112571 0.954419 0.0072244
-0.265224 0.0170816 0.964036 0
-0.254768 0.00171698 0.967001 0
-0.238717 0.0124071 0.97101 0
0.261744 -0.0649367 0.96295 0.0109792
-0.300613 0.0151136 0.953626 0.0041574
-0.292014 0.0167516 0.956267 0.00343482
-0.264212 0.00096693 0.964464 0
-0.24969 0.00720851 0.968299 0
-0.239716 0.00193956 0.970841 0
0.268826 -0.0731343 0.960408 0.0186387
-0.302038 0.0107452 0.953235 0.00641034
-0.29853 0.0114136 0.954332 0.00718507
-0.273689 -0.0016307 0.961817 0.00275174
-0.254242 0.00447883 0.96713 0
-0.242393 -0.00150511 0.970177 0
0.281574 -0.0789468 0.956286 0.0238389
0.284002 -0.0776806 0.955672 0.0261858
-0.296148 0.00601511 0.955123 0
-0.27412 0.0102203 0.961641 0
-0.259376 0.00879008 0.965737 0
-0.250407 0.0192084 0.96795 0
0.294184 -0.0867536 0.951803 0.0404243
0.281852 -0.0867753 0.955526 0.0288874
-0.309617 -0.00702526 0.950835 0.0169625
-0.2837 0.00323128 0.958908 0.00464377
-0.267702 0.00196964 0.9635 0
-0.253747 0.0100715 0.967218 0
0.282766 -0.0889019 0.95506 0.0244715
0.296731 -0.0966179 0.950061 0.0317335
-0.312286 -0.000899865 0.949988 0.0161123
-0.2801 0.0063128 0.95995 0.00559366
-0.264075 0.00766561 0.964472 0
-0.258262 0.0027863 0.966071 0
0.283708 -0.101109 0.953565 0.0166312
0.290118 -0.106845 0.951008 0.0228077
-0.307211 0.00535587 0.951626 0.00756503
-0.284984 -0.0089267 0.958491 0
-0.269582 -0.0137354 0.962879 0
-0.260645 0.00218954 0.965432 0
0.28905 -0.111847 0.950758 0.0218846
0.276374 -0.0980004 0.956041 0.014091
-0.302193 0.00765701 0.953216 0
-0.304091 -0.00938265 0.952597 0.00797575
-0.291004 -0.0214044 0.956482 0.0118706
-0.274666 -0.0277637 0.961139 0
0.274706 -0.0935541 0.956966 0.0184586
-0.318136 -0.0157004 0.947915 0.000683528
-0.303542 -0.00682887 0.952793 0
-0.280478 -0.0311961 0.959353 0
-0.277256 -0.0333342 0.960218 0
0.275959 -0.0961586 0.956347 0.0164825
0.289144 -0.104165 0.951602 0.0161001
-0.311272 -0.0206959 0.950095 0
-0.306945 -0.0260916 0.951369 0
-0.295709 -0.0514544 0.953891 0.0101571
-0.294526 -0.0493279 0.95437 0.0139553
0.26709 -0.095076 0.95897 0.0056015
0.288225 -0.104113 0.951886 0.0145908
-0.313051 -0.0288612 0.949298 0
-0.314054 -0.0346787 0.948772 0.0072339
-0.300213 -0.0561515 0.952218 0.013313
-0.287099 -0.0625087 0.955859 0.0152498
0.303801 -0.103452 0.947102 0.0321704
0.309294 -0.108655 0.944739 0.0298773
-0.318623 -0.0353819 0.947221 0.00309197
-0.312156 -0.0501538 0.948706 0.00890858
-0.304362 -0.0491084 0.95129 0.00976933
-0.29866 -0.0689477 0.951866 0.0179259
0.319284 -0.100193 0.942348 0.0433676
0.322994 -0.10099 0.940997 0.0380054
-0.321459 -0.0500489 0.9456 0.00546586
-0.309531 -0.0473612 0.949709 0.00414671
-0.319877 -0.0725956 0.944674 0.0226188
-0.294894 -0.0559888 0.953888 0.0110434
0.324951 -0.109265 0.939398 0.0325108
-0.322817 -0.0674838 0.944052 0.00789732
-0.31325 -0.0686074 0.947189 0.00251297
-0.309127 -0.0746894 0.948083 0.00771622
-0.288231 -0.0642182 0.955405 0
0.319401 -0.118816 0.940142 0.0309743
-0.330018 -0.0611717 0.94199 0.0141406
-0.32463 -0.067004 0.943465 0.0138984
-0.316267 -0.0727059 0.94588 0.0125874
-0.293383 -0.0650583 0.953779 0
0.312521 -0.122269 0.942009 0.027086
-0.336561 -0.0610564 0.93968 0.018646
-0.32535 -0.0627921 0.943506 0.00984587
-0.320041 -0.072017 0.944663 0.0221189
-0.292088 -0.0551184 0.954802 0.0044741
0.305712 -0.11791 0.944795 0.0331563
-0.322523 -0.0519602 0.945135 0.00406345
-0.32209 -0.0582522 0.944915 0.005331
-0.319746 -0.0614618 0.945508 0.0210384
-0.295037 -0.0565453 0.953811 0.00980016
0.301047 -0.119782 0.946057 0.0216964
-0.334737 -0.052024 0.940874 0.00630669
-0.321298 -0.0594282 0.945112 0.00516745
-0.307355 -0.051264 0.950213 0.00368644
-0.302711 -0.0567128 0.951394 0.0161125
0.29466 -0.116438 0.948482 0.0183162
-0.330398 -0.0635949 0.941697 0.0038824
-0.331062 -0.0710935 0.940927 0.0200725
-0.32173 -0.0663116 0.944506 0.0196611
-0.333249 -0.0688583 0.940321 0.00778055
-0.339833 -0.0857157 0.936571 0.0265258
-0.329564 -0.0837772 0.940409 0.0232393
-0.329422 -0.0778621 0.940967 0.00440485
-0.321683 -0.0796029 0.943495 0.0138497
-0.313109 -0.0843115 0.945968 0.0125304
-0.345456 -0.0867509 0.934417 0.0155292
-0.331862 -0.0793732 0.939983 0.00582174
-0.327086 -0.0948832 0.940219 0.0179393
-0.312126 -0.0905847 0.945712 0.0127816
-0.349274 -0.0917149 0.932521 0.0131235
-0.324237 -0.0872389 0.941945 0.00760598
-0.31808 -0.0831351 0.944412 0.00867062
-0.339461 -0.0828279 0.936966 0.00144045
-0.320585 -0.0820063 0.943663 0
-0.312269 -0.0782688 0.946764 0
-0.346977 -0.0725673 0.935062 0
-0.33675 -0.0791028 0.938266 0
-0.324762 -0.0845574 0.942008 0
-0.340212 -0.0740619 0.937428 0
-0.32917 -0.0684331 0.941788 0
-0.31652 -0.0803974 0.945173 0
-0.340515 -0.076122 0.937152 0
-0.336431 -0.0836748 0.937983 0
-0.326437 -0.0875071 0.94116 0
-0.317071 -0.0862474 0.944472 0
0.289678 -0.143501 0.946306 0
-0.344364 -0.0871061 0.934787 0
-0.338265 -0.0855722 0.937152 0
-0.329379 -0.0958368 0.939322 0
0.29877 -0.144524 0.943318 0
-0.355463 -0.098623 0.929473 0
-0.347614 -0.102202 0.932051 0
-0.327737 -0.100717 0.939385 0
0.303861 -0.148586 0.941058 0
-0.35703 -0.101709 0.928539 0
-0.351122 -0.109865 0.929862 0
-0.337408 -0.116273 0.93415 0
-0.359286 -0.1217 0.925258 0
-0.353673 -0.129321 0.926386 0
0.321165 -0.149617 0.93513 0
-0.367081 -0.13464 0.920393 0.0025417
-0.355287 -0.131265 0.925495 0.000146056
0.322188 -0.163153 0.932511 0
-0.366362 -0.120845 0.922592 0
-0.364276 -0.13046 0.922108 0.00409842
-0.373111 -0.121217 0.919834 0
-0.35896 -0.116728 0.926025 0
-0.385502 -0.131921 0.913228 0.0143855
-0.364821 -0.118636 0.923489 0.00818193
0.323815 -0.169415 0.930829 0
-0.386625 -0.123078 0.913987 0.0151559
-0.36223 -0.122601 0.92399 0.00938537
-0.371943 -0.115047 0.921098 0
-0.37305 -0.118082 0.920266 0
-0.367717 -0.122182 0.921876 0
-0.37314 -0.114949 0.920627 0
-0.359532 -0.117236 0.925739 0.00148822
-0.390701 -0.124033 0.912123 0.0155993
-0.362591 -0.109803 0.925457 0.00314064
-0.383808 -0.119806 0.915608 0
-0.38032 -0.118529 0.917228 0.00367853
-0.384884 -0.121136 0.914981 0
-0.374929 -0.115653 0.919811 0
-0.394232 -0.134627 0.909097 0.00180089
-0.380425 -0.128661 0.915818 0
-0.366288 -0.121809 0.922494 0
-0.389291 -0.131312 0.911707 0
-0.379922 -0.129475 0.915912 0
-0.362793 -0.115037 0.924742 0
-0.397624 -0.12605 0.908849 0
-0.389347 -0.126265 0.912396 0
-0.380072 -0.124548 0.916533 0
-0.39999 -0.12659 0.907735 0
-0.393361 -0.132677 0.90976 0.00164446
-0.38236 -0.127277 0.915206 0
-0.39778 -0.118458 0.909802 0
-0.391289 -0.122887 0.912026 0
-0.403421 -0.126898 0.906172 0
-0.414508 -0.126507 0.90121 0.00516704
-0.400663 -0.123242 0.907899 0.00603215
-0.410352 -0.117403 0.904338 0.000994058
-0.396425 -0.124141 0.909635 0
-0.428454 -0.136911 0.893131 0.00813297
-0.421915 -0.128543 0.897477 0.00842702
-0.403419 -0.129357 0.905825 0.00396907
-0.435111 -0.143888 0.888805 0.0119464
-0.443504 -0.147185 0.884104 0.018762
-0.441099 -0.1403 0.886424 0.0161212
-0.437434 -0.139343 0.888389 0.0146773
-0.460474 -0.141743 0.876283 0.0214898
-0.435136 -0.141173 0.889228 0.0138316
-0.435609 -0.143027 0.8887 0.0137627
-0.43488 -0.133661 0.890514 0.00550614
-0.432211 -0.133342 0.89186 0.00949497
-0.430023 -0.136074 0.892504 0.00787001
-0.424012 -0.1255 0.896919 0
-0.419601 -0.127432 0.898719 0
-0.421258 -0.110552 0.900178 0
-0.422146 -0.107642 0.900115 0
-0.436086 -0.103103 0.893979 0
-0.414994 -0.0930354 0.905055 0
-0.433983 -0.0959471 0.895797 0
-0.422158 -0.0922191 0.901819 0
-0.43335 -0.0929966 0.896415 0
-0.431293 -0.0932369 0.897381 0
-0.433453 -0.0803228 0.89759 0
-0.42358 -0.0763091 0.902639 0
-0.446971 -0.0868215 0.890325 0.00583954
-0.421305 -0.0790098 0.903471 0
-0.431947 -0.0863855 0.897753 0
-0.426391 -0.0806886 0.900933 0
-0.420475 -0.0648339 0.904985 0
-0.424677 -0.0535759 0.903759 0
-0.422973 -0.0530306 0.904589 0
-0.424664 -0.0579279 0.903496 0
-0.417944 -0.0505118 0.907067 0
-0.417506 -0.0505572 0.907267 0
-0.43094 -0.0437673 0.901318 0.0108041
-0.4263 -0.0469954 0.90336 0.004291
-0.416692 -0.0387124 0.908223 0.00511964
-0.424105 -0.0515579 0.904144 0.000276854
-0.415946 -0.0503252 0.907996 0
-0.412977 -0.0545438 0.909107 0.00472222
-0.42634 -0.0478107 0.903298 0.000187077
-0.422966 -0.046883 0.904932 0.00340973
-0.429673 -0.04738 0.90174 0.0160334
-0.427706 -0.0398889 0.903037 0.00267107
-0.42353 -0.0406485 0.90497 0.0103631
-0.419763 -0.0225338 0.907354 0
-0.419301 -0.00896754 0.907803 0.00587915
-0.426883 -0.00332742 0.904301 0
-0.42292 0.00327675 0.906161 0.00253491
-0.436415 0.0147125 0.899625 0.00429057
-0.429412 0.00704725 0.903081 0.0124908
-0.420794 0.0175101 0.906987 0.000158904
-0.415201 0.00878515 0.909687 0.00275846
-0.419246 0.0226417 0.90759 0
-0.406455 0.0157974 0.913534 0
-0.416186 0.0348798 0.90861 0
-0.410263 0.0374032 0.9112 0
-0.406681 0.0258632 0.913204 0
-0.408175 0.0378206 0.91212 0
-0.402561 0.0267107 0.915003 0
-0.400651 0.0289586 0.915773 0
-0.404024 0.0314922 0.914206 0
-0.398427 0.034494 0.916551 0
-0.397206 0.0339875 0.9171 0
-0.394401 0.0231246 0.918647 0.00900057
-0.396499 0.0411134 0.917114 0
-0.395542 0.0436755 0.917409 0.00596968
-0.389674 0.0377944 0.920177 0
-0.409815 0.0394508 0.911315 0.0215138
-0.408094 0.0343982 0.912292 0.0224688
-0.382197 0.111664 0.917309 0.00442423
-0.376492 0.108336 0.920064 0
-0.372646 0.126735 0.919279 0
-0.361374 0.134367 0.922689 0
-0.35124 0.143518 0.925221 0
-0.362518 0.143697 0.920832 0
-0.355948 0.154341 0.921672 0
0.307803 -0.274619 0.910956 0.0256813
-0.0591214 -0.140803 0.988271 0
-0.058751 -0.174478 0.982907 0
-0.0619772 -0.180927 0.981542 0.00446992
-0.0608363 -0.167371 0.984015 0
-0.0597988 -0.197491 0.978479 0
-0.0570854 -0.18132 0.981766 0
-0.0584383 -0.15076 0.986842 0
-0.0537826 -0.121162 0.991175 0
0.336292 -0.295117 0.894323 0.0481597
-0.0582952 -0.0771321 0.995315 0
-0.0550672 -0.0726755 0.995834 0
-0.0559399 -0.104136 0.992989 0
-0.058077 -0.160328 0.985354 0
-0.0612161 -0.168654 0.983772 0.000913371
-0.0577342 -0.144229 0.987859 0
0.332494 -0.2646 0.905226 0.046541
-0.175014 -0.195406 0.96498 0.01849
-0.16436 -0.210486 0.963681 0.020802
-0.158584 -0.239387 0.957886 0.0170291
-0.148812 -0.252013 0.956214 0.0128684
-0.139618 -0.260679 0.955276 0.0258427
-0.127663 -0.226895 0.965516 0.024237
-0.105072 -0.218949 0.970063 0.0125648
-0.0716312 -0.124971 0.989571 0.00151656
-0.0685347 -0.0765905 0.994704 0.00611026
0.326319 -0.221732 0.918886 0.0488147
0.319873 -0.205515 0.924902 0.0353942
-0.219322 -0.0779418 0.972534 0.0297464
-0.217249 -0.0802328 0.972813 0.0312106
-0.19547 -0.0619572 0.978751 0.0130875
-0.186211 -0.116155 0.975619 0.000270757
-0.182903 -0.160047 0.970016 0.0141735
-0.177613 -0.175125 0.968393 0.0216338
-0.168208 -0.207721 0.963617 0.0252661
-0.159962 -0.226037 0.960895 0.0179902
-0.137739 -0.23763 0.96154 0.0252292
0.314201 -0.189309 0.93029 0.0329224
0.325315 -0.187985 0.926732 0.0402055
-0.236334 -0.0966508 0.966853 0.0294857
-0.215847 -0.0601299 0.974574 0.0213048
-0.208646 -0.0672887 0.975674 0.0217092
-0.197474 -0.0674292 0.977986 0.0126781
-0.184524 -0.0921078 0.978502 0
-0.187482 -0.155468 0.969887 0.0219985
-0.181032 -0.158376 0.970641 0.0153612
0.310799 -0.180484 0.933182 0.033474
0.327031 -0.179238 0.92786 0.0417259
-0.246082 -0.0540956 0.967738 0.00529638
-0.234968 -0.0462243 0.970903 0.00477068
-0.225415 -0.0599801 0.972415 0.0218788
-0.218882 -0.0446424 0.974729 0.0171942
0.325698 -0.156303 0.932465 0.0205696
-0.247267 -0.0204104 0.968732 0
-0.244934 -0.00923737 0.969496 0
-0.245598 -0.0486046 0.968153 0.00592732
-0.238136 -0.0429714 0.970281 0.0133844
0.326027 -0.14517 0.934148 0.0122158
0.325046 -0.139655 0.93533 0
0.331639 -0.139136 0.93309 0
-0.259677 0.00344138 0.965689 0
-0.254867 -0.00419122 0.966967 0
-0.249614 -0.0192212 0.968154 0.0036275
-0.244797 -0.0548171 0.968024 0
0.323434 -0.129041 0.937411 0
0.330721 -0.129941 0.93474 0
-0.275478 -0.00836494 0.961271 0
-0.272708 -0.00131789 0.962096 0
-0.260064 -0.00109002 0.965591 0
-0.267396 -0.0366804 0.962888 0.0097704
-0.257189 -0.047147 0.96521 0.00739442
0.328733 -0.11815 0.937003 0
0.342076 -0.118072 0.932225 0
-0.277001 0.00149632 0.960868 0
-0.273227 -0.0042782 0.96194 0
-0.265644 -0.00308216 0.964066 0.000799891
-0.263149 -0.0103265 0.9647 0.00676404
-0.258054 -0.0395305 0.965321 0.0036356
0.337369 -0.116676 0.934114 0
-0.313592 -0.0180255 0.949387 0.0226398
-0.28295 0.01031 0.959079 0.00432692
-0.277758 -0.0088038 0.960611 0.00560918
-0.276125 -0.0229018 0.960849 0.00925983
-0.266812 -0.0165758 0.963606 0.0125607
0.329053 -0.100782 0.938918 0
-0.326664 -0.00885612 0.945099 0.0243186
-0.317968 -0.0167786 0.947953 0.0278553
-0.294087 -0.0181033 0.955607 0.00849953
-0.282579 -0.0125004 0.959163 0.00909229
-0.277388 -0.0172841 0.960602 0.00784132
-0.329597 -0.00296759 0.944117 0.0247448
-0.321505 -0.0238837 0.946607 0.0263152
-0.303416 -0.0311086 0.95235 0.0163495
-0.287414 -0.0128351 0.957721 0.0157033
-0.335759 0.00304086 0.941943 0.0242488
-0.324718 -0.00634486 0.94579 0.0250632
-0.299219 0.000260225 0.954184 0.0190112
-0.299398 -0.00566161 0.954111 0.02659
-0.321556 0.028405 0.946465 0.0154514
-0.307972 0.0181232 0.951223 0.0174306
-0.292205 0.00322176 0.95635 0.00756705
-0.345016 0.0244124 0.938279 0.0203749
-0.328397 0.0385101 0.943754 0.0183627
-0.304868 0.028319 0.951973 0.00987165
-0.336417 0.0304938 0.941219 0.0139613
-0.319857 0.0328234 0.946897 0.00716414
-0.302739 0.0219881 0.95282 0.0064271
-0.330331 0.0278263 0.943455 0.0193495
-0.31796 0.0143819 0.947995 0.0149944
-0.344386 0.0237796 0.938527 0.0253604
-0.312943 0.0235929 0.949479 0.00657509
-0.334944 0.0219406 0.941983 0.0172312
-0.340477 0.0108389 0.94019 0.0259894
-0.305963 0.0213097 0.951805 0.0164592
-0.338406 0.0143177 0.940891 0.0281294
-0.330047 0.0188887 0.943775 0.0216376
-0.313879 0.0223803 0.949199 0.0124192
-0.297724 0.031273 0.95414 0
-0.330804 0.031021 0.94319 0.0211297
-0.321568 0.021411 0.946644 0.0153728
-0.316443 0.0204594 0.948391 0.0204605
-0.319515 0.0422731 0.946638 0.00351961
-0.310179 0.0442645 0.949647 0.00697027
-0.308744 0.044773 0.950091 0.0126924
-0.309925 0.0544651 0.9492 0.00354627
-0.302872 0.0528869 0.951563 0.009822
-0.30288 0.0527628 0.951567 0.0135083
-0.30646 0.0655957 0.949621 0
-0.300897 0.0690924 0.95115 0.00212124
-0.291991 0.0696462 0.953882 0
-0.299223 0.0864503 0.950259 0
-0.292151 0.0848164 0.952604 0
-0.290074 0.0724184 0.95426 0
-0.299168 0.0847588 0.950428 0
-0.302078 0.0791822 0.949989 0
-0.297273 0.087128 0.950809 0
-0.309514 0.0965178 0.945984 0
-0.31238 0.0829224 0.946331 0.00968606
-0.303638 0.078317 0.949563 0.00521651
-0.324497 0.0858349 0.941984 0.0123329
-0.317776 0.0819501 0.944618 0.00905429
-0.305785 0.0746028 0.949173 0.00682202
-0.333533 0.0839006 0.938998 0.021257
-0.305822 0.0883133 0.947984 0.0102344
-0.30058 0.103113 0.948166 0.00289199
-0.323241 0.088996 0.942123 0.014265
-0.321824 0.0905772 0.942457 0.015705
-0.310392 0.0984413 0.945498 0.0181384
-0.328649 0.10548 0.938543 0.0184512
-0.314075 0.103775 0.943709 0.0185482
-0.317849 0.0956623 0.943303 0.0239666
-0.333247 0.110811 0.936305 0.0300175
-0.312485 0.105113 0.944089 0.0186572
-0.320026 0.101076 0.942002 0.0329759
-0.334723 0.105015 0.936447 0.0343787
-0.328483 0.107784 0.93834 0.035528
-0.318124 0.10747 0.941938 0.0349621
-0.334431 0.109928 0.935987 0.037641
-0.31863 0.119508 0.940315 0.0319772
-0.30579 0.129023 0.943316 0.0254419
-0.332978 0.114152 0.936 0.0320923
-0.310095 0.118317 0.943315 0.0264637
-0.293384 0.12533 0.947744 0.0160493
-0.315597 0.116389 0.941728 0.0160259
-0.318749 0.105971 0.941897 0.0271771
-0.305165 0.121275 0.944546 0.0199214
-0.293583 0.122794 0.948014 0.0222798
-0.316979 0.107692 0.942298 0.0226202
-0.322398 0.105552 0.940701 0.0450135
-0.295399 0.112132 0.948771 0.0242464
-0.310487 0.112062 0.943949 0.0296374
-0.281593 0.117263 0.952342 0.0076388
-0.273739 0.132668 0.95261 0.00450095
-0.301881 0.124342 0.945202 0.0129339
-0.290556 0.139177 0.946682 0.00571959
-0.280067 0.130359 0.951088 0
-0.303646 0.125718 0.944454 0.0002702
-0.292601 0.125498 0.947963 0
-0.286111 0.129781 0.949367 0.00331636
-0.271346 0.119719 0.955007 0
0.285468 0.0277482 0.957986 0.0174164
-0.303277 0.126686 0.944444 0
-0.29067 0.128759 0.94812 0
-0.285388 0.107906 0.952318 0
-0.274441 0.112021 0.955057 0.000571338
-0.267186 0.120198 0.956119 0
0.284149 0.028239 0.958364 0.0175919
-0.290328 0.120246 0.949342 0
-0.286695 0.112171 0.951433 0
-0.276434 0.118121 0.953746 0
-0.269284 0.10109 0.957741 0
-0.293754 0.131836 0.946746 0
-0.283841 0.112911 0.9522 0
-0.282937 0.109979 0.952812 0
-0.264358 0.111916 0.957909 0
-0.258409 0.133 0.956836 0
-0.294764 0.120728 0.947913 0
-0.288334 0.121096 0.949842 0
-0.281133 0.116492 0.952572 0
-0.274269 0.118287 0.95435 0
-0.26093 0.124809 0.957256 0
0.281498 0.0156141 0.959435 0.0267937
-0.290812 0.115772 0.94975 0
-0.283271 0.112951 0.952365 0
-0.276035 0.106002 0.955284 0
-0.266659 0.104005 0.958163 0
-0.259163 0.100109 0.960631 0
0.275277 0.0216059 0.961122 0.0224547
-0.292687 0.112119 0.949612 0
-0.285651 0.117753 0.951072 0
-0.277161 0.115479 0.953859 0
-0.269488 0.106558 0.95709 0
-0.256542 0.0973144 0.961622 0
0.268102 0.0255607 0.963051 0.0194742
-0.289473 0.120739 0.949541 0
-0.279271 0.122764 0.952332 0
-0.261374 0.116501 0.958181 0
-0.252291 0.107238 0.961691 0
-0.248439 0.104648 0.962978 0
0.27301 0.0203724 0.961795 0.0221257
-0.285216 0.124886 0.950292 0
-0.277539 0.111146 0.954263 0
-0.261321 0.0978504 0.960279 0
-0.253119 0.0975369 0.962506 0
-0.244891 0.108492 0.963462 0
0.25278 0.0242247 0.96722 0.00927807
0.26535 0.0195738 0.963953 0.0139296
-0.281128 0.108725 0.953492 0
-0.264382 0.0989255 0.959331 0
-0.256766 0.0922785 0.962058 0
-0.252494 0.0888514 0.96351 0
0.257289 0.0196704 0.966134 0.00955239
-0.291831 0.113055 0.949765 0
-0.268336 0.113177 0.956654 0
-0.261111 0.105795 0.959494 0
-0.259511 0.0975063 0.960805 0
-0.24498 0.103871 0.963948 0
0.253039 0.0349629 0.966824 0
-0.276869 0.10067 0.95562 0
-0.270001 0.104143 0.957211 0
-0.26281 0.10214 0.959426 0
-0.256628 0.100187 0.961304 0.00804371
-0.246659 0.0878768 0.96511 0.0211014
0.242457 0.0310712 0.969664 0.00153094
0.261796 0.0276735 0.964726 0
-0.290335 0.0844688 0.95319 0.0127506
-0.284473 0.0901404 0.954437 0.0204986
-0.271267 0.0875202 0.958517 0.0121519
-0.258065 0.0951026 0.961435 0.0138837
-0.236875 0.0813332 0.96813 0.00239422
0.248483 0.0276114 0.968243 0.000561914
0.257742 0.025606 0.965874 0
-0.287183 0.0783648 0.954665 0.0121861
-0.280692 0.0833874 0.956169 0.0164168
-0.256991 0.0778726 0.963271 0.00892704
-0.237469 0.0800285 0.968093 0.00401441
0.238149 0.0201899 0.971019 0
0.259935 0.00934543 0.965581 0
-0.291519 0.0770378 0.953458 0.0151297
-0.279692 0.0822215 0.956563 0.0122572
-0.258296 0.0873312 0.96211 0.00487618
-0.236054 0.0859361 0.967933 0
-0.226174 0.0828301 0.970559 0.00243382
0.239503 0.00832236 0.97086 0
0.251112 0.000243804 0.967958 0
-0.281118 0.0758646 0.95667 0.0131604
-0.26002 0.0869596 0.96168 0.00381628
-0.241603 0.0871895 0.96645 0
-0.222231 0.0812069 0.971606 0
-0.214468 0.0734241 0.973967 0.00578096
0.241173 -0.00171223 0.970481 0
-0.297277 0.0829091 0.951185 0.0306607
-0.280012 0.083308 0.956375 0.0257154
-0.241319 0.0908558 0.966183 0
-0.221631 0.0804762 0.971804 0
-0.206698 0.0782561 0.97527 0
0.248831 -0.00899895 0.968505 0
0.261733 -0.0139172 0.96504 0.000693491
-0.280205 0.0699254 0.95739 0.0102015
-0.270544 0.0702154 0.960144 0.0107221
-0.236268 0.0755895 0.968743 0
-0.217475 0.0838666 0.972456 0
-0.204993 0.0932659 0.97431 0
0.253463 -0.00843786 0.967308 0
0.25907 -0.00473744 0.965847 0
-0.264538 0.0917018 0.960005 0
-0.24322 0.0816066 0.966532 0
-0.222679 0.0829686 0.971355 0
-0.217569 0.0772261 0.972985 0
-0.195361 0.0783967 0.977593 0
0.248922 -0.008758 0.968484 0
0.25857 -0.0110309 0.96593 0
-0.271693 0.07893 0.959142 0
-0.248928 0.0758937 0.965544 0
-0.232669 0.0744989 0.969698 0
-0.229132 0.0689784 0.970948 0.00677223
-0.211013 0.0559863 0.975879 0.00237529
-0.203837 0.0579128 0.97729 0.00451377
0.252107 -0.00706446 0.967674 0
0.26511 -0.0035447 0.964212 0
-0.271237 0.0709904 0.959891 0
-0.253938 0.0849592 0.963482 0
-0.245393 0.0771481 0.966349 0
-0.22938 0.072241 0.970652 0
-0.212265 0.0535321 0.975745 0
-0.206578 0.0454536 0.977374 0.0035695
0.250878 -0.00275004 0.968015 0
0.259851 0.00485139 0.965637 0
-0.26969 0.0535794 0.961455 0.00075263
-0.258404 0.0569738 0.964355 0.000314725
-0.248015 0.0657381 0.966523 0
-0.233398 0.0543982 0.970859 0.00208265
-0.223089 0.0548594 0.973253 0.0141729
-0.213897 0.0365545 0.976172 0.0175146
-0.204776 0.0165358 0.978669 0.0239124
0.252398 0.00414261 0.967615 0
0.257475 0.0101591 0.966232 0
-0.269739 0.0625218 0.960902 0
-0.267218 0.0533406 0.962159 0.00655925
-0.258382 0.0424873 0.965108 0.0113677
-0.248468 0.042752 0.967696 0.0153764
-0.222263 0.0466154 0.973872 0.0032904
-0.211295 0.047428 0.976271 0.0115642
-0.206836 0.019748 0.978176 0.0221222
0.247178 0.0104957 0.968913 0
0.254591 0.00605675 0.96703 0
-0.270825 0.0622491 0.960614 0.0176338
-0.26445 0.0486851 0.96317 0.01841
-0.239646 0.0539843 0.969358 0.00379956
-0.226831 0.0493278 0.972684 0.00924371
-0.219134 0.0319115 0.975173 0.019393
-0.197996 0.0260401 0.979857 0.00213156
0.260645 0.00419037 0.965426 0
-0.272749 0.0649284 0.959892 0.0168684
-0.261597 0.0568631 0.9635 0.0226617
-0.239666 0.0452796 0.969799 0.00595092
-0.226274 0.0392092 0.973274 0.0105111
-0.207001 0.0429901 0.977396 0.00135986
-0.198091 0.044983 0.979151 0
0.240629 0.00994774 0.970566 0
0.251705 0.00726976 0.967777 0
-0.250089 0.0448249 0.967185 0
-0.235529 0.0446598 0.970841 0
-0.219538 0.0514305 0.974247 0
-0.204593 0.0468703 0.977724 0
-0.192681 0.0484746 0.980063 0
-0.187404 0.0395642 0.981486 0
0.248744 -0.00945542 0.968523 0
-0.245714 0.0397405 0.968527 0
-0.229118 0.0446414 0.972375 0
-0.219224 0.0326118 0.975129 0
-0.203259 0.0375124 0.978406 0
-0.195617 0.0466432 0.979571 0
0.249284 -0.0153914 0.968308 0.00903589
-0.245773 0.0364904 0.96864 0
-0.239445 0.037138 0.970199 0
-0.22211 0.0401116 0.974196 0
-0.205804 0.0489533 0.977368 0
-0.19337 0.0613744 0.979204 0
-0.185376 0.0448755 0.981642 0
0.255817 -0.0215638 0.966485 0.0173054
-0.250596 0.038261 0.967335 0
-0.246467 0.0344119 0.96854 0
-0.226863 0.0309961 0.973433 0
-0.208231 0.0495881 0.976822 0
-0.19645 0.0396393 0.979712 0
-0.189427 0.0410352 0.981037 0
0.269988 -0.0337346 0.962272 0.0305279
-0.247253 0.0277215 0.968554 0
-0.227619 0.0364544 0.973068 0
-0.205824 0.0417102 0.9777 0
-0.200772 0.0395361 0.97884 0
-0.188772 0.0321184 0.981496 0
0.252388 -0.0252586 0.967296 0.0162104
-0.249842 0.0170584 0.968136 0
-0.229958 0.029029 0.972767 0
-0.216773 0.0260848 0.975873 0
-0.201978 0.0248619 0.979074 0
-0.179122 0.0143648 0.983722 0
0.256421 -0.0356685 0.965907 0.0284134
-0.246577 0.0373526 0.968403 0
-0.232751 0.0315881 0.972023 0
-0.214328 0.0137077 0.976665 0
-0.205051 0.0128501 0.978667 0
-0.187575 0.018696 0.982072 0
0.255083 -0.0441569 0.96591 0.0251416
-0.245629 0.0298539 0.968904 0
-0.239228 0.0173558 0.970808 0
-0.215612 0.010516 0.976422 0
-0.206756 0.00916169 0.97835 0
-0.182761 0.00782767 0.983126 0
-0.179254 0.0128584 0.983719 0
-0.174154 0.0108711 0.984658 0
0.254489 -0.0446529 0.966044 0.0149865
-0.239185 0.00974169 0.970925 0
-0.221494 0.0053604 0.975147 0
-0.208393 0.00509421 0.978032 0
-0.192123 0.00210145 0.981369 0
-0.182166 0.008978 0.983227 0
-0.177665 -0.00338437 0.984085 0
0.253547 -0.0550931 0.965753 0.0102521
-0.235067 -0.00480914 0.971967 0
-0.216536 0.00455368 0.976264 0
-0.213051 0.0189004 0.976858 0
-0.19442 0.0028016 0.980914 0
-0.187094 0.00062494 0.982342 0
-0.179178 0.00649294 0.983795 0
0.250336 -0.0705257 0.965587 0.016136
-0.240964 0.018443 0.970359 0
-0.228704 0.00906606 0.973454 0
-0.213869 0.0269527 0.97649 0
-0.196756 0.00915352 0.98041 0
-0.185325 0.0108639 0.982617 0
-0.179369 0.0231548 0.983509 0
0.251712 -0.0706215 0.965222 0.018012
-0.238047 -0.0120769 0.971178 0
-0.224191 0.00669204 0.974522 0
-0.215653 0.0179341 0.976305 0
-0.196932 0.0250714 0.980097 0
-0.189286 0.0246105 0.981613 0
0.253219 -0.0826087 0.963875 0.0143898
-0.23771 0.00618953 0.971317 0
-0.226978 0.0190709 0.973713 0
-0.219171 0.0216923 0.975445 0
-0.191895 0.0238768 0.981125 0
0.263154 -0.0966671 0.959899 0.0232417
-0.238616 0.0147601 0.971002 0
-0.229077 0.018791 0.973227 0
-0.217654 0.0377319 0.975296 0
-0.209075 0.0306429 0.977419 0
-0.191484 0.0281017 0.981093 0
-0.185122 0.00942099 0.98267 0
0.262226 -0.0879121 0.960994 0.0248831
-0.241993 -0.00187682 0.970276 0
-0.233518 0.0148954 0.972238 0
-0.224369 0.0257908 0.974163 0
-0.211661 0.0252173 0.977018 0
-0.192491 0.0120457 0.981225 0
-0.184697 0.0111169 0.982733 0
0.262549 -0.10312 0.959393 0.0224047
-0.241735 0.00247889 0.970339 0
-0.238617 -0.00363926 0.971107 0
-0.226103 0.00415722 0.974095 0
-0.216741 -0.0018656 0.976227 0
-0.204549 -0.00522909 0.978842 0
0.264008 -0.112164 0.957976 0.0187384
-0.254458 -0.0118811 0.967011 0
-0.240476 -0.0213756 0.97042 0
-0.226585 -0.0108695 0.973931 0
-0.220723 -0.0133042 0.975246 0
-0.20321 -0.0110972 0.979072 0
-0.198518 -0.00391611 0.980089 0
-0.260699 -0.0215976 0.965178 0
-0.241065 -0.0186164 0.97033 0
-0.230273 -0.0205965 0.972908 0
-0.221924 -0.00679596 0.97504 0
-0.204446 -0.037181 0.978171 0
-0.198492 -0.0357323 0.979451 0
0.261295 -0.106298 0.959388 0.0180305
0.275308 -0.0979741 0.956351 0.0235686
-0.27438 -0.0458329 0.960528 0
-0.257959 -0.0332689 0.965583 0
-0.24636 -0.0121214 0.969103 0
-0.231038 -0.0212064 0.972713 0
-0.221286 -0.0116537 0.975139 0
-0.203636 -0.0234611 0.978766 0
0.26468 -0.0941995 0.959724 0.0181229
-0.278369 -0.0590895 0.958655 0.00775457
-0.260444 -0.0528809 0.96404 0
-0.247896 -0.0293316 0.968342 0
-0.235189 -0.0242202 0.971648 0
-0.221041 -0.0247524 0.97495 0
-0.210586 -0.0205075 0.97736 0
0.276661 -0.0962293 0.956137 0.0287399
0.27058 -0.09385 0.958112 0.0163654
-0.284059 -0.0554784 0.9572 0.0159268
-0.266357 -0.0512358 0.962512 0.00363388
-0.250443 -0.042083 0.967216 0
-0.235566 -0.0281308 0.971451 0
-0.226408 -0.0374709 0.973312 0
-0.207577 -0.0424295 0.977298 0
0.301614 -0.10333 0.947814 0.0411585
0.29023 -0.10153 0.951556 0.0285538
-0.286754 -0.062309 0.955976 0.0168026
-0.255917 -0.0530165 0.965244 0.000943172
-0.246983 -0.0476992 0.967845 0
-0.232415 -0.0419614 0.971711 0
-0.221924 -0.0412812 0.97419 0
-0.207362 -0.02703 0.977891 0
0.315306 -0.0966639 0.944054 0.0516587
0.313092 -0.0984363 0.944608 0.0426607
-0.28891 -0.0607141 0.955429 0.0119957
-0.266688 -0.0584946 0.962006 0
-0.251117 -0.0490793 0.966712 0
-0.234974 -0.0496465 0.970733 0
-0.226589 -0.0482134 0.972796 0
0.293187 -0.0982979 0.950989 0.0368071
0.302293 -0.104689 0.947449 0.0386779
-0.281429 -0.0574887 0.957858 0
-0.267918 -0.0619287 0.961449 0.00374416
-0.251686 -0.0657257 0.965575 0.00347035
-0.236857 -0.059631 0.969713 0
-0.226705 -0.051336 0.97261 0
0.277987 -0.0929041 0.956082 0.0311482
0.293942 -0.103933 0.950156 0.0344329
-0.27703 -0.0683259 0.958429 0
-0.269805 -0.0667537 0.960598 0
-0.259866 -0.062669 0.963609 0.00646767
-0.242738 -0.0558665 0.968482 0.00992254
-0.235248 -0.0719892 0.969266 0.010139
0.27663 -0.107317 0.954966 0.029726
0.278697 -0.104586 0.954668 0.0291412
0.293995 -0.116582 0.94867 0.0272252
-0.28007 -0.0568721 0.958293 0.00137543
-0.268473 -0.0634475 0.961196 0.00334157
-0.262989 -0.081696 0.961334 0.0149033
-0.242567 -0.0786705 0.96694 0.0155285
-0.231281 -0.0695803 0.970396 0.0119536
0.276892 -0.101531 0.955522 0.0241897
0.289105 -0.107493 0.951243 0.0278373
-0.289914 -0.0578753 0.955301 0.010689
-0.273259 -0.0641735 0.959798 0.00498938
-0.261389 -0.0795303 0.961952 0.020807
-0.251486 -0.0928346 0.963398 0.0257147
-0.24422 -0.0939245 0.965161 0.0278604
0.286843 -0.108097 0.951859 0.0296434
0.286013 -0.112568 0.951591 0.0225945
-0.298254 -0.0780205 0.951292 0.0135972
-0.279023 -0.0892475 0.956128 0.0183414
-0.277975 -0.0997907 0.955391 0.0331252
-0.260595 -0.106415 0.959566 0.0330652
-0.244401 -0.0991972 0.964587 0.018181
0.293241 -0.114857 0.949114 0.0290816
0.286486 -0.11303 0.951394 0.0106927
-0.325404 -0.0860192 0.941655 0.027579
-0.295601 -0.0749675 0.952365 0.0100717
-0.283371 -0.0916619 0.95462 0.0176816
-0.272342 -0.0912656 0.957862 0.015907
-0.258227 -0.10781 0.96005 0.0259376
0.28713 -0.117665 0.950637 0.0154236
0.277821 -0.111852 0.954099 0.0102664
-0.317618 -0.083503 0.944535 0.0201135
-0.293912 -0.0863578 0.951923 0.0166022
-0.270754 -0.0826642 0.959093 0.006404
-0.267008 -0.091785 0.959314 0.0153378
-0.245697 -0.0821699 0.965858 0.00710581
0.285673 -0.130345 0.949421 0.017005
-0.302901 -0.0859324 0.94914 0.011805
-0.288806 -0.0927285 0.952886 0.00708923
-0.273385 -0.0978298 0.956917 0
-0.266445 -0.102325 0.958403 0.00936497
0.307525 -0.143379 0.940676 0.0331752
-0.302044 -0.0914476 0.948898 0.00775981
-0.289306 -0.10057 0.951939 0.0110439
-0.281069 -0.110816 0.953268 0.0112805
-0.280269 -0.114745 0.953039 0.0214768
0.309655 -0.146793 0.93945 0.0270276
-0.3129 -0.0893363 0.945575 0.00527362
-0.307009 -0.0889437 0.947541 0.00696832
-0.293051 -0.106269 0.950173 0.00463351
-0.278904 -0.0997265 0.955127 0.00338171
-0.265663 -0.118039 0.956812 0.00220299
0.299133 -0.15206 0.942018 0.0259961
-0.307429 -0.0887564 0.947423 0.00295412
-0.298035 -0.0935311 0.949962 0
-0.287129 -0.0947729 0.953192 0.0035334
-0.279385 -0.104899 0.954432 0
-0.305487 -0.0891229 0.948016 0.000217395
-0.291458 -0.0924219 0.952108 0
-0.289921 -0.0973159 0.95209 0.00743993
-0.286457 -0.0983609 0.953031 0.00555923
-0.306261 -0.0802988 0.948555 0
-0.295724 -0.0861342 0.951382 0
-0.283922 -0.0930155 0.954325 0
0.29301 -0.158345 0.942906 0
-0.320429 -0.0849818 0.943453 0
-0.307806 -0.0836824 0.947762 0
-0.302256 -0.0900062 0.948968 0
-0.284706 -0.0787866 0.955372 0
0.279011 -0.154015 0.947857 0
0.288113 -0.145646 0.946456 0
-0.321753 -0.100545 0.94147 0
-0.309231 -0.108582 0.944768 0.00156256
-0.298795 -0.102782 0.948766 0
0.274029 -0.137778 0.951801 0
0.290414 -0.152954 0.944598 0
-0.326197 -0.117001 0.938033 0.00251459
-0.316461 -0.118258 0.941205 0.00194531
-0.31128 -0.119258 0.942805 0.00790974
0.296871 -0.14331 0.944103 0
-0.340311 -0.112713 0.933533 0
-0.325739 -0.114287 0.938527 0.000821144
-0.314293 -0.108378 0.943119 0.00200361
-0.307535 -0.105244 0.945698 0.00333125
0.306659 -0.149698 0.939974 0
-0.342315 -0.125339 0.931188 0
-0.337205 -0.122119 0.933477 0.0101637
-0.324756 -0.120833 0.938047 0.0132387
-0.324363 -0.118565 0.938473 0.0190048
0.309962 -0.15328 0.938312 0
-0.36095 -0.141065 0.921854 0.00831769
-0.346244 -0.126315 0.929602 0.0040653
-0.346267 -0.124256 0.929871 0.014833
-0.337001 -0.126618 0.932951 0.0183323
0.308451 -0.159364 0.937796 0
-0.360619 -0.120761 0.924863 0.00104366
-0.364008 -0.128283 0.922519 0.00833038
-0.35327 -0.125143 0.927114 0.00781483
-0.355523 -0.130397 0.925527 0.0268461
0.317802 -0.165981 0.933516 0
0.32239 -0.166054 0.931928 0
-0.356111 -0.115869 0.927232 0.00672895
-0.354792 -0.132904 0.925451 0.0144033
-0.341087 -0.121775 0.932111 0.0146096
0.316063 -0.16933 0.933505 0
-0.353008 -0.111137 0.928996 0.00440317
-0.350099 -0.124884 0.928351 0.0104277
0.314219 -0.174177 0.933236 0
-0.350069 -0.114565 0.929691 0
-0.34781 -0.123584 0.929384 0.000508472
-0.342385 -0.118299 0.932083 0.00617939
0.315887 -0.174567 0.9326 0
-0.348094 -0.120998 0.929618 0
-0.339269 -0.121884 0.93276 0
-0.341775 -0.128811 0.930912 0.00227971
0.313375 -0.170007 0.934288 0
-0.349086 -0.124154 0.92883 0
-0.341662 -0.125747 0.931373 0
0.313382 -0.166962 0.934835 0
-0.346295 -0.118889 0.930562 0.000331621
-0.340145 -0.126562 0.931817 0
-0.342008 -0.125971 0.931215 0.00199304
-0.358179 -0.122339 0.925603 0
-0.354849 -0.121265 0.927026 0.00965851
-0.346657 -0.12328 0.929855 0.00635622
-0.364181 -0.124239 0.923004 0
-0.348892 -0.122768 0.929087 0
-0.349196 -0.126732 0.92844 0.00337692
-0.363628 -0.118575 0.923967 0
-0.349951 -0.113732 0.929838 0
-0.358289 -0.107169 0.92744 0
-0.353931 -0.116817 0.927947 0
-0.365688 -0.114228 0.923701 0
-0.361566 -0.116312 0.925063 0
-0.366618 -0.118542 0.922789 0
-0.364838 -0.110279 0.924517 0
-0.375783 -0.119179 0.919012 0
-0.368418 -0.10905 0.923242 0
-0.385737 -0.118176 0.915009 0
-0.379205 -0.118238 0.917727 0
-0.394044 -0.124247 0.910655 0.00325433
-0.396246 -0.124721 0.909634 0.00632353
-0.378463 -0.121208 0.917646 0.000369727
-0.400425 -0.127998 0.907346 0.00595705
-0.385024 -0.120455 0.915012 7.77405e-05
-0.389074 -0.128451 0.912207 0.00751347
-0.426002 -0.127319 0.895719 0.0139595
-0.400563 -0.127193 0.907398 0.00125048
-0.395435 -0.123273 0.910184 0.00456628
-0.389282 -0.123006 0.912869 0.00517997
-0.43419 -0.138079 0.890176 0.016972
-0.426883 -0.129218 0.895027 0.0165725
-0.413573 -0.126252 0.901675 0.0128392
-0.384488 -0.108015 0.916789 0
-0.438417 -0.141848 0.887507 0.015441
-0.436547 -0.144904 0.887935 0.0203663
-0.422732 -0.135474 0.896072 0.0128657
-0.433278 -0.135483 0.891019 0.0126988
-0.41484 -0.138758 0.899252 0.00461038
-0.40374 -0.131312 0.905401 0
-0.420097 -0.134141 0.89751 0.00306724
-0.404711 -0.124819 0.905886 0
-0.396396 -0.126973 0.909257 0
-0.412348 -0.116793 0.903509 0
-0.414697 -0.124798 0.901361 0
-0.402607 -0.122677 0.907115 0
-0.418224 -0.109065 0.901772 0
-0.410115 -0.101716 0.906344 0
-0.406133 -0.11022 0.907142 0
-0.409079 -0.0917581 0.907874 0
-0.40997 -0.0963104 0.907 0
-0.418569 -0.0825831 0.904423 0
-0.408886 -0.0947413 0.907654 0
-0.411487 -0.0730347 0.908485 0
-0.408128 -0.0899117 0.908486 0
-0.415373 -0.0756605 0.906499 0
-0.406738 -0.0726378 0.910652 0
-0.410215 -0.0678103 0.909465 0
-0.41686 -0.0706259 0.906223 0.00264599
-0.418455 -0.0631235 0.906041 0
-0.417793 -0.059846 0.906569 0.00319417
-0.419634 -0.0538983 0.906092 0
-0.419232 -0.0580701 0.90602 0.00815585
-0.416196 -0.0473656 0.90804 0.000402553
-0.435764 -0.0552277 0.898365 0.020319
-0.424682 -0.0386964 0.904515 0.0101499
-0.428458 -0.0384261 0.902744 0.0145274
-0.423473 -0.0469728 0.90469 0.0110576
-0.411906 -0.0276809 0.910806 0.00894124
-0.433506 -0.0302569 0.900642 0.0193223
-0.422228 -0.00892195 0.906446 0.0145836
-0.415636 -0.0148698 0.90941 0.00919064
-0.417786 -0.00701472 0.908518 0.0132147
-0.416895 -0.00100281 0.908954 0.00968347
-0.415123 0.00591294 0.909746 0.00266042
-0.405409 0.00177862 0.914134 0.0029044
-0.420797 0.00778874 0.907121 0.00891098
-0.405623 0.00796216 0.914006 0.00677404
-0.407298 0.00724261 0.913267 0.00531363
-0.415785 0.00959021 0.909412 0.0179982
-0.411565 0.0157102 0.911245 0.00796812
-0.403904 0.0104138 0.914742 0.00970062
-0.412406 0.037189 0.910241 0.00241731
-0.410969 0.019837 0.911433 0.0165651
-0.407551 0.0341344 0.912544 2.04193e-06
-0.403709 0.0249986 0.914546 0.00804726
-0.404091 0.0266898 0.91433 0
-0.395453 0.0267107 0.918098 0
-0.400185 0.025926 0.916067 0.00473932
-0.392816 0.0235074 0.919316 0
-0.395544 0.02947 0.917974 0.00222559
-0.390443 0.0258009 0.920265 0.00264914
-0.392327 0.022549 0.919549 0.00450957
-0.390865 0.047174 0.919238 0.00118679
-0.389128 0.0584753 0.919326 0
-0.383292 0.0611618 0.9216 0.0154807
-0.376718 0.0731106 0.923438 0.00989015
-0.38494 0.0554716 0.921273 0.0184388
-0.377593 0.103017 0.920223 0
-0.365742 0.0981497 0.925526 0
-0.379892 0.104428 0.919117 0.0024383
-0.371075 0.127951 0.919746 0
-0.357524 0.119207 0.926265 0
-0.351689 0.149786 0.924056 0
-0.338816 0.141843 0.930099 0
-0.361114 0.138004 0.922253 0
-0.349794 0.144785 0.925571 0
-0.33946 0.130147 0.931573 0.000723442
0.258791 -0.281098 0.924127 0.0233254
0.24281 -0.275222 0.930213 0.0227729
0.253734 -0.261859 0.931155 0.0284467
0.263543 -0.257164 0.929738 0.0123714
-0.0654029 -0.13918 0.988105 0.0065104
-0.0659614 -0.150849 0.986354 0.00898363
0.267816 -0.249096 0.930713 0.00771281
0.301712 -0.291893 0.907617 0.0412647
0.306491 -0.270109 0.912746 0.032187
-0.0602223 -0.193737 0.979203 0
-0.0520997 -0.100297 0.993593 0
-0.051874 -0.110138 0.992562 0
-0.0524502 -0.165617 0.984794 0
-0.0543044 -0.160733 0.985503 0
-0.0591008 -0.159966 0.985352 0.0033094
-0.057964 -0.198726 0.978339 0.00126522
-0.0569345 -0.206463 0.976797 0
-0.0549535 -0.201369 0.977973 0
-0.0615422 -0.252655 0.965597 0
-0.0613376 -0.244609 0.96768 0
0.293449 -0.247798 0.923301 0.0281321
0.304053 -0.261285 0.916123 0.0337267
-0.0552602 -0.0777153 0.995443 0
-0.0557361 -0.0709788 0.995919 0
-0.0539609 -0.133387 0.989594 0
-0.0570619 -0.147632 0.987395 0
-0.057683 -0.152614 0.986601 0
-0.0585283 -0.182466 0.981469 0
-0.0598546 -0.178115 0.982188 0
-0.0601606 -0.148835 0.98703 0
-0.0513773 -0.15064 0.987253 0
-0.0467248 -0.0693611 0.996497 0
-0.0513658 -0.116998 0.991803 0
-0.0546783 -0.160311 0.985551 0
-0.0546017 -0.157053 0.98608 0
-0.0524875 -0.130084 0.990113 0
-0.0580356 -0.203 0.977457 0.0023764
0.300306 -0.238535 0.923535 0.031679
0.317137 -0.247413 0.915539 0.0405499
-0.131995 -0.229782 0.96425 0.0270966
-0.11054 -0.168842 0.979425 0.000691688
-0.101324 -0.181242 0.978205 0.012013
-0.0995875 -0.190025 0.976715 0.00803663
-0.0822504 -0.12859 0.988281 0
-0.0834566 -0.157196 0.984035 0.00619476
-0.0796106 -0.131001 0.988181 0.0099392
-0.072739 -0.126422 0.989306 0.00077858
-0.0728365 -0.112555 0.990972 0
-0.0681674 -0.0623869 0.995721 0
-0.0667615 -0.0770514 0.994789 0
-0.0569141 -0.064789 0.996275 0
-0.0587438 -0.0867585 0.994496 0
-0.0580255 -0.133582 0.989338 0
-0.0544668 -0.12112 0.991142 0
-0.0595702 -0.151734 0.986625 0
-0.0577724 -0.15659 0.985973 0
0.31658 -0.219988 0.922704 0.0414572
-0.168343 -0.213424 0.962347 0.016569
-0.157222 -0.20058 0.966979 0.0104936
-0.150223 -0.235461 0.960204 0.0124898
-0.138099 -0.212458 0.967362 0.0186132
-0.1285 -0.185999 0.974111 0.0184668
-0.114885 -0.180445 0.976853 0.0104423
-0.100297 -0.174926 0.97946 0.00779038
-0.0942444 -0.149419 0.984272 0.00573637
-0.0882333 -0.17196 0.981145 0.00763456
-0.0788639 -0.111886 0.990587 0.00358127
-0.0840663 -0.188107 0.978544 0.0141879
-0.0669243 -0.0863239 0.994017 0
-0.0587912 -0.0823932 0.994864 0
-0.0596645 -0.0683386 0.995876 0
0.30452 -0.194606 0.932414 0.0342486
0.309013 -0.186758 0.932541 0.0370811
-0.197596 -0.0677203 0.977942 0.0130438
-0.191442 -0.108825 0.975452 0.0112576
-0.190999 -0.150799 0.969938 0.0219087
-0.180368 -0.151363 0.971883 0.0181946
-0.167309 -0.195951 0.966235 0.0111831
-0.158831 -0.193636 0.968131 0.00691855
-0.150164 -0.152754 0.976789 0.014028
0.295043 -0.153474 0.943078 0.0338219
-0.216194 -0.0294104 0.975907 0.0112396
