# .PCD v0.7 - Point Cloud Data file format
VERSION 0.7
FIELDS x y z
SIZE 4 4 4
TYPE F F F
COUNT 1 1 1
WIDTH 1326
HEIGHT 1
VIEWPOINT 0 0 0 1 0 0 0
POINTS 1326
DATA ascii
-0.061039999 -0.25507 -0.398983
-0.072297998 -0.25486299 -0.398987
-0.072073996 -0.25483033 -0.39897168
-0.071980998 -0.25481001 -0.39899901
-0.071638666 -0.25489399 -0.39899233
-0.07147 -0.25490499 -0.39898834
-0.071346827 -0.25491166 -0.39897001
-0.071084835 -0.25490367 -0.39894533
-0.070897497 -0.25489902 -0.39894104
-0.070676796 -0.25488839 -0.3989228
-0.070458665 -0.25488964 -0.39889535
-0.070242338 -0.25489566 -0.39889336
-0.070126101 -0.25490567 -0.39889824
-0.069676168 -0.25492397 -0.39886549
-0.069503002 -0.25490001 -0.3988575
-0.069290504 -0.254906 -0.398844
-0.069108702 -0.25489458 -0.39883322
-0.068976998 -0.25496 -0.39881501
-0.068619996 -0.25494051 -0.398812
-0.068533495 -0.25494349 -0.39881101
-0.062826 -0.25498199 -0.398801
-0.062542006 -0.25496 -0.3988055
-0.062251501 -0.25490475 -0.39881849
-0.062101875 -0.25490701 -0.39882198
-0.061903503 -0.25488833 -0.39889598
-0.061728667 -0.25488916 -0.39894304
-0.0612728 -0.25489122 -0.398985
-0.061032336 -0.25492534 -0.398983
-0.072458997 -0.25467497 -0.398985
-0.072290994 -0.25471735 -0.39897999
-0.072058998 -0.25469851 -0.39895749
-0.071916603 -0.25469479 -0.39897805
-0.0716644 -0.25468859 -0.39897722
-0.071460329 -0.25468835 -0.39894632
-0.071337 -0.25469485 -0.39893886
-0.07110022 -0.25470984 -0.39891899
-0.070890106 -0.25471878 -0.39890164
-0.070685804 -0.25471401 -0.39890242
-0.070448667 -0.254673 -0.398864
-0.070232667 -0.25467864 -0.39885199
-0.070117332 -0.25468957 -0.39884642
-0.069665998 -0.25470749 -0.39883718
-0.069494165 -0.25471869 -0.3988333
-0.069282331 -0.25472501 -0.39881167
-0.069173001 -0.25472566 -0.39881697
-0.062241498 -0.25472167 -0.3988272
-0.062150247 -0.25472748 -0.39882824
-0.061895248 -0.25470725 -0.39886826
-0.0617195 -0.2547065 -0.3989355
-0.061501 -0.25464401 -0.398976
-0.061270166 -0.25468701 -0.39897585
-0.061023999 -0.254778 -0.398996
-0.072639495 -0.2544435 -0.39899099
-0.072451003 -0.25449467 -0.39895567
-0.072280668 -0.25450036 -0.39895466
-0.072050668 -0.254518 -0.39893568
-0.071892217 -0.25452191 -0.39894947
-0.071674198 -0.25451419 -0.3989538
-0.071452007 -0.25450701 -0.39892399
-0.071326829 -0.25447735 -0.39891434
-0.071090229 -0.25449324 -0.39888999
-0.07090386 -0.25451145 -0.39887759
-0.070699878 -0.25450075 -0.39887425
-0.070439994 -0.25449252 -0.39884099
-0.070225 -0.25449902 -0.39881501
-0.070099004 -0.25448287 -0.39882162
-0.069654994 -0.25448933 -0.39882818
-0.0694758 -0.25451621 -0.39881501
-0.062153999 -0.25454399 -0.39880699
-0.061887335 -0.25452635 -0.39883587
-0.061710671 -0.25452533 -0.39891768
-0.061494499 -0.25449899 -0.39894751
-0.061261751 -0.25450549 -0.39895299
-0.061062004 -0.254457 -0.39899334
-0.073072001 -0.254282 -0.39899451
-0.072806999 -0.2542935 -0.39898899
-0.072676502 -0.25429699 -0.39898202
-0.072439998 -0.25427631 -0.3989397
-0.072270669 -0.25428334 -0.39891699
-0.072040506 -0.25430015 -0.39890614
-0.071906999 -0.25431514 -0.39890939
-0.071692005 -0.25430337 -0.39890277
-0.071443327 -0.25432634 -0.39890364
-0.071318254 -0.25429651 -0.39888978
-0.071070001 -0.25428513 -0.39886773
-0.070909664 -0.25428268 -0.39887032
-0.070701107 -0.25429255 -0.39884523
-0.070431665 -0.2543107 -0.39881802
-0.070215337 -0.25431666 -0.39881864
-0.070146196 -0.25430721 -0.3988308
-0.069646254 -0.25430825 -0.39881
-0.069431499 -0.25432101 -0.398808
-0.061835665 -0.25431001 -0.39880466
-0.061701834 -0.25430882 -0.3988668
-0.061485995 -0.25431767 -0.39892033
-0.061252493 -0.25432366 -0.39894485
-0.0611245 -0.25432974 -0.39897302
-0.060998999 -0.25426999 -0.39896101
-0.074271999 -0.25402799 -0.398983
-0.074062496 -0.25407898 -0.39898351
-0.073056497 -0.25407419 -0.39897701
-0.072900139 -0.25411743 -0.39897999
-0.072700746 -0.25410739 -0.39895642
-0.072431505 -0.25409549 -0.3989225
-0.072264001 -0.25410402 -0.39886999
-0.072035804 -0.25409698 -0.39889598
-0.071926139 -0.25407615 -0.39889172
-0.07170663 -0.25410387 -0.39886674
-0.071475253 -0.25408873 -0.398864
-0.071310505 -0.25411633 -0.39885834
-0.071083292 -0.25410885 -0.39885882
-0.070901006 -0.25410151 -0.39885148
-0.070680246 -0.25408477 -0.3988241
-0.070419997 -0.25409332 -0.39881936
-0.07020434 -0.25409868 -0.39881134
-0.070144743 -0.25412124 -0.39882001
-0.069684997 -0.254197 -0.39880601
-0.061691836 -0.25409088 -0.39883101
-0.061477002 -0.25410101 -0.39887401
-0.061243337 -0.25410652 -0.39889848
-0.061155003 -0.25410834 -0.398949
-0.060993668 -0.25412399 -0.39892066
-0.074279495 -0.253892 -0.39898562
-0.074098289 -0.25388601 -0.39895672
-0.073876664 -0.25390565 -0.39899334
-0.073649339 -0.25391701 -0.39898482
-0.073481396 -0.25391179 -0.39899102
-0.073074363 -0.25388446 -0.39894906
-0.0729075 -0.25388932 -0.39892718
-0.072701551 -0.25389832 -0.39893103
-0.072424665 -0.25391635 -0.39886633
-0.07225433 -0.25392166 -0.39887133
-0.0720485 -0.253901 -0.39885098
-0.071936168 -0.25390583 -0.39885783
-0.071730167 -0.25387651 -0.39884567
-0.07150767 -0.25388598 -0.39885414
-0.0713 -0.2538985 -0.3988378
-0.071080856 -0.25392288 -0.39884144
-0.0709185 -0.25390938 -0.39882451
-0.070733592 -0.25391141 -0.39882702
-0.070534997 -0.253914 -0.39880967
-0.061673999 -0.25388879 -0.3988032
-0.061468333 -0.25388399 -0.39882398
-0.061269332 -0.25388801 -0.39887401
-0.061169837 -0.25388867 -0.39891633
-0.060982335 -0.25390601 -0.39891401
-0.060780331 -0.25391001 -0.39895734
-0.074295245 -0.25370151 -0.3989715
-0.0741015 -0.25368601 -0.39894748
-0.073867001 -0.25368866 -0.39895001
-0.073684335 -0.25369737 -0.39895868
-0.07350789 -0.25370747 -0.39894745
-0.073081002 -0.25370756 -0.39892066
-0.072891198 -0.2536878 -0.39890042
-0.072693117 -0.25368279 -0.39887357
-0.072413333 -0.25369802 -0.39886332
-0.072244667 -0.25370535 -0.39883032
-0.072039336 -0.25372002 -0.39883867
-0.07192789 -0.25372547 -0.39882934
-0.071721002 -0.25369474 -0.39884001
-0.071481198 -0.25368559 -0.39882779
-0.071282007 -0.25369722 -0.39880937
-0.0710942 -0.25370863 -0.39882499
-0.070942335 -0.25374734 -0.39880934
-0.070731997 -0.253757 -0.39881599
-0.070588499 -0.25375301 -0.39880699
-0.061659332 -0.25372836 -0.39880565
-0.061457001 -0.25370097 -0.39885101
-0.061261997 -0.253708 -0.39883301
-0.061157398 -0.25368819 -0.39884979
-0.060974669 -0.25369033 -0.3988317
-0.060747497 -0.25367373 -0.39894077
-0.074939996 -0.25345501 -0.398987
-0.074786998 -0.25342101 -0.398994
-0.074593499 -0.25346401 -0.39897799
-0.074286833 -0.25352067 -0.39895296
-0.074114718 -0.25350928 -0.39893755
-0.073859006 -0.25350899 -0.398918
-0.073674329 -0.25348032 -0.39892164
-0.07349845 -0.25349179 -0.39890522
-0.073088892 -0.25351679 -0.39887235
-0.072934255 -0.25351638 -0.39886642
-0.072728753 -0.25350097 -0.39884651
-0.0724812 -0.25349098 -0.39883035
-0.072235495 -0.25352448 -0.39881998
-0.072033003 -0.25357601 -0.398808
-0.071919329 -0.253544 -0.39880764
-0.071722999 -0.25352842 -0.39881483
-0.071574666 -0.253519 -0.39882132
-0.071126997 -0.25354499 -0.39880401
-0.061447334 -0.2535173 -0.39885068
-0.06125167 -0.25352499 -0.398839
-0.061158799 -0.25351259 -0.39883918
-0.060965501 -0.25350949 -0.398821
-0.060717754 -0.25350922 -0.39893848
-0.060546 -0.25347635 -0.39899436
-0.0752545 -0.25328949 -0.39896551
-0.075118884 -0.25330833 -0.39898157
-0.074931331 -0.25327364 -0.39896867
-0.074781001 -0.25327769 -0.39896569
-0.074585333 -0.25328299 -0.39895499
-0.074276663 -0.25330368 -0.39892831
-0.074093997 -0.25331378 -0.39891058
-0.073850662 -0.25332764 -0.39889398
-0.073667005 -0.2533015 -0.39887851
-0.073489569 -0.25329587 -0.39887786
-0.073399998 -0.25321001 -0.39885101
-0.073085502 -0.25329074 -0.39882737
-0.072925746 -0.2533181 -0.39882636
-0.072713003 -0.25333601 -0.3988176
-0.072589003 -0.25332567 -0.39881203
-0.072397001 -0.253337 -0.39880699
-0.071567997 -0.25337499 -0.39880699
-0.061441001 -0.253373 -0.39881799
-0.061239332 -0.25330499 -0.39885798
-0.061142504 -0.25330833 -0.39884916
-0.060708333 -0.25332665 -0.39893052
-0.060530804 -0.25331539 -0.39899081
-0.076031506 -0.253039 -0.39899001
-0.075940251 -0.25308925 -0.39898625
-0.075709395 -0.25306359 -0.39899018
-0.075244337 -0.25310835 -0.39896902
-0.075102419 -0.25311694 -0.39894566
-0.074922994 -0.2530925 -0.39894348
-0.074773505 -0.253097 -0.398922
-0.074577004 -0.2531015 -0.398929
-0.074267171 -0.25308669 -0.39889249
-0.074084006 -0.25309765 -0.39888066
-0.073840328 -0.25311098 -0.39887562
-0.073658668 -0.25312066 -0.39885798
-0.073533192 -0.25311202 -0.39885759
-0.073394001 -0.25310099 -0.39884752
-0.073098004 -0.253153 -0.39881098
-0.072931997 -0.25313899 -0.39881301
-0.072671004 -0.253178 -0.39880401
-0.072581999 -0.25318101 -0.39880401
-0.061234001 -0.253162 -0.39880899
-0.061136998 -0.25316548 -0.3988055
-0.060699165 -0.25310999 -0.39889017
-0.060511503 -0.25311399 -0.39895615
-0.060362998 -0.25304899 -0.39899799
-0.076072752 -0.25288451 -0.39898276
-0.075916335 -0.25292668 -0.39897421
-0.075772002 -0.25289351 -0.398972
-0.075595006 -0.25290099 -0.3989805
-0.075233996 -0.25289068 -0.39895001
-0.075091831 -0.25289968 -0.39892867
-0.074914336 -0.25291201 -0.39892367
-0.074764997 -0.25291666 -0.39890835
-0.074568994 -0.25292233 -0.39889833
-0.074249998 -0.25288621 -0.39885181
-0.074064746 -0.25289148 -0.39883989
-0.073830001 -0.25289467 -0.39885166
-0.073648006 -0.25290403 -0.39883968
-0.073515005 -0.25291136 -0.398828
-0.073386006 -0.25292099 -0.39881602
-0.060688663 -0.25289267 -0.39886472
-0.060502499 -0.25289717 -0.39891183
-0.060356002 -0.25290334 -0.39897731
-0.060181666 -0.25290731 -0.39897868
-0.0764025 -0.2526415 -0.39898899
-0.076229669 -0.25268334 -0.39897466
-0.076088093 -0.25269172 -0.39897883
-0.075905226 -0.25270924 -0.39896578
-0.075764 -0.25271332 -0.39894533
-0.075586997 -0.25272134 -0.398954
-0.075224333 -0.25267467 -0.39891198
-0.075081505 -0.25268275 -0.39890727
-0.074904338 -0.25269535 -0.39889202
-0.074755006 -0.25270033 -0.39887235
-0.074559003 -0.25270534 -0.398873
-0.074258603 -0.25271261 -0.39881921
-0.074110001 -0.25271758 -0.39883479
-0.073820002 -0.25267801 -0.39881834
-0.073640004 -0.25272399 -0.39880201
-0.073505998 -0.252729 -0.39881647
-0.073379003 -0.252776 -0.39880899
-0.060678497 -0.25267434 -0.39884081
-0.060491998 -0.25267935 -0.39888918
-0.060346663 -0.25268635 -0.39893234
-0.06013025 -0.25267324 -0.39896747
-0.059957001 -0.25263101 -0.39899999
-0.076889671 -0.25243834 -0.398985
-0.076696493 -0.25252083 -0.39898634
-0.076308504 -0.25250024 -0.39895776
-0.076077498 -0.25248298 -0.39892694
-0.075895339 -0.25249243 -0.39893621
-0.075754337 -0.25249699 -0.39890265
-0.075576335 -0.25250468 -0.3989377
-0.075215995 -0.25249401 -0.39888752
-0.075083569 -0.25250617 -0.39888373
-0.074936196 -0.2524628 -0.3988556
-0.074746333 -0.25248501 -0.39882267
-0.07454934 -0.25248933 -0.39883336
-0.074245006 -0.25258303 -0.39880201
-0.074094996 -0.25259 -0.39881152
-0.060626499 -0.25249299 -0.39883399
-0.0604835 -0.25249851 -0.39886501
-0.060339 -0.25250548 -0.39889401
-0.060083501 -0.25251323 -0.39894
-0.059938166 -0.25246334 -0.398965
-0.078012668 -0.25231031 -0.39899531
-0.077951998 -0.252244 -0.39899799
-0.077304497 -0.25228176 -0.39899325
-0.077140003 -0.252269 -0.39897501
-0.076882452 -0.25229356 -0.39896953
-0.076686658 -0.25230417 -0.39896083
-0.076301001 -0.25232068 -0.39891934
-0.076092832 -0.25229865 -0.39890364
-0.07591366 -0.25227791 -0.39888915
-0.075746335 -0.25228333 -0.39883766
-0.075566672 -0.25228766 -0.39890036
-0.07520733 -0.252314 -0.39886865
-0.075088218 -0.25231871 -0.39886844
-0.074957006 -0.25230798 -0.39883566
-0.074540496 -0.25230801 -0.39881802
-0.060621999 -0.25238401 -0.398808
-0.060465802 -0.25233218 -0.39884263
-0.060332 -0.252327 -0.39884433
-0.060155664 -0.25232801 -0.39888266
-0.059898902 -0.2522867 -0.39892006
-0.059699997 -0.2522015 -0.39899248
-0.078003004 -0.25212801 -0.39899302
-0.077900425 -0.25208828 -0.39898515
-0.077654667 -0.25210467 -0.39898434
-0.077478327 -0.25210968 -0.398994
-0.077295549 -0.25211853 -0.39897433
-0.077134669 -0.25212732 -0.39893332
-0.07687223 -0.25207645 -0.39894468
-0.076676503 -0.25208867 -0.39892665
-0.076308802 -0.25211802 -0.39889818
-0.076095596 -0.25210911 -0.39888769
-0.075905629 -0.25209764 -0.39886326
-0.075737506 -0.25210249 -0.39881599
-0.075558499 -0.25210851 -0.39887649
-0.075200997 -0.25216901 -0.39884901
-0.075100094 -0.25209543 -0.39883211
-0.074930757 -0.25211626 -0.39881
-0.074536003 -0.25219899 -0.39880201
-0.060417999 -0.25217599 -0.39881799
-0.060146 -0.25211132 -0.39884898
-0.059913598 -0.25211141 -0.39889988
-0.059695501 -0.25209376 -0.39896899
-0.078236997 -0.25188169 -0.39897966
-0.078077428 -0.25188643 -0.39897627
-0.077913888 -0.25188157 -0.39894521
-0.077645004 -0.25188836 -0.39894935
-0.077468999 -0.25189468 -0.39895436
-0.077311143 -0.25191173 -0.3989436
-0.077153407 -0.25189361 -0.39892578
-0.076897994 -0.25189501 -0.39890549
-0.076698288 -0.25189015 -0.3989026
-0.076368332 -0.251885 -0.39887097
-0.076103993 -0.25189781 -0.39885727
-0.075894728 -0.25192481 -0.39882717
-0.075726666 -0.25191832 -0.39884368
-0.075551331 -0.25192833 -0.39882433
-0.075111285 -0.25192484 -0.39881155
-0.059893329 -0.25190967 -0.39885888
-0.059688333 -0.25191352 -0.39892218
-0.059467502 -0.25188202 -0.39898199
-0.078636996 -0.251771 -0.39899799
-0.078539997 -0.25163001 -0.39899701
-0.078287579 -0.25171128 -0.39896673
-0.078096889 -0.25170368 -0.39892909
-0.077906169 -0.25170201 -0.39890817
-0.077636339 -0.251674 -0.39889002
-0.077459998 -0.25167969 -0.39891234
-0.077319838 -0.25168517 -0.39890447
-0.077151835 -0.25169167 -0.39889649
-0.076890498 -0.25171515 -0.39886633
-0.076713629 -0.25171524 -0.39888251
-0.076360494 -0.251706 -0.39883351
-0.076084293 -0.25172499 -0.39881131
-0.075865 -0.25177199 -0.398803
-0.075760007 -0.25177401 -0.39880252
-0.075542003 -0.251748 -0.398819
-0.0599145 -0.25172749 -0.39882365
-0.059718225 -0.25169712 -0.39886156
-0.059459001 -0.25170001 -0.39896098
-0.078657806 -0.2514644 -0.39898041
-0.078490667 -0.25148532 -0.39897799
-0.078321338 -0.25149417 -0.39894533
-0.078099243 -0.25150365 -0.39890099
-0.077926993 -0.25153115 -0.39887914
-0.077711999 -0.25149149 -0.39888349
-0.077452004 -0.25150001 -0.398875
-0.077302597 -0.2514832 -0.39887241
-0.077142335 -0.25147602 -0.398855
-0.076880164 -0.25149867 -0.39884052
-0.076693326 -0.25150865 -0.398846
-0.076352328 -0.25152537 -0.39881203
-0.059682831 -0.25150385 -0.39883664
-0.059449662 -0.25148401 -0.39892331
-0.079165995 -0.2512655 -0.39899302
-0.078885995 -0.25131002 -0.398981
-0.078713283 -0.25131044 -0.39896229
-0.078483 -0.25130498 -0.39894325
-0.078311332 -0.25127766 -0.3989155
-0.078088753 -0.25128651 -0.39888251
-0.077945001 -0.2513186 -0.39883542
-0.077703841 -0.251311 -0.39885131
-0.077443004 -0.25131899 -0.39886567
-0.077310398 -0.25130942 -0.39885038
-0.077134252 -0.25129598 -0.39882526
-0.076863669 -0.25133133 -0.39882031
-0.076727167 -0.25129083 -0.39881766
-0.059618503 -0.25130099 -0.39881599
-0.059441 -0.25130248 -0.398895
-0.079425998 -0.25106901 -0.398996
-0.079300828 -0.25108165 -0.39898452
-0.079121336 -0.25108668 -0.39896634
-0.078887999 -0.25110966 -0.39893535
-0.078692891 -0.25111642 -0.39892513
-0.078475162 -0.25112617 -0.39890704
-0.078303248 -0.25109726 -0.39888424
-0.078108169 -0.251104 -0.39885116
-0.077964999 -0.25107199 -0.39883783
-0.077711597 -0.25110921 -0.39882103
-0.077432998 -0.251102 -0.39883265
-0.077313252 -0.25112352 -0.39882675
-0.077115662 -0.25116533 -0.39880666
-0.059613001 -0.25119099 -0.39880201
-0.059433997 -0.25112268 -0.39884666
-0.059144001 -0.25110799 -0.39897454
-0.080027997 -0.25083199 -0.39897501
-0.079952747 -0.25089049 -0.39897525
-0.079769008 -0.25091898 -0.39897898
-0.079420336 -0.25092635 -0.39895901
-0.079293504 -0.25090301 -0.39894152
-0.079112001 -0.25087151 -0.39892367
-0.078878663 -0.25089434 -0.39889064
-0.07870885 -0.25091043 -0.39888287
-0.078498624 -0.2509011 -0.39885965
-0.078295164 -0.25091833 -0.39885166
-0.07809978 -0.25092354 -0.39882517
-0.077976003 -0.25091234 -0.39881599
-0.077769995 -0.25091201 -0.3988035
-0.077425003 -0.25092301 -0.39880651
-0.077325001 -0.25095999 -0.39880601
-0.059424002 -0.25090566 -0.39881733
-0.059100714 -0.25089887 -0.3989577
-0.080238499 -0.25064 -0.39898801
-0.080086835 -0.25068533 -0.39896619
-0.079955004 -0.25069416 -0.39893317
-0.079758666 -0.25070235 -0.39895669
-0.079411663 -0.25071236 -0.39890635
-0.079285167 -0.25072268 -0.39891815
-0.07910426 -0.2506915 -0.3988865
-0.078868665 -0.25067803 -0.39886233
-0.0787175 -0.25068268 -0.39884615
-0.078500226 -0.25069389 -0.39882874
-0.078285664 -0.25070232 -0.39881864
-0.078078203 -0.25075141 -0.39880839
-0.077983998 -0.250792 -0.39880601
-0.059414499 -0.25072399 -0.39881301
-0.059072003 -0.25069153 -0.3989352
-0.05889 -0.25062501 -0.39899001
-0.080288798 -0.250512 -0.39897761
-0.080078751 -0.250505 -0.39893851
-0.079944171 -0.25047702 -0.39892149
-0.079748996 -0.25048664 -0.39891934
-0.079402499 -0.25053 -0.39889401
-0.079293005 -0.25049499 -0.39888158
-0.079096496 -0.25051233 -0.39885268
-0.078860499 -0.2504985 -0.39883101
-0.078709498 -0.250503 -0.39881748
-0.078493334 -0.25054932 -0.39880601
-0.059096664 -0.25047582 -0.39887181
-0.058939498 -0.25047752 -0.39894584
-0.080269665 -0.25031015 -0.39896166
-0.080070168 -0.25032568 -0.39891532
-0.079935499 -0.2502965 -0.3989045
-0.079741001 -0.2503075 -0.39889348
-0.079307556 -0.25028732 -0.39884666
-0.079100996 -0.25034466 -0.39882198
-0.078837663 -0.25036731 -0.39880529
-0.059088249 -0.25029451 -0.39884526
-0.058931001 -0.25029576 -0.39892799
-0.058766 -0.25026301 -0.39899799
-0.080672003 -0.250058 -0.398987
-0.080260165 -0.25009382 -0.39892545
-0.080125667 -0.25010666 -0.39889202
-0.079950117 -0.25011468 -0.39887422
-0.079732992 -0.25012699 -0.39885798
-0.079318404 -0.25011399 -0.39881301
-0.059041336 -0.25011432 -0.39883065
-0.058923498 -0.25011536 -0.39888564
-0.058759999 -0.25011802 -0.39896932
-0.080891997 -0.24988 -0.39899701
-0.080729716 -0.24990928 -0.39897057
-0.080260202 -0.2498918 -0.39890161
-0.080136999 -0.24987149 -0.39886549
-0.079939991 -0.24989901 -0.39884508
-0.079723991 -0.24991132 -0.39881697
-0.079301 -0.25 -0.39881301
-0.058913335 -0.249898 -0.39885366
-0.058750998 -0.24990267 -0.39891633
-0.081024997 -0.249616 -0.398994
-0.080882996 -0.249699 -0.39897999
-0.080710888 -0.24971335 -0.39894679
-0.080288999 -0.24969551 -0.398866
-0.080140993 -0.2496852 -0.39885381
-0.079942994 -0.24969372 -0.39881954
-0.058888 -0.24973135 -0.39881432
-0.058740664 -0.249685 -0.39888635
-0.081019007 -0.24947266 -0.39896366
-0.080874003 -0.24948366 -0.39893532
-0.080701217 -0.2494982 -0.39891368
-0.080280334 -0.249514 -0.39885101
-0.0801512 -0.249512 -0.39882302
-0.079921998 -0.249542 -0.39880499
-0.058734 -0.249506 -0.39883453
-0.058501001 -0.249466 -0.39899799
-0.0814806 -0.249284 -0.39897642
-0.081304796 -0.24929161 -0.39896196
-0.081011996 -0.249294 -0.39891702
-0.080866501 -0.2493055 -0.39889199
-0.080692008 -0.24928345 -0.39886966
-0.080270663 -0.249299 -0.39881632
-0.080181003 -0.24938101 -0.39880201
-0.058725338 -0.24932466 -0.39881232
-0.058495 -0.24932034 -0.39896765
-0.081741497 -0.249038 -0.398981
-0.081481002 -0.24908383 -0.39893451
-0.081306003 -0.24909015 -0.398918
-0.081003994 -0.24911468 -0.39888433
-0.080858998 -0.24912699 -0.39885566
-0.080683999 -0.24910432 -0.39883268
-0.058486 -0.24910367 -0.39892769
-0.0583825 -0.249063 -0.39899099
-0.081837997 -0.248851 -0.39898399
-0.081735499 -0.24889451 -0.398958
-0.081472501 -0.24890375 -0.39891678
-0.081287205 -0.24889021 -0.39888802
-0.080921836 -0.24890518 -0.39883551
-0.080695748 -0.24897851 -0.39881
-0.058476333 -0.24888766 -0.39887735
-0.058374334 -0.24888067 -0.39896533
-0.082059003 -0.248615 -0.39899701
-0.081905581 -0.2486977 -0.39897931
-0.081727661 -0.248715 -0.39891768
-0.081464499 -0.248724 -0.39888433
-0.081298992 -0.2487164 -0.39885119
-0.080926605 -0.24870241 -0.39881837
-0.05847 -0.24870899 -0.39882499
-0.058339 -0.248689 -0.39893469
-0.082053006 -0.24850599 -0.39899901
-0.081896089 -0.24848217 -0.39894268
-0.081716664 -0.24849732 -0.39890766
-0.081454501 -0.24850816 -0.39885548
-0.081280336 -0.24851567 -0.39882168
-0.080977 -0.248539 -0.39881799
-0.058460001 -0.24852568 -0.398826
-0.058318336 -0.24852216 -0.3989
-0.082044996 -0.248326 -0.39897862
-0.081878662 -0.24829078 -0.39892125
-0.081707664 -0.24828233 -0.39886832
-0.081468754 -0.24831124 -0.39882499
-0.081313573 -0.24829657 -0.39881086
-0.058307335 -0.24830282 -0.39888763
-0.058178499 -0.248263 -0.39898449
-0.082245998 -0.248024 -0.39899552
-0.082076833 -0.24810635 -0.39896432
-0.081884816 -0.24811338 -0.39891216
-0.0816985 -0.24810199 -0.398848
-0.081483997 -0.24815001 -0.39880401
-0.081308499 -0.24811199 -0.39880651
-0.0582975 -0.24808533 -0.39885914
-0.058170002 -0.24808 -0.39896634
-0.082283668 -0.24787666 -0.39898166
-0.082109228 -0.24788755 -0.39895087
-0.081893116 -0.24790165 -0.39888775
-0.081743166 -0.24791901 -0.39883351
-0.058247499 -0.247903 -0.398862
-0.058161497 -0.247898 -0.39894801
-0.082471997 -0.247646 -0.39899001
-0.0823346 -0.24771242 -0.39897639
-0.082088575 -0.24769387 -0.39890784
-0.081883222 -0.24768633 -0.39885524
-0.081760004 -0.24771851 -0.39881998
-0.058238998 -0.24772198 -0.39883867
-0.058111601 -0.247702 -0.3989462
-0.082498595 -0.24748521 -0.3989844
-0.082316332 -0.24751283 -0.39893416
-0.082103379 -0.247519 -0.39889163
-0.081875496 -0.24750735 -0.39882299
-0.081779003 -0.247554 -0.39880499
-0.058231 -0.24754149 -0.39881098
-0.058091998 -0.24749835 -0.39893034
-0.082718499 -0.247244 -0.398974
-0.082497828 -0.247284 -0.39895514
-0.082306497 -0.247297 -0.39890516
-0.082107566 -0.24732128 -0.39887699
-0.081914872 -0.24731451 -0.39881837
-0.058080669 -0.247279 -0.3989183
-0.082838498 -0.24704501 -0.39899051
-0.082711503 -0.247099 -0.39895648
-0.082480803 -0.24708459 -0.3989132
-0.082295172 -0.24707949 -0.39889452
-0.082115501 -0.2470945 -0.3988463
-0.081895269 -0.24711198 -0.39881662
-0.058206998 -0.2471 -0.398821
-0.058071502 -0.24709575 -0.39891326
-0.082850128 -0.24689087 -0.3989771
-0.082703337 -0.24691933 -0.39893666
-0.082489796 -0.24691041 -0.3988958
-0.082286999 -0.24689925 -0.39887524
-0.082104832 -0.24687733 -0.39882717
-0.081917204 -0.24693 -0.39881238
-0.058201998 -0.24699 -0.398821
-0.058094747 -0.24690276 -0.39889637
-0.082906887 -0.24667801 -0.39897344
-0.082744002 -0.2466955 -0.39893135
-0.082471162 -0.24670799 -0.3988812
-0.082278997 -0.24672116 -0.39884016
-0.082095757 -0.246696 -0.39882427
-0.05826667 -0.24669367 -0.39880633
-0.058121141 -0.24669899 -0.39890656
-0.057995498 -0.24665 -0.39897799
-0.082897671 -0.24649668 -0.39896166
-0.082723394 -0.24649319 -0.39891919
-0.082460664 -0.24649151 -0.39886284
-0.082268663 -0.24650432 -0.39881968
-0.082103662 -0.24656267 -0.39881435
-0.058255501 -0.24650601 -0.39883301
-0.058130249 -0.24650249 -0.39891797
-0.083129004 -0.246232 -0.39898801
-0.082889557 -0.24631755 -0.39893422
-0.082735606 -0.2463176 -0.39890379
-0.082452506 -0.2463125 -0.39883649
-0.082309999 -0.246355 -0.398812
-0.058283798 -0.24630639 -0.39883882
-0.058118999 -0.246316 -0.39894566
-0.083122335 -0.246087 -0.39897299
-0.08287856 -0.24610001 -0.39892375
-0.082716167 -0.24611783 -0.39887467
-0.082464755 -0.24612948 -0.39882851
-0.082397997 -0.246062 -0.39880401
-0.058281332 -0.24609834 -0.39886001
-0.058128253 -0.24611075 -0.3989625
-0.083113 -0.245905 -0.39896399
-0.082868554 -0.24588376 -0.39889586
-0.082704835 -0.24589968 -0.39886734
-0.082479998 -0.245985 -0.398803
-0.058279604 -0.24589022 -0.39887559
-0.058137 -0.245906 -0.39897799
-0.083368003 -0.24562401 -0.39899799
-0.083104335 -0.24572366 -0.39894769
-0.082871996 -0.24570961 -0.3988834
-0.082736403 -0.24569221 -0.3988556
-0.058248799 -0.24570942 -0.3989132
-0.058127999 -0.245757 -0.39899498
-0.083361998 -0.245515 -0.39899498
-0.083092995 -0.245506 -0.39894366
-0.082879834 -0.24551934 -0.39888433
-0.082729861 -0.2454907 -0.39884543
-0.05829433 -0.24549733 -0.39895931
-0.058199 -0.24557 -0.39898399
-0.083081335 -0.245286 -0.39895034
-0.08286833 -0.24529999 -0.3988843
-0.082720503 -0.24530387 -0.39885139
-0.058509499 -0.24524599 -0.39883
-0.083340667 -0.24511433 -0.39899334
-0.083072498 -0.24510449 -0.39893401
-0.082857333 -0.24508215 -0.39887452
-0.082698673 -0.24509522 -0.39885032
-0.058606498 -0.24509349 -0.39882401
-0.058499001 -0.2450915 -0.39888501
-0.083329 -0.24489367 -0.39899501
-0.083064325 -0.24492534 -0.39891031
-0.082848497 -0.244901 -0.39886674
-0.08268933 -0.244913 -0.39884803
-0.082507998 -0.2448175 -0.398817
-0.082332 -0.244821 -0.39880401
-0.058837999 -0.244821 -0.398839
-0.058728002 -0.2448812 -0.39886481
-0.05855 -0.24491319 -0.39893639
-0.083318003 -0.244675 -0.39899197
-0.083051674 -0.24470367 -0.39892969
-0.082858004 -0.24473375 -0.3988865
-0.082740627 -0.24471287 -0.39887324
-0.082501002 -0.2447045 -0.39884025
-0.082325995 -0.24471 -0.39881599
-0.058828503 -0.2447025 -0.398913
-0.058731001 -0.24471335 -0.39895734
-0.083310001 -0.244527 -0.39899999
-0.083038665 -0.24448299 -0.39895633
-0.082863338 -0.24449234 -0.39891836
-0.082734786 -0.2445 -0.39889535
-0.08253625 -0.2445375 -0.39886302
-0.082308851 -0.24450287 -0.39885041
-0.082068503 -0.24450374 -0.39883
-0.081936002 -0.244473 -0.398819
-0.059413999 -0.244433 -0.39881301
-0.059285 -0.24445666 -0.39884934
-0.059083667 -0.24450798 -0.39889666
-0.058819 -0.24458399 -0.398985
-0.083027497 -0.24429551 -0.39898598
-0.082853004 -0.24430799 -0.39892852
-0.08271575 -0.24428774 -0.39892086
-0.082568325 -0.24429834 -0.39887598
-0.082324147 -0.244311 -0.39887872
-0.082092129 -0.24430475 -0.39886475
-0.081927329 -0.24432565 -0.39882597
-0.059733 -0.24426 -0.398837
-0.059494372 -0.24431476 -0.39883965
-0.059287749 -0.2443115 -0.39892751
-0.083021 -0.244186 -0.398992
-0.082842328 -0.24412198 -0.39895999
-0.082718432 -0.24410656 -0.39895529
-0.082556501 -0.244112 -0.39891201
-0.082323201 -0.24409199 -0.3989138
-0.082106665 -0.24411233 -0.39891335
-0.081903122 -0.24409476 -0.39885587
-0.081744 -0.24407899 -0.39880851
-0.060135499 -0.244021 -0.39882898
-0.059933204 -0.24408622 -0.3988784
-0.059722498 -0.24413849 -0.39892501
-0.059512999 -0.24419166 -0.39892733
-0.059393998 -0.244192 -0.39897099
-0.082833 -0.243973 -0.39898601
-0.08270625 -0.24391399 -0.39898464
-0.082544662 -0.24392332 -0.39895502
-0.082320243 -0.24392399 -0.39897275
-0.0821255 -0.24393074 -0.39898199
-0.081889123 -0.2438865 -0.39891776
-0.081684329 -0.24389423 -0.39884168
-0.081584498 -0.24387001 -0.39881399
-0.060261998 -0.243945 -0.39881799
-0.060109336 -0.24391 -0.39893532
-0.059976 -0.24394 -0.39897501
-0.082534999 -0.243774 -0.39898899
-0.081871793 -0.24371162 -0.39895561
-0.081671834 -0.24370585 -0.39888898
-0.081529401 -0.24367079 -0.39885241
-0.061275002 -0.243682 -0.39881599
-0.061156664 -0.24365501 -0.39884534
-0.081692256 -0.24351458 -0.39895415
-0.081507251 -0.24349724 -0.39890099
-0.081239 -0.24351549 -0.39882702
-0.081114665 -0.24342799 -0.39883065
-0.080963001 -0.243413 -0.39883599
-0.080709003 -0.243433 -0.39880699
-0.080311999 -0.24345601 -0.398803
-0.079963997 -0.24346399 -0.398808
-0.061497748 -0.24359199 -0.39885077
-0.061294336 -0.24357367 -0.39888534
-0.061182 -0.243536 -0.39880601
-0.081625 -0.2433655 -0.39899302
-0.081468746 -0.24332701 -0.39895776
-0.081224665 -0.24332166 -0.39891434
-0.081091247 -0.24328825 -0.39888448
-0.080954999 -0.24329901 -0.39887202
-0.080698662 -0.24328132 -0.39885101
-0.080509201 -0.2432816 -0.39883837
-0.080343999 -0.24330349 -0.39885131
-0.079906665 -0.24331717 -0.39885366
-0.079724997 -0.24328066 -0.39883968
-0.079568997 -0.243264 -0.39882451
-0.078065 -0.24325451 -0.39881951
-0.077894002 -0.24326199 -0.39881051
-0.077584997 -0.243204 -0.398803
-0.075912997 -0.243204 -0.39881799
-0.081212997 -0.243166 -0.398987
-0.081078999 -0.243132 -0.39896399
-0.080940999 -0.24310666 -0.39895201
-0.080684498 -0.2430885 -0.398938
-0.080484748 -0.243102 -0.39893252
-0.080329746 -0.24310949 -0.398938
-0.079893 -0.24315649 -0.398967
-0.079690754 -0.24313526 -0.39893398
-0.079552807 -0.24312201 -0.39891359
-0.079363003 -0.243119 -0.39888766
-0.079012997 -0.24309301 -0.39884901
-0.078869671 -0.24309099 -0.39885965
-0.078707002 -0.24310824 -0.39883602
-0.078458406 -0.24307561 -0.39885181
-0.078307599 -0.24307641 -0.39887419
-0.078097552 -0.24309877 -0.39888355
-0.077882163 -0.24310501 -0.39889082
-0.077685446 -0.24310978 -0.39888301
-0.077528171 -0.24309082 -0.39886367
-0.077353999 -0.243062 -0.39886501
-0.077099003 -0.24307249 -0.39882052
-0.076825999 -0.243007 -0.398848
-0.076697499 -0.24301 -0.39883351
-0.076435499 -0.243035 -0.398812
-0.076278664 -0.243065 -0.39884004
-0.076161996 -0.24308151 -0.398837
-0.075903505 -0.24308401 -0.39889699
-0.075665668 -0.24309599 -0.39886531
-0.075502202 -0.24309298 -0.39885378
-0.075300001 -0.24308249 -0.398848
-0.075082503 -0.243055 -0.39885199
-0.074656337 -0.24304335 -0.39885303
-0.07448633 -0.24305634 -0.39883366
-0.074249998 -0.243066 -0.39882699
-0.073708661 -0.24308634 -0.39884034
-0.0735185 -0.2430995 -0.39883751
-0.073316 -0.243111 -0.39881799
-0.072866 -0.243058 -0.39883199
-0.072518252 -0.243077 -0.39881176
-0.072299197 -0.2430402 -0.3988584
-0.072105341 -0.24306466 -0.39887166
-0.079002 -0.242971 -0.39893699
-0.078875251 -0.24294825 -0.398922
-0.078699201 -0.242926 -0.39894921
-0.078456998 -0.2429325 -0.39894098
-0.078303501 -0.24293199 -0.398965
-0.078128502 -0.24294099 -0.398967
-0.077997997 -0.24294101 -0.39897799
-0.077492498 -0.2429675 -0.39897901
-0.077344999 -0.24297801 -0.39894301
-0.077090502 -0.24298799 -0.39890552
-0.076885805 -0.24292059 -0.39891279
-0.076687001 -0.24288999 -0.39891949
-0.076433994 -0.24292366 -0.39890698
-0.076302804 -0.2429074 -0.3989498
-0.076153003 -0.242964 -0.39889199
-0.075893 -0.242962 -0.39898199
-0.075683504 -0.24296999 -0.39897349
-0.075527757 -0.24299026 -0.39895248
-0.075306252 -0.2429775 -0.39894724
-0.074639 -0.242956 -0.39895099
-0.074543998 -0.242966 -0.39893666
-0.074391998 -0.24297801 -0.39891201
-0.072509751 -0.24299276 -0.39889926
-0.072362997 -0.242916 -0.39898899
-0.067447998 -0.27422199 -0.39877599
-0.0672905 -0.2742435 -0.39877176
-0.06712833 -0.27426365 -0.39877102
-0.066886 -0.27424699 -0.39875501
-0.066629 -0.27426499 -0.398785
-0.066427998 -0.274203 -0.398772
-0.066079997 -0.27422899 -0.398772
-0.065072998 -0.27421701 -0.39879298
-0.067897998 -0.27404901 -0.398792
-0.067710996 -0.2740885 -0.39876699
-0.067443997 -0.2741085 -0.398727
-0.067288332 -0.27411035 -0.39870867
-0.067139171 -0.27408454 -0.39868414
-0.066881664 -0.27409601 -0.39868769
-0.066623993 -0.27411267 -0.39871332
-0.066480003 -0.27411062 -0.39873537
-0.066282198 -0.27409464 -0.39877379
-0.066113397 -0.27409258 -0.3987512
-0.065950997 -0.27401799 -0.39877099
-0.065648004 -0.27410465 -0.39874983
-0.065473169 -0.27411148 -0.3987467
-0.06528642 -0.27410227 -0.39874944
-0.065103166 -0.274102 -0.39874747
-0.064864665 -0.27407634 -0.39873663
-0.064718746 -0.27404976 -0.39876199
-0.069482997 -0.27381051 -0.39877999
-0.069285855 -0.27387258 -0.39877442
-0.069154002 -0.27388981 -0.39876661
-0.068892889 -0.27391803 -0.39876801
-0.068683602 -0.27390999 -0.398763
-0.068492502 -0.27390301 -0.39876452
-0.068297498 -0.27387774 -0.39877349
-0.068084247 -0.27385801 -0.39876476
-0.067928664 -0.27389899 -0.39876267
-0.067704327 -0.27390033 -0.39868999
-0.067437328 -0.27392033 -0.39865732
-0.067291431 -0.27394369 -0.39864102
-0.067149006 -0.27390698 -0.39861569
-0.066877 -0.27394599 -0.39862299
-0.066617504 -0.2739265 -0.398651
-0.066463672 -0.27389985 -0.39864632
-0.066275552 -0.27391323 -0.39869601
-0.066126205 -0.27391201 -0.39870676
-0.065948002 -0.27390301 -0.398702
-0.065661997 -0.2738955 -0.39866078
-0.065498881 -0.27387425 -0.39864373
-0.06527134 -0.27389646 -0.39864695
-0.065097556 -0.27391222 -0.39865577
-0.064858496 -0.27388799 -0.39866
-0.064714 -0.27389699 -0.398689
-0.064526401 -0.2738902 -0.3987526
-0.064397 -0.273817 -0.39879301
-0.06961 -0.27369499 -0.3987655
-0.06947875 -0.27369824 -0.39874673
-0.069279999 -0.27370667 -0.39872631
-0.069150999 -0.27367935 -0.39870083
-0.068884663 -0.273693 -0.39869455
-0.068665832 -0.27370068 -0.39868966
-0.068485498 -0.2737155 -0.39869916
-0.068304405 -0.27371281 -0.39872542
-0.068066999 -0.27368698 -0.39871177
-0.067928001 -0.27369058 -0.3987042
-0.067697495 -0.27371201 -0.39862198
-0.067432001 -0.273772 -0.39861101
-0.067337997 -0.27377301 -0.398601
-0.066248715 -0.27370185 -0.39864588
-0.066117994 -0.27371979 -0.39865941
-0.065942004 -0.27375501 -0.398664
-0.065676004 -0.27372801 -0.398615
-0.065592997 -0.27373001 -0.398601
-0.06521 -0.27375099 -0.39861199
-0.065082498 -0.27376252 -0.3986015
-0.064854003 -0.27377599 -0.39862499
-0.064694665 -0.27376068 -0.39863065
-0.064538002 -0.27370819 -0.39867321
-0.064313166 -0.2737065 -0.39876533
-0.064114794 -0.27362421 -0.3987866
-0.071222998 -0.27342799 -0.39879
-0.071087256 -0.273458 -0.398783
-0.070671998 -0.27347934 -0.39877501
-0.070441 -0.27347299 -0.398783
-0.070010997 -0.273422 -0.39879799
-0.069604501 -0.27354503 -0.39872199
-0.069489144 -0.27350214 -0.39870384
-0.069272555 -0.27352178 -0.39868054
-0.069142997 -0.27349499 -0.39866775
-0.068917498 -0.27350625 -0.39864102
-0.06869188 -0.27348638 -0.39863551
-0.068476833 -0.27349299 -0.39864436
-0.068282999 -0.27350533 -0.39866748
-0.0680812 -0.2735076 -0.39866838
-0.067905799 -0.2735126 -0.39865759
-0.066174001 -0.27351302 -0.398619
-0.064512394 -0.27351618 -0.39863199
-0.064305551 -0.27352068 -0.39871576
-0.06409312 -0.27350077 -0.39876527
-0.063951001 -0.27344251 -0.39879051
-0.071432002 -0.27327499 -0.39878368
-0.071217328 -0.27327836 -0.39875734
-0.071101785 -0.27328867 -0.39873931
-0.070651166 -0.27330717 -0.39872316
-0.070478998 -0.273321 -0.39873052
-0.070262499 -0.2732935 -0.39877
-0.070061378 -0.27328989 -0.39877936
-0.069941506 -0.27324051 -0.39877099
-0.06950511 -0.27329001 -0.39866492
-0.069271497 -0.27330899 -0.39863336
-0.069150165 -0.27330765 -0.39862201
-0.068911001 -0.27335849 -0.39861074
-0.068761669 -0.27335098 -0.39860764
-0.068555996 -0.2733385 -0.39861351
-0.068209499 -0.27332252 -0.39862901
-0.068089753 -0.2733165 -0.39862052
-0.067906 -0.27334249 -0.39862001
-0.064466 -0.27328333 -0.39861867
-0.064296216 -0.27329811 -0.39866877
-0.064092368 -0.27332214 -0.39873838
-0.063962668 -0.27328098 -0.39876699
-0.063790001 -0.27326399 -0.398794
-0.063505501 -0.2732425 -0.39878798
-0.071424 -0.27309 -0.39874899
-0.071209505 -0.27309451 -0.39872301
-0.071080707 -0.2730903 -0.39870757
-0.070664495 -0.27310175 -0.39867601
-0.070501 -0.27308825 -0.3986856
-0.070255004 -0.27310801 -0.39871934
-0.070097663 -0.27311933 -0.39873824
-0.06996575 -0.27309126 -0.3987425
-0.069496498 -0.27310669 -0.3986465
-0.069266751 -0.27309853 -0.39861152
-0.069169171 -0.27308565 -0.39861166
-0.067857996 -0.27312401 -0.39860499
-0.064484663 -0.27308866 -0.39861467
-0.06428533 -0.27307913 -0.39865378
-0.064101666 -0.27309188 -0.39869544
-0.06396433 -0.27310851 -0.39874282
-0.063782997 -0.27311537 -0.398765
-0.063499004 -0.27309501 -0.39876401
-0.063237503 -0.27304149 -0.39877951
-0.071951002 -0.27283099 -0.39878568
-0.071709335 -0.27284268 -0.39878631
-0.071487404 -0.2728892 -0.39875382
-0.071203999 -0.272984 -0.39871201
-0.071145251 -0.27290711 -0.39869648
-0.070998505 -0.272892 -0.39867699
-0.070676997 -0.27289799 -0.398651
-0.070491247 -0.27288648 -0.39866251
-0.070246004 -0.27288499 -0.39866367
-0.070089221 -0.27289569 -0.39867246
-0.069958501 -0.27290583 -0.39869484
-0.069513142 -0.27293399 -0.39863771
-0.069398999 -0.272926 -0.398615
-0.069161505 -0.272939 -0.39860302
-0.064489998 -0.27291918 -0.39862466
-0.064276502 -0.27291423 -0.3986375
-0.064100124 -0.27288738 -0.39864486
-0.063956164 -0.27288434 -0.39866814
-0.063774668 -0.27289066 -0.39868999
-0.063490994 -0.27291134 -0.39873531
-0.063231006 -0.27289301 -0.39875501
-0.063087553 -0.27289453 -0.39878091
-0.062946245 -0.27286351 -0.39878625
-0.072671004 -0.27261901 -0.39879999
-0.072412997 -0.272636 -0.398799
-0.072334498 -0.27267599 -0.39878601
-0.072069004 -0.27268231 -0.39877734
-0.071933195 -0.27269024 -0.39878041
-0.071707405 -0.27268559 -0.3987686
-0.071496665 -0.27268216 -0.39872649
-0.071140893 -0.27269676 -0.39868236
-0.070989333 -0.27271 -0.39865935
-0.070668332 -0.27271432 -0.39862737
-0.070505999 -0.27270785 -0.39864329
-0.070239998 -0.272737 -0.39862499
-0.070080712 -0.27268499 -0.39862227
-0.069949009 -0.27268484 -0.39864734
-0.069530599 -0.27271837 -0.39862201
-0.064439997 -0.27277499 -0.39860699
-0.064263672 -0.27271399 -0.39862168
-0.064118631 -0.27271402 -0.3986347
-0.063948497 -0.272699 -0.39862147
-0.063766494 -0.27270752 -0.398664
-0.063481666 -0.27268934 -0.39868534
-0.063222334 -0.27271 -0.39873734
-0.063095264 -0.27271402 -0.39874667
-0.062883005 -0.27270284 -0.39877665
-0.072697669 -0.27249566 -0.39878801
-0.072446749 -0.27246827 -0.39878899
-0.072282836 -0.27249399 -0.39876416
-0.072078161 -0.272508 -0.39874801
-0.071910664 -0.2725139 -0.39875424
-0.071716405 -0.27250919 -0.39875919
-0.071578503 -0.27249551 -0.39874601
-0.071395501 -0.272506 -0.3987
-0.071124509 -0.272488 -0.39866975
-0.070978336 -0.27249065 -0.39864802
-0.070657007 -0.272497 -0.39862332
-0.070508279 -0.27252114 -0.39864129
-0.070396498 -0.27247852 -0.398619
-0.070077717 -0.27250716 -0.39862657
-0.069939494 -0.27250248 -0.39864099
-0.069553673 -0.27248368 -0.39861402
-0.064422503 -0.27244598 -0.39860302
-0.0642545 -0.27253151 -0.3986125
-0.064105116 -0.27252591 -0.39862081
-0.06393867 -0.27251732 -0.39862683
-0.063757665 -0.27252331 -0.39864135
-0.063472494 -0.272506 -0.39867049
-0.063212335 -0.27248904 -0.39870334
-0.063094601 -0.2725063 -0.39871249
-0.062934496 -0.27250525 -0.3987439
-0.062761001 -0.27250978 -0.39877462
-0.073020667 -0.27231267 -0.39879069
-0.072925001 -0.2722697 -0.39879331
-0.072704829 -0.27232519 -0.39878264
-0.072565004 -0.27229601 -0.39879298
-0.072302505 -0.27228403 -0.39876539
-0.072067 -0.27228999 -0.3987385
-0.071899891 -0.27229556 -0.39873677
-0.071698003 -0.27230451 -0.39872885
-0.071570002 -0.27231133 -0.39871702
-0.071386337 -0.27232334 -0.39868799
-0.071129143 -0.27231029 -0.3986524
-0.070969999 -0.27230799 -0.39863199
-0.070645332 -0.27227965 -0.39862466
-0.070516005 -0.2722905 -0.39861599
-0.070343748 -0.27228001 -0.3986125
-0.070070334 -0.272333 -0.39860833
-0.069925599 -0.27233478 -0.39862362
-0.069545999 -0.272338 -0.39861
-0.063900501 -0.27233702 -0.39862201
-0.063746996 -0.27230465 -0.39862403
-0.063463666 -0.27232364 -0.39865169
-0.063204005 -0.27230501 -0.39867499
-0.063088372 -0.27228776 -0.39869088
-0.062932335 -0.27229166 -0.39870036
-0.062742494 -0.27230453 -0.39876035
-0.07300967 -0.27209434 -0.39877263
-0.072897777 -0.27210024 -0.39878657
-0.072693504 -0.27210665 -0.39877734
-0.072555996 -0.27211264 -0.39877763
-0.072315857 -0.27210671 -0.39875585
-0.072058499 -0.2721065 -0.39871848
-0.071880504 -0.2720865 -0.39872637
-0.071687169 -0.27208629 -0.39871737
-0.071558334 -0.27209401 -0.39871898
-0.071376003 -0.272104 -0.398671
-0.071111888 -0.27211401 -0.3986479
-0.070960008 -0.27212733 -0.39863399
-0.070636004 -0.27209699 -0.398626
-0.070496596 -0.27208799 -0.39862281
-0.070274808 -0.2720964 -0.39861438
-0.070099995 -0.27212 -0.39860302
-0.063734993 -0.272048 -0.39860499
-0.063453667 -0.27210236 -0.39862397
-0.063123494 -0.27211446 -0.39867538
-0.062914006 -0.27209416 -0.39868745
-0.062731996 -0.2720845 -0.39873698
-0.0625965 -0.27205449 -0.3987785
-0.074010998 -0.27193201 -0.39879799
-0.073966995 -0.27192599 -0.3987895
-0.073003002 -0.271947 -0.398761
-0.072907269 -0.271873 -0.3987608
-0.0726825 -0.27188864 -0.39876798
-0.072545335 -0.27189401 -0.398761
-0.072294556 -0.27190959 -0.39874101
-0.072059803 -0.27193761 -0.39870781
-0.071904756 -0.27190074 -0.398689
-0.071677998 -0.27190399 -0.39871222
-0.071549997 -0.27191103 -0.398698
-0.071364336 -0.27188668 -0.39867067
-0.071100555 -0.27189532 -0.39864299
-0.070949331 -0.27190831 -0.39861998
-0.070626669 -0.271916 -0.39861867
-0.070504203 -0.27191257 -0.39862484
-0.070363998 -0.271862 -0.398626
-0.070107169 -0.27188203 -0.39861682
-0.069874004 -0.27181101 -0.398601
-0.063441999 -0.27188468 -0.398628
-0.063103005 -0.2719101 -0.39866021
-0.062921748 -0.27191648 -0.39866963
-0.062722251 -0.27190298 -0.39874399
-0.062589005 -0.27190799 -0.39876199
-0.073994003 -0.271606 -0.39879999
-0.073192999 -0.27167797 -0.39878899
-0.072906494 -0.27169701 -0.39874449
-0.0726735 -0.27170551 -0.39874947
-0.072535001 -0.27167499 -0.39873669
-0.072307572 -0.27170083 -0.39874271
-0.072131202 -0.27168378 -0.39872378
-0.071921512 -0.2717174 -0.39869022
-0.07170137 -0.27170938 -0.39868477
-0.071540669 -0.27172866 -0.39869234
-0.071355 -0.27170449 -0.39866549
-0.071089335 -0.27167743 -0.39863858
-0.070937999 -0.27168968 -0.39861098
-0.070615001 -0.271698 -0.39862069
-0.07048317 -0.27171269 -0.39866567
-0.070353664 -0.27172101 -0.39868566
-0.070105501 -0.27171686 -0.39864886
-0.069952995 -0.27166399 -0.3986035
-0.063431993 -0.271703 -0.398628
-0.063091412 -0.27169183 -0.39866248
-0.062903441 -0.27170691 -0.39866298
-0.062713005 -0.27172002 -0.39872882
-0.062579997 -0.27172431 -0.39875603
-0.073349997 -0.27141899 -0.398799
-0.073183663 -0.27149668 -0.39878735
-0.072896577 -0.27151558 -0.39875177
-0.072664 -0.27152467 -0.39875734
-0.072524995 -0.27149299 -0.39873749
-0.072305992 -0.2714878 -0.3987444
-0.072131328 -0.2714805 -0.3987318
-0.071922995 -0.27149281 -0.39869809
-0.071700998 -0.27150145 -0.39869368
-0.071529329 -0.27151164 -0.398693
-0.071345329 -0.27152368 -0.39866233
-0.071080834 -0.27149466 -0.39861903
-0.070926331 -0.27147299 -0.39861834
-0.070605993 -0.271516 -0.39861351
-0.070489854 -0.27148271 -0.39866099
-0.070343003 -0.27150199 -0.39867297
-0.07008633 -0.27150923 -0.39864591
-0.069958501 -0.27153599 -0.39860401
-0.063422665 -0.27152035 -0.39862731
-0.063078225 -0.27149764 -0.39865798
-0.062901601 -0.27148262 -0.39869121
-0.062701993 -0.27150017 -0.39871836
-0.062568001 -0.27150702 -0.39875832
-0.073341995 -0.271274 -0.39879298
-0.073172994 -0.27127799 -0.39876631
-0.072916545 -0.2712951 -0.39873499
-0.072711624 -0.27131361 -0.39876014
-0.072536245 -0.27129301 -0.3987475
-0.072313599 -0.27131122 -0.39874059
-0.072121501 -0.271299 -0.398738
-0.071911 -0.271285 -0.39870411
-0.071701244 -0.27129048 -0.39867911
-0.0715385 -0.27127224 -0.39867675
-0.071334668 -0.27130434 -0.39865169
-0.071070552 -0.27131367 -0.39862865
-0.070916995 -0.27129102 -0.39861798
-0.07049343 -0.27129313 -0.39863953
-0.070332326 -0.27128264 -0.39864567
-0.070075668 -0.27128997 -0.39862746
-0.069893599 -0.27128679 -0.39860639
-0.063411333 -0.27130234 -0.39862397
-0.063104004 -0.27131537 -0.3986595
-0.062899098 -0.27129477 -0.39868274
-0.062691003 -0.27128199 -0.39870751
-0.062555999 -0.27128968 -0.39878133
-0.073163003 -0.271097 -0.3987785
-0.072904669 -0.27107844 -0.39874622
-0.072735168 -0.27108634 -0.39876533
-0.072548002 -0.27109233 -0.39875364
-0.072294168 -0.27110919 -0.3987495
-0.072112501 -0.27111748 -0.39873317
-0.071903147 -0.2711094 -0.39870614
-0.071723253 -0.27109802 -0.398691
-0.071541399 -0.2710878 -0.39868078
-0.071323 -0.27108702 -0.39864865
-0.071058325 -0.27109718 -0.3986451
-0.070906997 -0.27111 -0.39862368
-0.070507377 -0.27111623 -0.39863873
-0.070322499 -0.271101 -0.398653
-0.070099749 -0.27110448 -0.39862025
-0.069917001 -0.27108198 -0.398606
-0.063404001 -0.271157 -0.39862701
-0.063397497 -0.271047 -0.3986325
-0.063085891 -0.27110755 -0.39867198
-0.062907182 -0.27111748 -0.3986921
-0.06268125 -0.27109948 -0.39870748
-0.062545002 -0.27110797 -0.39879549
-0.073153332 -0.27091599 -0.39878467
-0.072894 -0.27089834 -0.39876547
-0.07272476 -0.27090573 -0.39878297
-0.072535492 -0.27087668 -0.39877665
-0.072282672 -0.27089134 -0.39874884
-0.072100006 -0.2708998 -0.39874753
-0.071891107 -0.27091357 -0.39872158
-0.071713172 -0.2709178 -0.39870334
-0.071548209 -0.27091318 -0.39870039
-0.071312994 -0.27090549 -0.39866
-0.071061715 -0.27088785 -0.39865425
-0.070935003 -0.2708756 -0.39863542
-0.070510574 -0.27091688 -0.39863899
-0.070346795 -0.27090418 -0.39864862
-0.070075333 -0.27097067 -0.39860967
-0.069987997 -0.27089602 -0.39861
-0.063389003 -0.27090299 -0.39864999
-0.063074008 -0.27088878 -0.39867386
-0.062906906 -0.2709114 -0.3986752
-0.062702499 -0.27090824 -0.39871815
-0.062536329 -0.27092633 -0.39878568
-0.073141664 -0.27069801 -0.39878699
-0.072884344 -0.27071679 -0.3987681
-0.072715499 -0.27072382 -0.39877632
-0.072525501 -0.270695 -0.39878249
-0.072251253 -0.27069375 -0.39876625
-0.072087832 -0.27068365 -0.39876583
-0.071878999 -0.27069667 -0.39873755
-0.071702003 -0.27069983 -0.39870098
-0.071529165 -0.2707105 -0.39870033
-0.071303003 -0.27072433 -0.39867434
-0.071062505 -0.270695 -0.39865899
-0.070924595 -0.27068722 -0.39864621
-0.070516497 -0.27068752 -0.39865264
-0.070344329 -0.27070084 -0.39865685
-0.070067197 -0.27069059 -0.39862001
-0.069978334 -0.270715 -0.39861634
-0.063378997 -0.27072164 -0.398662
-0.063056 -0.27069187 -0.39868
-0.06290666 -0.27068457 -0.39867669
-0.062701665 -0.2706992 -0.39872852
-0.062525004 -0.27070668 -0.3987793
-0.072879747 -0.2705085 -0.3987765
-0.072695203 -0.27052039 -0.3987796
-0.072516002 -0.27051333 -0.39878532
-0.07226225 -0.27052975 -0.3987785
-0.072078496 -0.270502 -0.39876649
-0.071867004 -0.27047956 -0.39874929
-0.071689166 -0.27048364 -0.39872602
-0.071517333 -0.27049351 -0.3987135
-0.071290664 -0.27050832 -0.39869332
-0.071052499 -0.27051434 -0.39866233
-0.0709356 -0.27051079 -0.39864361
-0.070496604 -0.27048582 -0.39866418
-0.070332162 -0.27048433 -0.39867616
-0.070066996 -0.27048752 -0.39862767
-0.0699246 -0.27049941 -0.39860722
-0.063367002 -0.27050501 -0.39868131
-0.063069999 -0.27052373 -0.39867327
-0.062910713 -0.2704967 -0.39869732
-0.062700748 -0.27048975 -0.39873651
-0.062535003 -0.27046877 -0.39877599
-0.072860561 -0.270282 -0.39878446
-0.072668001 -0.27027127 -0.39878577
-0.072504498 -0.27029565 -0.39879036
-0.072209999 -0.27031431 -0.39878333
-0.072067671 -0.27032116 -0.39878616
-0.071887501 -0.27029651 -0.3987515
-0.071718 -0.27030319 -0.398752
-0.071504503 -0.27027667 -0.39873317
-0.071278997 -0.27029034 -0.39869633
-0.07104066 -0.27029681 -0.39866999
-0.070914663 -0.27030933 -0.39865384
-0.070505396 -0.27030918 -0.3986502
-0.070322499 -0.2703025 -0.3986775
-0.070057258 -0.27030623 -0.39863351
-0.069926396 -0.27029499 -0.39860684
-0.063354336 -0.27028701 -0.39869535
-0.063068666 -0.270307 -0.39869967
-0.062912337 -0.27031907 -0.39870349
-0.062722251 -0.27029949 -0.39874676
-0.062548503 -0.27030349 -0.39877549
-0.072879001 -0.27009851 -0.39877051
-0.072719 -0.27011281 -0.3987906
-0.072493173 -0.27007797 -0.39878616
-0.072201997 -0.27016899 -0.39878699
-0.072107494 -0.27013776 -0.39879078
-0.071895003 -0.2701146 -0.39876813
-0.071707554 -0.27012187 -0.39876711
-0.071494758 -0.27009502 -0.39873803
-0.071267001 -0.27007368 -0.39870271
-0.071028672 -0.27007949 -0.39868414
-0.070902504 -0.27009168 -0.39866367
-0.070485666 -0.270107 -0.39865634
-0.070312999 -0.2701205 -0.39867416
-0.070101 -0.27012566 -0.39865264
-0.069960505 -0.270107 -0.39863083
-0.069784001 -0.270105 -0.398606
-0.064052999 -0.27005601 -0.398606
-0.063917503 -0.27003199 -0.39860401
-0.063669503 -0.27010176 -0.39861074
-0.063345 -0.27010602 -0.39870301
-0.063056 -0.27008867 -0.39871767
-0.062900089 -0.27010164 -0.39871815
-0.062711991 -0.27011734 -0.39875853
-0.062561996 -0.27013952 -0.39877948
-0.072869167 -0.2699165 -0.39877298
-0.072696663 -0.26994884 -0.39879429
-0.072483495 -0.26989651 -0.39878678
-0.072190002 -0.26995301 -0.39879999
-0.071865492 -0.2698985 -0.3987793
-0.071696334 -0.2699039 -0.39876664
-0.071485162 -0.26991352 -0.3987442
-0.071256995 -0.26989198 -0.39871597
-0.071042001 -0.26989749 -0.39869499
-0.070913434 -0.26989341 -0.39868918
-0.0704735 -0.26989001 -0.39867067
-0.070300825 -0.26990348 -0.39869118
-0.070089005 -0.26990768 -0.39866468
-0.069915548 -0.26991019 -0.3986392
-0.069773667 -0.26992533 -0.39863133
-0.069417998 -0.26990598 -0.39861602
-0.069329001 -0.26987201 -0.39860299
-0.0640435 -0.269876 -0.39860249
