# .PCD v0.7 - Point Cloud Data file format
VERSION 0.7
FIELDS x y z
SIZE 4 4 4
TYPE F F F
COUNT 1 1 1
WIDTH 1441
HEIGHT 1
VIEWPOINT 0 0 0 1 0 0 0
POINTS 1441
DATA ascii
-0.114323 0.16385999 -0.233383
-0.13420366 0.16407633 -0.23338401
-0.13409168 0.16411966 -0.23326133
-0.13389775 0.16411474 -0.23322025
-0.11445901 0.16408582 -0.23328316
-0.13406999 0.16429 -0.23328151
-0.13390301 0.1642801 -0.23323891
-0.13379601 0.16434699 -0.233206
-0.114494 0.1643092 -0.2333004
-0.11439849 0.164343 -0.233364
-0.13405816 0.16451016 -0.23334533
-0.13389355 0.16449922 -0.23326132
-0.13378935 0.16449232 -0.23321833
-0.114649 0.164536 -0.233206
-0.114532 0.16449425 -0.23327249
-0.11439067 0.16452633 -0.23337601
-0.13400951 0.164691 -0.233338
-0.13388245 0.16471945 -0.23331012
-0.13373259 0.1647246 -0.23320642
-0.114525 0.1646785 -0.23326451
-0.1143855 0.16471 -0.233325
-0.13387449 0.16490316 -0.233326
-0.13371317 0.16491599 -0.23321867
-0.11483318 0.16491318 -0.23322301
-0.11468371 0.16492772 -0.23325585
-0.11451351 0.16489966 -0.23332201
-0.114379 0.164822 -0.233374
-0.13387455 0.16507089 -0.23335868
-0.13371238 0.16508462 -0.23325688
-0.133568 0.165142 -0.23321
-0.11486834 0.16510934 -0.23323865
-0.11471137 0.16509488 -0.23331799
-0.11451099 0.16510859 -0.23338521
-0.133818 0.165286 -0.23337249
-0.13370338 0.16528562 -0.23328188
-0.13356167 0.16528733 -0.23322266
-0.11489438 0.16529186 -0.23327225
-0.1147225 0.16523182 -0.23336881
-0.13369741 0.1654572 -0.23333201
-0.115077 0.16556333 -0.23323233
-0.11491059 0.16549484 -0.23331201
-0.1150855 0.16569951 -0.23325351
-0.1149226 0.1657114 -0.23332019
-0.11522 0.1659255 -0.2332125
-0.11507732 0.16588366 -0.23326917
-0.11490674 0.165874 -0.23335674
-0.11521067 0.16611034 -0.233252
-0.115066 0.166106 -0.23332602
-0.114935 0.16609633 -0.23336667
-0.132783 0.16634201 -0.233201
-0.11526766 0.16628501 -0.233247
-0.11515149 0.1662955 -0.23332599
-0.13274916 0.16648801 -0.23323466
-0.1153232 0.16649981 -0.23330601
-0.11519133 0.16648233 -0.23334633
-0.1327019 0.16671321 -0.23325019
-0.13253701 0.166769 -0.233211
-0.11546034 0.16671102 -0.233253
-0.1153308 0.16669381 -0.23335218
-0.13269515 0.16690627 -0.23330817
-0.13252491 0.1669161 -0.23326121
-0.13234299 0.166978 -0.23320299
-0.115812 0.166916 -0.23322001
-0.11571566 0.16691899 -0.23321933
-0.11552101 0.166896 -0.23326333
-0.115358 0.166857 -0.233384
-0.13269342 0.16707586 -0.2333573
-0.13251516 0.16710067 -0.23331366
-0.13231525 0.167144 -0.233238
-0.132172 0.1671555 -0.2332125
-0.11607625 0.1671505 -0.23323275
-0.11587713 0.16709624 -0.23325424
-0.11570244 0.16710557 -0.2333183
-0.11551962 0.16707325 -0.23333
-0.132633 0.167256 -0.2333625
-0.13249762 0.16727574 -0.23335412
-0.13228774 0.16730951 -0.23326874
-0.13213466 0.16731334 -0.233239
-0.116208 0.16730151 -0.23325801
-0.11606601 0.16730049 -0.233318
-0.1158895 0.16729525 -0.233353
-0.11567867 0.16726701 -0.233386
-0.1155365 0.16723251 -0.2333895
-0.13242501 0.16746551 -0.23335901
-0.13227783 0.167494 -0.23332065
-0.1321115 0.16748466 -0.23327935
-0.131982 0.167548 -0.233219
-0.116468 0.167569 -0.23320501
-0.116294 0.167493 -0.23332
-0.11612751 0.16743426 -0.23338175
-0.115925 0.167411 -0.233374
-0.132269 0.167643 -0.2333855
-0.132102 0.167633 -0.23335099
-0.13189122 0.16769402 -0.23329979
-0.13171181 0.1677254 -0.2332474
-0.116814 0.16773701 -0.233208
-0.11670067 0.16773166 -0.233225
-0.116458 0.16772068 -0.23329233
-0.13188124 0.167862 -0.23336425
-0.13168366 0.16787982 -0.2333415
-0.13153312 0.16790263 -0.23327662
-0.1313134 0.16789579 -0.23323759
-0.131144 0.167924 -0.23325168
-0.13091435 0.16789967 -0.23323584
-0.1306854 0.16795202 -0.2332474
-0.130519 0.16798601 -0.23321301
-0.117054 0.16793451 -0.233253
-0.11688467 0.16789022 -0.233261
-0.116692 0.16784583 -0.23331034
-0.1314988 0.1680724 -0.2333816
-0.131266 0.16803201 -0.23336799
-0.13110334 0.16805033 -0.23336066
-0.1309204 0.16804321 -0.23332441
-0.13069525 0.16807498 -0.23333238
-0.13052779 0.168108 -0.2333128
-0.13032575 0.16812675 -0.23324975
-0.117493 0.16806599 -0.23322301
-0.13056549 0.1682145 -0.23336449
-0.13030933 0.16826384 -0.23331702
-0.12844899 0.168248 -0.233215
-0.12822551 0.1683495 -0.23324201
-0.128049 0.168378 -0.23320299
-0.127739 0.16835999 -0.23321199
-0.117827 0.16823301 -0.23323999
-0.12804499 0.16845199 -0.23324101
-0.12791501 0.16847067 -0.23326266
-0.12771051 0.16843551 -0.2333025
-0.12367851 0.14936051 -0.23318151
-0.123559 0.14935599 -0.23316801
-0.1216538 0.1493094 -0.23315962
-0.121521 0.14936633 -0.23318499
-0.1241685 0.149499 -0.233192
-0.12388233 0.14951016 -0.23316866
-0.1236755 0.14951251 -0.23311932
-0.12349689 0.14949912 -0.2331609
-0.12335401 0.14951219 -0.23317599
-0.123119 0.149547 -0.23318399
-0.1223015 0.14954001 -0.2331745
-0.1216668 0.14949021 -0.23311059
-0.12148134 0.14950101 -0.23314299
-0.12119099 0.1495555 -0.23317301
-0.12093 0.14957599 -0.233179
-0.1200725 0.14949 -0.2331745
-0.119931 0.14959049 -0.23319101
-0.12605849 0.149754 -0.233188
-0.12597051 0.1497505 -0.23317
-0.1256675 0.14972033 -0.23316316
-0.12551579 0.14970161 -0.23316059
-0.124241 0.14972049 -0.23318049
-0.1240975 0.1497 -0.23314676
-0.1239025 0.14968288 -0.23313025
-0.1236715 0.149701 -0.2330465
-0.12348425 0.14971462 -0.233098
-0.12330827 0.14970446 -0.23311017
-0.12308886 0.14970872 -0.23313144
-0.12289733 0.14968432 -0.23315918
-0.12274125 0.14969675 -0.23316924
-0.12249099 0.14970012 -0.23316187
-0.1223275 0.14969249 -0.23312201
-0.12165183 0.14969884 -0.23306233
-0.12147722 0.14968999 -0.23307021
-0.121188 0.14970651 -0.233118
-0.1208778 0.14970639 -0.233162
-0.12070926 0.149746 -0.23316574
-0.120457 0.149765 -0.23318399
-0.1202752 0.149699 -0.23314479
-0.1200994 0.1496928 -0.23314801
-0.119928 0.149703 -0.23316225
-0.11979 0.1496965 -0.23316
-0.119513 0.14973274 -0.233181
-0.126433 0.14996099 -0.233181
-0.126211 0.149942 -0.233199
-0.12608235 0.14991601 -0.23316665
-0.12592475 0.14989699 -0.23315024
-0.12568237 0.149914 -0.23307875
-0.12550583 0.14991251 -0.233088
-0.12520367 0.14988832 -0.23315233
-0.12507901 0.1499175 -0.23316374
-0.1249475 0.14991149 -0.233164
-0.12423567 0.14990701 -0.23313333
-0.12411449 0.14990783 -0.23308317
-0.12391157 0.14988843 -0.23306772
-0.12371083 0.14987633 -0.23302601
-0.12349557 0.14989729 -0.23302984
-0.12332767 0.14990233 -0.23302984
-0.12309863 0.14991537 -0.23305351
-0.122893 0.14991184 -0.23305817
-0.12271117 0.14990367 -0.23308466
-0.12248675 0.14988783 -0.23309982
-0.12232475 0.1498435 -0.233053
-0.121648 0.14984849 -0.23301649
-0.12144399 0.14987426 -0.23302351
-0.12118366 0.14989467 -0.233046
-0.12089 0.14988841 -0.23309159
-0.1207055 0.14989676 -0.2331205
-0.12045366 0.14991732 -0.23311599
-0.120262 0.14990984 -0.23307467
-0.12010249 0.14990284 -0.23308533
-0.119923 0.14989033 -0.23310684
-0.11978567 0.149885 -0.233096
-0.11946633 0.14989866 -0.2331415
-0.119356 0.149887 -0.23317701
-0.127654 0.1501365 -0.233153
-0.127514 0.1501455 -0.23317176
-0.127298 0.15015 -0.233189
-0.12663899 0.15013675 -0.23316625
-0.12648267 0.15011188 -0.23314789
-0.12630779 0.15009856 -0.23311979
-0.126093 0.15009148 -0.23310751
-0.12592921 0.1500704 -0.23308238
-0.12574901 0.15005267 -0.23303866
-0.12549333 0.15008767 -0.23303001
-0.12511656 0.15010934 -0.23307344
-0.12494367 0.15010034 -0.23308332
-0.124233 0.150098 -0.23303351
-0.12412467 0.150084 -0.23302567
-0.1239715 0.150088 -0.233025
-0.1231505 0.15003851 -0.23301351
-0.1228895 0.15006199 -0.23300299
-0.122708 0.1500545 -0.23302749
-0.122571 0.15004601 -0.233013
-0.12086534 0.15004735 -0.23303334
-0.1207035 0.150049 -0.23303699
-0.120451 0.1501075 -0.233022
-0.120301 0.150061 -0.233007
-0.120084 0.150077 -0.233027
-0.11989525 0.150095 -0.23303899
-0.11978 0.15010934 -0.23303135
-0.11946256 0.15008765 -0.2330652
-0.11935367 0.15007766 -0.23307401
-0.118892 0.15015925 -0.2331645
-0.12830301 0.150354 -0.23318
-0.12764899 0.15032367 -0.23310466
-0.1274911 0.15031299 -0.23311843
-0.12729467 0.15030201 -0.23312999
-0.127075 0.15028366 -0.23316766
-0.12694821 0.15029359 -0.23315302
-0.1266585 0.150307 -0.23310226
-0.12647851 0.15029983 -0.23308365
-0.126293 0.15031362 -0.23305199
-0.12609659 0.15030101 -0.23304519
-0.125957 0.15027401 -0.23301899
-0.12547199 0.15020999 -0.233009
-0.12511367 0.15026067 -0.23301335
-0.124941 0.150251 -0.23301999
-0.12423 0.15020999 -0.233005
-0.119406 0.150234 -0.23301999
-0.11935 0.150227 -0.23302101
-0.11890257 0.15029545 -0.23310301
-0.118616 0.150327 -0.233189
-0.11846175 0.15033875 -0.23316374
-0.118311 0.15034501 -0.2331565
-0.1181935 0.150341 -0.233172
-0.128655 0.150598 -0.233151
-0.12846313 0.150555 -0.23315258
-0.1283206 0.15051921 -0.23313542
-0.12817268 0.15049466 -0.233164
-0.12792133 0.15048467 -0.23314632
-0.127644 0.15051 -0.23306251
-0.12748666 0.15049967 -0.23306017
-0.12729049 0.15048951 -0.23306501
-0.12707032 0.15051033 -0.233078
-0.12693399 0.15050317 -0.23307268
-0.1266644 0.1504804 -0.23303001
-0.12646714 0.15046528 -0.2330253
-0.1263518 0.150489 -0.2330168
-0.126164 0.150466 -0.2330045
-0.1189315 0.15042749 -0.23303449
-0.11873933 0.150443 -0.23303966
-0.11848201 0.15048425 -0.23307876
-0.11830883 0.15049715 -0.23308165
-0.1181456 0.1505098 -0.2331316
-0.129685 0.15072568 -0.233193
-0.12951867 0.15072 -0.23315267
-0.12929639 0.150719 -0.23316021
-0.12909681 0.15073721 -0.233163
-0.128922 0.150758 -0.233164
-0.12870076 0.150714 -0.2331205
-0.12849782 0.15070234 -0.23309368
-0.12834851 0.15069534 -0.23306364
-0.128167 0.150719 -0.23309733
-0.12791666 0.150711 -0.233054
-0.12764101 0.150622 -0.233025
-0.12748525 0.150631 -0.233026
-0.12734225 0.1506785 -0.23301099
-0.127068 0.150662 -0.233004
-0.12694599 0.15067933 -0.23301566
-0.118443 0.15062401 -0.23301199
-0.11830699 0.150611 -0.23302633
-0.11815619 0.15069079 -0.233061
-0.1178265 0.15068799 -0.23315901
-0.11769184 0.15071717 -0.23316835
-0.1175326 0.15072319 -0.2331764
-0.130088 0.15096501 -0.23319849
-0.12992601 0.15093701 -0.23316467
-0.12974338 0.1508932 -0.2331644
-0.12951401 0.15090699 -0.233096
-0.129291 0.15091279 -0.2331084
-0.12909289 0.15091667 -0.23310232
-0.12891966 0.15091 -0.23309402
-0.1287066 0.15088621 -0.23306341
-0.12849413 0.15087986 -0.23303875
-0.12834987 0.15087213 -0.23303162
-0.128162 0.150905 -0.23305
-0.12791151 0.150896 -0.23301449
-0.118109 0.15086049 -0.23301651
-0.11782267 0.15087633 -0.233091
-0.1176875 0.15090451 -0.23309824
-0.11747801 0.15090741 -0.23313241
-0.11733884 0.15091832 -0.23317116
-0.130606 0.15110651 -0.233163
-0.1304175 0.15109751 -0.23317599
-0.13024725 0.15112326 -0.2331695
-0.13010029 0.15112472 -0.2331613
-0.129906 0.15110882 -0.23313631
-0.129728 0.15110101 -0.23309767
-0.129509 0.15109266 -0.23304401
-0.129308 0.1510932 -0.23304638
-0.1291054 0.15109661 -0.23305699
-0.12894399 0.15111034 -0.233023
-0.128741 0.151052 -0.233016
-0.128389 0.151032 -0.233004
-0.128159 0.151017 -0.233023
-0.12790801 0.151006 -0.23300301
-0.11781633 0.15110101 -0.23303001
-0.11768317 0.1510925 -0.23303817
-0.11749037 0.15108874 -0.23308448
-0.11733475 0.15110625 -0.2331005
-0.117116 0.15116051 -0.23317951
-0.131208 0.15139499 -0.233197
-0.1310975 0.15139 -0.233197
-0.13092349 0.15134749 -0.23317374
-0.13060349 0.15125701 -0.233096
-0.13045949 0.15130624 -0.23310301
-0.13025799 0.15131149 -0.2331005
-0.13011934 0.15130366 -0.23309033
-0.12990125 0.15129524 -0.23308001
-0.12972376 0.15128849 -0.23303275
-0.129346 0.15123001 -0.233004
-0.12911433 0.15124168 -0.23302166
-0.11746175 0.15124576 -0.23304549
-0.11732916 0.15129267 -0.23305766
-0.117113 0.1513105 -0.233126
-0.11690634 0.15130967 -0.23318166
-0.116745 0.151325 -0.233193
-0.116567 0.151357 -0.2331875
-0.13149033 0.15152584 -0.23317866
-0.13127667 0.15152234 -0.2331845
-0.13109501 0.15150076 -0.233161
-0.13092025 0.15149775 -0.23312375
-0.13050149 0.15151216 -0.23304866
-0.13025549 0.15146151 -0.23303899
-0.13011411 0.15148036 -0.23304224
-0.129875 0.15146175 -0.23303925
-0.12977201 0.151439 -0.23301449
-0.117296 0.151443 -0.233005
-0.11710733 0.15149766 -0.23307766
-0.11688501 0.15148135 -0.2331515
-0.11671775 0.15149149 -0.23317626
-0.131634 0.15178899 -0.233187
-0.13148545 0.15171212 -0.23312667
-0.13129799 0.15169039 -0.23313169
-0.13111739 0.1516985 -0.233109
-0.13091584 0.15168451 -0.23305534
-0.130403 0.151657 -0.23302101
-0.1304 0.151731 -0.233013
-0.130188 0.15164199 -0.23301899
-0.12984701 0.151628 -0.23300999
-0.117102 0.15172067 -0.23301233
-0.1168785 0.15170449 -0.23310451
-0.116689 0.15169467 -0.2331575
-0.116551 0.15176 -0.23319501
-0.131807 0.15194701 -0.233193
-0.1316745 0.15190326 -0.23315825
-0.13148101 0.15189883 -0.23306535
-0.13130389 0.15192266 -0.23304987
-0.13112079 0.15191235 -0.23305276
-0.1309105 0.15187049 -0.23301527
-0.13039801 0.151803 -0.233005
-0.1168735 0.15189126 -0.23305899
-0.11668167 0.15191717 -0.23312099
-0.11654701 0.15191133 -0.23315267
-0.13221601 0.15218399 -0.233193
-0.13215201 0.152181 -0.233198
-0.131863 0.1520794 -0.2331868
-0.131688 0.15210013 -0.23312327
-0.13147743 0.152073 -0.23303458
-0.13135099 0.1521115 -0.23301899
-0.1311565 0.15206349 -0.2330085
-0.11686766 0.15207715 -0.23301952
-0.11667575 0.1521025 -0.23309
-0.116499 0.15209201 -0.23313524
-0.116317 0.15215659 -0.2331758
-0.13224865 0.152308 -0.23319499
-0.13209434 0.152349 -0.23318367
-0.13194017 0.15231834 -0.23316015
-0.13171875 0.15230401 -0.23308712
-0.131539 0.152234 -0.23300999
-0.116662 0.15227279 -0.23305841
-0.1164935 0.15227801 -0.23309951
-0.11630086 0.15231086 -0.23317972
-0.13245583 0.15249451 -0.23317285
-0.13228799 0.1524986 -0.23316519
-0.1321104 0.15248859 -0.2331636
-0.13193449 0.15250349 -0.23312375
-0.1317188 0.1525052 -0.23306298
-0.116619 0.15250868 -0.23303466
-0.11648667 0.15250032 -0.23305833
-0.11633585 0.15248643 -0.23312514
-0.132652 0.152798 -0.233163
-0.13247862 0.15272576 -0.23314314
-0.1322995 0.1526994 -0.23311719
-0.13212289 0.15270723 -0.23309323
-0.1319295 0.15268885 -0.23307534
-0.13174881 0.15266779 -0.2330538
-0.11646666 0.15267132 -0.23303901
-0.11632829 0.15271886 -0.23308943
-0.1326485 0.152908 -0.23313901
-0.13248384 0.1529025 -0.23310466
-0.13230383 0.15289116 -0.23310034
-0.13212498 0.15291977 -0.23305744
-0.13193966 0.15286267 -0.23302133
-0.131781 0.152834 -0.233006
-0.11625975 0.15288725 -0.23303625
-0.11614 0.1529415 -0.233183
-0.1328436 0.15311579 -0.2331762
-0.1326756 0.15310779 -0.23314622
-0.13250129 0.15307701 -0.23307928
-0.1323245 0.1530786 -0.23304579
-0.13211916 0.15310434 -0.2330275
-0.11613401 0.15311667 -0.23313166
-0.13286571 0.15333356 -0.23313813
-0.13267817 0.15331501 -0.23310284
-0.132533 0.15329325 -0.23302674
-0.132394 0.15323099 -0.233007
-0.1321515 0.15321651 -0.23301899
-0.11613612 0.15328649 -0.23310301
-0.1332355 0.153523 -0.23319
-0.13314271 0.15349101 -0.23318087
-0.1329062 0.1535016 -0.23311201
-0.13269821 0.15350899 -0.23306999
-0.1325465 0.153495 -0.233006
-0.116293 0.153446 -0.233009
-0.11612068 0.15349789 -0.23309286
-0.115982 0.153565 -0.233169
-0.13325 0.153722 -0.23317139
-0.13311788 0.15370053 -0.23315655
-0.1329255 0.15369301 -0.23310417
-0.13272038 0.15367724 -0.23305562
-0.11611288 0.15371832 -0.23307545
-0.11597767 0.153714 -0.23313899
-0.13325 0.15389299 -0.2331375
-0.13311067 0.15392122 -0.23312055
-0.13291751 0.1539125 -0.23309301
-0.1327544 0.15389439 -0.23302579
-0.116108 0.15389702 -0.23302719
-0.11593834 0.15393034 -0.23315768
-0.13324383 0.154076 -0.23311967
-0.1331045 0.15410417 -0.23309802
-0.13291174 0.15409675 -0.23305351
-0.13278151 0.154093 -0.23301899
-0.11607075 0.15406825 -0.23303276
-0.1159264 0.154093 -0.2331454
-0.13323684 0.15429632 -0.23308699
-0.13309956 0.15428978 -0.2330481
-0.132917 0.15426661 -0.233035
-0.13277599 0.15424 -0.23301101
-0.116032 0.15430532 -0.23302533
-0.11591033 0.15429917 -0.23311917
-0.13322951 0.15451683 -0.23305732
-0.13309154 0.15450932 -0.23303233
-0.132953 0.15446651 -0.233022
-0.11590317 0.15452032 -0.23308651
-0.115765 0.154548 -0.233189
-0.13324949 0.15470099 -0.233045
-0.13312614 0.1546897 -0.23302169
-0.11588234 0.15469134 -0.233069
-0.11576 0.154695 -0.23317149
-0.13324201 0.15488267 -0.23305367
-0.13314633 0.15485518 -0.23301101
-0.115846 0.15488733 -0.23303068
-0.11575367 0.15488 -0.23315699
-0.13323466 0.155104 -0.23301767
-0.11583766 0.15510701 -0.23303001
-0.1156975 0.1550985 -0.23314632
-0.133228 0.155286 -0.233007
-0.115831 0.155292 -0.23301399
-0.11569017 0.1553195 -0.23311867
-0.1155415 0.155347 -0.2331935
-0.13376799 0.1554555 -0.23319501
-0.115827 0.15540101 -0.233009
-0.1156845 0.15550475 -0.23307849
-0.1154822 0.155513 -0.23317301
-0.1156545 0.1556685 -0.2330735
-0.115495 0.155691 -0.23312959
-0.115352 0.155735 -0.23319601
-0.11567084 0.155909 -0.2330385
-0.11547899 0.15589766 -0.23310219
-0.11530917 0.15588233 -0.23317766
-0.115163 0.155953 -0.23319601
-0.13374101 0.15615 -0.23319601
-0.115616 0.1560905 -0.23302901
-0.11547183 0.15611799 -0.23306483
-0.11528928 0.15611471 -0.23312543
-0.11516 0.156027 -0.233198
-0.13373633 0.15629733 -0.23316668
-0.115613 0.156202 -0.23300999
-0.11546601 0.1563035 -0.233041
-0.115265 0.15630443 -0.23308559
-0.1151225 0.1563385 -0.23312649
-0.133727 0.15651566 -0.23317933
-0.11545884 0.156486 -0.23304166
-0.115299 0.15648799 -0.23304661
-0.11511375 0.15650199 -0.23315825
-0.1337205 0.156698 -0.233169
-0.11545067 0.15670617 -0.2330315
-0.1152815 0.15669233 -0.23309
-0.11513172 0.15669684 -0.23318616
-0.13389467 0.15689234 -0.23318033
-0.13371366 0.15688168 -0.233154
-0.1154895 0.156894 -0.2330025
-0.11531422 0.15691622 -0.23307078
-0.11512633 0.1569079 -0.23313779
-0.13402149 0.15715399 -0.23319501
-0.13392299 0.15711349 -0.233192
-0.133708 0.15710168 -0.23309733
-0.115291 0.15710579 -0.2330616
-0.11508778 0.15711868 -0.23313564
-0.13390434 0.15728267 -0.23318799
-0.133699 0.15732168 -0.23310201
-0.11528883 0.15725866 -0.2330585
-0.11510488 0.15728301 -0.23314744
-0.114998 0.157341 -0.23317499
-0.134067 0.15748601 -0.233197
-0.133872 0.15747768 -0.233169
-0.133691 0.15750299 -0.23311999
-0.11525184 0.1575 -0.23304717
-0.11510167 0.15749489 -0.23316646
-0.11499367 0.15748934 -0.23314868
-0.134028 0.15774 -0.23318
-0.13391134 0.15769833 -0.23317617
-0.13368666 0.15768701 -0.23306133
-0.11524233 0.15772067 -0.23306115
-0.11509601 0.157717 -0.23310566
-0.11495839 0.1577232 -0.2331526
-0.1340515 0.157887 -0.233179
-0.13392538 0.15792738 -0.233165
-0.13367733 0.15790534 -0.23307133
-0.1153165 0.15790999 -0.23302326
-0.11511537 0.1579005 -0.23310438
-0.114981 0.157894 -0.233072
-0.13391967 0.15810134 -0.23315416
-0.13366866 0.15812433 -0.23307835
-0.115267 0.15808834 -0.23302867
-0.11510181 0.15807773 -0.23308736
-0.114972 0.158004 -0.233161
-0.13403499 0.158326 -0.2331655
-0.13391288 0.15828356 -0.2331401
-0.133662 0.158307 -0.2330665
-0.115258 0.15830867 -0.23303634
-0.11509281 0.15831082 -0.23308419
-0.11496267 0.15829735 -0.23312666
-0.13408028 0.15852156 -0.23317687
-0.13390532 0.15850288 -0.23312221
-0.13365567 0.15849 -0.23304266
-0.1152515 0.158493 -0.23301199
-0.11508644 0.15851828 -0.2330481
-0.11495633 0.15851833 -0.23306799
-0.13404799 0.158693 -0.23315625
-0.13389689 0.15872245 -0.23311689
-0.13364701 0.15870868 -0.23304832
-0.11509544 0.15869612 -0.23305446
-0.11492667 0.158713 -0.23308635
-0.1340446 0.158905 -0.2331574
-0.13389033 0.15890466 -0.23309934
-0.133641 0.15889201 -0.2330185
-0.1150967 0.15888551 -0.23301801
-0.114939 0.15889557 -0.23307571
-0.13404299 0.15910615 -0.23315902
-0.13388345 0.15908767 -0.23309912
-0.11504666 0.15911268 -0.23301934
-0.11493067 0.15910545 -0.23307244
-0.13408512 0.1593169 -0.2331509
-0.13389754 0.15931408 -0.23308735
-0.11507799 0.1593038 -0.23306981
-0.11492186 0.15930386 -0.23310372
-0.13409601 0.1595 -0.23314734
-0.13393401 0.159492 -0.23307483
-0.13379566 0.15952267 -0.23308067
-0.11507587 0.15946987 -0.2330555
-0.114951 0.15948799 -0.23308039
-0.1342555 0.15969101 -0.2331935
-0.13408913 0.15968245 -0.23313898
-0.1339269 0.15967388 -0.23307198
-0.13379 0.159704 -0.23305449
-0.11505971 0.15971014 -0.233018
-0.11486799 0.15968999 -0.23306532
-0.134205 0.159908 -0.23319368
-0.13408056 0.1599011 -0.23313944
-0.133919 0.15989299 -0.23305511
-0.133784 0.159887 -0.233018
-0.115059 0.15991037 -0.23305061
-0.114918 0.159963 -0.23301832
-0.13409473 0.16011454 -0.23314662
-0.13391078 0.16011146 -0.23304889
-0.13377467 0.160106 -0.23303901
-0.115031 0.16010249 -0.23305626
-0.11489332 0.160096 -0.23303501
-0.1147485 0.160162 -0.233197
-0.134271 0.160349 -0.2332
-0.13410722 0.1602931 -0.23314166
-0.1339035 0.16029416 -0.23304616
-0.13376799 0.160289 -0.23301849
-0.11503725 0.16026799 -0.23304652
-0.11490645 0.16028719 -0.23303694
-0.1147455 0.16030851 -0.233134
-0.134266 0.16049467 -0.23319
-0.13408008 0.16049272 -0.23314472
-0.13389701 0.16047622 -0.23303467
-0.11504351 0.16047049 -0.23301399
-0.11490945 0.16048466 -0.23302667
-0.11471925 0.16047275 -0.23310275
-0.13426 0.160641 -0.233197
-0.1340808 0.1606911 -0.23312359
-0.1338986 0.16070288 -0.23305511
-0.133752 0.16069034 -0.23303233
-0.1149255 0.160741 -0.233009
-0.114732 0.16071168 -0.233088
-0.13409112 0.16091639 -0.23314801
-0.13391191 0.1609233 -0.23306461
-0.13374233 0.160908 -0.23305833
-0.1148635 0.16088425 -0.23301749
-0.11470319 0.16090241 -0.23313279
-0.13410199 0.16109328 -0.23315684
-0.13390024 0.16109774 -0.23305401
-0.133736 0.16109 -0.233033
-0.11489534 0.161088 -0.23301233
-0.1147144 0.16105001 -0.2331284
-0.13408422 0.16129078 -0.23316155
-0.13389267 0.16127983 -0.23305865
-0.133728 0.16127266 -0.23305367
-0.1150115 0.161277 -0.2330095
-0.1149386 0.161296 -0.23301479
-0.11473659 0.1613158 -0.23310658
-0.134222 0.16159 -0.233192
-0.1340425 0.16150732 -0.23314498
-0.13391256 0.16150011 -0.23308778
-0.13376561 0.16149321 -0.2330354
-0.11472267 0.161521 -0.233128
-0.13406013 0.16170757 -0.23314442
-0.13390356 0.16171934 -0.23309247
-0.13374901 0.16171116 -0.23304518
-0.11497117 0.16167949 -0.23300499
-0.11471567 0.161716 -0.233115
-0.13407843 0.16187572 -0.23315971
-0.13391215 0.16190757 -0.23307815
-0.133742 0.16189399 -0.2330355
-0.114939 0.16186249 -0.23300999
-0.1147045 0.16186875 -0.23309276
-0.13420333 0.16210066 -0.23317166
-0.13408449 0.16205876 -0.233162
-0.13391466 0.16208583 -0.23311619
-0.13373584 0.16207583 -0.23301882
-0.114979 0.16212 -0.233004
-0.11471217 0.16210867 -0.233123
-0.134101 0.162315 -0.233154
-0.13390568 0.16230433 -0.23312616
-0.13372718 0.162295 -0.23302351
-0.1148105 0.162296 -0.233014
-0.11470425 0.16229251 -0.23312926
-0.13406676 0.16249576 -0.23316601
-0.13389082 0.16251607 -0.23310584
-0.1337256 0.1624994 -0.23304161
-0.115017 0.16256 -0.233004
-0.1148045 0.162442 -0.233016
-0.11469667 0.16247651 -0.23314284
-0.13405867 0.16267851 -0.23318236
-0.13390011 0.16269344 -0.23310378
-0.1337465 0.162697 -0.233073
-0.114881 0.16263151 -0.233005
-0.11472578 0.1626969 -0.23305157
-0.114567 0.162618 -0.233198
-0.1340335 0.16287774 -0.23315799
-0.13389127 0.16288163 -0.23310781
-0.13371728 0.162889 -0.23303613
-0.11484 0.1629585 -0.233006
-0.11470975 0.16290663 -0.23303862
-0.13403562 0.16310121 -0.23316459
-0.13390267 0.16310811 -0.23310879
-0.13372788 0.16309834 -0.23304245
-0.11467575 0.1630985 -0.23306626
-0.13391133 0.16330355 -0.23313056
-0.13371833 0.16331689 -0.23306333
-0.11470188 0.16328377 -0.23306867
-0.13391899 0.16348208 -0.23316011
-0.13371067 0.16349934 -0.23307101
-0.11485919 0.163555 -0.23302278
-0.11469311 0.16350389 -0.23307133
-0.13387901 0.16362 -0.23317866
-0.13369462 0.16367251 -0.23308964
-0.115046 0.163735 -0.23300099
-0.11488964 0.16369626 -0.23304813
-0.11468323 0.16372435 -0.23310089
-0.13368475 0.16390963 -0.23310311
-0.13344249 0.163922 -0.233022
-0.11489741 0.16387321 -0.23307829
-0.11472099 0.16390486 -0.23309614
-0.1146 0.16394299 -0.233183
-0.13380666 0.16412733 -0.23315567
-0.13368511 0.16411978 -0.23309936
-0.133439 0.16403 -0.23300999
-0.115031 0.16410168 -0.23300801
-0.11489766 0.16410266 -0.23310855
-0.11473311 0.1640951 -0.23309132
-0.11459401 0.16409034 -0.23318501
-0.13369486 0.16429886 -0.23311543
-0.11502 0.16432299 -0.23304267
-0.11488856 0.16432334 -0.23311265
-0.11472356 0.16431622 -0.23310556
-0.1145865 0.16427401 -0.233193
-0.13368942 0.16447471 -0.23314171
-0.13353701 0.164526 -0.23308633
-0.1150648 0.16448942 -0.23304018
-0.11488149 0.16450633 -0.23311317
-0.1147264 0.1644932 -0.2331568
-0.1337105 0.16468877 -0.23316801
-0.13348261 0.1646934 -0.23308101
-0.115049 0.1646575 -0.23305523
-0.1148845 0.16469841 -0.2331624
-0.11470577 0.16468424 -0.23317589
-0.13353451 0.1649005 -0.23315799
-0.13339899 0.1649445 -0.2330915
-0.115079 0.1649555 -0.2330565
-0.1149535 0.16491282 -0.23317301
-0.1147305 0.1648325 -0.23317499
-0.133572 0.165068 -0.233192
-0.13339299 0.16508999 -0.2331
-0.115117 0.16510674 -0.2330825
-0.11495934 0.16508432 -0.23317534
-0.13338551 0.16523699 -0.2331305
-0.115252 0.16536701 -0.233008
-0.11510816 0.16529083 -0.23311685
-0.114978 0.165209 -0.233197
-0.11526701 0.16553551 -0.23304649
-0.11511467 0.16546465 -0.23315334
-0.13281551 0.1657165 -0.23302901
-0.132763 0.16575 -0.23300301
-0.11528275 0.16570275 -0.233079
-0.13280599 0.16590001 -0.23308533
-0.13270088 0.16589278 -0.23304354
-0.132579 0.165957 -0.23301101
-0.11543475 0.16590825 -0.23302099
-0.11529875 0.16587025 -0.23310199
-0.13271601 0.16611533 -0.23310627
-0.1325402 0.16611819 -0.2330354
-0.132384 0.166169 -0.233008
-0.11547 0.16609675 -0.23307376
-0.1153448 0.16612701 -0.23316059
-0.13269557 0.16629301 -0.23314528
-0.1325148 0.1663086 -0.23307681
-0.13234541 0.16632941 -0.23303561
-0.115901 0.16635799 -0.23300099
-0.115621 0.166336 -0.23300999
-0.115508 0.16631234 -0.23307401
-0.1153915 0.166297 -0.233132
-0.1326455 0.16647866 -0.23315434
-0.13252079 0.16648619 -0.23313761
-0.13228834 0.16649617 -0.23305349
-0.13205899 0.166568 -0.233018
-0.11612333 0.166566 -0.23302667
-0.1158708 0.166521 -0.23303398
-0.11567587 0.16649774 -0.2330265
-0.11551467 0.16648233 -0.2330545
-0.115386 0.166407 -0.23315901
-0.1326085 0.16666099 -0.233179
-0.13249579 0.16667679 -0.23317301
-0.13230373 0.16667029 -0.23308556
-0.13216899 0.16669701 -0.23303366
-0.116242 0.16674 -0.23302101
-0.11610176 0.166703 -0.23306951
-0.11589267 0.16669416 -0.23309399
-0.11569571 0.166705 -0.233114
-0.1155616 0.16672079 -0.23315182
-0.1323016 0.1668884 -0.2331644
-0.13212572 0.16690142 -0.23307714
-0.131934 0.166953 -0.23300201
-0.11626741 0.16690901 -0.23314381
-0.11609099 0.166889 -0.23313884
-0.11590099 0.16687158 -0.233164
-0.115649 0.16686 -0.233174
-0.13226199 0.1670845 -0.23317
-0.13206714 0.1670977 -0.23310757
-0.13190626 0.16711649 -0.23302901
-0.13177299 0.167162 -0.23300901
-0.11649366 0.16712166 -0.23303968
-0.11626667 0.16711716 -0.23318982
-0.116083 0.1670385 -0.233182
-0.132082 0.167257 -0.233172
-0.13191444 0.16732101 -0.23312455
-0.13171808 0.16731289 -0.23303562
-0.13156199 0.16737001 -0.233017
-0.13131 0.167358 -0.233006
-0.11683901 0.167325 -0.23302101
-0.1167374 0.167326 -0.233026
-0.116482 0.16730851 -0.23312399
-0.1163075 0.16730399 -0.23319
-0.13188919 0.1674978 -0.23316579
-0.13169056 0.16750278 -0.23310168
-0.13151485 0.16751699 -0.23307683
-0.131311 0.16749737 -0.233043
-0.13108701 0.1675515 -0.23303275
-0.13088299 0.16754074 -0.23302799
-0.130716 0.16754749 -0.233016
-0.130513 0.1675005 -0.233027
-0.117078 0.167592 -0.23302799
-0.11689743 0.16753428 -0.23305443
-0.11671468 0.16750588 -0.23311633
-0.1164755 0.167457 -0.2331475
-0.13168181 0.16765201 -0.23317216
-0.13150424 0.1677025 -0.2331365
-0.13133574 0.16769375 -0.2331225
-0.13108751 0.16771126 -0.23311974
-0.1308865 0.16770935 -0.23311268
-0.13071582 0.16770472 -0.23308873
-0.13050801 0.16769475 -0.23306775
-0.130329 0.167714 -0.233024
-0.117443 0.167759 -0.233013
-0.1171155 0.1677075 -0.233069
-0.1169142 0.167694 -0.23314039
-0.11670566 0.16765667 -0.233187
-0.131459 0.167812 -0.233189
-0.131373 0.167806 -0.233181
-0.13113651 0.167835 -0.23317099
-0.13068199 0.16786079 -0.23317221
-0.13047571 0.16788629 -0.23314428
-0.13027516 0.167898 -0.23309501
-0.12868699 0.16795599 -0.23300201
-0.12291 0.167962 -0.23301101
-0.122622 0.167944 -0.23300999
-0.11813966 0.16791767 -0.23303999
-0.11789 0.1679305 -0.233017
-0.11773225 0.16795775 -0.23301175
-0.117474 0.16793901 -0.23306921
-0.11712066 0.16784734 -0.23315768
-0.13024999 0.16807133 -0.23317134
-0.1295675 0.168148 -0.23303899
-0.12928301 0.16810051 -0.233082
-0.12910584 0.16809267 -0.23305184
-0.12883699 0.16808051 -0.23309401
-0.12867533 0.16810834 -0.23312199
-0.12849911 0.16809678 -0.23306434
-0.12827799 0.16810039 -0.2330626
-0.128068 0.16811299 -0.233033
-0.12790599 0.16812201 -0.2330385
-0.1277115 0.16811685 -0.23304601
-0.1260975 0.168193 -0.233031
-0.1252975 0.16815549 -0.23300299
-0.12511751 0.16814899 -0.2330415
-0.124975 0.16814101 -0.23304801
-0.122907 0.168036 -0.233025
-0.12266541 0.16804978 -0.23304
-0.12251 0.168073 -0.2330642
-0.1223505 0.16811401 -0.23301849
-0.12168767 0.16819035 -0.23301333
-0.1181015 0.1680555 -0.23311999
-0.11787999 0.16808166 -0.2331055
-0.11771813 0.168088 -0.23306875
-0.117424 0.16806 -0.233151
-0.12946101 0.16821299 -0.233013
-0.128563 0.168253 -0.233171
-0.12829 0.16826034 -0.23314901
-0.1280565 0.16826349 -0.2331515
-0.12789629 0.16828059 -0.23313199
-0.12771159 0.16828601 -0.2330945
-0.127593 0.16835099 -0.233191
-0.12589419 0.16829041 -0.23304479
-0.125615 0.16831601 -0.23307399
-0.125495 0.168311 -0.233045
-0.1252915 0.16823199 -0.23306599
-0.12224001 0.16824633 -0.233078
-0.12209079 0.16827501 -0.2330962
-0.12189034 0.16828234 -0.23312216
-0.12171757 0.1683013 -0.2330813
-0.11791 0.168235 -0.233192
-0.123664 0.14996099 -0.23298851
-0.12232301 0.149958 -0.232995
-0.12163133 0.14994933 -0.232976
-0.1214942 0.14994761 -0.23297501
-0.125881 0.15016299 -0.23299
-0.12566726 0.15013126 -0.23298199
-0.12552699 0.150141 -0.23299199
-0.124067 0.150133 -0.232985
-0.12387833 0.15012433 -0.23297799
-0.12370512 0.15011422 -0.2329452
-0.12348267 0.15010023 -0.23296367
-0.12332412 0.15009089 -0.23295334
-0.1231048 0.15012018 -0.23297998
-0.122888 0.15013701 -0.23298001
-0.1227065 0.1501305 -0.23299149
-0.1224679 0.15011832 -0.23294011
-0.12232 0.15010868 -0.23293699
-0.121689 0.15007901 -0.23290266
-0.12149987 0.15010411 -0.23293674
-0.12117866 0.15012066 -0.23296
-0.12089067 0.150151 -0.23297499
-0.1207015 0.1501625 -0.232986
-0.12024467 0.15011235 -0.23298033
-0.12014 0.150131 -0.232995
-0.1199645 0.150158 -0.23298201
-0.12604199 0.150391 -0.232995
-0.12589599 0.15033124 -0.23296501
-0.12572832 0.15030183 -0.23295252
-0.12553725 0.1502995 -0.23295401
-0.125112 0.15033567 -0.23298334
-0.12494 0.150326 -0.23298
-0.12440366 0.15029998 -0.232951
-0.124228 0.150323 -0.232951
-0.12410583 0.15028316 -0.23295332
-0.12393039 0.1502918 -0.23292561
-0.12370133 0.15030234 -0.23287533
-0.12347043 0.15030272 -0.2328963
-0.12331823 0.15031455 -0.23289156
-0.12310056 0.1503001 -0.23292443
-0.122885 0.15028816 -0.23291634
-0.12270516 0.15028267 -0.23289765
-0.12250088 0.1502879 -0.23290552
-0.1223326 0.1503042 -0.23286681
-0.12168234 0.15030199 -0.23285599
-0.12148673 0.15028383 -0.23288026
-0.121175 0.150308 -0.2328905
-0.1208755 0.15029125 -0.2328925
-0.12069967 0.15031551 -0.23290233
-0.120447 0.15029667 -0.23294634
-0.120254 0.15028666 -0.23292966
-0.12009417 0.15027966 -0.23294818
-0.11991375 0.15030475 -0.2329565
-0.1197765 0.15029851 -0.23294801
-0.11946411 0.15032399 -0.23297225
-0.1193485 0.150342 -0.2329635
-0.126608 0.150571 -0.23297399
-0.12650001 0.150565 -0.2329835
-0.1261005 0.15052199 -0.232977
-0.12591125 0.1504975 -0.232939
-0.12571299 0.15050879 -0.23291381
-0.12552446 0.15051344 -0.23289289
-0.12510845 0.15048511 -0.23293866
-0.12493601 0.15047801 -0.23292466
-0.12430999 0.15051599 -0.23290516
-0.12409983 0.15050699 -0.2328945
-0.1239155 0.15050083 -0.232866
-0.12372649 0.15046601 -0.23283166
-0.12346361 0.15046079 -0.2328254
-0.12331384 0.15050183 -0.23282701
-0.12308358 0.15050314 -0.23284802
-0.12288821 0.1504986 -0.23284879
-0.122651 0.15043201 -0.232831
-0.12249199 0.1504695 -0.23284282
-0.1223405 0.15040949 -0.2328365
-0.1216765 0.15048599 -0.232832
-0.12144987 0.15050313 -0.232824
-0.12117033 0.15049601 -0.23283434
-0.1208792 0.15046301 -0.2328424
-0.1206975 0.1504685 -0.23281801
-0.12044267 0.15052299 -0.23284666
-0.12024834 0.150511 -0.23286517
-0.1200885 0.15050334 -0.23288167
-0.11990967 0.15049233 -0.23288767
-0.11977199 0.15048499 -0.23289232
-0.1194646 0.1504954 -0.23290721
-0.119363 0.15050633 -0.23291135
-0.11893025 0.15054226 -0.23296775
-0.11867833 0.15054101 -0.23297232
-0.12763849 0.15073451 -0.23298699
-0.127533 0.150739 -0.23299199
-0.12728301 0.15075199 -0.23299301
-0.127066 0.150737 -0.232981
-0.126882 0.150727 -0.23298
-0.12664984 0.15072049 -0.23294066
-0.12646888 0.15071188 -0.23294324
-0.12634149 0.15069833 -0.23295249
-0.12611634 0.1506899 -0.232939
-0.12590517 0.15068249 -0.23291218
-0.12572619 0.1506888 -0.2328686
-0.1255195 0.15069982 -0.23284167
-0.12510344 0.15071033 -0.23285657
-0.12493033 0.150701 -0.232862
-0.1243055 0.15070325 -0.23284626
-0.124111 0.15068366 -0.23281766
-0.12392667 0.15067433 -0.23282133
-0.123254 0.150611 -0.23281901
-0.1231375 0.150602 -0.23281449
-0.120907 0.150629 -0.23280799
-0.12023 0.15068567 -0.232816
-0.120098 0.15067933 -0.23282902
-0.1199055 0.1506795 -0.23282725
-0.1197665 0.15067101 -0.23284599
-0.11947079 0.1506774 -0.2328324
-0.11936817 0.15068267 -0.23285031
-0.11892726 0.150693 -0.232903
-0.1186872 0.1507034 -0.232905
-0.11848043 0.15072544 -0.2329407
-0.11830517 0.15072434 -0.23297434
-0.128648 0.150976 -0.232988
-0.12848499 0.15096299 -0.23299401
-0.128288 0.15095299 -0.23299
-0.12763266 0.15091933 -0.23295499
-0.12751667 0.15091217 -0.2329575
-0.12733634 0.15090199 -0.23295517
-0.12706201 0.15088534 -0.23294634
-0.12692517 0.15087801 -0.23295051
-0.126662 0.15089667 -0.23287167
-0.12648357 0.15090558 -0.23288015
-0.12633634 0.15092367 -0.23287366
-0.12611035 0.150913 -0.23288533
-0.12589884 0.15090583 -0.23286033
-0.12572832 0.15084802 -0.23282033
-0.125458 0.150809 -0.232816
-0.12515433 0.15088566 -0.232816
-0.12439 0.150822 -0.23280799
-0.120123 0.150805 -0.232805
-0.119392 0.15083399 -0.232813
-0.11891067 0.15083133 -0.23282933
-0.11873267 0.15084767 -0.23283666
-0.11845914 0.15090643 -0.23288488
-0.118301 0.15091288 -0.2329012
-0.118163 0.15092225 -0.23296425
-0.128667 0.15112425 -0.23297575
-0.12848733 0.15111355 -0.2329699
-0.1283305 0.15111324 -0.23296088
-0.1281575 0.1511305 -0.23295501
-0.1279045 0.1511175 -0.232978
-0.127628 0.15110549 -0.232903
-0.12751199 0.1510985 -0.23290223
-0.1273194 0.1511108 -0.23289521
-0.127056 0.15110832 -0.23288535
-0.12691949 0.15110184 -0.23287965
-0.12668633 0.151095 -0.23284233
-0.12649216 0.15108517 -0.23285417
-0.12634002 0.15109734 -0.23283367
-0.12610599 0.15109999 -0.23281986
-0.12590735 0.15107867 -0.23282534
-0.11845081 0.15106079 -0.2328572
-0.118297 0.15109932 -0.23283751
-0.118132 0.15111001 -0.23292342
-0.129668 0.151397 -0.232997
-0.12950332 0.15131666 -0.23297934
-0.12928179 0.1513166 -0.23296937
-0.12913966 0.151343 -0.23298232
-0.1289535 0.1512845 -0.23297018
-0.12869701 0.15129001 -0.23293081
-0.12848233 0.15129884 -0.23292299
-0.128332 0.15129016 -0.23291735
-0.128152 0.15131567 -0.23291798
-0.12789999 0.15130568 -0.23291034
-0.12762301 0.15129234 -0.23284768
-0.12750699 0.15128416 -0.23285399
-0.1273374 0.15128979 -0.23285079
-0.127051 0.15129399 -0.232842
-0.12691525 0.15128875 -0.23281874
-0.126682 0.151241 -0.23282699
-0.12651666 0.151234 -0.232825
-0.12639999 0.15122899 -0.23281699
-0.12617999 0.15121201 -0.23280101
-0.12593099 0.15120301 -0.232803
-0.11833029 0.15124558 -0.23282529
-0.1181424 0.151291 -0.23286018
-0.117812 0.15128851 -0.2329655
-0.11767817 0.15131818 -0.2329535
-0.1174906 0.15135238 -0.2329686
-0.130253 0.151573 -0.232996
-0.130118 0.151567 -0.232989
-0.129941 0.1515215 -0.232989
-0.12970033 0.15152334 -0.23296165
-0.129498 0.15150249 -0.232934
-0.1292766 0.1515104 -0.23291619
-0.12912183 0.1515165 -0.23292349
-0.128948 0.15150884 -0.23289765
-0.12865975 0.15147999 -0.23284027
-0.12846975 0.15147537 -0.232871
-0.12832689 0.15147591 -0.23287201
-0.12814701 0.151502 -0.23287651
-0.12789449 0.15149051 -0.232885
-0.127619 0.15144099 -0.23280901
-0.12750301 0.15143299 -0.2328095
-0.118094 0.1514585 -0.232832
-0.11780766 0.15147567 -0.23290634
-0.117674 0.15150474 -0.23289226
-0.11746313 0.15150657 -0.23294614
-0.11733 0.15153262 -0.23297319
-0.13059151 0.15170449 -0.232976
-0.13024867 0.15172233 -0.23296733
-0.13009863 0.15172175 -0.23297352
-0.12989941 0.1517202 -0.23294862
-0.12971216 0.15169699 -0.23293303
-0.129494 0.15168934 -0.23285766
-0.1292934 0.15169099 -0.23285601
-0.12911725 0.15170325 -0.232862
-0.12894376 0.15169474 -0.23283626
-0.12869434 0.15167333 -0.232805
-0.12842751 0.15168649 -0.23282
-0.12833866 0.15167466 -0.23282467
-0.12814167 0.15168732 -0.23283167
-0.12788899 0.151675 -0.23284633
-0.117802 0.1516615 -0.23287201
-0.11768644 0.151702 -0.23286629
-0.11748642 0.15167899 -0.232899
-0.1173352 0.1517114 -0.23293421
-0.13090751 0.151981 -0.23298749
-0.13058633 0.151889 -0.23293601
-0.130319 0.15191124 -0.23294824
-0.1301025 0.15189767 -0.23294751
-0.12988575 0.1518905 -0.23291498
-0.12970567 0.15191934 -0.23288368
-0.129489 0.151875 -0.232812
-0.12928781 0.15188299 -0.2328188
-0.1291135 0.15185174 -0.23282
-0.12898301 0.151807 -0.23281799
-0.127885 0.151824 -0.232811
-0.11770555 0.151915 -0.23282211
-0.117493 0.15190117 -0.23287649
-0.11733978 0.15188943 -0.23291768
-0.117096 0.151907 -0.23298
-0.13146949 0.15212351 -0.232986
-0.13127325 0.15210751 -0.23298275
-0.13109624 0.15211725 -0.23297873
-0.130905 0.1520935 -0.23295249
-0.13058032 0.15211232 -0.23286933
-0.1303145 0.15209733 -0.23289101
-0.13009776 0.1520831 -0.23289946
-0.12988 0.15207551 -0.23288034
-0.12971833 0.15209334 -0.23285367
-0.1174788 0.15210819 -0.23284158
-0.11733323 0.15211211 -0.23286656
-0.11709066 0.15209299 -0.23293702
-0.13162 0.15238599 -0.23298
-0.13146076 0.15231562 -0.23296037
-0.13129422 0.15229513 -0.23294112
-0.13111223 0.15228578 -0.23292357
-0.13090084 0.15228033 -0.23288018
-0.130578 0.152262 -0.232807
-0.1302938 0.15230441 -0.23283401
-0.130092 0.15230599 -0.23283489
-0.12986539 0.15228219 -0.23283219
-0.129747 0.15229067 -0.23283267
-0.117466 0.15231933 -0.23282067
-0.11732783 0.15229766 -0.23283266
-0.11708333 0.15231434 -0.23291333
-0.11686117 0.15229984 -0.23297448
-0.116714 0.152366 -0.23299401
-0.13161699 0.15245999 -0.23299301
-0.13146435 0.15249218 -0.23292299
-0.13128789 0.15251766 -0.23288676
-0.13111675 0.15250048 -0.23285639
-0.13091099 0.15245567 -0.23281832
-0.13030499 0.1524305 -0.23281401
-0.13012899 0.15245551 -0.2328105
-0.117436 0.15245351 -0.23280999
-0.1173209 0.15248111 -0.23282412
-0.1170785 0.1525 -0.23286101
-0.11685383 0.15252133 -0.23294349
-0.11670933 0.15251333 -0.23296867
-0.13163 0.15269825 -0.23298275
-0.13148966 0.15267749 -0.23289664
-0.13134 0.15268043 -0.23285143
-0.1311395 0.15269426 -0.2328435
-0.117073 0.152686 -0.232822
-0.11686433 0.15269434 -0.23291534
-0.1166866 0.15270519 -0.23295121
-0.1164795 0.15276 -0.23299101
-0.131908 0.152961 -0.232989
-0.13167888 0.15291324 -0.23295176
-0.131483 0.152899 -0.23284851
-0.13137199 0.15284668 -0.23281665
-0.13114665 0.15283033 -0.23281668
-0.1170665 0.152869 -0.23280901
-0.11689067 0.15289401 -0.23287702
-0.11669934 0.15288265 -0.23293024
-0.116485 0.15288761 -0.2329514
-0.116319 0.152933 -0.23298001
-0.13224401 0.15314899 -0.232998
-0.13191876 0.1530975 -0.23296326
-0.13172875 0.15309225 -0.23292799
-0.13153872 0.15311143 -0.23283872
-0.11688333 0.153115 -0.23284768
-0.11671828 0.15309456 -0.23289314
-0.116501 0.15310387 -0.23294699
-0.11633915 0.15308334 -0.23297684
-0.13247049 0.153348 -0.23299399
-0.13231155 0.153308 -0.23297319
-0.13210328 0.15331028 -0.23296657
-0.13191301 0.15328135 -0.23293166
-0.13172282 0.15327583 -0.23290168
-0.13156401 0.153295 -0.23280966
-0.116877 0.153299 -0.232831
-0.11672179 0.15331259 -0.23284659
-0.11650523 0.15331666 -0.23291366
-0.11633133 0.15330416 -0.23295416
-0.132467 0.1534965 -0.232945
-0.13230482 0.15351519 -0.23294073
-0.13210833 0.15351145 -0.23291856
-0.13190633 0.15350249 -0.23289217
-0.131716 0.15349567 -0.23286565
-0.131585 0.153492 -0.23280799
-0.11687151 0.1534465 -0.23281449
-0.1167346 0.15349001 -0.23283319
-0.11649884 0.15350151 -0.23289067
-0.11632225 0.15352425 -0.232968
-0.132622 0.15375599 -0.232996
-0.13250017 0.153679 -0.23296048
-0.1323141 0.15369356 -0.23291922
-0.13210283 0.15369582 -0.23287983
-0.13189851 0.15372168 -0.23286949
-0.13173251 0.15369925 -0.23283425
-0.131579 0.15363801 -0.232807
-0.11666966 0.15369333 -0.23282234
-0.11649244 0.15368488 -0.2328732
-0.11632301 0.153687 -0.2329438
-0.13263851 0.15392224 -0.23297974
-0.13249333 0.15389983 -0.23292583
-0.13230018 0.15389051 -0.23287393
-0.13209754 0.15388055 -0.23283666
-0.13190767 0.15389334 -0.23284467
-0.1317475 0.15390149 -0.23282701
-0.1166635 0.153877 -0.23281001
-0.1165208 0.153896 -0.23281081
-0.116339 0.15389456 -0.232914
-0.11611 0.153942 -0.232996
-0.13264459 0.15410981 -0.23296921
-0.13248634 0.15412067 -0.23288918
-0.13229324 0.15411124 -0.23283334
-0.13208163 0.15409014 -0.23281887
-0.1319325 0.154054 -0.23282
-0.1164775 0.154092 -0.2328085
-0.11633244 0.15411668 -0.2328718
-0.1161268 0.1541058 -0.23297699
-0.132851 0.15435401 -0.232985
-0.13267548 0.15429799 -0.23295666
-0.1324805 0.154304 -0.23286149
-0.13232341 0.15428859 -0.2328206
-0.132089 0.154246 -0.23280101
-0.1163136 0.1542912 -0.23287621
-0.116126 0.15431283 -0.23294133
-0.13287225 0.1545195 -0.23297399
-0.1327083 0.15448485 -0.23293844
-0.13250525 0.15449724 -0.23284401
-0.13233681 0.15446481 -0.23280999
-0.11628783 0.15448052 -0.23289602
-0.11608867 0.15449499 -0.232942
-0.133022 0.154726 -0.232996
-0.13289216 0.15472233 -0.23295499
-0.1327185 0.15471649 -0.23291917
-0.13253257 0.15469871 -0.23282541
-0.11627901 0.15470017 -0.23290201
-0.11608265 0.15467912 -0.23291622
-0.115944 0.15474799 -0.23298299
-0.13306732 0.15489982 -0.23299168
-0.13288625 0.15490575 -0.23292524
-0.1327125 0.15490049 -0.23289299
-0.132586 0.15489399 -0.23281699
-0.116245 0.154846 -0.23285601
-0.11607479 0.15490022 -0.23289922
-0.11594033 0.15489633 -0.23294567
-0.13310035 0.15509848 -0.23295604
-0.13288033 0.15509 -0.23289667
-0.132707 0.15508384 -0.23285866
-0.13255849 0.155058 -0.23280826
-0.11603751 0.15511966 -0.2328825
-0.11593267 0.15511701 -0.23292768
-0.13322499 0.155397 -0.232991
-0.13309343 0.15531884 -0.2329154
-0.13287234 0.1553085 -0.23288482
-0.13269983 0.15530384 -0.23282732
-0.116002 0.155267 -0.232862
-0.1159245 0.15529901 -0.23294899
-0.133221 0.155507 -0.232972
-0.1331165 0.15550317 -0.23292066
-0.13291016 0.15549433 -0.23286599
-0.13271375 0.155506 -0.23282225
-0.1158798 0.1554942 -0.23295999
-0.13321401 0.15568934 -0.232967
-0.133109 0.15568523 -0.23292214
-0.13290279 0.15567611 -0.23286612
-0.1327275 0.155707 -0.232816
-0.1158635 0.15569983 -0.23294349
-0.1157275 0.155729 -0.232996
-0.13320632 0.15590933 -0.23294967
-0.13310133 0.15590489 -0.23290144
-0.13292243 0.15588585 -0.23286629
-0.1327965 0.155928 -0.23282951
-0.11588738 0.15591262 -0.23288289
-0.133201 0.156055 -0.232942
-0.133099 0.15611601 -0.23290022
-0.132934 0.15611583 -0.232877
-0.13279001 0.156111 -0.23281501
-0.11584999 0.156104 -0.23289126
-0.115714 0.15609649 -0.23298199
-0.13312522 0.15628681 -0.23287699
-0.132927 0.156298 -0.23287401
-0.13278249 0.156293 -0.23281899
-0.11592675 0.15631101 -0.23281775
-0.11571714 0.15628999 -0.23293738
-0.1331061 0.15649043 -0.2328815
-0.13292132 0.15648167 -0.232844
-0.13277401 0.15647466 -0.23284434
-0.115901 0.15649375 -0.23283124
-0.11571088 0.15649226 -0.23290025
-0.1156 0.156569 -0.232967
-0.1330971 0.15670824 -0.23288994
-0.13291316 0.15669949 -0.23283334
-0.13276567 0.15669233 -0.23284368
-0.115877 0.15666001 -0.232816
-0.11573039 0.156709 -0.23285702
-0.11559534 0.15671635 -0.232951
-0.13307869 0.15691169 -0.23288159
-0.13292426 0.156901 -0.23284599
-0.13276 0.156876 -0.232814
-0.11573325 0.15687126 -0.23285051
-0.1155875 0.15689901 -0.232954
-0.1330943 0.15708879 -0.2328591
-0.1329335 0.15710101 -0.232889
-0.13275 0.15713 -0.232805
-0.11570175 0.15710849 -0.23285851
-0.11553183 0.15708001 -0.23296732
-0.115393 0.15707099 -0.232998
-0.13310234 0.15729366 -0.23287031
-0.13293412 0.15729377 -0.2328275
-0.132744 0.15727602 -0.23281367
-0.11569425 0.1572915 -0.23286201
-0.11552399 0.15730034 -0.2329535
-0.11532599 0.15733433 -0.23299533
-0.13309389 0.15751255 -0.23286621
-0.13291666 0.15750289 -0.23282491
-0.11569333 0.15750568 -0.23286267
-0.11551517 0.15752034 -0.23295236
-0.115376 0.15751134 -0.23298998
-0.1330875 0.15769483 -0.23285717
-0.132911 0.1576928 -0.23282239
-0.1158355 0.157722 -0.232802
-0.11570099 0.1576765 -0.23285417
-0.1155085 0.15770349 -0.23294924
-0.1153685 0.157694 -0.2329915
-0.13310599 0.15787816 -0.232868
-0.132927 0.15791732 -0.232816
-0.11569282 0.15789683 -0.23284216
-0.11550167 0.15788718 -0.23293716
-0.115364 0.157805 -0.232995
-0.13309866 0.15809767 -0.2328375
-0.132944 0.158041 -0.23281102
-0.1156845 0.15811716 -0.232839
-0.1154935 0.15810783 -0.23292531
-0.115354 0.15809833 -0.23296666
-0.115191 0.158162 -0.232981
-0.13308966 0.15831666 -0.23284833
-0.115633 0.15829849 -0.2328535
-0.11547621 0.1583126 -0.23291941
-0.115345 0.15831865 -0.23296867
-0.115188 0.158234 -0.232987
-0.13308349 0.158499 -0.23282549
-0.11562733 0.15848233 -0.23282367
-0.11548901 0.15848899 -0.23290542
-0.11533751 0.158501 -0.232972
-0.133082 0.158667 -0.23283021
-0.11562 0.158664 -0.232832
-0.11547183 0.15869384 -0.232894
-0.11528883 0.15868017 -0.23296486
-0.133094 0.15889966 -0.23283367
-0.1154645 0.15891434 -0.23286735
-0.11528116 0.15890034 -0.23294818
-0.13363566 0.15907466 -0.232989
-0.13308634 0.15911967 -0.232813
-0.1154575 0.159097 -0.23285849
-0.11527284 0.1591205 -0.23293449
-0.11512601 0.15911384 -0.23298283
-0.133627 0.15929265 -0.23298232
-0.1330795 0.15930149 -0.23280701
-0.11546119 0.1592668 -0.232849
-0.1152928 0.1593134 -0.2329146
-0.115147 0.159262 -0.232997
-0.133619 0.15951133 -0.23296534
-0.133075 0.159411 -0.232813
-0.11549167 0.159502 -0.23282333
-0.11530411 0.15949045 -0.23289834
-0.115136 0.15955301 -0.232996
-0.1336125 0.159694 -0.23295149
-0.11548233 0.159722 -0.23283066
-0.11529599 0.15971057 -0.23288658
-0.115132 0.15966401 -0.232979
-0.114947 0.15970859 -0.23298641
-0.13364999 0.15987876 -0.23297524
-0.11547551 0.159905 -0.23282701
-0.1153054 0.15988821 -0.2329032
-0.11517099 0.15997033 -0.23295833
-0.11489516 0.15988733 -0.23297386
-0.13359666 0.16009434 -0.23295601
-0.11546767 0.16008867 -0.23284267
-0.115324 0.16008051 -0.23290016
-0.11515325 0.1601045 -0.23295625
-0.13376699 0.160399 -0.232962
-0.13358833 0.16031332 -0.23295265
-0.11545967 0.16030867 -0.23282667
-0.115316 0.16030033 -0.2328825
-0.1151465 0.16028835 -0.23295568
-0.133762 0.16050699 -0.23297
-0.133582 0.160496 -0.232925
-0.1154535 0.160491 -0.23281001
-0.11530799 0.16052033 -0.23287183
-0.11512329 0.16051814 -0.23296544
-0.11489866 0.16054933 -0.23298933
-0.13357432 0.16067733 -0.23294334
-0.11544633 0.16067433 -0.23280533
-0.1153015 0.16070375 -0.232852
-0.11509933 0.16069099 -0.23295499
-0.11487186 0.16069815 -0.23299487
-0.13388449 0.16087601 -0.232997
-0.13356601 0.16089667 -0.23294599
-0.115441 0.16082101 -0.23280101
-0.11529417 0.16088666 -0.23285449
-0.11509388 0.1608741 -0.2329182
-0.11496475 0.16089 -0.23298049
-0.13355601 0.16111468 -0.23296535
-0.11528584 0.16110648 -0.23284715
-0.11508567 0.16109411 -0.23291244
-0.11492401 0.16108999 -0.23298967
-0.114794 0.16112 -0.23299
-0.13354799 0.16129801 -0.232981
-0.1154215 0.16129699 -0.232806
-0.11526801 0.16131079 -0.23286763
-0.1150953 0.16132414 -0.23289144
-0.114864 0.16132501 -0.23298749
-0.11479 0.161231 -0.232995
-0.13372201 0.16149101 -0.232996
-0.133542 0.16147934 -0.23296601
-0.115414 0.16148032 -0.23281999
-0.1152786 0.16148819 -0.23286882
-0.11506983 0.16149698 -0.23290651
-0.11489099 0.16150741 -0.23297313
-0.114778 0.16156 -0.23296449
-0.133533 0.16169833 -0.23297399
-0.115405 0.16169967 -0.232816
-0.11526185 0.16169234 -0.23287034
-0.11509317 0.16168065 -0.23292118
