-0.0204645 0.268734 0.962997 0
-0.0180181 0.252907 0.967323 0
-0.0149565 0.243881 0.96969 0
0.00774961 0.248476 0.968607 0
0.00743955 0.261907 0.965065 0
0.00846017 0.273302 0.961891 0
0.013131 0.27263 0.962029 0
0.206085 0.323339 0.92357 0.00494378
-0.0263405 -0.286415 0.957744 0
0.0130454 -0.30087 0.953576 0.00394775
0.0475552 -0.31749 0.947069 0
0.052596 -0.305748 0.950659 0
-0.0560775 -0.28028 0.958279 0.0203445
-0.0559733 -0.284393 0.957072 0.0240028
-0.0536888 -0.284281 0.957237 0.0184664
-0.0344669 -0.277646 0.960065 0
-0.0294229 -0.281097 0.959228 0
-0.0255333 -0.288395 0.957171 0
-0.0175434 -0.286304 0.957978 0
-0.0176825 -0.286054 0.95805 0
-0.0108449 -0.289641 0.957074 0.00236205
-0.00677284 -0.290203 0.956941 0
0.000224706 -0.293308 0.956018 0
0.0072288 -0.290059 0.956981 0.00236744
0.0150093 -0.297605 0.954571 0.00145626
0.0411716 -0.301282 0.952646 0
0.0506199 -0.301799 0.952027 0
0.0588945 -0.308086 0.949534 0.011124
0.0738826 -0.308687 0.94829 0.0127247
0.0801705 -0.313012 0.946359 0.00998968
0.104193 -0.307015 0.945984 0.0068804
0.107078 -0.30589 0.946026 0.00905171
0.118554 -0.306386 0.944496 0.00478027
-0.0575312 -0.275338 0.959624 0.0178439
-0.060977 -0.273225 0.960016 0.0242538
-0.0542085 -0.271957 0.960781 0.0219179
-0.0521011 -0.280477 0.958446 0.0164214
-0.0527096 -0.271379 0.961028 0.0131612
-0.0498916 -0.269603 0.961678 0.00804769
-0.0420067 -0.262611 0.963987 0
-0.0378726 -0.269864 0.962153 0
-0.034449 -0.280547 0.959222 0
-0.0299281 -0.272498 0.961691 0
-0.0255425 -0.275906 0.960845 0
-0.0210007 -0.283807 0.958651 0
-0.0159165 -0.287324 0.957701 0
-0.0132887 -0.277966 0.960499 0
-0.00728405 -0.286449 0.958068 0
-0.00283179 -0.283909 0.958847 0
0.00447373 -0.28592 0.958243 0.00197415
0.0114622 -0.283981 0.958761 0.00632881
0.0428564 -0.298622 0.953409 0
0.0519779 -0.293381 0.954581 0
0.0615687 -0.29722 0.952822 0.00627327
0.074863 -0.305629 0.949203 0.00824254
0.081019 -0.307622 0.948053 0.00411958
0.0927927 -0.303424 0.948327 0
0.103001 -0.295251 0.949851 0.00216692
0.112519 -0.298215 0.947843 0.00624667
0.120668 -0.299649 0.946388 0.00272915
0.127129 -0.300906 0.945142 0.000916024
0.143823 -0.303026 0.942067 0.00797786
0.151755 -0.301774 0.941224 0.0127725
-0.0622328 -0.272236 0.960216 0.0100616
-0.0619247 -0.271163 0.960539 0.0143112
-0.0609648 -0.266974 0.961774 0.016336
-0.0597405 -0.259833 0.963804 0.0219318
-0.0554639 -0.260944 0.963759 0.0229968
-0.0548508 -0.266149 0.96237 0.0186793
-0.0494858 -0.266049 0.962688 0.0112397
-0.0501781 -0.261611 0.963868 0.00987652
-0.038964 -0.261003 0.964551 0
-0.0349299 -0.273444 0.961253 0
-0.0319155 -0.264066 0.963977 0
-0.0253593 -0.270328 0.962434 0
-0.0194136 -0.279053 0.960079 0
-0.0176865 -0.270229 0.962634 0
-0.012797 -0.276914 0.96081 0
-0.00886636 -0.271685 0.962345 0
-0.00121932 -0.282947 0.959135 0
0.00445147 -0.279207 0.960221 0.000356356
0.0106783 -0.278299 0.960435 0.00630349
0.0428061 -0.283904 0.957897 0.000267248
0.0517202 -0.29016 0.955579 0.00014256
0.0604773 -0.28331 0.957119 0.00586145
0.0713566 -0.303802 0.950059 0.00732755
0.0819896 -0.299496 0.950568 0.00317037
0.091154 -0.292661 0.951861 0.00233745
0.101754 -0.289358 0.951797 0.00624288
0.112797 -0.284683 0.951962 0.00632842
0.12205 -0.287812 0.949878 0
0.127813 -0.299909 0.945367 0
0.143747 -0.297618 0.943801 0.00807263
0.150665 -0.296506 0.943071 0.0103449
0.179946 -0.304622 0.935321 0.00873569
0.198221 -0.29895 0.933454 0.00728805
-0.0804693 -0.279784 0.956685 0.00151684
-0.0807736 -0.275021 0.958039 0.0076973
-0.0765744 -0.278109 0.957492 0.0105869
-0.0723055 -0.278055 0.95784 0.0143838
-0.06661 -0.260477 0.96318 0.0135846
-0.0612935 -0.272805 0.960115 0.0142378
-0.0628209 -0.268565 0.961211 0.0176984
-0.0643296 -0.26905 0.960976 0.0197181
-0.0596995 -0.259379 0.963929 0.0200823
-0.057334 -0.252466 0.965906 0.0213892
-0.0543728 -0.256668 0.964969 0.0210344
-0.0523453 -0.266061 0.962534 0.0181928
-0.0492536 -0.253788 0.966005 0.0129494
-0.0482434 -0.256827 0.965253 0.0129021
-0.038835 -0.254424 0.966313 0
-0.0351468 -0.262075 0.964407 0
-0.0324642 -0.257602 0.965706 0
-0.0171748 -0.268766 0.963052 0
-0.0129441 -0.274738 0.961432 0
0.0720953 -0.291402 0.95388 0.0026544
0.102338 -0.284006 0.953346 0.00475784
0.110251 -0.281513 0.953203 0.00436089
0.124305 -0.281569 0.951455 0.00644526
0.125778 -0.28685 0.949683 0.00439471
0.142865 -0.285845 0.947567 0.00763808
0.148344 -0.284092 0.947252 0.00769998
0.18121 -0.295673 0.937945 0.00778
0.198781 -0.290611 0.935966 0.00383375
0.213294 -0.283084 0.935077 0.00554555
0.225118 -0.286725 0.931188 0.00144605
-0.100037 -0.276197 0.95588 0.000598885
-0.0954973 -0.276012 0.956398 0
-0.0940681 -0.274425 0.956996 0.00481846
-0.0813454 -0.270962 0.959147 0.00699539
-0.078985 -0.273813 0.958534 0.00965711
-0.0775444 -0.271672 0.959261 0.0132041
-0.0710135 -0.270044 0.960226 0.0158599
-0.0679799 -0.263219 0.962338 0.0148628
-0.0623596 -0.265426 0.962113 0.0161805
-0.0648996 -0.262546 0.962734 0.0212134
-0.0647897 -0.259382 0.963599 0.019367
-0.0576098 -0.24898 0.966794 0.0211143
-0.0538399 -0.251703 0.966306 0.0148048
-0.054586 -0.253235 0.965863 0.0162125
-0.0493953 -0.264006 0.963255 0.0148201
-0.0449147 -0.256318 0.965548 0.0100891
-0.0391855 -0.253254 0.966606 0.00242145
0.107615 -0.277627 0.954643 0.00290386
0.148835 -0.2781 0.948951 0.00586635
0.183008 -0.29694 0.937195 0.0074659
0.196238 -0.287326 0.937515 0.00378536
0.214363 -0.286602 0.93376 0.000544164
0.225667 -0.282285 0.932411 0
0.235124 -0.279581 0.930887 0
-0.0959109 -0.270671 0.957882 0.0022763
-0.0920037 -0.26846 0.958887 0
-0.0938562 -0.27033 0.958182 0.000790266
-0.0881747 -0.272972 0.957973 0
-0.0851993 -0.270643 0.958902 0
-0.0806149 -0.269939 0.959497 0.00748286
-0.0769886 -0.267455 0.96049 0.00826297
-0.0742168 -0.269874 0.960031 0.0143372
-0.0693955 -0.263395 0.962189 0.0121878
-0.0682682 -0.2632 0.962323 0.0126497
-0.0642533 -0.253718 0.965142 0.0146827
-0.0674613 -0.249726 0.965964 0.0208098
-0.0652677 -0.24619 0.967022 0.0237024
-0.0623402 -0.248607 0.966596 0.0219572
-0.0585551 -0.246639 0.967337 0.0191542
0.211915 -0.284786 0.934874 0.00423897
0.223381 -0.276304 0.93475 0
0.236613 -0.280751 0.930158 0
-0.124286 -0.267302 0.955564 0.00643456
-0.12259 -0.269251 0.955236 0.00844771
-0.111415 -0.26806 0.956938 0.0046115
-0.111206 -0.26532 0.957726 0.00631501
-0.105288 -0.261905 0.959333 0.00103812
-0.0981288 -0.26532 0.959154 0.000821294
-0.0916074 -0.266482 0.959477 0.000363664
-0.0869588 -0.262721 0.960945 0
-0.0879101 -0.265799 0.960012 0.00113683
-0.0892221 -0.263504 0.960523 0.00583884
-0.0825682 -0.262951 0.96127 0.0115764
-0.0774736 -0.261838 0.961997 0.0118636
-0.0741968 -0.263703 0.961746 0.00930065
-0.0711158 -0.260881 0.962748 0.00621445
-0.0691338 -0.25454 0.964588 0.00851503
-0.0674387 -0.240143 0.968392 0.0172529
-0.0627908 -0.242796 0.968043 0.0145873
-0.0613348 -0.243035 0.968076 0.0160084
-0.0572588 -0.244257 0.968019 0.021413
-0.0546097 -0.246301 0.967654 0.0201368
0.220384 -0.269862 0.937339 0.00121826
0.23524 -0.267487 0.934405 0
0.251704 -0.26204 0.931655 0.000204922
0.259411 -0.26047 0.929979 0
0.271422 -0.260981 0.926401 0
-0.142578 -0.255399 0.956265 0.00861286
-0.140257 -0.254439 0.956864 0.0100621
-0.137362 -0.263756 0.954759 0.0102382
-0.125499 -0.262161 0.956829 0.00667077
-0.122673 -0.260179 0.957736 0.0106955
-0.11706 -0.251133 0.960848 0.0104317
-0.111433 -0.252133 0.961255 0.00853489
-0.109006 -0.252831 0.96135 0.0096367
-0.100301 -0.258838 0.960699 0.00233878
-0.090461 -0.262628 0.960647 0.000665327
-0.0865823 -0.264921 0.960375 0.00129234
-0.0841042 -0.256452 0.962891 0.00495105
-0.0839934 -0.258595 0.962327 0.00583555
-0.0777972 -0.257565 0.963124 0.00858697
-0.0745682 -0.253043 0.964577 0.0121699
0.234671 -0.255351 0.937936 0.00267602
0.248679 -0.254082 0.934666 0.00471678
0.25707 -0.254087 0.932392 0
0.270506 -0.251876 0.929185 0
0.277331 -0.253279 0.926789 0
-0.169749 -0.254311 0.952109 0.0187278
-0.139944 -0.252087 0.957532 0.0105065
-0.140348 -0.248688 0.958361 0.0106147
-0.131594 -0.252338 0.95865 0.00726765
-0.1296 -0.252007 0.959008 0.0104352
-0.124891 -0.249632 0.960253 0.0100658
-0.116823 -0.248338 0.961603 0.00733407
-0.111117 -0.246334 0.962794 0.00445449
-0.103904 -0.248767 0.962974 0.00125581
-0.0950627 -0.254323 0.962436 0.000636527
-0.088781 -0.262958 0.960714 0
-0.0905039 -0.260438 0.961239 0.0015809
-0.0842468 -0.255265 0.963194 0.00752566
-0.0845745 -0.247435 0.965206 0.00644855
0.247498 -0.248548 0.936466 0.00127749
0.254197 -0.244145 0.93583 0.00228332
0.267016 -0.244917 0.93205 0
0.277574 -0.244583 0.929049 0
-0.184927 -0.242138 0.952455 0.0164786
-0.162787 -0.248867 0.954759 0.0159311
-0.148775 -0.241378 0.958959 0.0160549
-0.135203 -0.242267 0.960743 0.0102293
-0.128676 -0.240663 0.962041 0.00382857
-0.122909 -0.237786 0.96351 0.0103528
-0.118619 -0.238555 0.963857 0.00532418
-0.112877 -0.235322 0.96534 0.00673431
-0.105008 -0.242587 0.96443 0.00327402
-0.104481 -0.241745 0.964698 0.0030513
-0.0835853 -0.243161 0.966378 0.0061708
0.255294 -0.239742 0.936669 0.000411547
0.266569 -0.245744 0.931961 0
0.274742 -0.237491 0.931727 0
0.285649 -0.242144 0.927238 0
-0.207242 -0.235126 0.949614 0.0143258
-0.201399 -0.23664 0.950495 0.0156489
-0.193967 -0.24128 0.950874 0.0131036
-0.181257 -0.236637 0.954541 0.0138958
-0.15864 -0.233751 0.959267 0.017558
-0.148256 -0.23175 0.961411 0.0133051
-0.141862 -0.232282 0.962247 0.0104065
-0.129845 -0.228072 0.964947 0.00786724
-0.125742 -0.227868 0.965539 0.0078009
0.268105 -0.234439 0.934429 0.000560312
0.276698 -0.238324 0.930935 0
0.284795 -0.231529 0.930207 0
-0.213549 -0.230097 0.949448 0.0124797
-0.207491 -0.230463 0.950702 0.0148122
-0.20052 -0.23037 0.952219 0.0168357
-0.197397 -0.23093 0.952736 0.0190242
-0.189257 -0.22803 0.955083 0.0187332
-0.165956 -0.225168 0.960082 0.0194399
-0.152524 -0.223783 0.962631 0.0124241
-0.142464 -0.218683 0.96534 0.0108151
-0.136674 -0.222758 0.965246 0.0048952
-0.137004 -0.21719 0.966467 0.00629265
0.267572 -0.227365 0.936328 0
0.276412 -0.231361 0.932774 0
0.286466 -0.22752 0.930684 0.000146099
0.294216 -0.224216 0.929066 0.00103405
0.303769 -0.223425 0.926178 0.001957
-0.213926 -0.226702 0.95018 0.0122369
-0.210388 -0.22026 0.952482 0.0170524
-0.201256 -0.223609 0.953674 0.0173676
-0.189168 -0.221648 0.956602 0.0145009
-0.17742 -0.222331 0.958692 0.0163266
-0.154666 -0.217233 0.963788 0.0114893
-0.151082 -0.211151 0.965707 0.0121775
0.270368 -0.225052 0.936084 0
0.276586 -0.223382 0.934666 0
0.283981 -0.220202 0.933202 0.0012611
0.298754 -0.21952 0.928739 0
0.303643 -0.218224 0.927458 0
-0.214003 -0.213804 0.953148 0.014802
-0.20777 -0.21357 0.954578 0.0158415
-0.200154 -0.213278 0.956269 0.0130574
-0.187853 -0.208469 0.959819 0.0142656
0.288959 -0.209681 0.934097 0.00419079
0.294087 -0.212019 0.931966 0
0.303838 -0.207264 0.929905 0
0.320801 -0.201904 0.925376 0
-0.221014 -0.206567 0.953144 0.0101744
-0.212956 -0.202675 0.95581 0.0104736
-0.206166 -0.199161 0.958035 0.0134321
-0.198758 -0.19868 0.959699 0.0141005
-0.186929 -0.197177 0.962382 0.0170563
0.282755 -0.204512 0.937136 0.00251756
0.294571 -0.200802 0.934295 0.000375158
0.301348 -0.201349 0.932013 0.000197343
0.313581 -0.19754 0.928787 0
0.321181 -0.197439 0.926208 0
-0.22438 -0.194895 0.954814 0.00365775
-0.219943 -0.193724 0.956084 0.0105425
-0.213405 -0.191927 0.957926 0.0127594
-0.200378 -0.178571 0.963307 0.0118807
0.288228 -0.19477 0.937544 0
0.29587 -0.189076 0.936329 0.00101012
0.307855 -0.187349 0.932805 0.00324039
0.319364 -0.192123 0.927952 0
-0.239613 -0.184574 0.953162 0.00660211
-0.229199 -0.186787 0.95529 0.00476863
-0.219772 -0.180657 0.958678 0.0082684
-0.208352 -0.178153 0.961692 0.00954341
-0.203116 -0.173985 0.963573 0.00930309
-0.18998 -0.172483 0.966518 0.00767041
0.286783 -0.179387 0.94105 0.00406741
0.293251 -0.175808 0.939732 0.00434917
0.308244 -0.173766 0.935303 0.00176491
0.317959 -0.173898 0.93202 0.0031574
-0.232318 -0.180579 0.95573 0.00432343
-0.223606 -0.175377 0.958772 0.00447938
-0.21417 -0.170743 0.961758 0.00535972
-0.205162 -0.171592 0.963569 0.00615167
-0.192696 -0.16414 0.967433 0.00421052
-0.187393 -0.160242 0.969127 0.00462248
0.288206 -0.171329 0.942117 0.0020713
0.291441 -0.167725 0.94177 7.81513e-05
0.309066 -0.172402 0.935284 0
0.318939 -0.170703 0.932276 0
-0.237665 -0.168479 0.956624 0.00870876
-0.22868 -0.171553 0.958267 0.00645034
-0.217933 -0.165293 0.961865 0.0041524
-0.206267 -0.162276 0.964946 0.00199364
-0.192407 -0.15898 0.968351 0.000991103
-0.190265 -0.160278 0.968561 0.00444711
-0.183118 -0.160464 0.969907 0.00300967
0.298717 -0.160903 0.94068 0
0.311975 -0.164649 0.935715 0
0.320599 -0.162895 0.933103 0
-0.237401 -0.157092 0.958626 0.00963263
-0.22602 -0.155761 0.961589 0.00571033
-0.210652 -0.153587 0.96542 0.003125
-0.199081 -0.153071 0.967955 0.0015236
-0.197288 -0.152257 0.96845 0.00559753
-0.185945 -0.147301 0.971456 0.00355866
0.295436 -0.155217 0.942669 0
0.309903 -0.15054 0.938775 0
0.318479 -0.15084 0.935852 0
0.33073 -0.154912 0.930924 0
-0.229582 -0.146117 0.962259 0.00416712
-0.224257 -0.139126 0.964548 0.0100326
-0.21183 -0.141428 0.967019 0.00662593
-0.203613 -0.144632 0.968309 0.00680948
-0.192023 -0.144092 0.970755 0.00572362
0.307681 -0.145783 0.940255 0
0.315481 -0.141128 0.938379 0
0.328193 -0.145263 0.933375 0
-0.228542 -0.132857 0.964426 0.00231685
-0.226215 -0.136593 0.964453 0.00459327
-0.221178 -0.135378 0.965792 0.00425074
-0.209869 -0.135724 0.968263 0.00370778
-0.198635 -0.13736 0.9704 0.00117186
0.322264 -0.139613 0.936298 0
0.32903 -0.140031 0.933879 0
-0.228619 -0.124258 0.965553 0.00409917
-0.224331 -0.12835 0.966024 0.00238546
-0.214328 -0.125512 0.968664 0.00199569
-0.206034 -0.126291 0.970361 0
0.3193 -0.13796 0.937558 0
0.32973 -0.13207 0.934792 0
-0.232716 -0.114249 0.965811 0.00451499
-0.224079 -0.11518 0.967741 0.00138864
-0.225284 -0.113821 0.967622 0.00439018
-0.21796 -0.114697 0.969195 0.00325949
0.31742 -0.133049 0.938905 0
0.328895 -0.129916 0.935388 0.000465058
0.340319 -0.126219 0.9318 0
-0.230116 -0.111568 0.966747 0.00257405
-0.229491 -0.107658 0.967338 0.00650661
-0.217619 -0.108801 0.969951 0.00261182
-0.211807 -0.110042 0.971097 0.000233943
0.3226 -0.133657 0.937051 0
0.331459 -0.130434 0.93441 0
0.333363 -0.127701 0.93411 0
-0.231831 -0.0998223 0.967621 0.00411741
-0.221528 -0.0991634 0.970099 0.00240913
-0.209129 -0.101994 0.972555 0
-0.20631 -0.101587 0.973199 0
0.340298 -0.128151 0.931544 0
0.345185 -0.125861 0.930057 0
-0.237124 -0.0893557 0.967361 0.00267377
-0.230768 -0.0931134 0.968543 0
-0.223476 -0.0942278 0.970144 0.0041297
-0.208573 -0.094967 0.973385 0
0.342391 -0.121363 0.931686 0
0.348761 -0.122103 0.929224 0
-0.236197 -0.0857497 0.967914 0.00374414
-0.227528 -0.0887495 0.969719 0
-0.213648 -0.0872599 0.973006 0
-0.209761 -0.0882257 0.973764 0
0.342825 -0.11665 0.932129 0
-0.230151 -0.0833803 0.969576 0
-0.223275 -0.0869883 0.970866 0
-0.218752 -0.084155 0.972145 0
-0.212431 -0.0813158 0.973787 0
0.341301 -0.11246 0.933202 0
0.350572 -0.117998 0.929072 0
-0.231818 -0.0799976 0.969464 0
-0.228338 -0.0802944 0.970265 0
-0.217784 -0.0788736 0.972805 0
-0.214198 -0.0803647 0.973479 0
0.336438 -0.118824 0.934179 0
-0.230743 -0.0749846 0.970121 0
-0.222557 -0.0724583 0.972223 0
-0.216925 -0.0729435 0.973459 0
-0.214683 -0.0745514 0.973834 0
0.343178 -0.112153 0.932551 0
0.358434 -0.11461 0.926493 0
-0.226292 -0.0664516 0.97179 0
-0.216042 -0.0684738 0.97398 0
-0.211084 -0.0715486 0.974846 0
0.340483 -0.100417 0.934873 0
0.351412 -0.108795 0.929878 0
-0.227653 -0.0596926 0.971911 0
-0.217838 -0.0600319 0.974137 0
-0.208056 -0.0619831 0.976151 0
0.336726 -0.0945789 0.936841 0
0.351693 -0.0975089 0.931023 0
0.35949 -0.0963532 0.928161 0
-0.227698 -0.0590961 0.971937 0
-0.220344 -0.0576971 0.973714 0
-0.215286 -0.0572859 0.974869 0
0.335847 -0.0880413 0.937793 0.00174913
0.348209 -0.0934877 0.932744 0
0.357875 -0.0936763 0.929059 0
-0.222529 -0.0588865 0.973146 0
-0.220713 -0.0596618 0.973512 0
-0.214105 -0.0556822 0.975222 0
0.345028 -0.0897184 0.934295 0.00236374
0.354662 -0.0892367 0.930726 0.00214088
-0.222712 -0.0613706 0.972951 0
-0.212848 -0.061599 0.975142 0
-0.208642 -0.0618784 0.976033 0
0.343867 -0.0888931 0.934801 0.00679482
0.351543 -0.092383 0.931602 0.000629734
0.362329 -0.0915722 0.927541 0.00513915
-0.224327 -0.0596411 0.972687 0
-0.21451 -0.0594396 0.974911 0
-0.205536 -0.0597986 0.976821 0
0.336964 -0.0829841 0.937853 0.00834912
0.356691 -0.0838234 0.930454 0.00787687
0.368706 -0.0803343 0.926068 0.00512506
-0.225379 -0.056217 0.972648 0
-0.215313 -0.0553124 0.974977 0
0.339481 -0.0721949 0.937838 0
0.352639 -0.075366 0.93272 0.00599554
0.362026 -0.0786953 0.92884 0.0126229
-0.231339 -0.0525594 0.971452 0
-0.220935 -0.0580556 0.973559 0
0.321985 -0.0694725 0.944192 0.00197843
0.335551 -0.0677182 0.939585 0.00401194
0.353343 -0.0696325 0.932899 0.0107328
0.362567 -0.0719255 0.929178 0.00888657
-0.238178 -0.052654 0.969793 0
-0.229567 -0.0556174 0.971703 0
0.33188 -0.0689066 0.940802 0.00558796
0.352053 -0.0726116 0.933159 0.00551383
0.363374 -0.0738857 0.928709 0.0103597
-0.244631 -0.0458463 0.968532 0.00110991
-0.236657 -0.0487905 0.970367 0
0.333582 -0.0663413 0.940384 0.00331961
0.346002 -0.0678187 0.935779 0.00499651
0.357111 -0.0666467 0.931681 0.00216055
0.369144 -0.0687001 0.926829 0.005743
-0.256376 -0.0369882 0.965869 0.0055226
0.339816 -0.0686077 0.937986 0
0.351154 -0.0689643 0.933775 0
0.356072 -0.0703511 0.931807 0.00112343
0.373024 -0.0671988 0.925385 0.00886155
-0.250809 -0.0376322 0.967305 0.00173251
0.339442 -0.0706217 0.937972 0
0.347022 -0.0655843 0.935561 0
0.356361 -0.0668214 0.931956 0
-0.245501 -0.0361354 0.968723 0.00329291
0.344583 -0.0610339 0.93677 0
0.350316 -0.063666 0.934465 0
0.356009 -0.0652217 0.932204 0
-0.250196 -0.0340548 0.967596 0.00461643
0.351014 -0.0561024 0.934688 0
0.356934 -0.0612615 0.932119 0
-0.268179 -0.0251132 0.963042 0.00565759
-0.253101 -0.027391 0.967052 0.00543514
0.347194 -0.059726 0.935889 0
0.362009 -0.0639658 0.929977 0
0.36848 -0.0637057 0.92745 0
-0.267097 -0.0231463 0.963391 0.00227507
-0.255006 -0.0243317 0.966633 0.00285453
0.347196 -0.0593068 0.935916 0
0.353321 -0.0586227 0.933664 0
0.366096 -0.0600352 0.928638 0
-0.267696 -0.0238025 0.963209 0
-0.255014 -0.0258169 0.966593 0.00117563
0.346959 -0.0530663 0.936378 0
0.357125 -0.0555052 0.932406 0
0.370136 -0.0587705 0.927117 0
-0.270416 -0.0211411 0.962511 0
0.351576 -0.043995 0.935125 0
0.362682 -0.0498803 0.930577 0
0.371573 -0.0518085 0.926957 0
0.379159 -0.0469523 0.924139 0
-0.271513 -0.0200852 0.962225 0
0.349177 -0.0416949 0.936129 0
0.35936 -0.0447619 0.932125 0
0.376106 -0.0436869 0.925546 0
0.378259 -0.0403899 0.924818 0
-0.270858 -0.0147643 0.962506 0
0.35267 -0.0448693 0.934671 0
0.358227 -0.0441102 0.932592 0
0.365631 -0.0368659 0.930029 0
-0.277303 -0.00900992 0.96074 0
-0.277642 -0.00861465 0.960646 0
0.346771 -0.0419144 0.937013 0.00137941
0.362653 -0.0391471 0.931102 0
0.372583 -0.0358801 0.927305 0
-0.271358 -0.00664403 0.962456 0
-0.266313 -0.0098174 0.963836 0
0.353122 -0.0334955 0.934978 0
0.361684 -0.0340952 0.931677 0
0.371374 -0.0318945 0.927935 0
0.389637 -0.0331621 0.920371 0
-0.268033 -0.00523426 0.963395 0
0.351618 -0.0358853 0.935456 0
0.361551 -0.0343663 0.931719 0
0.370179 -0.0290498 0.928506 0
0.386643 -0.0293759 0.921761 0.00036216
-0.268723 -0.00428524 0.963208 0
-0.264855 -0.00474669 0.964277 0
0.352398 -0.031944 0.935305 0.00221617
0.35694 -0.025318 0.933784 0.00737807
0.367318 -0.0236321 0.929795 0.00194124
0.380571 -0.0196777 0.924542 0.000990863
-0.267462 -0.00117212 0.963568 0
0.354884 -0.0190217 0.934717 0.00645535
0.358539 -0.0211579 0.933275 0.00148995
0.375565 -0.0214647 0.926547 0
0.381508 -0.0166083 0.924216 0.00477097
-0.262125 -0.000121984 0.965034 0
0.341302 -0.0139846 0.93985 0.00960793
0.34703 -0.01383 0.937752 0.00495364
0.359905 -0.0122659 0.932908 0.00362135
0.385254 -0.0138215 0.922707 0.00629586
0.380244 -0.0143827 0.924774 0.0056611
-0.271415 0.00674351 0.962439 0
-0.274363 0.00814075 0.961592 0.00113682
0.338692 -0.00880712 0.940856 0.00501299
0.343124 -0.00659909 0.939267 0.00344001
0.358158 -0.00718052 0.933633 0.00877612
0.368513 -0.00550547 0.929606 0.00594805
0.37778 -0.00511789 0.925881 0.00636678
-0.270797 0.0119533 0.962562 0
0.336381 -0.00386037 0.941718 0.00787664
0.344818 -0.00531927 0.938654 0.00816041
0.357174 -0.000154551 0.934038 0.0113274
0.372258 0.00348357 0.928123 0.0155934
0.380973 0.00281763 0.924582 0.0122248
-0.270946 0.0183569 0.962419 0
0.339269 0.00385789 0.940682 0.00478206
0.361125 0.00456036 0.932506 0.00855613
0.378832 0.0087322 0.925424 0.00597914
0.385727 0.00907815 0.922568 0.00635493
-0.275333 0.0255938 0.961008 0
0.341849 0.0111724 0.939688 0.00540118
0.358601 0.013864 0.933388 0
0.373421 0.0177065 0.927493 0.00251835
-0.276184 0.0282718 0.960689 0
0.34127 0.016855 0.939814 0.000156412
0.364305 0.0169361 0.931126 0
0.373419 0.0207335 0.927431 0
-0.300304 0.0451796 0.952773 0.00599934
-0.27959 0.038263 0.959357 0.00147273
0.343818 0.0303278 0.938547 0
0.355754 0.0293157 0.93412 0
0.370883 0.0260578 0.928314 0
-0.291101 0.0480746 0.955484 0.00390928
-0.294729 0.0504575 0.954248 0.00900231
0.352717 0.0430439 0.934739 0
0.364314 0.0392345 0.930449 0
0.373882 0.0389539 0.926658 0
-0.292383 0.0562238 0.954647 0.00753376
0.351689 0.050778 0.934739 0
0.366616 0.042594 0.929397 0
0.372594 0.0424746 0.927022 0
0.393015 0.045608 0.9184 0
-0.292552 0.0657944 0.953984 0.0106562
0.354923 0.0562184 0.933203 0
0.368413 0.0565403 0.927941 0
0.381471 0.0555117 0.922712 0
0.392049 0.0539487 0.918361 0
-0.304537 0.0795849 0.94917 0.0131674
0.35682 0.0704207 0.931515 0
0.370746 0.0673534 0.926289 0
0.379142 0.0675389 0.922871 0
-0.297438 0.0866812 0.950798 0.0107027
0.360663 0.0789386 0.92935 0.00234349
0.372431 0.077485 0.92482 0.00208293
0.379875 0.0782506 0.921722 0.00219194
-0.291194 0.0930574 0.952127 0.00642129
0.362204 0.0837941 0.928325 0.00750265
0.372372 0.088048 0.923898 0.0101753
-0.288156 0.0966795 0.95269 0.00662562
0.359446 0.0953556 0.928281 0.010115
0.375598 0.0933253 0.922072 0.01014
-0.293643 0.111864 0.949347 0.0015229
0.34911 0.109758 0.930632 0.00984009
0.362174 0.106606 0.925994 0.00616024
0.369643 0.104991 0.923223 0.00698127
-0.28712 0.113735 0.951119 0.000852093
0.356969 0.110869 0.927513 0.00960749
0.370081 0.115378 0.921807 0.0131791
-0.27891 0.111532 0.953819 0
-0.246174 0.114111 0.962485 0
0.353428 0.117846 0.928009 0.00951618
0.363502 0.117212 0.92419 0.0128479
-0.249464 0.124788 0.96031 0
0.348228 0.131572 0.92813 0.00856275
0.356349 0.128995 0.925406 0.00703356
-0.253833 0.127667 0.958786 0
-0.249985 0.129424 0.959561 0.000455998
0.332611 0.13816 0.932889 0.0114319
0.341278 0.13373 0.930401 0.00571961
0.355294 0.135141 0.924934 0.00609001
-0.260496 0.135415 0.955931 0.00311075
-0.253785 0.134903 0.957807 0.00243801
0.330629 0.14247 0.932945 0.00632131
0.340342 0.144847 0.929079 0.00647042
-0.253934 0.141427 0.956826 0.00211976
-0.24682 0.140843 0.958772 0.003401
-0.229437 0.137056 0.963626 0.00322498
0.333144 0.153341 0.930323 0.00543092
0.344593 0.150951 0.926536 0.00356251
-0.240795 0.13928 0.960531 0
-0.241454 0.147751 0.959098 0.00399638
-0.233395 0.14435 0.961608 0.00564175
-0.225644 0.144481 0.963437 0.00261195
0.333422 0.167044 0.927861 0.00987314
0.342765 0.1612 0.925487 0.00465136
-0.232439 0.1408 0.962366 0
-0.235654 0.147563 0.960569 0.00244556
-0.222647 0.139607 0.964851 0
-0.220267 0.144356 0.964699 0
0.33066 0.172685 0.927817 0.00611926
-0.220507 0.142283 0.964952 0
-0.213583 0.141629 0.966604 0
-0.210531 0.149633 0.966068 0.000445387
0.312764 0.18617 0.931407 0.0054836
0.320071 0.182448 0.92966 0.00608718
0.326535 0.181093 0.927675 0.00417927
-0.215681 0.139497 0.966448 0
-0.209263 0.142358 0.967442 0
-0.208336 0.155193 0.965666 0.00171698
0.292784 0.192191 0.936664 0.0094712
0.304776 0.197561 0.931709 0.00940312
0.311693 0.190266 0.930939 0.00685829
0.319563 0.191063 0.928103 0.0056335
0.327154 0.181889 0.927301 0.00232771
-0.202205 0.149024 0.967938 0
-0.194984 0.149556 0.969337 0
-0.18331 0.143139 0.972578 0
0.288008 0.210112 0.934294 0.0141909
0.293407 0.202902 0.934207 0.00912395
0.303165 0.207936 0.929975 0.0120007
0.310207 0.195565 0.930337 0.00722022
0.316485 0.189768 0.929422 0.00601377
0.326408 0.191432 0.925641 0.00543453
-0.190768 0.148796 0.970293 0
-0.185162 0.157245 0.970046 0
-0.179009 0.157751 0.971118 0
0.287722 0.22111 0.93184 0.0124658
0.290539 0.219864 0.931261 0.0125309
0.303807 0.207474 0.929869 0.00843089
0.312081 0.206596 0.927321 0.00895095
0.31494 0.198246 0.928176 0.0048026
-0.185069 0.149874 0.97123 0
-0.180461 0.161462 0.970239 0
-0.178388 0.164528 0.970107 0
-0.177264 0.174243 0.968616 0
0.274185 0.232512 0.933146 0.00727049
0.277729 0.230351 0.932633 0.00803618
0.286659 0.23616 0.928469 0.01924
0.292716 0.230397 0.928027 0.0150273
-0.188772 0.167202 0.967682 0
-0.188121 0.180178 0.965477 0
-0.182329 0.180695 0.966491 0
-0.177737 0.185745 0.966389 0
-0.17209 0.186941 0.96718 0
-0.158788 0.183285 0.970151 0
-0.149159 0.188612 0.970658 0
-0.145663 0.191711 0.970582 0
-0.139271 0.191709 0.97152 0
0.263417 0.246805 0.932576 0.00901105
0.273131 0.240762 0.931361 0.00994418
0.284466 0.242547 0.927497 0.0133481
0.292586 0.237149 0.926366 0.0139104
-0.189092 0.187449 0.963902 0
-0.184382 0.193529 0.963613 0
-0.175195 0.187437 0.966527 0
-0.16772 0.188913 0.967565 0
-0.15803 0.19559 0.967869 0
-0.144894 0.193805 0.970281 0
-0.141922 0.194844 0.970512 0
-0.13888 0.201426 0.969608 0.00195984
-0.133805 0.202202 0.97016 0
0.250424 0.260317 0.932482 0.0139916
0.262171 0.25736 0.930071 0.0106898
0.269181 0.249956 0.930088 0.0102245
-0.172058 0.190215 0.966547 0
-0.169179 0.19637 0.965825 0
-0.159063 0.191859 0.968447 0
-0.154619 0.201963 0.967111 0
-0.142455 0.202338 0.968899 0
-0.134962 0.195583 0.971356 0
-0.135738 0.201907 0.969953 0.00114195
-0.130729 0.205885 0.969805 0
0.2463 0.278761 0.928239 0.0172416
0.25986 0.272355 0.926442 0.0149418
0.272067 0.262953 0.925654 0.0132997
-0.155101 0.211474 0.964999 0
-0.140154 0.204245 0.968835 0
-0.137888 0.209995 0.96793 0.000881691
-0.135296 0.216315 0.966904 0.00410647
-0.128853 0.202573 0.970753 0
-0.088735 0.245526 0.96532 0
-0.0828427 0.247756 0.965274 0
0.192986 0.285168 0.938848 0.00343734
0.210888 0.276648 0.937546 0.00449031
0.241113 0.280693 0.929019 0.00906596
0.253537 0.285059 0.92437 0.0150311
-0.135482 0.219701 0.966114 0.0023367
-0.132213 0.218288 0.966887 0.00380564
-0.124521 0.209967 0.969747 0
-0.113853 0.246211 0.962506 0
-0.103105 0.236153 0.96623 0
-0.098307 0.247767 0.963819 0
-0.0936959 0.25278 0.962976 0.0014607
-0.0891513 0.255545 0.962678 0
-0.0874962 0.260336 0.961545 0
-0.0836828 0.263446 0.961038 0
-0.079565 0.247028 0.965736 0
-0.0753578 0.266848 0.960788 0
-0.0694477 0.271564 0.959911 0.00141414
-0.0641221 0.271812 0.960212 0.000859132
-0.0381594 0.278742 0.959608 0.00458832
-0.0351523 0.257731 0.965577 0
-0.0177675 0.238637 0.970946 0
-0.0189016 0.235122 0.971782 0
-0.0188932 0.235698 0.971643 0.000991359
-0.0216674 0.224479 0.974238 0
-0.00514042 0.22919 0.973368 0
-0.00031792 0.235645 0.971839 0
-0.000856102 0.251192 0.967937 0.00302543
0.0042272 0.240259 0.970699 0
0.00499432 0.236486 0.971622 0
0.142597 0.300726 0.94299 0.00515118
0.188951 0.296023 0.936305 0.00221855
0.195434 0.300769 0.933458 0.00451148
0.206527 0.29523 0.932838 0.00698959
0.215059 0.302235 0.928657 0.00923438
0.223239 0.292023 0.929993 0.00735243
-0.113092 0.257777 0.959563 0
-0.103269 0.251375 0.962365 0
-0.100292 0.260462 0.960261 0
-0.0923731 0.261296 0.960829 0
-0.084584 0.259758 0.961962 0
-0.0846356 0.265106 0.960498 0
-0.0812905 0.257668 0.962808 0
-0.0770639 0.26536 0.961065 0
-0.0765139 0.272653 0.959065 0
-0.071433 0.28642 0.955438 0.00398644
-0.0616992 0.270852 0.960642 0
-0.0359717 0.264877 0.963611 0
-0.0307226 0.258604 0.965495 0
-0.0270233 0.248076 0.968364 0
-0.0160643 0.238388 0.971037 0
-0.0167726 0.245582 0.969231 0
-0.0156434 0.244258 0.969584 0
-0.019939 0.243436 0.969712 0
-0.0190054 0.235453 0.9717 0
-0.0183746 0.225011 0.974183 0.000305015
-0.00763509 0.231767 0.972741 0
-0.0064346 0.222148 0.974992 0
-0.00624004 0.240352 0.970666 1.02203e-05
-0.00170629 0.241786 0.970328 0
0.00162325 0.235888 0.971779 0
0.00638862 0.237548 0.971355 0
0.00553403 0.251047 0.967959 0
0.00817103 0.247714 0.968799 0
0.00834457 0.261813 0.965083 0
0.0126122 0.266594 0.963726 0
0.0769828 0.28018 0.956856 0
0.110534 0.309983 0.944295 0.00794766
0.123807 0.294022 0.947746 0
0.193308 0.310699 0.930644 0.00393129
0.207563 0.310896 0.927503 0.00788691
0.218504 0.307048 0.926271 0.00553952
0.224813 0.29676 0.928112 0.00405126
-0.112796 0.266267 0.957277 0
-0.10667 0.265572 0.958172 0
-0.101595 0.268522 0.957901 0
-0.0770354 0.274612 0.958464 0.00300652
-0.0745393 0.277915 0.957709 0.00102605
-0.0698265 0.295359 0.952831 0.00290379
-0.0576823 0.291788 0.954742 0.00145479
-0.0533146 0.308972 0.949576 0.00426784
-0.0272285 0.262084 0.964661 0
-0.0245329 0.259766 0.96536 0
-0.0270732 0.256909 0.966056 0
-0.0243335 0.258959 0.965582 0
-0.0172091 0.243664 0.969707 0
-0.0149729 0.243577 0.969766 0
-0.0121575 0.239361 0.970854 0
-0.0104791 0.237008 0.971451 0
-0.00737145 0.237892 0.971264 0
0.000325693 0.244884 0.969552 0
0.00343582 0.24375 0.969832 0
0.00709929 0.243544 0.969864 0
0.00726005 0.244029 0.969741 0
0.00916667 0.249348 0.968371 0
0.0101562 0.262616 0.964847 0
0.0130008 0.273706 0.961725 0
0.0183135 0.275727 0.961062 0
0.0815492 0.275633 0.957798 0
0.0865547 0.298369 0.950518 0.00245566
-0.0232625 0.276204 0.960817 0
-0.0160876 0.243879 0.969672 0
0.0177168 0.276135 0.960955 0
0.0452417 -0.292879 0.955079 0.00134669
-0.0253605 -0.267642 0.963185 0
-0.0212926 -0.273122 0.961744 0
-0.00666527 -0.270379 0.962731 6.00982e-05
-0.00185782 -0.279592 0.960117 0
0.00223687 -0.272483 0.962158 0.000899697
0.010961 -0.274685 0.961472 0.00319412
0.0399727 -0.28309 0.95826 0
0.0491453 -0.284492 0.957418 0
0.0715594 -0.301674 0.950722 0.00204346
0.0788688 -0.298028 0.951293 0.00520442
-0.0336402 -0.263558 0.964057 0
-0.0298614 -0.257452 0.965829 0
-0.0244335 -0.260707 0.965109 0
-0.0245597 -0.25471 0.966706 0.00202414
-0.0183518 -0.261329 0.965075 0
-0.011283 -0.273429 0.961826 0
-0.00873491 -0.27426 0.961616 0
-0.00371441 -0.27129 0.96249 0.00155082
0.00320321 -0.262166 0.965018 0.00161079
0.011368 -0.264429 0.964338 0.000239583
0.0394273 -0.273538 0.961053 0
0.0475481 -0.27595 0.959995 0
0.0523386 -0.275158 0.959973 0.00186249
0.0603865 -0.286403 0.956204 0
0.0704822 -0.290789 0.954188 0.00386923
0.0788022 -0.286257 0.954907 0.00284606
0.0927896 -0.282003 0.954916 0.0015106
0.0992139 -0.283748 0.953753 0.00207804
0.114893 -0.281731 0.95259 0
0.121433 -0.278706 0.952668 0.00479976
0.126964 -0.28209 0.95095 0.00470114
0.141072 -0.279793 0.949639 0.00655456
-0.054052 -0.255155 0.965388 0.0151405
-0.0528156 -0.259378 0.96433 0.0173792
-0.0425074 -0.253837 0.966313 0.0052569
-0.0450675 -0.252467 0.966555 0.00851045
-0.0383113 -0.243055 0.969256 0.00219541
-0.0350057 -0.248358 0.968036 0
-0.0313146 -0.254436 0.966582 0
-0.02766 -0.255996 0.966282 0
-0.0233095 -0.252501 0.967316 0
-0.0188768 -0.254977 0.966763 0
-0.0145366 -0.266607 0.963696 0
-0.0112674 -0.257308 0.966264 0.00012634
-0.00644172 -0.253198 0.967393 0.00308849
-0.00165954 -0.250991 0.967988 0.00780372
0.0103317 -0.254343 0.967059 0.00197548
0.0359829 -0.264282 0.963774 0.00223826
0.0420798 -0.258655 0.965053 0.00194512
0.0486398 -0.261584 0.963954 0.00117314
0.0608784 -0.276716 0.959021 0
0.0726013 -0.276387 0.9583 0.00361844
0.0766406 -0.276503 0.957952 0.00807566
0.0895842 -0.283042 0.954915 0.00172355
0.0972745 -0.284492 0.953731 0.000508944
0.108393 -0.275034 0.955305 0.00380102
0.120928 -0.278437 0.952811 0
0.127654 -0.274942 0.952949 0.000533182
0.143098 -0.26805 0.952718 0.00328769
0.151612 -0.273502 0.949848 0.00487356
0.180001 -0.293396 0.938892 0.00995818
0.196126 -0.292922 0.935805 0.00275438
-0.0591076 -0.248912 0.966721 0.0184076
-0.0556044 -0.245145 0.967891 0.0189401
-0.0529087 -0.254218 0.965699 0.01955
-0.0520909 -0.253254 0.965996 0.0195532
-0.046776 -0.248057 0.967616 0.0105215
-0.0412584 -0.246922 0.968157 0.00513702
-0.0362689 -0.237915 0.970609 0
-0.0334983 -0.244795 0.968996 0
-0.0284458 -0.247265 0.96853 0
-0.0281146 -0.24503 0.969108 0
-0.0240825 -0.247016 0.968712 0
-0.0183807 -0.248382 0.968488 0
-0.0124583 -0.250226 0.968107 0
-0.0134196 -0.248704 0.968487 0.00262141
-0.00538304 -0.244285 0.969689 0.00285172
-0.00152704 -0.23668 0.971586 0.010535
0.00899985 -0.237713 0.971294 0.00454195
0.0353883 -0.249668 0.967685 0.00369519
0.0426344 -0.249096 0.96754 0.00106905
0.0463531 -0.255444 0.965712 0
0.0581622 -0.266783 0.962 0
0.0692774 -0.259853 0.96316 0.00704599
0.0787216 -0.261436 0.962005 0.0042186
0.0922866 -0.27028 0.958349 0.000356282
0.0981712 -0.266947 0.958698 0.000102516
0.107389 -0.263585 0.95864 0.00240181
0.122832 -0.265783 0.956176 0
0.127971 -0.26572 0.955519 0
0.144891 -0.262401 0.954019 0.00451245
0.150467 -0.259242 0.95402 0.0056461
0.182172 -0.28403 0.94135 0.00305645
0.195481 -0.291033 0.936529 0
0.209062 -0.282518 0.936203 0.00375531
-0.0677685 -0.243118 0.967627 0.0112026
-0.0662864 -0.236283 0.969421 0.016502
-0.0631462 -0.239086 0.968943 0.0121195
-0.0577394 -0.246445 0.967435 0.0152336
-0.0550768 -0.241767 0.96877 0.0175219
-0.050856 -0.246977 0.967686 0.0142068
-0.0480802 -0.244296 0.968508 0.012229
-0.04733 -0.245431 0.968258 0.0134608
-0.0405847 -0.239947 0.969937 0.00705544
-0.0380194 -0.237751 0.970582 0.00181876
-0.0312668 -0.241952 0.969784 0
-0.03162 -0.238043 0.97074 0
-0.026356 -0.249923 0.967907 0
-0.0246533 -0.250677 0.967757 0
-0.0200476 -0.242607 0.969918 0
-0.0129999 -0.242857 0.969975 0
0.00462254 -0.233444 0.972359 0.00804203
0.00682312 -0.234353 0.972128 0.00662622
0.0425487 -0.248044 0.967814 0.00089506
0.0520555 -0.254356 0.965709 0.00129349
0.0685758 -0.25005 0.965801 0.00372184
0.0902507 -0.256933 0.962206 0.00565111
0.110443 -0.253092 0.961117 0
0.122868 -0.249732 0.960488 0.00184593
0.130146 -0.253765 0.95847 0.00376171
0.146578 -0.253049 0.956285 0.00735021
0.153087 -0.25568 0.954564 0.00695511
0.182522 -0.275221 0.943896 0.00321854
0.198887 -0.274663 0.940747 0.000217674
0.210042 -0.276262 0.937849 0
0.225351 -0.259923 0.938966 0
-0.0986907 -0.255916 0.961648 0.00445949
-0.0925836 -0.265135 0.959756 0
-0.079163 -0.254007 0.963957 0.011884
-0.0711385 -0.254053 0.964571 0.00352579
-0.0757719 -0.251195 0.964966 0.00959938
-0.0687781 -0.246809 0.96662 0.0103169
-0.0634989 -0.244393 0.967595 0.00913986
-0.0632707 -0.237281 0.969378 0.00997049
-0.0573519 -0.239233 0.969267 0.0101302
-0.0519738 -0.246463 0.967757 0.00711899
-0.0494218 -0.241631 0.969109 0.00838018
-0.0476437 -0.242527 0.968974 0.00935233
-0.0457729 -0.242278 0.969127 0.00914232
-0.044556 -0.238429 0.970137 0.0101192
-0.0422604 -0.236684 0.970667 0.00847045
-0.037886 -0.232596 0.971835 0.00379163
-0.0306044 -0.238468 0.970668 0
-0.0330567 -0.236246 0.971131 0
0.109769 -0.243683 0.963623 0
0.123634 -0.240167 0.962826 0.00351168
0.128339 -0.244924 0.961011 0.0022702
0.144502 -0.24328 0.959132 0.00295593
0.152438 -0.248095 0.956667 0.00223527
0.183202 -0.262908 0.947268 0.00198621
0.189927 -0.261437 0.94635 0.000852787
0.209217 -0.262372 0.942013 0.00324604
0.222505 -0.260442 0.939501 0
0.230765 -0.254635 0.9391 0.000978103
-0.0939341 -0.249738 0.963746 0
-0.0872527 -0.260289 0.96158 0
-0.0890336 -0.256213 0.962511 0.00410281
-0.0735273 -0.247671 0.96605 0.0107288
-0.0734331 -0.242201 0.967443 0.0113396
-0.0701893 -0.24471 0.967052 0.00348831
-0.0639283 -0.240388 0.968569 0.0051852
-0.0619404 -0.235013 0.970017 0.00810109
-0.0612354 -0.234026 0.9703 0.00961326
-0.0550828 -0.235718 0.970259 0.00710528
-0.050959 -0.235541 0.970527 0.00560205
-0.0450235 -0.242486 0.96911 0.00171173
-0.0442518 -0.232675 0.971547 0.0033227
-0.0394946 -0.238536 0.97033 0.00283161
-0.0391473 -0.230928 0.972183 0.00534612
0.123472 -0.239729 0.962956 0.000450373
0.12726 -0.239828 0.962438 0.000338636
0.150758 -0.240834 0.958786 0.000657341
0.18212 -0.251625 0.950535 0.00563827
0.192121 -0.250238 0.948931 0.000373206
0.211767 -0.249976 0.94481 0
0.225164 -0.247101 0.942466 0
0.231783 -0.247139 0.94085 0
-0.115834 -0.232298 0.965723 0.00332624
-0.109162 -0.23633 0.965521 0.00357558
-0.105262 -0.242334 0.964466 0.000208789
-0.0968008 -0.244249 0.964869 0.000910333
-0.0956703 -0.244184 0.964998 0.00360077
-0.0951225 -0.245816 0.964638 0.004098
-0.0929072 -0.244991 0.965064 0.00520623
-0.0871455 -0.239816 0.966899 0.00354042
-0.0795959 -0.236562 0.968351 0.00667175
-0.0752844 -0.23746 0.968476 0.00642252
-0.0755046 -0.237636 0.968415 0.00757355
-0.0726992 -0.236813 0.968832 0.00440467
-0.066789 -0.22946 0.971024 0.00948533
-0.0575918 -0.228893 0.971747 0.00434534
-0.056269 -0.228306 0.971962 0.00435794
-0.0529493 -0.233345 0.970951 0.00120135
-0.0468031 -0.234332 0.971029 0
-0.0446076 -0.231828 0.971733 0
-0.0392712 -0.223809 0.973841 0
-0.0414108 -0.22442 0.973612 0
0.214763 -0.239443 0.94686 0
0.226664 -0.242079 0.943409 0
0.232132 -0.237817 0.943164 0.000375266
-0.125814 -0.221015 0.967121 0.00702215
-0.119992 -0.228398 0.966145 0.00456703
-0.111166 -0.232532 0.966215 0.00291809
-0.105602 -0.237375 0.965661 0.00207191
-0.0994329 -0.236444 0.966544 0.00400924
-0.0939876 -0.237381 0.966859 0.00800288
-0.0926346 -0.234394 0.967718 0.0105457
-0.0919181 -0.23241 0.968265 0.00963944
-0.0795005 -0.232456 0.969352 0.00276162
-0.0780769 -0.228094 0.970504 0.00744687
-0.0762097 -0.227181 0.970866 0.0104355
-0.0770449 -0.222116 0.971972 0.00952433
-0.0724573 -0.226186 0.971386 0.00479454
-0.0678372 -0.219658 0.973215 0.00651956
-0.062615 -0.220226 0.973437 0.00487176
-0.0548824 -0.224005 0.973041 0.00161396
-0.0466951 -0.22484 0.973276 0
-0.0425442 -0.224424 0.973562 0
-0.0447159 -0.222677 0.973866 0
-0.0390439 -0.221958 0.974274 0
0.225255 -0.229451 0.946896 0.000210156
0.232935 -0.230565 0.944765 0
0.254966 -0.23094 0.938967 0
-0.169909 -0.226434 0.959093 0.0178756
-0.136906 -0.213023 0.967408 0.00993177
-0.131414 -0.216716 0.967349 0.00292273
-0.122095 -0.220965 0.967609 0.00227057
-0.111106 -0.219634 0.969235 0.00603779
-0.108156 -0.22375 0.968627 0.00229436
-0.0998591 -0.223189 0.969647 0.00623737
-0.0908964 -0.222798 0.970618 0.00938607
-0.0953554 -0.220784 0.97065 0.0108363
-0.0879202 -0.22037 0.971446 0.00836869
-0.0794668 -0.221492 0.971919 0.00802377
-0.0797756 -0.219476 0.972351 0.00680195
-0.0749642 -0.21536 0.973653 0.0102693
-0.0658908 -0.214786 0.974436 0.00405591
-0.0598973 -0.21614 0.974523 0
0.224338 -0.220851 0.949156 0.00333237
0.228389 -0.22349 0.947571 0
0.252631 -0.224884 0.941066 0
0.261912 -0.225372 0.938408 0.000306032
-0.18209 -0.214356 0.959633 0.0150602
-0.176664 -0.209756 0.961661 0.0164731
-0.166838 -0.215434 0.962161 0.0177159
-0.153342 -0.214684 0.964571 0.00985797
-0.145717 -0.209075 0.966982 0.0134386
-0.138064 -0.209943 0.967916 0.0093421
-0.126097 -0.208906 0.969772 0.00222107
-0.119445 -0.205979 0.971239 0.00532879
-0.105064 -0.206371 0.972817 0.00183941
-0.101972 -0.208463 0.9727 0.0038559
-0.0994012 -0.213534 0.971866 0.00361663
-0.099046 -0.21206 0.972224 0.00860361
-0.0884318 -0.213328 0.97297 0.00824143
-0.0868245 -0.216043 0.972516 0.00815619
-0.0840419 -0.213003 0.97343 0.00719
-0.0777668 -0.21432 0.973663 0.00437105
0.231726 -0.20917 0.950027 0.00232515
0.251021 -0.217449 0.943241 0
0.262726 -0.220329 0.939378 0
-0.191071 -0.20782 0.959324 0.0132782
-0.18459 -0.206729 0.960828 0.0165949
-0.174253 -0.201082 0.963951 0.0178609
-0.162769 -0.205211 0.965088 0.0141519
-0.149039 -0.201185 0.968149 0.0108999
-0.146257 -0.199463 0.968929 0.010608
-0.135025 -0.197531 0.970953 0.00840416
-0.122532 -0.202842 0.971515 0.00349324
-0.116338 -0.200616 0.972738 0.00317323
-0.108257 -0.198775 0.974048 0.00319661
-0.104126 -0.200397 0.974166 0.00177919
-0.0930934 -0.209366 0.973396 0.00173278
-0.0895081 -0.214324 0.972653 0.00480641
-0.0798625 -0.204329 0.975639 0.00834342
0.247724 -0.211792 0.945398 0
0.262471 -0.205707 0.942759 0.00264699
0.276093 -0.211312 0.937614 0.000953474
-0.189834 -0.191435 0.962972 0.0163831
-0.177638 -0.190042 0.965572 0.016791
-0.170994 -0.195809 0.965619 0.0160963
-0.158506 -0.188801 0.969139 0.0123927
-0.144662 -0.186066 0.971829 0.00956602
-0.13857 -0.190619 0.971835 0.00990401
-0.131392 -0.193045 0.972353 0.00893385
-0.116845 -0.197263 0.973362 0.000552541
0.248403 -0.204281 0.946871 0.00101508
0.260857 -0.200123 0.944407 0.00173544
0.2726 -0.2052 0.93999 0.00124578
0.281181 -0.205148 0.937471 0
-0.189095 -0.176658 0.965937 0.00874564
-0.185496 -0.182186 0.965608 0.0126601
-0.172118 -0.185085 0.967532 0.0106851
-0.165857 -0.184247 0.968785 0.0145922
-0.155945 -0.180175 0.971194 0.0140327
-0.150567 -0.177656 0.972506 0.00801164
-0.144706 -0.1824 0.972518 0.00939536
-0.133445 -0.183168 0.973983 0.00679754
-0.129697 -0.196538 0.97188 0.000507917
0.248515 -0.193112 0.949183 0.00222916
0.257295 -0.193029 0.946857 0.00524972
0.26691 -0.199419 0.942863 0.00130593
0.279839 -0.194723 0.940092 0.00164773
-0.183527 -0.168852 0.968404 0.00744378
-0.177869 -0.172839 0.968756 0.00684054
-0.170594 -0.171184 0.970358 0.00899965
-0.16082 -0.172193 0.971847 0.00694809
-0.159432 -0.176912 0.971228 0.0110645
-0.147138 -0.175649 0.973395 0.00525831
-0.137687 -0.173298 0.975197 0.00517786
-0.132557 -0.174732 0.975652 0.00428541
-0.120815 -0.187744 0.974759 0
0.260183 -0.179663 0.948697 0.00173794
0.269071 -0.180974 0.945965 0.000481211
0.277635 -0.181567 0.943373 0.00157444
-0.18439 -0.161193 0.969545 0.00908145
-0.180221 -0.166985 0.969348 0.00723316
-0.172207 -0.166665 0.970859 0.00562993
-0.160877 -0.1659 0.972932 0.00412535
-0.134887 -0.174922 0.975299 0
-0.121974 -0.177197 0.976588 0.00186472
0.265807 -0.174043 0.948185 0
0.268334 -0.16826 0.948518 0
0.281662 -0.166359 0.944982 0.000476343
0.289339 -0.170759 0.941873 0
-0.183555 -0.153602 0.970935 0.00340206
-0.17884 -0.150353 0.972322 0.00148075
-0.174999 -0.158 0.971808 0.00171869
-0.166976 -0.16066 0.972783 0
-0.163925 -0.161032 0.973241 0
0.257268 -0.160176 0.952973 0.00160333
0.268809 -0.160406 0.949743 0.00130542
0.279159 -0.16524 0.945921 0
0.288284 -0.160579 0.943985 0
0.292375 -0.161487 0.94257 0
-0.18832 -0.148446 0.970824 0.00245839
-0.178957 -0.14604 0.972958 0.00347129
-0.177508 -0.144905 0.973393 0.00419757
-0.171585 -0.147829 0.974015 0.00491694
-0.166387 -0.151842 0.974299 0.000265025
-0.165096 -0.152893 0.974355 0
0.265835 -0.158752 0.950857 0
0.276237 -0.16919 0.94608 0
0.285182 -0.158726 0.945239 0.000198557
0.291758 -0.15447 0.943937 0.00402033
0.30175 -0.151872 0.941213 0
-0.205894 -0.142099 0.968202 0.00273995
-0.19045 -0.138241 0.971915 0.0059855
-0.182413 -0.13738 0.973577 0.00428185
-0.17779 -0.137746 0.97438 0.00340388
-0.171081 -0.133708 0.976142 0.000529019
0.266737 -0.152834 0.951574 0.00364437
0.276168 -0.156445 0.948291 0
0.285046 -0.156258 0.945691 0
0.291573 -0.152348 0.944339 0
0.301776 -0.146442 0.942065 0
-0.205676 -0.135756 0.969158 0.00396545
-0.195732 -0.134756 0.971355 0
-0.191783 -0.131584 0.972576 0.00350952
-0.187979 -0.128901 0.973678 0.00524164
-0.180204 -0.129093 0.975121 0.00562895
-0.175163 -0.128661 0.976096 0.00494871
0.275489 -0.138134 0.951328 0.000719039
0.286203 -0.147731 0.946712 0
0.291801 -0.146333 0.945219 0
0.30899 -0.147552 0.93955 0
0.317817 -0.137763 0.93809 0
-0.203177 -0.127135 0.970853 0
-0.201859 -0.127806 0.97104 0.00213975
-0.19696 -0.125068 0.972402 0.00695728
-0.178918 -0.123584 0.976071 0.000953128
-0.171995 -0.131426 0.976291 0
-0.166164 -0.134004 0.976951 0
0.278273 -0.131456 0.951464 0.00291584
0.284678 -0.132216 0.949462 0
0.297097 -0.142738 0.944118 0
0.309297 -0.139096 0.940738 0
0.311034 -0.136202 0.940589 0
-0.209568 -0.10944 0.97165 0.00241416
-0.203091 -0.114283 0.972468 0
-0.199735 -0.117406 0.972791 0.0025726
-0.185706 -0.118695 0.97541 0.00176599
-0.176532 -0.120659 0.976871 0
-0.171749 -0.123616 0.977354 0
0.277609 -0.129593 0.951913 0
0.285315 -0.129333 0.949668 0.000372991
0.294422 -0.132627 0.946428 0
0.302506 -0.132844 0.943845 0.00206285
0.311052 -0.128294 0.941694 0.00329369
-0.207398 -0.110423 0.972005 0
-0.201208 -0.109104 0.973453 0.000142195
-0.192414 -0.113338 0.974747 0
-0.186448 -0.116262 0.975561 0
-0.178906 -0.119821 0.976543 0
0.290728 -0.130772 0.947827 0.00143804
0.301701 -0.127968 0.944775 0.00239446
0.314079 -0.126407 0.940944 0
-0.20385 -0.0998794 0.973894 0
-0.195543 -0.102632 0.97531 0
-0.191396 -0.106117 0.97576 0
-0.18587 -0.106987 0.976732 0
-0.178756 -0.108858 0.977853 0
0.297197 -0.120581 0.947172 0.00643259
0.304169 -0.12279 0.944671 0.00298208
0.315888 -0.126591 0.940314 0
0.327843 -0.124935 0.936435 0
-0.200554 -0.0969306 0.974876 0
-0.192948 -0.095751 0.976526 0
-0.189004 -0.0962477 0.977248 0
-0.181119 -0.0962626 0.978739 0
-0.178534 -0.0977711 0.979064 0
0.291812 -0.117069 0.949284 0.00456758
0.306544 -0.115625 0.944808 0
0.31683 -0.118092 0.941102 0
0.334077 -0.118076 0.935121 0
-0.206453 -0.0864006 0.974634 0
-0.197824 -0.0916174 0.975947 0
-0.191882 -0.0902789 0.977257 0
-0.190687 -0.087569 0.977737 0
-0.184517 -0.0864539 0.97902 0
-0.17946 -0.0891732 0.979715 0
0.308382 -0.110479 0.944825 0.00158793
0.316105 -0.111091 0.942198 0.000492703
0.327913 -0.119094 0.937171 0
0.333124 -0.115765 0.935749 0.000942252
-0.209949 -0.0816138 0.9743 0
-0.206629 -0.0826427 0.974923 0
-0.201303 -0.0848079 0.975851 0
-0.191974 -0.080848 0.978064 0
-0.187089 -0.0781063 0.979233 0
-0.184766 -0.0805722 0.979474 0
0.315067 -0.108671 0.942827 0.00361501
0.324671 -0.110736 0.939322 0
0.330437 -0.112381 0.937114 0.00226878
-0.211039 -0.0792408 0.974261 0
-0.209659 -0.0784891 0.974619 0
-0.201158 -0.07839 0.976417 0
-0.196213 -0.0737918 0.977781 0
-0.189089 -0.0767907 0.978953 0
-0.186776 -0.0747765 0.979553 0
0.316483 -0.108394 0.942385 0.00257828
0.324606 -0.108628 0.939591 0.00147411
-0.209992 -0.0758757 0.974755 0
-0.204845 -0.0741847 0.975979 0
-0.199995 -0.0737481 0.977018 0
-0.196709 -0.0685442 0.978063 0
-0.192619 -0.0729495 0.978558 0
-0.186157 -0.072421 0.979847 0
0.317295 -0.110884 0.941822 0.000547399
0.329203 -0.112392 0.937546 0
0.34104 -0.118971 0.93249 0
-0.206979 -0.0697345 0.975857 0
-0.204846 -0.0700761 0.976282 0
-0.200323 -0.0666853 0.977458 0
-0.197013 -0.0671831 0.978096 0
-0.191721 -0.068427 0.979061 0
0.316986 -0.102929 0.942829 0
0.327793 -0.10527 0.938866 0
0.337953 -0.102771 0.935535 0
-0.206998 -0.0670892 0.976038 0
-0.204656 -0.0683073 0.976448 0
-0.196166 -0.0642594 0.978463 0
-0.191151 -0.0649267 0.979411 0
-0.186998 -0.0677088 0.980024 0
-0.186721 -0.0657762 0.980209 0
0.330743 -0.0941449 0.939013 0
0.333674 -0.0939436 0.937996 0.000587846
-0.209134 -0.0607841 0.975996 0
-0.201728 -0.06254 0.977443 0
-0.195097 -0.0624556 0.978793 0
-0.187503 -0.0629539 0.980245 0
-0.190329 -0.06675 0.979448 0
-0.186957 -0.0661658 0.980137 0
0.328878 -0.093842 0.939698 0
0.329424 -0.0914526 0.939743 0.000464149
-0.214462 -0.0611801 0.974814 0
-0.210788 -0.0558428 0.975935 0
-0.201579 -0.0624136 0.977482 0
-0.191537 -0.0650438 0.979328 0
-0.193444 -0.059708 0.979293 0
-0.186848 -0.0592221 0.980602 0
0.326283 -0.0880523 0.941162 0.00764778
0.334025 -0.0908549 0.938175 0.00736726
0.338856 -0.0932884 0.936202 0.00672513
-0.211625 -0.0614778 0.975415 0
-0.209486 -0.0622891 0.975826 0
-0.200828 -0.0653228 0.977446 0
-0.196228 -0.0624859 0.978565 0
-0.189689 -0.0609965 0.979948 0
0.326313 -0.0882735 0.941131 0.00751771
0.336784 -0.0905482 0.937218 0.00708412
-0.213117 -0.0598986 0.975189 0
-0.204684 -0.060838 0.976936 0
-0.200701 -0.0616606 0.97771 0
-0.196926 -0.0574963 0.978731 0
-0.194398 -0.0589029 0.979153 0
0.320948 -0.0804729 0.943672 0.0021657
0.328672 -0.0789558 0.941138 0.00241213
-0.204914 -0.0617656 0.976829 0
-0.206006 -0.0629251 0.976526 0
-0.201253 -0.0566228 0.977901 0
-0.196811 -0.053911 0.978958 0
0.321733 -0.0742354 0.943916 0.00168733
0.333932 -0.071764 0.939861 0.00214412
-0.221496 -0.0566178 0.973516 0
-0.217275 -0.0577859 0.974398 0
