# .PCD v0.7 - Point Cloud Data file format
VERSION 0.7
FIELDS x y z
SIZE 4 4 4
TYPE F F F
COUNT 1 1 1
WIDTH 1574
HEIGHT 1
VIEWPOINT 0 0 0 1 0 0 0
POINTS 1574
DATA ascii
-0.126941 0.107265 -0.23622601
-0.126939 0.107337 -0.23621801
-0.126936 0.10741 -0.236212
-0.12693299 0.107486 -0.236214
-0.12693 0.107561 -0.236224
-0.126927 0.107637 -0.236223
-0.12692399 0.107708 -0.236211
-0.126921 0.107784 -0.236215
-0.126918 0.107858 -0.236219
-0.12691499 0.107932 -0.23622
-0.126913 0.108006 -0.23621599
-0.12691 0.10808 -0.236214
-0.12690701 0.108156 -0.23621599
-0.126904 0.10823 -0.23621599
-0.126901 0.108304 -0.236211
-0.12689801 0.108378 -0.236205
-0.12689599 0.108452 -0.23619901
-0.126893 0.108526 -0.23619901
-0.12689 0.108602 -0.2362
-0.12688699 0.108674 -0.236196
-0.126885 0.108749 -0.23618799
-0.126882 0.108823 -0.236184
-0.12687901 0.108897 -0.236187
-0.126876 0.108971 -0.23618899
-0.126873 0.109045 -0.23617899
-0.126871 0.109119 -0.236169
-0.12686799 0.109192 -0.23616099
-0.126865 0.109266 -0.23616201
-0.126862 0.109343 -0.23616999
-0.12685899 0.109417 -0.236182
-0.126856 0.109493 -0.236182
-0.126853 0.109565 -0.236175
-0.12684999 0.109638 -0.23617101
-0.126847 0.109714 -0.236169
-0.126845 0.109788 -0.236165
-0.12684201 0.109862 -0.23616301
-0.126839 0.109936 -0.23616201
-0.126836 0.11001 -0.236154
-0.12683401 0.110084 -0.23615199
-0.126831 0.110158 -0.23614401
-0.126829 0.110231 -0.236131
-0.126827 0.110303 -0.23611499
-0.126825 0.110377 -0.236099
-0.12682199 0.11045 -0.236093
-0.126819 0.110525 -0.236102
-0.12681501 0.110601 -0.236114
-0.126812 0.110677 -0.236122
-0.126809 0.110751 -0.23612
-0.12680601 0.110825 -0.236112
-0.12680399 0.110898 -0.236099
-0.126802 0.110972 -0.23608901
-0.126799 0.111046 -0.23608699
-0.12679601 0.11112 -0.23608699
-0.126793 0.111194 -0.23608799
-0.12679 0.111268 -0.236084
-0.12678701 0.111344 -0.23608799
-0.126784 0.11142 -0.236094
-0.126781 0.111492 -0.236086
-0.126779 0.111565 -0.236077
-0.12677599 0.111639 -0.236073
-0.126773 0.111715 -0.236067
-0.12677 0.111789 -0.23607101
-0.12676699 0.111863 -0.236072
-0.126765 0.111937 -0.23606201
-0.126763 0.112011 -0.236046
-0.12676001 0.112084 -0.236036
-0.126757 0.112158 -0.236037
-0.126754 0.112232 -0.236037
-0.126752 0.112306 -0.236029
-0.12675001 0.11238 -0.23601501
-0.126747 0.112453 -0.23600499
-0.126745 0.112525 -0.236
-0.12674201 0.112601 -0.235992
-0.12673999 0.112673 -0.23597801
-0.126737 0.112747 -0.23598
-0.126734 0.112823 -0.235989
-0.12673 0.112897 -0.235991
-0.126727 0.112973 -0.235991
-0.126724 0.113047 -0.235993
-0.12672099 0.113123 -0.23599701
-0.126718 0.113197 -0.236002
-0.126715 0.113273 -0.236002
-0.12671299 0.113347 -0.235994
-0.12671 0.113421 -0.23598599
-0.126707 0.113495 -0.235993
-0.12670299 0.113571 -0.236003
-0.1267 0.113647 -0.236003
-0.126698 0.113721 -0.235999
-0.12669399 0.113797 -0.23600499
-0.126692 0.113869 -0.236
-0.126689 0.113944 -0.235992
-0.12668601 0.114018 -0.23598801
-0.126683 0.114092 -0.23599
-0.126681 0.114168 -0.23598801
-0.126678 0.114242 -0.235985
-0.12667499 0.114316 -0.23598699
-0.126672 0.114392 -0.235991
-0.12666801 0.114468 -0.235999
-0.126665 0.114545 -0.236011
-0.126662 0.114619 -0.23601399
-0.12665901 0.114692 -0.236008
-0.126656 0.114768 -0.236008
-0.126653 0.114844 -0.23601399
-0.12664901 0.114919 -0.23602
-0.126646 0.114997 -0.236037
-0.126642 0.115073 -0.236045
-0.12663899 0.115147 -0.23604301
-0.126637 0.115221 -0.236037
-0.126634 0.115295 -0.236039
-0.12662999 0.115371 -0.23605201
-0.126627 0.115449 -0.23605999
-0.126623 0.115523 -0.236066
-0.12661999 0.115602 -0.236082
-0.126616 0.115678 -0.23608799
-0.12661301 0.115752 -0.23609801
-0.126609 0.11583 -0.236119
-0.126605 0.115909 -0.23614299
-0.126601 0.115987 -0.236157
-0.126597 0.116063 -0.236175
-0.126592 0.116142 -0.236205
-0.126588 0.11622 -0.23622499
-0.12658399 0.116299 -0.23624501
-0.12658 0.116377 -0.23627099
-0.12657601 0.116456 -0.236295
-0.126572 0.116534 -0.236315
-0.126568 0.116613 -0.23633599
-0.126564 0.116691 -0.23635399
-0.12656 0.11677 -0.236376
-0.126555 0.116848 -0.236398
-0.126551 0.116924 -0.23641799
-0.126546 0.117007 -0.23645601
-0.126542 0.117086 -0.236488
-0.12653799 0.117164 -0.236508
-0.126533 0.117245 -0.23653799
-0.12652799 0.117324 -0.236572
-0.126523 0.117406 -0.23661201
-0.126518 0.117487 -0.23664799
-0.126514 0.117568 -0.23668
-0.126509 0.117646 -0.23671
-0.126505 0.117725 -0.236735
-0.1265 0.117808 -0.236771
-0.12649401 0.117891 -0.23683099
-0.126487 0.117976 -0.236894
-0.12648401 0.118053 -0.23690499
-0.126478 0.118138 -0.236957
-0.12706 0.097658999 -0.238197
-0.127064 0.097728997 -0.238056
-0.127067 0.097802997 -0.237942
-0.127065 0.097878002 -0.23790599
-0.127066 0.097951002 -0.23784301
-0.127066 0.098025002 -0.23777901
-0.127065 0.098098002 -0.23773301
-0.12706301 0.098171003 -0.23770399
-0.12706199 0.098246999 -0.237664
-0.12706301 0.098319001 -0.237592
-0.127064 0.098390996 -0.237501
-0.127066 0.098465003 -0.237417
-0.127065 0.098537996 -0.237371
-0.127064 0.098610997 -0.237335
-0.12706301 0.098683998 -0.237286
-0.12706301 0.098759003 -0.237234
-0.12706099 0.098831996 -0.23720799
-0.127059 0.098906003 -0.237185
-0.127058 0.098978996 -0.23715501
-0.127057 0.099051997 -0.23711701
-0.127055 0.099127002 -0.23708101
-0.127055 0.099197999 -0.23704199
-0.12705299 0.099271998 -0.23701601
-0.12705 0.099348001 -0.23700801
-0.127048 0.099421002 -0.236992
-0.127046 0.099495001 -0.236967
-0.12704401 0.099568002 -0.236949
-0.127042 0.099642001 -0.236929
-0.127041 0.099715002 -0.236901
-0.127039 0.099788003 -0.236872
-0.127038 0.099863999 -0.236848
-0.12703501 0.099935003 -0.236834
-0.127033 0.100009 -0.236816
-0.127031 0.100084 -0.236797
-0.127029 0.100158 -0.236779
-0.127027 0.100232 -0.236761
-0.12702499 0.100305 -0.23673899
-0.12702399 0.100376 -0.23670401
-0.127023 0.100451 -0.23667
-0.127021 0.100523 -0.236642
-0.127019 0.100598 -0.236626
-0.12701701 0.10067 -0.23661301
-0.12701499 0.100744 -0.23659299
-0.127013 0.100817 -0.23657501
-0.127011 0.100891 -0.23655599
-0.127009 0.100964 -0.23654
-0.12700599 0.101038 -0.236532
-0.127004 0.101112 -0.23652001
-0.127002 0.101185 -0.236505
-0.12699901 0.101259 -0.236495
-0.12699699 0.101333 -0.236481
-0.126995 0.101407 -0.23646501
-0.126993 0.10148 -0.236444
-0.126991 0.101554 -0.236426
-0.12698799 0.101627 -0.23642001
-0.126985 0.101701 -0.236424
-0.126983 0.101775 -0.236414
-0.12698101 0.101849 -0.236395
-0.12697899 0.101922 -0.236379
-0.126976 0.101996 -0.236371
-0.126973 0.10207 -0.236369
-0.12697101 0.102144 -0.236366
-0.126968 0.102218 -0.23636
-0.126966 0.102291 -0.23634601
-0.126963 0.102365 -0.236334
-0.12695999 0.102439 -0.23633499
-0.126957 0.102513 -0.236341
-0.126954 0.102587 -0.236343
-0.12695201 0.102661 -0.236333
-0.126949 0.102735 -0.23633
-0.126946 0.102809 -0.23633599
-0.12694199 0.102885 -0.23635
-0.126939 0.102959 -0.236362
-0.126936 0.103033 -0.23635
-0.12693501 0.103104 -0.23631699
-0.126932 0.10318 -0.236313
-0.126929 0.103255 -0.23632701
-0.12692501 0.103329 -0.23633701
-0.12692299 0.103403 -0.236332
-0.126921 0.103476 -0.236314
-0.126918 0.10355 -0.236302
-0.12691499 0.103624 -0.236306
-0.126912 0.103698 -0.236313
-0.126909 0.103772 -0.23630901
-0.12690599 0.103846 -0.236305
-0.126904 0.10392 -0.236305
-0.126901 0.103994 -0.236297
-0.12689801 0.104067 -0.23628999
-0.12689599 0.104141 -0.23628999
-0.126892 0.104215 -0.236294
-0.12689 0.104291 -0.236292
-0.12688699 0.104363 -0.236283
-0.126885 0.104437 -0.23627301
-0.126882 0.104513 -0.236269
-0.12687799 0.104587 -0.236279
-0.126876 0.104661 -0.236278
-0.126873 0.104735 -0.23627201
-0.12687001 0.104808 -0.236268
-0.12686799 0.104882 -0.23626401
-0.126865 0.104956 -0.236266
-0.12686101 0.10503 -0.236269
-0.12685899 0.105104 -0.23626301
-0.126856 0.105178 -0.236261
-0.126853 0.105254 -0.23626301
-0.12684999 0.105328 -0.236258
-0.126848 0.105402 -0.23625401
-0.126844 0.105476 -0.23626199
-0.12684099 0.10555 -0.23626
-0.126839 0.105624 -0.236246
-0.126837 0.105697 -0.236237
-0.12683401 0.105771 -0.236237
-0.126831 0.105845 -0.236241
-0.126828 0.105919 -0.23624299
-0.126825 0.105995 -0.23624
-0.12682199 0.106067 -0.23623399
-0.12682 0.106141 -0.23621801
-0.126818 0.106214 -0.23620801
-0.12681501 0.106288 -0.23620901
-0.126812 0.106363 -0.236213
-0.126809 0.106436 -0.236213
-0.12680601 0.106512 -0.23620901
-0.12680399 0.106584 -0.2362
-0.126801 0.106658 -0.236194
-0.126798 0.106734 -0.236196
-0.12679499 0.106808 -0.236196
-0.126792 0.106882 -0.23619001
-0.126789 0.106956 -0.236193
-0.12678599 0.10703 -0.236195
-0.126784 0.107104 -0.23618899
-0.126781 0.107177 -0.236183
-0.12677801 0.107251 -0.236178
-0.12677599 0.107325 -0.23617201
-0.126773 0.107399 -0.23617201
-0.12677 0.107475 -0.236174
-0.12676699 0.107549 -0.23616999
-0.126764 0.107623 -0.236169
-0.126761 0.107697 -0.23617101
-0.12675799 0.107771 -0.23617101
-0.126755 0.107847 -0.236169
-0.126752 0.107921 -0.236168
-0.12675001 0.107995 -0.236164
-0.126747 0.108069 -0.236164
-0.126744 0.108142 -0.236156
-0.12674201 0.108216 -0.236146
-0.126739 0.10829 -0.236139
-0.126737 0.108364 -0.23613299
-0.126734 0.108438 -0.236127
-0.12673099 0.108509 -0.236123
-0.126728 0.108585 -0.236122
-0.126725 0.108659 -0.236122
-0.12672301 0.108733 -0.236118
-0.12672 0.108807 -0.23612399
-0.126716 0.108883 -0.236131
-0.12671299 0.108957 -0.23613299
-0.12671 0.109031 -0.236131
-0.126708 0.109107 -0.236127
-0.12670501 0.109181 -0.236127
-0.126702 0.109255 -0.23612399
-0.126699 0.109329 -0.236122
-0.12669601 0.109403 -0.23613
-0.126692 0.109479 -0.236138
-0.126689 0.109553 -0.23614
-0.12668601 0.109627 -0.23614299
-0.126683 0.109703 -0.236145
-0.126681 0.109777 -0.236139
-0.126678 0.109851 -0.236129
-0.12667599 0.109923 -0.236122
-0.126673 0.109997 -0.23611601
-0.12667 0.110073 -0.236118
-0.12666699 0.110147 -0.23612
-0.126664 0.110223 -0.23612
-0.126661 0.110297 -0.236119
-0.12665799 0.11037 -0.23611499
-0.126655 0.110444 -0.236121
-0.126652 0.110518 -0.236119
-0.12664901 0.110594 -0.23612399
-0.126646 0.110668 -0.23612399
-0.126644 0.110742 -0.236118
-0.12664101 0.110816 -0.23611
-0.12663899 0.11089 -0.2361
-0.126636 0.110964 -0.23609699
-0.126633 0.111038 -0.23609699
-0.12663101 0.111111 -0.236081
-0.12662899 0.111185 -0.236065
-0.126626 0.111257 -0.236054
-0.126623 0.111333 -0.236058
-0.12661999 0.111407 -0.236064
-0.126617 0.111481 -0.23605999
-0.126614 0.111556 -0.236055
-0.12661099 0.11163 -0.236057
-0.126608 0.111707 -0.23606101
-0.126605 0.111781 -0.236063
-0.12660301 0.111854 -0.236059
-0.1266 0.111928 -0.23605201
-0.126597 0.112002 -0.236044
-0.12659501 0.112076 -0.23604
-0.126592 0.11215 -0.23604
-0.126589 0.112224 -0.236031
-0.126587 0.112297 -0.236017
-0.12658399 0.112371 -0.236011
-0.126582 0.112445 -0.236003
-0.12658 0.112517 -0.235994
-0.126577 0.11259 -0.23598599
-0.12657499 0.112664 -0.235976
-0.126572 0.112738 -0.235974
-0.126569 0.112814 -0.23597699
-0.12656499 0.112888 -0.235983
-0.126562 0.112964 -0.235985
-0.126559 0.113038 -0.235983
-0.12655701 0.113112 -0.23597901
-0.126554 0.113186 -0.23597801
-0.126551 0.113262 -0.235982
-0.12654801 0.113338 -0.23598599
-0.126545 0.113412 -0.23598801
-0.126542 0.113486 -0.23598801
-0.12653901 0.113562 -0.23598699
-0.126536 0.113636 -0.235983
-0.126533 0.11371 -0.23597901
-0.12653001 0.113784 -0.23597699
-0.126527 0.11386 -0.23597901
-0.126524 0.113934 -0.23598
-0.12652101 0.114008 -0.23598
-0.126518 0.114084 -0.23598
-0.126516 0.114158 -0.23598
-0.126513 0.114234 -0.235981
-0.126509 0.114308 -0.235985
-0.126506 0.114384 -0.23598699
-0.12650301 0.11446 -0.23599499
-0.1265 0.114534 -0.23599701
-0.126497 0.114607 -0.23598801
-0.126495 0.114681 -0.235982
-0.12649199 0.114757 -0.235984
-0.126489 0.114831 -0.23598801
-0.12648501 0.11491 -0.236002
-0.126481 0.114986 -0.23601601
-0.126478 0.11506 -0.236021
-0.12647501 0.115136 -0.236021
-0.126472 0.115212 -0.23602501
-0.126469 0.115286 -0.236027
-0.12646601 0.11536 -0.236031
-0.126462 0.115438 -0.236038
-0.126459 0.115512 -0.236044
-0.12645499 0.115591 -0.236058
-0.126451 0.115667 -0.236076
-0.12644801 0.115743 -0.236094
-0.126444 0.115821 -0.236104
-0.12644 0.115898 -0.236119
-0.126435 0.115979 -0.236157
-0.12643 0.116059 -0.236201
-0.126425 0.116138 -0.236233
-0.126422 0.116216 -0.236247
-0.12641899 0.11629 -0.236251
-0.126414 0.116371 -0.23628099
-0.12640999 0.116449 -0.23629899
-0.126407 0.116526 -0.236307
-0.12640201 0.116604 -0.236333
-0.126397 0.116685 -0.236367
-0.12639301 0.116763 -0.23639201
-0.126389 0.116842 -0.23641001
-0.126385 0.11692 -0.236432
-0.12638099 0.116999 -0.236458
-0.126376 0.117077 -0.236486
-0.12637199 0.117156 -0.236506
-0.126368 0.117234 -0.23652799
-0.12636399 0.117315 -0.23655801
-0.126359 0.117395 -0.236588
-0.12635501 0.117474 -0.23661201
-0.12635 0.117552 -0.236636
-0.12634601 0.117631 -0.236665
-0.126342 0.117711 -0.236691
-0.12633701 0.117792 -0.236729
-0.126331 0.117875 -0.236781
-0.12687901 0.098604001 -0.23735701
-0.12687799 0.098678 -0.237317
-0.12687699 0.098752998 -0.23728099
-0.126876 0.098825999 -0.23724499
-0.126875 0.098898999 -0.23721001
-0.126873 0.098972 -0.237176
-0.126872 0.099045999 -0.23714601
-0.12687001 0.099120997 -0.23712599
-0.12686899 0.099193998 -0.237087
-0.12686799 0.099266998 -0.237041
-0.126867 0.099339999 -0.237011
-0.126865 0.099413998 -0.236994
-0.126862 0.099487998 -0.236982
-0.12685999 0.099560998 -0.236966
-0.126858 0.099634998 -0.236948
-0.126856 0.099710003 -0.236927
-0.126855 0.099781998 -0.23689701
-0.126853 0.099857002 -0.236865
-0.12685201 0.099930003 -0.236837
-0.12684999 0.100002 -0.236816
-0.126848 0.100077 -0.23679399
-0.126846 0.100151 -0.236772
-0.126844 0.100224 -0.236752
-0.12684201 0.100298 -0.236727
-0.12684 0.100371 -0.236707
-0.126838 0.100445 -0.23669501
-0.126837 0.100516 -0.236656
-0.126836 0.100591 -0.236614
-0.12683401 0.100663 -0.23659199
-0.12683199 0.100736 -0.236572
-0.12683 0.10081 -0.236563
-0.126827 0.100884 -0.23655701
-0.126825 0.100959 -0.236545
-0.12682299 0.101031 -0.23652101
-0.126821 0.101104 -0.236504
-0.126819 0.101178 -0.23649999
-0.126816 0.101252 -0.23649
-0.12681399 0.101326 -0.236476
-0.126811 0.101399 -0.23646501
-0.12681 0.101473 -0.23644499
-0.126808 0.101546 -0.236425
-0.12680499 0.10162 -0.236415
-0.126803 0.101694 -0.236406
-0.1268 0.101768 -0.23639999
-0.12679701 0.101842 -0.23639201
-0.12679499 0.101915 -0.23638199
-0.126792 0.101989 -0.236376
-0.12679 0.102063 -0.23636501
-0.12678701 0.102137 -0.236361
-0.126784 0.102211 -0.23636299
-0.126782 0.102285 -0.23635501
-0.126779 0.102358 -0.23634399
-0.12677599 0.102432 -0.236348
-0.126773 0.102506 -0.23635
-0.126771 0.10258 -0.23633599
-0.12676901 0.102654 -0.236321
-0.126766 0.102728 -0.236325
-0.126762 0.102804 -0.236339
-0.12676001 0.102876 -0.236331
-0.12675799 0.102949 -0.236314
-0.126755 0.103023 -0.236316
-0.12675101 0.1031 -0.236332
-0.126748 0.103174 -0.23632801
-0.126745 0.103247 -0.236322
-0.126743 0.103321 -0.236321
-0.126739 0.103395 -0.236329
-0.126736 0.10347 -0.236339
-0.12673301 0.103546 -0.236339
-0.12673 0.103617 -0.23633
-0.126728 0.103691 -0.23632
-0.126725 0.103765 -0.236312
-0.12672301 0.103839 -0.236302
-0.12672 0.103912 -0.236296
-0.126717 0.103986 -0.23629899
-0.126715 0.10406 -0.236297
-0.12671199 0.104136 -0.236293
-0.126709 0.104208 -0.236287
-0.126707 0.104282 -0.23627
-0.12670501 0.104355 -0.23625401
-0.126702 0.104429 -0.236256
-0.126698 0.104506 -0.236268
-0.12669601 0.104579 -0.236267
-0.126693 0.104653 -0.236259
-0.126691 0.104727 -0.236249
-0.12668701 0.104801 -0.23625501
-0.126683 0.104877 -0.23627301
-0.12668 0.104952 -0.236278
-0.126678 0.105025 -0.23627201
-0.12667499 0.105099 -0.23627201
-0.126672 0.105173 -0.23627201
-0.126669 0.105247 -0.236277
-0.12666599 0.105321 -0.23628099
-0.126663 0.105397 -0.236277
-0.12666 0.105471 -0.23627099
-0.12665699 0.105543 -0.236269
-0.126655 0.105619 -0.236268
-0.126652 0.105693 -0.236256
-0.12665001 0.105767 -0.23625
-0.126647 0.10584 -0.23625
-0.126644 0.105912 -0.236241
-0.126642 0.105988 -0.236231
-0.12663899 0.106062 -0.236229
-0.126636 0.106136 -0.23622701
-0.126634 0.10621 -0.23622
-0.12663101 0.106281 -0.23620801
-0.126628 0.106357 -0.236206
-0.126625 0.106431 -0.236212
-0.12662201 0.106505 -0.23621801
-0.126619 0.106579 -0.236213
-0.126617 0.106653 -0.236203
-0.126614 0.106727 -0.236195
-0.12661099 0.106801 -0.236193
-0.126609 0.106875 -0.236194
-0.126606 0.106949 -0.23618799
-0.12660301 0.107022 -0.236184
-0.1266 0.107096 -0.236184
-0.126597 0.10717 -0.236183
-0.12659501 0.107246 -0.236177
-0.126592 0.10732 -0.236173
-0.126589 0.107394 -0.23617899
-0.12658601 0.107468 -0.23617899
-0.126583 0.107542 -0.236182
-0.12658 0.107618 -0.236186
-0.126577 0.107692 -0.236186
-0.12657399 0.107766 -0.236182
-0.126571 0.10784 -0.23617899
-0.126569 0.107914 -0.236167
-0.12656599 0.107987 -0.236159
-0.126563 0.108061 -0.23616301
-0.12656 0.108135 -0.23616301
-0.12655801 0.108209 -0.236156
-0.126555 0.108283 -0.23615199
-0.126552 0.108359 -0.23615199
-0.12654901 0.108433 -0.23615199
-0.126546 0.108507 -0.236149
-0.126544 0.108581 -0.236141
-0.126541 0.108655 -0.236145
-0.12653799 0.108731 -0.236149
-0.126535 0.108805 -0.236147
-0.126532 0.108877 -0.236138
-0.12653001 0.10895 -0.236128
-0.126527 0.109024 -0.23612601
-0.126524 0.1091 -0.236128
-0.12652101 0.109174 -0.23613299
-0.126518 0.109248 -0.23613501
-0.126515 0.109324 -0.236137
-0.12651201 0.109398 -0.236129
-0.126509 0.109472 -0.23612501
-0.126506 0.109546 -0.23613399
-0.12650301 0.10962 -0.236132
-0.12650099 0.109694 -0.236118
-0.126498 0.109768 -0.236112
-0.126495 0.109844 -0.236121
-0.12649199 0.109918 -0.236119
-0.12649 0.109991 -0.236111
-0.126487 0.110065 -0.23610701
-0.12648299 0.110139 -0.23611701
-0.126481 0.110215 -0.23611601
-0.126478 0.110287 -0.236102
-0.126476 0.110361 -0.2361
-0.126472 0.110437 -0.23611
-0.126469 0.110513 -0.23611499
-0.12646601 0.110587 -0.23610701
-0.12646399 0.110661 -0.236099
-0.126461 0.110735 -0.236095
-0.126458 0.110809 -0.23609699
-0.12645499 0.110883 -0.236094
-0.126453 0.110956 -0.236084
-0.12645 0.11103 -0.236076
-0.12644701 0.111104 -0.236076
-0.126444 0.11118 -0.236085
-0.126441 0.111254 -0.236085
-0.12643901 0.111328 -0.236077
-0.126436 0.111402 -0.236065
-0.126434 0.111475 -0.236056
-0.126431 0.111549 -0.23605201
-0.12642799 0.111623 -0.236046
-0.126426 0.111697 -0.236036
-0.126423 0.111771 -0.23603199
-0.12642001 0.111845 -0.23603299
-0.12641799 0.111919 -0.236027
-0.126415 0.111992 -0.236017
-0.126413 0.112066 -0.236011
-0.12640999 0.11214 -0.23601399
-0.126406 0.112216 -0.23601601
-0.126404 0.11229 -0.23600601
-0.12640201 0.112362 -0.235998
-0.126399 0.112435 -0.23598699
-0.126397 0.112509 -0.23597699
-0.126394 0.112585 -0.23597901
-0.12639099 0.112659 -0.235981
-0.126388 0.112733 -0.235983
-0.126385 0.112809 -0.23598599
-0.12638199 0.112883 -0.23598599
-0.126379 0.112957 -0.23598
-0.126376 0.113031 -0.23597801
-0.12637299 0.113105 -0.23597699
-0.12637 0.113181 -0.235975
-0.126367 0.113255 -0.23597699
-0.12636399 0.113331 -0.235975
-0.126362 0.113402 -0.235965
-0.126359 0.113476 -0.235964
-0.12635601 0.113552 -0.23596799
-0.126353 0.113628 -0.23597001
-0.12635 0.113702 -0.235964
-0.12634701 0.113776 -0.235965
-0.126344 0.11385 -0.235965
-0.126342 0.113926 -0.23595899
-0.126339 0.114 -0.235955
-0.12633599 0.114074 -0.235955
-0.126333 0.11415 -0.235956
-0.12633 0.114224 -0.235956
-0.12632699 0.1143 -0.23596001
-0.126324 0.114374 -0.235964
-0.126321 0.114448 -0.23596001
-0.12631799 0.114522 -0.235955
-0.126315 0.114598 -0.235963
-0.126312 0.114674 -0.235971
-0.12630901 0.114748 -0.235971
-0.126305 0.114824 -0.23597699
-0.126302 0.1149 -0.23598
-0.12629899 0.114976 -0.23599
-0.126295 0.115052 -0.236
-0.12629201 0.115129 -0.236012
-0.126288 0.115205 -0.23602401
-0.126285 0.115281 -0.236026
-0.12628201 0.115355 -0.23602299
-0.126279 0.115431 -0.236027
-0.126276 0.115507 -0.236039
-0.12627199 0.115583 -0.236057
-0.126268 0.115662 -0.236075
-0.126265 0.115736 -0.236081
-0.126261 0.115812 -0.23608799
-0.126258 0.115888 -0.23609801
-0.126252 0.115971 -0.23614401
-0.12624601 0.116054 -0.236204
-0.126242 0.116131 -0.23622
-0.126239 0.116209 -0.236232
-0.12623399 0.116288 -0.236258
-0.12623 0.116366 -0.236286
-0.12622599 0.116444 -0.236304
-0.126222 0.116523 -0.23632801
-0.12621699 0.116602 -0.23636
-0.126213 0.116682 -0.236385
-0.12620901 0.116759 -0.236403
-0.126205 0.116837 -0.236421
-0.126201 0.116915 -0.236441
-0.126197 0.116994 -0.236469
-0.126192 0.117074 -0.236495
-0.126188 0.117153 -0.23651899
-0.126184 0.117231 -0.236545
-0.12617899 0.117312 -0.236579
-0.126174 0.117391 -0.236607
-0.12617099 0.117469 -0.236619
-0.12642799 0.098805003 -0.237279
-0.126426 0.098879002 -0.237253
-0.126425 0.098952003 -0.237233
-0.126423 0.099026002 -0.237207
-0.126421 0.099101 -0.237176
-0.126421 0.099174 -0.23713399
-0.12641899 0.099247001 -0.23710001
-0.12641799 0.099320002 -0.23706201
-0.126417 0.099393003 -0.23702499
-0.126416 0.099467002 -0.23698901
-0.126414 0.099540003 -0.236965
-0.126412 0.099614002 -0.23694301
-0.12640999 0.099688999 -0.23692
-0.12640899 0.099762 -0.23688801
-0.126407 0.099835999 -0.236862
-0.126405 0.099909 -0.23684999
-0.126403 0.099982999 -0.236835
-0.12640101 0.100056 -0.236809
-0.126399 0.10013 -0.23678499
-0.126398 0.100203 -0.236763
-0.126396 0.100277 -0.236742
-0.126394 0.10035 -0.236718
-0.12639201 0.100424 -0.236696
-0.12639099 0.100497 -0.23666701
-0.126388 0.100571 -0.236651
-0.126385 0.100645 -0.236655
-0.12638301 0.100718 -0.23663899
-0.12638199 0.100791 -0.236596
-0.12638099 0.100865 -0.236568
-0.126378 0.100938 -0.23656
-0.126376 0.101012 -0.236552
-0.12637401 0.101086 -0.23652899
-0.12637199 0.101159 -0.236505
-0.12637 0.101231 -0.236485
-0.126368 0.101306 -0.23647501
-0.126366 0.101378 -0.23646399
-0.12636399 0.101452 -0.23644599
-0.126361 0.101525 -0.23642799
-0.126359 0.101599 -0.236416
-0.126357 0.101673 -0.23640899
-0.12635399 0.101747 -0.236403
-0.126352 0.10182 -0.236393
-0.126349 0.101894 -0.23638301
-0.12634499 0.101968 -0.236398
-0.126342 0.102044 -0.236402
-0.12634 0.102118 -0.23638999
-0.12633801 0.10219 -0.236378
-0.126335 0.102266 -0.23637
-0.126332 0.10234 -0.236369
-0.12633 0.102413 -0.236359
-0.12632699 0.102487 -0.236349
-0.126325 0.102559 -0.236343
-0.126322 0.102635 -0.23634
-0.12632 0.102706 -0.236324
-0.12631799 0.102782 -0.23631001
-0.126315 0.102854 -0.23629799
-0.126312 0.102928 -0.236297
-0.12630901 0.103004 -0.236301
-0.126306 0.103078 -0.236303
-0.126303 0.103152 -0.236313
-0.12630001 0.103226 -0.23631901
-0.126297 0.1033 -0.236316
-0.126295 0.103374 -0.23630001
-0.12629201 0.103447 -0.236294
-0.126289 0.103521 -0.236288
-0.126287 0.103595 -0.23628099
-0.126284 0.103669 -0.23628099
-0.12628099 0.103743 -0.236283
-0.126278 0.103817 -0.236287
-0.126275 0.103893 -0.23627999
-0.12627301 0.103965 -0.23627
-0.12627099 0.104038 -0.236258
-0.126268 0.104112 -0.23625199
-0.126265 0.104186 -0.236251
-0.126261 0.104262 -0.23626301
-0.126257 0.104337 -0.236285
-0.12625401 0.104411 -0.236293
-0.126251 0.104487 -0.236295
-0.126248 0.104561 -0.236294
-0.12624601 0.104634 -0.23627
-0.12624501 0.104706 -0.236246
-0.126241 0.10478 -0.23625401
-0.126237 0.104856 -0.236274
-0.12623399 0.10493 -0.236279
-0.126232 0.105004 -0.23627099
-0.126229 0.105078 -0.236269
-0.12622599 0.105152 -0.23627301
-0.126223 0.105228 -0.23626401
-0.126222 0.105299 -0.23623601
-0.12622 0.105373 -0.236212
-0.12621699 0.105447 -0.236214
-0.126213 0.105521 -0.23623499
-0.12620901 0.105597 -0.23625501
-0.126206 0.105672 -0.236261
-0.126203 0.105745 -0.23625299
-0.126201 0.105819 -0.236249
-0.12619799 0.105893 -0.23624
-0.126196 0.105967 -0.236228
-0.126193 0.106041 -0.23623
-0.12619001 0.106117 -0.23623
-0.126188 0.106188 -0.236221
-0.126185 0.106262 -0.236205
-0.126183 0.106336 -0.236187
-0.12618101 0.106407 -0.23617101
-0.12617899 0.106481 -0.236166
-0.126175 0.106557 -0.236174
-0.12617099 0.106632 -0.236192
-0.126168 0.106708 -0.236196
-0.126166 0.106779 -0.236186
-0.126164 0.106853 -0.236175
-0.12616099 0.106927 -0.23616301
-0.126158 0.107001 -0.23616099
-0.126155 0.107075 -0.23616099
-0.12615199 0.107151 -0.236164
-0.126149 0.107225 -0.236176
-0.12614501 0.107301 -0.236192
-0.126142 0.107375 -0.236192
-0.126139 0.107449 -0.23618799
-0.126136 0.107523 -0.23618899
-0.12613299 0.107599 -0.23618899
-0.12613 0.107673 -0.236191
-0.126128 0.107747 -0.236185
-0.12612601 0.107818 -0.236164
-0.12612399 0.107892 -0.236136
-0.126122 0.107965 -0.236128
-0.126119 0.10804 -0.236132
-0.12611599 0.108114 -0.23613299
-0.126112 0.10819 -0.23614299
-0.126109 0.108264 -0.236155
-0.126105 0.10834 -0.23617101
-0.126102 0.108414 -0.23617101
-0.1261 0.108488 -0.23616
-0.12609699 0.108562 -0.23616
-0.126094 0.108638 -0.23616201
-0.126091 0.108712 -0.236164
-0.12608799 0.108786 -0.23616201
-0.126085 0.10886 -0.236157
-0.126083 0.108933 -0.236149
-0.12608001 0.109007 -0.236141
-0.12607799 0.109081 -0.236131
-0.126076 0.109155 -0.236118
-0.126073 0.109229 -0.236118
-0.12606999 0.109303 -0.236114
-0.126067 0.109376 -0.23610801
-0.126064 0.10945 -0.236111
-0.12606101 0.109527 -0.23612501
-0.126057 0.109601 -0.23613501
-0.126054 0.109677 -0.23613299
-0.12605099 0.109751 -0.23613501
-0.126048 0.109827 -0.23614199
-0.126045 0.109901 -0.23614199
-0.12604199 0.109973 -0.236136
-0.12604 0.110046 -0.236122
-0.126038 0.11012 -0.236113
-0.126035 0.110194 -0.236109
-0.12603199 0.11027 -0.236111
-0.126029 0.110344 -0.23611701
-0.12602501 0.11042 -0.236123
-0.12602299 0.110494 -0.236118
-0.126021 0.110568 -0.236102
-0.126018 0.110642 -0.236104
-0.12601499 0.110716 -0.23610599
-0.126012 0.110789 -0.23609699
-0.126009 0.110863 -0.236091
-0.12600701 0.110937 -0.23608699
-0.126004 0.111011 -0.236083
-0.126001 0.111087 -0.236085
-0.12599801 0.111161 -0.23608001
-0.12599599 0.111233 -0.236068
-0.125993 0.111308 -0.236058
-0.125991 0.111382 -0.236054
-0.12598801 0.111454 -0.236047
-0.12598599 0.111528 -0.23603299
-0.125984 0.111601 -0.236019
-0.125981 0.111675 -0.236019
-0.12597799 0.111749 -0.23601601
-0.125976 0.111823 -0.235998
-0.125974 0.111894 -0.235984
-0.125971 0.111968 -0.235982
-0.12596799 0.112044 -0.235991
-0.125964 0.112121 -0.23599701
-0.12596101 0.112195 -0.235999
-0.12595899 0.112268 -0.235989
-0.125956 0.112342 -0.235981
-0.125954 0.112416 -0.235976
-0.12595101 0.11249 -0.23596799
-0.125948 0.112564 -0.235964
-0.125945 0.11264 -0.235974
-0.12594201 0.112714 -0.235983
-0.125939 0.11279 -0.235981
-0.125936 0.112862 -0.235973
-0.12593301 0.112938 -0.235975
-0.12593 0.113012 -0.235975
-0.125928 0.113085 -0.23596799
-0.125925 0.113161 -0.23596799
-0.12592199 0.113235 -0.23597001
-0.125918 0.113312 -0.23597801
-0.125916 0.113385 -0.235972
-0.12591299 0.113459 -0.235963
-0.12591 0.113533 -0.23596101
-0.125908 0.113607 -0.235953
-0.12590501 0.113681 -0.235943
-0.125902 0.113755 -0.235946
-0.125899 0.113831 -0.23594999
-0.12589601 0.113905 -0.235948
-0.125894 0.113978 -0.235944
-0.125891 0.114054 -0.235938
-0.125888 0.114128 -0.23593301
-0.12588599 0.114202 -0.235929
-0.125882 0.114276 -0.23593301
-0.125879 0.114352 -0.235937
-0.12587599 0.114426 -0.235936
-0.125873 0.114502 -0.235938
-0.12587 0.114576 -0.23594201
-0.12586699 0.114652 -0.23594201
-0.125864 0.114728 -0.235952
-0.12586001 0.114804 -0.235962
-0.125857 0.114881 -0.235973
-0.125853 0.114957 -0.235983
-0.12585001 0.115031 -0.23598699
-0.125847 0.115107 -0.235985
-0.125844 0.115181 -0.235989
-0.12584101 0.115257 -0.23599599
-0.125838 0.115331 -0.23599599
-0.125834 0.115407 -0.23600399
-0.12583099 0.115485 -0.236022
-0.125827 0.115562 -0.23603199
-0.12582301 0.11564 -0.236058
-0.125818 0.115719 -0.23609
-0.12581301 0.115799 -0.236121
-0.12581 0.115874 -0.236127
-0.125807 0.115952 -0.236137
-0.125802 0.11603 -0.236167
-0.125798 0.116109 -0.23619901
-0.12579399 0.116187 -0.236211
-0.12579 0.116264 -0.23622701
-0.12578601 0.116342 -0.23624299
-0.125782 0.11642 -0.23626401
-0.125778 0.116499 -0.236294
-0.125774 0.116577 -0.236312
-0.125769 0.116656 -0.236338
-0.125765 0.116737 -0.23637199
-0.12576 0.116815 -0.236394
-0.12575699 0.116891 -0.236404
-0.125753 0.11697 -0.236424
-0.12574901 0.117048 -0.23645
-0.12618101 0.097613998 -0.238153
-0.12617999 0.097686999 -0.238111
-0.12617899 0.097762004 -0.23807099
-0.12617899 0.097834997 -0.238014
-0.126178 0.097910002 -0.23796
-0.126178 0.097983003 -0.237918
-0.126178 0.098057002 -0.23785
-0.12617899 0.098128997 -0.237771
-0.12617899 0.098204002 -0.23770501
-0.12617899 0.098275997 -0.23764101
-0.12617899 0.098351002 -0.23759399
-0.12617899 0.098424003 -0.237532
-0.12617899 0.098495997 -0.237464
-0.126178 0.098568998 -0.23741899
-0.126177 0.098642997 -0.237381
-0.126177 0.098716997 -0.23732901
-0.126176 0.098789997 -0.237279
-0.126175 0.098862998 -0.237244
-0.126173 0.098936997 -0.23722
-0.12617201 0.099009998 -0.23718999
-0.12617099 0.099085003 -0.237148
-0.12616999 0.099157996 -0.237115
-0.126168 0.099232003 -0.237083
-0.126167 0.099304996 -0.237045
-0.126166 0.099377997 -0.23701601
-0.126164 0.099451996 -0.236992
-0.12616199 0.099524997 -0.236968
-0.12616 0.099597998 -0.23694199
-0.126159 0.099674001 -0.236909
-0.126158 0.099747002 -0.23687699
-0.126156 0.099820003 -0.236855
-0.12615401 0.099894002 -0.236827
-0.12615199 0.099967003 -0.23681
-0.12615 0.100041 -0.236798
-0.126148 0.100115 -0.23678
-0.126146 0.100188 -0.236752
-0.12614501 0.100261 -0.23672099
-0.12614299 0.100335 -0.23670299
-0.12614 0.100409 -0.236699
-0.126138 0.100482 -0.236683
-0.126136 0.100556 -0.23665801
-0.12613501 0.100629 -0.236624
-0.12613399 0.100702 -0.23659199
-0.126131 0.100776 -0.236582
-0.126128 0.10085 -0.23658501
-0.12612601 0.100924 -0.236571
-0.12612399 0.100997 -0.236553
-0.126121 0.101071 -0.236541
-0.126119 0.101145 -0.236532
-0.12611701 0.101218 -0.236516
-0.12611499 0.101292 -0.236494
-0.126113 0.101365 -0.236468
-0.126112 0.101436 -0.236439
-0.12611 0.101512 -0.23642699
-0.12610701 0.101584 -0.236425
-0.126104 0.10166 -0.23641901
-0.126101 0.101734 -0.236416
-0.12609901 0.101808 -0.236414
-0.126096 0.101881 -0.236404
-0.126094 0.101955 -0.236396
-0.126091 0.102029 -0.236397
-0.12608799 0.102103 -0.23639099
-0.126085 0.102177 -0.236387
-0.126082 0.102251 -0.236393
-0.12607899 0.102325 -0.23639201
-0.126077 0.102399 -0.23638199
-0.126074 0.102473 -0.23638199
-0.12607101 0.102547 -0.23638199
-0.126068 0.10262 -0.23637401
-0.126066 0.102694 -0.236357
-0.126064 0.102768 -0.236341
-0.12606201 0.102841 -0.236333
-0.126059 0.102915 -0.23633701
-0.126055 0.102992 -0.23634601
-0.12605201 0.103066 -0.236352
-0.126049 0.10314 -0.23635601
-0.126046 0.103214 -0.236352
-0.12604301 0.103287 -0.23634499
-0.126041 0.103361 -0.23634499
-0.126038 0.103435 -0.23634499
-0.126036 0.103509 -0.236321
-0.12603299 0.103582 -0.236312
-0.12603 0.103657 -0.23633
-0.126027 0.103733 -0.236332
-0.12602399 0.103805 -0.23632
-0.126021 0.10388 -0.236316
-0.126019 0.103952 -0.236315
-0.12601601 0.104026 -0.23630901
-0.126013 0.104102 -0.23630901
-0.12601 0.104176 -0.236313
-0.12600701 0.10425 -0.236316
-0.126004 0.104324 -0.236314
-0.126001 0.104398 -0.236314
-0.12599801 0.104474 -0.23632
-0.125995 0.104548 -0.236316
-0.125993 0.104622 -0.236303
-0.12599 0.104696 -0.23629899
-0.12598699 0.10477 -0.236307
-0.125984 0.104844 -0.236313
-0.125981 0.104918 -0.23631801
-0.12597799 0.104994 -0.236314
-0.125976 0.105065 -0.23629799
-0.125974 0.105139 -0.23627
-0.125971 0.105213 -0.236265
-0.12596799 0.105287 -0.23628099
-0.125964 0.105363 -0.236297
-0.12596101 0.105437 -0.236305
-0.125958 0.105511 -0.236303
-0.125955 0.105585 -0.236292
-0.125953 0.105659 -0.23628201
-0.12594999 0.105733 -0.23627999
-0.125947 0.105807 -0.236278
-0.125945 0.105881 -0.236275
-0.12594201 0.105956 -0.23627301
-0.125939 0.10603 -0.236267
-0.125937 0.106104 -0.23625299
-0.125934 0.106176 -0.236247
-0.12593099 0.106252 -0.23625
-0.125929 0.106326 -0.23624399
-0.125926 0.106397 -0.23623399
-0.12592401 0.106473 -0.23622601
-0.125921 0.106545 -0.236221
-0.125918 0.106621 -0.236221
-0.12591501 0.106695 -0.236213
-0.12591299 0.106767 -0.236205
-0.12591 0.106843 -0.236214
-0.125907 0.106917 -0.236214
-0.12590399 0.10699 -0.236204
-0.125901 0.107064 -0.2362
-0.125899 0.107138 -0.236194
-0.12589601 0.107212 -0.23618899
-0.125894 0.107286 -0.23618101
-0.125892 0.107359 -0.236165
-0.125889 0.107433 -0.236165
-0.12588499 0.10751 -0.236184
-0.125881 0.107586 -0.236202
-0.12587801 0.10766 -0.236206
-0.125875 0.107734 -0.23619799
-0.125873 0.107808 -0.23618799
-0.12587 0.107882 -0.236187
-0.12586699 0.107956 -0.23618899
-0.125864 0.10803 -0.23618899
-0.125861 0.108104 -0.23618899
-0.12585799 0.108179 -0.236186
-0.125856 0.108253 -0.23617999
-0.125853 0.108327 -0.236174
-0.12585001 0.108401 -0.236174
-0.125847 0.108475 -0.23617201
-0.125845 0.108549 -0.23616301
-0.125843 0.108622 -0.236149
-0.12583999 0.108696 -0.23613501
-0.125838 0.108768 -0.236127
-0.125835 0.108844 -0.23613
-0.12583201 0.108918 -0.23613399
-0.125828 0.108994 -0.23614199
-0.125826 0.109068 -0.236136
-0.125824 0.109139 -0.23611701
-0.12582099 0.109213 -0.236113
-0.125818 0.109289 -0.236119
-0.12581401 0.109364 -0.23612501
-0.125811 0.10944 -0.236129
-0.125808 0.109514 -0.23613
-0.12580501 0.109588 -0.23613
-0.12580299 0.109661 -0.236118
-0.125801 0.109733 -0.23610599
-0.125798 0.109809 -0.236103
-0.12579501 0.109881 -0.23609699
-0.125793 0.109955 -0.236095
-0.125789 0.110031 -0.236103
-0.12578601 0.110107 -0.23610701
-0.125783 0.110181 -0.23610599
-0.12578 0.110255 -0.236102
-0.125778 0.110328 -0.23609599
-0.12577499 0.110402 -0.23608799
-0.125773 0.110476 -0.23607901
-0.12577 0.11055 -0.23607901
-0.12576699 0.110624 -0.236081
-0.125764 0.110698 -0.236075
-0.125762 0.110771 -0.236064
-0.12575901 0.110845 -0.23605999
-0.125756 0.110921 -0.23606201
-0.125753 0.110995 -0.236068
-0.12575001 0.111072 -0.236072
-0.125747 0.111145 -0.23607101
-0.125745 0.111219 -0.236055
-0.125742 0.111291 -0.23604099
-0.12574001 0.111367 -0.236039
-0.125737 0.111439 -0.236036
-0.125735 0.111512 -0.236022
-0.125732 0.111586 -0.23601
-0.12572899 0.11166 -0.236008
-0.125727 0.111734 -0.236007
-0.125724 0.11181 -0.23600499
-0.12572099 0.111884 -0.236003
-0.125719 0.111957 -0.235991
-0.125716 0.112031 -0.235983
-0.12571301 0.112105 -0.235982
-0.12571 0.112179 -0.23597801
-0.125708 0.112253 -0.235972
-0.125705 0.112327 -0.23596799
-0.12570199 0.112401 -0.235965
-0.1257 0.112474 -0.235963
-0.125697 0.11255 -0.23596101
-0.12569401 0.112624 -0.23595899
-0.12569 0.112698 -0.235967
-0.125687 0.112774 -0.23597001
-0.12568501 0.112848 -0.235962
-0.125682 0.112922 -0.235958
-0.125679 0.112996 -0.235956
-0.125677 0.11307 -0.235953
-0.12567399 0.113146 -0.235953
-0.12567 0.11322 -0.235957
-0.12566701 0.113296 -0.235957
-0.12566499 0.11337 -0.235957
-0.125661 0.113444 -0.235964
-0.12565801 0.11352 -0.23596799
-0.125655 0.113594 -0.235964
-0.125653 0.113668 -0.235954
-0.125651 0.113741 -0.23594099
-0.12564801 0.113815 -0.235937
-0.125645 0.113891 -0.235937
-0.125642 0.113965 -0.235937
-0.12563901 0.114041 -0.235947
-0.125636 0.114115 -0.235946
-0.125633 0.114189 -0.235936
-0.12563001 0.114263 -0.235934
-0.125627 0.114339 -0.23593999
-0.125624 0.114415 -0.23593999
-0.125622 0.114487 -0.235925
-0.12561999 0.11456 -0.235917
-0.125616 0.114637 -0.235927
-0.125613 0.114713 -0.235937
-0.12560999 0.114787 -0.235939
-0.125606 0.114863 -0.23594201
-0.12560301 0.114939 -0.235958
-0.125598 0.115018 -0.235982
-0.125595 0.115094 -0.23599
-0.12559199 0.115168 -0.23598801
-0.125589 0.115242 -0.235985
-0.125586 0.115318 -0.235993
-0.12558199 0.115394 -0.23600499
-0.125579 0.115472 -0.236019
-0.12557501 0.115548 -0.236029
-0.125572 0.115625 -0.236039
-0.125568 0.115701 -0.236063
-0.125563 0.11578 -0.236086
-0.125559 0.115858 -0.23610599
-0.12555601 0.115934 -0.23611601
-0.125552 0.116013 -0.23614199
-0.12554801 0.116089 -0.236156
-0.125545 0.116165 -0.236158
-0.125541 0.116243 -0.23617999
-0.12553599 0.116324 -0.236214
-0.125532 0.1164 -0.236231
-0.12552699 0.116481 -0.236265
-0.125523 0.116562 -0.236295
-0.12551901 0.116638 -0.23630901
-0.125515 0.116716 -0.23632701
-0.12551101 0.116793 -0.236339
-0.125508 0.116871 -0.236351
-0.125504 0.116947 -0.23636501
-0.125497 0.117035 -0.236449
-0.125493 0.117111 -0.236453
-0.12548999 0.117187 -0.236458
-0.125485 0.117268 -0.236496
-0.12548099 0.117346 -0.236522
-0.125476 0.117429 -0.236564
-0.12547199 0.117505 -0.23657399
-0.125466 0.117589 -0.236624
-0.125462 0.117667 -0.236644
-0.125458 0.117745 -0.23666801
-0.125453 0.117826 -0.2367
-0.125448 0.117909 -0.236754
-0.125442 0.117994 -0.23681
-0.126091 0.097612999 -0.238205
-0.126091 0.097686 -0.23814601
-0.126092 0.097759999 -0.23806
-0.126092 0.097832002 -0.23799799
-0.126091 0.097906999 -0.237947
-0.126091 0.09798 -0.237903
-0.12609001 0.098054998 -0.23784301
-0.126091 0.098127 -0.237772
-0.126092 0.098200999 -0.237698
-0.126092 0.098274 -0.23763201
-0.126092 0.098347999 -0.237564
-0.126092 0.098421 -0.237507
-0.126092 0.098494001 -0.237451
-0.126091 0.098567002 -0.237405
-0.12609001 0.098640002 -0.23736601
-0.12608901 0.098715 -0.237332
-0.126087 0.098788999 -0.237316
-0.126086 0.098862 -0.23727199
-0.126085 0.098935001 -0.237229
-0.126084 0.099008001 -0.237185
-0.126084 0.099082999 -0.237139
-0.126083 0.099156 -0.23709901
-0.12608001 0.099229001 -0.237082
-0.12607899 0.099303 -0.23706
-0.126077 0.099376 -0.237036
-0.126075 0.099450998 -0.237004
-0.126075 0.099523 -0.236963
-0.126073 0.099596001 -0.236927
-0.126072 0.099670999 -0.236903
-0.12606999 0.099744998 -0.23687799
-0.126068 0.099817999 -0.23684999
-0.126066 0.099890999 -0.23683
-0.126065 0.099964999 -0.23680601
-0.126063 0.100038 -0.236783
-0.12606101 0.100112 -0.236763
-0.126059 0.100185 -0.236743
-0.126057 0.100259 -0.236725
-0.126055 0.100332 -0.23670401
-0.126054 0.100406 -0.236674
-0.12605201 0.100479 -0.23665
-0.12605 0.100553 -0.236628
-0.126048 0.100626 -0.236617
-0.126045 0.1007 -0.23660301
-0.12604401 0.100773 -0.23657501
-0.12604199 0.100847 -0.236559
-0.126039 0.100921 -0.23654801
-0.126037 0.100994 -0.236526
-0.126036 0.101066 -0.23650201
-0.12603299 0.101141 -0.236494
-0.126031 0.101215 -0.236485
-0.126029 0.101289 -0.23646501
-0.126027 0.10136 -0.236449
-0.12602399 0.101434 -0.23643699
-0.126022 0.10151 -0.23643
-0.126019 0.101582 -0.236426
-0.12601601 0.101657 -0.23642001
-0.12601399 0.101731 -0.236414
-0.126011 0.101805 -0.236413
-0.126008 0.101879 -0.23640101
-0.12600601 0.101953 -0.23639099
-0.126003 0.102027 -0.23639899
-0.126 0.102101 -0.236402
-0.12599801 0.102174 -0.236386
-0.125995 0.102248 -0.236378
-0.125992 0.102322 -0.23638999
-0.12598801 0.102398 -0.23639201
-0.12598599 0.10247 -0.236387
-0.125982 0.102547 -0.23640101
-0.12597901 0.102621 -0.23640101
-0.12597699 0.102694 -0.23639099
-0.125974 0.102768 -0.236384
-0.125971 0.102842 -0.236388
-0.12596799 0.102916 -0.23639201
-0.125965 0.10299 -0.236388
-0.125963 0.103064 -0.23638199
-0.12596001 0.103138 -0.236377
-0.125958 0.103211 -0.23636501
-0.125956 0.103285 -0.23634499
-0.125954 0.103359 -0.23632701
-0.12595101 0.103433 -0.23633
-0.125947 0.103507 -0.236338
-0.125944 0.103581 -0.23634
-0.12594099 0.103655 -0.236342
-0.125938 0.103731 -0.23634499
-0.125935 0.103805 -0.236341
-0.12593301 0.103878 -0.236331
-0.12593099 0.103952 -0.23631699
-0.125928 0.104026 -0.23631801
-0.12592401 0.1041 -0.23632801
-0.125921 0.104174 -0.23633
-0.125919 0.104248 -0.236316
-0.125917 0.104321 -0.23629799
-0.12591401 0.104395 -0.236293
-0.125911 0.10447 -0.236303
-0.125908 0.104544 -0.236311
-0.12590501 0.10462 -0.236307
-0.125903 0.104693 -0.236296
-0.1259 0.104765 -0.23628999
-0.12589701 0.104841 -0.236286
-0.125894 0.104915 -0.236284
-0.125891 0.104989 -0.236286
-0.125889 0.105063 -0.236279
-0.12588599 0.105136 -0.23627099
-0.125884 0.10521 -0.236267
-0.125881 0.105284 -0.236265
-0.12587801 0.105358 -0.236268
-0.125874 0.105434 -0.23627201
-0.125872 0.105506 -0.23626401
-0.12587 0.10558 -0.236248
-0.12586799 0.105653 -0.23623499
-0.125865 0.105727 -0.236237
-0.125861 0.105803 -0.236241
-0.12585799 0.105877 -0.236241
-0.125856 0.105951 -0.236241
-0.125853 0.106025 -0.23624
-0.12585001 0.106099 -0.23624
-0.125847 0.106173 -0.236238
-0.125844 0.106247 -0.236232
-0.12584101 0.106321 -0.236233
-0.125838 0.106397 -0.236239
-0.125835 0.106471 -0.236241
-0.125833 0.106545 -0.236233
-0.12582999 0.106619 -0.236231
-0.125827 0.106693 -0.23623601
-0.125824 0.106767 -0.23622601
-0.12582199 0.10684 -0.236212
-0.125819 0.106914 -0.236202
-0.125817 0.106988 -0.236193
-0.12581401 0.107062 -0.23619699
-0.12581 0.107136 -0.236211
-0.125807 0.107212 -0.236219
-0.12580401 0.107286 -0.23621701
-0.125801 0.10736 -0.236212
-0.125799 0.107434 -0.236206
-0.12579601 0.107508 -0.2362
-0.125793 0.107584 -0.236196
-0.12579 0.107658 -0.23619699
-0.125788 0.107732 -0.23619699
-0.12578499 0.107806 -0.23619699
-0.125782 0.107879 -0.236195
-0.125779 0.107955 -0.23619799
-0.12577599 0.108029 -0.23619799
-0.125773 0.108101 -0.23618799
-0.125771 0.108177 -0.23617999
-0.12576801 0.108249 -0.23617201
-0.125765 0.108325 -0.23617101
-0.125762 0.108399 -0.236175
-0.12575901 0.108473 -0.23618101
-0.125756 0.108549 -0.236183
-0.125753 0.108623 -0.236178
-0.125751 0.108697 -0.23617201
-0.12574799 0.108771 -0.23617201
-0.125745 0.108844 -0.23616201
-0.125743 0.108918 -0.236148
-0.125741 0.10899 -0.236139
-0.12573799 0.109066 -0.236137
-0.125735 0.10914 -0.236137
-0.125732 0.109213 -0.236129
-0.12572999 0.109287 -0.236118
-0.125727 0.109359 -0.236112
-0.125724 0.109435 -0.236114
-0.12572099 0.109509 -0.236112
-0.125718 0.109583 -0.23611499
-0.125715 0.109659 -0.236119
-0.12571201 0.109733 -0.23611701
-0.12571 0.109807 -0.236109
-0.125707 0.109881 -0.23610701
-0.12570401 0.109954 -0.23610599
-0.12570199 0.110028 -0.23609801
-0.125699 0.110102 -0.23609
-0.125697 0.110176 -0.236084
-0.12569401 0.11025 -0.236085
-0.12569 0.110326 -0.23608901
-0.125687 0.1104 -0.23608901
-0.12568501 0.110474 -0.23608699
-0.125681 0.11055 -0.236093
-0.125679 0.110624 -0.236092
-0.12567601 0.110698 -0.236086
-0.125673 0.110771 -0.23608001
-0.12567 0.110845 -0.23607799
-0.125668 0.110919 -0.23607101
-0.12566499 0.110993 -0.23606101
-0.125663 0.111067 -0.236057
-0.12566 0.111141 -0.23605099
-0.12565801 0.111214 -0.236038
-0.125655 0.111288 -0.236028
-0.125652 0.111362 -0.23603
-0.12565 0.111436 -0.236022
-0.12564699 0.11151 -0.236013
-0.125645 0.111584 -0.236011
-0.125642 0.11166 -0.236011
-0.12563901 0.111733 -0.236009
-0.125636 0.111807 -0.236007
-0.125633 0.111881 -0.236002
-0.125631 0.111955 -0.235998
-0.12562799 0.112029 -0.235994
-0.125625 0.112103 -0.235994
-0.125622 0.112177 -0.235989
-0.12561999 0.11225 -0.235971
-0.125618 0.112324 -0.23596101
-0.125615 0.112398 -0.235965
-0.12561101 0.112474 -0.235971
-0.125608 0.112548 -0.235974
-0.125606 0.112622 -0.23596799
-0.12560301 0.112696 -0.23596001
-0.12560099 0.11277 -0.235952
-0.125598 0.112844 -0.23594899
-0.125595 0.11292 -0.23595101
-0.12559199 0.112994 -0.23595101
-0.125589 0.113067 -0.235947
-0.125586 0.113143 -0.23595101
-0.12558299 0.113218 -0.235958
-0.12558 0.113291 -0.235952
-0.125578 0.113365 -0.23593999
-0.12557501 0.113439 -0.235936
-0.125572 0.113515 -0.235937
-0.125569 0.113589 -0.235939
-0.12556601 0.113665 -0.235939
-0.125563 0.113739 -0.235935
-0.12556 0.113813 -0.23593301
-0.12555701 0.113889 -0.235936
-0.125554 0.113963 -0.23593999
-0.125551 0.114039 -0.23594201
-0.12554801 0.114113 -0.23593999
-0.12554599 0.114184 -0.235925
-0.125544 0.114258 -0.23591501
-0.125541 0.114334 -0.235919
-0.12553699 0.11441 -0.23593301
-0.125533 0.114487 -0.23594899
-0.12553 0.114563 -0.235957
-0.12552699 0.114639 -0.235956
-0.125524 0.114713 -0.235956
-0.125521 0.114787 -0.235956
-0.12551799 0.114863 -0.235958
-0.125515 0.114937 -0.23596001
-0.125512 0.115013 -0.23595899
-0.125508 0.115089 -0.23596901
-0.125505 0.115165 -0.23598699
-0.12550101 0.115241 -0.23599499
-0.125498 0.115315 -0.235991
-0.125496 0.115389 -0.23598599
-0.12549201 0.115465 -0.235992
-0.125488 0.115544 -0.23601399
-0.125484 0.115622 -0.236036
-0.12548099 0.115698 -0.236048
-0.125477 0.115775 -0.236064
-0.12547299 0.115851 -0.23607901
-0.125469 0.115929 -0.236095
-0.12546501 0.116006 -0.236113
-0.125461 0.116084 -0.23613299
-0.125457 0.116163 -0.236155
-0.12545399 0.116239 -0.23616301
-0.125451 0.116315 -0.236167
-0.12544701 0.116393 -0.236187
-0.125442 0.116472 -0.236221
-0.125438 0.116552 -0.23624399
-0.125434 0.116629 -0.23626401
-0.12543 0.116707 -0.23628201
-0.12542599 0.116785 -0.23629799
-0.125421 0.116864 -0.23632801
-0.12541699 0.116945 -0.23636
-0.125412 0.117025 -0.23639201
-0.125407 0.117106 -0.236426
-0.125403 0.117182 -0.236442
-0.12540001 0.117259 -0.236452
-0.125395 0.117339 -0.23648299
-0.12538899 0.117422 -0.23654
-0.125385 0.117503 -0.23656601
-0.125369 0.117748 -0.236689
-0.125366 0.117824 -0.236701
-0.125361 0.117904 -0.236729
-0.12535501 0.117988 -0.236789
-0.125349 0.118071 -0.236839
-0.12599801 0.097609997 -0.23821899
-0.125999 0.097681999 -0.238135
-0.126 0.097755998 -0.238056
-0.126 0.097828999 -0.23801
-0.126 0.097902998 -0.23793399
-0.126 0.097975999 -0.237877
-0.126 0.098050997 -0.237813
-0.126001 0.098122999 -0.237745
-0.126 0.098197997 -0.237691
-0.126 0.098270997 -0.237636
-0.125999 0.098346002 -0.23759
-0.125999 0.098417997 -0.237534
-0.125999 0.098490998 -0.237477
-0.12599801 0.098563999 -0.237445
-0.12599599 0.098637998 -0.237415
-0.125995 0.098711997 -0.237369
-0.125995 0.098784998 -0.237326
-0.125994 0.098857999 -0.237278
-0.125993 0.098931 -0.23723
-0.125993 0.099004 -0.237185
-0.125991 0.099078998 -0.237149
-0.12599 0.099152997 -0.23711701
-0.125989 0.099225998 -0.23708101
-0.12598801 0.099298999 -0.237046
-0.12598599 0.099372 -0.23701
-0.125985 0.099445999 -0.236986
-0.125983 0.099518999 -0.23696201
-0.125982 0.099592 -0.236927
-0.125981 0.099666998 -0.236889
-0.12597901 0.099739 -0.23685899
-0.12597799 0.099813998 -0.236829
-0.125976 0.099886999 -0.2368
-0.125974 0.099959001 -0.236782
-0.125972 0.100035 -0.236772
-0.12596899 0.100108 -0.23676001
-0.12596799 0.100182 -0.236737
-0.125966 0.100255 -0.236707
-0.125964 0.100328 -0.236681
-0.125962 0.100402 -0.23666599
-0.12596001 0.100476 -0.23664799
-0.125958 0.100549 -0.236632
-0.125956 0.100623 -0.23662201
-0.125954 0.100697 -0.23660301
-0.12595201 0.10077 -0.236577
-0.12594999 0.100843 -0.236555
-0.125948 0.100917 -0.23653699
-0.125946 0.100991 -0.236522
-0.125944 0.101062 -0.236498
-0.12594201 0.101138 -0.236486
-0.125939 0.10121 -0.236478
-0.125938 0.101285 -0.23645499
-0.125935 0.101357 -0.23644499
-0.12593199 0.101431 -0.23644499
-0.12593 0.101506 -0.236431
-0.125928 0.101578 -0.23641799
-0.12592401 0.101654 -0.236424
-0.125921 0.101728 -0.236432
-0.125918 0.101802 -0.23643
-0.125916 0.101876 -0.23642001
-0.12591299 0.10195 -0.23641101
-0.125911 0.102024 -0.236403
-0.125909 0.102097 -0.236389
-0.12590601 0.102171 -0.236377
-0.125903 0.102245 -0.236376
-0.1259 0.102319 -0.236386
-0.12589601 0.102395 -0.236398
-0.125893 0.102469 -0.236402
-0.125891 0.102543 -0.236398
-0.125888 0.102617 -0.236389
-0.12588499 0.102691 -0.236385
-0.125882 0.102765 -0.23639099
-0.125879 0.102839 -0.236395
-0.12587599 0.102913 -0.23639201
-0.125874 0.102987 -0.236384
-0.125872 0.10306 -0.23637
-0.12586901 0.103134 -0.23635601
-0.12586699 0.103208 -0.236353
-0.125864 0.103282 -0.236343
-0.125862 0.103355 -0.23632701
-0.12585901 0.103429 -0.236323
-0.125857 0.103503 -0.23631801
-0.125854 0.103577 -0.23630799
-0.12585101 0.103651 -0.236314
-0.125847 0.103727 -0.23632599
-0.125845 0.103799 -0.236316
-0.125843 0.103872 -0.23629899
-0.12583999 0.103946 -0.236293
-0.125838 0.10402 -0.23628099
-0.125836 0.104094 -0.236269
-0.125833 0.104168 -0.236274
-0.125829 0.104244 -0.236288
-0.125826 0.104318 -0.236296
-0.12582301 0.104392 -0.236296
-0.125819 0.104466 -0.23630001
-0.125817 0.10454 -0.23629899
-0.12581401 0.104614 -0.23628899
-0.12581199 0.104688 -0.23628099
-0.125809 0.104761 -0.236269
-0.125807 0.104835 -0.23625401
-0.12580501 0.104909 -0.23624399
-0.125802 0.104983 -0.236242
-0.125798 0.105057 -0.23625199
-0.12579501 0.105133 -0.236265
-0.125792 0.105207 -0.236261
-0.12579 0.105281 -0.23625299
-0.125787 0.105354 -0.23624299
-0.12578499 0.105428 -0.23623601
-0.125782 0.1055 -0.236228
-0.125779 0.105576 -0.23622601
-0.12577599 0.10565 -0.236232
