-0.0838851 -0.00850477 0.996439 0.0704851
-0.0952872 0.00958883 0.995404 0.0792398
-0.107014 0.0139303 0.99416 0.0878181
-0.12387 0.0254535 0.991972 0.0949601
-0.135297 0.0239858 0.990515 0.0951726
-0.144804 0.0230689 0.989191 0.0962864
-0.150893 0.0264978 0.988195 0.0919968
-0.162155 0.0274615 0.986383 0.0955788
-0.167088 0.0291207 0.985512 0.0971652
-0.160641 0.0234076 0.986735 0.0959602
-0.159169 0.0183821 0.98708 0.0932562
-0.154333 0.0221904 0.98777 0.0902859
-0.155511 0.0246498 0.987527 0.0903052
-0.149824 0.0224379 0.988458 0.0831954
-0.139174 0.0175807 0.990112 0.0719823
-0.13455 0.00843144 0.990871 0.0717889
-0.121511 0.005277 0.992576 0.0723145
-0.109171 0.00764361 0.993994 0.0757719
-0.101232 0.00342612 0.994857 0.0743081
-0.0980731 -0.00469336 0.995168 0.0723955
-0.0978369 -0.0015385 0.995201 0.0724494
-0.0943626 0.0021316 0.995536 0.0715982
-0.0951787 0.00586979 0.995443 0.0729708
-0.095117 0.00124022 0.995465 0.0780051
-0.0995449 0.00325244 0.995028 0.0819687
-0.107106 0.011205 0.994184 0.0843386
-0.116101 0.0238836 0.99295 0.0875791
-0.124184 0.0196378 0.992065 0.0937626
-0.133313 0.0226554 0.990815 0.0986838
-0.134586 0.0326971 0.990362 0.103984
-0.131151 0.0361163 0.990704 0.10166
-0.124946 0.031029 0.991678 0.0997026
-0.117544 0.0167158 0.992927 0.0942727
-0.113386 0.0213461 0.993322 0.0892277
-0.109901 0.017915 0.993781 0.0839041
-0.10487 0.0113723 0.994421 0.0787869
-0.101664 0.00928161 0.994776 0.0742504
-0.0988165 0.00686022 0.995082 0.0684481
-0.104583 0.00448615 0.994506 0.0634259
-0.104408 0.00137496 0.994534 0.0620685
-0.105866 -0.00410663 0.994372 0.0588593
-0.0975798 -0.010174 0.995176 0.0500236
-0.0747863 -0.0140739 0.9971 0.0276396
-0.053016 -0.0162758 0.998461 0.0018905
-0.0450697 -0.0274433 0.998607 0
-0.0408681 -0.0376622 0.998455 0
-0.0403153 -0.0351682 0.998568 0
-0.0424932 -0.0355355 0.998465 0
-0.0434077 -0.0260715 0.998717 0
-0.0487611 -0.0247053 0.998505 0.00024392
-0.0559016 -0.0216973 0.9982 0.0068505
-0.0585701 -0.0100223 0.998233 0.00395185
-0.0599361 -0.0128646 0.998119 0.00628928
-0.0607235 -0.00595521 0.998137 0.0078974
-0.0595197 -0.00742203 0.9982 0.00837954
-0.0507639 -0.0126738 0.99863 0.00409416
-0.0478235 -0.00616183 0.998837 0.0074774
-0.0475356 0.00225399 0.998867 0.00927931
-0.0409049 0.00789568 0.999132 0.00682839
-0.0358106 0.00769236 0.999329 0.00480759
-0.0364391 0.00878985 0.999297 0.00986477
-0.0380844 0.0187422 0.999099 0.0163762
-0.0435741 0.0191129 0.998867 0.023465
-0.0463746 0.0175826 0.998769 0.021089
-0.038911 0.0150943 0.999129 0.010677
-0.0344983 0.0201218 0.999202 0.00778387
-0.0267444 0.0209463 0.999423 0.00171675
-0.0289595 0.02361 0.999302 0.0056019
-0.0325728 0.0308452 0.998993 0.00854498
-0.0366291 0.038422 0.99859 0.0142953
-0.0407882 0.0389378 0.998409 0.0199666
-0.0448102 0.0420296 0.998111 0.0172183
-0.047173 0.0460761 0.997823 0.0158043
-0.0457555 0.0457323 0.997905 0.0157093
-0.0463925 0.0559518 0.997355 0.0200274
-0.0463937 0.055204 0.997397 0.0218902
-0.0401348 0.0626829 0.997226 0.0197521
-0.0387458 0.0616234 0.997347 0.0198342
-0.0450792 0.0649244 0.996871 0.0294886
-0.0423514 0.072398 0.996476 0.0334125
-0.0485923 0.0779509 0.995772 0.0367309
-0.0476496 0.0718622 0.996276 0.0289602
-0.0474583 0.076589 0.995933 0.0278728
-0.0493926 0.0799342 0.995576 0.0303932
-0.0448967 0.0711594 0.996454 0.0249672
-0.0414981 0.0686516 0.996777 0.0124136
-0.0370202 0.071423 0.996759 0.0112437
-0.0381642 0.0767787 0.996317 0.0133711
-0.0373213 0.0743192 0.996536 0.0116331
-0.0378646 0.0771587 0.9963 0.0136413
-0.0362756 0.0763451 0.996421 0.00945237
-0.0352935 0.0784248 0.996295 0.0071934
-0.0351999 0.0780093 0.996331 0.00592554
-0.0346941 0.0739383 0.996659 0.00244991
-0.0384488 0.0771907 0.996275 0.00360921
-0.0393835 0.0807728 0.995954 0.00360402
-0.0411484 0.0830008 0.9957 0.00391689
-0.0387213 0.0796488 0.996071 0.00138706
-0.042397 0.0851983 0.995462 0.00434007
-0.0444782 0.0863046 0.995275 0.00145154
-0.0422531 0.0873927 0.995277 0
-0.0436119 0.0867901 0.995272 0
-0.0444171 0.0952527 0.994462 0
-0.0450848 0.106751 0.993263 0
-0.0520541 0.12434 0.990873 8.08697e-05
-0.0516261 0.133327 0.989727 0.008344
-0.0534169 0.135534 0.989332 0.0173194
-0.0529243 0.134674 0.989476 0.0179155
-0.0533184 0.14265 0.988336 0.023698
-0.0533197 0.146508 0.987772 0.0273169
-0.0545251 0.155869 0.986272 0.0291058
-0.0524237 0.168336 0.984335 0.030794
-0.0529144 0.177318 0.98273 0.0295306
-0.0560431 0.184684 0.981199 0.0370221
-0.0576323 0.198456 0.978414 0.0402218
-0.063482 0.212419 0.975114 0.0456796
-0.0646911 0.220493 0.973241 0.0490763
-0.0679815 0.236764 0.969186 0.0503541
-0.0683582 0.251065 0.965553 0.0501919
-0.0698322 0.25238 0.965105 0.0501996
-0.0673429 0.247107 0.966645 0.0464551
-0.0639359 0.240776 0.968473 0.0430153
-0.0591 0.229567 0.971497 0.0342708
-0.0570933 0.225898 0.972476 0.0288542
-0.0529016 0.231936 0.971291 0.0255205
-0.051534 0.228406 0.972201 0.0240142
-0.0448735 0.218197 0.974873 0.0156263
-0.0378708 0.209716 0.977029 0.00873619
-0.0329858 0.206046 0.977986 0.000915813
-0.0237658 0.200218 0.979463 0
-0.0225005 0.186276 0.98224 0
-0.0263358 0.200601 0.979319 0
-0.0261957 0.202848 0.97886 0
-0.0250462 0.201322 0.979205 0
-0.0529533 -0.34682 0.936436 0.0027117
-0.0526963 -0.361577 0.930852 0
-0.0486955 -0.359099 0.932028 0
-0.0440279 -0.364877 0.930014 0
-0.0265535 -0.339399 0.940268 0
-0.0238836 -0.330889 0.943367 0
-0.0234298 -0.320175 0.947069 0
-0.0222902 -0.310299 0.950378 0
-0.0284473 -0.315463 0.948511 0.0033581
-0.0288865 -0.324344 0.945498 0.00896256
-0.0316828 -0.315815 0.948292 0.0149455
-0.0350935 -0.298731 0.953692 0.00814661
-0.0376168 -0.29679 0.954202 0.0117237
-0.0442671 -0.302072 0.952257 0.0147048
-0.0487008 -0.300673 0.952483 0.0129264
-0.0574855 -0.281584 0.957813 0.0220698
-0.0625857 -0.280838 0.957712 0.027086
-0.0655647 -0.280047 0.957745 0.0268484
-0.0634716 -0.277295 0.958686 0.0216158
-0.0626934 -0.270585 0.960653 0.0172393
-0.0558492 -0.268603 0.961631 0.00930479
-0.0560748 -0.272018 0.960657 0.00720248
-0.0532933 -0.264744 0.962845 0.00925415
-0.0528666 -0.255705 0.965308 0.0104693
-0.0525434 -0.23923 0.96954 0.0122185
-0.0483378 -0.23626 0.970487 0.00737906
-0.0475847 -0.23923 0.969796 0.00787068
-0.0448398 -0.245609 0.968331 0.00679245
-0.043428 -0.239625 0.969894 0.00761737
-0.0379823 -0.228163 0.972882 0
-0.0400463 -0.231653 0.971974 0
-0.0398795 -0.222906 0.974024 0
-0.0395836 -0.218547 0.975023 0
-0.0395153 -0.217894 0.975172 0
-0.039256 -0.221559 0.974356 0
-0.0375813 -0.226889 0.973195 0
-0.0370039 -0.228273 0.972894 0
-0.0355068 -0.22593 0.973496 0
-0.0312461 -0.220224 0.974949 0
-0.0276657 -0.22076 0.974936 0
-0.0273182 -0.22097 0.974898 0
-0.0295012 -0.221746 0.974658 0
-0.0284425 -0.218417 0.975441 0
-0.030624 -0.215424 0.97604 0
-0.0281307 -0.21082 0.97712 0
-0.0260337 -0.208509 0.977674 0
-0.0323152 -0.209004 0.977381 0
-0.0311614 -0.203296 0.978621 0
-0.0314179 -0.201106 0.979065 0
-0.0369208 -0.194301 0.980247 0
-0.0358653 -0.190795 0.980975 0
-0.0453212 -0.183266 0.982018 0
-0.0432491 -0.176542 0.983343 0
-0.0482607 -0.174661 0.983445 0
-0.0465049 -0.171222 0.984134 0
-0.0450427 -0.166172 0.985067 0
-0.0431888 -0.164635 0.985409 0
-0.0489268 -0.158777 0.986101 0
-0.0533091 -0.153397 0.986726 0.00151252
-0.0636754 -0.150718 0.986524 0.00668408
-0.0717303 -0.146053 0.986673 0.0198623
-0.0748784 -0.140416 0.987257 0.0285146
-0.0736881 -0.137447 0.987764 0.0271336
-0.080028 -0.139351 0.987004 0.0370005
-0.0872668 -0.132984 0.987269 0.040978
-0.0936218 -0.127734 0.98738 0.0414991
-0.0964037 -0.124563 0.987517 0.0408676
-0.0970046 -0.125138 0.987386 0.0416243
-0.0938099 -0.118773 0.98848 0.0392164
-0.0852937 -0.114824 0.989717 0.0296415
-0.0794739 -0.112531 0.990465 0.0222883
-0.0835678 -0.105376 0.990915 0.0264609
-0.0891738 -0.104997 0.990466 0.0419453
-0.0885672 -0.0998983 0.991048 0.0498402
-0.0887217 -0.0936991 0.991639 0.0479236
-0.0764566 -0.0921112 0.992809 0.0358093
-0.0642427 -0.0905845 0.993815 0.0270534
-0.0564812 -0.0928052 0.994081 0.0311577
-0.0448207 -0.09183 0.994766 0.0272343
-0.0333531 -0.0869045 0.995658 0.0214275
-0.0218159 -0.086188 0.99604 0.00821683
-0.0140497 -0.0881663 0.996007 0
-0.0117606 -0.0868307 0.996154 0
-0.0194915 -0.0835459 0.996313 0.0109283
-0.0272361 -0.0767091 0.996681 0.0200905
-0.0331189 -0.0717394 0.996873 0.0206964
-0.0309916 -0.0750938 0.996695 0.00682689
-0.0273341 -0.0844612 0.996052 0
-0.0274022 -0.08972 0.99559 0
-0.0346292 -0.0873403 0.995576 0
-0.0402235 -0.0850871 0.995561 0
-0.0471128 -0.0803523 0.995652 0
-0.0524561 -0.0773647 0.995622 0
-0.0555165 -0.0688951 0.996078 0
-0.0564175 -0.0668489 0.996167 0
-0.0572874 -0.0673613 0.996083 0
-0.051466 -0.0722045 0.996061 0
-0.0409544 -0.079944 0.995958 0
-0.0315543 -0.0826346 0.99608 0
-0.0197838 -0.0866561 0.996042 0
-0.0122169 -0.0898734 0.995878 0
-0.0044191 -0.0946153 0.995504 0
-0.004072 -0.0958037 0.995392 0
-0.00478937 -0.0921729 0.995731 0
-0.00855852 -0.0887068 0.996021 0
-0.0141802 -0.0863385 0.996165 0
-0.0217821 -0.0829977 0.996312 0
-0.0245503 -0.0792023 0.996556 0
-0.0258373 -0.0753374 0.996823 0
-0.0225828 -0.0772137 0.996759 0
-0.0173614 -0.0792139 0.996706 0
-0.00674822 -0.0838773 0.996453 0
0.00140903 -0.0871218 0.996197 0
0.00719363 -0.088313 0.996067 0
0.0137981 -0.0872084 0.996095 0
0.0121996 -0.0843801 0.996359 0
0.0100331 -0.0809521 0.996667 0
0.00999046 -0.0772911 0.996958 0
0.00787506 -0.0702033 0.997502 0
0.00624106 -0.0715959 0.997414 0
0.0042535 -0.0700582 0.997534 0
0.00905669 -0.0732415 0.997273 0
0.0131791 -0.0713803 0.997362 0
0.0151198 -0.0712039 0.997347 0
0.0125777 -0.0688711 0.997546 0
0.00488091 -0.068669 0.997627 0
0.001068 -0.0625561 0.998041 0
-0.00219487 -0.0602358 0.998182 0
-0.0135234 -0.0597801 0.99812 0
-0.028982 -0.05384 0.998129 0
-0.0443701 -0.0546747 0.997518 0
-0.0498438 -0.0407512 0.997925 0
-0.0640785 -0.0387926 0.997191 0.0102142
-0.0762723 -0.0369649 0.996402 0.0115906
-0.0864 -0.0306396 0.995789 0.0227698
-0.097982 -0.0292197 0.994759 0.0306921
-0.0977537 -0.0263183 0.994863 0.0309997
-0.0934319 -0.0265164 0.995273 0.0292349
-0.0914912 -0.02133 0.995577 0.0362945
-0.0922612 -0.0191356 0.995551 0.0402108
-0.092235 -0.0150853 0.995623 0.04267
-0.0885536 -0.00969018 0.996024 0.0509173
-0.0915771 -0.00995806 0.995748 0.0624203
-0.0941621 0.000478923 0.995557 0.0744642
-0.103452 0.00681907 0.994611 0.0863065
-0.112411 0.014529 0.993556 0.0937979
-0.125393 0.0254196 0.991782 0.0997845
-0.131249 0.023164 0.991079 0.0951801
-0.132758 0.0172588 0.990998 0.0907644
-0.142918 0.0215425 0.9895 0.0941941
-0.156664 0.0220089 0.987407 0.0956189
-0.158935 0.0221506 0.987041 0.0951664
-0.157537 0.0164035 0.987377 0.0960367
-0.153743 0.0158391 0.987984 0.0943595
-0.144244 0.015546 0.98942 0.0864067
-0.138102 0.0136475 0.990324 0.0807599
-0.130125 0.0195674 0.991305 0.0736955
-0.119296 0.0126851 0.992778 0.0673131
-0.111666 0.00783215 0.993715 0.0667411
-0.101974 0.00280375 0.994783 0.0663419
-0.0949788 3.64583e-05 0.995479 0.0639772
-0.0906742 -0.0026739 0.995877 0.0579617
-0.0889434 -0.00704 0.996012 0.0602942
-0.0898323 -0.00572394 0.99594 0.0639133
-0.0941425 0.00131291 0.995558 0.0707528
-0.0911672 0.00434126 0.995826 0.0734667
-0.0929367 0.00450156 0.995662 0.0775261
-0.0946029 0.000338665 0.995515 0.0794434
-0.105074 0.0101071 0.994413 0.0821139
-0.113447 0.015564 0.993422 0.0846164
-0.118069 0.0159011 0.992878 0.0884568
-0.126118 0.0229567 0.99175 0.0950053
-0.127204 0.0293867 0.991441 0.096045
-0.124364 0.0299111 0.991786 0.0928409
-0.115707 0.0256991 0.992951 0.0872834
-0.105837 0.0125228 0.994305 0.0845854
-0.104521 0.0153628 0.994404 0.0854975
-0.103947 0.0185705 0.994409 0.0800457
-0.104363 0.0135865 0.994446 0.0760685
-0.107978 0.00726326 0.994127 0.0718317
-0.111771 0.00470602 0.993723 0.0651871
-0.114455 -0.000263203 0.993428 0.0594574
-0.116348 0.0039842 0.993201 0.0572102
-0.117274 0.00152258 0.993098 0.0538012
-0.107898 -0.00422267 0.994153 0.047169
-0.0846476 -0.0138448 0.996315 0.0285935
-0.0602205 -0.0202412 0.99798 0.00482741
-0.0499686 -0.0260885 0.99841 0
-0.0420328 -0.031191 0.998629 0
-0.0395913 -0.0376878 0.998505 0
-0.0328093 -0.0400747 0.998658 0
-0.0357591 -0.0373924 0.998661 0
-0.0387116 -0.034284 0.998662 0
-0.0407164 -0.0333163 0.998615 0
-0.0455245 -0.0266659 0.998607 0
-0.0529698 -0.0203318 0.998389 0
-0.0551376 -0.0152082 0.998363 0
-0.0516073 -0.0117379 0.998599 0
-0.0456955 -0.0116728 0.998887 0.0011325
-0.0410303 -0.0123242 0.999082 0.00508993
-0.0368806 -0.00788502 0.999289 0.00408851
-0.0307019 0.000646776 0.999528 0.00377191
-0.0221981 -0.000433491 0.999754 0.00378952
-0.0206965 0.000782484 0.999786 0.00238081
-0.0226551 0.00370654 0.999736 0.00366466
-0.0294222 0.0127677 0.999485 0.00988851
-0.0360178 0.0139991 0.999253 0.0156681
-0.0314701 0.010696 0.999447 0.00722118
-0.032562 0.0155868 0.999348 0.00372921
-0.0297119 0.015334 0.999441 0.00448464
-0.0291503 0.0273165 0.999202 0.0085956
-0.0292009 0.0340989 0.998992 0.0106917
-0.0346728 0.0390267 0.998636 0.0155023
-0.0368732 0.0373466 0.998622 0.0180644
-0.0345317 0.0325537 0.998873 0.0061259
-0.0427654 0.0394792 0.998305 0.00597358
-0.0441272 0.0413647 0.998169 0.0078187
-0.0410308 0.0505303 0.997879 0.0172099
-0.0408841 0.055538 0.997619 0.0159254
-0.0425115 0.0611731 0.997222 0.0161482
-0.0445686 0.063781 0.996968 0.0220577
-0.0444197 0.0693804 0.996601 0.0281042
-0.0434401 0.0699128 0.996607 0.0291265
-0.0442872 0.0769937 0.996047 0.0306022
-0.0451281 0.0709307 0.99646 0.0241105
-0.0396796 0.0647081 0.997115 0.0131108
-0.0441624 0.0635927 0.996998 0.0133353
-0.0510955 0.0684211 0.996347 0.0194033
-0.0477524 0.066328 0.996655 0.0142706
-0.0492625 0.072524 0.996149 0.0137112
-0.0450333 0.0744316 0.996209 0.00958742
-0.0425613 0.07141 0.996539 0.0076326
-0.0426934 0.0717664 0.996507 0.00965168
-0.0412114 0.0709013 0.996632 0.00502111
-0.0435589 0.0750145 0.996231 0.0061803
-0.0458629 0.0761323 0.996042 0.00357418
-0.0436687 0.0784513 0.995961 0.00484994
-0.0444506 0.0833973 0.995525 0.00463402
-0.0442734 0.0840162 0.99548 0.00536778
-0.0428154 0.0807652 0.995813 0
-0.0441745 0.0842335 0.995466 0.00140962
-0.0449725 0.0837155 0.995474 0.00185638
-0.0463637 0.084366 0.995356 0
-0.0478837 0.0873262 0.995028 0.000463099
-0.0466455 0.0866961 0.995142 0
-0.048475 0.0963083 0.99417 0
-0.0484698 0.108993 0.99286 0
-0.0511226 0.123244 0.991059 0.00243754
-0.0484076 0.131475 0.990137 0.00843978
-0.0481947 0.137477 0.989332 0.0136776
-0.0511447 0.139959 0.988836 0.0219356
-0.0525931 0.15289 0.986843 0.0246283
-0.0509765 0.150676 0.987268 0.0259032
-0.0544522 0.161677 0.98534 0.0281398
-0.0545416 0.171429 0.983686 0.0286133
-0.056219 0.18516 0.981099 0.0307951
-0.0571621 0.191362 0.979854 0.0368722
-0.0567718 0.196628 0.978833 0.0385662
-0.0619395 0.211981 0.975309 0.0478916
-0.0617454 0.208346 0.976104 0.0435154
-0.0651255 0.220612 0.973185 0.0429738
-0.0678822 0.253038 0.965072 0.0487554
-0.0631168 0.245651 0.967301 0.0423459
-0.0624261 0.245152 0.967473 0.0424221
-0.0589297 0.233968 0.970457 0.0392131
-0.0559984 0.223707 0.973046 0.0328836
-0.053106 0.228132 0.972181 0.0305702
-0.0486994 0.230208 0.971922 0.0233739
-0.0440349 0.239232 0.969963 0.0182739
-0.0411344 0.219137 0.974827 0.011164
-0.0356105 0.205254 0.978061 0.00309018
-0.0298026 0.196209 0.980109 0
-0.0276172 0.20008 0.97939 0
-0.0256941 0.195649 0.980337 0
-0.0218991 0.198016 0.979954 0
-0.027626 0.199003 0.979609 0
-0.02236 0.203615 0.978796 0
-0.0539563 -0.364591 0.929603 0
-0.0472046 -0.36502 0.929802 0
-0.0414754 -0.360892 0.931685 0
-0.0254678 -0.331421 0.943139 0
-0.020897 -0.32162 0.946638 0
-0.0198474 -0.303091 0.952755 0.000305084
-0.0237578 -0.308945 0.950783 0.00471593
-0.0298022 -0.321356 0.946489 0.00496683
-0.0310023 -0.323675 0.94566 0.00423223
-0.0359749 -0.302516 0.952465 0.0076433
-0.037532 -0.2995 0.953358 0.0168258
-0.0397711 -0.305434 0.951382 0.013593
-0.0499333 -0.29874 0.953027 0.0144774
-0.053817 -0.278476 0.958934 0.0109525
-0.0625993 -0.275637 0.959221 0.0179919
-0.0637319 -0.282053 0.95728 0.0231061
-0.064573 -0.279099 0.958089 0.0233224
-0.0612949 -0.277431 0.958788 0.0156477
-0.059122 -0.266815 0.961933 0.00941415
-0.0572664 -0.264634 0.962647 0.00591032
-0.0570181 -0.262612 0.963215 0.0102024
-0.0558601 -0.262438 0.963331 0.0097746
-0.0530282 -0.24722 0.967507 0.00749605
-0.0527811 -0.237104 0.970049 0.0112877
-0.0481367 -0.240933 0.969347 0.00852161
-0.0444142 -0.246353 0.968162 0.00834513
-0.0407741 -0.243065 0.969153 0.0030427
-0.0398143 -0.232612 0.971754 0
-0.0407149 -0.226211 0.973227 0
-0.0413967 -0.225762 0.973303 0
-0.041821 -0.217194 0.975232 0
-0.0421903 -0.218456 0.974934 0
-0.0412264 -0.219622 0.974714 0
-0.0406498 -0.223907 0.973762 0
-0.0391135 -0.230977 0.972173 0
-0.0360054 -0.231382 0.972196 0
-0.0317038 -0.227803 0.973191 0
-0.0281891 -0.222268 0.974578 0
-0.0274396 -0.222658 0.97451 0
-0.0300246 -0.228112 0.973172 0
-0.0289821 -0.225833 0.973735 0
-0.0293518 -0.217737 0.975566 0
-0.0246886 -0.211716 0.977019 0
-0.0269868 -0.208005 0.977755 0
-0.0327591 -0.206709 0.977854 0
-0.0378692 -0.2034 0.978363 0
-0.0423362 -0.197686 0.979351 0
-0.043225 -0.196642 0.979522 0
-0.0470242 -0.185676 0.981485 0
-0.049263 -0.181499 0.982156 0
-0.0481511 -0.175375 0.983324 0
-0.0473224 -0.169673 0.984364 0
-0.0472552 -0.169249 0.98444 0
-0.0475482 -0.168464 0.98456 0
-0.0459166 -0.1632 0.985524 0
-0.0516047 -0.15447 0.986649 0
-0.053441 -0.1546 0.986531 0.000462365
-0.0568933 -0.149947 0.987056 0.00262159
-0.070849 -0.143279 0.987143 0.0178213
-0.0777373 -0.137963 0.987382 0.0272868
-0.0769174 -0.136645 0.987629 0.0273624
-0.0803069 -0.138136 0.987152 0.0329832
-0.0842691 -0.134853 0.987276 0.0323586
-0.0849515 -0.132113 0.987588 0.0329249
-0.0854376 -0.128239 0.988056 0.0339045
-0.0881854 -0.124054 0.988349 0.0356971
-0.0840612 -0.123987 0.988717 0.0348086
-0.0768203 -0.119793 0.989822 0.0206289
-0.066612 -0.112693 0.991395 0.0113797
-0.0734845 -0.107099 0.991529 0.0206102
-0.0801475 -0.103575 0.991387 0.0331815
-0.0823183 -0.0995074 0.991626 0.0404979
-0.0797898 -0.0942366 0.992347 0.0378192
-0.0646232 -0.0934201 0.993527 0.023115
-0.0629219 -0.0881774 0.994115 0.0248114
-0.0472686 -0.0906978 0.994756 0.0211188
-0.0364273 -0.0901971 0.995258 0.0189852
-0.02722 -0.0886859 0.995688 0.0100038
-0.0181346 -0.0886601 0.995897 0
-0.0124532 -0.0904046 0.995827 0
-0.011138 -0.0916342 0.99573 0
-0.0212463 -0.0862779 0.996045 0.00423852
-0.0281251 -0.0777493 0.996576 0.0189273
-0.0337857 -0.0713495 0.996879 0.0235119
-0.0357391 -0.0719864 0.996765 0.0171486
-0.0322308 -0.0774129 0.996478 0.0057922
-0.0369362 -0.0810941 0.996022 0
-0.0403948 -0.0801011 0.995968 0
-0.0452826 -0.0807256 0.995707 0
-0.0495256 -0.0756414 0.995904 0
-0.0583347 -0.0726231 0.995652 0
-0.0646799 -0.0665732 0.995683 0.00713093
-0.0662403 -0.0623117 0.995856 0.00841938
-0.0641868 -0.0607846 0.996085 0.00821428
-0.0565226 -0.0679065 0.996089 0
-0.0434963 -0.0804153 0.995812 0
-0.0289804 -0.0859456 0.995878 0
-0.0189434 -0.0877365 0.995964 0
-0.0137323 -0.0900979 0.995838 0
-0.0124064 -0.0924717 0.995638 0
-0.00847152 -0.0942725 0.99551 0
-0.00801909 -0.0934217 0.995594 0
-0.00888387 -0.0907307 0.995836 0
-0.0115954 -0.0943985 0.995467 0
-0.0167897 -0.0927019 0.995552 0
-0.0209766 -0.086138 0.996062 0
-0.0226875 -0.0807379 0.996477 0
-0.0233453 -0.0765322 0.996794 0
-0.0160653 -0.078494 0.996785 0
-0.0044749 -0.0831318 0.996529 0
0.00152536 -0.0856339 0.996325 0
0.0093585 -0.0887542 0.99601 0
0.0158793 -0.0886785 0.995934 0
0.0136091 -0.0795798 0.996736 0
0.0121659 -0.0791448 0.996789 0
0.0101414 -0.0773004 0.996956 0
0.00756207 -0.0698362 0.99753 0
0.0071936 -0.0654584 0.997829 0
0.00580246 -0.0656773 0.997824 0
0.00410433 -0.0691513 0.997598 0
0.00248757 -0.0712682 0.997454 0
0.00329885 -0.0634058 0.997982 0
0.00491428 -0.062502 0.998033 0
0.0054823 -0.0630276 0.997997 0
-0.00167792 -0.0586189 0.998279 0
-0.0125778 -0.0548689 0.998414 0
-0.0246096 -0.0469114 0.998596 0
-0.0392827 -0.0493479 0.998009 0
-0.0472316 -0.0460978 0.99782 0.00236471
-0.0578306 -0.037425 0.997625 0.0155017
-0.0684692 -0.0393036 0.996879 0.0239066
-0.0803329 -0.023313 0.996495 0.0323134
-0.095875 -0.0217486 0.995156 0.0422779
-0.103548 -0.0216241 0.994389 0.0480471
-0.111936 -0.0199051 0.993516 0.0507908
-0.106466 -0.0224364 0.994063 0.05178
-0.105484 -0.0143737 0.994317 0.0539894
-0.103979 -0.0138 0.994484 0.0551012
-0.101057 -0.00992925 0.994831 0.0606769
-0.105566 0.000449014 0.994412 0.0718452
-0.108448 0.00374165 0.994095 0.0798872
-0.111615 0.0120051 0.993679 0.0865523
-0.11985 0.0156316 0.992669 0.0962529
-0.128854 0.0137196 0.991569 0.104029
-0.134542 0.025374 0.990583 0.103535
-0.138814 0.019947 0.990118 0.0992978
-0.140043 0.0209705 0.989923 0.0954828
-0.150613 0.0200316 0.98839 0.0980358
-0.157096 0.0204042 0.987372 0.0952646
-0.156584 0.0204826 0.987452 0.0925598
-0.158931 0.012315 0.987213 0.0952173
-0.150212 0.00868201 0.988616 0.0893825
-0.141677 0.0116507 0.989844 0.0861084
-0.129896 0.0114023 0.991462 0.0759743
-0.118497 0.015746 0.99283 0.0678812
-0.105146 0.00847932 0.994421 0.0635257
-0.0922033 0.00142518 0.995739 0.0569389
-0.0884835 -0.000813311 0.996077 0.0539795
-0.0861234 -0.00327372 0.996279 0.0488194
-0.0875076 -0.00241831 0.996161 0.0501048
-0.0902259 -0.0035964 0.995915 0.056829
-0.0916395 -0.0042297 0.995783 0.0648693
-0.0937707 0.00287359 0.99559 0.0696542
-0.0895496 0.00260703 0.995979 0.0705754
-0.0884639 0.00325683 0.996074 0.0683205
-0.0861104 -0.0054997 0.99627 0.0667261
-0.0893883 0.00100988 0.995996 0.0624076
-0.102011 0.00878547 0.994744 0.0700035
-0.106707 0.00919759 0.994248 0.0751917
-0.114093 0.0184553 0.993299 0.0793404
-0.108608 0.0125784 0.994005 0.0777859
-0.103662 0.0200669 0.99441 0.0777058
-0.0976747 0.0211047 0.994995 0.0794742
-0.0870218 0.010405 0.996152 0.0735091
-0.088402 0.016693 0.995945 0.0766604
-0.0935182 0.0134945 0.995526 0.0765886
-0.0995746 0.0149192 0.994918 0.075883
-0.108852 0.0122537 0.993982 0.0750366
-0.115206 0.00122225 0.993341 0.0735295
-0.120724 0.00815871 0.992653 0.0681781
-0.122157 0.0114278 0.992445 0.062796
-0.121115 0.0108644 0.992579 0.059076
-0.107024 0.0011935 0.994256 0.0494952
-0.0848828 -0.0142642 0.996289 0.0337557
-0.0625744 -0.0188492 0.997862 0.0116481
-0.0499406 -0.0268372 0.998392 0
-0.0425996 -0.0364237 0.998428 0
-0.0404818 -0.0441349 0.998205 0
-0.0414959 -0.0390858 0.998374 0
-0.0380849 -0.0375111 0.99857 0
-0.0397327 -0.047553 0.998078 0
-0.0427625 -0.0438961 0.99812 0
-0.0432379 -0.0358142 0.998423 0
-0.0460223 -0.0316487 0.998439 0
-0.0456073 -0.024298 0.998664 0
-0.0426512 -0.0235724 0.998812 0
-0.0387797 -0.0144208 0.999144 0
-0.0321109 -0.0146284 0.999377 0
-0.0259537 -0.0136825 0.999569 0
-0.0185193 -0.00770137 0.999799 0
-0.0090127 -0.00650368 0.999938 0
-0.00897759 -0.00325851 0.999954 0
-0.0134157 0.00621373 0.999891 0
-0.0201082 0.00799334 0.999766 0
-0.0214137 0.00953932 0.999725 0.00440267
-0.0224853 0.0108607 0.999688 0.00457775
-0.0240638 0.0137469 0.999616 0.00364542
-0.0252715 0.0195582 0.999489 0.00720634
-0.0267317 0.0254454 0.999319 0.00859958
-0.029341 0.0359729 0.998922 0.0142226
-0.0318954 0.0395553 0.998708 0.01457
-0.0316753 0.0321299 0.998982 0.01598
-0.0357207 0.0353422 0.998737 0.00928039
-0.0360902 0.0327478 0.998812 0.00366715
-0.0327505 0.0417567 0.998591 0.00467972
-0.035397 0.0449774 0.998361 0.00968867
-0.0403836 0.0513048 0.997866 0.0103104
-0.0397372 0.0571483 0.997575 0.0149258
-0.0369059 0.0603967 0.997492 0.0165759
-0.0366582 0.0597419 0.997541 0.0180192
-0.0368284 0.0648951 0.997212 0.0203023
-0.0337797 0.0617571 0.997519 0.0189841
-0.035462 0.0673825 0.997097 0.0188763
-0.0346929 0.0641677 0.997336 0.0130301
-0.038378 0.0595427 0.997488 0.00657655
-0.0465659 0.062108 0.996983 0.0129377
-0.0500146 0.0677915 0.996445 0.0152816
-0.0559596 0.0779196 0.995388 0.0185266
-0.0544862 0.0781804 0.995449 0.0143119
-0.0519951 0.0764453 0.995717 0.0127273
-0.0499632 0.0769821 0.99578 0.0148085
-0.0469539 0.0719342 0.996304 0.0108842
-0.0490835 0.0776234 0.995774 0.0105121
-0.0471155 0.077935 0.995844 0.00596512
-0.0449698 0.0832645 0.995512 0.00272692
-0.0435081 0.0822826 0.995659 0.00621948
-0.0442338 0.0897312 0.994983 0.00594854
-0.0442707 0.0865726 0.995261 0.00122908
-0.0453563 0.0842018 0.995416 0
-0.0480918 0.086917 0.995054 0.000355963
-0.0497613 0.0934381 0.994381 0.00241058
-0.0483477 0.091392 0.994641 0.0007606
-0.0475695 0.0933999 0.994492 0.00265751
-0.0486062 0.0978336 0.994015 0
-0.0503134 0.108624 0.992809 0.00299296
-0.0515347 0.12194 0.991199 0.00591152
-0.0484895 0.12522 0.990943 0.00519298
-0.0479335 0.134076 0.989811 0.0127198
-0.0483078 0.143263 0.988505 0.0203086
-0.0537185 0.157102 0.98612 0.0246912
-0.0529207 0.169215 0.984157 0.0272345
-0.0571853 0.175532 0.982812 0.0304424
-0.0589984 0.185615 0.98085 0.0355226
-0.0592079 0.190732 0.979855 0.0394014
-0.0588103 0.203623 0.977282 0.0415628
-0.0576701 0.204607 0.977144 0.0436247
-0.057903 0.20693 0.976641 0.0427986
-0.0609844 0.212126 0.975338 0.0419841
-0.0643323 0.228359 0.971449 0.0421375
-0.0643528 0.233026 0.970339 0.040418
-0.0619981 0.231832 0.970778 0.0380538
-0.06097 0.226241 0.972161 0.0351604
-0.0576719 0.229463 0.971607 0.0355752
-0.0564558 0.233033 0.970829 0.035835
-0.0518588 0.234658 0.970694 0.0319759
-0.0447876 0.230126 0.97213 0.0204708
-0.0379334 0.213783 0.976144 0.0127446
-0.0347384 0.20515 0.978114 0.00474203
-0.0319885 0.200169 0.979239 0
-0.0300699 0.194503 0.980441 0
-0.0303755 0.20001 0.979323 0
-0.0282473 0.209038 0.9775 0
-0.0260933 0.205079 0.978397 0
-0.0262117 0.205071 0.978396 0
-0.0530239 -0.36993 0.927545 0
-0.0509315 -0.36928 0.927922 0
-0.0431497 -0.365191 0.929932 0
-0.0268505 -0.32513 0.945288 0
-0.0195372 -0.326406 0.945028 0
-0.0186745 -0.319437 0.947423 0
-0.0215472 -0.302056 0.953047 0
-0.0281553 -0.306955 0.951307 0.00487857
-0.0320629 -0.316552 0.948033 0.00226768
-0.0360271 -0.305295 0.951576 0
-0.0369009 -0.301828 0.952648 0.0110539
-0.041008 -0.303961 0.951802 0.00602864
-0.0409643 -0.296166 0.954258 0.00322057
-0.0472406 -0.283583 0.957783 0.00431494
-0.0526052 -0.279562 0.958686 0.00573495
-0.0587444 -0.275134 0.95961 0.0129213
-0.0571387 -0.280472 0.95816 0.0155002
-0.055869 -0.277868 0.958993 0.0102046
-0.0563937 -0.267189 0.961993 0.00562086
-0.0584242 -0.263218 0.962966 0.00376225
-0.0580223 -0.259919 0.963886 0.00610994
-0.056964 -0.256196 0.964945 0.00473027
-0.0572545 -0.257225 0.964654 0.00735242
-0.056839 -0.246659 0.967434 0.0123163
-0.0537149 -0.240039 0.969276 0.00906855
-0.0485763 -0.245345 0.968218 0.00989351
-0.044632 -0.243578 0.968854 0.00560549
-0.0418736 -0.240508 0.969743 0.00193467
-0.0421087 -0.235719 0.970908 0
-0.0429629 -0.228919 0.972497 0
-0.0411984 -0.223818 0.97376 0.000320079
-0.0401031 -0.220776 0.9745 0
-0.038633 -0.222541 0.974158 0
-0.0389948 -0.230569 0.972274 0
-0.0362931 -0.236047 0.971064 0
-0.0342547 -0.237969 0.970669 0
-0.0317824 -0.228968 0.972915 0
-0.0329469 -0.221833 0.974528 0
-0.031419 -0.228899 0.972943 0
-0.0276452 -0.232568 0.972187 0
-0.0240067 -0.230781 0.972709 0
-0.0261974 -0.220393 0.975059 0
-0.0235369 -0.216611 0.975974 0
-0.0240574 -0.213682 0.976607 0
-0.0315403 -0.207331 0.977762 0
-0.0294279 -0.205992 0.978111 0
-0.03735 -0.203907 0.978277 0
-0.0423818 -0.198637 0.979156 0
-0.0463152 -0.191403 0.980418 0
-0.044919 -0.186124 0.981499 0
-0.0482992 -0.179486 0.982574 0
-0.048898 -0.167734 0.984619 0
-0.0419953 -0.17016 0.984521 0
-0.0414254 -0.17011 0.984554 0
-0.041316 -0.167034 0.985085 0
-0.0443645 -0.164461 0.985385 0
-0.0539718 -0.15451 0.986516 0.00221089
-0.0588989 -0.148827 0.987108 0.0125265
-0.059768 -0.144208 0.987741 0.0118624
-0.0651727 -0.139914 0.988016 0.0176131
-0.0706866 -0.138717 0.987806 0.0162196
-0.0733694 -0.139967 0.987434 0.0166629
-0.0685269 -0.138775 0.98795 0.0135032
-0.0704126 -0.13719 0.988039 0.0156807
-0.0720877 -0.131095 0.988745 0.0191495
-0.076418 -0.123464 0.989402 0.0296844
-0.0730542 -0.122017 0.989836 0.0277773
-0.0703477 -0.121398 0.990108 0.0196981
-0.0651009 -0.118439 0.990825 0.0126352
-0.0722419 -0.1102 0.991281 0.0225421
-0.0819547 -0.102893 0.99131 0.0344712
-0.0857289 -0.0974835 0.991538 0.0402492
-0.0777433 -0.0936062 0.992569 0.0289938
-0.068177 -0.0946291 0.993175 0.0248799
-0.0653741 -0.0931455 0.993504 0.0311646
-0.0553389 -0.0917282 0.994245 0.0327935
-0.0426572 -0.0891645 0.995103 0.0262798
-0.0323598 -0.0858767 0.99578 0.0221296
-0.028349 -0.084312 0.996036 0.0167529
-0.0248896 -0.0812874 0.99638 0.00684871
-0.020322 -0.0820322 0.996422 0.00040364
-0.0246241 -0.0811248 0.9964 0.00259733
-0.0286185 -0.0763834 0.996668 0.01772
-0.0338711 -0.0697216 0.996991 0.0252216
-0.0318819 -0.0681442 0.997166 0.0214611
-0.027964 -0.0727073 0.996961 0.0123922
-0.0334725 -0.0753878 0.996592 0.00989098
-0.0400832 -0.0765588 0.996259 0.016015
-0.0503937 -0.0726285 0.996085 0.0176053
-0.055016 -0.0730212 0.995812 0.0103115
-0.0644449 -0.0674791 0.995637 0.0136494
-0.0733341 -0.0611169 0.995433 0.0190641
-0.0721839 -0.0574246 0.995737 0.017741
-0.0701185 -0.0553397 0.996002 0.0194027
-0.0573554 -0.0649476 0.996239 0.00178918
-0.0501161 -0.0755132 0.995885 0
-0.032824 -0.0847072 0.995865 0
-0.0278909 -0.0855401 0.995944 0
-0.023431 -0.0883594 0.995813 0
-0.0196329 -0.0926112 0.995509 0
-0.0174024 -0.0912689 0.995674 0
-0.0147972 -0.0941484 0.995448 0
-0.010393 -0.0938731 0.99553 0
-0.0116791 -0.097766 0.995141 0
-0.0197656 -0.0963232 0.995154 0
-0.0248179 -0.0870343 0.995896 0
-0.0279423 -0.0828137 0.996173 0
-0.0253528 -0.0788875 0.996561 0
-0.0127987 -0.075793 0.997041 0
-0.00429984 -0.0781576 0.996932 0
0.0044085 -0.0823497 0.996594 0
0.0119613 -0.0884577 0.996008 0
0.0109638 -0.0837866 0.996423 0
0.010839 -0.0807876 0.996672 0
0.00823769 -0.0756869 0.997098 0
0.00654801 -0.0730588 0.997306 0
0.00355725 -0.0735318 0.997287 0
-0.000349803 -0.0616385 0.998098 0
-0.00111474 -0.0622934 0.998057 0
0.0019169 -0.0597183 0.998213 0
-0.00161011 -0.0607436 0.998152 0
-0.00139217 -0.0557166 0.998446 0
-0.00101052 -0.0514982 0.998673 0
-0.00542598 -0.0505879 0.998705 0
-0.0102286 -0.044325 0.998965 0
-0.0226166 -0.0439994 0.998776 0.000162329
-0.0323929 -0.0423985 0.998576 0.00923652
-0.0475726 -0.0354298 0.998239 0.0205888
-0.0558631 -0.0371662 0.997746 0.0241993
-0.0655238 -0.0311942 0.997363 0.0281649
-0.0758204 -0.0309444 0.996641 0.0329299
-0.083529 -0.0230617 0.996238 0.0383051
-0.0981837 -0.0160257 0.995039 0.0466999
-0.109095 -0.0206421 0.993817 0.052568
-0.115229 -0.0171869 0.99319 0.0534531
-0.115289 -0.0150913 0.993217 0.0611597
-0.115075 -0.0132767 0.993268 0.06725
-0.117537 -0.00541691 0.993054 0.0728469
-0.11957 -0.00539827 0.992811 0.0800872
-0.118219 -0.00466814 0.992977 0.083771
-0.12112 0.00508028 0.992625 0.0891367
-0.12511 0.0141019 0.992043 0.0972873
-0.131499 0.0209947 0.991094 0.102049
-0.137773 0.0163596 0.990329 0.103999
-0.136755 0.0122428 0.990529 0.0981928
-0.134425 0.012902 0.99084 0.0924773
-0.133566 0.0129375 0.990955 0.086751
-0.138955 0.0138168 0.990202 0.0855267
-0.140803 0.0163232 0.989903 0.0848196
-0.13982 0.0134687 0.990085 0.0839161
-0.134981 0.00769756 0.990818 0.0786031
-0.128129 0.00673737 0.991735 0.0743303
-0.126945 0.00129469 0.991909 0.07369
-0.116118 0.00153584 0.993234 0.0662124
-0.104113 0.0079085 0.994534 0.0604181
-0.0931615 0.00116051 0.99565 0.0533214
-0.0837545 -0.0014412 0.996485 0.0405961
-0.0813984 -0.00742309 0.996654 0.0360342
-0.0798148 -0.00525736 0.996796 0.0374394
-0.0764811 -0.00994136 0.997021 0.0358265
-0.0796978 -0.00712725 0.996794 0.0450088
-0.0832037 -0.00357134 0.996526 0.0543799
-0.0822752 -0.000405719 0.99661 0.0581645
-0.0824579 0.00449511 0.996584 0.061934
-0.0821594 0.000728959 0.996619 0.0560547
-0.0845657 -0.00679186 0.996395 0.0547755
-0.0899554 -0.00069166 0.995946 0.0542896
-0.0964082 -0.0029044 0.995338 0.0577709
-0.10031 -0.000658307 0.994956 0.0578904
-0.10501 0.00465732 0.99446 0.0653347
-0.103484 0.00228025 0.994629 0.0679458
-0.0970348 0.0114639 0.995215 0.0659528
-0.0915883 0.0174074 0.995645 0.0670912
-0.0846444 0.0122652 0.996336 0.0671164
-0.0865114 0.0114766 0.996185 0.0705517
-0.0861266 0.00369965 0.996277 0.0706702
-0.091954 0.00485162 0.995751 0.0715393
-0.0986398 0.00582848 0.995106 0.0674439
-0.103909 -0.00503113 0.994574 0.0663872
-0.111525 0.00326679 0.993756 0.0624217
-0.112229 0.00867483 0.993644 0.0615091
-0.111454 0.0109692 0.993709 0.0613894
-0.101116 0.000574217 0.994875 0.0576679
-0.0822806 -0.0177055 0.996452 0.0429553
-0.0595404 -0.0236654 0.997945 0.0149722
-0.0429061 -0.0278238 0.998692 0
-0.03371 -0.0365083 0.998765 0
-0.0278366 -0.0482214 0.998449 0
-0.0299575 -0.0423607 0.998653 0
-0.0330041 -0.0402865 0.998643 0
-0.03529 -0.0522724 0.998009 0
-0.0405748 -0.0424961 0.998272 0
-0.0421873 -0.036817 0.998431 0
-0.0490119 -0.0324961 0.998269 0
-0.0426444 -0.030068 0.998638 0
-0.0384069 -0.0275092 0.998883 0
-0.0332333 -0.0149138 0.999336 0
-0.0280121 -0.0119333 0.999536 0.00317472
-0.0252612 -0.0127712 0.999599 0.0116149
-0.0209228 -0.00733243 0.999754 0.00757998
-0.0177305 -0.0077507 0.999813 0.000321846
-0.0126514 -0.00560914 0.999904 0
-0.016116 0.00475736 0.999859 0
-0.0196789 0.00520154 0.999793 0
-0.0206469 0.0101194 0.999736 0.00098789
-0.0185195 0.00723922 0.999802 0
-0.0144532 0.0081751 0.999862 2.82247e-05
-0.0190402 0.0217394 0.999582 0.00632781
-0.019734 0.0257258 0.999474 0.0107847
-0.0227045 0.0332233 0.99919 0.0152359
-0.0255877 0.0360312 0.999023 0.0152462
-0.023749 0.0303822 0.999256 0.0100283
-0.0237362 0.0313272 0.999227 0.00311356
-0.0280858 0.0336055 0.99904 0
-0.0286059 0.0375157 0.998887 0
-0.0319321 0.0386849 0.998741 0
-0.0346995 0.0418397 0.998522 0.00214072
-0.0389831 0.0510398 0.997935 0.00812747
-0.0332213 0.0509163 0.99815 0.00449894
-0.0357825 0.0529814 0.997954 0.00831748
-0.0352403 0.0581963 0.997683 0.0114404
-0.0290987 0.058572 0.997859 0.0120494
-0.0256029 0.0643569 0.997598 0.0123846
-0.0336229 0.0684823 0.997086 0.0200838
-0.0368775 0.0665944 0.997098 0.0114829
-0.0411092 0.0675571 0.996868 0.0183122
-0.0434185 0.0686956 0.996692 0.0188172
-0.0468372 0.0773656 0.995902 0.0192277
-0.043524 0.0775402 0.996039 0.0121506
-0.0424299 0.0761201 0.996195 0.0072906
-0.0469049 0.0742244 0.996138 0.0164935
-0.0491792 0.0803762 0.995551 0.0195129
-0.0485531 0.0841821 0.995267 0.0193361
-0.0477885 0.0853785 0.995202 0.0180933
-0.0455085 0.0852918 0.995316 0.0148151
-0.0447562 0.0907241 0.99487 0.0119555
-0.0425993 0.0922732 0.994822 0.00803266
-0.0449367 0.0946722 0.994494 0.00571181
-0.0475595 0.0904135 0.994768 0.00731877
-0.0482392 0.0940237 0.994401 0.00681789
-0.0496132 0.0964507 0.9941 0.00832277
-0.0481809 0.0942538 0.994382 0.00505437
-0.0491867 0.0995558 0.993816 0.00695488
-0.0514597 0.109431 0.992661 0.0114367
-0.0534578 0.113494 0.992099 0.0103721
-0.0530045 0.123427 0.990937 0.0107714
-0.0481927 0.126033 0.990855 0.00896784
-0.0466302 0.133112 0.990003 0.0105837
-0.0488809 0.138223 0.989194 0.0155409
-0.0538137 0.157265 0.986089 0.0238461
-0.0541117 0.174992 0.983082 0.026277
-0.0542623 0.186192 0.981014 0.031781
-0.0557694 0.196245 0.978968 0.0383873
-0.0570916 0.202534 0.97761 0.044108
-0.0584045 0.20813 0.976356 0.0452446
-0.058887 0.217199 0.974349 0.0473323
-0.0577054 0.213167 0.97531 0.0452572
-0.0571428 0.21484 0.974976 0.0425015
-0.0600853 0.217915 0.974116 0.0402241
-0.0617496 0.223507 0.972744 0.0397104
-0.0613509 0.222612 0.972975 0.0342774
-0.0602306 0.227326 0.971954 0.031916
-0.061877 0.232168 0.970706 0.036248
-0.0580491 0.23592 0.970037 0.0308798
-0.0507821 0.217564 0.974724 0.0251705
-0.0479903 0.227977 0.972483 0.0205626
-0.0388557 0.230332 0.972336 0.0157954
-0.0338026 0.221567 0.974559 0.00735881
-0.0294932 0.220635 0.97491 0.00876844
-0.0256087 0.201038 0.979249 0.00470635
-0.0258822 0.205317 0.978353 0.00569292
-0.0274837 0.223727 0.974264 0.000114167
-0.0228433 0.212128 0.976975 0
-0.0239244 0.197976 0.979915 0
-0.0442402 -0.364844 0.930017 0
-0.0388379 -0.362378 0.931222 0
-0.0327649 -0.348733 0.936649 0
-0.0258102 -0.341363 0.939577 0
-0.0219273 -0.343608 0.938857 0
-0.0198971 -0.348334 0.937159 0
-0.016613 -0.338668 0.940759 0
-0.0178529 -0.327655 0.944629 0
-0.0253034 -0.304488 0.95218 0
-0.028376 -0.303008 0.952565 0.00534122
-0.0301008 -0.307713 0.951003 0.00585423
-0.0321864 -0.302739 0.95253 0.0023409
-0.0320574 -0.30276 0.952527 0
-0.0383726 -0.295873 0.954456 0
-0.0437099 -0.297168 0.953824 0
-0.0422273 -0.290261 0.956016 0
-0.0443418 -0.283297 0.958007 0
-0.0503972 -0.27443 0.960286 0
-0.0556032 -0.269428 0.961414 0
-0.0587442 -0.268032 0.961617 0.00385389
-0.0648891 -0.266648 0.961607 0.00640962
-0.0692352 -0.268487 0.960792 0.0160651
-0.072406 -0.262015 0.962344 0.0221155
-0.0720527 -0.254777 0.964312 0.0184259
-0.0664384 -0.248676 0.966305 0.0154701
-0.0623657 -0.24064 0.968609 0.0102729
-0.0585716 -0.245 0.967752 0.00656405
-0.0540727 -0.243067 0.968501 0.00509234
-0.0532491 -0.240249 0.96925 0.00838878
-0.0505286 -0.238275 0.969882 0.00584373
-0.0438211 -0.228461 0.972566 0.000128325
-0.0384879 -0.232854 0.97175 0
-0.0378802 -0.227609 0.973016 0
-0.0377464 -0.224052 0.973846 0
-0.0367948 -0.221813 0.974395 0
-0.0370368 -0.227366 0.973105 0
-0.0367657 -0.230167 0.972456 0
-0.0333825 -0.227965 0.973097 0
-0.0330015 -0.219962 0.97495 0
-0.0340825 -0.22006 0.974891 0
-0.0339935 -0.223893 0.974021 0
-0.031072 -0.226455 0.973526 0
-0.0312787 -0.222726 0.974379 0
-0.0296978 -0.214456 0.976282 0
-0.0358374 -0.214636 0.976036 0
-0.034117 -0.211853 0.976706 0
-0.0305581 -0.209455 0.977341 0
-0.0370776 -0.205532 0.977948 0
-0.0360452 -0.197477 0.979645 0
-0.0331365 -0.2001 0.979215 0
-0.0385509 -0.194562 0.980132 0
-0.0397946 -0.196919 0.979612 0
-0.0433891 -0.184918 0.981796 0
-0.0396416 -0.18011 0.982847 0
-0.0450919 -0.172269 0.984017 0
-0.0430295 -0.168308 0.984795 0
-0.0539163 -0.15843 0.985897 0
-0.0599992 -0.155138 0.986069 0
-0.0601401 -0.153525 0.986313 0
-0.0578339 -0.148872 0.987164 0.00429336
-0.0537362 -0.147324 0.987628 0.00368231
-0.0565234 -0.141158 0.988372 0.00249042
-0.0564122 -0.14124 0.988367 0.00310389
-0.0557501 -0.142145 0.988275 0
-0.0536476 -0.13972 0.988737 0.00223023
-0.0548327 -0.133357 0.98955 0.0110558
-0.0519008 -0.124249 0.990893 0.0127918
-0.0523462 -0.122659 0.991067 0.010865
-0.0501042 -0.120545 0.991443 0.0126858
-0.0546535 -0.12266 0.990943 0.0130739
-0.062417 -0.116863 0.991185 0.0165528
-0.0673538 -0.106657 0.992012 0.0197195
-0.0636793 -0.104598 0.992474 0.0188034
-0.0567371 -0.103872 0.992971 0.0152424
-0.0502641 -0.100024 0.993715 0.0120624
-0.0436742 -0.0979106 0.994236 0.00666805
-0.0470057 -0.0925801 0.994595 0.0184596
-0.0477022 -0.0889145 0.994896 0.0220416
-0.044617 -0.088973 0.995034 0.0240541
-0.0378586 -0.0876458 0.995432 0.0242396
-0.0344913 -0.0829234 0.995959 0.0223007
-0.0431388 -0.075424 0.996218 0.0330616
-0.0486498 -0.0704265 0.99633 0.0429184
-0.0549263 -0.0653826 0.996347 0.0470189
-0.055216 -0.0616477 0.99657 0.0451341
-0.056625 -0.0594771 0.996622 0.0437996
-0.059112 -0.0630274 0.99626 0.0447721
-0.0541005 -0.0653972 0.996392 0.0421261
-0.053453 -0.0710503 0.996039 0.0321956
-0.0534162 -0.0720471 0.99597 0.0225937
-0.0521541 -0.0689537 0.996256 0.0141276
-0.0553431 -0.0692548 0.996063 0.0151995
-0.0589408 -0.0613878 0.996372 0.0229869
-0.0595843 -0.0616308 0.996319 0.0212416
-0.0521698 -0.064193 0.996573 0.00815077
-0.0384816 -0.0715997 0.996691 0
-0.0294802 -0.083096 0.996105 0
-0.0239981 -0.083306 0.996235 0
-0.0176494 -0.0895917 0.995822 0
-0.016767 -0.0927523 0.995548 0
-0.0111002 -0.0942467 0.995487 0
-0.0073059 -0.0967024 0.995287 0
-0.00269449 -0.100461 0.994937 0
0.00140207 -0.101578 0.994827 0
-0.000266192 -0.103563 0.994623 0
-0.00222885 -0.105284 0.99444 0
-0.00618736 -0.0970328 0.995262 0
-0.00997962 -0.0877571 0.996092 0
-0.00902342 -0.0812215 0.996655 0
-0.000345439 -0.0835167 0.996506 0
0.00737964 -0.0866438 0.996212 0
0.0151694 -0.0811074 0.99659 0
0.0155802 -0.0812894 0.996569 0
0.0135673 -0.0813707 0.996592 0
0.0151579 -0.0801441 0.996668 0
0.00967775 -0.0778865 0.996915 0
-0.00242548 -0.072574 0.99736 0
-0.00879023 -0.06903 0.997576 0
-0.0117434 -0.0646368 0.99784 0
-0.02103 -0.0581392 0.998087 0
-0.0217635 -0.051074 0.998458 0
-0.029053 -0.0457388 0.998531 0
-0.035006 -0.0445501 0.998394 0
-0.0423689 -0.0392858 0.998329 0
-0.0437629 -0.0361979 0.998386 0
-0.0482671 -0.0330227 0.998288 0.00908523
-0.0537279 -0.03151 0.998058 0.01837
-0.0576022 -0.0339728 0.997761 0.0243738
-0.0623362 -0.0319978 0.997542 0.0308559
-0.0673037 -0.0328731 0.997191 0.0336976
-0.0632761 -0.0349926 0.997382 0.0307932
-0.0689826 -0.0287847 0.997203 0.0313206
-0.0716397 -0.0248495 0.997121 0.0271955
-0.0755643 -0.0253467 0.996819 0.0234361
-0.0884945 -0.0208458 0.995858 0.0298213
-0.0920862 -0.021864 0.995511 0.0315052
-0.0999696 -0.0216309 0.994755 0.041868
-0.103681 -0.0263484 0.994262 0.0506199
-0.105126 -0.0214444 0.994228 0.0617091
-0.102795 -0.0107458 0.994645 0.0689091
-0.103348 -0.00603781 0.994627 0.080612
-0.102754 0.00260706 0.994703 0.0864673
-0.103641 0.00933688 0.994571 0.0883462
-0.113929 0.00823143 0.993455 0.0918315
-0.118563 0.0177223 0.992788 0.0873143
-0.126941 0.0095475 0.991864 0.084154
-0.128038 0.00653842 0.991748 0.0843094
-0.128024 0.00917125 0.991729 0.0796844
-0.123433 0.00882463 0.992314 0.0758545
-0.118847 0.0168588 0.992769 0.0670761
-0.112819 0.00303609 0.993611 0.0603812
-0.109249 -0.00357721 0.994008 0.0560032
-0.106075 0.00302384 0.994354 0.0562118
-0.103161 -0.00359614 0.994658 0.057623
-0.104227 0.00755682 0.994525 0.0605813
-0.103939 0.00629632 0.994564 0.0582996
-0.0972276 0.00254555 0.995259 0.0533932
-0.0903842 0.00252254 0.995904 0.0425499
-0.0823101 -0.00567609 0.996591 0.0331694
-0.078382 -0.00439036 0.996914 0.0283637
-0.0820639 -0.00690725 0.996603 0.037153
-0.0831429 -0.0119666 0.996466 0.0413756
-0.0881882 -0.00528362 0.99609 0.0439531
-0.0930664 -0.00838431 0.995625 0.0492084
-0.0945503 -0.00483377 0.995508 0.0519411
-0.0913542 -0.00609441 0.9958 0.0509748
-0.0883966 -0.0104552 0.99603 0.0556926
-0.0896926 -0.00439869 0.99596 0.0609943
-0.0871892 -0.00807198 0.996159 0.0561098
-0.0923588 -0.00957895 0.99568 0.0542873
-0.0951863 -0.00134928 0.995459 0.0546751
-0.0887387 -0.0045579 0.996045 0.0507995
-0.0852846 -0.00479862 0.996345 0.04861
-0.0770696 -0.00160941 0.997024 0.0456921
-0.0724543 -0.0038153 0.997364 0.0471251
-0.0758455 0.00352479 0.997113 0.0503133
-0.0768107 -0.00371444 0.997039 0.0539964
-0.0744025 0.001694 0.997227 0.060967
-0.0755947 0.000790577 0.997138 0.0595968
-0.0756642 -0.00372891 0.997126 0.053726
-0.0712272 -0.00750876 0.997432 0.0500841
-0.074109 -0.0083629 0.997215 0.0552189
-0.0759584 0.000916038 0.997111 0.0563015
-0.0731801 -0.00811597 0.997286 0.0496201
-0.0650408 -0.00963355 0.997836 0.0391449
-0.0556739 -0.022117 0.998204 0.0205794
-0.0457016 -0.0228115 0.998695 0.00599326
-0.0467592 -0.0252045 0.998588 0
-0.0492154 -0.0370655 0.9981 0
-0.0501746 -0.0389037 0.997982 0
-0.0494184 -0.0409019 0.99794 0
-0.0483207 -0.0406697 0.998004 0
-0.0474799 -0.0397201 0.998082 0
-0.0427047 -0.0343374 0.998497 0
-0.0403415 -0.0244122 0.998888 0
-0.0375767 -0.0201589 0.99909 0
-0.0290406 -0.0190552 0.999397 0
-0.0224483 -0.0235841 0.99947 0
-0.0127163 -0.0173808 0.999768 0
-0.00963129 -0.011477 0.999888 0
-0.00537597 -0.00826638 0.999951 0
-0.00730772 -0.00577749 0.999957 0
-0.00313099 -0.00361145 0.999989 0
-0.00619507 0.000720523 0.999981 0
-0.00863545 -0.00244945 0.99996 0
-0.00839953 -0.000248837 0.999965 0
-0.0113965 0.00509553 0.999922 0
-0.013623 0.00425051 0.999898 0
-0.0175368 0.0125564 0.999767 0
-0.0210326 0.0183076 0.999611 0
-0.0250239 0.0233443 0.999414 0
-0.0250366 0.028622 0.999277 0
-0.0244075 0.0196102 0.99951 0
-0.0231432 0.0193837 0.999544 0
-0.0264987 0.0231108 0.999382 0
-0.037155 0.036723 0.998635 0
-0.0448933 0.0446986 0.997991 0.0120822
-0.0437818 0.0511195 0.997732 0.0140463
-0.0347869 0.0562484 0.997811 0.00320949
-0.0308327 0.0513287 0.998206 0
-0.0295818 0.057545 0.997905 0
-0.025795 0.0511595 0.998357 0
-0.0264205 0.0547394 0.998151 0
-0.0329581 0.0538447 0.998005 0.000253046
-0.0378969 0.056863 0.997662 0.00440674
-0.0336247 0.059122 0.997684 0.00687059
-0.0323542 0.0635094 0.997457 0.0118148
-0.0355926 0.0760084 0.996472 0.0226992
-0.040062 0.0809915 0.995909 0.0257355
-0.0450194 0.0921168 0.99473 0.0261762
-0.0469911 0.0928148 0.994574 0.0206547
-0.0503984 0.0961504 0.99409 0.0276974
-0.0540055 0.0971354 0.993805 0.0290873
-0.0567142 0.102584 0.993106 0.0330662
-0.0554427 0.109021 0.992492 0.0320659
-0.0553314 0.11262 0.992096 0.030929
-0.0577819 0.116891 0.991462 0.0336491
-0.0599584 0.113785 0.991694 0.0328629
-0.0619073 0.11307 0.991657 0.0296009
-0.0639592 0.119458 0.990777 0.0317815
-0.0619992 0.116085 0.991302 0.0291025
-0.0618329 0.118022 0.991084 0.0289437
-0.0566146 0.11647 0.991579 0.0255091
-0.0542883 0.121347 0.991124 0.0224241
-0.0534896 0.126869 0.990476 0.0211664
-0.0505055 0.124053 0.990989 0.0172963
-0.0533732 0.126112 0.990579 0.0209446
-0.0552681 0.134158 0.989417 0.0229612
-0.053203 0.14839 0.987497 0.0252476
-0.053537 0.15797 0.985991 0.0243414
-0.0524866 0.169949 0.984054 0.0263218
-0.0542743 0.182972 0.981619 0.0328131
-0.0586123 0.20624 0.976744 0.0400186
-0.0586364 0.206214 0.976749 0.0425879
-0.0618425 0.211275 0.975468 0.0441275
-0.0605128 0.209869 0.975855 0.0441856
-0.0597146 0.214473 0.974903 0.0414702
-0.0576437 0.211833 0.975604 0.0415947
-0.0581996 0.217274 0.974374 0.044637
-0.0554456 0.23413 0.970623 0.048628
-0.0569472 0.23528 0.970258 0.0467646
-0.0560744 0.240604 0.969002 0.041928
-0.0581835 0.242329 0.968448 0.0407249
-0.058932 0.233582 0.97055 0.0356803
-0.0601088 0.24027 0.968843 0.0330867
-0.0581316 0.242322 0.968453 0.0267533
-0.0502605 0.235287 0.970625 0.0206837
-0.0433534 0.228969 0.972468 0.0181099
-0.0431388 0.231049 0.971985 0.0125864
-0.0405926 0.240341 0.969839 0.0133361
-0.0434217 0.242389 0.969207 0.0219515
-0.037426 0.234616 0.971367 0.0177757
-0.0370632 -0.304462 0.951803 0
-0.0379985 -0.303303 0.952136 0
-0.0449534 -0.298731 0.953278 0
-0.0504248 -0.290138 0.955655 0
-0.053907 -0.28796 0.956124 0
-0.0582367 -0.281556 0.957776 0
-0.0622941 -0.275592 0.959254 0
-0.0637766 -0.270248 0.960676 0.000841856
-0.0661149 -0.264168 0.962208 0.00420845
-0.0699978 -0.263615 0.962085 0.0115784
-0.069345 -0.25858 0.963498 0.0115017
-0.0684449 -0.255906 0.964276 0.0127515
-0.0662102 -0.249319 0.966155 0.0125754
-0.0657943 -0.245377 0.967193 0.0127807
-0.0633014 -0.245132 0.967421 0.0061459
-0.0597729 -0.245102 0.967653 0.00421433
-0.0544697 -0.240474 0.969126 0
-0.0466514 -0.243577 0.968759 0
-0.0443241 -0.237367 0.970408 0
-0.0407946 -0.234118 0.971352 0
-0.0380495 -0.22893 0.972699 0
-0.0369808 -0.230273 0.972423 0
-0.0364585 -0.224593 0.97377 0
-0.0303305 -0.226236 0.9736 0
-0.0282608 -0.230331 0.972702 0
-0.0234112 -0.224668 0.974154 0
-0.0243893 -0.220095 0.975174 0
-0.0251371 -0.219013 0.975398 0
-0.0221953 -0.214706 0.976426 0
-0.0192638 -0.212413 0.97699 0
-0.0193292 -0.203916 0.978798 0
-0.0208198 -0.201987 0.979167 0
-0.0338474 -0.196428 0.979934 0
-0.0326771 -0.194625 0.980333 0
-0.0268336 -0.198534 0.979727 0
-0.0330603 -0.199191 0.979403 0
-0.0363218 -0.194454 0.980239 0
-0.0349906 -0.187794 0.981585 0
-0.0267684 -0.186848 0.982024 0
-0.0289091 -0.18333 0.982626 0
-0.0351665 -0.176449 0.983681 0
-0.0341168 -0.173493 0.984244 0
-0.043312 -0.165983 0.985177 0.00705766
-0.0457223 -0.16147 0.985818 0.00989244
-0.048888 -0.15756 0.986299 0.00944881
-0.0606819 -0.152767 0.986398 0.0181274
-0.0597689 -0.148849 0.987052 0.0151315
-0.0647037 -0.146949 0.987026 0.0129764
-0.0710847 -0.144381 0.986966 0.0196449
-0.0699856 -0.14024 0.987641 0.0134561
-0.068758 -0.137685 0.988087 0.012991
-0.0619602 -0.140239 0.988177 0.00620791
-0.0536195 -0.136872 0.989137 0
-0.0434108 -0.13336 0.990116 0
-0.0420612 -0.128466 0.990822 0
-0.0372059 -0.128198 0.99105 0
-0.0349262 -0.127779 0.991187 0
-0.0373968 -0.126008 0.991324 0
-0.0367332 -0.121901 0.991862 0
-0.0342285 -0.118222 0.992397 0
-0.0245983 -0.123201 0.992077 0
