# .PCD v0.7 - Point Cloud Data file format
VERSION 0.7
FIELDS x y z
SIZE 4 4 4
TYPE F F F
COUNT 1 1 1
WIDTH 1375
HEIGHT 1
VIEWPOINT 0 0 0 1 0 0 0
POINTS 1375
DATA ascii
-0.05289517 0.14031334 -0.22451852
-0.052654665 0.14029866 -0.22451334
-0.05251883 0.14029133 -0.22453217
-0.052064501 0.14029825 -0.22453001
-0.051930171 0.14032483 -0.2245235
-0.051704336 0.14030567 -0.22458334
-0.051353998 0.140359 -0.224591
-0.048847999 0.14028899 -0.224599
-0.0487765 0.140321 -0.22459
-0.048531003 0.140239 -0.2245985
-0.048307002 0.140365 -0.224594
-0.048102714 0.14034458 -0.22458744
-0.047888998 0.14030834 -0.224591
-0.047711331 0.14030002 -0.22458501
-0.0475462 0.14030559 -0.2245868
-0.047211666 0.14027667 -0.22456999
-0.046863839 0.14032117 -0.22453965
-0.046694998 0.14031534 -0.22453056
-0.046468332 0.1403095 -0.22453399
-0.046243999 0.140297 -0.22450201
-0.046076998 0.14028266 -0.22451667
-0.045920331 0.14027534 -0.22449033
-0.045736 0.140301 -0.2244695
-0.045519162 0.1403265 -0.22447835
-0.0453525 0.14031518 -0.22446567
-0.045065664 0.14030367 -0.22444254
-0.044906553 0.14029533 -0.22443146
-0.037044998 0.140218 -0.224411
-0.036890604 0.1402882 -0.2244406
-0.054703999 0.140476 -0.224599
-0.054523002 0.14047332 -0.224562
-0.05435 0.14050099 -0.2245325
-0.054089226 0.14052333 -0.22450778
-0.053901419 0.14051199 -0.22448425
-0.053707168 0.14050116 -0.224492
-0.053574998 0.14048968 -0.22451334
-0.053266335 0.140477 -0.2244975
-0.0530685 0.14049999 -0.22450702
-0.052873202 0.14051041 -0.22450101
-0.052646998 0.14050934 -0.22451167
-0.052512333 0.14050399 -0.22449566
-0.052086998 0.14045951 -0.2245165
-0.051948339 0.14050233 -0.224536
-0.051697001 0.14051801 -0.224567
-0.051348001 0.14050101 -0.22458465
-0.051117335 0.14048816 -0.22458518
-0.050752997 0.140499 -0.224592
-0.050447002 0.1405905 -0.22459801
-0.050227333 0.140512 -0.22459233
-0.049806498 0.14051899 -0.22459099
-0.049729999 0.14054801 -0.22459801
-0.048734002 0.14042351 -0.224599
-0.048489664 0.140507 -0.22459634
-0.048310798 0.1404864 -0.22458479
-0.048097998 0.14050083 -0.22457416
-0.047881003 0.14052001 -0.22457801
-0.047703166 0.14051233 -0.22457667
-0.047530834 0.14050333 -0.224572
-0.047203999 0.14048867 -0.224563
-0.046857249 0.14049751 -0.2245255
-0.046676997 0.14051688 -0.22453614
-0.046460498 0.14052151 -0.224528
-0.046234667 0.140507 -0.22452468
-0.046069998 0.14049567 -0.22449566
-0.045911998 0.14048634 -0.22449131
-0.045727998 0.14047466 -0.22449867
-0.045512751 0.14050299 -0.22447075
-0.045344334 0.14052683 -0.2244675
-0.045058005 0.14051555 -0.22443067
-0.044899125 0.14049837 -0.22442473
-0.044605002 0.14056 -0.22440401
-0.04425 0.140542 -0.224406
-0.0370325 0.140535 -0.22440749
-0.036873166 0.14048584 -0.22442366
-0.054692999 0.140756 -0.22459801
-0.054515 0.14068435 -0.22455899
-0.054343998 0.14067733 -0.22452666
-0.054073002 0.14071272 -0.22450371
-0.053893 0.1407221 -0.22448991
-0.053699505 0.14071201 -0.22448198
-0.053566996 0.14069933 -0.22451366
-0.053258002 0.14068799 -0.22449917
-0.053061996 0.14067601 -0.22449957
-0.052896805 0.140681 -0.22449942
-0.052639004 0.14071967 -0.22450167
-0.052503828 0.14071399 -0.22450133
-0.052106332 0.14068867 -0.22452033
-0.051942997 0.1406799 -0.22450444
-0.0516905 0.14069501 -0.22455999
-0.051339999 0.14071167 -0.22458132
-0.051077131 0.14070725 -0.22457838
-0.050964668 0.14069067 -0.22459133
-0.050746668 0.14067733 -0.22457534
-0.05044375 0.1406965 -0.22457975
-0.050280001 0.14072435 -0.22459133
-0.049633998 0.140756 -0.22459801
-0.048603665 0.140699 -0.22459334
-0.048489749 0.1407135 -0.2245905
-0.048295166 0.14068352 -0.22458066
-0.048091333 0.14067756 -0.22457255
-0.047875501 0.140697 -0.2245495
-0.047695164 0.14072366 -0.2245775
-0.047522832 0.14071482 -0.22456716
-0.047196001 0.1407 -0.22455734
-0.046850335 0.14067332 -0.22453433
-0.046728399 0.14068279 -0.2245504
-0.046501998 0.14069867 -0.22452234
-0.046226997 0.14071865 -0.22451432
-0.046062004 0.140707 -0.22449666
-0.045903999 0.14069833 -0.22448599
-0.045718998 0.14068566 -0.22451334
-0.045505334 0.14067851 -0.22448416
-0.045337252 0.14070326 -0.2244695
-0.045071997 0.140714 -0.22442301
-0.044918451 0.14072609 -0.22443008
-0.044601999 0.140632 -0.22440401
-0.044597499 0.140737 -0.22440749
-0.044244498 0.14068401 -0.22440299
-0.036864329 0.14069717 -0.22443466
-0.054506999 0.14089499 -0.22455899
-0.054334998 0.14088733 -0.22453634
-0.054083623 0.14088437 -0.22449601
-0.053877555 0.14091009 -0.22446877
-0.053692166 0.14092417 -0.22446817
-0.053559333 0.14091133 -0.22449799
-0.053250998 0.14090002 -0.2244675
-0.053071145 0.14087842 -0.22448014
-0.052940499 0.14088117 -0.2244975
-0.052716002 0.1409025 -0.22447275
-0.052496001 0.14092566 -0.22449382
-0.052098002 0.1409 -0.22451933
-0.051934667 0.14089067 -0.22450365
-0.051684331 0.14087166 -0.22454299
-0.051331997 0.14092301 -0.22457965
-0.051069222 0.14090924 -0.2245729
-0.050957669 0.14090334 -0.22456165
-0.050739497 0.140852 -0.2245885
-0.050477337 0.14087801 -0.22456567
-0.049672 0.140898 -0.2246
-0.049272001 0.14095201 -0.22458901
-0.049171999 0.140946 -0.22459801
-0.04886125 0.1409435 -0.22458351
-0.048712499 0.14098701 -0.2245945
-0.048504997 0.14090768 -0.22458413
-0.048286837 0.1408945 -0.22458182
-0.048082668 0.14088832 -0.22457522
-0.047869336 0.14087433 -0.224536
-0.04768775 0.140899 -0.22458474
-0.047506597 0.14091219 -0.22456422
-0.047187999 0.14091067 -0.22455567
-0.046842832 0.14088534 -0.22451667
-0.046713669 0.14088 -0.22453867
-0.046523858 0.14086515 -0.22451842
-0.046308748 0.14090276 -0.22450599
-0.046053331 0.140918 -0.22449934
-0.045895666 0.140909 -0.224491
-0.045709997 0.14089634 -0.22452565
-0.045496497 0.14088815 -0.22449632
-0.045330167 0.14087783 -0.22447933
-0.0450776 0.14088219 -0.22444439
-0.044900447 0.14090677 -0.224428
-0.044588 0.140984 -0.22440501
-0.036840003 0.14085934 -0.22443767
-0.036798999 0.140972 -0.224447
-0.054499332 0.14110634 -0.22455001
-0.054327 0.14109801 -0.22453867
-0.054068111 0.14108568 -0.22449276
-0.053907335 0.14107643 -0.22447133
-0.053722829 0.14110167 -0.2244605
-0.053551335 0.14112265 -0.22448801
-0.053252399 0.14109781 -0.22445941
-0.053093143 0.14111213 -0.22445585
-0.052965835 0.14109449 -0.22449215
-0.052708838 0.141077 -0.22448166
-0.052489247 0.141101 -0.2244955
-0.052091669 0.14111267 -0.22448401
-0.051926557 0.14110154 -0.22450611
-0.051678002 0.141084 -0.22450931
-0.051325001 0.14109799 -0.22458801
-0.051085196 0.14113459 -0.22458601
-0.050972834 0.14111666 -0.22455966
-0.050726999 0.141168 -0.22458699
-0.050470002 0.1410525 -0.2245795
-0.05029989 0.14107867 -0.22458366
-0.050113 0.1411065 -0.2245885
-0.049764749 0.14109825 -0.22459801
-0.049268499 0.141057 -0.224591
-0.049169 0.141018 -0.2246
-0.048834 0.14108834 -0.22459365
-0.048670501 0.14108899 -0.224591
-0.048496999 0.141119 -0.22458178
-0.048279334 0.1411065 -0.22456716
-0.048074551 0.14109933 -0.2245761
-0.047861665 0.14108633 -0.22452633
-0.047682498 0.14107634 -0.22455466
-0.047517799 0.1410826 -0.22455139
-0.047180336 0.14112367 -0.22454034
-0.046835333 0.14109766 -0.22450249
-0.046705667 0.1410915 -0.22453551
-0.046537165 0.14108801 -0.22449601
-0.046301499 0.14107783 -0.22450733
-0.046047002 0.14109451 -0.224498
-0.045886997 0.14111967 -0.22449668
-0.045700997 0.14110567 -0.22454466
-0.045488 0.14109983 -0.22450066
-0.045321167 0.14108834 -0.2244935
-0.045062166 0.1410775 -0.22446734
-0.044908814 0.1410781 -0.22443427
-0.036906 0.141058 -0.224402
-0.036794335 0.14111434 -0.22443233
-0.054490998 0.141317 -0.22455366
-0.054319005 0.14130867 -0.22452898
-0.054091498 0.14129899 -0.22449082
-0.053924505 0.14128883 -0.22445883
-0.053715996 0.141277 -0.22445822
-0.053545997 0.14129999 -0.22446349
-0.053275332 0.14132233 -0.22450067
-0.053109001 0.1413141 -0.22446643
-0.0529585 0.1413065 -0.22446966
-0.052700832 0.141288 -0.22448085
-0.052482996 0.14127734 -0.22447567
-0.052083999 0.141324 -0.22447634
-0.05191889 0.14131278 -0.22449265
-0.051669668 0.141295 -0.22450934
-0.051318664 0.14127533 -0.22457565
-0.0510865 0.141297 -0.22457975
-0.050964002 0.14132617 -0.22457767
-0.050722003 0.14131001 -0.22458398
-0.050460666 0.14129867 -0.22457367
-0.050338835 0.14129168 -0.22458483
-0.050113779 0.14128222 -0.22458145
-0.049933001 0.14130449 -0.2245765
-0.049733501 0.14134425 -0.22459623
-0.049002498 0.14132699 -0.22459501
-0.04853525 0.141297 -0.224592
-0.048313007 0.14132033 -0.22457457
-0.048086286 0.14130202 -0.22457072
-0.047911197 0.14131561 -0.2245384
-0.047674168 0.14128749 -0.22455917
-0.047501504 0.14127916 -0.22455132
-0.047174498 0.14130101 -0.22452149
-0.046840496 0.14129001 -0.22452
-0.046722624 0.14131251 -0.22453249
-0.046528835 0.14129885 -0.22449833
-0.046294332 0.1412905 -0.22448982
-0.046041328 0.14127167 -0.22446632
-0.045881003 0.14129749 -0.224472
-0.045694005 0.14131933 -0.224512
-0.045480002 0.141311 -0.22450733
-0.045313332 0.14129966 -0.22448967
-0.045054499 0.14128917 -0.22445817
-0.044901635 0.1412769 -0.22442618
-0.036894999 0.14133801 -0.224409
-0.036786668 0.14132699 -0.22441934
-0.054483 0.14152767 -0.22455366
-0.054310996 0.14151932 -0.22453167
-0.054083835 0.14150965 -0.22448367
-0.053916667 0.14150025 -0.22445142
-0.053708561 0.14148855 -0.22444235
-0.053539667 0.14147501 -0.22445233
-0.053269997 0.141499 -0.224474
-0.053100668 0.14152423 -0.22446489
-0.052950162 0.14151716 -0.2244705
-0.052692831 0.141499 -0.22447217
-0.052474499 0.14148851 -0.22447681
-0.0520765 0.1415 -0.224481
-0.051910557 0.14152378 -0.22449255
-0.051660668 0.14150535 -0.22452433
-0.051311333 0.14148666 -0.22455601
-0.051079836 0.14147334 -0.22457117
-0.050956752 0.14150226 -0.22458601
-0.050713997 0.14152133 -0.22457834
-0.050453003 0.14151101 -0.22456431
-0.050372332 0.14150199 -0.22457899
-0.050064504 0.14149134 -0.22457433
-0.049926337 0.14148167 -0.22456901
-0.049686998 0.1415005 -0.22459
-0.049455799 0.141541 -0.224594
-0.049250666 0.14151533 -0.22458632
-0.048950892 0.14149767 -0.22456935
-0.048519801 0.1414582 -0.22459161
-0.048290502 0.14151816 -0.22459151
-0.048093002 0.14152466 -0.224558
-0.047917668 0.14151384 -0.22455017
-0.047666665 0.14149967 -0.22454385
-0.047493834 0.14149068 -0.22453934
-0.047166999 0.14147566 -0.22453301
-0.046844672 0.14151801 -0.22453433
-0.04672344 0.1415159 -0.22452044
-0.046519667 0.14150818 -0.22452085
-0.0463305 0.14148724 -0.22449675
-0.046099 0.1415028 -0.22446279
-0.045875669 0.14147466 -0.22444801
-0.045689002 0.141498 -0.2244795
-0.045472834 0.14152384 -0.22447634
-0.045306336 0.14151268 -0.22446001
-0.045046836 0.14150099 -0.22444201
-0.044910774 0.141495 -0.22444779
-0.036892001 0.14140999 -0.224401
-0.036559999 0.14155599 -0.22458449
-0.054655999 0.141739 -0.22459
-0.054475002 0.141702 -0.224567
-0.054303497 0.14169401 -0.2245485
-0.054076005 0.14172067 -0.224473
-0.053909082 0.14171191 -0.22443557
-0.053700887 0.14169933 -0.22443043
-0.053531665 0.14168701 -0.22444232
-0.053264003 0.14167601 -0.22445868
-0.053094331 0.14170016 -0.22445667
-0.0529374 0.1417138 -0.22447562
-0.052685499 0.1417105 -0.22445534
-0.052466005 0.14169833 -0.22448683
-0.052070335 0.14167534 -0.22446866
-0.051904831 0.14170033 -0.22447284
-0.051653668 0.14171733 -0.22449334
-0.051302999 0.141698 -0.22455901
-0.05107234 0.14168449 -0.22455914
-0.050949838 0.14167733 -0.224582
-0.050706498 0.14169651 -0.224584
-0.050443996 0.141721 -0.224572
-0.050323334 0.14171501 -0.22456551
-0.050098114 0.14170477 -0.22457235
-0.049917996 0.14169133 -0.224572
-0.049720999 0.14166126 -0.224593
-0.049551249 0.1417055 -0.22457701
-0.049244002 0.141691 -0.22458449
-0.048905499 0.14168826 -0.22458524
-0.048776001 0.14171451 -0.22457176
-0.048475664 0.14168333 -0.22457266
-0.048309002 0.14168137 -0.22458349
-0.04808525 0.14170051 -0.22457424
-0.047895201 0.1417094 -0.22455502
-0.047657494 0.14171 -0.22456168
-0.047485337 0.141701 -0.224548
-0.047157999 0.14168566 -0.22455333
-0.046838 0.14169399 -0.22453201
-0.046707503 0.14171812 -0.22451688
-0.046512336 0.14172184 -0.22449701
-0.046364665 0.14171767 -0.224512
-0.046107996 0.14170134 -0.22446115
-0.045867998 0.14168699 -0.22443099
-0.045683336 0.14167465 -0.22444801
-0.045467004 0.14170051 -0.22445175
-0.045298997 0.14172482 -0.2244405
-0.045039833 0.14171316 -0.22441767
-0.044903114 0.14170611 -0.22443631
-0.044799 0.141771 -0.224411
-0.0365545 0.141699 -0.22457699
-0.054650333 0.141881 -0.22458166
-0.054469001 0.14187866 -0.22455199
-0.054296669 0.14186932 -0.22453801
-0.05407 0.14189701 -0.22445549
-0.053900581 0.14192216 -0.22444256
-0.053692777 0.14191033 -0.224428
-0.053523332 0.14189732 -0.22444399
-0.053257 0.14188732 -0.22443767
-0.053088002 0.14187643 -0.22444266
-0.052941598 0.1418836 -0.22445181
-0.052759666 0.14192533 -0.22445767
-0.052504554 0.14191334 -0.22445191
-0.052062001 0.141886 -0.22447334
-0.051898222 0.14187677 -0.22446521
-0.051645335 0.141928 -0.22450233
-0.051294997 0.14190935 -0.22454967
-0.051064167 0.14189617 -0.22455852
-0.050942834 0.14189017 -0.22456284
-0.050701004 0.141873 -0.22456801
-0.050437503 0.14189699 -0.224571
-0.050315332 0.1419255 -0.22456616
-0.05009022 0.14191645 -0.22456343
-0.049910665 0.141904 -0.224553
-0.049715329 0.14188884 -0.22459234
-0.049513336 0.14190467 -0.22457717
-0.049316999 0.14194299 -0.224593
-0.049134001 0.14193401 -0.224592
-0.048885375 0.14193311 -0.22457562
-0.048750669 0.1419075 -0.22457884
-0.048512835 0.14189467 -0.22457631
-0.048291106 0.14188321 -0.22457433
-0.04807933 0.14187634 -0.22455482
-0.047917802 0.14188039 -0.2245636
-0.047648996 0.14192083 -0.22456665
-0.047476333 0.141912 -0.22456367
-0.047149669 0.14189766 -0.22454967
-0.046831328 0.14187133 -0.22452299
-0.046719141 0.14188929 -0.22450915
-0.04650525 0.14189699 -0.2245045
-0.046359003 0.14189601 -0.224492
-0.046100002 0.14191251 -0.22446151
-0.045859665 0.14189699 -0.22443567
-0.045676004 0.14188634 -0.22443299
-0.045460332 0.14187683 -0.22445101
-0.04529275 0.14190225 -0.22442698
-0.04504925 0.14190875 -0.22441174
-0.044913277 0.14192481 -0.2244381
-0.044793669 0.141912 -0.22440965
-0.044550002 0.14196999 -0.224402
-0.036547001 0.14187467 -0.22458833
-0.054685801 0.1421226 -0.22459102
-0.054461002 0.14208999 -0.22454101
-0.05428933 0.14208101 -0.22452466
-0.054063499 0.14207266 -0.22445084
-0.053886447 0.1421091 -0.22441711
-0.053674717 0.142101 -0.22441956
-0.053516332 0.14210866 -0.22442366
-0.053247333 0.14209734 -0.22445934
-0.053095501 0.14208966 -0.22443135
-0.052939426 0.14209042 -0.22445242
-0.052753501 0.142102 -0.22444701
-0.052496117 0.14212345 -0.22445978
-0.052053671 0.142096 -0.22447433
-0.051890556 0.14208776 -0.22445178
-0.051637501 0.142103 -0.2245225
-0.051286329 0.14211999 -0.22455867
-0.051056504 0.14210799 -0.22454484
-0.050933499 0.14209966 -0.22458732
-0.050692335 0.14208366 -0.22457398
-0.050431669 0.142074 -0.22454567
-0.050309002 0.14210249 -0.22454774
-0.050072122 0.1421185 -0.22455563
-0.049902335 0.142115 -0.22455601
-0.049707998 0.14210083 -0.22457601
-0.049518 0.14208357 -0.2245547
-0.049301002 0.14208314 -0.22458458
-0.049129333 0.142075 -0.22456533
-0.048890002 0.1421015 -0.22458138
-0.048729833 0.14211784 -0.22457816
-0.048495799 0.142092 -0.2245826
-0.048307288 0.14208658 -0.22457357
-0.048103373 0.14209762 -0.22455001
-0.047896165 0.142077 -0.2245425
-0.047642753 0.1420975 -0.22455674
-0.047469165 0.14212433 -0.22454365
-0.047142331 0.14210899 -0.22453201
-0.046822328 0.14208066 -0.22454333
-0.046702333 0.14208001 -0.22450845
-0.046498667 0.14207299 -0.22449701
-0.046351999 0.14207132 -0.22449298
-0.046076398 0.14210881 -0.22444698
-0.045852002 0.14210966 -0.224424
-0.045667332 0.14209767 -0.22444999
-0.045452666 0.14208852 -0.22443832
-0.045286 0.14207718 -0.224428
-0.045057997 0.14210349 -0.224408
-0.044903103 0.1421158 -0.2244298
-0.044786002 0.14212368 -0.22440799
-0.036541 0.14208901 -0.22454466
-0.054695997 0.14228451 -0.22459082
-0.054453332 0.14230067 -0.22453834
-0.054281998 0.14229299 -0.22450233
-0.054055002 0.14228317 -0.22445685
-0.053902198 0.14227469 -0.22442779
-0.053678002 0.14230867 -0.22441566
-0.053543605 0.1423364 -0.22443259
-0.053240001 0.14230867 -0.22443999
-0.053111166 0.14230134 -0.22441699
-0.052946553 0.14229256 -0.22442921
-0.052747998 0.14227867 -0.22442268
-0.052507799 0.14229378 -0.2244508
-0.052396499 0.142364 -0.22444999
-0.052046001 0.142308 -0.22446267
-0.051881664 0.14229779 -0.22446722
-0.051633 0.142281 -0.22447367
-0.051281501 0.142297 -0.22452
-0.051048502 0.1423185 -0.224544
-0.050926331 0.14231201 -0.22456501
-0.050683003 0.14229366 -0.22459567
-0.050423335 0.14228468 -0.224557
-0.050302163 0.14227833 -0.22454983
-0.050123595 0.1422852 -0.2245528
-0.049935602 0.1423144 -0.2245696
-0.049700167 0.14231235 -0.22457099
-0.049529832 0.14230551 -0.22454701
-0.049305111 0.14229521 -0.22457701
-0.049120337 0.142285 -0.224581
-0.048879001 0.1423246 -0.2245882
-0.048682399 0.1423116 -0.22457559
-0.048495997 0.14231734 -0.22458535
-0.048316997 0.142309 -0.22456384
-0.048105668 0.14229989 -0.22455777
-0.047889005 0.1422895 -0.22452082
-0.047676668 0.14227499 -0.224554
-0.047519568 0.142288 -0.22454143
-0.047134999 0.142322 -0.22451998
-0.046815667 0.14229433 -0.22451268
-0.046694223 0.1422921 -0.22449954
-0.046490833 0.14228483 -0.224491
-0.046344668 0.14228334 -0.22447668
-0.046103001 0.14228019 -0.224444
-0.045844 0.14232099 -0.22442234
-0.045660332 0.14231001 -0.22441967
-0.0454548 0.1422876 -0.22441581
-0.045295287 0.14230086 -0.22442329
-0.045050997 0.14227833 -0.22441232
-0.044927552 0.14228055 -0.22442722
-0.0447785 0.142299 -0.224407
-0.036534 0.14230233 -0.22451234
-0.054697335 0.14258899 -0.22459267
-0.054445665 0.14251201 -0.22452666
-0.054274004 0.14250334 -0.22450332
-0.054047167 0.14249416 -0.22444499
-0.053918429 0.14247701 -0.22442971
-0.053702604 0.14248821 -0.2244204
-0.053535603 0.14251801 -0.22444439
-0.053231999 0.14251901 -0.22443235
-0.0531005 0.14258251 -0.2244115
-0.052937999 0.14250299 -0.22443825
-0.052738998 0.14248933 -0.22442932
-0.052527998 0.14247817 -0.22444518
-0.052391499 0.142506 -0.224445
-0.052038331 0.14251967 -0.22445333
-0.051873554 0.142509 -0.22446622
-0.051626664 0.14249401 -0.22443266
-0.051275 0.14247368 -0.224509
-0.051033199 0.1425148 -0.2245502
-0.050919663 0.14252467 -0.22453034
-0.050675999 0.14250566 -0.22457699
-0.050415337 0.14249533 -0.22455001
-0.050293997 0.14248967 -0.22455083
-0.050106671 0.14248116 -0.22456117
-0.049950399 0.1424858 -0.224558
-0.049692165 0.14252366 -0.22456801
-0.049520832 0.14251649 -0.22455366
-0.049307503 0.14249812 -0.22458398
-0.049112666 0.142497 -0.22457699
-0.04888792 0.14248125 -0.22457485
-0.048701286 0.14248887 -0.22458228
-0.048479598 0.14251462 -0.224575
-0.048309669 0.14252032 -0.22455366
-0.048098553 0.14251211 -0.22453457
-0.047880333 0.1425 -0.22452933
-0.047667999 0.14248601 -0.22455399
-0.047500223 0.14247978 -0.22452766
-0.047127999 0.142497 -0.22451949
-0.046808664 0.142506 -0.22448166
-0.046686444 0.14250334 -0.2244857
-0.046483833 0.14249784 -0.22446434
-0.046337333 0.14249599 -0.224452
-0.046162337 0.14248334 -0.22443032
-0.0459328 0.14248079 -0.22442719
-0.045651 0.14252 -0.22443765
-0.045481663 0.14251401 -0.22442301
-0.045373 0.14249074 -0.22440974
-0.045042664 0.14249 -0.22441
-0.044929001 0.142416 -0.224402
-0.044775002 0.142406 -0.224402
-0.036525 0.14251466 -0.224527
-0.054684371 0.14272037 -0.22457676
-0.054437667 0.14272232 -0.22451834
-0.054266665 0.14271466 -0.22447766
-0.05403867 0.14270417 -0.22445683
-0.053920835 0.14269882 -0.22442067
-0.053701669 0.1426845 -0.2244305
-0.053548403 0.1426892 -0.224426
-0.053226002 0.14269599 -0.224426
-0.053104602 0.1427094 -0.22441658
-0.052929997 0.1427141 -0.22443233
-0.052730996 0.142699 -0.22442834
-0.052543752 0.142673 -0.22443001
-0.05238533 0.14268233 -0.224434
-0.052032001 0.14269499 -0.22444001
-0.051867336 0.14272134 -0.22442511
-0.051617999 0.142704 -0.22444467
-0.051266331 0.14268367 -0.22452301
-0.051070999 0.14267267 -0.22452633
-0.050941002 0.14270149 -0.22454035
-0.050669331 0.14271867 -0.22453733
-0.050408002 0.14270799 -0.22452967
-0.050286334 0.14270066 -0.22453947
-0.050098836 0.14269316 -0.22455168
-0.049931999 0.14268133 -0.22456384
-0.04968575 0.14270025 -0.22455101
-0.049513001 0.14272749 -0.22454967
-0.049313147 0.14273028 -0.22455971
-0.049104001 0.14270701 -0.22458732
-0.048879415 0.14269218 -0.22458093
-0.048683662 0.14268 -0.224562
-0.048491798 0.142685 -0.224558
-0.048293199 0.14271641 -0.22455859
-0.048091002 0.14272387 -0.22451933
-0.047910247 0.14269724 -0.22451849
-0.047717199 0.1427168 -0.22448981
-0.047492996 0.14269167 -0.22450733
-0.047121663 0.14267433 -0.22450535
-0.046802498 0.142684 -0.22447601
-0.0466915 0.14272258 -0.22446319
-0.046476167 0.14270933 -0.22445117
-0.046330001 0.14270701 -0.22443901
-0.046155002 0.14269534 -0.22440733
-0.045950003 0.14266226 -0.22441849
-0.045644999 0.14269701 -0.2244235
-0.045473333 0.142726 -0.22442167
-0.045343 0.1427355 -0.22441649
-0.045034003 0.14270067 -0.22441334
-0.044933334 0.142745 -0.22440666
-0.036516331 0.14272566 -0.22454
-0.054696143 0.14289187 -0.22457857
-0.054431498 0.14289799 -0.22451299
-0.054258332 0.14292599 -0.22448033
-0.054065 0.14291801 -0.22445302
-0.053913999 0.14290825 -0.22444665
-0.053703498 0.1429075 -0.22442234
-0.053530831 0.14288467 -0.22443683
-0.053218666 0.14287199 -0.224424
-0.053133503 0.142902 -0.22441199
-0.052908428 0.14291473 -0.224429
-0.052723665 0.14291167 -0.22441466
-0.052521396 0.142915 -0.224419
-0.052377 0.142892 -0.22443767
-0.052025665 0.14287101 -0.22443233
-0.051888999 0.142865 -0.22441
-0.051608335 0.142914 -0.22446768
-0.051259998 0.14289732 -0.224482
-0.051064 0.14288467 -0.22450334
-0.050933443 0.14287667 -0.22454943
-0.050663002 0.142895 -0.224528
-0.050402999 0.142849 -0.22452
-0.050308246 0.14292288 -0.22453538
-0.050091166 0.14290467 -0.22454
-0.049924832 0.14289366 -0.22454017
-0.04968017 0.14287718 -0.22453083
-0.0495065 0.14290351 -0.2245395
-0.049315397 0.1429176 -0.22455721
-0.049146164 0.142922 -0.224573
-0.048895668 0.14290546 -0.22457767
-0.048724111 0.14289299 -0.22458035
-0.048493143 0.14289285 -0.22455443
-0.048303802 0.1428878 -0.2245528
-0.048085 0.14290066 -0.22450049
-0.047940001 0.142894 -0.22451499
-0.047724169 0.142915 -0.22447465
-0.047510993 0.1428957 -0.22448443
-0.047397502 0.1429345 -0.22448251
-0.047114998 0.14288633 -0.22447366
-0.046703625 0.14289302 -0.2244529
-0.04648643 0.14293115 -0.2244543
-0.046322335 0.14291933 -0.22442633
-0.046146665 0.14290632 -0.22441466
-0.0458862 0.14287379 -0.2244142
-0.045638334 0.14287266 -0.22442599
-0.0454675 0.142903 -0.22440651
-0.045240331 0.14292265 -0.22441368
-0.045028999 0.14284199 -0.22440299
-0.044922002 0.142866 -0.22440939
-0.036510497 0.142903 -0.224519
-0.054803997 0.1430535 -0.22459799
-0.054676503 0.14309801 -0.22458264
-0.054424334 0.14307433 -0.22451167
-0.054251499 0.14310101 -0.22449251
-0.054058999 0.14309451 -0.224435
-0.053905915 0.14311884 -0.22444527
-0.053717554 0.14310722 -0.22442921
-0.053522501 0.14309432 -0.22444117
-0.053210337 0.14308099 -0.22443734
-0.053126667 0.143077 -0.22440965
-0.052905399 0.143107 -0.22442181
-0.052715 0.14312167 -0.22442533
-0.052505001 0.14311133 -0.2244135
-0.052370001 0.14310399 -0.22440949
-0.052016664 0.14308167 -0.22444732
-0.05189275 0.14309375 -0.22440824
-0.051603001 0.143053 -0.22447599
-0.0515985 0.14316 -0.22448
-0.051251996 0.143108 -0.22448301
-0.051055331 0.14309533 -0.224508
-0.050926778 0.14308877 -0.2245201
-0.050656665 0.14307101 -0.22451299
-0.050301004 0.14311638 -0.2245324
-0.050083 0.143116 -0.22454
-0.049916666 0.14310484 -0.22454114
-0.049671832 0.14308833 -0.22453265
-0.049499501 0.14307983 -0.22454534
-0.049325801 0.14308839 -0.22456162
-0.049139749 0.143098 -0.22456977
-0.048886999 0.14311683 -0.22458701
-0.048733994 0.14310688 -0.22454688
-0.048509445 0.14309478 -0.22455679
-0.048288826 0.14308566 -0.22452749
-0.04810157 0.143067 -0.22450057
-0.047958598 0.1430866 -0.22449401
-0.047715336 0.14312617 -0.22448267
-0.047520831 0.14311734 -0.22449134
-0.047392 0.14311133 -0.22445033
-0.047107 0.143099 -0.224472
-0.046731338 0.14307088 -0.22443765
-0.046505332 0.143097 -0.22445667
-0.0463145 0.143095 -0.224436
-0.046138331 0.143117 -0.22441167
-0.045815997 0.143061 -0.2244065
-0.045629997 0.143084 -0.22441866
-0.045460001 0.14307767 -0.22441132
-0.045328252 0.143104 -0.224416
-0.045015 0.143194 -0.224411
-0.03650533 0.14308132 -0.22448333
-0.054737225 0.14329723 -0.22457777
-0.054507334 0.14328735 -0.22451949
-0.054244336 0.143277 -0.22448866
-0.054051999 0.14327 -0.22444034
-0.053890776 0.14330655 -0.224429
-0.053718753 0.14330974 -0.22441424
-0.053513993 0.14330584 -0.22444616
-0.053203501 0.14325699 -0.2244395
-0.053091429 0.14329644 -0.22441128
-0.052908227 0.1432759 -0.22443101
-0.052496165 0.1433215 -0.22443116
-0.052361 0.143314 -0.22443335
-0.052008998 0.14329301 -0.224434
-0.051871169 0.14328533 -0.22442965
-0.051794004 0.14328033 -0.22440965
-0.051592499 0.1433 -0.224492
-0.051242333 0.14331734 -0.224509
-0.051048666 0.143308 -0.22447634
-0.050919 0.1433 -0.22451299
-0.050647337 0.14328133 -0.22454034
-0.050316002 0.14328729 -0.22452815
-0.050066799 0.1433128 -0.224526
-0.049908835 0.14331667 -0.22452867
-0.049663667 0.14329951 -0.22453065
-0.049490836 0.14329068 -0.22455333
-0.049309999 0.1432845 -0.22455551
-0.049134001 0.14327516 -0.22454602
-0.048874624 0.14331825 -0.22456162
-0.04872711 0.14331979 -0.22452089
-0.048501998 0.14330745 -0.2245369
-0.048281834 0.14329784 -0.22449684
-0.048109833 0.14328784 -0.2245145
-0.047956664 0.14328332 -0.22451001
-0.0477085 0.1433015 -0.22448225
-0.047504198 0.14331441 -0.22449338
-0.047382001 0.14332034 -0.22449632
-0.047098666 0.143309 -0.22447567
-0.046723112 0.143282 -0.22443612
-0.046498779 0.14327355 -0.224453
-0.046308 0.143271 -0.22443533
-0.046130333 0.14332832 -0.22441232
-0.045883 0.14338201 -0.22440401
-0.0456235 0.14326149 -0.22441301
-0.045451 0.14328933 -0.22442865
-0.045304995 0.1432697 -0.22440743
-0.036497001 0.14329301 -0.22449233
-0.054848 0.143479 -0.22459799
-0.054730002 0.143509 -0.22455412
-0.054499164 0.14349766 -0.22451718
-0.054236997 0.14348766 -0.22447734
-0.054043997 0.14348035 -0.22443332
-0.053899094 0.14347726 -0.22444497
-0.053694125 0.14351973 -0.22441413
-0.053506833 0.14351717 -0.22442901
-0.053107627 0.14350688 -0.22441325
-0.052908424 0.14346702 -0.22441784
-0.052701999 0.14347233 -0.22440833
-0.052474666 0.14348567 -0.22442366
-0.052353334 0.14352535 -0.22442167
-0.052003 0.14346901 -0.22441649
-0.051882856 0.14350714 -0.22442342
-0.051586669 0.14347567 -0.22447133
-0.051233664 0.14352767 -0.22451933
-0.051039997 0.14351933 -0.224479
-0.050911225 0.14351201 -0.22450055
-0.050640669 0.14349367 -0.224508
-0.050297335 0.14347789 -0.22452566
-0.050078202 0.14348301 -0.2245266
-0.049890198 0.1435122 -0.2245452
-0.049655497 0.14351051 -0.22452767
-0.049483333 0.14350216 -0.22454067
-0.049301833 0.14349668 -0.22454633
-0.049125835 0.14348567 -0.22454667
-0.048880287 0.14349015 -0.2245663
-0.048709717 0.14350928 -0.22454557
-0.048493888 0.1435179 -0.22453721
-0.04827233 0.14350784 -0.22452752
-0.048101667 0.14349951 -0.22451299
-0.047948826 0.14349516 -0.22450285
-0.047701832 0.14347799 -0.22448035
-0.047516 0.143484 -0.22448699
-0.047375001 0.14349601 -0.22449499
-0.047089998 0.14352067 -0.22447968
-0.046714112 0.14349233 -0.22445509
-0.046517286 0.14347586 -0.22444627
-0.046338402 0.1434962 -0.22444901
-0.046123497 0.14350501 -0.224411
-0.045800999 0.143448 -0.224406
-0.045446001 0.14342999 -0.224417
-0.045272663 0.143489 -0.22440667
-0.036487669 0.14350434 -0.22450434
-0.054721668 0.14372 -0.22455356
-0.054536998 0.1436915 -0.22452974
-0.054297198 0.14371639 -0.2244796
-0.054036003 0.14369099 -0.22443499
-0.053884581 0.14368141 -0.22443575
-0.053704288 0.14368959 -0.22442374
-0.053489797 0.1437128 -0.2244308
-0.053125713 0.14370057 -0.22441714
-0.052694999 0.14364851 -0.22441849
-0.052441001 0.143602 -0.22440401
-0.052347999 0.143668 -0.22440299
-0.051890001 0.14369999 -0.22442275
-0.051777665 0.14370233 -0.22440833
-0.051578999 0.14368667 -0.22446032
-0.051228002 0.143705 -0.224499
-0.051034 0.143695 -0.224465
-0.05090344 0.14372332 -0.22448665
-0.050632 0.14370434 -0.22451967
-0.050289441 0.14368878 -0.22451867
-0.050062496 0.14367966 -0.2245072
-0.0499046 0.1436832 -0.22453579
-0.04964767 0.14372249 -0.22451834
-0.049475163 0.1437135 -0.22454067
-0.049294665 0.14370783 -0.22452533
-0.049118336 0.14369766 -0.22453301
-0.048866332 0.14368066 -0.22455867
-0.048719749 0.14367937 -0.22455287
-0.048487838 0.143695 -0.22451968
-0.048264336 0.14371949 -0.22451933
-0.048093837 0.14371084 -0.22450566
-0.047940165 0.14370617 -0.22450967
-0.047694337 0.14369 -0.22446384
-0.047499165 0.14368168 -0.22448331
-0.047369331 0.143674 -0.224472
-0.047082998 0.14369601 -0.22448951
-0.04670522 0.14370312 -0.22447067
-0.046527669 0.1436965 -0.22446233
-0.046341836 0.14369433 -0.22443199
-0.046116333 0.143681 -0.22441334
-0.045947999 0.143738 -0.224415
-0.045297999 0.1436888 -0.22440639
-0.036480665 0.14371701 -0.22447866
-0.054832499 0.143902 -0.224575
-0.054707147 0.14391042 -0.2245293
-0.054574002 0.14392167 -0.22452033
-0.054306835 0.14391416 -0.224473
-0.054027665 0.14390233 -0.22442567
-0.053884003 0.14388627 -0.22442771
-0.05366683 0.14385501 -0.22442366
-0.053501599 0.14388299 -0.2244238
-0.053136334 0.14392249 -0.22441082
-0.052836001 0.14390901 -0.224401
-0.052340001 0.14387767 -0.22440632
-0.051881373 0.14392887 -0.22441737
-0.051770002 0.14387751 -0.22442099
-0.051571999 0.14389968 -0.22443999
-0.05122133 0.14388067 -0.22449298
-0.051027 0.14387101 -0.22446533
-0.050897669 0.14389983 -0.22447383
-0.050624002 0.14391567 -0.22451033
-0.05030543 0.14389057 -0.22451086
-0.050091252 0.14390287 -0.22448874
-0.04988667 0.1438795 -0.22453117
-0.04964 0.143898 -0.22453
-0.049467832 0.143925 -0.22452168
-0.049284998 0.14391768 -0.2245595
-0.049110334 0.14390917 -0.22452267
-0.04886011 0.14389345 -0.22452031
-0.048704557 0.14388201 -0.22453645
-0.04852483 0.14387167 -0.22451834
-0.048303001 0.14389837 -0.22451323
-0.048086669 0.14392267 -0.22448701
-0.047933336 0.14391884 -0.22448166
-0.047686499 0.14390117 -0.22446151
-0.047490835 0.1438925 -0.22448666
-0.047361668 0.143885 -0.22445732
-0.047076002 0.14387234 -0.22448169
-0.04669711 0.14391467 -0.22446646
-0.046519667 0.14390816 -0.224455
-0.046333667 0.14390534 -0.22443032
-0.045943998 0.14384401 -0.22441199
-0.045598 0.143929 -0.224402
-0.036470335 0.14392766 -0.22452533
-0.054837503 0.14409624 -0.22459124
-0.054716375 0.14408162 -0.22453487
-0.054567501 0.14409751 -0.22450951
-0.054282796 0.1441108 -0.22445861
-0.054020334 0.144113 -0.22441201
-0.053865835 0.14410283 -0.22442602
-0.053477399 0.14406519 -0.2244072
-0.053087 0.14409551 -0.224419
-0.052827332 0.14411901 -0.22440833
-0.05242167 0.14409366 -0.22441466
-0.052331999 0.14408733 -0.22440666
-0.051886331 0.14409602 -0.224418
-0.051563334 0.14410932 -0.22444133
-0.051213335 0.14409201 -0.22448434
-0.051018998 0.14408167 -0.22446366
-0.050890666 0.14407521 -0.22447088
-0.050616998 0.14412767 -0.22448198
-0.050314669 0.14411217 -0.22450133
-0.050107244 0.14409712 -0.22449388
-0.049896859 0.14410244 -0.22450542
-0.049671996 0.144077 -0.22450767
-0.04951914 0.144088 -0.22452141
-0.049269803 0.1441156 -0.2245338
-0.049102005 0.1441205 -0.22452731
-0.048852 0.14410466 -0.22451867
-0.04869689 0.14409333 -0.22452821
-0.048517335 0.14408401 -0.22450833
-0.048306875 0.14408438 -0.22450364
-0.048079498 0.14409849 -0.22449526
-0.047919199 0.144115 -0.2244812
-0.047665 0.1441118 -0.22445402
-0.047483504 0.14410399 -0.22447133
-0.047352668 0.14409566 -0.22447567
-0.047067668 0.14408332 -0.22448933
-0.04668989 0.14412667 -0.22444423
-0.046511333 0.14411899 -0.22445434
-0.046325166 0.14411634 -0.22443564
-0.036463 0.144104 -0.224534
-0.054843832 0.14429151 -0.22458132
-0.054700665 0.14428222 -0.22454344
-0.054561 0.144272 -0.22450601
-0.054310597 0.14428079 -0.22446319
-0.054012332 0.14432333 -0.224407
-0.053886 0.14433867 -0.22441132
-0.053431999 0.14428701 -0.22440965
-0.053166501 0.14424101 -0.224406
-0.052907001 0.14435466 -0.22440468
-0.052436497 0.144288 -0.22441176
-0.05232333 0.14429833 -0.22441234
-0.051972002 0.144278 -0.224415
-0.051555336 0.14432032 -0.22443433
-0.051205665 0.14430301 -0.22447599
-0.051011667 0.14429367 -0.22444968
-0.050881781 0.14428566 -0.22448699
-0.050610997 0.14430499 -0.224466
-0.050308336 0.1443245 -0.22446251
-0.050135002 0.14431934 -0.22447033
-0.04991322 0.14430623 -0.22447912
-0.049665004 0.144289 -0.22448067
-0.049499776 0.14427868 -0.22450389
-0.049281001 0.14428499 -0.22452521
-0.04909575 0.1442965 -0.22451374
-0.048857432 0.14430685 -0.22451629
-0.048708547 0.14431226 -0.22451697
-0.048509836 0.14429517 -0.22449152
-0.048299249 0.14427762 -0.22450824
-0.04809057 0.14428544 -0.22449113
-0.047924999 0.1442838 -0.224489
-0.0476848 0.14430979 -0.2244492
-0.047492858 0.144326 -0.22446714
-0.047344666 0.14430667 -0.22447266
-0.047060668 0.14429466 -0.22446434
-0.046682667 0.14430217 -0.22445099
-0.046503998 0.14429526 -0.2244615
-0.04631767 0.14432816 -0.22441934
-0.036457334 0.14428133 -0.22451366
-0.054835498 0.14450184 -0.22458285
-0.054692551 0.144493 -0.22453891
-0.054552663 0.14448299 -0.22451334
-0.054303598 0.14446399 -0.22445659
-0.054198001 0.14454401 -0.224429
-0.053871751 0.14451712 -0.22441213
-0.053424999 0.144462 -0.224415
-0.052884128 0.14446276 -0.22440726
-0.052473247 0.14449975 -0.22441326
-0.052315667 0.144509 -0.22440434
-0.051888663 0.14448434 -0.224406
-0.051550999 0.144463 -0.224408
-0.051201001 0.14444301 -0.224466
-0.051100753 0.14450875 -0.22445524
-0.050886404 0.14450462 -0.22447889
-0.050604668 0.14447933 -0.22445734
-0.050302751 0.14450075 -0.22443825
-0.050129 0.14449576 -0.224453
-0.049906332 0.14451821 -0.22445334
-0.049657334 0.14450066 -0.22446632
-0.049503375 0.14448175 -0.22450088
-0.049284287 0.14449343 -0.224511
-0.049089331 0.144473 -0.22450833
-0.048853599 0.1445138 -0.22453479
-0.048708498 0.14451791 -0.2245056
-0.048501495 0.1445065 -0.224491
-0.048324499 0.14450015 -0.22448801
-0.048107777 0.14448766 -0.22448188
-0.047912169 0.14448167 -0.22446501
-0.047733501 0.144504 -0.22442651
-0.047497999 0.14450698 -0.2244563
-0.047337335 0.144519 -0.224452
-0.047051668 0.14450599 -0.22447866
-0.046676669 0.14447866 -0.22443753
-0.046498001 0.14447115 -0.22445416
-0.046327997 0.14449233 -0.22441368
-0.036449 0.14449365 -0.22450869
-0.054833204 0.14469901 -0.2245802
-0.054695703 0.1447113 -0.22454259
-0.054544002 0.14469399 -0.22452033
-0.054362997 0.14469068 -0.22447933
-0.054192003 0.14468201 -0.22444399
-0.053927999 0.144739 -0.224401
-0.052857 0.144612 -0.224408
-0.052653499 0.144701 -0.224417
-0.05249 0.144658 -0.224415
-0.052352164 0.14472234 -0.22440898
-0.051916331 0.14474367 -0.22440465
-0.051542331 0.14467199 -0.22442
-0.05119 0.14472501 -0.22445633
-0.050898504 0.14470966 -0.22446258
-0.050595999 0.14469068 -0.22446501
-0.050295498 0.14467601 -0.22444318
-0.050122336 0.14467166 -0.2244485
-0.049885716 0.14470758 -0.22445372
-0.049649667 0.144711 -0.22446632
-0.049529668 0.14470384 -0.22448234
-0.049302559 0.14469534 -0.2245
-0.049081165 0.1446835 -0.22450368
-0.0488558 0.144684 -0.2245442
-0.048692003 0.144705 -0.22448809
-0.048492834 0.14471667 -0.22449966
-0.048316333 0.14471151 -0.22448651
-0.048100218 0.14469944 -0.224462
-0.047905337 0.14469384 -0.22443599
-0.047726333 0.14467932 -0.22442667
-0.047514502 0.14467862 -0.22445612
-0.047330998 0.144695 -0.224436
-0.047044668 0.14471734 -0.22445066
-0.046668556 0.14469056 -0.22443189
-0.04649033 0.1446825 -0.22443898
-0.0463285 0.1446985 -0.22441301
-0.036441665 0.14470667 -0.22448599
-0.054845665 0.144925 -0.22458135
-0.054705169 0.14491625 -0.22454858
-0.054535333 0.144905 -0.22453333
-0.054353666 0.14490066 -0.22450566
-0.054183003 0.14489333 -0.22445267
-0.053877335 0.1448545 -0.2244065
-0.053497002 0.144961 -0.224408
-0.052747667 0.144886 -0.224407
-0.052478999 0.14494 -0.224408
-0.052301999 0.144861 -0.224402
-0.0518355 0.144868 -0.224417
-0.051785499 0.14486501 -0.22441199
-0.051532999 0.14488234 -0.22444268
-0.051182501 0.14490199 -0.224466
-0.050891083 0.14492151 -0.22444282
-0.050587665 0.14490134 -0.22447133
-0.050287332 0.14488749 -0.22444482
-0.050113667 0.14488234 -0.22446115
-0.049918856 0.14487171 -0.22445142
-0.049679749 0.1449255 -0.2244705
-0.049521502 0.14491467 -0.224479
-0.049295332 0.144907 -0.22447854
-0.049073666 0.14489584 -0.224485
-0.048845168 0.14488101 -0.22451067
-0.048704185 0.14487702 -0.22447892
-0.048478 0.14491379 -0.2244802
-0.048309501 0.144924 -0.22445452
-0.048092559 0.14491089 -0.22445321
-0.047897 0.14490516 -0.22443883
-0.0477175 0.1449255 -0.22441399
-0.047496334 0.14488012 -0.22444588
-0.047323335 0.14487 -0.22445701
-0.047037002 0.14492834 -0.22444434
-0.046678286 0.14489184 -0.22443044
-0.046511374 0.14490438 -0.22443512
-0.046295334 0.14489134 -0.22442134
-0.036435336 0.14491968 -0.224443
-0.054838501 0.1451 -0.22458801
-0.054691099 0.14511171 -0.22455609
-0.054526668 0.14511466 -0.22453733
-0.054345667 0.14511199 -0.224503
-0.054174673 0.14510401 -0.22445567
-0.053984001 0.145024 -0.224425
-0.0534475 0.145062 -0.2244045
-0.053399999 0.145128 -0.224406
-0.052792002 0.14503001 -0.224408
-0.052474998 0.145045 -0.224408
-0.051525999 0.14509366 -0.224419
-0.051176 0.14507601 -0.22446334
-0.050895996 0.14509244 -0.22445473
-0.050797001 0.145162 -0.224454
-0.050579336 0.14511199 -0.224472
-0.050278667 0.14509767 -0.22444916
-0.050106335 0.14509399 -0.22444235
-0.049931332 0.1450845 -0.22443233
-0.049729802 0.14508381 -0.2244416
-0.049514666 0.14512651 -0.22445583
-0.049312711 0.14510928 -0.22447944
-0.049099375 0.14511788 -0.22446664
-0.048838001 0.14509283 -0.224491
-0.048719116 0.14508301 -0.22446132
-0.0485285 0.14508113 -0.22448513
-0.048303001 0.1451 -0.22445151
-0.048110712 0.14511286 -0.22444001
-0.047903143 0.14512627 -0.22444959
-0.047711998 0.1450665 -0.224418
-0.047499999 0.14508325 -0.2244295
-0.047336001 0.1451005 -0.22444925
-0.047030501 0.145106 -0.22443449
-0.046682835 0.14511301 -0.22442567
-0.046513107 0.14510733 -0.22443502
-0.046287496 0.14510234 -0.22441833
-0.036430001 0.145096 -0.224411
-0.054831665 0.14527567 -0.22458799
-0.0546978 0.14528279 -0.224539
-0.054519337 0.145326 -0.224521
-0.054338668 0.14532267 -0.22447734
-0.05416733 0.14531434 -0.22444399
-0.051518336 0.14530466 -0.22441132
-0.051167998 0.14528699 -0.22446001
-0.050904885 0.14527422 -0.22445801
-0.050791502 0.145303 -0.224454
-0.050570667 0.14532334 -0.224479
-0.050271004 0.14530949 -0.22444318
-0.050098002 0.14530434 -0.22444417
-0.049923167 0.14529566 -0.22443502
-0.049706001 0.14527966 -0.22445166
-0.049507998 0.145302 -0.2244515
-0.049325496 0.14529675 -0.224452
-0.049102224 0.14532033 -0.22447477
-0.048830163 0.14530383 -0.22448249
-0.048710559 0.14529456 -0.22446257
-0.048511334 0.14528355 -0.22447269
-0.048296165 0.14527532 -0.22445001
-0.048123002 0.14529926 -0.22442675
-0.047907624 0.14531924 -0.22444351
-0.047523335 0.14530466 -0.22444333
-0.047351331 0.14529634 -0.22442167
-0.047023337 0.145281 -0.22444499
-0.04667433 0.14532417 -0.22442682
-0.046504993 0.14531855 -0.22443424
-0.046255499 0.14529575 -0.22440501
-0.036424 0.145237 -0.2244245
-0.054824665 0.14548834 -0.22456233
-0.054714333 0.145482 -0.22452743
-0.054562997 0.1454832 -0.22449879
-0.054332502 0.14549901 -0.22446701
-0.054160669 0.14552633 -0.22441566
-0.0515115 0.14548099 -0.224406
-0.051162001 0.14549966 -0.22441833
-0.050896335 0.1454851 -0.22446111
-0.050785333 0.14547867 -0.22444433
-0.050566003 0.1454995 -0.224439
-0.050263498 0.14552067 -0.22442633
-0.050090164 0.14551567 -0.22443734
-0.049915165 0.14550616 -0.22442649
-0.049698833 0.14549066 -0.22443216
-0.04950133 0.145478 -0.22444767
-0.049318668 0.14547317 -0.22444902
-0.049114399 0.14548999 -0.22447619
-0.048889335 0.14552084 -0.22447251
-0.048719272 0.14551264 -0.22447672
-0.048504002 0.14549524 -0.2244482
-0.048288003 0.14548667 -0.22444582
-0.048116166 0.14547551 -0.22443081
-0.047921143 0.14548984 -0.22442913
-0.047515828 0.14551634 -0.22442834
-0.047343504 0.14550768 -0.22441934
-0.047016334 0.145492 -0.22442001
-0.046668001 0.145501 -0.22441649
-0.046486285 0.14550944 -0.22442229
-0.046223 0.14548999 -0.224406
-0.0364145 0.145521 -0.22440401
-0.054817002 0.14569867 -0.22455533
-0.054706227 0.14569266 -0.22452869
-0.054547835 0.14567916 -0.22448218
-0.054326337 0.14567499 -0.22444899
-0.054154001 0.145702 -0.2244045
-0.051502332 0.145726 -0.22440566
-0.051153332 0.14571001 -0.22443132
-0.050888781 0.14569646 -0.22445244
-0.050776664 0.14568967 -0.224452
-0.050558332 0.14567567 -0.22445066
-0.050235756 0.14573026 -0.22441649
-0.050082337 0.14572667 -0.22442703
-0.049914397 0.14571781 -0.22442119
-0.0497058 0.14571659 -0.2244266
-0.049493331 0.14568867 -0.224438
-0.0493115 0.145684 -0.22443533
-0.049137171 0.14567484 -0.22444884
-0.048915751 0.1456995 -0.22446701
-0.048719 0.14571857 -0.22445482
-0.048496224 0.14570634 -0.22443867
-0.048280168 0.145698 -0.22443832
-0.048107501 0.14568633 -0.224437
-0.047894627 0.14567125 -0.22442889
-0.047508001 0.14572734 -0.2244245
-0.047314502 0.14569974 -0.22441649
-0.047009997 0.145669 -0.22441
-0.046689 0.14567733 -0.22440833
-0.046494402 0.14565662 -0.2244124
-0.036408499 0.145661 -0.22441
-0.036127001 0.145757 -0.2246
-0.055001002 0.14599 -0.224593
-0.054808334 0.14590934 -0.22456001
-0.054698888 0.14590365 -0.22450988
-0.054540168 0.14589016 -0.22447032
-0.054319669 0.14588666 -0.22441767
-0.051144332 0.14592066 -0.224438
-0.050881445 0.14590745 -0.22443046
-0.050769001 0.14589967 -0.22445166
-0.050551001 0.145886 -0.22443999
-0.05024875 0.14590774 -0.22442326
-0.050075751 0.14590275 -0.22442149
-0.049892198 0.14591441 -0.2244252
-0.049683169 0.1459135 -0.22441618
-0.049477801 0.14588621 -0.2244256
-0.0493025 0.14589517 -0.22445416
-0.049129169 0.14588633 -0.22444201
-0.048910003 0.1458755 -0.22444634
-0.048701994 0.14591551 -0.22444212
-0.048488665 0.14591755 -0.22442657
-0.04827233 0.14590916 -0.22443219
-0.048099831 0.14589816 -0.2244225
-0.047885999 0.1459 -0.22442587
-0.047679499 0.14591101 -0.224409
-0.047501002 0.1459035 -0.22442324
-0.047284666 0.145927 -0.22441266
-0.046684001 0.145817 -0.22440401
-0.036124498 0.145863 -0.22458149
-0.054900751 0.14609076 -0.22454876
-0.0547028 0.1461226 -0.22448298
-0.054533329 0.146102 -0.22444166
-0.054311335 0.14609666 -0.22441466
-0.051137999 0.14609599 -0.22442999
-0.05087471 0.14612886 -0.22441229
-0.050761666 0.14611201 -0.22442766
-0.050542999 0.146098 -0.22442366
-0.050249599 0.1460692 -0.22443759
-0.050087284 0.14608844 -0.22442658
-0.049900401 0.1460834 -0.22441462
-0.049752336 0.146128 -0.22442633
-0.049505286 0.14611301 -0.22442627
-0.0492955 0.14610668 -0.22442518
-0.049120501 0.14609782 -0.2244515
-0.048902333 0.14608634 -0.22443981
-0.048715096 0.14608519 -0.22444579
-0.048481576 0.14610887 -0.22442715
-0.048283432 0.14613143 -0.22442414
-0.048091665 0.14610916 -0.22441949
-0.047878876 0.14609338 -0.22441636
-0.047496501 0.14604475 -0.22440849
-0.047279 0.14606901 -0.22440501
-0.036111001 0.14618 -0.22459801
-0.054992337 0.14627233 -0.22455502
-0.054704729 0.14632101 -0.22447485
-0.054524835 0.14631267 -0.22444516
-0.051131666 0.146273 -0.22442098
-0.0508665 0.146276 -0.22443101
-0.050770801 0.1463384 -0.224438
-0.050534666 0.14630866 -0.22443132
-0.050273668 0.14629833 -0.22441666
-0.050104667 0.14628977 -0.22443011
-0.049885672 0.14628033 -0.22441466
-0.049745001 0.146304 -0.2244395
-0.049469668 0.14632285 -0.22442251
-0.049286667 0.14631717 -0.22443767
-0.049112499 0.14630866 -0.22444384
-0.048894167 0.1462975 -0.22443752
-0.048697829 0.14628182 -0.22444224
-0.048521001 0.14628561 -0.22444758
-0.048257247 0.14629675 -0.22442399
-0.048091799 0.14633499 -0.22441539
-0.047876999 0.14627999 -0.22440299
-0.047529999 0.146221 -0.224402
-0.036106333 0.146322 -0.22458033
-0.054983333 0.146483 -0.224564
-0.054714888 0.14649211 -0.22448066
-0.054517165 0.14652316 -0.2244395
-0.051124003 0.14648333 -0.22441334
-0.050885201 0.1464854 -0.2244188
-0.050770003 0.146501 -0.224425
-0.050525334 0.14651899 -0.22445466
-0.050269 0.146439 -0.22440299
-0.050084714 0.14648029 -0.224411
-0.049860001 0.14649048 -0.22442
-0.049739003 0.14648066 -0.22442432
-0.049502667 0.146501 -0.22441234
-0.049278498 0.1465285 -0.22444083
-0.049104165 0.1465195 -0.22444634
-0.048885506 0.1465085 -0.22444266
-0.048714999 0.14649424 -0.22442999
-0.048506003 0.14648251 -0.22444248
-0.04829644 0.14647356 -0.22441655
-0.048091665 0.14648502 -0.22440733
-0.047866002 0.146561 -0.224406
-0.047302999 0.14656401 -0.22440401
-0.046535999 0.1465545 -0.22441301
-0.036097001 0.146534 -0.224599
-0.054976001 0.146695 -0.224548
-0.054698419 0.14667876 -0.22447307
-0.054510251 0.14669874 -0.22444025
-0.051112998 0.14676601 -0.224402
-0.050850004 0.146681 -0.22440566
-0.050758004 0.1466908 -0.224418
-0.050520003 0.146696 -0.224426
-0.050257329 0.14672001 -0.224415
-0.050136503 0.14671367 -0.22441018
-0.049837999 0.14663 -0.22440299
-0.049730998 0.14669199 -0.22441466
-0.049484856 0.14665642 -0.22441326
-0.04927225 0.14670426 -0.224426
-0.049089201 0.14671579 -0.22442861
-0.048893798 0.14670701 -0.22443061
-0.048691154 0.14671062 -0.22442266
-0.048497334 0.14669348 -0.22444999
-0.048357248 0.14667 -0.224415
-0.048140332 0.14667667 -0.22441949
-0.047859997 0.14670101 -0.22441199
-0.047508001 0.14678501 -0.22440401
-0.047285002 0.14665633 -0.22440499
-0.046532001 0.14666 -0.22442
-0.036092002 0.14667533 -0.22459801
-0.054967999 0.146905 -0.22454967
-0.054690417 0.14689009 -0.22447067
-0.054503497 0.14687467 -0.22443832
-0.051107999 0.14690532 -0.22440301
-0.050842501 0.14685601 -0.224409
-0.050755169 0.14688699 -0.22442268
-0.050513331 0.14687167 -0.22442566
-0.050251 0.14685901 -0.224425
-0.050148249 0.1469415 -0.2244135
-0.049899001 0.146844 -0.224406
-0.049722999 0.14690232 -0.22441334
-0.049404334 0.146883 -0.22441299
-0.049265668 0.14687999 -0.22441833
-0.049099602 0.1468862 -0.22442178
-0.048718501 0.14690717 -0.22442758
-0.048527572 0.14690757 -0.22440898
-0.048324671 0.14689784 -0.22443567
-0.048126001 0.14687051 -0.2244135
-0.047789998 0.146873 -0.224402
-0.047504 0.14689 -0.22440501
-0.046522997 0.146906 -0.22440401
-0.036086001 0.14685151 -0.2245775
-0.055126999 0.14719599 -0.2246
-0.054960001 0.14711533 -0.22454201
-0.054699101 0.1470935 -0.22448179
-0.054520629 0.14709689 -0.22444063
-0.050879333 0.14712834 -0.22440867
-0.050748497 0.147063 -0.22441
-0.050505336 0.14708167 -0.22441934
-0.050135333 0.14708801 -0.224418
-0.049275 0.14704567 -0.22440666
-0.049045 0.14701 -0.22441299
-0.048941001 0.14711 -0.22441199
-0.0487055 0.14711511 -0.22442201
-0.048544332 0.14707233 -0.22440334
-0.048340999 0.14709149 -0.22441675
-0.048098002 0.147025 -0.22441299
-0.054951668 0.14732666 -0.22454767
-0.05470233 0.14731178 -0.22447909
-0.054521777 0.14730054 -0.22443591
-0.050898999 0.147246 -0.224402
-0.050738838 0.14730899 -0.22441816
-0.05023567 0.147283 -0.22441167
-0.0501565 0.14727449 -0.2244055
-0.048937 0.14721701 -0.224408
-0.048741665 0.14726166 -0.224419
-0.036065999 0.147383 -0.22456899
-0.0549445 0.14750201 -0.2245515
-0.054693893 0.14752233 -0.2244828
-0.054513667 0.14751054 -0.22443622
-0.050840665 0.14752567 -0.224407
-0.050730333 0.14751934 -0.22442667
-0.050151002 0.147415 -0.224402
-0.049803 0.147543 -0.224401
-0.049378499 0.147551 -0.2244135
-0.049109001 0.147506 -0.22440401
-0.048728999 0.147412 -0.224402
-0.036061335 0.14752333 -0.22453666
-0.054937664 0.147678 -0.224555
-0.054678287 0.14771214 -0.22447599
-0.054496873 0.14771113 -0.22443825
-0.050809503 0.1477 -0.224419
-0.050718598 0.14771619 -0.2244124
-0.0497985 0.14764899 -0.22440651
-0.049131002 0.14769633 -0.22440167
-0.048736401 0.1476832 -0.22440842
-0.036053002 0.1477 -0.224574
-0.054929331 0.147888 -0.224554
-0.054687001 0.14788237 -0.22448526
-0.05449789 0.14790833 -0.22443435
-0.050803997 0.14783999 -0.224418
-0.050734665 0.14789517 -0.22441368
-0.036046997 0.14787734 -0.22455667
-0.054921668 0.14809799 -0.224548
-0.054671776 0.14808366 -0.22448689
