# .PCD v0.7 - Point Cloud Data file format
VERSION 0.7
FIELDS x y z
SIZE 4 4 4
TYPE F F F
COUNT 1 1 1
WIDTH 1360
HEIGHT 1
VIEWPOINT 0 0 0 1 0 0 0
POINTS 1360
DATA ascii
-0.024823999 0.10338467 -0.22551467
-0.030996 0.103503 -0.2255265
-0.030862667 0.10354333 -0.22552834
-0.030748 0.103564 -0.225529
-0.030319 0.103544 -0.225519
-0.030144142 0.10358028 -0.22545944
-0.029979572 0.10359686 -0.22543229
-0.029787999 0.10361075 -0.22539601
-0.029618001 0.1035975 -0.225381
-0.0294425 0.1036285 -0.22537649
-0.029263999 0.1036195 -0.22537249
-0.029040799 0.103634 -0.22538459
-0.028893501 0.10359767 -0.22539115
-0.028548 0.10359868 -0.22549166
-0.028321499 0.10358733 -0.22544099
-0.0281865 0.103602 -0.22536701
-0.027989499 0.1036285 -0.22536549
-0.027326999 0.103679 -0.225363
-0.027070001 0.10361075 -0.22538325
-0.026946126 0.1035995 -0.22541198
-0.026678333 0.10359167 -0.22550802
-0.0263802 0.1035918 -0.22550181
-0.026192499 0.10359526 -0.2254445
-0.026003668 0.1035825 -0.22542317
-0.025851 0.1035715 -0.225409
-0.025635999 0.1035685 -0.22544326
-0.025445752 0.1035665 -0.225463
-0.0252655 0.10356399 -0.22549301
-0.025132 0.103522 -0.22550499
-0.030130999 0.103753 -0.22553
-0.029988168 0.10377616 -0.22549649
-0.02978025 0.103759 -0.22543974
-0.029601002 0.10376899 -0.2254332
-0.029434666 0.10377833 -0.2254255
-0.029255666 0.10376916 -0.22542332
-0.029056 0.10377729 -0.22543314
-0.02888325 0.1037855 -0.2254515
-0.028312501 0.1037405 -0.22550601
-0.0281586 0.1037634 -0.2254376
-0.027958224 0.10377945 -0.22541812
-0.027812 0.10382125 -0.2253885
-0.027633499 0.10380075 -0.22539251
-0.027453801 0.10377439 -0.22538821
-0.0273205 0.103791 -0.22539701
-0.02709925 0.10378 -0.2254115
-0.026942501 0.10377666 -0.2254595
-0.026671 0.103738 -0.22553401
-0.026174 0.1037688 -0.225504
-0.025986124 0.10376351 -0.22549501
-0.0258405 0.10376149 -0.22548099
-0.025627499 0.10372049 -0.2254985
-0.025452333 0.10370767 -0.225522
-0.029982001 0.10388833 -0.22553234
-0.02977 0.10394666 -0.22549684
-0.029607799 0.10395 -0.22548461
-0.029424999 0.10396475 -0.22547302
-0.0292455 0.10395675 -0.22547877
-0.029067999 0.1039435 -0.22547276
-0.028909666 0.10393634 -0.22548832
-0.028139332 0.10389366 -0.22548199
-0.027991286 0.10396501 -0.22548413
-0.027805855 0.10396128 -0.22545144
-0.027624249 0.103953 -0.2254605
-0.027452249 0.10394875 -0.22545224
-0.0273125 0.103941 -0.225445
-0.027090751 0.10393175 -0.22546749
-0.026932877 0.10395387 -0.22550914
-0.029701 0.104094 -0.225539
-0.029577667 0.10410733 -0.22552168
-0.029403334 0.10410167 -0.22552033
-0.029238001 0.1041055 -0.22551851
-0.029060001 0.1040935 -0.2255175
-0.028899202 0.10407799 -0.22552261
-0.027964 0.104083 -0.2255345
-0.027797 0.10410371 -0.22551486
-0.027603 0.10409334 -0.22551833
-0.027443999 0.10410025 -0.2255055
-0.0273035 0.10409451 -0.225513
-0.027082 0.10408375 -0.2255245
-0.026931999 0.10404 -0.225531
-0.026039001 0.0885235 -0.225357
-0.026182 0.088705003 -0.22534899
-0.026043799 0.088643804 -0.22534481
-0.026818 0.088880002 -0.22536001
-0.026639 0.088868 -0.22535799
-0.026379 0.088854998 -0.225346
-0.026176667 0.088846333 -0.225334
-0.026028 0.088840835 -0.2253325
-0.026899001 0.089096002 -0.22535799
-0.026757602 0.089017801 -0.22535339
-0.026562503 0.089029163 -0.22534584
-0.026373999 0.08899533 -0.22533034
-0.026209749 0.089024752 -0.2253415
-0.026021 0.089018255 -0.22533
-0.025795 0.089045003 -0.22535899
-0.025150001 0.089040995 -0.22535101
-0.026941 0.08920525 -0.22533874
-0.0268065 0.089197002 -0.22535351
-0.0265455 0.089182124 -0.2253315
-0.026367001 0.089207001 -0.22530667
-0.026204333 0.08920034 -0.22530518
-0.026013831 0.08919584 -0.225336
-0.025818998 0.089188002 -0.22535832
-0.0256502 0.089191601 -0.22532877
-0.0254 0.089230001 -0.22535001
-0.025329499 0.089194 -0.22534525
-0.026920667 0.089334331 -0.22535001
-0.026751999 0.089407995 -0.22534674
-0.026546091 0.089353077 -0.22532439
-0.026392667 0.089398004 -0.22531833
-0.026198748 0.089376509 -0.225281
-0.02600725 0.089372501 -0.22532925
-0.025827751 0.089365497 -0.2253415
-0.025643399 0.089375995 -0.22532482
-0.025468362 0.089385182 -0.22533236
-0.025323501 0.089370839 -0.22533149
-0.025137 0.089394495 -0.22533
-0.024963999 0.089427002 -0.225346
-0.0272335 0.089576006 -0.2253525
-0.026972 0.089598 -0.225343
-0.026746251 0.08954975 -0.22534776
-0.026556499 0.089540005 -0.22534502
-0.026403001 0.089564331 -0.22532316
-0.026190333 0.089554667 -0.22530615
-0.026008401 0.0895648 -0.22532621
-0.02582133 0.08954183 -0.22533582
-0.025653999 0.089546598 -0.2253128
-0.025465876 0.089554876 -0.22529587
-0.0253185 0.089546248 -0.22529
-0.025133001 0.089535996 -0.2253035
-0.024910001 0.089564346 -0.22532016
-0.024725499 0.08955767 -0.22532167
-0.024537999 0.089617997 -0.22534899
-0.024344668 0.089532338 -0.22533698
-0.0269685 0.089703999 -0.2253205
-0.0267308 0.089726403 -0.2253354
-0.026564142 0.089707136 -0.22534086
-0.026378667 0.089730002 -0.22533967
-0.026183002 0.089732751 -0.225319
-0.0259935 0.089727752 -0.22532375
-0.0258145 0.089719504 -0.2253235
-0.025638498 0.089744173 -0.22530331
-0.025465818 0.089726448 -0.22530083
-0.025321428 0.089733854 -0.22529285
-0.025127335 0.089712001 -0.22527634
-0.024905249 0.089739501 -0.22527775
-0.024719499 0.089734249 -0.22530825
-0.024535 0.089722 -0.22532651
-0.024338001 0.089743339 -0.22530401
-0.024205999 0.089740671 -0.22533034
-0.024085499 0.089754254 -0.22534224
-0.026733249 0.089904502 -0.22533324
-0.026542 0.089917503 -0.22533967
-0.026389001 0.089919001 -0.22532733
-0.026175834 0.089909993 -0.22532219
-0.025988666 0.089902498 -0.22528385
-0.025808001 0.08989533 -0.22531883
-0.025631752 0.089920498 -0.22529425
-0.025477501 0.08991117 -0.22528815
-0.025328666 0.089901 -0.2252893
-0.025120333 0.089923672 -0.22525001
-0.024898499 0.089916997 -0.22527301
-0.024714334 0.089910328 -0.22527415
-0.024530666 0.08989767 -0.22528167
-0.024332 0.089919999 -0.225274
-0.0242 0.089917004 -0.2253025
-0.024056751 0.089912251 -0.22531201
-0.023917001 0.089908004 -0.22534901
-0.026950501 0.090131 -0.22534901
-0.026703751 0.090062745 -0.225336
-0.026541498 0.090080373 -0.2253475
-0.026381752 0.090096503 -0.22532849
-0.02617 0.090086505 -0.22529151
-0.02598075 0.090081252 -0.22530125
-0.025791597 0.090093598 -0.22531199
-0.025625499 0.090097494 -0.22527951
-0.025470555 0.090088554 -0.22528799
-0.025322445 0.090077333 -0.22527234
-0.025114499 0.090098999 -0.225227
-0.02489325 0.090092748 -0.225237
-0.024709001 0.090085246 -0.22523549
-0.024524001 0.090108335 -0.22525233
-0.024326667 0.090095334 -0.22524899
-0.024195001 0.090093009 -0.22526334
-0.024051167 0.09008833 -0.2252935
-0.023887999 0.090102747 -0.225337
-0.023727 0.090149 -0.225357
-0.026672 0.090257004 -0.2253505
-0.026527001 0.090284668 -0.22535123
-0.026375666 0.090273328 -0.22531416
-0.026162999 0.090263836 -0.2253015
-0.025973832 0.090257496 -0.225298
-0.025803799 0.090263397 -0.22529578
-0.025618501 0.090274498 -0.22527975
-0.025463501 0.090265833 -0.225291
-0.025316713 0.09026885 -0.22524817
-0.025106333 0.090279005 -0.225263
-0.024938 0.090271331 -0.22520833
-0.024758251 0.090255871 -0.2252275
-0.024563665 0.090301 -0.22523899
-0.0243195 0.090273 -0.2252505
-0.024188001 0.090269998 -0.22526699
-0.024045501 0.090265006 -0.22526525
-0.02386125 0.090260245 -0.22531551
-0.023723001 0.090256006 -0.2253575
-0.026665 0.090435334 -0.22535767
-0.026520498 0.090461008 -0.22534449
-0.0263675 0.090451002 -0.22533175
-0.026154501 0.090442508 -0.2253335
-0.025981667 0.090424992 -0.22531132
-0.025817169 0.090451501 -0.225293
-0.025629571 0.090463713 -0.2252907
-0.025457 0.090443105 -0.22528775
-0.025309 0.090439752 -0.22524813
-0.025101 0.090453997 -0.2252275
-0.024929 0.090450004 -0.225253
-0.0247835 0.090443254 -0.22524075
-0.024567399 0.090452395 -0.22523943
-0.024313001 0.090449996 -0.22523634
-0.024181001 0.090447001 -0.22526367
-0.024038335 0.090442002 -0.2252665
-0.023854667 0.090437174 -0.22530682
-0.0236794 0.090444997 -0.22534099
-0.023544 0.090459004 -0.2253415
-0.023288 0.090481997 -0.225353
-0.026659001 0.090576001 -0.22535899
-0.026513223 0.090639003 -0.22534943
-0.026361166 0.090628661 -0.22533399
-0.026147334 0.090619832 -0.225338
-0.026003666 0.090616338 -0.225316
-0.0258784 0.090623803 -0.22530739
-0.025647668 0.09063267 -0.22530234
-0.025450168 0.090620667 -0.22528552
-0.025301445 0.090643555 -0.22525042
-0.025092999 0.090633333 -0.22524364
-0.024923002 0.090626664 -0.22523166
-0.024777167 0.090620331 -0.225226
-0.024589797 0.090623401 -0.22521119
-0.024307501 0.090626001 -0.22521201
-0.024176 0.090622999 -0.22523099
-0.024032 0.090619251 -0.2252565
-0.0238392 0.090634204 -0.22528782
-0.023663834 0.090641834 -0.22530884
-0.023495287 0.09064471 -0.22534156
-0.023282334 0.090623342 -0.225348
-0.026498999 0.090782002 -0.225357
-0.026388498 0.090809338 -0.22533834
-0.026153667 0.090786003 -0.225344
-0.02602125 0.090829752 -0.22532175
-0.025861666 0.090821497 -0.22530884
-0.025683001 0.090813167 -0.2253145
-0.025470996 0.090799578 -0.22528709
-0.025294833 0.090820335 -0.22524048
-0.0250865 0.090808496 -0.225228
-0.024915501 0.090804994 -0.22525099
-0.0247695 0.090798497 -0.22524124
-0.024567999 0.090820841 -0.22521383
-0.024302501 0.090766497 -0.225197
-0.024201248 0.090818502 -0.22522424
-0.024025666 0.090795837 -0.22524382
-0.0238504 0.090805009 -0.225279
-0.02365825 0.090818256 -0.22528374
-0.023474669 0.090810336 -0.22532566
-0.023277 0.090800002 -0.225327
-0.022962 0.090893999 -0.22535101
-0.026489999 0.091028005 -0.22534901
-0.026381113 0.090986446 -0.22534445
-0.026173001 0.090975337 -0.22534001
-0.026052201 0.090985999 -0.22531299
-0.0258545 0.090999246 -0.22531199
-0.025675749 0.090990499 -0.22531649
-0.025454998 0.090987548 -0.2252809
-0.025288779 0.09099701 -0.22522834
-0.025080001 0.090986669 -0.22522999
-0.024909332 0.090982325 -0.22523201
-0.024762332 0.090976663 -0.22524966
-0.0245615 0.090998001 -0.2252055
-0.024227751 0.090978995 -0.2252225
-0.024017999 0.091007501 -0.22522916
-0.023834499 0.091002494 -0.22526734
-0.023651833 0.0909945 -0.2252738
-0.023469111 0.090987116 -0.22530158
-0.023271332 0.090975672 -0.22528768
-0.0229585 0.091001004 -0.22534451
-0.026484501 0.091170996 -0.2253525
-0.0263608 0.091155402 -0.22533841
-0.026166001 0.091187336 -0.22531499
-0.026033834 0.091185339 -0.22532201
-0.025847666 0.091176502 -0.22531299
-0.025669836 0.091167174 -0.22529817
-0.025483556 0.091156222 -0.22529644
-0.025304999 0.091176994 -0.22524637
-0.0250725 0.091164 -0.22524151
-0.0249015 0.091159999 -0.22525099
-0.024746399 0.091173604 -0.22522959
-0.024568599 0.091162801 -0.22522299
-0.02448 0.091242 -0.225234
-0.024221333 0.091155827 -0.22521032
-0.024010999 0.091185994 -0.22523174
-0.023828501 0.091178998 -0.2252475
-0.023645502 0.091171503 -0.22526073
-0.023463501 0.091163002 -0.22527801
-0.023264999 0.091186672 -0.225253
-0.022917999 0.091189206 -0.22531781
-0.022766 0.091203496 -0.225344
-0.022676 0.091233999 -0.22533099
-0.026477 0.091348998 -0.225353
-0.026369287 0.091341436 -0.22535084
-0.026198 0.091379672 -0.22534333
-0.026026249 0.091362998 -0.22533324
-0.02583975 0.091354996 -0.22533277
-0.025661999 0.091345496 -0.22531649
-0.025468571 0.091348566 -0.22529516
-0.025296917 0.091355503 -0.22526848
-0.025064999 0.09134233 -0.22525199
-0.024894334 0.091337331 -0.225254
-0.024758 0.0913442 -0.22522299
-0.024616499 0.091359004 -0.22522449
-0.024475999 0.091349006 -0.2252315
-0.024200398 0.091354191 -0.2252136
-0.024004666 0.091362499 -0.22521865
-0.023821667 0.091356166 -0.2252425
-0.02363967 0.091348 -0.22523798
-0.023458112 0.091338895 -0.22524534
-0.023258999 0.091362998 -0.22523001
-0.022905 0.091349751 -0.22528049
-0.022761 0.091344997 -0.22532949
-0.022643665 0.09135133 -0.22532733
-0.026234001 0.09150067 -0.22535335
-0.025992751 0.091522746 -0.22534698
-0.025832167 0.091533005 -0.22534484
-0.025654165 0.091523834 -0.22533216
-0.025475252 0.091521122 -0.22530587
-0.025289625 0.091533504 -0.22527675
-0.0250575 0.091519997 -0.225263
-0.024886999 0.091515005 -0.22525799
-0.024740333 0.091543995 -0.22524349
-0.024608999 0.091537662 -0.22523934
-0.024470001 0.091526002 -0.22522767
-0.0242202 0.091524601 -0.22520962
-0.023998499 0.091538742 -0.22520849
-0.023815248 0.091532998 -0.2252305
-0.023634251 0.091523997 -0.2252055
-0.0234506 0.09152101 -0.22521541
-0.023289748 0.091542497 -0.22521776
-0.022942999 0.091527335 -0.225237
-0.022806833 0.091520496 -0.22526699
-0.022585779 0.091513783 -0.22531234
-0.022448 0.091577999 -0.22535101
-0.026010998 0.091719508 -0.22535852
-0.0258245 0.091711 -0.22535799
-0.025646999 0.091701999 -0.2253435
-0.025453376 0.091716245 -0.22531724
-0.025281919 0.091711998 -0.22529067
-0.025050335 0.091697671 -0.225269
-0.024879999 0.091692664 -0.22525634
-0.024733501 0.091720745 -0.22523774
-0.024603 0.091712996 -0.225223
-0.024462499 0.091703996 -0.225237
-0.024199501 0.091723502 -0.22520918
-0.023991501 0.091716327 -0.22520785
-0.0238095 0.091709167 -0.22521101
-0.023441 0.091724999 -0.22519
-0.023357999 0.091688991 -0.22521375
-0.022937499 0.091703504 -0.2252115
-0.022799749 0.091697499 -0.22526
-0.022589376 0.091716245 -0.22527237
-0.022456752 0.091738001 -0.22532475
-0.022295 0.091704331 -0.22533633
-0.025865 0.091820002 -0.22536001
-0.025639668 0.091879167 -0.22534935
-0.025461571 0.091888718 -0.22532816
-0.025285855 0.091884434 -0.22529241
-0.025095334 0.09189 -0.22526367
-0.024871668 0.091906004 -0.22526567
-0.024726333 0.091898501 -0.22524433
-0.024596 0.09189067 -0.22521967
-0.024455667 0.091880672 -0.225226
-0.024193 0.091899998 -0.22520125
-0.024032 0.0918945 -0.2252005
-0.023891501 0.091889493 -0.2252045
-0.023728 0.091895007 -0.22520633
-0.023433998 0.091901995 -0.22519134
-0.023387 0.091903329 -0.22520299
-0.022931 0.091879331 -0.22520132
-0.022795001 0.091873668 -0.22522517
-0.022612501 0.091902003 -0.22523701
-0.02246625 0.091897748 -0.22530675
-0.022289999 0.0918805 -0.225299
-0.025634 0.092023 -0.225356
-0.025446333 0.092081115 -0.22532146
-0.025293443 0.092067108 -0.22528666
-0.025114333 0.092058502 -0.22527499
-0.024865 0.092083 -0.22525799
-0.024719 0.092077002 -0.22525226
-0.024588499 0.092068002 -0.225235
-0.02445 0.092057496 -0.22520649
-0.0241875 0.092041999 -0.2252015
-0.024049001 0.092090003 -0.22519274
-0.023884499 0.092067666 -0.22520883
-0.023706667 0.092060171 -0.22519733
-0.023427 0.092080995 -0.22519401
-0.02338 0.092080995 -0.22520751
-0.022926001 0.092022002 -0.22518399
-0.022788333 0.092084497 -0.22519082
-0.022606501 0.092078499 -0.22522217
-0.022460334 0.092074156 -0.22527982
-0.022283668 0.092056334 -0.22528
-0.025426799 0.092252396 -0.22534859
-0.025285168 0.092246331 -0.2253115
-0.0250898 0.092257395 -0.22530022
-0.024857 0.092261337 -0.22527267
-0.024711834 0.092254333 -0.22525768
-0.024581 0.092247665 -0.22524698
-0.024443999 0.092233665 -0.22519
-0.024081999 0.092263341 -0.22519134
-0.023877999 0.092244998 -0.2252025
-0.023685001 0.09222433 -0.22519767
-0.023522001 0.092226997 -0.22518149
-0.023376999 0.092185996 -0.22518399
-0.0229195 0.092198998 -0.225183
-0.022798335 0.092251666 -0.22519134
-0.022584667 0.092268325 -0.22523133
-0.022454251 0.092249997 -0.22526126
-0.022277668 0.092266671 -0.225235
-0.025438501 0.092438497 -0.22535335
-0.025296455 0.092432 -0.225317
-0.025138 0.092418499 -0.22531675
-0.024906665 0.092452325 -0.22526868
-0.02472 0.092421673 -0.22527133
-0.024602333 0.092438333 -0.22524799
-0.024434 0.092448331 -0.22521633
-0.024238 0.092433996 -0.22518833
-0.024059169 0.092429332 -0.22519684
-0.023870833 0.092422165 -0.22520266
-0.0236925 0.092432 -0.225188
-0.022783602 0.092454001 -0.22519341
-0.022593334 0.092432998 -0.22520733
-0.022448501 0.092426665 -0.22524233
-0.022271 0.092445001 -0.225234
-0.025418501 0.092614993 -0.22535601
-0.025295876 0.092604749 -0.22533175
-0.025168501 0.092602 -0.225353
-0.0249456 0.092606403 -0.22528641
-0.024766499 0.092630751 -0.22527976
-0.024609834 0.092605501 -0.22525017
-0.024427 0.092625 -0.22522101
-0.024230499 0.092611998 -0.2252005
-0.024052002 0.092606001 -0.22519976
-0.023879668 0.092588335 -0.225197
-0.023661999 0.092609003 -0.22519651
-0.023543 0.092690997 -0.22518501
-0.022903999 0.092589997 -0.22518399
-0.022767499 0.092617005 -0.22518849
-0.022442002 0.092603996 -0.22522776
-0.022264002 0.09262266 -0.22522967
-0.025263222 0.092780776 -0.2253322
-0.025162667 0.092777669 -0.22533
-0.025005501 0.092801496 -0.225307
-0.0247855 0.09279225 -0.2252835
-0.024603 0.092783496 -0.22525251
-0.024419332 0.092804998 -0.22523166
-0.024223333 0.09278933 -0.22520167
-0.024045 0.092785001 -0.22520484
-0.02387975 0.0927945 -0.225187
-0.023687599 0.092785001 -0.22519641
-0.023538999 0.092797995 -0.22518599
-0.022812 0.092726 -0.22518601
-0.022430999 0.092765808 -0.22521
-0.022258 0.092797995 -0.22520399
-0.021715 0.09279 -0.225339
-0.025256164 0.092958003 -0.22533466
-0.025154501 0.092956007 -0.22535199
-0.024998 0.09297967 -0.22531533
-0.0247785 0.092969663 -0.22528535
-0.024595832 0.092960171 -0.22525267
-0.0244125 0.092980996 -0.225227
-0.024217 0.092966005 -0.22519299
-0.024054667 0.092950664 -0.22520368
-0.0238265 0.092987999 -0.22518875
-0.023680601 0.092968404 -0.22519021
-0.023346001 0.09296634 -0.22518401
-0.022429751 0.092957497 -0.22519976
-0.022252001 0.092975341 -0.22519134
-0.021708334 0.092967331 -0.22533333
-0.02524922 0.093136109 -0.22533947
-0.025147999 0.093133666 -0.22534601
-0.024990499 0.0931575 -0.22531649
-0.0247715 0.093146995 -0.22528476
-0.024588 0.093139499 -0.22526401
-0.024405999 0.093158334 -0.225224
-0.024210667 0.093143664 -0.22518367
-0.0240555 0.093157247 -0.225187
-0.023829 0.09313067 -0.22518635
-0.0237105 0.093162 -0.22518601
-0.023341 0.093108997 -0.225182
-0.022409249 0.093115501 -0.2251965
-0.022247 0.093116 -0.22518501
-0.0216555 0.0931435 -0.2253345
-0.021437 0.093239002 -0.22535899
-0.0252405 0.093312994 -0.22534899
-0.025167501 0.093346678 -0.225343
-0.024984 0.093333669 -0.22531134
-0.024764335 0.093325831 -0.22529115
-0.024581166 0.093317002 -0.22526699
-0.0243985 0.093336999 -0.22522649
-0.0242035 0.093320996 -0.22518849
-0.024025001 0.093316503 -0.22519374
-0.023835501 0.093344331 -0.22519
-0.023703331 0.09334033 -0.22518867
-0.023438999 0.093326002 -0.225181
-0.022386333 0.093344666 -0.22519
-0.0216495 0.093319498 -0.22530951
-0.021480199 0.093325399 -0.22532961
-0.025233001 0.093490668 -0.22535266
-0.025160499 0.093525 -0.22534676
-0.024976499 0.093513995 -0.22533101
-0.024757002 0.093503252 -0.2252965
-0.024565399 0.093515404 -0.22525981
-0.024392331 0.093514331 -0.22522067
-0.024195999 0.093499005 -0.225192
-0.024017667 0.093494333 -0.22519417
-0.023813 0.093534 -0.22519
-0.023696501 0.093518004 -0.225187
-0.022381 0.093486004 -0.225181
-0.02169 0.0934975 -0.225279
-0.021498 0.093516253 -0.22531964
-0.021317 0.093589999 -0.225353
-0.025245199 0.093691207 -0.2253432
-0.025159601 0.093687803 -0.22534402
-0.024970001 0.09369 -0.22531898
-0.024750335 0.093681 -0.22529101
-0.0245756 0.093686596 -0.22526459
-0.024385501 0.093690999 -0.225225
-0.0241895 0.093676999 -0.22519201
-0.0240194 0.093692794 -0.225192
-0.023799499 0.093680993 -0.22518924
-0.023691 0.093659997 -0.225188
-0.021684334 0.093674004 -0.22525601
-0.021516858 0.093685567 -0.22527099
-0.021313999 0.093695 -0.22532499
-0.021156 0.093716003 -0.22534201
-0.0252175 0.093882002 -0.2253525
-0.0251735 0.093880996 -0.2253515
-0.0249645 0.093866497 -0.2252865
-0.024743751 0.093858495 -0.22528525
-0.0245516 0.093869589 -0.2252562
-0.024377666 0.093870334 -0.22522901
-0.024181999 0.09385433 -0.22519334
-0.0240505 0.093886003 -0.22518951
-0.023770999 0.093840003 -0.22518601
-0.021677 0.093885332 -0.22522898
-0.0215375 0.093880169 -0.22526483
-0.021361167 0.093873329 -0.22530951
-0.021150669 0.093858667 -0.22533834
-0.025210999 0.094059341 -0.22534867
-0.025139332 0.094058663 -0.22535269
-0.024956999 0.094045006 -0.22530699
-0.024736336 0.094036333 -0.22529368
-0.024561401 0.094042405 -0.22526363
-0.024372 0.094045505 -0.22520851
-0.024174333 0.09406767 -0.22518568
-0.023824334 0.094032668 -0.22518367
-0.0237175 0.094086997 -0.22518799
-0.0216715 0.094061002 -0.225209
-0.0215315 0.094056502 -0.22524776
-0.021355249 0.094049744 -0.22528701
-0.021144001 0.094068669 -0.22530133
-0.0252035 0.094237998 -0.225352
-0.0251325 0.094236501 -0.22534725
-0.0249495 0.094223 -0.225319
-0.024718599 0.094235405 -0.2252944
-0.024545334 0.094240665 -0.22526233
-0.024364665 0.094224662 -0.225215
-0.0241675 0.094245002 -0.2251825
-0.023757 0.094195999 -0.225191
-0.021667 0.094200999 -0.22519299
-0.021526 0.0942325 -0.22521965
-0.021349667 0.094225325 -0.22525983
-0.021137999 0.094246 -0.22528151
-0.020976499 0.094231501 -0.225336
-0.025172751 0.094397247 -0.225355
-0.024942333 0.094401002 -0.22531734
-0.0247328 0.094405398 -0.22527859
-0.024538251 0.094418496 -0.22526599
-0.024357 0.094402999 -0.22523001
-0.024163 0.094351001 -0.22518501
-0.021519748 0.094409004 -0.22519951
-0.02134325 0.094402507 -0.2252505
-0.021133 0.094421335 -0.22524466
-0.020948334 0.094425328 -0.22532034
-0.020816667 0.094423331 -0.22534001
-0.025191 0.094558001 -0.22535799
-0.024935 0.094578996 -0.225318
-0.024715001 0.094603837 -0.22527617
-0.024531499 0.094596334 -0.22526033
-0.024350666 0.094579667 -0.225218
-0.023743 0.094549 -0.225181
-0.021490749 0.094567746 -0.22520126
-0.021337001 0.094579332 -0.22523898
-0.021126501 0.094599001 -0.225243
-0.020941749 0.094602749 -0.2253115
-0.020809501 0.094602004 -0.225337
-0.025143666 0.094793342 -0.22535034
-0.024927998 0.094757669 -0.22532801
-0.024757501 0.094785005 -0.22529301
-0.024569502 0.094774507 -0.22525536
-0.0243445 0.094756 -0.2252095
-0.021462001 0.094724998 -0.225189
-0.021331001 0.094755754 -0.2252205
-0.021118999 0.094776332 -0.22524302
-0.020936834 0.094777666 -0.22527367
-0.020757332 0.094776832 -0.2253325
-0.025128834 0.094946504 -0.22534217
-0.024921499 0.094934501 -0.225315
-0.024750665 0.09496367 -0.22529368
-0.024605667 0.094955832 -0.22527482
-0.0244065 0.094940163 -0.22522116
-0.0213148 0.094917595 -0.2252028
-0.021113001 0.094953001 -0.225227
-0.020930251 0.094954252 -0.22526275
-0.020752249 0.094952501 -0.22530375
-0.025121557 0.095124885 -0.22534698
-0.024915 0.095112003 -0.22531134
-0.024744 0.095141001 -0.22528499
-0.024598749 0.095132999 -0.22526775
-0.0243848 0.095138401 -0.22522521
-0.021290001 0.095145002 -0.22519699
-0.021107001 0.095129333 -0.22521299
-0.0209332 0.095117196 -0.2252492
-0.020790998 0.095129997 -0.2252764
-0.020697 0.095164999 -0.2253225
-0.025114665 0.095303006 -0.22534549
-0.024906 0.095325671 -0.22531299
-0.024737 0.09531834 -0.22528367
-0.024591668 0.095311664 -0.22526966
-0.0244052 0.095312603 -0.22523579
-0.021255501 0.095322996 -0.22521099
-0.021100499 0.095307 -0.225198
-0.020960499 0.095310003 -0.22523201
-0.020831 0.095306002 -0.22523075
-0.020693 0.095304996 -0.22528601
-0.020498 0.095300496 -0.22534001
-0.025201 0.095559001 -0.225355
-0.025108334 0.095480546 -0.22533233
-0.024899 0.095503002 -0.22531399
-0.0247305 0.095495507 -0.22528
-0.024585249 0.095488749 -0.22526276
-0.024370801 0.095494404 -0.22522299
-0.021251 0.095463 -0.22518849
-0.021097001 0.095413998 -0.22519
-0.020954667 0.095486008 -0.22521698
-0.020824501 0.095483996 -0.22522682
-0.020686334 0.095482342 -0.22528134
-0.020491667 0.095477335 -0.22533299
-0.025125749 0.09566012 -0.22533225
-0.024892665 0.095680661 -0.2253
-0.024723334 0.095673658 -0.22527868
-0.024577999 0.095666669 -0.22526699
-0.024392601 0.095666803 -0.22521119
-0.020949 0.095662996 -0.2251955
-0.02081725 0.095661253 -0.22522324
-0.020680999 0.095658496 -0.2252585
-0.0204855 0.095656 -0.2253235
-0.025118669 0.09583766 -0.22533214
-0.0248865 0.095858 -0.2252935
-0.0247165 0.095851004 -0.2252765
-0.024571499 0.095844492 -0.22525775
-0.024396 0.095818996 -0.22521567
-0.0211732 0.095863 -0.2251896
-0.0209435 0.095805004 -0.225191
-0.020811165 0.095839173 -0.22521515
-0.020674666 0.095836006 -0.22524565
-0.020479666 0.095831998 -0.22530334
-0.025315 0.096067995 -0.22535799
-0.025102397 0.096035004 -0.22531071
-0.024881 0.096032999 -0.22526133
-0.024711 0.096027672 -0.22525066
-0.024565166 0.096021332 -0.22524466
-0.024434999 0.096012674 -0.225224
-0.024294 0.096070997 -0.225188
-0.021126 0.096010327 -0.22518735
-0.020934001 0.096055001 -0.225188
-0.020804001 0.096016504 -0.22521624
-0.020667501 0.096014 -0.225255
-0.020470334 0.096046992 -0.22532065
-0.025283666 0.096207224 -0.22534987
-0.025114799 0.096206799 -0.22531191
-0.0248725 0.096212998 -0.22528701
-0.024704501 0.096202999 -0.22524101
-0.024557751 0.096199997 -0.22525576
-0.024426667 0.096225329 -0.22521299
-0.024288334 0.096212327 -0.22519065
-0.02117 0.09620633 -0.225188
-0.020926999 0.096198998 -0.22521265
-0.020797165 0.096195169 -0.22520965
-0.02066 0.096192665 -0.225253
-0.0204635 0.096225001 -0.225309
-0.025416 0.096430004 -0.225355
-0.025276834 0.096385002 -0.22534283
-0.02509173 0.096397735 -0.22530033
-0.024866665 0.096389674 -0.22526433
-0.024696333 0.096385337 -0.22526501
-0.024551332 0.096376836 -0.225244
-0.0244205 0.096402496 -0.22520199
-0.020920001 0.096377 -0.225217
-0.02079 0.096374504 -0.22522099
-0.020651666 0.096406668 -0.22525334
-0.020455999 0.096405335 -0.22532801
-0.025456501 0.096573167 -0.22534399
-0.025270777 0.096560888 -0.22532733
-0.025124574 0.096566997 -0.22528228
-0.02493825 0.09657225 -0.22526725
-0.02469 0.096560001 -0.2252475
-0.024544166 0.0965885 -0.22522533
-0.024414333 0.096578337 -0.22519232
-0.021209501 0.096530497 -0.22518399
-0.020949248 0.096534245 -0.22518849
-0.020782834 0.096552007 -0.22522151
-0.020644501 0.096585006 -0.225253
-0.020448999 0.096582502 -0.225326
-0.025627499 0.096760005 -0.225353
-0.025449749 0.096750498 -0.22533725
-0.025264665 0.096738003 -0.22531132
-0.025111333 0.09675701 -0.2252592
-0.024932502 0.096748501 -0.22524633
-0.024684334 0.09673766 -0.22522967
-0.024553999 0.096752323 -0.22519501
-0.024407499 0.096757002 -0.22518501
-0.020906501 0.096733004 -0.22521299
-0.020774167 0.096765839 -0.22522402
-0.020638667 0.096762337 -0.22523999
-0.020442666 0.096759669 -0.22531499
-0.025780501 0.096961752 -0.22534351
-0.025621666 0.096935667 -0.22533034
-0.0254435 0.096926838 -0.22531933
-0.025258889 0.096913218 -0.22528733
-0.0251045 0.096934997 -0.22525817
-0.024926249 0.096925251 -0.225233
-0.0246775 0.096914999 -0.22523101
-0.024576999 0.096942328 -0.22519733
-0.020899 0.096912332 -0.22521599
-0.020766249 0.096946999 -0.22524425
-0.02063 0.096944004 -0.22527
-0.0204335 0.096942 -0.2253495
-0.0259935 0.097128756 -0.22535075
-0.025801498 0.097121 -0.22532573
-0.025615999 0.097112253 -0.22530925
-0.025438501 0.097101502 -0.22528476
-0.025260165 0.0971025 -0.22527349
-0.025116362 0.097120091 -0.22524597
-0.024935801 0.097089395 -0.2252316
-0.024728665 0.09709233 -0.22520266
-0.024570499 0.097119004 -0.225183
-0.021186 0.097135998 -0.22518601
-0.020890333 0.097126335 -0.22522499
-0.020758834 0.097125672 -0.22525333
-0.020621333 0.097125001 -0.22530133
-0.020426 0.097121336 -0.225357
-0.025987668 0.097305171 -0.22533083
-0.025795832 0.097296663 -0.22529949
-0.025610499 0.097287335 -0.22528084
-0.025432833 0.097276665 -0.22526099
-0.025279 0.097282 -0.2252508
-0.025117876 0.097290248 -0.22522563
-0.024991501 0.097285494 -0.22522449
-0.024837 0.097236998 -0.22519299
-0.021179998 0.097279996 -0.22519131
-0.020928999 0.097316332 -0.22522366
-0.020751251 0.097306505 -0.22526902
-0.020614501 0.097304001 -0.225308
-0.0261814 0.097459391 -0.22535542
-0.026002666 0.097469665 -0.22530933
-0.025867334 0.097487003 -0.22529368
-0.025667001 0.097459793 -0.22526661
-0.025453398 0.097461402 -0.2252394
-0.025282284 0.097489282 -0.22522141
-0.025121998 0.097452596 -0.22520702
-0.024985665 0.097461335 -0.225205
-0.0211735 0.097457998 -0.2251915
-0.021015001 0.09748099 -0.22521134
-0.020802667 0.097461842 -0.22527583
-0.0206424 0.097499594 -0.22532082
-0.026296001 0.097643003 -0.2253505
-0.026180001 0.097650148 -0.22532399
-0.026037334 0.09765967 -0.225289
-0.025875332 0.097652502 -0.22528017
-0.025687667 0.097643994 -0.22524667
-0.02551 0.09763366 -0.22522549
-0.025298668 0.097656496 -0.22520399
-0.025164334 0.097634666 -0.225188
-0.021269999 0.097713001 -0.225188
-0.021164665 0.097639002 -0.22521733
-0.021007501 0.097660005 -0.225215
-0.020832798 0.097645 -0.22528401
-0.02069 0.0976675 -0.22533301
-0.026466001 0.097902998 -0.225354
-0.026324 0.0978368 -0.2253432
-0.026187375 0.097821504 -0.22530775
-0.0260315 0.097837001 -0.22527
-0.02586925 0.097828746 -0.2252605
-0.025681751 0.097820252 -0.2252285
-0.025502501 0.097845323 -0.22520684
-0.025343334 0.097788334 -0.22519034
-0.021265499 0.097819999 -0.22520199
-0.021156501 0.097820997 -0.22525099
-0.020998001 0.097843669 -0.22526233
-0.02081625 0.097811751 -0.225318
-0.026533201 0.098020993 -0.22535059
-0.026327001 0.097999752 -0.22532526
-0.026174001 0.098024338 -0.22529019
-0.026024999 0.098012328 -0.22525799
-0.025863001 0.098005168 -0.22524649
-0.025675334 0.09799666 -0.22521167
-0.025542 0.097989999 -0.225191
-0.021257667 0.09800034 -0.225219
-0.021147998 0.098001994 -0.22527401
-0.020989001 0.098026998 -0.22531199
-0.020823335 0.097947001 -0.22535233
-0.034763001 0.098159999 -0.225353
-0.026590668 0.098192163 -0.22532034
-0.02639257 0.098169856 -0.225302
-0.02619525 0.098202005 -0.22527486
-0.02602 0.098188505 -0.225229
-0.025857 0.098181248 -0.22522151
-0.025669999 0.098172002 -0.22518601
-0.021275334 0.098192334 -0.22521932
-0.021139499 0.098182 -0.225298
-0.0209815 0.098173998 -0.22534701
-0.034382001 0.098425001 -0.225352
-0.034029 0.098406002 -0.22535799
-0.026888 0.098425001 -0.225354
-0.026584499 0.098369502 -0.22530675
-0.026404999 0.098357745 -0.22528675
-0.026189586 0.098377407 -0.22525175
-0.026014 0.098363668 -0.22520167
-0.025851168 0.098357499 -0.2252035
-0.021323288 0.098362856 -0.22522143
-0.021158749 0.098380752 -0.22529975
-0.020977 0.098282002 -0.22535899
-0.034464501 0.098536 -0.22535799
-0.034328338 0.098588832 -0.22534782
-0.034086112 0.098566003 -0.22534479
-0.033910334 0.098585665 -0.22535034
-0.033803999 0.098605998 -0.225357
-0.033624999 0.098596998 -0.225348
-0.027197 0.098580003 -0.225353
-0.027128 0.098578006 -0.225344
-0.026883999 0.098563999 -0.22532201
-0.026578501 0.09854617 -0.22528966
-0.026398832 0.09853483 -0.22527283
-0.026183875 0.098553121 -0.22522612
-0.026009001 0.098503999 -0.22518399
-0.025858665 0.098521672 -0.22518766
-0.021495 0.098583996 -0.225197
-0.02135675 0.098545 -0.22523174
-0.021197334 0.098531328 -0.22530167
-0.035222001 0.098817997 -0.225339
-0.034897998 0.098769501 -0.225345
-0.034637999 0.098721661 -0.22535734
-0.034457669 0.098713666 -0.225345
-0.034300603 0.098749004 -0.22534981
-0.034119833 0.09872967 -0.22533949
-0.033941001 0.098732285 -0.22533344
-0.033754166 0.098745674 -0.22534001
-0.0335848 0.098753199 -0.22534862
-0.0333395 0.098694995 -0.225357
-0.033257 0.098728001 -0.22535899
-0.027646 0.098775007 -0.22533767
-0.027518 0.098815002 -0.225336
-0.027264558 0.098728113 -0.22533321
-0.027123833 0.098717667 -0.22531267
-0.026879 0.098738 -0.22528151
-0.026572252 0.098722994 -0.2252775
-0.026392167 0.098744839 -0.22523683
-0.026184998 0.098723821 -0.22521071
-0.026099 0.098792002 -0.22518601
-0.021488002 0.098730326 -0.22522433
-0.021347836 0.098727673 -0.22527017
-0.021224 0.09872701 -0.22533466
-0.035218999 0.098889999 -0.22533999
-0.034665 0.098913334 -0.225353
-0.034449663 0.098926663 -0.22534633
-0.034294114 0.098917454 -0.22532967
-0.034113333 0.098906338 -0.22533321
-0.033953372 0.098902881 -0.22531499
-0.033747751 0.098921753 -0.225328
-0.033570752 0.098915502 -0.2253345
-0.033374503 0.098947495 -0.2253525
-0.033032 0.098893002 -0.2253515
-0.027968401 0.098914795 -0.22535081
-0.027813001 0.098944336 -0.22533667
-0.027663801 0.0989068 -0.22532602
-0.027514499 0.098921001 -0.22532
-0.027259165 0.098902494 -0.22530133
-0.027112002 0.098914996 -0.22529741
-0.026872667 0.098915003 -0.22526766
-0.026566165 0.098898999 -0.22525935
-0.026385749 0.098921746 -0.22522601
-0.026197001 0.098908328 -0.225197
-0.021479499 0.098911002 -0.225255
-0.02133875 0.098910756 -0.22530951
-0.034675498 0.099081159 -0.22535248
-0.034472331 0.099116661 -0.22534032
-0.034287669 0.099093668 -0.22531568
-0.034107666 0.099081665 -0.22531082
-0.033929002 0.099096626 -0.22531074
-0.03374267 0.099095665 -0.2252925
-0.033564001 0.099092007 -0.225327
-0.033370499 0.099086165 -0.22532319
-0.033242002 0.099118501 -0.22533649
-0.033025 0.099071994 -0.22535649
-0.027977286 0.099092714 -0.22532856
-0.027813599 0.099094592 -0.22531219
-0.027649166 0.099103659 -0.22529934
-0.027508667 0.099096663 -0.22530067
-0.027263125 0.099069372 -0.22527224
-0.027127167 0.09909416 -0.22527933
-0.026867 0.099091001 -0.22524799
-0.0265508 0.099094197 -0.2252266
-0.026379833 0.099098332 -0.22520918
-0.02620725 0.099032007 -0.22518399
-0.021471666 0.099092998 -0.22527234
-0.021330664 0.099092163 -0.22533448
-0.034669001 0.099258751 -0.2253495
-0.034480501 0.099282831 -0.22533949
-0.034280002 0.099273108 -0.22532824
-0.034100443 0.099259995 -0.22531345
-0.033941142 0.099267706 -0.22529113
-0.033735 0.0992755 -0.22530325
-0.033558749 0.099267751 -0.22530049
-0.033364251 0.099262744 -0.22530951
-0.033182751 0.099258006 -0.22534199
-0.033018004 0.099283673 -0.225335
-0.032830667 0.099276334 -0.22534335
-0.028441999 0.099357001 -0.225355
-0.028288249 0.099293001 -0.22535148
-0.028137749 0.099275999 -0.22534762
-0.027987124 0.09926337 -0.22530749
-0.027823001 0.099265203 -0.2253058
-0.027643751 0.099278502 -0.22526875
-0.027503001 0.099271998 -0.22527
-0.027275801 0.099275805 -0.22523698
-0.027129333 0.099279769 -0.22523087
-0.026861003 0.099265665 -0.22522001
-0.0265636 0.099263996 -0.2252032
-0.026422 0.099238999 -0.22518601
-0.0214635 0.099274002 -0.225297
-0.021339333 0.099258997 -0.22533368
-0.034474 0.099460497 -0.22533725
-0.034272168 0.099452339 -0.225347
-0.034085285 0.099452429 -0.22531499
-0.033924557 0.099459112 -0.22528145
-0.03372917 0.099450998 -0.22528367
-0.033552665 0.099442162 -0.22527499
-0.033358667 0.099437661 -0.22528648
-0.033187199 0.099422 -0.2253412
-0.033047333 0.099474005 -0.22533067
-0.032823503 0.099454999 -0.22535351
-0.032641999 0.099482 -0.22533999
-0.032545 0.099481001 -0.225356
-0.031958666 0.099491991 -0.22534966
-0.029259667 0.099508338 -0.22534567
-0.029006667 0.099447995 -0.22534867
-0.028718 0.099433333 -0.225339
-0.028536499 0.099469006 -0.22533801
-0.0283674 0.09945 -0.22534339
-0.028150141 0.099450134 -0.22533028
-0.027973333 0.099464439 -0.22527613
-0.0278085 0.099461667 -0.2252785
-0.027637498 0.099455334 -0.22525583
-0.027497666 0.099447332 -0.22524767
-0.027285799 0.099445604 -0.2252188
-0.027123332 0.099455662 -0.2252125
-0.026855499 0.099442005 -0.225201
-0.026550502 0.099388495 -0.22518149
-0.021454999 0.099454664 -0.22532165
-0.021364 0.099417001 -0.22534451
-0.034465998 0.099639505 -0.22535449
-0.034266222 0.099629551 -0.22533199
-0.034092873 0.099625625 -0.22531538
-0.033918001 0.099635996 -0.22527902
-0.033722498 0.099628001 -0.22528002
-0.033546001 0.099619746 -0.22527274
-0.0333515 0.099617004 -0.22529227
-0.033223502 0.099615 -0.225324
-0.033059496 0.099640839 -0.2253225
-0.032816663 0.09963233 -0.225344
-0.032637667 0.099621333 -0.22531466
-0.032504402 0.099632196 -0.22534201
-0.03232 0.099681497 -0.225357
-0.032201 0.099675 -0.225357
-0.031935252 0.099621005 -0.22533524
-0.031332999 0.099706002 -0.225356
-0.030988399 0.099626794 -0.22534761
-0.030871401 0.099625602 -0.2253474
-0.030718252 0.099636994 -0.225352
-0.030565001 0.099629998 -0.225354
-0.029922999 0.099687666 -0.22535168
-0.0297735 0.099664748 -0.2253475
-0.029599501 0.099658996 -0.22533549
-0.029420499 0.099650748 -0.22534376
-0.02924275 0.099637002 -0.225338
-0.029051 0.099638008 -0.22533633
-0.028711667 0.099642672 -0.22530234
-0.028530331 0.099644996 -0.22532867
-0.028388334 0.099634163 -0.22531749
-0.028166361 0.099612996 -0.22529382
-0.027983716 0.099646568 -0.225253
-0.027803499 0.099636257 -0.22524425
-0.02763175 0.099630505 -0.22522825
-0.027492 0.099622995 -0.22522101
-0.027292 0.099627003 -0.22520125
-0.027111499 0.099623248 -0.22519624
-0.02685 0.099583507 -0.225188
-0.02217 0.099615499 -0.2251875
-0.022088999 0.099656999 -0.22520167
-0.021447999 0.099601001 -0.225348
-0.0344145 0.099816002 -0.225354
-0.034290999 0.099809498 -0.22533649
-0.034098998 0.099806778 -0.22531401
-0.033918999 0.099808127 -0.22529189
-0.033732001 0.099819712 -0.22530644
-0.033538003 0.099799998 -0.22529268
-0.033366501 0.099779502 -0.22530276
-0.033249803 0.099805005 -0.22530499
-0.033053249 0.099817254 -0.22531074
-0.032810502 0.099808998 -0.225339
-0.032629497 0.099802002 -0.225348
-0.032480601 0.099814594 -0.22532681
-0.032315001 0.099822164 -0.22534452
-0.032151144 0.099823005 -0.22534357
-0.031929497 0.099796496 -0.22532047
-0.031329997 0.099811003 -0.2253295
-0.031173 0.099802494 -0.22534999
-0.031001499 0.099809252 -0.22533825
-0.030892624 0.099832371 -0.22532862
-0.030711666 0.099814832 -0.22534133
-0.030516 0.099806003 -0.22533698
-0.030337 0.09983775 -0.22534899
-0.030177001 0.099866003 -0.2253505
-0.0299995 0.099819005 -0.22533751
-0.029805332 0.099808671 -0.225329
-0.029595749 0.099798501 -0.22531074
-0.029405799 0.099810801 -0.22531219
-0.029237501 0.099812157 -0.22530782
-0.029079668 0.099803001 -0.22531289
-0.0287055 0.099819005 -0.225283
-0.028525 0.099820495 -0.22529849
-0.028383249 0.099808253 -0.22527999
-0.028177286 0.099809863 -0.22526059
-0.027990917 0.099816583 -0.225223
-0.027797999 0.099810667 -0.22521484
-0.027618801 0.099790409 -0.2251976
-0.027488001 0.099762 -0.22518951
-0.027306 0.099785998 -0.225181
-0.027089 0.099774003 -0.22518751
-0.0221905 0.099798001 -0.22520399
-0.022043001 0.099808 -0.22521821
-0.034407001 0.099993996 -0.225355
-0.034283664 0.099987827 -0.22534017
-0.034128375 0.099969625 -0.22533989
-0.033963669 0.099999666 -0.22531116
-0.033750001 0.099987328 -0.22529884
-0.033531498 0.099978 -0.22528851
-0.033381 0.10000934 -0.22527599
-0.033251666 0.10000233 -0.22527719
-0.033046167 0.099994667 -0.225308
-0.032804001 0.099986337 -0.22532767
-0.032623995 0.099977665 -0.22531767
-0.032491602 0.099986404 -0.2253172
-0.032310501 0.099995255 -0.22530174
-0.032129835 0.099991001 -0.225339
-0.031911202 0.099993005 -0.22530141
-0.031323999 0.099987336 -0.225316
-0.031167334 0.099978991 -0.22532566
-0.031073751 0.099983245 -0.22533365
-0.030894667 0.099998333 -0.22530484
-0.030706 0.099990502 -0.22531725
-0.030510752 0.099980496 -0.22530326
-0.0303325 0.099977493 -0.22532725
-0.030143443 0.10000345 -0.22533099
-0.029994667 0.09999299 -0.22530468
-0.02980011 0.099983223 -0.22529919
-0.029589498 0.0999735 -0.22528867
-0.029419597 0.099981397 -0.22529981
-0.029231749 0.099987999 -0.225283
-0.029061716 0.09999229 -0.225279
-0.028699666 0.099994659 -0.22526033
-0.028520333 0.099992998 -0.22525032
-0.028378336 0.099982172 -0.22524434
-0.028175624 0.099978998 -0.22523363
-0.028003834 0.099982835 -0.22521067
-0.027854333 0.099999003 -0.22518933
-0.02758 0.099946 -0.225187
-0.022367999 0.10003266 -0.2252
-0.022219501 0.099980332 -0.22521716
-0.0220642 0.099984802 -0.22524519
-0.034238502 0.100164 -0.225353
-0.0341204 0.1001642 -0.22535041
-0.033956666 0.10017812 -0.22531468
-0.033785999 0.100168 -0.22531335
-0.033569332 0.100155 -0.22526479
-0.033374999 0.100186 -0.22525799
-0.033244498 0.1001805 -0.22528149
-0.033039752 0.100172 -0.22530076
-0.032796502 0.100164 -0.2253255
-0.032616664 0.10018834 -0.22529334
-0.032476336 0.10018166 -0.22529984
-0.032304332 0.10017134 -0.2252845
-0.032124553 0.10016543 -0.2253111
-0.031945001 0.10015075 -0.2252925
-0.031856999 0.100219 -0.22530299
-0.031240249 0.1001575 -0.22529125
-0.031053999 0.10017412 -0.22529849
-0.030889332 0.1001731 -0.22527602
-0.030700833 0.10016433 -0.22528465
-0.030505 0.10015583 -0.225281
-0.030327499 0.10015083 -0.22528549
-0.030137831 0.10017867 -0.22530432
-0.029989 0.1001675 -0.22527
-0.029782858 0.10017229 -0.22526984
-0.029582666 0.100185 -0.22526316
-0.029403834 0.10017683 -0.22526617
-0.029225834 0.10016283 -0.22525816
-0.029078748 0.10016338 -0.22526349
-0.028695 0.10016949 -0.22522351
-0.028515 0.100168 -0.225217
-0.028371999 0.100158 -0.22522599
-0.028167447 0.10018056 -0.22520632
-0.028063999 0.10017633 -0.22519399
-0.027826499 0.100129 -0.22518349
-0.0225215 0.100168 -0.225189
-0.022376999 0.1001655 -0.225216
-0.022211 0.10016151 -0.22524175
-0.0220262 0.1001714 -0.22527298
-0.034100503 0.1002815 -0.22535351
-0.033948664 0.10035783 -0.22532783
-0.033779502 0.1003455 -0.22530724
-0.033605251 0.1003345 -0.22527599
-0.033421166 0.10036433 -0.22526117
-0.033236999 0.10035933 -0.22529198
-0.033033498 0.10034883 -0.22528882
-0.032790665 0.10033933 -0.22530468
-0.032609999 0.100366 -0.22528851
-0.032470252 0.10035899 -0.22528151
-0.032298248 0.10034826 -0.22526824
-0.032117996 0.10034233 -0.22529916
-0.031966001 0.100362 -0.22526133
-0.031853002 0.10035866 -0.225281
-0.031234002 0.10033432 -0.22528066
-0.031061856 0.10034614 -0.22528858
-0.030884 0.10034784 -0.22524166
-0.030695001 0.10033974 -0.22525725
-0.030498167 0.10036666 -0.225254
-0.030319998 0.100362 -0.22526599
-0.030132886 0.100352 -0.22526468
-0.029985001 0.10034033 -0.22522235
-0.029797876 0.10034388 -0.22525163
-0.029577751 0.10035925 -0.22522651
-0.029398251 0.10035175 -0.2252385
-0.029219501 0.1003405 -0.22525126
-0.029103165 0.10036749 -0.22525017
-0.028977999 0.10035767 -0.22520368
-0.028688999 0.100344 -0.22520132
-0.028508335 0.10034467 -0.22520733
-0.028366668 0.10033267 -0.22519715
-0.028173 0.10034961 -0.22519222
-0.028059 0.100317 -0.22518501
-0.0225535 0.1004245 -0.2252095
-0.022368668 0.10034683 -0.22524083
-0.022202333 0.10034466 -0.22528116
-0.022107 0.100341 -0.22530265
-0.0219575 0.1003625 -0.22530651
-0.033941999 0.10053588 -0.22532865
-0.033771168 0.10052583 -0.22532801
-0.033597331 0.10051549 -0.22529733
-0.033413 0.1005455 -0.225282
-0.0332295 0.1005385 -0.22529575
-0.033026002 0.100528 -0.22529474
-0.032784499 0.10051601 -0.22529599
-0.032602999 0.10054367 -0.225282
-0.032463167 0.10053716 -0.22528499
-0.032291498 0.10052484 -0.225262
-0.032111444 0.10051955 -0.22529213
-0.031960003 0.100538 -0.225246
-0.031846501 0.100537 -0.2252745
-0.031227333 0.10054466 -0.22524719
-0.031048778 0.10053434 -0.22525123
-0.030877335 0.100525 -0.22523676
-0.0306895 0.10051534 -0.22523551
-0.030492501 0.100541 -0.22522725
-0.0303155 0.10053525 -0.22522451
-0.030127333 0.10052684 -0.22523701
-0.029979501 0.1005145 -0.22519401
-0.029773124 0.100534 -0.22522114
-0.029571667 0.10053433 -0.22520798
-0.029402798 0.10051279 -0.22521639
-0.029231858 0.100527 -0.22522245
-0.02909725 0.1005435 -0.225229
-0.028682999 0.10052051 -0.22518501
-0.028503001 0.100519 -0.225181
-0.028228 0.100468 -0.22518399
-0.02254775 0.10053475 -0.22524175
-0.022406001 0.100529 -0.22525001
-0.022234166 0.10052799 -0.22529967
-0.0220985 0.100524 -0.225337
-0.021949999 0.1005095 -0.22534201
-0.033917334 0.10070501 -0.225354
-0.033763248 0.1007065 -0.225346
-0.033579998 0.1007154 -0.22530761
-0.033405166 0.10072517 -0.22530185
-0.033222999 0.1007155 -0.22529233
-0.033019166 0.1007055 -0.22529383
-0.032777667 0.10069434 -0.22529267
-0.0325955 0.100723 -0.225292
-0.032457247 0.10071149 -0.22526075
-0.032283753 0.100704 -0.225272
-0.032104831 0.10069666 -0.22528665
-0.031955 0.100712 -0.22521234
-0.031840667 0.100712 -0.22525465
-0.031221 0.1007205 -0.22523201
-0.031043665 0.10070801 -0.225217
-0.030840749 0.1007035 -0.22524074
-0.030683002 0.1007245 -0.22520216
-0.030486332 0.10071734 -0.22521265
-0.030308833 0.10071284 -0.22521867
-0.030121777 0.10070223 -0.22521299
-0.029972335 0.10069299 -0.22519666
-0.029802166 0.10069767 -0.22519569
-0.029552668 0.10069767 -0.22518301
-0.029438 0.100669 -0.22519
-0.029252201 0.1006868 -0.22519819
-0.029091164 0.10071966 -0.22521017
-0.023083001 0.10070441 -0.22519782
-0.022895999 0.1006875 -0.225197
-0.022582667 0.10071933 -0.22526567
-0.0224455 0.1007155 -0.22529817
-0.022235626 0.10070175 -0.225326
-0.033958003 0.10086125 -0.22534901
-0.033749003 0.10087021 -0.2253474
-0.033590399 0.100889 -0.2253186
-0.03339925 0.100901 -0.2252845
-0.0332155 0.100895 -0.22530249
-0.033013999 0.1008795 -0.22526349
-0.03277 0.1008745 -0.225315
-0.032588664 0.10090033 -0.225293
-0.032449499 0.1008915 -0.22527416
-0.032276332 0.10088366 -0.22528382
-0.032098223 0.10087433 -0.22528188
-0.031946503 0.100893 -0.22523701
-0.0318335 0.100889 -0.22525001
-0.031293001 0.10090234 -0.22521602
-0.03106158 0.10088784 -0.22522061
-0.030847998 0.10088686 -0.22520529
-0.030675501 0.100903 -0.22520575
-0.030466333 0.10088233 -0.22520368
-0.030303 0.10088875 -0.2252
-0.030134 0.10086634 -0.225187
-0.030034002 0.1008895 -0.22518675
-0.029061999 0.100857 -0.225181
-0.023313001 0.100959 -0.22518601
-0.023126427 0.100892 -0.22522785
-0.022959666 0.10087834 -0.2252575
-0.022572499 0.100906 -0.2253235
-0.022453666 0.10088867 -0.22533834
-0.022269666 0.10088233 -0.22535433
-0.033709999 0.101027 -0.22535001
-0.033564601 0.10107499 -0.22533441
-0.033391166 0.10108217 -0.22530617
-0.033207998 0.10107367 -0.22530951
-0.033006165 0.1010595 -0.2252785
-0.032761667 0.10105567 -0.225334
-0.032582998 0.101045 -0.2253
-0.032487497 0.10107475 -0.2252965
-0.032295201 0.10106941 -0.22527762
-0.03211775 0.101052 -0.22527476
-0.031979199 0.10106399 -0.2252578
-0.031826001 0.10106933 -0.22526331
-0.0312865 0.101078 -0.22520301
-0.03105475 0.1010655 -0.22521612
-0.0308716 0.1010472 -0.22519259
-0.030678799 0.10106681 -0.22519498
-0.030431001 0.10107134 -0.22518833
-0.030297998 0.1010295 -0.22518551
-0.030120999 0.1010385 -0.22518724
-0.030048 0.101123 -0.225183
-0.023403 0.101033 -0.22518501
-0.023337668 0.10108233 -0.22521299
-0.023138501 0.1010665 -0.22526751
-0.02295075 0.1010625 -0.22529575
-0.022566 0.101017 -0.22536001
-0.033568002 0.101198 -0.2253485
-0.033382498 0.10126375 -0.225336
-0.033200502 0.101254 -0.225324
-0.033016335 0.10123134 -0.22531332
-0.03294 0.101276 -0.225324
-0.032754 0.101267 -0.22531901
-0.032525662 0.10125767 -0.22531186
-0.032331001 0.10123213 -0.22528
-0.032137126 0.10124188 -0.22528175
-0.031991802 0.1012388 -0.22527139
-0.031819001 0.1012485 -0.22526851
-0.031279668 0.10125667 -0.225199
-0.031056274 0.10123646 -0.22520281
-0.030851334 0.10125566 -0.22518499
-0.030708 0.10126001 -0.22518599
-0.030045999 0.101193 -0.225181
-0.02348 0.10125268 -0.225206
-0.0233445 0.10125434 -0.225251
-0.023148572 0.10124243 -0.22531615
-0.022944 0.1011745 -0.2253345
-0.033349998 0.10142325 -0.22533025
-0.033192832 0.10143349 -0.22533466
-0.033044335 0.10142567 -0.22533633
-0.032934334 0.10141966 -0.22532634
-0.032746501 0.101448 -0.2253335
-0.032518998 0.1014355 -0.22530675
-0.032342248 0.1014215 -0.22527674
-0.032129999 0.10143688 -0.22527251
-0.031974167 0.10143734 -0.22526866
-0.031812333 0.10142567 -0.22525932
-0.031273499 0.101434 -0.225192
-0.031069167 0.10142251 -0.2252
-0.030840332 0.10144567 -0.22518833
-0.030778 0.101517 -0.225192
-0.023691 0.10144967 -0.22519065
-0.02351775 0.10143501 -0.22521874
-0.023335751 0.101438 -0.2252885
-0.023194 0.1014375 -0.2253415
-0.033316001 0.101586 -0.225353
-0.033184998 0.101614 -0.2253515
-0.0330365 0.1016075 -0.225353
-0.032927498 0.1015985 -0.22533
-0.03273933 0.10162634 -0.22533633
-0.032511 0.10161534 -0.22532298
-0.032333668 0.10160351 -0.2253065
-0.032142002 0.10161127 -0.22528185
-0.031967498 0.1016155 -0.22526401
-0.0318055 0.101603 -0.225255
-0.031266 0.101612 -0.22519167
-0.031061666 0.10160145 -0.22520921
-0.030895999 0.10162625 -0.22518951
-0.0307745 0.101623 -0.22518751
-0.024077501 0.1015985 -0.22519201
-0.023876 0.101693 -0.22519
-0.023698667 0.10162201 -0.22522648
-0.023508335 0.10162099 -0.225272
-0.023336001 0.1016082 -0.22533278
-0.033222001 0.101723 -0.22535101
-0.032919664 0.10177901 -0.22534567
-0.032503001 0.10179625 -0.22533925
-0.032326251 0.1017825 -0.22531651
-0.032114502 0.101797 -0.22530125
-0.031959835 0.10179534 -0.22528134
-0.031798333 0.10178233 -0.22525699
-0.031258501 0.101792 -0.225199
-0.031055501 0.10177767 -0.22518967
-0.030860668 0.101804 -0.22519499
-0.030767335 0.101801 -0.225187
