0.0667067 -0.0879426 0.993889 0.0153174
0.0771817 -0.0906679 0.992886 0.00721174
-0.130354 -0.0821426 0.988059 0
-0.11403 -0.0742881 0.990696 0.00170661
-0.103294 -0.0695745 0.992215 0.00879036
-0.0962009 -0.0690832 0.992962 0.00763564
0.0622942 -0.0897527 0.994014 0.00662972
0.0756062 -0.093404 0.992754 0.00814615
-0.131136 -0.0816734 0.987994 0.00093759
-0.115382 -0.0789753 0.990177 0.00982356
-0.104456 -0.0733563 0.99182 0.0144063
-0.0999728 -0.071562 0.992413 0.0142336
-0.0915198 -0.0789193 0.992671 0.0089744
0.0609504 -0.0930006 0.993799 0.00805045
0.0727088 -0.0954096 0.992779 0.00755301
-0.132092 -0.0829351 0.987762 0.00151001
-0.116313 -0.0814184 0.98987 0.011492
-0.10589 -0.0768443 0.991404 0.0157965
-0.0994485 -0.0796982 0.991846 0.0124587
-0.0918758 -0.0843861 0.992188 0.00821574
0.0592392 -0.0970225 0.993518 0.0152256
-0.133376 -0.0805411 0.987787 0.00646726
-0.117183 -0.0830767 0.989629 0.013042
-0.105978 -0.080842 0.991077 0.0105779
-0.0990706 -0.083505 0.99157 0.0141475
-0.0935358 -0.0860425 0.991891 0.0138315
0.0586848 -0.0992794 0.993328 0.0190321
0.0675451 -0.100061 0.992686 0.00977441
-0.134637 -0.0784971 0.987781 0.0131615
-0.118366 -0.0863878 0.989205 0.0134988
-0.107127 -0.0890575 0.990249 0.0113435
-0.100732 -0.0880918 0.991006 0.0147966
0.0551117 -0.10264 0.993191 0.0181865
0.0662666 -0.103485 0.992421 0.0141762
0.0797554 -0.105942 0.991169 0.00162753
-0.135958 -0.0842925 0.987122 0.018258
-0.119286 -0.0926927 0.988524 0.0129193
-0.108035 -0.0918317 0.989897 0.0127268
-0.103036 -0.0915799 0.990453 0.0151624
0.0654034 -0.106893 0.992117 0.0117867
0.0784415 -0.111181 0.9907 0
0.078672 -0.112045 0.990584 0.00443636
-0.136491 -0.0914153 0.986414 0.0165782
-0.119592 -0.0958893 0.988182 0.012362
-0.108834 -0.0950135 0.989509 0.0130389
-0.103773 -0.0968912 0.98987 0.0126626
0.0609914 -0.114441 0.991556 0.00420737
0.0693901 -0.113761 0.991082 0
0.0765462 -0.114376 0.990484 0
-0.136188 -0.0969511 0.985928 0.0154184
-0.11985 -0.0990861 0.987835 0.0122188
-0.110027 -0.0982095 0.989065 0.0120647
-0.104739 -0.0997402 0.989486 0.0101556
0.0570947 -0.116515 0.991547 0
0.0696005 -0.1185 0.990512 0.00578944
0.0744156 -0.116213 0.990433 4.35338e-05
-0.137279 -0.0997094 0.985501 0.0171285
-0.120986 -0.104837 0.987103 0.0140462
-0.110176 -0.101104 0.988756 0.0122521
0.0593821 -0.118969 0.991121 0.0119938
0.0660218 -0.122104 0.990319 0.00518196
0.074022 -0.121985 0.989768 0.00369386
-0.138673 -0.104089 0.984853 0.0166129
-0.122155 -0.104349 0.98701 0.0163781
-0.11212 -0.102166 0.988429 0.0166222
0.0616527 -0.128354 0.98981 0.00176424
0.0711782 -0.12868 0.989128 0
-0.137952 -0.110687 0.984235 0.013667
-0.121485 -0.109577 0.986526 0.00956311
-0.111557 -0.107704 0.987904 0.0102704
0.0582061 -0.134305 0.989229 0
0.0697891 -0.134317 0.988478 0
-0.13771 -0.12091 0.983065 0.0110179
-0.120423 -0.118228 0.985657 0.00547725
0.0568726 -0.136851 0.988958 0
0.0711218 -0.139007 0.987734 0
0.0828094 -0.138778 0.986855 0.00235403
-0.162382 -0.115906 0.979897 0.020859
-0.140645 -0.123154 0.982371 0.0179976
-0.122598 -0.125008 0.984552 0.00980555
0.0590955 -0.140369 0.988334 0.00789467
0.0717666 -0.140771 0.987438 0.00577211
0.0834116 -0.141686 0.986391 0.00305774
-0.14111 -0.130143 0.981402 0.015263
-0.122 -0.128979 0.984114 0.00768468
0.0630292 -0.145976 0.987278 0.0102621
0.0681083 -0.145563 0.987002 0.00688259
0.0774706 -0.14532 0.986347 0.00247382
-0.170337 -0.127954 0.977043 0.0232361
-0.163275 -0.12973 0.978014 0.0226969
-0.140825 -0.132789 0.981089 0.0139991
0.0639564 -0.152672 0.986205 0.0154275
0.0668597 -0.151388 0.986211 0.00966568
0.0778523 -0.150536 0.985534 0.00867884
0.0923309 -0.149446 0.984449 0.0103238
-0.168848 -0.133607 0.976545 0.0179685
-0.162276 -0.135128 0.977449 0.0207727
-0.140158 -0.133687 0.981062 0.0103638
0.0610724 -0.154394 0.98612 0.0114629
0.064778 -0.155081 0.985776 0.0112021
0.0757963 -0.154641 0.985059 0.00900518
0.0935688 -0.154056 0.983622 0.0158009
-0.168401 -0.141114 0.975565 0.0153949
-0.160425 -0.140691 0.97697 0.016053
-0.140429 -0.141897 0.97987 0.00650126
0.0646108 -0.160762 0.984876 0.0191075
0.0764345 -0.162353 0.983768 0.0127855
0.0916515 -0.161623 0.982587 0.0138904
-0.173233 -0.149983 0.973394 0.0203448
-0.162335 -0.147814 0.975601 0.0151015
0.0679569 -0.167316 0.983558 0.0118743
0.0745297 -0.169428 0.98272 0.00645
0.0891096 -0.170864 0.981257 0.0100592
-0.184074 -0.152913 0.970945 0.0143389
-0.173356 -0.154344 0.97269 0.0144891
-0.163182 -0.156257 0.974143 0.0145718
0.0734785 -0.17531 0.981767 0.000818561
0.0857485 -0.176424 0.980572 0.00255022
-0.203757 -0.156611 0.966414 0.0211149
-0.187398 -0.159062 0.96932 0.0186626
-0.171864 -0.158759 0.972244 0.00997364
-0.162208 -0.159105 0.973845 0.0124932
0.084157 -0.181873 0.979714 0.0018051
0.09366 -0.181244 0.978968 0.00610682
-0.206128 -0.164099 0.964667 0.0160577
-0.19187 -0.162986 0.967792 0.0171132
-0.175674 -0.164207 0.970657 0.0145305
-0.163462 -0.160812 0.973355 0.013343
0.083249 -0.184884 0.979228 0.00420096
0.0923467 -0.185787 0.978241 0.0051696
-0.214085 -0.171894 0.961571 0.0145719
-0.208747 -0.170392 0.963012 0.0210201
-0.196579 -0.169531 0.96572 0.0192322
-0.17778 -0.167366 0.969733 0.0141958
-0.164619 -0.167178 0.972086 0.0194357
0.0854335 -0.190285 0.978005 0.00398601
0.0925433 -0.191174 0.977184 0.00545116
-0.2251 -0.171575 0.95911 0.0103853
-0.215395 -0.171335 0.961379 0.0174145
-0.207327 -0.173207 0.962816 0.0190713
-0.194583 -0.174826 0.96518 0.0150564
-0.181042 -0.172253 0.968273 0.0184426
0.0868263 -0.194549 0.977042 0.00103218
0.090383 -0.196263 0.976377 0
-0.22683 -0.181201 0.95693 0.0134032
-0.214209 -0.173341 0.961284 0.0115976
-0.206469 -0.176991 0.962312 0.0154526
-0.193308 -0.176874 0.965064 0.012634
-0.184306 -0.176422 0.966906 0.0144958
0.0903163 -0.201313 0.975354 0
0.0976777 -0.203977 0.97409 0
-0.23971 -0.181879 0.953656 0.0147854
-0.229879 -0.176602 0.957062 0.0186573
-0.2174 -0.175919 0.960099 0.0190801
-0.208396 -0.177711 0.961764 0.0203079
-0.197441 -0.182038 0.963265 0.0203002
-0.186098 -0.177575 0.966351 0.0175455
0.0895708 -0.206509 0.974336 0
0.0980396 -0.206688 0.973483 0
-0.239062 -0.182289 0.95374 0.013979
-0.229553 -0.181819 0.956163 0.0175485
-0.216561 -0.180679 0.959404 0.0147639
-0.2114 -0.178925 0.960883 0.0178078
0.0883465 -0.209625 0.973782 0
0.0999365 -0.213469 0.971825 0
-0.237173 -0.183222 0.954033 0.0110519
-0.228944 -0.182435 0.956191 0.0143005
-0.218671 -0.181476 0.958775 0.0209078
0.0973517 -0.214584 0.971842 0
0.103934 -0.214051 0.971277 0
-0.246694 -0.186952 0.95089 0.0121219
-0.24228 -0.181499 0.953079 0.0150899
-0.228602 -0.179364 0.956854 0.0149072
0.107652 -0.216502 0.970329 0
-0.253577 -0.189391 0.948593 0.0153484
-0.248068 -0.188648 0.950197 0.00933932
-0.24425 -0.185726 0.95176 0.014113
0.111964 -0.217034 0.969722 0
-0.256232 -0.190424 0.947673 0.0167181
-0.252411 -0.187866 0.949208 0.0164275
-0.246219 -0.186862 0.95103 0.015978
0.119243 -0.218338 0.968561 0.00137019
0.126578 -0.217812 0.967748 0
-0.255102 -0.190474 0.947968 0.00793961
-0.255944 -0.186762 0.948479 0.0140487
-0.252641 -0.186219 0.949471 0.0154543
0.120488 -0.219052 0.968245 0.00159325
0.127595 -0.220152 0.967085 0
-0.256665 -0.188418 0.947957 0.0075785
-0.252997 -0.189786 0.948669 0.00863062
-0.250469 -0.190723 0.949152 0.00955917
0.131532 -0.221565 0.966234 0
-0.254444 -0.195221 0.947178 0
-0.257515 -0.197957 0.94578 0.00463973
-0.256391 -0.190042 0.947706 0.00641026
-0.253093 -0.189599 0.948681 0.00595207
0.134384 -0.224828 0.965087 0
-0.255192 -0.196265 0.946761 0
-0.256522 -0.196967 0.946256 0.00211825
-0.256669 -0.195631 0.946493 0.00610438
-0.256984 -0.194322 0.946677 0.0126823
0.142131 -0.225018 0.963932 0
0.153592 -0.224754 0.962234 0
-0.256419 -0.190078 0.947692 0.00232189
-0.257923 -0.190925 0.947113 0.00408118
-0.257502 -0.193502 0.946705 0.00651686
0.146379 -0.226856 0.962865 0
0.157959 -0.226704 0.961069 0
-0.256708 -0.191456 0.947336 0.00241972
-0.257084 -0.192186 0.947086 0.0046552
0.165005 -0.2283 0.959506 0
-0.258949 -0.188012 0.947416 0.00714353
-0.258154 -0.190176 0.947201 0.00542167
0.169571 -0.225843 0.959292 0
-0.256746 -0.18601 0.94841 0.00235831
-0.25834 -0.185637 0.94805 0.00556826
-0.257395 -0.182608 0.948895 0.00256925
0.175404 -0.22312 0.95888 0
0.193495 -0.225187 0.954908 0
-0.258038 -0.180124 0.949195 0.00610443
-0.257712 -0.179773 0.94935 0.00379141
-0.259906 -0.180352 0.948642 0.00776808
0.197252 -0.218647 0.95566 0
-0.255694 -0.179965 0.94986 0.00590203
-0.255669 -0.178441 0.950154 0.0039404
-0.257385 -0.174678 0.95039 0.00485545
-0.25806 -0.175161 0.950118 0.00526073
-0.260317 -0.1727 0.949952 0.00845425
-0.254656 -0.171167 0.951763 0.00344817
-0.257344 -0.17187 0.950913 0.0063512
-0.258301 -0.164651 0.95193 0.00647078
-0.258014 -0.169413 0.951172 0.00428005
-0.250856 -0.155998 0.955372 0.00174361
-0.254548 -0.162937 0.953235 0.00303979
-0.258261 -0.162848 0.952251 0.0071489
-0.260278 -0.155417 0.952943 0.0096757
-0.252798 -0.151417 0.955597 0.00490423
-0.254823 -0.15191 0.954981 0.00293751
-0.257179 -0.149941 0.954661 0.00467278
-0.247745 -0.142873 0.958233 0.00636209
-0.250803 -0.145008 0.957116 0.00784235
-0.252841 -0.146657 0.956328 0.00485845
-0.253935 -0.146994 0.955986 0.00218317
-0.237188 -0.13977 0.961356 0.000993912
-0.241031 -0.14037 0.960313 0.00764319
-0.248589 -0.142955 0.958002 0.00905007
-0.251007 -0.139986 0.95781 0.00873731
-0.237808 -0.134762 0.961918 0.00476976
-0.241334 -0.137376 0.960669 0.00436893
-0.249728 -0.135769 0.958751 0.0125281
-0.253155 -0.13139 0.958462 0.0136268
-0.233315 -0.128918 0.963818 0.00637005
-0.2364 -0.132377 0.962596 0.00610706
-0.238352 -0.132873 0.962046 0.0026988
-0.248634 -0.12726 0.960201 0.013643
-0.251072 -0.131213 0.959034 0.0131732
-0.229055 -0.124497 0.965419 0.0034883
-0.232423 -0.123447 0.964749 0.00518482
-0.236624 -0.126758 0.963297 0.00647458
-0.240414 -0.125923 0.962468 0.00792537
-0.244339 -0.125022 0.961597 0.00814878
-0.227895 -0.117228 0.966603 0.00517837
-0.23173 -0.118332 0.965556 0.00383085
-0.235643 -0.123188 0.964001 0.00521051
-0.239456 -0.123829 0.962978 0.00585527
-0.244693 -0.122921 0.961777 0.0100957
-0.222113 -0.113948 0.96834 0.00476338
-0.224882 -0.112183 0.967907 0.00355084
-0.228583 -0.111915 0.96707 0.00155902
-0.215971 -0.112199 0.969932 0.00636307
-0.217234 -0.110388 0.969858 0.00794425
-0.216631 -0.114564 0.969508 0.000682684
-0.22172 -0.11152 0.968712 0.00559309
-0.223342 -0.108002 0.968738 0.0012736
-0.211149 -0.105692 0.971723 0.00344628
-0.213781 -0.112824 0.970345 0.000458171
-0.21689 -0.111304 0.96983 0.00699014
-0.216733 -0.11043 0.969965 0.00140755
-0.222045 -0.109856 0.968828 0.00829858
-0.215084 -0.108138 0.97059 0.00421479
-0.2156 -0.102924 0.971042 0.00287432
-0.217582 -0.103927 0.970493 0.00363769
-0.220731 -0.103321 0.969847 0.00535731
-0.209978 -0.0926662 0.973305 0.00213728
-0.215118 -0.0967851 0.97178 0.00457487
-0.215153 -0.101799 0.97126 0.00233649
-0.215959 -0.101508 0.971111 0
-0.219033 -0.0978304 0.9708 0.00369115
-0.206637 -0.0906694 0.974207 0.00710297
-0.212564 -0.0885067 0.973131 0.00943055
-0.21457 -0.0926428 0.972305 0.00368796
-0.214168 -0.0913865 0.972512 0.000481888
-0.216114 -0.0972033 0.971518 0
-0.218826 -0.10016 0.97061 0.00277235
-0.207267 -0.0876128 0.974353 0.0100922
-0.213659 -0.0794465 0.973672 0.0126952
-0.216549 -0.0809433 0.97291 0.00973553
-0.217057 -0.0804269 0.97284 0.00989323
-0.215595 -0.0948803 0.971862 0
-0.204439 -0.0802967 0.97558 0.00926448
-0.212633 -0.0714821 0.974514 0.014209
-0.216164 -0.0672586 0.974038 0.0126832
-0.21701 -0.0592631 0.974369 0.015408
-0.203263 -0.0685591 0.976721 0.0157981
-0.211418 -0.0511956 0.976054 0.0178279
-0.215663 -0.0551028 0.974912 0.0133209
-0.205336 -0.0497038 0.977429 0.0253151
-0.210767 -0.0371235 0.976831 0.0203705
-0.203573 -0.0295053 0.978615 0.029641
-0.205245 -0.0335773 0.978134 0.0286311
-0.211586 -0.0255289 0.977026 0.0281401
-0.200545 -0.0258034 0.979345 0.0255235
-0.203354 -0.0204554 0.978891 0.0255161
-0.212079 -0.0148896 0.977139 0.0340489
-0.217883 -0.0112643 0.97591 0.0346996
-0.220272 -0.00500936 0.975426 0.0351568
-0.198928 -0.00852063 0.979977 0.0253564
-0.202931 -0.00770452 0.979163 0.0290615
-0.207681 -0.00765653 0.978167 0.025562
-0.217878 -0.00359131 0.975969 0.0343701
-0.218001 -0.00230813 0.975946 0.0320334
-0.194797 -0.00528709 0.980829 0.0244077
-0.19939 -0.00177857 0.979918 0.0268976
-0.200993 -0.002421 0.97959 0.024899
-0.207103 0.00312029 0.978314 0.0242946
-0.216688 0.016548 0.976101 0.0291139
-0.220699 0.0236213 0.975056 0.0363692
-0.195218 -0.000210882 0.98076 0.0253171
-0.198954 0.00359596 0.980002 0.0266227
-0.200123 0.00240919 0.979768 0.0241089
-0.207374 0.0077703 0.978231 0.0265766
-0.216667 0.0307924 0.97576 0.0314262
-0.223167 0.0321852 0.974249 0.0374858
-0.200521 0.0145897 0.979581 0.0249843
-0.206347 0.0198792 0.978277 0.0250331
-0.214707 0.0412456 0.975807 0.026719
-0.222863 0.0440468 0.973854 0.0382515
-0.226686 0.0333578 0.973396 0.0412524
-0.22641 0.0307935 0.973545 0.0316499
-0.206086 0.0340587 0.977941 0.0263589
-0.214891 0.0510393 0.975303 0.0280817
-0.220147 0.0508754 0.974139 0.0328689
-0.226014 0.0447133 0.973097 0.0406272
-0.225764 0.0457668 0.973106 0.0268055
-0.213179 0.0593766 0.975207 0.0264907
-0.219735 0.0611574 0.973641 0.0350331
-0.224181 0.0552469 0.97298 0.0378259
-0.222756 0.055601 0.973287 0.0207551
-0.226207 0.0458 0.973002 0.0149927
-0.231489 0.0409054 0.971977 0.0171886
-0.22113 0.0686534 0.972825 0.0360458
-0.222171 0.0634794 0.972939 0.0342131
-0.221648 0.065243 0.972942 0.0208125
-0.225827 0.0579568 0.972442 0.0170676
-0.231904 0.0467847 0.971613 0.0134044
-0.237836 0.0526245 0.969879 0.0132481
-0.242543 0.0536411 0.968657 0.0103984
-0.247629 0.0634378 0.966776 0.0137491
-0.249931 0.0621942 0.966264 0.0149624
-0.223376 0.0601205 0.972876 0.0111801
-0.229796 0.056718 0.971585 0.00820467
-0.238311 0.0645357 0.969042 0.0168524
-0.243029 0.0748646 0.967126 0.0187687
-0.248516 0.0804609 0.96528 0.0170006
-0.251664 0.0741727 0.964968 0.0207323
-0.231543 0.0716537 0.970182 0.00971933
-0.237929 0.084188 0.967627 0.0178928
-0.243886 0.0826657 0.966274 0.0182946
-0.249927 0.0893902 0.96413 0.0216186
-0.253097 0.0833108 0.963847 0.0211782
-0.256643 0.0908317 0.962229 0.0223006
-0.23615 0.0852835 0.967967 0.0115012
-0.241903 0.101495 0.964978 0.0231229
-0.247979 0.095071 0.964089 0.0195455
-0.253268 0.0953295 0.962688 0.0206051
-0.256488 0.0936408 0.962001 0.0169539
-0.263035 0.106408 0.9589 0.023882
-0.257112 0.110314 0.960065 0.0176592
-0.262759 0.114039 0.958099 0.0220111
-0.2656 0.117991 0.956836 0.0204934
-0.266997 0.119227 0.956293 0.0194652
-0.268238 0.134467 0.953922 0.0195363
-0.26893 0.137664 0.953271 0.0206388
-0.270132 0.147316 0.951487 0.0214272
-0.272773 0.169757 0.946983 0.012018
-0.272652 0.171746 0.94666 0.0140741
-0.271663 0.18286 0.94486 0.0128684
-0.267931 0.180488 0.946381 0.00920504
-0.257534 0.200137 0.945316 0.00619737
-0.251317 0.210878 0.944653 0.0073673
-0.256526 0.20809 0.943871 0.00563243
-0.252323 0.216882 0.943025 0.00690219
-0.24371 0.220005 0.944565 0.00930695
-0.114771 -0.141387 0.983279 0.00873505
-0.107484 -0.141471 0.98409 0.0094436
-0.141977 -0.125161 0.981925 0.00787789
-0.131571 -0.12951 0.98281 0.0130942
-0.120865 -0.132348 0.983807 0.00754169
-0.114504 -0.131929 0.984624 0.00785808
-0.105768 -0.129063 0.98598 0.0076213
-0.0873796 -0.125865 0.988192 0.0111025
-0.0613658 -0.110472 0.991983 0.0128016
-0.0471944 -0.116255 0.992097 0.0144923
-0.0354311 -0.116284 0.992584 0.020039
-0.0248831 -0.112178 0.993376 0.0123272
-0.148675 -0.115093 0.982166 0.00406539
-0.141396 -0.12235 0.982363 0.00923204
-0.130205 -0.119133 0.984304 0.0105691
-0.123761 -0.113042 0.985852 0.0121119
-0.116324 -0.110966 0.986993 0.00950451
-0.105322 -0.115227 0.98774 0.00897701
-0.086062 -0.111709 0.990007 0.00946904
-0.060332 -0.102527 0.992899 0.0143991
-0.0473931 -0.0985013 0.994008 0.0173304
-0.0376524 -0.0958148 0.994687 0.0205912
-0.0258065 -0.0989242 0.99476 0.0165589
0.00926979 -0.102601 0.994679 0.0203911
-0.156864 -0.122403 0.980006 0.00389543
-0.148465 -0.109185 0.982872 0.002007
-0.138028 -0.110893 0.984201 0.0056578
-0.130915 -0.107219 0.985579 0.00652788
-0.125957 -0.101388 0.986841 0.0117632
-0.115477 -0.102148 0.988044 0.0103512
0.0107647 -0.0916667 0.995732 0.0139616
0.0254556 -0.0916771 0.995463 0.015908
-0.173798 -0.113345 0.978237 0.0101232
-0.165404 -0.116388 0.979334 0.00957804
-0.156065 -0.111104 0.981478 0.00219057
-0.148416 -0.101766 0.983675 0.00715063
-0.137667 -0.0995192 0.985466 0.00397484
-0.129692 -0.100941 0.986403 0.00383884
-0.113774 -0.0935884 0.989089 0.0090438
0.0261956 -0.0838435 0.996135 0.0136503
0.0374502 -0.0708047 0.996787 0.0179846
0.0449308 -0.0669023 0.996747 0.0166905
-0.173237 -0.107604 0.978984 0.0105772
-0.164108 -0.104576 0.980883 0.0133192
-0.15541 -0.100996 0.982674 0.00631158
-0.15051 -0.0902782 0.984478 0.0135794
-0.115968 -0.0819213 0.989869 0.013428
0.0409987 -0.060828 0.997306 0.0212772
0.047491 -0.0573879 0.997222 0.0187602
-0.171924 -0.0912857 0.980871 0.0111201
-0.162048 -0.0909875 0.982579 0.0120679
-0.156109 -0.0866876 0.983929 0.0118684
-0.120326 -0.0722479 0.990102 0.0104174
0.050924 -0.0459775 0.997644 0.0187465
0.0608798 -0.0463354 0.997069 0.0221432
-0.18408 -0.0861653 0.979127 0.012263
-0.171109 -0.0805587 0.981953 0.0136665
-0.161383 -0.0744114 0.984083 0.0146468
-0.156086 -0.0729252 0.985048 0.018416
0.0521951 -0.0364006 0.997973 0.0199584
0.0631905 -0.034472 0.997406 0.0248478
0.0771225 -0.0340103 0.996441 0.0249094
-0.181598 -0.0801191 0.980104 0.0103797
-0.169271 -0.0670232 0.983288 0.0138974
-0.160265 -0.0657606 0.984881 0.01523
0.0651046 -0.0217813 0.997641 0.019105
0.0778353 -0.0164541 0.99683 0.0249833
0.0934066 -0.0165512 0.99549 0.0242591
-0.197478 -0.0697329 0.977824 0.0160168
-0.181279 -0.0682883 0.981058 0.0131199
-0.168788 -0.0614349 0.983736 0.016613
0.0707525 -0.00827522 0.99746 0.0205873
0.0783469 -0.00362117 0.99692 0.0239362
0.0944049 -0.00363735 0.995527 0.02588
-0.210205 -0.0482125 0.976468 0.0131596
-0.199867 -0.0546059 0.9783 0.0143926
-0.178101 -0.0579195 0.982306 0.0125644
0.0686572 0.00576083 0.997624 0.0179879
0.0813925 0.00121322 0.996681 0.0210889
0.0955071 0.00277579 0.995425 0.0198547
0.104351 0.00741321 0.994513 0.0226732
-0.209293 -0.0399794 0.977035 0.0172677
-0.200841 -0.0437755 0.978645 0.0196005
-0.177943 -0.0448722 0.983017 0.0166108
0.0722761 0.00892957 0.997345 0.0144182
0.082785 0.0126281 0.996487 0.016802
0.100407 0.0149999 0.994833 0.0229717
0.104451 0.0122884 0.994454 0.0212325
-0.238602 -0.023612 0.97083 0.0227243
-0.225544 -0.0261046 0.973883 0.0200788
-0.213925 -0.0290949 0.976417 0.020974
-0.199361 -0.0311996 0.979429 0.0197202
-0.17834 -0.0362197 0.983302 0.0214858
0.0843104 0.0242306 0.996145 0.0153123
0.0964163 0.0240025 0.995052 0.015487
0.108587 0.0254169 0.993762 0.0197856
-0.236626 -0.0131772 0.971511 0.0198247
-0.225996 -0.0153952 0.974007 0.0238449
-0.212999 -0.0201375 0.976845 0.0209112
-0.205029 -0.0198146 0.978555 0.026047
-0.197234 -0.018206 0.980187 0.0232432
-0.174758 -0.0306808 0.984133 0.014945
0.0833654 0.0322153 0.995998 0.0170398
0.0979318 0.0333636 0.994634 0.0282599
0.110921 0.0324811 0.993298 0.0247289
-0.235175 -0.00380555 0.971946 0.0204376
-0.224871 -0.00402176 0.97438 0.0200299
-0.214047 -0.00792147 0.976791 0.0202868
-0.202046 -0.010597 0.979319 0.0229665
-0.19536 -0.0121592 0.980656 0.0237609
0.0885822 0.0392304 0.995296 0.024953
0.0981589 0.0374375 0.994466 0.0198825
0.113231 0.0391455 0.992797 0.0237816
-0.235046 0.00140116 0.971983 0.0193838
-0.223911 0.0019491 0.974608 0.0148075
-0.213458 -0.00159901 0.976951 0.0198073
-0.201068 0.00172566 0.979576 0.0208386
-0.193408 -0.0112787 0.981054 0.0203697
0.0916717 0.0415067 0.994924 0.0199954
0.0998445 0.042589 0.994091 0.0158671
0.11313 0.0380185 0.992853 0.0148115
-0.235186 0.00625419 0.97193 0.0189123
-0.226105 0.00982317 0.974054 0.0180051
-0.214747 0.00940126 0.976624 0.0203513
-0.204013 0.00853347 0.978931 0.0202045
-0.193367 0.00557658 0.981111 0.0214171
-0.171871 0.00240816 0.985117 0.0176526
0.0937646 0.0456645 0.994547 0.0171519
0.102116 0.0441641 0.993792 0.0144139
0.112138 0.0419553 0.992807 0.0112154
-0.234048 0.00934939 0.97218 0.0123619
-0.225634 0.0152863 0.974092 0.0189264
-0.214211 0.018665 0.976609 0.0198575
-0.204146 0.0189222 0.978758 0.0231201
-0.191288 0.0152232 0.981416 0.0191069
-0.174806 0.012599 0.984522 0.0266823
0.0898467 0.0506856 0.994665 0.0138277
0.0995689 0.0507757 0.993734 0.0152613
-0.222216 0.0274976 0.97461 0.0229397
-0.215244 0.0248836 0.976243 0.023503
-0.203098 0.0273635 0.978776 0.0244516
-0.191064 0.0221639 0.981327 0.0189405
-0.171538 0.0226214 0.984918 0.0202657
0.0908285 0.0567067 0.994251 0.0113648
0.0997118 0.0586861 0.993284 0.013113
-0.213673 0.0364053 0.976227 0.0246114
-0.201391 0.0294763 0.979067 0.0212323
-0.190611 0.0347374 0.981051 0.0187196
-0.171319 0.0299622 0.98476 0.0198731
0.0817178 0.0642319 0.994584 0.011998
0.0917643 0.0644195 0.993695 0.0139083
-0.212513 0.03787 0.976424 0.0256323
-0.199026 0.0376692 0.97927 0.0207281
-0.190142 0.0382495 0.981011 0.0213617
-0.168932 0.0392181 0.984847 0.0165118
0.083704 0.0649592 0.994371 0.00984356
0.0940498 0.0646144 0.993468 0.00994946
-0.189057 0.0441854 0.980972 0.0185397
-0.16917 0.049234 0.984356 0.0190526
0.0789992 0.0704711 0.994381 0.00427363
0.092435 0.070645 0.993209 0.00573768
-0.166747 0.0544421 0.984496 0.0139099
0.0766742 0.07483 0.994244 0.00772002
0.0849474 0.0741292 0.993624 0.0101899
0.0945791 0.0738652 0.992773 0.00690162
-0.164627 0.0585209 0.984618 0.0121403
-0.148592 0.0533932 0.987456 0.0145363
0.0793182 0.0789445 0.993719 0.0116192
0.0867273 0.0795044 0.993055 0.0119567
-0.164157 0.0585981 0.984692 0.0103958
-0.146904 0.0591169 0.987383 0.00824695
0.0820643 0.0878807 0.992745 0.0217324
0.0885595 0.087161 0.99225 0.0160725
-0.145248 0.0656361 0.987216 0.00721401
-0.13392 0.066907 0.988731 0.00964884
0.0828565 0.0925355 0.992256 0.0188378
-0.143649 0.0718116 0.98702 0.00464074
-0.130752 0.0735195 0.988685 0.0118511
-0.121235 0.0797919 0.989412 0.0131546
0.0672761 0.0960337 0.993102 0.0172895
0.082912 0.0924662 0.992258 0.0103628
-0.142139 0.0769342 0.986852 0.00540002
-0.128694 0.0778608 0.988623 0.00644848
-0.119514 0.083714 0.989297 0.00622858
-0.111488 0.0880348 0.989859 0.0144768
0.0570083 0.101239 0.993227 0.0176592
0.0687083 0.0990187 0.992711 0.0150754
0.0812798 0.097725 0.991889 0.013319
-0.140111 0.0842375 0.986546 0.00418378
-0.129136 0.088914 0.987633 0.00330304
-0.119307 0.0894864 0.988816 0.00507504
-0.109634 0.0951691 0.989405 0.0096415
-0.101374 0.0963303 0.990174 0.0168695
0.0596867 0.105313 0.992646 0.0209885
0.0747369 0.107076 0.991438 0.0260739
-0.128242 0.094922 0.98719 0.00519366
-0.120031 0.0967929 0.98804 0
-0.111551 0.104216 0.988279 0.0054935
-0.100094 0.103851 0.989543 0.00941326
-0.0910372 0.100351 0.990778 0.00890788
-0.0829636 0.10516 0.990989 0.00950245
-0.0677086 0.108901 0.991744 0.0113057
-0.0395694 0.111807 0.992942 0.01812
-0.0177954 0.108801 0.993904 0.0142296
0.00125486 0.11099 0.993821 0.0222109
0.0103302 0.108761 0.994014 0.0227372
0.024617 0.107367 0.993915 0.0254073
0.0609046 0.10783 0.992302 0.0207304
0.0766222 0.107514 0.991247 0.022108
-0.126502 0.0962516 0.987286 0.00285918
-0.120673 0.105796 0.987039 0.00714127
-0.111756 0.110524 0.98757 0.00936012
-0.0990042 0.107172 0.989299 0.0077238
-0.0897218 0.107028 0.990199 0.00474661
-0.0834675 0.110639 0.990349 0.0080433
-0.0718176 0.114373 0.990839 0.0148453
-0.0615987 0.117 0.99122 0.0153048
-0.0399357 0.113828 0.992698 0.0161069
-0.0193018 0.117301 0.992909 0.0162933
-0.00139305 0.116482 0.993192 0.0200057
0.00935424 0.115401 0.993275 0.0212751
0.0151018 0.119945 0.992666 0.0271366
0.0229837 0.115674 0.993021 0.0267166
0.0604784 0.109546 0.99214 0.0190253
-0.109117 0.112505 0.987642 0.00639693
-0.0983289 0.115305 0.988451 0.0081765
-0.0910588 0.123473 0.988161 0.0102799
-0.083107 0.120413 0.989239 0.00900276
-0.0716943 0.119088 0.990292 0.00859411
-0.0619301 0.118593 0.99101 0.0151811
-0.0414563 0.120395 0.99186 0.0114416
-0.0160737 0.123263 0.992244 0.0187118
-0.00374719 0.121639 0.992567 0.0209353
0.00573363 0.120736 0.992668 0.0216433
0.0125624 0.121603 0.992499 0.0195195
0.0209608 0.122927 0.992194 0.0241645
-0.100522 0.120052 0.987665 0.00758358
-0.0921674 0.12657 0.987667 0.00604375
-0.0828386 0.124002 0.988818 0.00657995
-0.0711114 0.122656 0.989898 0.00804905
-0.06149 0.122734 0.990533 0.00633457
-0.041302 0.123593 0.991473 0.01129
-0.0187837 0.128081 0.991586 0.0156922
-0.00729178 0.124849 0.992149 0.0128493
0.00227748 0.125504 0.992091 0.0121691
0.0107731 0.124062 0.992216 0.013205
0.0185129 0.123814 0.992133 0.0173791
-0.0990765 0.123077 0.987439 0.00186609
-0.0908776 0.126082 0.987848 0
-0.0817239 0.129929 0.98815 0.00251117
-0.0727329 0.130814 0.988735 0.00719079
-0.0630929 0.131979 0.989243 0.008897
-0.0419514 0.128 0.990886 0.0102005
-0.0227824 0.126859 0.991659 0.010881
-0.01088 0.128169 0.991693 0.0102558
-0.000946467 0.126671 0.991944 0.0093484
0.00783723 0.124169 0.99223 0.00439547
0.0155573 0.122782 0.992312 0.00326316
-0.0904499 0.128958 0.987516 0
-0.0785705 0.127512 0.98872 0.000787678
-0.0747924 0.129318 0.988778 0.00403768
-0.0655547 0.13624 0.988505 0.011665
-0.0592378 0.133064 0.989336 0.0111059
-0.0162356 0.126173 0.991875 0.0058668
-0.00150168 0.12412 0.992266 0
-0.0661125 -0.0695931 0.995382 0.00858735
-0.0595334 -0.06839 0.995881 0.0147153
-0.0161234 -0.0668861 0.99763 0.0171663
-0.0669079 -0.0693216 0.995348 0.0127412
-0.059008 -0.0674037 0.995979 0.013168
-0.0161103 -0.0706534 0.997371 0.00764367
0.0034491 -0.0742247 0.997236 0.00866614
0.0348246 -0.0771329 0.996412 0.0102176
-0.0774045 -0.0661464 0.994803 0.0122847
-0.0690307 -0.0665844 0.99539 0.0100973
-0.0624546 -0.0630387 0.996055 0.0157837
-0.0547462 -0.0668421 0.99626 0.0126782
-0.016359 -0.0680049 0.997551 0.00522971
0.00358841 -0.0740144 0.997251 0.00872516
0.0342461 -0.0777977 0.996381 0.0109779
-0.0781777 -0.0630457 0.994944 0.0133166
-0.0720555 -0.0636621 0.995367 0.0127978
-0.0662533 -0.0629948 0.995812 0.0135512
-0.0559408 -0.0649568 0.996319 0.0112291
-0.0458397 -0.0657385 0.996783 0.00939939
-0.0339121 -0.0676987 0.997129 0.00858685
-0.0156476 -0.0733939 0.99718 0.00585066
0.0027082 -0.0737296 0.997275 0.00594963
0.00908591 -0.0756228 0.997095 0.00591894
-0.078497 -0.0656707 0.994749 0.0108438
-0.0644962 -0.062802 0.99594 0.0109518
-0.0542708 -0.0639946 0.996473 0.0073037
-0.0467234 -0.0643647 0.996832 0.00710634
-0.0164407 -0.0749624 0.997051 0.00734202
-0.0163803 -0.0782632 0.996798 0.00626009
0.000807713 -0.0782089 0.996937 0.00600856
0.00833734 -0.0798928 0.996769 0.00679696
0.0190629 -0.0772332 0.996831 0.00132787
-0.0839735 -0.061476 0.99457 0.011324
-0.071948 -0.0646961 0.995308 0.00479416
-0.0638792 -0.0674277 0.995677 0.00254243
-0.0552508 -0.066786 0.996236 0.0050243
-0.0402962 -0.0718115 0.996604 0.00467561
-0.0348453 -0.0744289 0.996617 0
-0.01661 -0.0787717 0.996754 0.011263
0.000427561 -0.0772318 0.997013 0.00799941
0.00716014 -0.0763801 0.997053 0.00548786
0.0169834 -0.0745138 0.997075 0.0113751
0.032935 -0.0778614 0.99642 0.010416
-0.0808859 -0.0630725 0.994726 0.0103632
-0.0730832 -0.0623577 0.995375 0.00876656
-0.0658832 -0.0655625 0.995671 0.0083031
-0.0533098 -0.0703841 0.996094 0.00552856
-0.0398437 -0.0725724 0.996567 0.000532887
-0.0341681 -0.0709425 0.996895 0.00137468
-0.0174424 -0.0747792 0.997048 0.00437435
-0.000495892 -0.0741203 0.997249 0.0101615
0.00625717 -0.0743628 0.997212 0.0112954
0.0142296 -0.0735602 0.997189 0.00526341
0.0307034 -0.0786619 0.996428 0
-0.0793254 -0.0653988 0.994701 0.00915984
-0.0753487 -0.0678102 0.994849 0.0048429
-0.0665519 -0.0677327 0.995481 0.00705745
-0.0567654 -0.0697742 0.995946 0.00618374
-0.041459 -0.0718483 0.996553 0.00559291
-0.0182917 -0.0743419 0.997065 0.00812526
1.89169e-05 -0.0690869 0.997611 0.00637731
0.00372775 -0.0722633 0.997379 0.00604463
0.0149617 -0.0763603 0.996968 0
0.0296336 -0.0743659 0.996791 0
-0.0752051 -0.0653423 0.995025 0.00379184
-0.0654067 -0.0682094 0.995525 0
-0.0563448 -0.0701415 0.995944 0
-0.0425343 -0.0772927 0.996101 0
-0.0348271 -0.0780158 0.996344 0.00143859
-0.0187037 -0.077911 0.996785 0
0.00161024 -0.0727107 0.997352 0
0.0121853 -0.0761656 0.997021 0.00141141
0.0292598 -0.0744532 0.996795 0.00486537
-0.0755282 -0.0643484 0.995065 0.00435182
-0.0642392 -0.0724194 0.995303 0
-0.0544603 -0.0720778 0.995911 0
-0.0417669 -0.0800428 0.995916 0
-0.0352538 -0.0764259 0.996452 0
-0.0194586 -0.076793 0.996857 0.00724544
0.00104216 -0.0665946 0.99778 0.00618868
0.0141344 -0.0714692 0.997343 0.00333745
0.027195 -0.0736801 0.996911 0.00595143
-0.0751602 -0.0701394 0.994702 0
-0.0637053 -0.0707728 0.995456 0.00221053
-0.0539124 -0.0758212 0.995663 0
-0.0485168 -0.076846 0.995862 0
-0.0397704 -0.0778315 0.996173 0
-0.0207238 -0.0741891 0.997029 0.00370215
-0.00017792 -0.070353 0.997522 0.00628763
0.013032 -0.0700632 0.997457 0.00495978
0.0248485 -0.0727074 0.997044 0.0101922
0.0367607 -0.075829 0.996443 0.0181042
-0.0832846 -0.0716375 0.993948 0.00306989
-0.0734942 -0.0699808 0.994837 0.000501578
-0.0642487 -0.0740365 0.995184 0.00403809
-0.0546716 -0.0747585 0.995702 0.00253632
-0.0474498 -0.0751974 0.996039 0.00236787
-0.0393708 -0.0790379 0.996094 0.00188863
-0.0210315 -0.0772956 0.996786 0.00624411
-0.000947071 -0.075612 0.997137 0.0115257
0.0120935 -0.0770284 0.996956 0.00955294
0.0238961 -0.0791173 0.996579 0.0107259
0.0333558 -0.0767612 0.996491 0.00817927
-0.0883111 -0.073002 0.993414 0.00628017
-0.0831844 -0.0738097 0.993797 0.00793551
-0.0747579 -0.0748942 0.994385 0.0128229
-0.0648957 -0.0778929 0.994847 0.00990631
-0.0551845 -0.0806502 0.995214 0.00656491
-0.0476229 -0.0797486 0.995677 0.00645614
-0.0399095 -0.0815116 0.995873 0.00872212
-0.0219028 -0.0763929 0.996837 0.0121024
-0.00194407 -0.077369 0.997001 0.0130505
0.0116914 -0.0793673 0.996777 0.0116132
0.0222061 -0.0778641 0.996717 0.00944198
0.0326347 -0.0777763 0.996437 0.0100772
-0.0884416 -0.0733061 0.99338 0.00917969
-0.0829625 -0.0742311 0.993784 0.00586337
-0.0748976 -0.0801698 0.993963 0.00840006
-0.0644283 -0.0769252 0.994953 0.00985519
-0.0574328 -0.0811924 0.995042 0.0135941
-0.0499323 -0.0837961 0.995231 0.0089058
-0.0410634 -0.0813785 0.995837 0.0156863
-0.0236174 -0.0766985 0.996775 0.0151708
-0.00151186 -0.0779522 0.996956 0.0156318
0.0106027 -0.0779693 0.996899 0.00986871
0.0211157 -0.0813136 0.996465 0.00505754
0.0320834 -0.0821344 0.996105 0.0154001
-0.0885165 -0.0754187 0.993215 0.00603827
-0.0852832 -0.0765183 0.993414 0.00244885
-0.0750522 -0.0826537 0.993748 0.00916636
-0.0679942 -0.0856656 0.994001 0.0105494
-0.0612727 -0.0837142 0.994604 0.0169027
-0.0511053 -0.085905 0.994992 0.0149842
-0.0425074 -0.080262 0.995867 0.0247537
-0.023841 -0.0776322 0.996697 0.0199017
-0.00174993 -0.0797112 0.996816 0.0183757
0.0117509 -0.0805074 0.996685 0.0178147
0.0201226 -0.0824252 0.996394 0.011889
0.0306256 -0.08606 0.995819 0.0148065
-0.0954244 -0.0763637 0.992503 0.0102657
-0.0855921 -0.0831051 0.992858 0.00831357
-0.0766872 -0.0835049 0.993552 0.0127107
-0.0689618 -0.0890094 0.993641 0.0161308
-0.0620118 -0.092328 0.993796 0.0121083
-0.0524864 -0.0926805 0.994312 0.0180743
-0.0418123 -0.0866753 0.995359 0.0175688
-0.0242649 -0.0816555 0.996365 0.0178945
-0.00129947 -0.08202 0.99663 0.013827
0.0105332 -0.0796794 0.996765 0.0178493
0.017766 -0.0799243 0.996643 0.0174629
0.0243529 -0.0866074 0.995945 0.0234114
0.0305041 -0.0843502 0.995969 0.0223312
-0.0979009 -0.0811489 0.991882 0.0158201
-0.0860203 -0.0863975 0.99254 0.00989824
-0.0765679 -0.0873583 0.99323 0.0111919
-0.0699575 -0.0920642 0.993293 0.0156043
-0.0629808 -0.0920234 0.993763 0.017771
-0.0534522 -0.094046 0.994132 0.0218607
-0.0423768 -0.0931219 0.994753 0.0264339
-0.025788 -0.0892254 0.995678 0.0207726
-0.00229408 -0.0874017 0.99617 0.0252121
0.0104866 -0.0854517 0.996287 0.0281695
0.0174788 -0.0865018 0.996098 0.0237183
0.0237903 -0.0882743 0.995812 0.02465
0.0296221 -0.0905629 0.99545 0.024998
-0.0901338 -0.0849194 0.992303 0.0183702
-0.0785499 -0.0895719 0.992878 0.0163122
-0.0712573 -0.0912833 0.993272 0.0216374
-0.0642425 -0.0923855 0.993649 0.0209312
-0.0544902 -0.0956069 0.993927 0.0196623
-0.0443139 -0.094807 0.994509 0.0248102
-0.0267091 -0.0912825 0.995467 0.0271001
-0.00273779 -0.0910202 0.995845 0.024161
0.00991949 -0.0906171 0.995836 0.030461
0.0164541 -0.0933267 0.9955 0.0267026
0.0220792 -0.0974103 0.994999 0.0236054
0.0283864 -0.096692 0.994909 0.0229207
0.058635 -0.100723 0.993185 0.0207794
-0.0993775 -0.0904662 0.990929 0.0183967
-0.0917513 -0.0900138 0.991705 0.0173711
-0.0830188 -0.0921555 0.992278 0.0165328
-0.0744211 -0.090421 0.993119 0.0149988
-0.0659275 -0.090927 0.993673 0.0194592
-0.0557168 -0.0946541 0.99395 0.0210434
-0.0451547 -0.0953207 0.994422 0.025275
-0.0272079 -0.0936627 0.995232 0.0329773
-0.00385224 -0.0961829 0.995356 0.0206097
0.00783136 -0.101056 0.99485 0.0201013
0.0147097 -0.0987419 0.995004 0.0219617
0.02092 -0.102658 0.994497 0.0216779
0.0275329 -0.101328 0.994472 0.0271557
0.0553704 -0.102899 0.99315 0.0150944
-0.0997892 -0.0935506 0.990601 0.0142372
-0.0913368 -0.0917356 0.991586 0.0143493
-0.0821045 -0.0930609 0.992269 0.0102935
-0.0744099 -0.0901358 0.993146 0.0124908
-0.0667571 -0.093256 0.993402 0.0182793
-0.0590672 -0.0970764 0.993523 0.0248334
-0.0482485 -0.0978822 0.994028 0.024716
-0.0281798 -0.0959213 0.99499 0.0293851
-0.007877 -0.102204 0.994732 0.0239934
0.00382747 -0.105959 0.994363 0.0196673
0.0129582 -0.10708 0.994166 0.0177822
0.0191569 -0.105285 0.994258 0.0220088
0.0240421 -0.106583 0.994013 0.0193019
0.0511271 -0.108434 0.992788 0.00770133
-0.100916 -0.095806 0.990271 0.0149052
-0.0917548 -0.0949626 0.991243 0.00851839
-0.0824079 -0.0946341 0.992095 0.011385
-0.0753704 -0.093762 0.992738 0.0128383
-0.0664279 -0.0978288 0.992984 0.0131887
-0.0589435 -0.0971687 0.993521 0.0192565
-0.0525975 -0.10087 0.993508 0.0194488
-0.0436279 -0.101718 0.993856 0.0181798
-0.0289275 -0.102647 0.994297 0.0279664
-0.00874712 -0.103222 0.99462 0.0240432
0.00132305 -0.105379 0.994431 0.0218164
0.0103288 -0.110959 0.993771 0.0125257
0.0171897 -0.110153 0.993766 0.0149149
0.0216013 -0.110963 0.99359 0.00980781
0.0501295 -0.110802 0.992577 0.0118375
-0.101942 -0.101193 0.98963 0.0107239
-0.0938309 -0.0980657 0.990747 0.0127188
-0.0759785 -0.102472 0.99183 0.0140086
-0.0673773 -0.102418 0.992457 0.0142008
-0.0596252 -0.101329 0.993065 0.0176922
-0.0531413 -0.101886 0.993376 0.0191066
-0.0443138 -0.101199 0.993879 0.0161548
-0.0286039 -0.10381 0.994186 0.0290778
-0.0107784 -0.106953 0.994206 0.0234491
-0.00104914 -0.105675 0.9944 0.0208775
0.00911887 -0.110512 0.993833 0.0179396
0.0160624 -0.108096 0.994011 0.0141325
0.0206819 -0.11185 0.99351 0.00894009
0.0477514 -0.115167 0.992198 0.00674311
-0.102222 -0.10059 0.989663 0.0104386
-0.0935973 -0.102301 0.99034 0.00994625
-0.0860623 -0.103768 0.990871 0.0115193
-0.0769007 -0.106102 0.991377 0.0134408
-0.0684241 -0.104842 0.992132 0.0121895
-0.0610158 -0.103862 0.992719 0.0166786
-0.053919 -0.101957 0.993327 0.0171662
-0.0444822 -0.102766 0.99371 0.0173971
-0.0296186 -0.107165 0.9938 0.0200813
-0.0125004 -0.109363 0.993923 0.0227201
-0.00349212 -0.108665 0.994072 0.0133263
0.006348 -0.108926 0.99403 0.0128562
0.013516 -0.112451 0.993565 0.00725275
0.0191588 -0.114165 0.993277 0.00656649
0.0477845 -0.119836 0.991643 0.00961098
-0.103904 -0.103682 0.989168 0.0118967
-0.0947929 -0.103773 0.990073 0.0139439
-0.0865849 -0.108876 0.990277 0.00792732
-0.0677487 -0.104651 0.992199 0.00850622
-0.0610355 -0.109224 0.992142 0.0105181
-0.0549883 -0.111589 0.992232 0.00899979
-0.0309337 -0.116094 0.992756 0.0144727
-0.00180217 -0.113927 0.993488 0.0159611
0.00669893 -0.114178 0.993438 0.0184116
0.0129959 -0.116353 0.993123 0.0156552
0.0175267 -0.119968 0.992623 0.0108746
0.0431314 -0.127613 0.990886 0.00168298
-0.111414 -0.109361 0.987738 0.00808024
-0.10354 -0.111823 0.988319 0.00713605
-0.0941491 -0.110479 0.989409 0.0094235
-0.0869676 -0.109014 0.990229 0.00832969
-0.0824227 -0.111614 0.990328 0.0132037
-0.0674807 -0.113129 0.991286 0.00803419
-0.0611838 -0.11594 0.99137 0.00443009
-0.056088 -0.119638 0.991232 0.0109175
-0.0473942 -0.119006 0.991762 0.0120317
-0.0328453 -0.121939 0.991994 0.0167938
-0.00584406 -0.120919 0.992645 0.00845755
0.00518652 -0.121099 0.992627 0.0155978
0.0164925 -0.124567 0.992074 0.0141376
0.0418678 -0.129375 0.990712 0.000635045
-0.11174 -0.116615 0.986871 0.00827532
-0.104306 -0.116479 0.987701 0.00709572
-0.0961429 -0.113614 0.988862 0.0101871
-0.0865517 -0.112268 0.989901 0.00404115
-0.0710702 -0.11777 0.990495 0.0146618
-0.0627393 -0.120092 0.990778 0.00763093
-0.0583214 -0.122911 0.990703 0.011051
-0.0341448 -0.128054 0.991179 0.0115421
-0.00597635 -0.126864 0.991902 0.0138147
0.00127789 -0.126546 0.99196 0.0180356
0.0430158 -0.135445 0.989851 0.0133823
-0.112444 -0.12438 0.985843 0.00657477
-0.104613 -0.120243 0.987217 0.0081516
-0.0993525 -0.12024 0.987761 0.00943167
-0.0931023 -0.117213 0.988733 0.0118154
-0.0741064 -0.123832 0.989532 0.0180902
-0.0665188 -0.123041 0.99017 0.0221127
-0.0567249 -0.129631 0.989938 0.0121084
-0.0497608 -0.132761 0.989898 0.0100994
0.00184352 -0.133532 0.991043 0.0100147
0.043322 -0.139277 0.989305 0.0191843
-0.112473 -0.127076 0.985496 0.00525425
-0.104467 -0.123029 0.986889 0.00200677
-0.0990096 -0.124903 0.987217 0.00214777
-0.0957284 -0.125229 0.987499 0.00754725
-0.0515091 -0.134367 0.989592 0.012352
-0.000736121 -0.140701 0.990052 0.0132488
0.00281794 -0.145485 0.989356 0.0103773
0.0416922 -0.146795 0.988288 0.0163346
0.0525951 -0.14592 0.987897 0.0109125
-0.123295 -0.131343 0.98364 0.00986147
-0.113773 -0.130569 0.98489 0.00721674
-0.10542 -0.125079 0.98653 0.00266358
-0.0994852 -0.127416 0.986847 0.00163355
-0.0964399 -0.127573 0.987129 0.000988822
0.0402895 -0.149723 0.987907 0.0130517
0.0540675 -0.15247 0.986828 0.0055591
-0.126073 -0.134067 0.98292 0.0153621
-0.114707 -0.134683 0.984227 0.00840239
-0.109536 -0.134074 0.984899 0.0116082
-0.104646 -0.132925 0.985586 0.00587654
-0.0978487 -0.131031 0.986538 0.00755791
0.0509389 -0.155046 0.986593 0.011936
-0.126657 -0.140151 0.981996 0.0120854
-0.115059 -0.140128 0.983425 0.0168789
-0.108511 -0.141491 0.983975 0.0119968
0.0503343 -0.161834 0.985533 0.0122875
0.0643831 -0.162911 0.984538 0.0162342
-0.141368 -0.1477 0.978877 0.00954288
-0.126449 -0.144507 0.981391 0.006876
-0.115871 -0.147427 0.982262 0.0123767
-0.107141 -0.146592 0.983378 0.00917135
0.047532 -0.168876 0.984491 0.00728077
0.059258 -0.168939 0.983844 0.00382089
-0.142787 -0.15197 0.978017 0.01323
-0.127804 -0.15204 0.980077 0.0103206
-0.116214 -0.154117 0.981194 0.00792653
-0.110846 -0.154455 0.981762 0.00926818
0.0438205 -0.173891 0.98379 0.000480681
0.0566669 -0.175371 0.98287 0
0.0665222 -0.175523 0.982225 0
-0.143625 -0.153475 0.977659 0.0152945
-0.127458 -0.157672 0.979231 0.00654304
-0.11833 -0.157869 0.980344 0.013667
-0.111748 -0.160038 0.980765 0.0140378
0.0578398 -0.1791 0.982129 0.00443009
0.0690568 -0.179985 0.981242 0.00231837
-0.144019 -0.162436 0.976152 0.0136801
-0.128373 -0.162245 0.978364 0.00760382
-0.120438 -0.160434 0.979671 0.0127472
0.0580583 -0.183535 0.981297 0.00657778
0.0687456 -0.183852 0.980547 0.00305358
-0.144441 -0.168059 0.975137 0.0143563
-0.130359 -0.163799 0.977843 0.013251
0.058063 -0.189172 0.980226 0.00461991
0.0676083 -0.188421 0.979758 0.00221428
0.0793351 -0.191342 0.978312 0.00496588
-0.170545 -0.178516 0.969044 0.0135805
-0.163658 -0.172926 0.971243 0.0126942
-0.14484 -0.177872 0.973336 0.0159202
0.0723595 -0.192648 0.978596 0.0136038
0.0783039 -0.193669 0.977937 0.00127723
-0.173714 -0.177167 0.968729 0.0138583
-0.164911 -0.178823 0.969962 0.0140573
-0.146281 -0.185476 0.9717 0.0156046
0.0692467 -0.198887 0.977573 0.00114671
0.0801482 -0.199225 0.976671 0
0.0850898 -0.201311 0.975825 0
-0.189911 -0.182971 0.964601 0.0159275
-0.179834 -0.180278 0.967036 0.0152976
-0.168202 -0.185212 0.968197 0.0124333
-0.145907 -0.189754 0.97093 0.0169169
0.0714244 -0.202156 0.976745 0.00351176
0.0768915 -0.204618 0.975817 0
0.0838954 -0.205008 0.975158 0
-0.20699 -0.179531 0.96173 0.0204481
-0.196313 -0.183922 0.963137 0.0159034
-0.183477 -0.187055 0.965063 0.0106218
-0.169302 -0.190643 0.96695 0.0110383
0.0772194 -0.208405 0.974989 0
0.0859708 -0.211902 0.973502 0
-0.218274 -0.181998 0.958766 0.0198645
-0.207944 -0.18348 0.960778 0.0163913
-0.195865 -0.186599 0.962714 0.0125225
-0.185905 -0.185963 0.964809 0.0170909
-0.172243 -0.193545 0.965853 0.0133651
0.0886413 -0.212991 0.973025 0
-0.217703 -0.182853 0.958734 0.0167719
-0.209887 -0.185791 0.959911 0.0195287
-0.198658 -0.189218 0.96163 0.0205176
-0.188201 -0.192607 0.963059 0.0220916
-0.176142 -0.197167 0.964417 0.0167288
0.0884725 -0.215776 0.972427 0
0.0976585 -0.215473 0.971614 0
-0.238117 -0.1869 0.953084 0.010626
-0.229094 -0.18052 0.956519 0.0149731
-0.210877 -0.188486 0.959168 0.0147577
-0.198945 -0.187954 0.961818 0.017159
0.0918256 -0.216554 0.971942 0.00585095
0.0996893 -0.217875 0.970872 0
-0.241667 -0.187551 0.952062 0.0151641
-0.232289 -0.184662 0.954956 0.0210581
-0.21141 -0.188268 0.959094 0.0143131
0.100923 -0.218526 0.970598 0.00106233
0.108028 -0.218068 0.969936 0
-0.249628 -0.188315 0.949854 0.0134619
-0.242411 -0.192452 0.950894 0.0130275
-0.232846 -0.18857 0.954057 0.0212832
0.106327 -0.221164 0.969423 0.00593303
0.114082 -0.220048 0.968795 0.00544143
-0.249633 -0.192829 0.948947 0.0119274
-0.24384 -0.192481 0.950523 0.0145404
-0.231841 -0.194907 0.953027 0.0189512
0.117077 -0.223586 0.967627 0
-0.252584 -0.192119 0.94831 0.00867292
-0.249309 -0.191321 0.949337 0.00928816
-0.244045 -0.193791 0.950204 0.0141986
0.118453 -0.224367 0.967279 0
-0.255231 -0.190332 0.947962 0.011628
-0.250078 -0.191454 0.949108 0.0113858
-0.247654 -0.193245 0.949381 0.0166637
0.126931 -0.226682 0.965662 0
0.133392 -0.226576 0.964816 0
-0.25672 -0.193796 0.946857 0.00894736
-0.25502 -0.191768 0.947729 0.00955634
-0.249738 -0.191209 0.949247 0.00977207
-0.248467 -0.192978 0.949223 0.0181692
0.130957 -0.222761 0.966037 0
0.136015 -0.226622 0.964439 0
-0.259009 -0.190675 0.946867 0.00615666
-0.259115 -0.192239 0.946522 0.00963733
-0.25309 -0.188906 0.94882 0.00472217
-0.252103 -0.189532 0.948958 0.010293
0.145294 -0.226175 0.96319 0
-0.258401 -0.190112 0.947146 0.00479945
-0.25663 -0.191449 0.947359 0.00474734
-0.25351 -0.187984 0.948891 0.00243087
0.153941 -0.2236 0.962448 0
0.161637 -0.226469 0.960513 0
-0.25803 -0.182954 0.948656 0.00423765
-0.257158 -0.186008 0.948299 0.00174918
-0.256473 -0.188914 0.94791 0.00343406
0.158205 -0.219849 0.96262 0
0.170102 -0.222735 0.959924 0
-0.257053 -0.177762 0.949908 0.00205407
-0.257455 -0.182337 0.948931 0.00241072
0.179387 -0.21511 0.959973 0
-0.260892 -0.169833 0.950312 0.00895484
-0.257869 -0.172442 0.950667 0.00288763
0.203497 -0.210017 0.956285 0
-0.259129 -0.165173 0.951614 0.0064243
-0.259081 -0.162241 0.952132 0.00519905
0.206811 -0.203591 0.956964 0
-0.260791 -0.152546 0.953267 0.00918933
-0.258981 -0.154405 0.953461 0.00594163
-0.25976 -0.154599 0.953218 0.00588983
0.2075 -0.19578 0.958444 0
-0.259745 -0.14437 0.954825 0.00750546
-0.257995 -0.147141 0.954876 0.00294969
-0.260431 -0.146539 0.954307 0.00701798
-0.254925 -0.144119 0.956161 0.00151304
-0.256862 -0.140764 0.956142 0.0022344
-0.258361 -0.140032 0.955845 0.00435493
-0.25917 -0.136982 0.956068 0.00545849
-0.261635 -0.140201 0.95493 0.00896133
-0.25234 -0.136713 0.957932 0.00352069
-0.254321 -0.133234 0.957899 0.000689215
-0.257233 -0.130065 0.957556 0.00336285
-0.258708 -0.129088 0.957291 0.00603806
-0.259212 -0.130831 0.956918 0.00533122
-0.253943 -0.129082 0.958567 0.00674119
-0.255508 -0.122157 0.959059 0.0047359
-0.252183 -0.127427 0.959253 0.0120969
-0.251981 -0.125463 0.959565 0.00364259
-0.2538 -0.120133 0.959767 0.00252894
-0.247881 -0.124227 0.960793 0.00946165
-0.251198 -0.123663 0.960004 0.0104407
-0.254869 -0.122872 0.959137 0.0106176
-0.239591 -0.121962 0.963183 0.00562
-0.245954 -0.120318 0.961785 0.00741314
-0.249377 -0.119692 0.960981 0.00629853
-0.252115 -0.117078 0.960589 0.00611481
-0.231995 -0.114438 0.965962 0.00567314
-0.236608 -0.117085 0.964525 0.00750608
-0.239879 -0.119454 0.963425 0.00586243
-0.244058 -0.116059 0.962791 0.00356111
-0.249646 -0.116843 0.961262 0.00622161
-0.230189 -0.1096 0.966954 0.00558481
-0.237556 -0.108607 0.965283 0.0110644
-0.241191 -0.110466 0.96417 0.00986907
-0.244328 -0.110009 0.963432 0.00347008
-0.248436 -0.112957 0.96204 0.00634847
-0.227126 -0.101678 0.968543 0.0111417
-0.231168 -0.104525 0.967283 0.00936842
-0.236285 -0.102673 0.966244 0.00966689
-0.239523 -0.105382 0.965155 0.00740354
-0.245038 -0.104106 0.963908 0.00669333
-0.247735 -0.110883 0.962461 0.00381408
-0.22115 -0.0981112 0.970292 0.00520206
-0.224968 -0.0975702 0.969469 0.00765014
-0.231163 -0.101149 0.967643 0.0110723
-0.236601 -0.0968469 0.966768 0.0102762
-0.24024 -0.0993946 0.965612 0.0102767
-0.245966 -0.0953057 0.964582 0.0111606
-0.220821 -0.0987418 0.970303 0.00359606
-0.222665 -0.0972585 0.970031 0.00200941
-0.228897 -0.0979819 0.968507 0.00676265
-0.23637 -0.099185 0.966588 0.00929493
-0.241528 -0.0952736 0.965705 0.0125688
-0.246332 -0.0965735 0.964362 0.0122219
-0.21641 -0.0977289 0.971399 0
-0.220541 -0.095968 0.970645 0.00448718
-0.221771 -0.0958469 0.970377 0
-0.22849 -0.0953486 0.968866 0.00613736
-0.23607 -0.0946045 0.96712 0.00555178
-0.247965 -0.0925525 0.964338 0.0160918
-0.214475 -0.0842639 0.973088 0.00160084
-0.215788 -0.0916396 0.97213 0
-0.218249 -0.0873902 0.971972 0.00212489
-0.222477 -0.0884129 0.970921 0.00424395
-0.228859 -0.0846501 0.969772 0.00789835
-0.215435 -0.0718193 0.973873 0.00595031
-0.215309 -0.0765834 0.973538 0.00198679
-0.220559 -0.072451 0.972679 0.0103662
-0.221848 -0.0761531 0.972103 0.00341548
-0.228879 -0.074236 0.97062 0.0125472
-0.215137 -0.0554501 0.975008 0.0135812
-0.217173 -0.0445263 0.975117 0.0172358
-0.215914 -0.0587092 0.974646 0.00790573
-0.222911 -0.0540889 0.973337 0.0193588
-0.228741 -0.0475406 0.972326 0.0230702
-0.217068 -0.0369537 0.975457 0.0231858
-0.216947 -0.0399745 0.975365 0.0218499
-0.219459 -0.0394324 0.974824 0.0214437
-0.223385 -0.0364551 0.974048 0.0259826
-0.227723 -0.034681 0.973108 0.0262009
-0.230756 -0.033172 0.972446 0.0195659
-0.21819 -0.0225165 0.975647 0.0317613
-0.218463 -0.020845 0.975623 0.0297877
-0.221525 -0.0221501 0.974903 0.0301029
-0.223839 -0.0248478 0.974309 0.0297978
-0.227577 -0.0206962 0.97354 0.0266332
-0.230944 -0.0143797 0.972861 0.020023
-0.217745 -0.0173243 0.975852 0.0330005
-0.218733 -0.0100551 0.975733 0.0340761
-0.2208 -0.00981237 0.97527 0.0293324
-0.225909 -0.00957622 0.974101 0.0370381
-0.226358 -0.00777867 0.974013 0.0241087
-0.230285 -0.00514125 0.97311 0.0196391
-0.224077 0.00696336 0.974546 0.039015
-0.22511 0.00456826 0.974322 0.0347919
-0.22876 0.0066821 0.97346 0.0326468
-0.234744 0.0139964 0.971956 0.0274682
-0.215955 0.00441481 0.976393 0.0297072
-0.22437 0.0148267 0.974391 0.0394471
-0.22496 0.00965092 0.97432 0.0348387
-0.227333 0.0103574 0.973762 0.0304066
-0.231712 0.0153659 0.972663 0.0234454
-0.234262 0.0138685 0.972074 0.0198909
-0.239148 0.0116535 0.970913 0.0194333
-0.224816 0.0211709 0.974171 0.0401307
-0.226905 0.0212779 0.973684 0.0414817
-0.227892 0.014895 0.973573 0.0306535
-0.229286 0.0167376 0.973215 0.0168728
-0.234172 0.0231638 0.971919 0.0193843
-0.24007 0.00928971 0.970711 0.0197281
-0.226995 0.0237276 0.973607 0.0270649
-0.227713 0.0304005 0.973254 0.0138384
-0.232147 0.0301312 0.972214 0.0158978
-0.241762 0.0122244 0.970259 0.0229155
-0.245397 0.0121333 0.969347 0.0143143
-0.22594 0.0376402 0.973414 0.0209466
-0.229605 0.0425422 0.972354 0.0199454
-0.234164 0.0339287 0.971605 0.0210573
-0.240006 0.0262035 0.970418 0.0175451
-0.245241 0.0236659 0.969173 0.0140756
-0.245845 0.024586 0.968997 0.00934108
-0.235437 0.0404887 0.971046 0.0191578
-0.239243 0.0398675 0.970141 0.0153909
-0.243152 0.0342688 0.969383 0.0100193
