-0.160418 0.00664075 0.987027 0.00576977
-0.155306 0.00191055 0.987865 0.00804844
-0.166785 0.00894744 0.985953 0.00365593
-0.162881 0.00485279 0.986634 0.00479427
-0.155382 0.000798491 0.987854 0.00188704
-0.160831 -0.00155223 0.986981 0
-0.161518 -0.00107946 0.986869 0.00323477
-0.160672 -0.000711205 0.987008 0.00632979
-0.15975 -0.00726045 0.987131 0
-0.164687 -0.00312947 0.986341 0.00532605
-0.159055 -0.00751971 0.987241 0.004494
-0.157732 -0.00773077 0.987452 0.00749937
-0.167192 -0.00470236 0.985913 0.00323604
-0.162939 -0.00925035 0.986593 0.00352045
-0.162312 -0.00901268 0.986698 0.00694176
-0.166296 -0.00566108 0.98606 0.009963
-0.157797 -0.0173606 0.987319 0
-0.155594 -0.0181693 0.987654 0
-0.156806 -0.0184702 0.987457 0.000515379
-0.158546 -0.0218363 0.98711 0
-0.159985 -0.0172083 0.98697 0
-0.16068 -0.0170459 0.986859 0
-0.165832 -0.0166805 0.986013 0
-0.162128 -0.0164837 0.986632 0
-0.168526 -0.0192308 0.98551 0
-0.167988 -0.0181055 0.985623 0
-0.171341 -0.0233304 0.984936 0
-0.173661 -0.0200775 0.984601 0.00100302
-0.180431 -0.016444 0.98345 0
-0.174933 -0.0221448 0.984331 0
-0.185582 -0.0159031 0.9825 0.0015669
-0.181578 -0.0194342 0.983184 0.00331756
-0.186145 -0.0166168 0.982382 0.00535276
0.233435 -0.00379012 0.972365 0
0.217261 -0.00662202 0.976091 0
0.226545 -8.57062e-05 0.974001 0
0.212999 -0.00783047 0.977021 0
0.212974 -0.0065623 0.977036 0
0.211192 -0.00728372 0.977417 0
0.218434 -0.0047733 0.97584 0
0.214922 0.00397612 0.976623 0
0.221579 0.00428968 0.975133 0
0.213444 0.0124921 0.976875 0.000481997
0.215193 0.0029102 0.976567 0
0.211465 0.0113033 0.97732 0
0.221194 0.0132822 0.975139 0.00221684
0.225139 0.0223359 0.97407 0
0.227618 0.0186708 0.973572 0
0.224579 0.0233185 0.974177 0
0.229894 0.0213513 0.972981 0.000391077
0.223474 0.024768 0.974395 0
0.226946 0.0307284 0.973422 0
0.2284 0.0296017 0.973117 0
0.21782 0.0242953 0.975687 0
0.22858 0.0286883 0.973102 0
0.223321 0.0345053 0.974134 0
0.226194 0.0385564 0.973319 0
0.215972 0.0306124 0.97592 0
0.220506 0.0339039 0.974796 0
0.224854 0.0490599 0.973157 0
0.226139 0.0534896 0.972625 0
0.224606 0.0619078 0.972481 0
0.225345 0.0631109 0.972233 0
0.218916 0.0633161 0.973687 0
0.222354 0.0749828 0.972078 0
-0.223479 0.0356232 0.974057 0.0252988
0.216753 0.0754782 0.973304 0
0.224338 0.0795757 0.971257 0
0.217017 0.0766657 0.973153 0
0.217351 0.07968 0.972836 0
0.216592 0.0824427 0.972775 0
0.217023 0.0834539 0.972593 0
0.210759 0.0804057 0.974226 0
0.218981 0.0869908 0.971844 0.00158354
0.214522 0.084529 0.973055 0
0.204524 0.0817629 0.975441 0
0.209235 0.0833954 0.974303 0
0.215841 0.0870074 0.972544 0
0.209224 0.0895777 0.973756 0
0.212222 0.0891188 0.973149 0
0.207526 0.0860606 0.974437 0
0.213804 0.0955654 0.972191 0
0.219108 0.102998 0.970249 0
-0.158413 0.0217528 0.987133 0.00943402
0.21798 0.103663 0.970432 0
-0.149574 0.0128512 0.988667 0.00335767
-0.148606 0.0177148 0.988738 0.00497985
-0.160078 0.0326803 0.986563 0.0160353
-0.169797 0.0437902 0.984506 0.0219228
-0.165481 0.0458563 0.985146 0.0229948
-0.166076 0.0523326 0.984723 0.0236468
-0.155778 0.0534161 0.986347 0.0159602
0.230915 0.115451 0.9661 0.00911201
0.218774 0.113532 0.969148 0.0134557
0.218203 0.128316 0.967431 0.0201657
0.214666 0.11621 0.969749 0.0121627
0.206776 0.117127 0.971352 0.0123247
0.213976 0.121796 0.969216 0.0137687
0.211384 0.121917 0.96977 0.0150382
0.188435 0.0999381 0.976987 0
0.181449 0.101797 0.978118 0
0.190966 0.103477 0.976127 0.00074688
0.19366 0.124438 0.973145 0.008564
0.184298 0.116637 0.975925 0
0.194047 0.129373 0.972424 0.00822021
0.18759 0.12556 0.974189 0.00193741
0.193013 0.142944 0.970728 0.00235258
0.108681 0.163616 0.980519 0.00908599
0.110788 0.159973 0.980885 0.00824931
0.114647 0.150747 0.981902 0.0109084
0.102238 0.185705 0.977272 0.0127167
0.106793 0.189833 0.975991 0.0154529
0.110066 0.175966 0.978224 0.0114191
0.0978479 0.182237 0.978374 0.0108082
0.101089 0.192304 0.976115 0.0120386
0.104197 0.180184 0.978099 0.0155856
0.108532 0.194436 0.974893 0.0159021
0.0467187 -0.141488 0.988837 0.00191951
0.0504508 -0.136863 0.989305 0.00976225
0.0557551 -0.142402 0.988237 0.00938893
0.00527863 -0.120553 0.992693 0.0108141
0.0473717 -0.143664 0.988492 0
0.0508737 -0.143266 0.988376 0.0040062
0.055035 -0.139662 0.988669 0.0060802
-0.0181388 -0.0986324 0.994959 0.0154564
-0.0138327 -0.104247 0.994455 0.0105646
-0.0115651 -0.111977 0.993643 0.00978076
-0.00670572 -0.105741 0.994371 0.0102993
-0.00459111 -0.107266 0.99422 0.00969942
-0.00136831 -0.117837 0.993032 0.0186169
0.0115944 -0.123483 0.992279 0.00150232
-0.0267821 -0.0845404 0.99606 0.0147537
-0.0248601 -0.0820691 0.996317 0.0181573
-0.0245051 -0.0847697 0.996099 0.0226982
-0.0174499 -0.0914388 0.995658 0.0131021
0.0160688 -0.129893 0.991398 0
0.0218265 -0.131667 0.991054 0
0.0250051 -0.123872 0.991983 0
0.0301671 -0.132316 0.990748 0.00653213
0.0350437 -0.135207 0.990197 0.00752501
0.0770609 -0.121128 0.989641 0.00970422
0.079422 -0.118488 0.989774 0.00960733
-0.0262253 -0.0807694 0.996388 0.00788327
-0.0260341 -0.0800508 0.996451 0.0123393
0.0784429 -0.117012 0.990028 0.00650436
0.0798432 -0.127563 0.988611 0.00924656
0.0786995 -0.123258 0.989249 0.0116608
0.0844551 -0.13213 0.987628 0.0205486
-0.0365574 -0.0838125 0.995811 0.00829957
0.0756782 -0.114403 0.990548 0.0145704
0.082717 -0.130972 0.987929 0.0196103
0.083764 -0.130834 0.987859 0.0142792
-0.0360987 -0.0770323 0.996375 0.0165779
0.0757414 -0.115129 0.990459 0.0223468
0.0765178 -0.112745 0.990673 0.0228636
0.0816035 -0.123658 0.988964 0.0156722
-0.034575 -0.0660285 0.997218 0.0114413
-0.0367929 -0.0729022 0.99666 0.0224058
0.0789725 -0.119656 0.98967 0.0153951
-0.0402832 -0.0729968 0.996518 0.010651
-0.0331626 -0.0578899 0.997772 0.0177269
0.0770471 -0.120967 0.989662 0.0068367
0.079889 -0.125115 0.988921 0.0153317
-0.0401291 -0.0693428 0.996786 0.0157852
0.0755513 -0.123587 0.989454 0.00487311
0.0772681 -0.127278 0.988853 0.00359512
-0.0437407 -0.070008 0.996587 0.0121426
0.0772532 -0.132822 0.988125 0
0.0805067 -0.137039 0.987289 0.00343357
-0.0461421 -0.0701094 0.996472 0.0115808
0.0767601 -0.136439 0.98767 0
0.0800032 -0.140031 0.98691 0.00338792
0.0811468 -0.13813 0.987084 0.00615289
0.0872107 -0.150972 0.984684 0
0.0931791 -0.148158 0.984564 0
0.0988679 -0.147934 0.984043 0.00698948
0.100133 -0.144177 0.984473 0.00989185
0.108688 -0.151433 0.982474 0.00848793
-0.0454055 -0.0650919 0.996846 0.00991796
0.0750678 -0.13218 0.988379 0
0.0775248 -0.131253 0.988313 0.00538978
0.0784102 -0.137498 0.987394 0
0.0854722 -0.148477 0.985215 0
0.0921465 -0.142977 0.985427 0
0.0951912 -0.143299 0.985091 0
0.107659 -0.151986 0.982502 0.00338754
0.110538 -0.144973 0.983242 0.00540319
0.113562 -0.137612 0.983955 0.00692342
-0.0512206 -0.0648865 0.996577 0.011177
-0.046661 -0.0619436 0.996988 0.0165258
0.0712666 -0.125364 0.989548 0.000726357
0.0751181 -0.134594 0.98805 0
0.0766505 -0.131199 0.988388 0
0.106917 -0.149723 0.98293 0
0.111204 -0.145182 0.983136 0.00585121
0.113904 -0.139122 0.983703 0
0.130503 -0.153148 0.979548 0
-0.0517581 -0.0655471 0.996506 0.0117166
-0.0458884 -0.0600942 0.997137 0.00978563
0.0714481 -0.128101 0.989184 0
0.0731409 -0.124952 0.989463 0
0.119004 -0.150514 0.981419 0
0.130482 -0.153223 0.979539 0
-0.0482309 -0.0550715 0.997317 0.00649581
-0.0455954 -0.0579586 0.997277 0.00884009
0.0697212 -0.122869 0.989971 0
0.0719314 -0.120277 0.990131 0
0.130479 -0.153537 0.97949 0
-0.047381 -0.052497 0.997496 0.00353933
0.129904 -0.14961 0.980174 0
-0.0477235 -0.0527402 0.997467 0.00100345
0.137618 -0.144468 0.979893 0
-0.0571357 -0.0596168 0.996585 0.016553
-0.0484901 -0.0555933 0.997275 0.00153775
0.13092 -0.130886 0.982715 0
-0.0539063 -0.0510311 0.997241 0.0108981
-0.0510565 -0.0555386 0.99715 0.00714538
0.132407 -0.135219 0.981929 0
-0.0713835 -0.0467306 0.996354 0.0140411
-0.0543309 -0.0520253 0.997167 0.00687522
-0.0835174 -0.0366227 0.995833 0.0215477
-0.0972083 -0.0404059 0.994444 0.0212235
-0.0951457 -0.044059 0.994488 0.0189792
-0.0852032 -0.0396168 0.995576 0.0168502
-0.0968967 -0.0384931 0.99455 0.0194371
-0.0902863 -0.0335158 0.995352 0.0184422
0.133986 -0.107281 0.985159 0.0099831
-0.0975889 -0.0273738 0.99485 0.0201569
-0.0932633 -0.0321028 0.995124 0.0115268
0.131644 -0.1025 0.985984 0.00997804
0.13539 -0.102096 0.985518 0.013776
-0.094714 -0.0254268 0.99518 0.012826
-0.0922302 -0.027563 0.995356 0.00890313
0.128751 -0.09525 0.987092 0.0112162
0.133367 -0.0943643 0.986564 0.0187723
-0.0911124 -0.0187396 0.995664 0.00853143
0.125741 -0.088786 0.988082 0.0117784
0.13014 -0.0896848 0.987431 0.0194705
-0.0951705 -0.0142393 0.995359 0.00791515
0.123903 -0.0857402 0.988583 0.012974
0.125203 -0.0822837 0.988713 0.0143008
-0.0968165 -0.0188193 0.995124 0.00579411
0.120642 -0.0757987 0.989798 0.0140406
0.12204 -0.0756143 0.989641 0.00927648
0.122103 -0.0742246 0.989738 0.00920522
-0.0951173 -0.0184801 0.995295 0
0.117029 -0.0676363 0.990823 0.0150345
0.118892 -0.0694046 0.990478 0.00948834
0.112538 -0.0601322 0.991826 0.0156753
0.114707 -0.0627624 0.991415 0.00694621
0.115925 -0.0642793 0.991176 0.00657948
0.113033 -0.0638122 0.99154 0.0139229
0.113293 -0.0583896 0.991844 0.009912
0.11019 -0.0544354 0.992419 0.0172525
0.112912 -0.0585103 0.991881 0.00711461
0.141219 -0.0786594 0.986848 0.00615117
0.149288 -0.0862264 0.985027 0.0125943
0.109838 -0.0548153 0.992437 0.0117642
0.11325 -0.0564654 0.991961 0.0130744
0.138021 -0.0755325 0.987545 0.0113649
0.141454 -0.078124 0.986857 0.0104953
0.14714 -0.0840567 0.985538 0.0115689
0.152131 -0.0886668 0.984375 0.0123829
0.15949 -0.0956045 0.982559 0.0146224
0.162283 -0.0964437 0.98202 0.00935827
0.108972 -0.0501843 0.992777 0.0143759
0.113243 -0.0546093 0.992065 0.0129782
0.11507 -0.055957 0.99178 0.0149751
0.134663 -0.0707336 0.988364 0.0141478
0.137477 -0.0745306 0.987697 0.00939723
0.142912 -0.080514 0.986455 0.00760462
0.150629 -0.0895194 0.984529 0.00767061
0.157474 -0.0937545 0.983063 0.0107994
0.163944 -0.100354 0.981352 0.00605325
0.10736 -0.0456862 0.99317 0.0166798
0.111033 -0.04923 0.992597 0.0180338
0.112724 -0.0486085 0.992437 0.017848
0.117505 -0.0465557 0.99198 0.0145747
0.133639 -0.0708143 0.988497 0.0127903
0.150078 -0.0845905 0.985049 0.0144364
0.153331 -0.088073 0.984242 0.0113588
0.164494 -0.0984515 0.981452 0.00714849
0.168278 -0.101758 0.980473 0.00510124
0.173558 -0.105268 0.979181 0
0.108344 -0.049517 0.992879 0.0187999
0.108529 -0.0430142 0.993162 0.0173138
0.111054 -0.0467993 0.992712 0.0167255
0.113637 -0.0483822 0.992344 0.0159502
0.12128 -0.0562665 0.991022 0.01769
0.131694 -0.0715209 0.988707 0.0142838
0.17227 -0.102966 0.979654 0
0.185234 -0.113078 0.976167 0
0.106021 -0.0460869 0.993295 0.0189786
0.110186 -0.0449202 0.992895 0.0181619
0.113624 -0.0496697 0.992281 0.0184237
0.181434 -0.109326 0.977307 0
0.191738 -0.12053 0.974017 0
0.193926 -0.121577 0.973454 0
0.188611 -0.11514 0.975279 0
0.193271 -0.117205 0.97412 0
0.189534 -0.111999 0.975466 0
0.196301 -0.115687 0.973695 0
0.181332 -0.100463 0.978277 0
0.191987 -0.109219 0.975301 0
0.189007 -0.103054 0.976553 0
0.185817 -0.0992145 0.977563 0
0.182894 -0.0935362 0.978673 0
0.178143 -0.0838334 0.980427 0.00813189
0.179068 -0.0801198 0.980569 0.0171517
0.179593 -0.0786623 0.980591 0.0230918
0.175259 -0.0794033 0.981315 0.0223565
0.178445 -0.0797759 0.980711 0.0227789
0.177352 -0.078241 0.981032 0.0292658
0.177034 -0.0754276 0.98131 0.0249816
0.171296 -0.0759407 0.982289 0.016778
0.175802 -0.0764943 0.981449 0.0194915
0.168341 -0.0748611 0.982882 0.0185296
0.165234 -0.0734672 0.983514 0.0135584
0.168614 -0.0747836 0.982841 0.0102516
0.16196 -0.0755311 0.983902 0.00549154
0.166582 -0.0754526 0.983136 0.00839041
0.158459 -0.0679031 0.985028 0.00983247
0.163245 -0.069478 0.984136 0.0109317
0.155673 -0.0629629 0.9858 0.0103137
0.162592 -0.0689263 0.984283 0.00989013
0.155073 -0.0673052 0.985608 0.00457768
0.16144 -0.0722545 0.984234 0.000575635
0.152768 -0.0659241 0.986061 0.00412134
0.157536 -0.067783 0.985184 0
0.152928 -0.068866 0.985835 0
0.159963 -0.0741164 0.984337 0
-0.111341 0.0101682 0.99373 0.0309328
-0.10626 0.0106831 0.994281 0.0290664
0.160827 -0.0760402 0.984049 0
-0.118106 0.00815973 0.992967 0.0294667
-0.112927 0.0107499 0.993545 0.0284255
-0.106088 0.00981941 0.994308 0.0270056
0.158147 -0.0749542 0.984567 0
0.162218 -0.0741782 0.983963 0
-0.130137 0.00260782 0.991493 0.0284339
-0.120335 0.00188403 0.992732 0.0222245
-0.114515 0.00438347 0.993412 0.0216194
0.162102 -0.0791224 0.983597 0
0.165636 -0.0786592 0.983045 0
-0.129645 -0.00136633 0.991559 0.0227456
0.15808 -0.0705409 0.984903 0
0.167649 -0.0803951 0.982563 0
0.173186 -0.0820098 0.981469 0
-0.134658 -0.000389896 0.990892 0.00881706
0.161931 -0.0786002 0.983667 0
0.170092 -0.0838145 0.981857 0
0.172418 -0.079877 0.98178 0
-0.137612 -0.00331552 0.990481 0.00875529
0.159506 -0.0726795 0.984518 0
0.167024 -0.0776633 0.982889 0
0.175011 -0.0837599 0.980997 0
-0.141122 -0.00269811 0.989988 0.0100184
0.157868 -0.0712706 0.984885 0
0.164628 -0.0722405 0.983707 0
0.169321 -0.0725437 0.982887 0
-0.136603 0.00112735 0.990625 0.00612571
0.155014 -0.069261 0.985481 0
0.161699 -0.069657 0.984379 0
0.170914 -0.0753597 0.9824 0
0.162069 -0.0673502 0.984478 0
0.16701 -0.0661562 0.983733 0
-0.149179 0.0083633 0.988775 0.00314884
0.159053 -0.0617419 0.985337 0
0.165393 -0.064605 0.984109 0
0.167702 -0.0643614 0.983735 0
-0.146441 0.00866114 0.989182 0
0.155201 -0.0569245 0.986241 0
0.163273 -0.0602617 0.984739 0
0.164159 -0.0589976 0.984668 0
-0.146375 0.00771022 0.989199 0
0.163369 -0.0605211 0.984707 0
-0.147571 0.00772564 0.989021 0.00182026
0.163057 -0.062544 0.984632 0
-0.148103 0.00838431 0.988936 0.00202648
0.158248 -0.0536358 0.985942 0
-0.152888 0.00379044 0.988236 0.00255284
-0.146428 0.00657038 0.989199 0
0.157855 -0.0568001 0.985827 0
-0.152374 0.0014612 0.988322 0.002728
-0.148762 0.00281824 0.988869 0.0024079
0.162109 -0.0695704 0.984317 0
-0.155725 -0.00276384 0.987797 0.00267599
-0.152606 -0.000540381 0.988287 0.00678918
0.151467 -0.0659111 0.986262 0
0.15719 -0.0638784 0.9855 0
-0.157628 0.000418892 0.987499 0.0128308
-0.154817 -0.00178926 0.987941 0.0112801
0.154555 -0.0625044 0.986005 0
-0.156015 -0.000276905 0.987755 0.0137294
-0.152362 -0.0021497 0.988322 0.0111241
0.152542 -0.0669869 0.986024 0
-0.154636 -0.00399866 0.987963 0.0115852
-0.15262 -0.00147199 0.988284 0.0146396
-0.151156 -0.00592763 0.988492 0.0121897
0.147823 -0.0635314 0.986971 0
-0.155532 -0.00934865 0.987787 0.0122712
-0.152576 -0.00735903 0.988264 0.012455
-0.149048 -0.00842285 0.988794 0.00721479
0.146673 -0.0659365 0.986985 0.00481321
0.14925 -0.06626 0.986577 0.00645634
-0.151855 -0.0179467 0.98824 0.00537164
-0.15308 -0.0147349 0.988104 0.0111529
-0.149811 -0.0121232 0.98864 0.0109807
0.145745 -0.0663499 0.987095 0.0105788
0.146136 -0.0684811 0.986891 0.00391583
0.148063 -0.0678433 0.986648 0.00118841
0.150663 -0.0709468 0.986036 0.000888251
0.151387 -0.0682961 0.986112 0.000216084
0.16208 -0.077847 0.983702 2.99588e-06
0.166845 -0.0785064 0.982853 0.00477722
-0.152426 -0.0164935 0.988177 0.010228
-0.147951 -0.0149852 0.988881 0.011222
0.144812 -0.0696864 0.987002 0.00875944
0.143757 -0.0706175 0.98709 0.00539378
0.147342 -0.0706305 0.986561 0.00630747
0.150553 -0.069883 0.986129 0.00943282
0.150743 -0.0729982 0.985874 0.000742076
0.155034 -0.0764891 0.984944 0
0.165445 -0.0870089 0.982373 0.000441424
0.17096 -0.0823926 0.981827 0.00286181
-0.157089 -0.0205518 0.987371 0.0174166
-0.156561 -0.019123 0.987483 0.0216491
0.140405 -0.0735539 0.987358 0
0.143102 -0.0712458 0.98714 0
0.145513 -0.0717974 0.986748 0
0.148771 -0.0774942 0.985831 0.000880337
0.153292 -0.0789576 0.985022 0
0.162858 -0.0853849 0.982948 0
0.168133 -0.0854005 0.982058 0
-0.154716 -0.0237567 0.987673 0.0148616
-0.154053 -0.0195366 0.98787 0.0217665
0.138747 -0.0749183 0.98749 0.000712403
0.143323 -0.0794135 0.986485 0
0.146521 -0.0805902 0.985919 0
0.148722 -0.081282 0.985533 0
0.153278 -0.0874207 0.984309 0
0.166504 -0.0979268 0.981166 0
0.169609 -0.0927515 0.981137 0
0.171704 -0.0880789 0.981203 0
-0.152882 -0.0279377 0.987849 0.0109697
-0.150883 -0.0242153 0.988255 0.0146129
0.135964 -0.0751117 0.987862 0
0.140714 -0.0787505 0.986913 0
0.150103 -0.0917612 0.984403 0
0.151598 -0.0907506 0.984267 0
0.162596 -0.0949302 0.982115 0
0.167081 -0.0927787 0.981568 0
0.175153 -0.095415 0.979907 0
-0.152082 -0.0295294 0.987927 0.0108353
-0.146823 -0.032344 0.988634 0.00454419
0.141462 -0.0875661 0.986063 0
0.149165 -0.0948943 0.984248 0
0.158815 -0.0921133 0.983002 0
0.160967 -0.0950973 0.982368 0
0.170764 -0.0983925 0.980387 0
-0.149302 -0.0349495 0.988174 0.0060785
-0.148823 -0.0354986 0.988226 0.00693882
0.161044 -0.09214 0.982637 0
0.166595 -0.0955674 0.981383 0
-0.148979 -0.0359078 0.988188 0.00542466
-0.147619 -0.037631 0.988328 0.00346869
0.159358 -0.0965351 0.98249 0
0.166104 -0.100677 0.980955 0
-0.149898 -0.0362535 0.988037 0.0134335
0.158374 -0.106687 0.981598 0
0.16392 -0.10837 0.980503 0
-0.150688 -0.039349 0.987798 0.0102998
-0.147963 -0.0383553 0.988249 0.00942383
0.159681 -0.109219 0.981108 0
-0.147827 -0.0426414 0.988094 0.00602234
-0.142082 -0.0378054 0.989133 0.00492655
0.154042 -0.105849 0.982378 0
-0.150228 -0.0452381 0.987616 0.00856778
-0.143799 -0.0444056 0.98861 0.00370255
0.1502 -0.107049 0.982843 0
-0.148333 -0.0455213 0.987889 0.00853293
-0.145239 -0.0477749 0.988242 0.00611065
0.145623 -0.104298 0.983827 0
-0.14017 -0.0492968 0.9889 0.0016128
0.142553 -0.103386 0.984373 0
-0.138224 -0.0529746 0.988983 0
0.136801 -0.0908164 0.986427 0
-0.131965 -0.0529531 0.989839 0
0.1354 -0.0885241 0.986828 0.00177345
-0.129662 -0.0567173 0.989935 0
0.133917 -0.0896793 0.986926 0.00119594
-0.128552 -0.05878 0.989959 0
0.131658 -0.0918458 0.987031 0.000388186
0.132814 -0.0905453 0.986997 0
-0.126645 -0.0625442 0.989974 0
0.127038 -0.0907533 0.987737 0
0.130154 -0.0919343 0.987222 0.0011667
-0.125529 -0.0678516 0.989767 0
-0.124194 -0.0674735 0.989961 0
0.125672 -0.0878356 0.988176 0.00335247
0.12906 -0.0863755 0.987868 0.00554935
-0.122703 -0.0708415 0.989912 0
-0.120875 -0.072384 0.990025 0
0.126985 -0.0871038 0.988073 0.0159913
0.12944 -0.0899285 0.987501 0.00899123
-0.122046 -0.0735369 0.989797 0
-0.119806 -0.072126 0.990174 0
0.124158 -0.0895203 0.988216 0.0119717
0.126909 -0.090989 0.987732 0.0139141
-0.121485 -0.0778896 0.989533 0
-0.119531 -0.0812327 0.989502 0
0.125426 -0.0914182 0.987882 0.015637
-0.120412 -0.0811266 0.989404 0
-0.116833 -0.0787018 0.990028 0
0.122797 -0.0917492 0.988182 0.0141919
0.130346 -0.0937602 0.987025 0.0138571
-0.117832 -0.07905 0.989882 0
-0.11655 -0.0810882 0.989869 0
0.123031 -0.0940809 0.987933 0.0132435
0.128691 -0.0965927 0.986969 0.0140429
-0.116213 -0.0772926 0.990212 0
-0.11536 -0.0789989 0.990177 0
-0.113533 -0.0809497 0.990231 0
0.124232 -0.0934167 0.987846 0.0218057
0.127918 -0.0974889 0.986982 0.0130307
-0.115432 -0.078267 0.990227 0
-0.113928 -0.0819314 0.990105 0
-0.112105 -0.0808487 0.990402 0
0.123031 -0.0902385 0.988292 0.0210956
0.126086 -0.0966072 0.987304 0.0146431
-0.111235 -0.0786259 0.990679 0
0.122173 -0.0956758 0.987887 0.0169461
0.126634 -0.0971923 0.987177 0.016568
-0.110144 -0.0837595 0.99038 0
0.117072 -0.0982881 0.988248 0.00537033
0.124181 -0.0965087 0.987555 0.0146423
-0.107932 -0.0866394 0.990376 0
0.116669 -0.0917068 0.988928 0.0158242
0.123447 -0.0957533 0.987721 0.016272
-0.107394 -0.0881064 0.990305 0
0.118074 -0.0943733 0.98851 0.0207007
0.121041 -0.0925183 0.988326 0.0166831
-0.110011 -0.0893377 0.989907 0
-0.105036 -0.0878611 0.99058 0
0.12235 -0.0949846 0.987931 0.0233961
-0.10583 -0.0891544 0.990379 0
-0.102602 -0.0871663 0.990896 0
0.124367 -0.0902783 0.988121 0.0302286
-0.106139 -0.0893502 0.990329 0
0.12042 -0.0922753 0.988425 0.0253479
0.123463 -0.0963895 0.987657 0.0155661
-0.105482 -0.0893144 0.990402 0
0.124735 -0.0916892 0.987944 0.0122976
-0.112103 -0.083968 0.990143 0
-0.105081 -0.0849137 0.990832 0
0.125602 -0.0890705 0.988074 0.0105587
-0.109357 -0.0860765 0.990269 0
0.132881 -0.0960043 0.986471 0.00691918
-0.107375 -0.0847767 0.990598 0
0.139346 -0.0997394 0.985208 0.00722144
0.139276 -0.0952589 0.985661 0.00688091
-0.105988 -0.0823234 0.990954 0
-0.104734 -0.0845156 0.990902 0
-0.10436 -0.079435 0.991362 0
0.160927 -0.0861628 0.983198 0.012615
0.173193 -0.086375 0.981093 0.0186452
-0.110518 -0.0827568 0.990423 0
-0.119643 -0.0818599 0.989436 0.00345318
-0.116248 -0.0807563 0.989932 0.00351261
-0.110983 -0.0808811 0.990526 0.00173101
-0.120738 -0.0801508 0.989443 0.00745684
-0.115851 -0.0772256 0.99026 0.00759407
-0.11189 -0.0790005 0.990575 0.00521465
-0.122542 -0.0751917 0.989611 0.00975501
-0.115317 -0.0765795 0.990372 0.00601651
-0.124215 -0.072324 0.989616 0.00245641
-0.122493 -0.0730399 0.989778 0.00398901
-0.118542 -0.0739272 0.990193 0.00176004
-0.127041 -0.0721545 0.98927 0.00589627
-0.122213 -0.0725328 0.98985 0.00292042
-0.136833 -0.0697759 0.988134 0.00943264
-0.135181 -0.0674224 0.988524 0.0145171
-0.127611 -0.0677911 0.989505 0.00922459
-0.1351 -0.0714688 0.988251 0
-0.135951 -0.0682601 0.988361 0.00766988
-0.133699 -0.0664695 0.98879 0.00798061
-0.131047 -0.0654349 0.989214 0.0107074
-0.140184 -0.0667436 0.987873 0.00299069
-0.136769 -0.0652084 0.988454 0.00486368
-0.135826 -0.0630982 0.988721 0.00926782
-0.153978 -0.0662305 0.985852 0.00726417
-0.148012 -0.0657439 0.986798 0.00319978
-0.139166 -0.064402 0.988173 0.0013117
-0.138962 -0.062114 0.988348 0.0064425
-0.15336 -0.0628544 0.986169 0.00661012
-0.152117 -0.0636113 0.986313 0.00840749
-0.148487 -0.0619944 0.986969 0.010144
-0.145079 -0.0604729 0.98757 0.0106505
-0.153294 -0.0681951 0.985825 0.00310878
-0.149211 -0.0647307 0.986684 0.000678128
-0.149391 -0.0655325 0.986604 0.00363536
-0.146722 -0.061375 0.987272 0.00869101
-0.162377 -0.0622169 0.984765 0.0070543
-0.152757 -0.0638877 0.986197 0.0011941
-0.146171 -0.0615002 0.987346 0
-0.144356 -0.0595741 0.987731 0.000386686
-0.140488 -0.0567766 0.988453 0
-0.154481 -0.0597107 0.98619 0
-0.14786 -0.0606682 0.987146 0.0010995
-0.144124 -0.0588246 0.98781 0
-0.13785 -0.0503818 0.989171 0.00445851
-0.17904 -0.0562173 0.982234 0.00870345
-0.157214 -0.0580269 0.985858 0.00356415
-0.176792 -0.0553998 0.982688 0.0078589
-0.183789 -0.0520745 0.981586 0.0153676
-0.178481 -0.0525558 0.982539 0.012034
0.196669 0.00598101 0.980452 0.0058622
0.198187 0.00394049 0.980156 0.0062302
0.200079 0.0108741 0.979719 0.010076
0.189349 0.00536953 0.981895 0.00524263
0.1979 0.00739629 0.980194 0.00949133
0.192442 0.0127478 0.981226 0.012962
0.195746 0.0146626 0.980545 0.00891162
0.184094 0.011497 0.982841 0.00512464
0.185836 0.0106367 0.982523 0.00860185
0.159115 0.00633279 0.98724 0.00211393
0.162981 0.00843111 0.986593 0.00093414
0.177311 0.0111107 0.984092 0.00714711
0.18006 0.0118015 0.983585 0.00366865
0.149476 0.0109465 0.988705 0.00412759
0.157698 0.013583 0.987394 0.00337814
0.164074 0.0135521 0.986355 0.00363517
0.17524 0.0162467 0.984392 0.00996539
-0.160042 0.0318055 0.986598 0.013141
0.147068 0.0184512 0.988954 0.00497047
0.160683 0.0184062 0.986834 0.00978983
0.167266 0.0182075 0.985744 0.00858123
0.173735 0.0191456 0.984606 0.0129498
-0.157893 0.0339064 0.986874 0.0156539
0.139221 0.0223485 0.990009 0.0111221
0.145728 0.0152359 0.989207 0.0040992
0.157688 0.0213512 0.987258 0.0050457
0.161153 0.0195367 0.986736 0.00327154
-0.153769 0.0353901 0.987473 0.0144722
0.137526 0.0196532 0.990303 0.00646715
0.143501 0.0276962 0.989263 0
-0.155449 0.0421626 0.986944 0.0196929
-0.154331 0.0430596 0.98708 0.0217806
-0.140865 0.0369725 0.989338 0.0152716
0.130295 0.017133 0.991327 0.00233846
0.134696 0.0206211 0.990672 0.0021386
-0.130736 0.0302384 0.990956 0.012889
0.13167 0.0171281 0.991146 0.00511654
0.134364 0.0175925 0.990776 0.000969103
-0.129127 0.0350463 0.991008 0.0119988
-0.118379 0.0304128 0.992503 0.00749947
0.130387 0.0190615 0.99128 0.00175308
-0.116875 0.0340824 0.992562 0.0124013
0.130657 0.0216229 0.991192 0.000598121
-0.109102 0.0317286 0.993524 0.0060781
0.128778 0.0150623 0.991559 0
0.132735 0.0125795 0.991072 0
-0.111129 0.033646 0.993236 0.00318905
0.129517 0.0108733 0.991518 0
0.134306 0.00734664 0.990913 0.00153183
-0.106381 0.0309103 0.993845 0.000897128
0.136332 0.0116899 0.990594 0.000138905
-0.10679 0.0317303 0.993775 3.73674e-05
0.134846 0.0129323 0.990782 0.00434331
0.138118 0.0160128 0.990286 0
-0.105109 0.0325977 0.993926 0.000192491
0.139871 0.0120179 0.990097 0
-0.108546 0.0327535 0.993552 0.00203057
0.139066 0.00920721 0.99024 0
0.141628 0.0118673 0.989849 0
-0.107078 0.0316525 0.993747 0
0.141143 0.0108436 0.98993 0
0.146162 0.00905688 0.989219 0
-0.106888 0.030844 0.993793 0
-0.101026 0.0247436 0.994576 0
0.143484 0.00658944 0.989631 0
0.148019 0.0120086 0.988912 0
-0.106581 0.0285879 0.993893 0
-0.101798 0.0255009 0.994478 6.51225e-05
0.144886 0.00893539 0.989408 0
0.149575 0.0109625 0.98869 0
-0.106997 0.0293903 0.993825 0
-0.108979 0.0298694 0.993595 0.0102743
0.152807 0.00668735 0.988233 0
-0.111777 0.0313389 0.993239 0.00311816
-0.113306 0.0315609 0.993059 0.015402
0.151074 0.00382685 0.988515 0
0.158114 0.00435835 0.987411 0
-0.111066 0.029994 0.99336 0.00950864
0.160061 0.00894133 0.987067 0
-0.106131 0.0214022 0.994122 0.00216364
0.160551 0.0083712 0.986992 0
-0.109977 0.023983 0.993645 0.00475973
0.163222 0.00063048 0.986589 0
-0.114505 0.0267622 0.993062 0.00832194
0.165479 0.00555853 0.986198 0
-0.114315 0.0242973 0.993147 0.00615754
0.16757 0.00716862 0.985834 0
-0.117603 0.0245872 0.992756 0.0115573
-0.121799 0.0245301 0.992252 0.00948743
0.176599 0.00511828 0.98427 0
-0.129525 0.0289488 0.991153 0.0122119
0.178797 0.00762466 0.983856 0
-0.133165 0.0298149 0.990645 0.0132418
-0.128528 0.0258146 0.99137 0.014314
0.179413 0.00769031 0.983744 0
-0.128281 0.0209239 0.991517 0.0106694
0.180522 0.003612 0.983564 0
-0.134217 0.0215636 0.990717 0.0150231
0.182772 -0.00432977 0.983146 0
0.19234 -0.00380475 0.981321 0
-0.135573 0.0139313 0.990669 0.00811236
-0.130166 0.01163 0.991424 0.00602876
0.194804 -0.00822857 0.980808 0.00367079
-0.133604 0.00645793 0.991014 0.0061021
0.199161 -0.00281735 0.979963 0.000883128
-0.142013 0.00780341 0.989834 0.0141849
0.205146 0.00248163 0.978728 0.0048661
-0.150792 0.0110536 0.988504 0.018466
-0.153125 0.0137155 0.988112 0.017758
-0.161639 0.0169063 0.986705 0.0217183
-0.152745 0.0107427 0.988207 0.0187159
-0.152494 0.00722299 0.988278 0.00968742
-0.151406 0.00660927 0.98845 0.0144316
-0.136317 -0.00880548 0.990626 0.00676621
-0.136365 -0.0105378 0.990603 0
-0.140225 -0.0114099 0.990054 0.00267069
-0.14656 -0.0101185 0.98915 0.00586243
-0.14386 -0.0166651 0.989458 0.00453344
-0.143945 -0.0201994 0.98938 0
-0.144009 -0.0257875 0.98924 0
-0.146263 -0.0248212 0.988934 0
0.229339 -0.0153072 0.973226 0
0.223627 -0.00769186 0.974644 0
0.207813 -0.00961537 0.978121 0
0.203268 -0.00254456 0.97912 0
0.209988 -0.000237658 0.977704 0
0.19672 -0.00341723 0.980454 0
0.203972 -0.00498556 0.978964 0
0.198908 0.000971576 0.980018 0
0.204676 -0.00435271 0.97882 0
0.202185 0.00386846 0.97934 0
0.208766 0.00343523 0.97796 0
0.202078 0.00509939 0.979356 0
0.205411 0.0143012 0.978571 0
0.208958 0.0207173 0.977705 0
0.217535 0.0206854 0.975833 0
0.206453 0.0159398 0.978327 0
0.215716 0.021514 0.976219 0
0.208639 0.0215327 0.977756 0
0.216568 0.0232847 0.97599 0
0.209225 0.0215918 0.977629 0
0.219378 0.0285814 0.975221 0
0.209859 0.02297 0.977462 0
0.221019 0.0324554 0.974729 0
0.21225 0.028458 0.976801 0
0.213111 0.0269641 0.976656 0
0.213794 0.0268263 0.97651 0
0.210187 0.0307622 0.977177 0
0.215792 0.0466411 0.975325 0
0.219355 0.0609712 0.973738 0
0.223057 0.0598359 0.972967 0
0.213427 0.0591275 0.975168 0
0.221283 0.065562 0.973003 0
0.214317 0.061476 0.974828 0
0.218576 0.0625689 0.973812 0
0.212582 0.0658735 0.97492 0
0.211127 0.0571121 0.975789 0
-0.196374 0.0149503 0.980415 0.00702964
0.214517 0.0703585 0.974183 0
0.216809 0.0654354 0.974018 0
-0.206276 0.0228086 0.978228 0.0156448
0.209286 0.0657967 0.975638 0
0.213974 0.0659034 0.974614 0
-0.21304 0.0306684 0.976562 0.0197731
0.206858 0.0680566 0.976001 0
-0.234023 0.0472293 0.971083 0.030271
-0.237518 0.0530712 0.969932 0.0342672
0.206097 0.0704918 0.975989 0
0.211066 0.0726126 0.974771 0
0.199868 0.0711984 0.977233 0
0.207994 0.0746716 0.975276 0
0.19728 0.0674027 0.978027 0
0.203671 0.074078 0.976233 0
0.209418 0.0778514 0.974722 0
0.199989 0.0709758 0.977224 0
0.203185 0.0740463 0.976336 0
0.21036 0.0806631 0.974291 0
0.197031 0.0696412 0.977921 0
0.202464 0.0751088 0.976405 0
0.203735 0.0750066 0.976149 0
0.1993 0.0724282 0.977258 0
0.204277 0.0768396 0.975893 0
0.202858 0.0812007 0.975836 0
0.206453 0.0881063 0.974482 0
-0.184887 0.0334053 0.982192 0.021195
-0.179643 0.0392317 0.982949 0.0203333
-0.172426 0.0360551 0.984362 0.0172812
-0.16586 0.0272013 0.985774 0.0123924
-0.163832 0.0272652 0.986111 0.0167339
0.21329 0.0968754 0.972174 0
-0.149373 0.0197855 0.988583 0.00827952
-0.151378 0.0236689 0.988193 0.0103522
-0.151979 0.0279525 0.987988 0.0117862
0.205201 0.086559 0.974885 0
-0.160549 0.0397265 0.986228 0.0181355
-0.16087 0.050913 0.985662 0.0254274
0.209831 0.0910356 0.97349 0
-0.164671 0.0465366 0.98525 0.0250262
-0.163197 0.0537387 0.985129 0.0274464
0.213008 0.0942381 0.972495 0.000279296
-0.165483 0.0596481 0.984407 0.0262328
-0.154185 0.0537605 0.986578 0.022743
-0.143054 0.0446168 0.988709 0.0142812
0.236706 0.121588 0.963943 0.0155143
0.21824 0.103795 0.97036 0.00252331
0.236459 0.121663 0.963995 0.0145469
0.210393 0.10517 0.971943 0.0137202
0.195869 0.0949088 0.976026 0.00516592
0.209953 0.109185 0.971596 0.013153
0.205351 0.114171 0.972006 0.014743
0.208658 0.114388 0.971276 0.0137643
0.183347 0.0932206 0.978618 0
0.178811 0.0992388 0.978866 0
0.187489 0.0999567 0.977168 0
0.182634 0.109094 0.97711 0.00433423
0.187722 0.125885 0.974122 0.00948264
0.185549 0.114913 0.975893 0.00394571
0.186095 0.124412 0.974623 0.00632385
0.184724 0.135784 0.973365 0.00193828
0.105966 0.156012 0.982055 0.00717938
0.109933 0.143032 0.983594 0.0119738
0.115472 0.14387 0.982836 0.0163859
0.100452 0.167864 0.980679 0.00885448
0.103746 0.168601 0.980209 0.0130162
0.106223 0.158879 0.981567 0.00727073
0.0990062 0.180645 0.978553 0.0136542
-0.0138305 -0.101718 0.994717 0.00963238
-0.0096026 -0.0973227 0.995207 0.00824574
-0.0055377 -0.101835 0.994786 0.00210103
-0.00265624 -0.100582 0.994925 0.0046414
-4.67713e-05 -0.110917 0.99383 0.0168218
0.00669134 -0.124938 0.992142 0
0.0478727 -0.146353 0.988073 0
0.0513916 -0.140081 0.988805 0
0.0558443 -0.141326 0.988387 0.0032003
0.0666644 -0.124344 0.989997 0.00605103
-0.0192655 -0.0867183 0.996047 0.0197818
-0.0128914 -0.0960142 0.995296 0.00583727
-0.00916421 -0.102534 0.994687 0.000815431
0.001005 -0.115431 0.993315 0
0.00791624 -0.12512 0.99211 0
0.0117598 -0.132899 0.99106 0
0.0173757 -0.134782 0.990723 0
0.050641 -0.135376 0.989499 0
0.0657902 -0.124618 0.990021 0.0114412
-0.0252155 -0.0812785 0.996372 0.00947206
-0.0252579 -0.0793449 0.996527 0.0177992
-0.0205149 -0.0841639 0.996241 0.0212682
0.0130945 -0.133449 0.990969 0
0.0179827 -0.134112 0.990803 0
0.0226473 -0.126509 0.991707 0
0.0268863 -0.124253 0.991886 0.00242468
0.0324926 -0.124065 0.991742 0.00750781
0.0362119 -0.12341 0.991695 0.0113265
0.0511668 -0.135816 0.989412 0.00233875
0.0742859 -0.119413 0.990062 0.00658789
-0.0255056 -0.0729112 0.997012 0.0112917
-0.0267087 -0.079492 0.996478 0.0109417
-0.0270717 -0.0861232 0.995917 0.0118743
0.0235067 -0.115581 0.99302 0
0.0277283 -0.112138 0.993306 0.00590796
0.0333844 -0.117266 0.992539 0.00837882
0.0377603 -0.11161 0.993034 0.0224152
0.0697503 -0.108649 0.99163 0.00483719
0.0736305 -0.109404 0.991266 0.00936631
-0.0319325 -0.0840718 0.995948 0.0157968
-0.0284475 -0.081246 0.996288 0.0138929
0.0350186 -0.109146 0.993409 0.0102624
0.067137 -0.108409 0.991837 0.00443887
0.0701392 -0.106898 0.991793 0.00894074
0.0692056 -0.110319 0.991484 0.0131337
0.0751078 -0.12153 0.989742 0.022216
0.0694547 -0.11753 0.990638 0.0169305
0.0720511 -0.119949 0.990162 0.013683
0.0754997 -0.118236 0.990111 0.0113031
-0.037337 -0.0670746 0.997049 0.0162351
-0.0341056 -0.0627351 0.997447 0.0190347
0.0715046 -0.123056 0.98982 0.0111604
0.0720452 -0.115667 0.990672 0.00716681
0.0769714 -0.128061 0.988775 0.00483621
-0.037123 -0.0642699 0.997242 0.0164841
-0.0345561 -0.0616931 0.997497 0.0169072
0.0690109 -0.124339 0.989837 0.00455851
0.0702554 -0.115818 0.990783 0.00479542
0.0736547 -0.118487 0.99022 0.00235274
-0.0411364 -0.0709914 0.996628 0.0110782
-0.0383157 -0.0622286 0.997326 0.0167804
-0.0331504 -0.0559844 0.997881 0.0152276
0.0683478 -0.120984 0.990299 0.00562442
0.0695452 -0.115083 0.990918 0.00546376
0.0739733 -0.126259 0.989235 0.00360837
-0.0432369 -0.0696428 0.996635 0.0159713
-0.0380273 -0.0546506 0.997781 0.0208598
0.0657741 -0.117599 0.99088 0.00422271
0.0673673 -0.114922 0.991088 0.00326826
0.0724387 -0.124008 0.989634 0
-0.0409348 -0.0626116 0.997198 0.0145901
0.0652735 -0.119286 0.990712 0.00221899
0.0715614 -0.128854 0.989078 0
0.0961859 -0.141303 0.985283 0
0.0995421 -0.14723 0.984081 0.00259256
-0.0445054 -0.0633244 0.997 0.0186333
-0.0411643 -0.0609689 0.99729 0.016287
0.0653951 -0.120881 0.990511 0.00044557
0.0710298 -0.13097 0.988839 0
0.0791753 -0.129034 0.988474 0
0.0919436 -0.144463 0.985229 0
0.101031 -0.158238 0.982219 0
0.102873 -0.154676 0.982595 0
0.110606 -0.159034 0.981058 0
0.112064 -0.148878 0.982485 0
-0.0441384 -0.0615793 0.997126 0.013601
0.0635902 -0.116979 0.991096 0.00030382
0.0692217 -0.12555 0.989669 0
0.0737725 -0.121482 0.989848 0
0.0764949 -0.122242 0.989548 0
0.0921039 -0.145755 0.985024 0
0.0995118 -0.158236 0.982374 0
0.102288 -0.155691 0.982495 0
0.108195 -0.151969 0.982446 0
0.111415 -0.149701 0.982434 0
-0.0461306 -0.0605112 0.997101 0.00227321
-0.044643 -0.0627553 0.99703 0.0131516
0.0641585 -0.121449 0.990522 0
0.0669452 -0.120291 0.990479 0
0.0679334 -0.115312 0.991004 0
0.0703059 -0.116707 0.990675 0
0.0733085 -0.120924 0.989951 0
0.0757247 -0.117979 0.990125 0
0.0994473 -0.154065 0.983043 0
0.110212 -0.15543 0.98168 0
0.115672 -0.155732 0.981003 0
0.117755 -0.148379 0.981895 0
-0.0442477 -0.0525383 0.997638 0.00194885
-0.0426163 -0.0532101 0.997674 0.00999411
0.0619927 -0.118644 0.991 0
0.0666787 -0.121684 0.990327 0
0.0683876 -0.118393 0.990609 0
0.069812 -0.115893 0.990805 0
0.0713863 -0.112747 0.991056 0
0.119928 -0.151215 0.981199 0
-0.0449912 -0.0517949 0.997644 0.00516858
-0.0392525 -0.0414303 0.99837 0.00949169
0.0616823 -0.114496 0.991507 0
0.0630811 -0.111067 0.991809 0
0.0662532 -0.114528 0.991208 0
0.0683456 -0.113416 0.991194 0
0.0695757 -0.110107 0.991482 0
0.115242 -0.140439 0.98336 0
0.127062 -0.142645 0.981584 0
-0.0448609 -0.0522927 0.997624 0.00230996
-0.0395155 -0.0420502 0.998334 0.00575434
0.0590667 -0.105905 0.99262 0
0.0619417 -0.110202 0.991977 0
0.0639498 -0.106852 0.992216 0
0.0654232 -0.104695 0.99235 0.000363169
0.121847 -0.129677 0.984041 0
-0.0443399 -0.048542 0.997837 0.0020702
-0.0404145 -0.0430243 0.998256 0.00973765
0.0574407 -0.106486 0.992654 0
0.120676 -0.125095 0.984778 0.00245868
0.133609 -0.132804 0.982096 0.00705403
-0.0508747 -0.0517653 0.997363 0.00362517
-0.0431716 -0.0410311 0.998225 0.0100594
-0.0426436 -0.0471833 0.997976 0.0117161
0.12046 -0.119713 0.985474 0.00687466
0.132816 -0.12759 0.982894 0.0075175
-0.0742527 -0.0477328 0.996096 0.0136266
-0.0563954 -0.0553815 0.996871 0.00171391
-0.0495152 -0.0465529 0.997688 0.00700337
-0.0450935 -0.043569 0.998032 0.00897454
-0.0398528 -0.0414179 0.998347 0.00745499
0.131276 -0.120602 0.983983 0.0137627
-0.0811562 -0.0358313 0.996057 0.0215123
-0.0735279 -0.0416102 0.996425 0.0170186
-0.058183 -0.0491055 0.997097 0.0106495
-0.0502971 -0.0445594 0.99774 0.0113698
-0.0464042 -0.0446917 0.997922 0.00714342
-0.043235 -0.0455495 0.998026 0.00659704
0.128143 -0.11297 0.985301 0.0135071
-0.0844518 -0.0344015 0.995834 0.0239872
0.126323 -0.107159 0.986184 0.015378
-0.0908529 -0.0297117 0.995421 0.017013
-0.090273 -0.0305573 0.995448 0.0220865
-0.0824913 -0.022428 0.996339 0.0308751
0.124751 -0.103284 0.986798 0.0117156
-0.0883279 -0.025392 0.995768 0.0110139
-0.0854245 -0.0233245 0.996072 0.0171792
0.123842 -0.100829 0.987166 0.0127609
-0.0890661 -0.024556 0.995723 0.0035201
-0.0840303 -0.0216859 0.996227 0.00376272
-0.084207 -0.0236217 0.996168 0.0144889
0.121293 -0.0945049 0.988108 0.0129409
-0.0895255 -0.0245655 0.995682 0
-0.0819262 -0.0201638 0.996434 0
-0.0852566 -0.0155259 0.996238 0
-0.0842913 -0.0202568 0.996235 0
-0.0896576 -0.0224054 0.995721 0
-0.083732 -0.0178604 0.996328 0
-0.0935207 -0.0135634 0.995525 0
-0.0888014 -0.0196339 0.995856 0
-0.092753 -0.0132707 0.995601 0
-0.0937579 -0.0150766 0.995481 0
0.106266 -0.0611146 0.992458 0.0185565
-0.0953089 -0.0113835 0.995383 0.00418277
0.10551 -0.059589 0.992631 0.0186822
-0.0963357 -0.0117583 0.995279 0.00584483
0.139139 -0.0792263 0.987099 0.00639094
0.143536 -0.0855819 0.985938 0.00367245
0.146637 -0.0844826 0.985576 0.00759713
0.154404 -0.0901393 0.983887 0.0074641
0.161306 -0.0964008 0.982185 0.00970846
0.162217 -0.0979898 0.981878 0.00390663
0.130963 -0.0722944 0.988748 0.00755724
0.139417 -0.0838902 0.986674 0.00436139
0.144078 -0.0873779 0.985701 0.00418224
0.149796 -0.088221 0.984773 0.0124056
0.151284 -0.0881371 0.984553 0.00782331
0.155207 -0.0913923 0.983645 0.00430957
0.162801 -0.0952169 0.982054 0.00310839
0.10526 -0.0453834 0.993409 0.0191822
0.108012 -0.0444751 0.993154 0.0189149
0.109928 -0.0471198 0.992822 0.0183161
0.114235 -0.0533493 0.99202 0.0170679
0.125553 -0.0676454 0.989778 0.0179704
0.130274 -0.0731944 0.988773 0.00822306
0.143186 -0.084169 0.98611 0.0065502
0.148193 -0.0861564 0.985198 0.0122432
0.15076 -0.0890513 0.984551 0.00636728
0.155062 -0.0883306 0.983948 0.00727511
0.162368 -0.0954128 0.982106 0
0.168745 -0.0973909 0.980836 0
0.101575 -0.0362253 0.994168 0.0230733
0.108755 -0.0490272 0.992859 0.0204565
0.110855 -0.0495108 0.992603 0.0207053
0.112201 -0.0503425 0.992409 0.0199181
0.126299 -0.0728162 0.989316 0.0161456
0.149081 -0.0874684 0.984949 0.00659864
0.152957 -0.0892248 0.984197 0.00442646
0.16755 -0.0976382 0.981017 0
0.180485 -0.109137 0.977504 0
0.187108 -0.11412 0.975688 0
0.101948 -0.0385522 0.994042 0.0212778
0.108729 -0.0478339 0.99292 0.024597
0.111422 -0.0519322 0.992415 0.0210754
0.113409 -0.0537099 0.992096 0.0211522
0.123618 -0.0655131 0.990165 0.022388
0.16842 -0.100485 0.98058 0
0.175877 -0.104952 0.978801 0
0.185747 -0.115367 0.975801 0
0.106267 -0.0523223 0.99296 0.0227886
0.107288 -0.0474327 0.993096 0.0212295
0.174046 -0.101316 0.979512 0
0.178685 -0.103852 0.97841 0
0.182468 -0.105659 0.977518 0
0.173967 -0.098014 0.979862 0
0.176678 -0.0982613 0.979352 0
0.174033 -0.0952213 0.980125 0
0.177423 -0.0960976 0.979432 0
0.179881 -0.0992954 0.978664 0
0.180501 -0.0951874 0.978958 0
-0.0959996 -0.00504324 0.995369 0.00546623
0.172062 -0.0885177 0.981101 0
0.175288 -0.088614 0.980521 0
-0.0901707 0.000260333 0.995926 4.71255e-05
0.170493 -0.0836575 0.981801 0.00568806
0.17268 -0.084504 0.981346 0.00109457
-0.0897661 -0.00122396 0.995962 0
0.168094 -0.0807906 0.982455 0.00971391
0.1758 -0.0818532 0.981017 0.0153664
-0.0902474 -0.00170146 0.995918 0.00049497
0.170801 -0.0815502 0.981925 0.0145563
0.17583 -0.0794915 0.981206 0.0206909
-0.0891319 0.00146479 0.996019 0.00112604
0.170215 -0.0793938 0.982203 0.0192671
-0.0880714 0.00629272 0.996094 0.00244066
0.168934 -0.0792608 0.982435 0.0175935
-0.0874461 0.010787 0.996111 0.00652406
0.16848 -0.0801259 0.982443 0.0157951
-0.0878876 0.00683315 0.996107 0.00482718
0.163219 -0.0745565 0.983769 0.0139397
-0.0860826 0.00736206 0.996261 0.00325554
0.157694 -0.0695752 0.985034 0.0117697
-0.0868038 0.00728334 0.996199 0.000971964
0.155341 -0.0669081 0.985592 0.0128642
-0.0879544 0.00462721 0.996114 0.001561
0.151344 -0.0639469 0.98641 0.00760777
-0.0883037 0.0094752 0.996049 0.006572
0.150069 -0.0625874 0.986692 0.00892476
0.146923 -0.0612195 0.987252 0.00438969
0.146724 -0.0613735 0.987272 0.00411409
0.147094 -0.0641826 0.987038 0.00315005
0.147192 -0.0658228 0.986915 0
0.154186 -0.0716392 0.985441 0
0.147271 -0.0679608 0.986759 0
0.154254 -0.0712967 0.985456 0
-0.101915 0.00702868 0.994768 0.0196053
-0.0988355 0.00541602 0.995089 0.0207068
0.14652 -0.0680807 0.986862 0
0.154295 -0.073274 0.985304 0
-0.111986 0.00588323 0.993692 0.0230853
-0.105207 0.00694621 0.994426 0.0197406
-0.100864 0.00581467 0.994883 0.0230504
0.148418 -0.0685458 0.986546 0.00188328
0.153741 -0.0717134 0.985505 0
-0.120505 -0.000464476 0.992713 0.0200482
-0.11696 0.00251568 0.993133 0.023688
-0.109985 0.00133877 0.993932 0.0225971
0.146865 -0.0660839 0.986947 0.00282629
0.152498 -0.0680132 0.985961 0
-0.127194 -0.000712606 0.991878 0.0162592
-0.122077 -0.00197975 0.992519 0.0162145
-0.118698 -0.000282123 0.99293 0.0183484
0.148675 -0.0667153 0.986633 0.00148128
0.155479 -0.0731013 0.985131 0
-0.12564 -0.001007 0.992075 0.00986763
-0.125556 -0.00453965 0.992076 0.013962
0.148331 -0.0662822 0.986714 0
0.154545 -0.0710037 0.985431 0
-0.126599 4.83101e-05 0.991954 0.00927505
0.152767 -0.0683527 0.985896 0
-0.136209 0.00382757 0.990673 0.0058336
0.154347 -0.0710436 0.985459 0
-0.134199 0.0042602 0.990945 0.000676372
0.155511 -0.0693684 0.985396 0
-0.137885 0.00432589 0.990439 0.00191279
0.153619 -0.0664746 0.985892 0
-0.137347 0.00917066 0.990481 0.00496749
0.15064 -0.0586816 0.986846 0
0.157712 -0.0560828 0.985891 0
-0.136149 0.00767558 0.990659 0.00397492
0.145464 -0.0542024 0.987878 0
0.152204 -0.0544008 0.986851 0
0.158497 -0.0574495 0.985687 0
-0.14113 0.00882667 0.989952 0.0123611
0.145322 -0.0522066 0.988006 0.00487278
0.150413 -0.0547308 0.987107 0.000401928
0.156773 -0.057178 0.985978 0
-0.138966 0.0097556 0.990249 0.00701368
0.145376 -0.0507527 0.988074 0.0135193
0.15015 -0.0548499 0.987141 0.00545165
0.156291 -0.0563655 0.986101 0
-0.140045 0.0109487 0.990085 0.0120235
0.144714 -0.0513676 0.988139 0.00923374
0.149532 -0.0562231 0.987157 0.0044426
0.153654 -0.0583367 0.986401 0
0.145292 -0.0552744 0.987844 0.0137384
0.149114 -0.0593398 0.987038 0.00325667
0.158347 -0.0659383 0.985179 0
-0.135551 0.0105321 0.990714 0.0120128
0.145527 -0.058214 0.98764 0.00484196
0.155189 -0.0652951 0.985725 0
-0.139413 0.00633538 0.990214 0.0145105
0.140536 -0.0516347 0.988728 0.0125809
0.145507 -0.062016 0.987412 0
0.151043 -0.0623464 0.986559 0
-0.138384 0.00451202 0.990368 0.0132394
0.138342 -0.0531139 0.988959 0.0121088
0.142186 -0.0631733 0.987822 0.000183428
0.149506 -0.0671861 0.986476 0
-0.138453 -0.00103517 0.990368 0.0145426
0.141716 -0.061141 0.988017 0.0116076
0.144441 -0.0644325 0.987413 0
-0.141064 -0.00459315 0.98999 0.0172566
0.140173 -0.0521863 0.988751 0.0230039
0.143865 -0.0592874 0.98782 0.0127394
-0.13938 -0.00775609 0.990209 0.0165479
0.138651 -0.0609685 0.988463 0.017513
0.141502 -0.0645304 0.987833 0.0102163
-0.138423 -0.0137253 0.990278 0.0142726
0.136125 -0.0628927 0.988693 0.0172428
0.140688 -0.0690167 0.987645 0.00892859
0.142107 -0.071745 0.987248 0.00734185
-0.140793 -0.0144455 0.989934 0.019692
0.134196 -0.0669683 0.988689 0.0166549
0.139166 -0.0754089 0.987394 0.00696364
0.137477 -0.0719085 0.987891 0.00268745
-0.143232 -0.0181431 0.989523 0.0246577
0.130812 -0.0644486 0.98931 0.0178801
0.133244 -0.0715717 0.988496 0.00304128
0.136949 -0.0771149 0.987572 0
-0.13823 -0.0191216 0.990216 0.01958
0.125542 -0.0616726 0.99017 0.0164707
0.129273 -0.0670244 0.989341 0.00672888
0.131883 -0.0707743 0.988735 0
0.146174 -0.086142 0.985501 0
0.155975 -0.0945812 0.983222 0
-0.136846 -0.022732 0.990331 0.0154699
-0.123691 -0.0227084 0.992061 0.013184
0.122926 -0.062348 0.990455 0.0151061
0.124797 -0.067285 0.989898 0.00784795
0.130068 -0.075902 0.988596 0
0.137117 -0.0833376 0.987043 0
0.145549 -0.0920251 0.985062 0
0.150471 -0.0966287 0.983881 0
0.153789 -0.0968307 0.983348 0
-0.136573 -0.0233342 0.990355 0.0148743
-0.124377 -0.0222136 0.991986 0.0162193
-0.114708 -0.0218207 0.99316 0.0114891
0.122775 -0.0716352 0.989846 0.00672428
0.129731 -0.0783704 0.988447 0
0.130971 -0.0787988 0.98825 0
0.138193 -0.0869964 0.986577 0
0.141747 -0.0882503 0.985961 0
0.143881 -0.0906515 0.985434 0
0.14547 -0.0939318 0.984894 0
0.14497 -0.0872683 0.98558 0
0.152661 -0.0884488 0.984313 0
-0.135497 -0.0272699 0.990402 0.01127
-0.126789 -0.0227093 0.99167 0.0187298
0.128349 -0.0793877 0.988546 0
0.134385 -0.0879671 0.987017 0
0.138533 -0.0913042 0.98614 0
0.138626 -0.0891683 0.986322 0
0.141625 -0.0895324 0.985863 0
0.145226 -0.0882204 0.985458 0
0.150052 -0.0894843 0.98462 0
-0.134892 -0.0283004 0.990456 0.0119601
-0.126191 -0.0287945 0.991588 0.0164389
-0.117013 -0.0225366 0.992875 0.0125089
-0.11364 -0.0223028 0.993272 0.00942057
0.127876 -0.0866477 0.987998 0
0.129686 -0.088088 0.987635 0
0.133733 -0.0916688 0.986769 0
0.136378 -0.0911224 0.986457 0
0.137307 -0.0892616 0.986498 0
0.144081 -0.0961598 0.984883 0
0.151514 -0.104333 0.982933 0
-0.130028 -0.0286782 0.991095 0.00857081
-0.120778 -0.0220567 0.992434 0.0114921
-0.116324 -0.0253359 0.992888 0.011351
-0.110442 -0.0238461 0.993596 0.00402631
0.125242 -0.0894088 0.988089 0
0.130234 -0.0881864 0.987554 0
0.13498 -0.0926578 0.986506 0
0.137966 -0.0957029 0.985802 0
0.142506 -0.0995958 0.98477 0
0.149312 -0.103967 0.983309 0
-0.128101 -0.0338915 0.991182 0.00339962
-0.119454 -0.0282289 0.992438 0.00775337
-0.11322 -0.0192988 0.993382 0.00948225
-0.110279 -0.0211204 0.993676 0.00647533
0.122994 -0.0843009 0.98882 0
0.130491 -0.08971 0.987383 0
0.134993 -0.0953703 0.986246 0
0.139013 -0.0999244 0.985236 0
0.147547 -0.105982 0.98336 0
-0.129058 -0.0382017 0.990901 0.00438309
-0.11773 -0.0330155 0.992497 0.004633
-0.113512 -0.0252913 0.993215 0.00506432
0.119749 -0.0811512 0.989482 0
0.128922 -0.0900706 0.987556 0
0.132009 -0.0955203 0.986635 0
0.134518 -0.0958132 0.986268 0
0.140428 -0.0996868 0.98506 0
-0.127474 -0.0428531 0.990916 0.000209928
-0.119443 -0.0366505 0.992164 0.00537114
-0.110545 -0.0313438 0.993377 0.00523784
0.132947 -0.0995572 0.98611 0
0.139438 -0.104528 0.984698 0
-0.127153 -0.0454781 0.99084 0
-0.118567 -0.0387908 0.992188 0.0047754
-0.113773 -0.0409505 0.992662 0.00455473
-0.111973 -0.0341128 0.993126 0.00826522
0.127612 -0.100117 0.986758 0
0.130173 -0.100406 0.986394 0
0.134903 -0.10128 0.985669 0
-0.124618 -0.0492415 0.990982 0
-0.112088 -0.0387731 0.992942 0.00271534
-0.110067 -0.0387374 0.993169 0.00558786
0.125899 -0.0981244 0.987178 0
0.129659 -0.0926561 0.98722 0
-0.122476 -0.0516013 0.991129 0
-0.105706 -0.0382593 0.993661 0
0.122738 -0.0892055 0.988422 0
0.129056 -0.0914871 0.987408 0
-0.119931 -0.0500543 0.99152 0
-0.105185 -0.0417992 0.993574 0
0.121636 -0.0905533 0.988436 0
0.127086 -0.0933281 0.987491 0
-0.11776 -0.0530625 0.991623 0
-0.105375 -0.0489955 0.993225 0
0.119624 -0.0889202 0.988829 0
0.126299 -0.0932947 0.987595 0
-0.116802 -0.0625287 0.991185 0
-0.102448 -0.0436964 0.993778 0.00130833
0.11549 -0.0822168 0.9899 0.00470204
0.120668 -0.0864087 0.988925 0
-0.114461 -0.0695638 0.990989 0
0.117768 -0.0847367 0.989419 0.0112463
0.121118 -0.0870139 0.988817 0.0027207
-0.112324 -0.070082 0.991197 0
0.11186 -0.0824594 0.990297 0.00374529
0.119686 -0.0832098 0.989319 0.0122314
-0.109131 -0.0707941 0.991503 0
0.117991 -0.0856018 0.989318 0.0128092
0.123725 -0.0905342 0.988178 0.0159429
-0.108773 -0.073577 0.99134 0
0.115458 -0.0875839 0.989443 0.0135819
0.121967 -0.0893564 0.988504 0.0169657
-0.10753 -0.0829835 0.990732 0
0.114253 -0.0850398 0.989805 0.017228
0.118021 -0.0886827 0.989043 0.0124982
-0.104508 -0.0793771 0.991351 0
0.105823 -0.0831632 0.990901 0.019796
0.111613 -0.0867691 0.989956 0.0175684
0.117359 -0.0949921 0.988536 0.0139016
-0.102984 -0.078612 0.991572 0
0.106824 -0.0869579 0.990468 0.0225564
0.110936 -0.0936091 0.989409 0.0143812
0.115138 -0.0918876 0.98909 0.0152721
-0.110321 -0.0763125 0.990962 0
0.107812 -0.0872373 0.990336 0.0142397
0.11696 -0.0917561 0.988889 0.0200293
-0.109141 -0.0778938 0.99097 0
-0.0988636 -0.0768061 0.992132 0
0.108345 -0.0935265 0.989704 0.0106515
0.114634 -0.0969172 0.988669 0.00772493
