# .PCD v0.7 - Point Cloud Data file format
VERSION 0.7
FIELDS x y z
SIZE 4 4 4
TYPE F F F
COUNT 1 1 1
WIDTH 1487
HEIGHT 1
VIEWPOINT 0 0 0 1 0 0 0
POINTS 1487
DATA ascii
-0.029464999 0.146945 -0.223388
-0.029379001 0.14693999 -0.223372
-0.029200001 0.14728101 -0.223315
-0.029194999 0.14735401 -0.223353
-0.029191 0.14742699 -0.223379
-0.029082499 0.14744851 -0.223318
-0.029076001 0.14755701 -0.223355
-0.029073 0.14762799 -0.223379
-0.028960001 0.14775699 -0.223323
-0.028922001 0.14785033 -0.22331934
-0.0289515 0.147937 -0.22336251
-0.028871 0.14796549 -0.2233125
-0.028866999 0.148037 -0.22334251
-0.028852334 0.14813167 -0.22335666
-0.016697001 0.14815199 -0.22338
-0.016848 0.148297 -0.22332101
-0.016780499 0.1482605 -0.22336501
-0.016845001 0.148369 -0.22331899
-0.016775001 0.148368 -0.223397
-0.016842 0.14843901 -0.223324
-0.016835999 0.1485475 -0.223354
-0.016830999 0.148656 -0.223368
-0.016856 0.1487595 -0.22333525
-0.0168515 0.1488665 -0.2233455
-0.016848501 0.14893749 -0.22335351
-0.016844001 0.1490445 -0.22336474
-0.016868001 0.149152 -0.223351
-0.016938332 0.149266 -0.223305
-0.016863 0.149258 -0.22335899
-0.017012 0.14936499 -0.22330999
-0.016940501 0.1493625 -0.22332701
-0.016858 0.14936601 -0.22338299
-0.017008999 0.14943799 -0.223327
-0.0169365 0.14943549 -0.2233505
-0.016853999 0.14943901 -0.2234
-0.017018668 0.14955866 -0.223355
-0.016923999 0.14953201 -0.22338234
-0.017047999 0.149656 -0.223349
-0.017044 0.149728 -0.22336701
-0.017106 0.149867 -0.223317
-0.017041 0.1498 -0.22338299
-0.017100001 0.149942 -0.22336499
-0.0171855 0.150048 -0.22333151
-0.017096 0.150015 -0.223395
-0.016891001 0.150004 -0.2234
-0.01718 0.15015601 -0.223355
-0.017274 0.15022799 -0.22330201
-0.017175 0.15022901 -0.22339299
-0.017268 0.15033749 -0.22334799
-0.017351 0.150445 -0.22332799
-0.017345 0.150556 -0.22337399
-0.017428 0.15065899 -0.22330201
-0.017340001 0.150662 -0.22338399
-0.017425001 0.150732 -0.223308
-0.017338 0.15073401 -0.22338299
-0.0174195 0.15084049 -0.223341
-0.017333999 0.15080699 -0.223397
-0.017498501 0.151058 -0.22333449
-0.017583 0.151162 -0.22330301
-0.017494 0.151164 -0.22334801
-0.017578 0.151236 -0.22333699
-0.01749 0.15123899 -0.223378
-0.0176595 0.15134349 -0.223331
-0.017573001 0.15131301 -0.22338299
-0.017733 0.15145101 -0.223308
-0.017651999 0.151458 -0.223399
-0.017727001 0.151528 -0.22336
-0.017913001 0.15168101 -0.223317
-0.01783675 0.15164176 -0.2233445
-0.017723 0.151603 -0.22339
-0.0179365 0.1517555 -0.2233375
-0.017830499 0.151752 -0.22338599
-0.0179305 0.15186524 -0.22336501
-0.0178505 0.151862 -0.22337499
-0.017952999 0.151972 -0.223371
-0.026975 0.152041 -0.223333
-0.026916999 0.15211201 -0.22336499
-0.0268455 0.1521405 -0.223317
-0.026815001 0.152252 -0.22337
-0.026743332 0.15236133 -0.22337367
-0.026632 0.15237699 -0.223345
-0.026628001 0.15245 -0.223373
-0.018835001 0.152788 -0.22331201
-0.0187565 0.15278649 -0.223351
-0.018678 0.152784 -0.223389
-0.018932 0.15286499 -0.22330999
-0.018854501 0.152867 -0.22336951
-0.018777 0.15286399 -0.22339299
-0.018927 0.15294001 -0.223354
-0.018995 0.153082 -0.223369
-0.019081 0.153154 -0.22332001
-0.019252 0.15337799 -0.22334
-0.019166 0.153308 -0.22336701
-0.019246001 0.153456 -0.22339199
-0.019425999 0.15352499 -0.223314
-0.019603999 0.153675 -0.22333001
-0.019421 0.153602 -0.22335801
-0.021385999 0.15496799 -0.223344
-0.021559 0.155039 -0.22330099
-0.021475 0.155048 -0.22338299
-0.021638501 0.15512151 -0.223351
-0.021939 0.155214 -0.223352
-0.021837499 0.15520951 -0.2233765
-0.023932001 0.1255725 -0.22327501
-0.023864999 0.125563 -0.223288
-0.024005 0.125646 -0.223239
-0.0239315 0.12564549 -0.22323251
-0.023866 0.12563901 -0.223204
-0.024273001 0.125734 -0.223253
-0.024658501 0.125892 -0.22328001
-0.024535 0.1258505 -0.2232675
-0.024444001 0.12584749 -0.22326499
-0.024356499 0.125847 -0.22323999
-0.02317 0.125884 -0.22321101
-0.023080001 0.12587801 -0.223263
-0.026010999 0.125971 -0.223272
-0.025937501 0.125967 -0.223279
-0.025868 0.125963 -0.223258
-0.02462 0.125965 -0.22322001
-0.0230425 0.125947 -0.2232285
-0.0259385 0.12604201 -0.22320449
-0.022932 0.12605333 -0.22325367
-0.022852 0.126067 -0.22328
-0.022792 0.126063 -0.223276
-0.026257999 0.126194 -0.22327
-0.022901 0.12615 -0.223207
-0.022851 0.126142 -0.22323801
-0.022766 0.12613201 -0.223269
-0.026257001 0.126267 -0.223234
-0.022756999 0.12622668 -0.22322901
-0.022675 0.126265 -0.22328401
-0.026438 0.126344 -0.22329099
-0.026353 0.12634701 -0.22323599
-0.022675 0.12634 -0.223233
-0.026518 0.126488 -0.223285
-0.026438 0.12641899 -0.223231
-0.022591 0.126442 -0.223235
-0.026516 0.126561 -0.223259
-0.022491001 0.126537 -0.22329301
-0.026516 0.126634 -0.22320899
-0.022488501 0.1266475 -0.223244
-0.026593 0.12674099 -0.22324499
-0.022306001 0.126743 -0.223252
-0.0219505 0.12676051 -0.22324
-0.02182975 0.1267525 -0.22325426
-0.021757999 0.126745 -0.223252
-0.021637 0.12676799 -0.22329099
-0.026728 0.12685201 -0.223259
-0.022305001 0.126818 -0.223208
-0.021637 0.12684301 -0.223226
-0.021557 0.12683401 -0.223277
-0.026728 0.12692501 -0.223217
-0.021557 0.126909 -0.223213
-0.021466 0.12694201 -0.22323799
-0.026859 0.12735499 -0.223203
-0.020881001 0.127437 -0.22329099
-0.020780001 0.127496 -0.223296
-0.020878501 0.12754351 -0.22324601
-0.020753 0.1275655 -0.2232815
-0.020751501 0.1276385 -0.2232435
-0.027507 0.12773199 -0.223298
-0.020723499 0.12774199 -0.22323099
-0.020669 0.127772 -0.2233
-0.027714999 0.127883 -0.223267
-0.027663 0.127884 -0.22325499
-0.027560001 0.12782966 -0.22325866
-0.020719999 0.127847 -0.223224
-0.020666 0.12784401 -0.223286
-0.027806999 0.12796301 -0.223299
-0.0277385 0.1279605 -0.22323
-0.027662 0.127957 -0.22320899
-0.020716 0.12795401 -0.223213
-0.020663001 0.12794951 -0.22326601
-0.027907999 0.12803701 -0.22329301
-0.027830001 0.1280355 -0.22327399
-0.027760999 0.12803601 -0.223207
-0.02066 0.128057 -0.223239
-0.020599 0.128048 -0.223299
-0.027907999 0.128112 -0.22322901
-0.027830001 0.1281095 -0.223216
-0.020659 0.12812801 -0.223213
-0.020595999 0.12812001 -0.22329301
-0.028052 0.128258 -0.223272
-0.02805 0.12833001 -0.223252
-0.028049 0.128401 -0.22322699
-0.020648999 0.12841 -0.22320201
-0.020581 0.12854099 -0.22327299
-0.020578001 0.12864849 -0.223248
-0.020391 0.128673 -0.22327401
-0.020575 0.128754 -0.223231
-0.020389 0.128745 -0.223262
-0.020209 0.128732 -0.223289
-0.020121999 0.12873 -0.223295
-0.020027 0.128792 -0.223288
-0.020571001 0.1288605 -0.22321901
-0.020385999 0.12885 -0.22323301
-0.0202075 0.12884051 -0.22324499
-0.020119499 0.12883651 -0.2232555
-0.020026 0.12886401 -0.223258
-0.019939 0.128855 -0.223276
-0.020205 0.128949 -0.223206
-0.020118 0.12894399 -0.223206
-0.020025 0.12893701 -0.22321901
-0.019938 0.12892801 -0.22322799
-0.0198355 0.12896051 -0.223281
-0.019757999 0.128988 -0.223296
-0.0198355 0.1290355 -0.22321999
-0.019733001 0.12906149 -0.22323
-0.019656001 0.129053 -0.22327
-0.019602001 0.129117 -0.223249
-0.019536 0.129187 -0.22322799
-0.019439001 0.129256 -0.223212
-0.019255999 0.1293495 -0.22323701
-0.019162999 0.12938 -0.223277
-0.019072 0.129445 -0.22329099
-0.019073 0.129519 -0.22321901
-0.01898 0.129583 -0.22325601
-0.01888 0.129646 -0.22326399
-0.018849 0.1297525 -0.22324151
-0.018817 0.129857 -0.223243
-0.018816 0.12992901 -0.223207
-0.018739667 0.129969 -0.22326733
-0.018655 0.129979 -0.223286
-0.028576 0.130033 -0.2233
-0.0187295 0.13006401 -0.2232185
-0.018654 0.13005 -0.22326
-0.028572999 0.13013899 -0.22328901
-0.0186515 0.1301575 -0.22321799
-0.02857 0.130245 -0.22327299
-0.0286675 0.13035899 -0.223298
-0.028565999 0.13035101 -0.2232635
-0.028562 0.130456 -0.223258
-0.0285585 0.13056099 -0.22325149
-0.028553 0.13066401 -0.223271
-0.028550001 0.130735 -0.22328299
-0.028545499 0.13084 -0.2232905
-0.028541001 0.130943 -0.223298
-0.018621 0.13096499 -0.223204
-0.028538 0.1310495 -0.22328749
-0.018618001 0.131037 -0.223203
-0.028534001 0.131154 -0.22327299
-0.028530501 0.13126099 -0.22326851
-0.028526001 0.131366 -0.223268
-0.028524 0.13143601 -0.223258
-0.028620001 0.131585 -0.223299
-0.028520999 0.131541 -0.2232395
-0.028618 0.13165499 -0.22327501
-0.028518001 0.131649 -0.22320899
-0.028712999 0.131736 -0.22329
-0.028632665 0.13175033 -0.22325633
-0.028934 0.1318485 -0.223251
-0.028742999 0.13180751 -0.223272
-0.028666001 0.1318 -0.22325499
-0.01849 0.13194101 -0.223276
-0.0184865 0.132048 -0.223263
-0.018483 0.132153 -0.223263
-0.029452 0.13225999 -0.223268
-0.018480498 0.1322605 -0.2232275
-0.018344 0.13226335 -0.22329099
-0.029534001 0.13233551 -0.2232735
-0.029451 0.132331 -0.22323599
-0.018355001 0.132358 -0.22328649
-0.018224999 0.13235299 -0.223297
-0.029541001 0.13242966 -0.22323567
-0.018337667 0.13245201 -0.223276
-0.018223001 0.1324605 -0.223263
-0.018135 0.1324535 -0.223286
-0.029661 0.132553 -0.223288
-0.029555 0.13254701 -0.22320899
-0.018363332 0.13254701 -0.22325568
-0.01822 0.132566 -0.22324
-0.018131001 0.132561 -0.22326601
-0.018045999 0.13255499 -0.22329301
-0.029658001 0.132658 -0.22327101
-0.018345499 0.13264 -0.223252
-0.018216999 0.132636 -0.22323599
-0.018127501 0.13266501 -0.22327101
-0.018042501 0.132659 -0.22329
-0.017953999 0.132691 -0.223296
-0.029655 0.132764 -0.22325701
-0.018386999 0.13271201 -0.223221
-0.018256251 0.13274351 -0.22324349
-0.018123001 0.132769 -0.22328299
-0.018038999 0.132764 -0.223288
-0.017952001 0.132761 -0.22328401
-0.029759999 0.132842 -0.223298
-0.029653 0.132835 -0.22323699
-0.018252499 0.13284901 -0.2232345
-0.01812 0.13284101 -0.22328299
-0.018035 0.132834 -0.223296
-0.017949 0.13283101 -0.223289
-0.0178535 0.13286051 -0.22328901
-0.029757001 0.132946 -0.223279
-0.0296495 0.13293999 -0.22322351
-0.018248249 0.132955 -0.22323251
-0.018116999 0.13294649 -0.22326201
-0.018031999 0.13293999 -0.22328851
-0.017944999 0.132937 -0.22329301
-0.017849 0.132967 -0.223287
-0.029754 0.133053 -0.223261
-0.029646 0.133045 -0.223204
-0.018289 0.13306201 -0.22320899
-0.018156501 0.13305449 -0.223254
-0.018029001 0.133046 -0.223267
-0.017942 0.13304301 -0.22326601
-0.017845999 0.133035 -0.223295
-0.029750001 0.133157 -0.22325
-0.018285999 0.133132 -0.223207
-0.018153001 0.13316026 -0.22324225
-0.018025 0.13315201 -0.22325499
-0.0179385 0.133149 -0.223252
-0.017841 0.133176 -0.223288
-0.029746 0.13326199 -0.22325
-0.018282 0.13323751 -0.22320449
-0.018149501 0.13326651 -0.22322699
-0.018021001 0.133257 -0.223258
-0.017935 0.13325401 -0.223252
-0.017839 0.133248 -0.223276
-0.017751001 0.13324399 -0.223287
-0.029743001 0.133332 -0.22325
-0.0181475 0.13333699 -0.22321099
-0.018018 0.1333635 -0.22322899
-0.017930999 0.13336 -0.223243
-0.017835001 0.13335299 -0.223271
-0.017747499 0.13335 -0.2232745
-0.017681999 0.13338099 -0.223279
-0.02974 0.13343801 -0.223239
-0.018102 0.133403 -0.223206
-0.018057 0.1334725 -0.2232095
-0.017928001 0.133467 -0.223207
-0.017832 0.133458 -0.223259
-0.017743999 0.13345499 -0.22326601
-0.017655 0.13345149 -0.22327501
-0.017537 0.133442 -0.223299
-0.029735999 0.133544 -0.22322901
-0.017829999 0.13352901 -0.22322901
-0.017743001 0.133526 -0.223226
-0.017644333 0.13354534 -0.22325833
-0.017555501 0.13354875 -0.22328201
-0.017475 0.13354701 -0.22329301
-0.029732 0.13364899 -0.22322801
-0.017828999 0.1336 -0.22320101
-0.017624 0.133661 -0.223244
-0.017552499 0.13365451 -0.223263
-0.017472001 0.133653 -0.22327401
-0.029727999 0.133754 -0.22322799
-0.017622 0.133733 -0.223222
-0.0175495 0.13376099 -0.2232365
-0.017468501 0.1337585 -0.22326
-0.029724 0.1338585 -0.223221
-0.0176195 0.133837 -0.223203
-0.017546501 0.1338675 -0.223216
-0.017465999 0.133864 -0.22323599
-0.029720001 0.133963 -0.22321901
-0.017544501 0.13393751 -0.223203
-0.017463 0.133936 -0.223235
-0.029717 0.13403399 -0.22322901
-0.017519999 0.134005 -0.223203
-0.0174585 0.134041 -0.22324499
-0.029713001 0.13413849 -0.22323
-0.017454 0.134146 -0.223242
-0.029709 0.134243 -0.223232
-0.0174505 0.134252 -0.223233
-0.0297045 0.13434801 -0.223242
-0.017447 0.134358 -0.22323
-0.0297 0.134454 -0.22324499
-0.017445 0.134427 -0.223213
-0.017385 0.13445851 -0.22328949
-0.0296965 0.13455901 -0.223241
-0.017383 0.134564 -0.223263
-0.029692 0.134664 -0.22324499
-0.017379999 0.134636 -0.223259
-0.029689001 0.13473199 -0.223252
-0.017432 0.13477901 -0.223204
-0.017375 0.13474 -0.2232765
-0.029684499 0.134837 -0.22325599
-0.029576 0.134864 -0.223204
-0.017429 0.134849 -0.22321101
-0.01737 0.134846 -0.22329199
-0.029681999 0.13494299 -0.22323699
-0.029572999 0.13493399 -0.22321001
-0.017423499 0.13495401 -0.223222
-0.017367 0.134951 -0.22327749
-0.029677499 0.13504699 -0.22323999
-0.029569 0.135039 -0.22320649
-0.017419999 0.135059 -0.22322901
-0.017362 0.135056 -0.22329099
-0.029672001 0.135152 -0.223258
-0.029565001 0.135144 -0.223207
-0.017417001 0.135129 -0.22322799
-0.029668499 0.135258 -0.22325701
-0.029560499 0.135249 -0.22320649
-0.017413 0.135236 -0.223214
-0.017354 0.13526601 -0.223294
-0.029665001 0.135361 -0.223249
-0.017410001 0.13534001 -0.223203
-0.017352 0.13533799 -0.22328401
-0.029662 0.13543101 -0.22324701
-0.017407 0.13541 -0.223203
-0.017347999 0.135443 -0.2232755
-0.029658001 0.135537 -0.22324601
-0.017344 0.13554899 -0.223269
-0.029654 0.13564301 -0.22323801
-0.0173405 0.135654 -0.22326051
-0.0296505 0.135748 -0.22323701
-0.017337 0.135759 -0.22324599
-0.029647 0.13585301 -0.22322901
-0.017333999 0.135829 -0.22325
-0.0296425 0.135958 -0.22322699
-0.017329499 0.13593501 -0.2232565
-0.029639 0.136062 -0.223223
-0.017325001 0.136041 -0.22326501
-0.029637 0.136132 -0.22321001
-0.017322 0.13614601 -0.22325149
-0.029632501 0.136237 -0.22320899
-0.017317999 0.136251 -0.223244
-0.017313 0.13635699 -0.22326201
-0.017309999 0.136463 -0.223251
-0.017308 0.13653199 -0.22323699
-0.017236 0.13659699 -0.223299
-0.0173035 0.136637 -0.2232375
-0.017232999 0.136667 -0.223298
-0.0173 0.13674399 -0.223226
-0.0172615 0.1368455 -0.22325525
-0.017258 0.136952 -0.22324601
-0.01722 0.13705349 -0.223267
-0.029762 0.137154 -0.22329399
-0.017216001 0.13715801 -0.223248
-0.029758001 0.13725901 -0.223285
-0.017213 0.13726449 -0.22322801
-0.017123001 0.13729499 -0.22328
-0.029756 0.13733 -0.22326601
-0.017121 0.137366 -0.22326
-0.029753499 0.137435 -0.223249
-0.017117999 0.137436 -0.223263
-0.029749 0.137539 -0.22324499
-0.017116001 0.13750599 -0.223249
-0.029828001 0.137683 -0.223299
-0.029747 0.13764399 -0.223215
-0.017015999 0.13764501 -0.223243
-0.016923999 0.137641 -0.223296
-0.029826 0.13775501 -0.223289
-0.029823 0.13785949 -0.22326601
-0.01664 0.13783801 -0.223206
-0.029820001 0.137964 -0.22324599
-0.016483 0.13797 -0.223234
-0.02991 0.13803899 -0.223294
-0.029818 0.138034 -0.22322799
-0.016434999 0.138036 -0.223205
-0.016386 0.138034 -0.22327501
-0.029939001 0.13815667 -0.22324933
-0.030086 0.138258 -0.223249
-0.029999999 0.138252 -0.223221
-0.016224001 0.13823199 -0.22325701
-0.0300835 0.13836199 -0.22322001
-0.030343 0.138478 -0.223294
-0.030275332 0.13845067 -0.22327065
-0.030162999 0.1384365 -0.22323799
-0.030366499 0.13854849 -0.22327051
-0.030263498 0.1385425 -0.223223
-0.030451 0.13867266 -0.22326833
-0.030372331 0.138642 -0.223242
-0.030549999 0.1387385 -0.223289
-0.030457001 0.13876599 -0.22323951
-0.030385001 0.138759 -0.223223
-0.030548999 0.138842 -0.22323801
-0.030455999 0.13883701 -0.223215
-0.030708 0.138993 -0.22329199
-0.030624501 0.138954 -0.223278
-0.030548001 0.138914 -0.22320201
-0.030707 0.139062 -0.223261
-0.030623 0.13906001 -0.223221
-0.030706 0.13913099 -0.223217
-0.015915999 0.14244799 -0.223215
-0.015935333 0.14256799 -0.22325432
-0.016054999 0.142666 -0.22321799
-0.015983 0.142665 -0.223258
-0.030563001 0.142775 -0.22326501
-0.016051 0.142736 -0.223234
-0.01598 0.142736 -0.223278
-0.030477 0.142838 -0.223217
-0.01627 0.14289251 -0.22320899
-0.0161715 0.14288799 -0.22321549
-0.016071999 0.14284526 -0.22324026
-0.015976001 0.14280599 -0.223298
-0.0303545 0.14293799 -0.223258
-0.0302465 0.14296299 -0.22322351
-0.016266 0.14296401 -0.22323051
-0.016167499 0.14295849 -0.22324049
-0.016066 0.1429525 -0.22328
-0.030144 0.14302799 -0.223254
-0.029981 0.143093 -0.223276
-0.029899999 0.143089 -0.223231
-0.016262 0.1430355 -0.2232555
-0.0161635 0.143031 -0.2232635
-0.016086999 0.14306149 -0.223288
-0.029808 0.14315499 -0.22324599
-0.0164335 0.143149 -0.22321349
-0.016264999 0.14313066 -0.22328301
-0.01616 0.14310151 -0.2232855
-0.029802501 0.14326251 -0.223285
-0.029711001 0.14325449 -0.223223
-0.016429 0.14325599 -0.223222
-0.016275 0.143251 -0.223299
-0.029704999 0.143362 -0.223261
-0.016425001 0.143327 -0.223252
-0.029701 0.143433 -0.22329099
-0.0164195 0.143435 -0.2232815
-0.016698999 0.143549 -0.223208
-0.016415 0.14353999 -0.22329301
-0.029602 0.143635 -0.223212
-0.016693499 0.143656 -0.223232
-0.029596001 0.1437425 -0.223244
-0.016689001 0.14376301 -0.223243
-0.029589999 0.143848 -0.223281
-0.016685 0.14383399 -0.223259
-0.029587001 0.14395401 -0.2232665
-0.016681001 0.143939 -0.22326
-0.029583 0.14406 -0.22326601
-0.016678 0.144043 -0.223242
-0.029579001 0.14413001 -0.223294
-0.0294945 0.14415699 -0.22321001
-0.0166735 0.1441505 -0.223254
-0.02949 0.144264 -0.223223
-0.016669 0.144256 -0.223263
-0.029487001 0.14433201 -0.223224
-0.016665 0.144362 -0.2232545
-0.0294815 0.14443949 -0.223251
-0.016661 0.144467 -0.223254
-0.029477 0.144545 -0.22326601
-0.016658001 0.144538 -0.223262
-0.029472999 0.144651 -0.22326
-0.016654499 0.144642 -0.22324499
-0.029469 0.144756 -0.22325701
-0.016652999 0.14474601 -0.223207
-0.0294635 0.144862 -0.223287
-0.016648501 0.144853 -0.223212
-0.029451 0.145179 -0.223285
-0.029448999 0.145247 -0.22327501
-0.029446 0.145319 -0.22329
-0.029276 0.145448 -0.22320899
-0.0292715 0.14555299 -0.22321001
-0.029417999 0.14602099 -0.223298
-0.029237 0.146429 -0.223212
-0.029232999 0.14653701 -0.22321799
-0.029229 0.146642 -0.22322001
-0.0292245 0.14674801 -0.22322699
-0.02922 0.146854 -0.22322901
-0.029111 0.146844 -0.223213
-0.029215001 0.14696001 -0.22325051
-0.029105499 0.14695001 -0.22323599
-0.029209999 0.147067 -0.223276
-0.029101999 0.147055 -0.223231
-0.029207001 0.147137 -0.22328
-0.029097 0.14716101 -0.223241
-0.029203 0.147209 -0.22329099
-0.029092001 0.147269 -0.22326399
-0.029089 0.14734 -0.22327299
-0.02898 0.14739899 -0.223204
-0.028976001 0.147469 -0.223234
-0.028946999 0.1475395 -0.22323549
-0.028941499 0.14764699 -0.2232635
-0.028858501 0.1476385 -0.22320801
-0.02891 0.147753 -0.223286
-0.028852999 0.147746 -0.223233
-0.028847 0.147855 -0.2232735
-0.016706999 0.14807101 -0.22325601
-0.016905 0.148294 -0.22326399
-0.016855 0.148219 -0.22322699
-0.017029 0.14836949 -0.22324599
-0.0169315 0.148366 -0.22326401
-0.017026 0.1484395 -0.22324699
-0.016959 0.14843599 -0.22325
-0.016899001 0.14843599 -0.22327
-0.017047999 0.148546 -0.22322699
-0.01697625 0.14854175 -0.22323973
-0.016894 0.14854449 -0.22328851
-0.017043 0.148652 -0.22323599
-0.016971499 0.1486495 -0.22325149
-0.016889 0.148651 -0.223299
-0.017064 0.14876024 -0.22323349
-0.016967 0.1487565 -0.22326875
-0.01706 0.148866 -0.22323051
-0.016961999 0.14886251 -0.22327751
-0.017031001 0.148937 -0.223261
-0.016959 0.14893501 -0.2232835
-0.017043335 0.14905566 -0.223251
-0.016954999 0.14904 -0.22328299
-0.017048001 0.14915 -0.2232475
-0.016950499 0.1491465 -0.2232895
-0.017043252 0.14925675 -0.2232665
-0.016969001 0.14922 -0.223294
-0.017062999 0.14936601 -0.223268
-0.01706 0.149436 -0.22327401
-0.017122999 0.14953849 -0.22321701
-0.017055999 0.149508 -0.223297
-0.017116999 0.14964899 -0.223252
-0.017201001 0.14978901 -0.223208
-0.017111499 0.149757 -0.223279
-0.017196 0.14986201 -0.223248
-0.017191 0.149937 -0.22329199
-0.017284499 0.1500445 -0.223234
-0.017278001 0.15015499 -0.22328
-0.017363001 0.150259 -0.22323351
-0.017444 0.15036701 -0.22320101
-0.017356999 0.15037 -0.22328199
-0.017440001 0.15044001 -0.22323
-0.017434001 0.15055051 -0.22326699
-0.017519999 0.150655 -0.223214
-0.017516 0.15073 -0.223241
-0.01754 0.15084833 -0.223242
-0.017549999 0.1509445 -0.2232625
-0.017588999 0.1510525 -0.22326601
-0.017672 0.15115599 -0.22321901
-0.017666999 0.15123001 -0.223261
-0.017739501 0.15133899 -0.223252
-0.017927 0.151457 -0.22320101
-0.0178505 0.1514505 -0.22321701
-0.017921999 0.15153199 -0.223243
-0.0178455 0.1515255 -0.2232585
-0.017944001 0.15164199 -0.22326151
-0.026986999 0.151887 -0.22320899
-0.0180215 0.15185151 -0.223222
-0.0269555 0.15195951 -0.223248
-0.026882 0.151954 -0.223203
-0.018014999 0.15196399 -0.22326601
-0.026923999 0.152034 -0.223285
-0.026851 0.1520645 -0.22325501
-0.026776001 0.15215901 -0.223241
-0.0267455 0.15222999 -0.22324601
-0.026715999 0.152301 -0.223251
-0.026556 0.15236001 -0.223213
-0.018622 0.152698 -0.22326601
-0.018890001 0.15278199 -0.223239
-0.019011 0.152852 -0.22321901
-0.019049998 0.152963 -0.22323251
-0.019044999 0.153038 -0.22326851
-0.019177999 0.15314899 -0.223231
-0.019260999 0.1532605 -0.223241
-0.019173 0.153227 -0.22329
-0.019432001 0.15344501 -0.223248
-0.0196125 0.153559 -0.2232435
-0.01967 0.15366399 -0.22320201
-0.019717 0.15373699 -0.223216
-0.019663 0.153742 -0.22327
-0.021489 0.15488499 -0.223223
-0.021393999 0.15488499 -0.223248
-0.021566 0.154957 -0.223215
-0.021482 0.154966 -0.223299
-0.021732001 0.155038 -0.223208
-0.0216475 0.1550345 -0.223231
-0.021949001 0.15512501 -0.223216
-0.021846998 0.15512249 -0.2232475
-0.0217495 0.155121 -0.2232835
-0.02382 0.125635 -0.22318
-0.024005 0.12575799 -0.22315499
-0.023930252 0.125756 -0.22316925
-0.02384175 0.12574801 -0.22313201
-0.024272501 0.12584749 -0.22316501
-0.025645999 0.12595899 -0.22314399
-0.025469 0.125946 -0.223121
-0.024824001 0.12591 -0.223151
-0.024700001 0.125972 -0.22318
-0.024534 0.125962 -0.223188
-0.024444999 0.12596001 -0.223162
-0.024355 0.125957 -0.22317301
-0.02427 0.125956 -0.22313
-0.02317 0.125957 -0.22315501
-0.026012 0.126048 -0.22319999
-0.025868 0.126039 -0.22318099
-0.024621001 0.12604199 -0.223122
-0.024534 0.126037 -0.22314
-0.024444001 0.12603299 -0.223123
-0.024355 0.12603 -0.223121
-0.024269 0.126027 -0.223106
-0.023169 0.12603199 -0.223107
-0.0230415 0.12605751 -0.22316426
-0.026010999 0.126121 -0.223151
-0.025938999 0.126119 -0.22312251
-0.023002001 0.12616301 -0.22313599
-0.022946 0.12615401 -0.223184
-0.022945 0.12622701 -0.223138
-0.022875 0.1262565 -0.223147
-0.022789 0.12628201 -0.223151
-0.026257001 0.126344 -0.22317
-0.022944 0.12630001 -0.22310799
-0.0227635 0.12635151 -0.223138
-0.026436999 0.12649199 -0.22318999
-0.0263515 0.12645599 -0.223171
-0.026257001 0.126416 -0.22311001
-0.022739001 0.126423 -0.22312
-0.022673499 0.12645051 -0.22316101
-0.026435001 0.12656499 -0.22315601
-0.026350001 0.126564 -0.223122
-0.022670999 0.12655701 -0.223121
-0.022589 0.126551 -0.223176
-0.026435001 0.126638 -0.22311001
-0.022669001 0.12662899 -0.223114
-0.022585999 0.12665799 -0.2231625
-0.026515 0.126744 -0.22313601
-0.022583 0.126764 -0.223139
-0.022488 0.126757 -0.223178
-0.0265515 0.1268505 -0.22314951
-0.02258 0.126835 -0.223129
-0.022485999 0.126828 -0.223158
-0.022304 0.12688901 -0.223166
-0.021950001 0.126872 -0.223162
-0.021828499 0.126863 -0.22318551
-0.021757999 0.126856 -0.223169
-0.026726 0.126996 -0.223194
-0.026589502 0.12695849 -0.22313949
-0.022577999 0.12690499 -0.223116
-0.022483001 0.12693551 -0.22313599
-0.022303 0.126964 -0.223122
-0.021950001 0.126945 -0.22310799
-0.021828 0.126936 -0.223142
-0.021757999 0.126929 -0.223114
-0.021636501 0.12695351 -0.22315401
-0.021557 0.126984 -0.223153
-0.026725 0.12706999 -0.22316401
-0.021849999 0.127011 -0.223106
-0.021557 0.127058 -0.223103
-0.021466 0.12705299 -0.223148
-0.026722999 0.127141 -0.22313
-0.021465 0.12712801 -0.223105
-0.021288 0.1271525 -0.22314301
-0.026722001 0.127212 -0.22310901
-0.021093 0.127386 -0.223153
-0.026856 0.127463 -0.223178
-0.021091999 0.12745699 -0.223125
-0.026853001 0.12756801 -0.223161
-0.021090001 0.127528 -0.223101
-0.026852001 0.12764101 -0.22312801
-0.020877 0.127653 -0.223198
-0.02685 0.127712 -0.223104
-0.020874001 0.12775999 -0.223167
-0.020775 0.127748 -0.22319299
-0.027505999 0.12787899 -0.22319201
-0.027330499 0.1278435 -0.22313699
-0.02087 0.127866 -0.22316
-0.020771001 0.127854 -0.223187
-0.027546 0.12795299 -0.22315499
-0.020868 0.12793601 -0.223159
-0.020767499 0.12796 -0.22317901
-0.027713999 0.128031 -0.223175
-0.027662 0.128032 -0.223151
-0.027586 0.12802701 -0.223123
-0.0208645 0.128042 -0.22314
-0.020739499 0.1280645 -0.22316751
-0.027907001 0.128185 -0.223187
-0.027829001 0.1281825 -0.223171
-0.027744001 0.12813167 -0.22313766
-0.020861 0.128149 -0.22312
-0.020737499 0.12813601 -0.2231445
-0.027907001 0.128258 -0.223139
-0.027828 0.1282545 -0.22313499
-0.0207345 0.128242 -0.223122
-0.0206565 0.1282365 -0.22317949
-0.027905 0.12832899 -0.22311001
-0.027851 0.128325 -0.223114
-0.020705 0.128345 -0.22312801
-0.020652 0.12834001 -0.223196
-0.028047999 0.128474 -0.223175
-0.020702999 0.12841401 -0.22312
-0.020672999 0.128484 -0.223152
-0.028046999 0.128547 -0.223141
-0.0206705 0.12855351 -0.22314399
-0.028046001 0.128618 -0.223113
-0.020667 0.12865901 -0.223141
-0.020634999 0.12876201 -0.22318999
-0.020660002 0.1288335 -0.223147
-0.020648001 0.12892801 -0.22314501
-0.020568 0.128967 -0.22319999
-0.020383 0.128957 -0.223197
-0.020652499 0.1290465 -0.223129
-0.020564999 0.12903699 -0.223193
-0.02038 0.12906399 -0.2231835
-0.020203 0.1290555 -0.22316501
-0.020116 0.12905249 -0.22315699
-0.020023499 0.1290445 -0.223159
-0.0199375 0.12903851 -0.22314751
-0.019861 0.12907501 -0.223157
-0.02064825 0.12915075 -0.223132
-0.020562001 0.129143 -0.22318
-0.020377001 0.129172 -0.223152
-0.020157 0.12916249 -0.223123
-0.019834999 0.1291445 -0.22314051
-0.019732499 0.12913549 -0.2231715
-0.019629501 0.12916049 -0.2231795
-0.020645 0.12925601 -0.223122
-0.020559 0.12925 -0.223159
-0.020376001 0.129242 -0.223132
-0.020198001 0.129234 -0.223113
-0.019809 0.129214 -0.223114
-0.019732499 0.12920851 -0.22311601
-0.019629002 0.129233 -0.22312951
-0.019537 0.129262 -0.22314601
-0.020616001 0.12936151 -0.223114
-0.020555999 0.12935549 -0.223138
-0.020372 0.12934801 -0.223115
-0.019536 0.129335 -0.223102
-0.019439001 0.12932999 -0.22314601
-0.020553 0.129463 -0.223102
-0.019254999 0.12946001 -0.22316
-0.019164 0.129454 -0.223197
-0.019165 0.129528 -0.223124
-0.019073 0.129592 -0.22317
-0.019072 0.129665 -0.22311801
-0.018981 0.129656 -0.223189
-0.01898 0.129729 -0.223149
-0.018879 0.129792 -0.223171
-0.018978 0.12980001 -0.223115
-0.018878 0.12986501 -0.223129
-0.0188145 0.13003699 -0.223134
-0.0187285 0.1301375 -0.2231815
-0.0187525 0.130246 -0.2231375
-0.018682333 0.13024832 -0.22316301
-0.018749001 0.130353 -0.22311801
-0.018671501 0.1303415 -0.2231465
-0.018745501 0.130458 -0.223106
-0.018668249 0.130447 -0.223141
-0.018742001 0.13056201 -0.22310901
-0.0186635 0.1305515 -0.22314849
-0.018738 0.130632 -0.22311901
-0.0186595 0.1306565 -0.22315475
-0.018733501 0.13073799 -0.2231295
-0.018655501 0.1307615 -0.22314799
-0.018728999 0.130843 -0.22314601
-0.018642666 0.13085367 -0.22316967
-0.018724501 0.130946 -0.22316501
-0.018671501 0.130941 -0.223177
-0.018748499 0.13105351 -0.2231355
-0.018666999 0.13104799 -0.22317401
-0.018716 0.131157 -0.223159
-0.018639 0.1311475 -0.22318125
-0.018712999 0.131263 -0.223142
-0.018635999 0.1312535 -0.22316
-0.018711001 0.13133401 -0.223124
-0.018625334 0.13134533 -0.22314365
-0.018707499 0.131439 -0.22312051
-0.018638 0.13144366 -0.22312666
-0.018702 0.13154399 -0.223131
-0.0186265 0.13153601 -0.2231335
-0.018599 0.13159899 -0.223151
-0.018751999 0.131688 -0.22311001
-0.0186715 0.13164724 -0.22314651
-0.018595999 0.13167 -0.22316501
-0.028516 0.1317555 -0.2231615
-0.018750001 0.13175701 -0.223102
-0.0186675 0.131753 -0.2231515
-0.018593 0.13173901 -0.223158
-0.028744001 0.13188 -0.22319451
-0.028641 0.131871 -0.223169
-0.028515 0.131862 -0.223106
-0.018663999 0.13185826 -0.22313224
-0.0185895 0.131846 -0.22315201
-0.028933 0.13195699 -0.22318999
-0.0287445 0.131953 -0.223121
-0.028666001 0.131945 -0.22313
-0.018660501 0.131964 -0.2231165
-0.018585 0.131951 -0.22315601
-0.028930999 0.13206351 -0.223133
-0.018632 0.13203201 -0.223112
-0.018581999 0.1320565 -0.22313499
-0.029193999 0.13218001 -0.223159
-0.01863 0.132102 -0.223107
-0.018579001 0.132162 -0.223107
-0.029192001 0.13225099 -0.223123
-0.018479001 0.132367 -0.223168
-0.029506 0.132476 -0.22319999
-0.029449001 0.132438 -0.223187
-0.018477 0.132438 -0.22315399
-0.029503999 0.13254701 -0.223184
-0.029446 0.132543 -0.223159
-0.018472999 0.132543 -0.223142
-0.029535333 0.132641 -0.223188
-0.029462 0.13266234 -0.22314467
-0.01847 0.13264801 -0.223131
-0.029549001 0.132759 -0.22317401
-0.029469 0.1327565 -0.22313449
-0.018466499 0.132754 -0.2231115
-0.018386001 0.132783 -0.223179
-0.029546499 0.13286451 -0.22313699
-0.029495999 0.132828 -0.223131
-0.018384 0.132855 -0.223169
-0.029542999 0.13296901 -0.223121
-0.029493 0.13293451 -0.2231075
-0.0183795 0.13295999 -0.223168
-0.02954 0.133039 -0.223129
-0.018375 0.133065 -0.22317199
-0.0296425 0.13315 -0.2231925
-0.029536 0.133145 -0.223122
-0.018373 0.13313501 -0.22316299
-0.029639 0.133256 -0.22318301
-0.029533001 0.133251 -0.223106
-0.018370001 0.133241 -0.223138
-0.0296355 0.133361 -0.2231725
-0.02953 0.133321 -0.223102
-0.018366 0.13334601 -0.223132
-0.018278999 0.133343 -0.223178
-0.029631 0.13346601 -0.223176
-0.018361501 0.133452 -0.22314
-0.018276501 0.133449 -0.223148
-0.018188 0.13344601 -0.22318301
-0.029627999 0.133536 -0.22318199
-0.029518999 0.133599 -0.223107
-0.018358 0.13355801 -0.22314
-0.018271999 0.133554 -0.22316501
-0.018185001 0.133552 -0.22317199
-0.018054999 0.13354251 -0.2231935
-0.017927 0.13353699 -0.22318999
-0.017743001 0.133599 -0.223171
-0.017678 0.133596 -0.22319999
-0.029624499 0.133641 -0.2231745
-0.018354001 0.133663 -0.22313699
-0.018268 0.13366 -0.223153
-0.018182 0.1336575 -0.223152
-0.018052001 0.13364875 -0.223169
-0.017922999 0.133643 -0.22317699
-0.017827 0.13367 -0.22319201
-0.017741 0.133669 -0.223161
-0.017674999 0.133665 -0.22318999
-0.029620999 0.133745 -0.22316299
-0.018351 0.13376699 -0.223121
-0.018265 0.133766 -0.223132
-0.018177999 0.133763 -0.223139
-0.018048 0.13375351 -0.2231635
-0.01792 0.13374799 -0.223161
-0.017825 0.133742 -0.22317199
-0.017738 0.13373899 -0.22316501
-0.017672 0.133735 -0.22319201
-0.029616501 0.13385001 -0.2231665
-0.018348999 0.133839 -0.223102
-0.018262999 0.133837 -0.223122
-0.018176001 0.13383301 -0.223131
-0.018045001 0.13386001 -0.223142
-0.017917 0.13385451 -0.223139
-0.017822001 0.133848 -0.2231365
-0.0177345 0.133843 -0.2231545
-0.017669 0.13384199 -0.22317949
-0.029612999 0.133955 -0.223168
-0.018259 0.13394201 -0.22311351
-0.018173 0.1339395 -0.22310799
-0.018084001 0.13396899 -0.223112
-0.017957 0.13396251 -0.22311401
-0.017819 0.13395201 -0.22312699
-0.017729999 0.13395 -0.22315399
-0.01764 0.13394549 -0.223185
-0.029608499 0.13406 -0.2231755
-0.017998001 0.13403399 -0.223105
-0.017816 0.134022 -0.223125
-0.017727502 0.1340555 -0.22312251
-0.017636999 0.134051 -0.22316925
-0.017548 0.13405567 -0.22318433
-0.029603999 0.134165 -0.22317301
-0.0176335 0.1341565 -0.22315601
-0.017537 0.13414949 -0.223178
-0.029602 0.13423499 -0.223167
-0.01763 0.13426276 -0.22313599
-0.017533751 0.13425425 -0.2231625
-0.0295975 0.13434 -0.2231745
-0.029488999 0.134368 -0.223111
-0.017603001 0.13436601 -0.223115
-0.017530501 0.13435951 -0.22315
-0.029593 0.134446 -0.22318999
-0.029486001 0.13443901 -0.22311901
-0.017519668 0.134453 -0.22314733
-0.017442999 0.134499 -0.223193
-0.0295885 0.1345505 -0.22318649
-0.029464668 0.134555 -0.22311801
-0.0175572 0.13454559 -0.22312281
-0.017441001 0.13456801 -0.223185
-0.029584 0.134656 -0.22319099
-0.029478 0.13464899 -0.22312
-0.017567001 0.134645 -0.223116
-0.017468501 0.1346395 -0.22316399
-0.0295805 0.13475999 -0.223188
-0.029456666 0.13476467 -0.223116
-0.017562499 0.13474976 -0.223124
-0.017474333 0.13473234 -0.22315599
-0.029444 0.134857 -0.22312149
-0.0175585 0.134855 -0.22312799
-0.01749 0.13485 -0.223141
-0.029465001 0.13496301 -0.22313699
-0.017553501 0.13495976 -0.22314876
-0.017486 0.134955 -0.223149
-0.029461 0.135067 -0.223132
-0.017549001 0.13506499 -0.223157
-0.017480999 0.13506 -0.22317401
-0.029459 0.13513801 -0.22312599
-0.017546501 0.1351355 -0.223151
-0.017477 0.13516501 -0.223167
-0.029437333 0.13525401 -0.22311366
-0.01754275 0.13524151 -0.22314101
-0.017472999 0.13527 -0.223161
-0.029557001 0.135353 -0.22319999
-0.029451 0.13534801 -0.223125
-0.0294 0.135346 -0.223102
-0.017539501 0.13534701 -0.22312801
-0.017471001 0.135342 -0.22315501
-0.029554 0.13545901 -0.223179
-0.029447 0.135452 -0.22312501
-0.017535999 0.13545251 -0.2231155
-0.017446 0.13545766 -0.22316766
-0.029549999 0.135565 -0.223169
-0.029443 0.13555799 -0.223112
-0.017531499 0.1355575 -0.223123
-0.0174325 0.13555151 -0.22316951
-0.029547 0.135635 -0.22318099
-0.029439501 0.135663 -0.223104
-0.017527498 0.1356625 -0.22312574
-0.0174585 0.135657 -0.22316
-0.017398499 0.135657 -0.22318301
-0.029542999 0.135738 -0.2231845
-0.029436 0.135768 -0.223103
-0.017548 0.13576999 -0.22312699
-0.017476 0.13576451 -0.223147
-0.017394001 0.13576201 -0.223184
-0.029539 0.13584501 -0.22317199
-0.029433001 0.135838 -0.223101
-0.017545 0.13584 -0.223129
-0.0174735 0.1358345 -0.223143
-0.017391 0.135832 -0.22319099
-0.0295355 0.135949 -0.22316849
-0.0175415 0.13594499 -0.22312
-0.017469751 0.13593951 -0.2231375
-0.0173875 0.135938 -0.22318599
-0.029531 0.13605499 -0.22317301
-0.017538 0.136051 -0.22310799
-0.017466001 0.1360455 -0.223131
-0.017384 0.136043 -0.22317199
-0.0295275 0.136159 -0.22316
-0.0175335 0.13615599 -0.22312149
-0.017462 0.13615149 -0.2231275
-0.0173805 0.13614801 -0.223158
-0.029524 0.136264 -0.22315399
-0.01753 0.136261 -0.223111
-0.0174585 0.13625601 -0.223121
-0.017376 0.136253 -0.223168
-0.029629 0.136342 -0.223195
-0.029521 0.136334 -0.223152
-0.017526999 0.13633101 -0.223101
-0.0173715 0.13635901 -0.22317201
-0.029625501 0.136447 -0.22318999
-0.029518001 0.13643849 -0.2231375
-0.017367 0.136465 -0.223177
-0.029622 0.136553 -0.223184
-0.029514 0.13654301 -0.223129
-0.017364999 0.136535 -0.22317401
-0.029618001 0.136658 -0.22317201
-0.029509999 0.136648 -0.2231355
-0.017422501 0.136641 -0.223102
-0.017362 0.13664 -0.22316
-0.029615 0.13676301 -0.223161
-0.029506 0.13675299 -0.22312
-0.017418999 0.136746 -0.223101
-0.017357999 0.136746 -0.223138
-0.029612999 0.136832 -0.22314499
-0.0295025 0.136858 -0.22311249
-0.017428333 0.13686366 -0.22310533
-0.017353501 0.136852 -0.223149
-0.029608499 0.13693699 -0.22314501
-0.029499 0.13696299 -0.223113
-0.017410001 0.13695601 -0.22311001
-0.017349999 0.136957 -0.223149
-0.029603999 0.137043 -0.223158
-0.029495999 0.137035 -0.223103
-0.017408 0.13702799 -0.223104
-0.017346 0.137062 -0.22313499
-0.017289501 0.13706 -0.22318301
-0.029601 0.13711201 -0.223152
-0.029599 0.137182 -0.22314
-0.017343 0.13716801 -0.223116
-0.017286001 0.137165 -0.22318199
-0.029596999 0.137252 -0.223131
-0.017340999 0.137237 -0.223107
-0.017284 0.137234 -0.223162
-0.029594 0.13735649 -0.22311801
-0.017257998 0.13735001 -0.22314601
-0.029589999 0.13746101 -0.223104
-0.017209001 0.13744 -0.22317301
-0.017209001 0.137509 -0.223125
-0.017116001 0.137577 -0.223189
-0.029743999 0.13775 -0.22318999
-0.016926 0.137711 -0.223184
-0.029740501 0.13785499 -0.22317499
-0.029736999 0.137959 -0.22316299
-0.0297345 0.13806349 -0.22313499
-0.029817 0.1381395 -0.22316301
-0.029732 0.13816801 -0.22310799
-0.016329 0.13810299 -0.223188
-0.016283 0.13816699 -0.22314499
-0.029908 0.138247 -0.22317301
-0.029815 0.138243 -0.223111
-0.029967999 0.138344 -0.22314931
-0.029812999 0.138313 -0.223104
-0.016228 0.138302 -0.223134
-0.030082 0.138467 -0.223162
-0.029997 0.13846201 -0.22311001
-0.030161999 0.138541 -0.22318099
-0.030082 0.13853601 -0.22311801
-0.030339999 0.138687 -0.22319899
-0.030261749 0.1386475 -0.223176
-0.030159 0.1386455 -0.22314501
-0.030338001 0.13875701 -0.22318
-0.030259501 0.13875249 -0.223141
-0.030157 0.13875 -0.22311001
-0.030352002 0.138851 -0.22316168
-0.030258499 0.138822 -0.22310999
-0.030546 0.138981 -0.22318199
-0.030454 0.138941 -0.2231625
-0.030382499 0.13893449 -0.223138
-0.030545 0.139052 -0.223151
-0.030451499 0.13904551 -0.2231245
-0.030622501 0.139163 -0.22315499
-0.030544 0.139121 -0.22310901
-0.030704498 0.139237 -0.22315951
-0.030619999 0.139267 -0.223104
-0.030703001 0.139341 -0.223122
-0.030884 0.13956 -0.22313701
-0.030882999 0.13962901 -0.223107
-0.015931999 0.14216401 -0.22310799
-0.015928 0.142234 -0.223132
-0.016005 0.142306 -0.223102
-0.015947999 0.14235367 -0.22316666
-0.016067 0.14245 -0.223131
-0.015996 0.14244901 -0.223171
-0.016114499 0.142561 -0.2231195
-0.016061001 0.1425575 -0.22317201
-0.015992001 0.14252 -0.223193
-0.030575 0.142629 -0.22312
-0.030486999 0.14269499 -0.223111
-0.016306 0.14267901 -0.223111
-0.01623 0.14264967 -0.22311135
-0.016141001 0.14264667 -0.22313201
-0.030483 0.142766 -0.22313701
-0.016302001 0.142749 -0.223143
-0.016232001 0.142745 -0.22315
-0.016127 0.14274201 -0.22317651
-0.0303625 0.14286301 -0.223141
-0.030254001 0.14288899 -0.2231175
-0.0164495 0.14286301 -0.223113
-0.016251 0.14281933 -0.22318234
-0.016147001 0.14281499 -0.22319201
-0.030151 0.14295301 -0.223169
-0.030067001 0.14295 -0.223112
-0.016443999 0.14297099 -0.223149
-0.030060001 0.143024 -0.223198
-0.029990001 0.14301901 -0.22314601
-0.029813999 0.14308301 -0.223186
-0.016723 0.143053 -0.22310901
-0.01644 0.143043 -0.223175
-0.029718 0.14314801 -0.22317401
-0.016718499 0.143158 -0.22311899
-0.029619999 0.143246 -0.22314
-0.016713001 0.14326601 -0.223149
-0.029615 0.143354 -0.223161
-0.016802 0.143336 -0.223106
-0.016709 0.143336 -0.22317
-0.029609501 0.1434595 -0.2231925
-0.0295265 0.14345101 -0.22310999
-0.0167505 0.14344326 -0.2231555
-0.029604999 0.143565 -0.22319999
-0.029523 0.143556 -0.223101
-0.016791999 0.143548 -0.223141
-0.029518001 0.14366201 -0.223124
-0.016787499 0.143656 -0.2231575
-0.029511999 0.143769 -0.223161
-0.016783001 0.14376099 -0.223162
-0.029508 0.143839 -0.223178
-0.01678 0.143831 -0.22316
-0.029504001 0.14394501 -0.22318199
-0.016775999 0.14393699 -0.22316399
-0.0295 0.144051 -0.22318
-0.016771 0.144043 -0.223175
-0.0167675 0.14415 -0.2231735
-0.016763 0.144255 -0.22318
-0.029322 0.14439 -0.223101
-0.016859001 0.144324 -0.223102
-0.016759999 0.1443595 -0.2231625
-0.029318999 0.14445999 -0.223103
-0.016756 0.144466 -0.223157
-0.029316001 0.14453 -0.223114
-0.016752001 0.144537 -0.223171
-0.029311001 0.1446375 -0.22312799
-0.016749 0.144641 -0.2231535
-0.029306 0.144743 -0.223151
-0.016745999 0.14474601 -0.22314399
-0.029302999 0.144813 -0.22315501
-0.029300001 0.14488301 -0.223153
-0.016742 0.144851 -0.2231375
-0.029297 0.144953 -0.223153
-0.016739 0.14495499 -0.223103
-0.016644999 0.144958 -0.223196
-0.029293001 0.145059 -0.22316
-0.016642999 0.145061 -0.2231525
-0.029287999 0.145165 -0.22317
-0.016639 0.14516699 -0.22314499
-0.029286001 0.145235 -0.22317301
-0.016635999 0.145237 -0.223159
-0.029280499 0.1453405 -0.22319001
-0.029174 0.145363 -0.223101
-0.016632501 0.1453415 -0.22314599
-0.029170999 0.14543299 -0.223107
-0.01663 0.145446 -0.22310799
-0.029166501 0.145538 -0.2231085
-0.029269001 0.145657 -0.223184
-0.029265 0.145762 -0.223176
-0.029158499 0.1457485 -0.223102
-0.029262001 0.145867 -0.22316299
-0.029154999 0.145852 -0.223101
-0.029259 0.145935 -0.22316
-0.029150501 0.14595851 -0.22310799
-0.029254001 0.146042 -0.22317401
-0.029146001 0.146065 -0.223116
-0.029248999 0.14614899 -0.223196
-0.029142 0.146137 -0.223134
-0.028939666 0.14617066 -0.22311801
-0.029245 0.146254 -0.223196
-0.029136501 0.1462425 -0.223158
-0.029027 0.14626899 -0.22312699
-0.0289445 0.1462675 -0.22315249
-0.029240999 0.146359 -0.22319899
-0.029131999 0.14635 -0.223179
-0.029023999 0.14634 -0.22315
-0.028940499 0.146339 -0.22317299
-0.029126499 0.146456 -0.223197
-0.029018499 0.146447 -0.22316399
-0.028935749 0.1464455 -0.2231895
-0.029123001 0.14656 -0.223195
-0.029014001 0.146552 -0.22317
-0.028931499 0.14655149 -0.22318849
-0.02912 0.14663 -0.223196
-0.029011 0.14665699 -0.22316
-0.028958 0.1466555 -0.223169
-0.0288985 0.146653 -0.223176
-0.0291155 0.14673701 -0.223197
-0.029007001 0.146762 -0.223153
-0.028955 0.14676 -0.223152
-0.028895 0.14675701 -0.223161
-0.029004 0.146834 -0.22316
-0.028952001 0.14683001 -0.223151
-0.0288915 0.146864 -0.223159
-0.029000999 0.14690199 -0.223158
-0.028965002 0.14694799 -0.223152
-0.028887 0.14696901 -0.22315601
-0.0289695 0.147043 -0.22316399
-0.028884999 0.147039 -0.223152
-0.02896525 0.1471485 -0.22316501
-0.028881 0.14714301 -0.223142
-0.0289615 0.14725399 -0.2231665
-0.028876999 0.147248 -0.223133
-0.028948667 0.14734733 -0.22317399
-0.028872 0.14735451 -0.223157
-0.028926 0.14746501 -0.223197
-0.028867001 0.147461 -0.22318
-0.028864 0.147533 -0.223184
-0.016795 0.148137 -0.22315501
-0.017037001 0.1482895 -0.223138
-0.016941499 0.14825049 -0.223148
-0.017107001 0.148368 -0.223162
-0.017136499 0.14843899 -0.22315949
-0.017164499 0.148544 -0.223147
-0.017099001 0.148545 -0.22318
-0.017161001 0.14865001 -0.223149
-0.017093999 0.148653 -0.223196
-0.0172465 0.148755 -0.223106
-0.0171565 0.1487565 -0.223147
-0.017242 0.14886101 -0.223106
-0.017153 0.14886101 -0.22314399
-0.017151 0.148931 -0.22313
-0.017083 0.14893401 -0.223195
-0.0171475 0.14903599 -0.2231155
-0.01708 0.149004 -0.223197
-0.017142 0.149143 -0.22313499
-0.017137 0.14925149 -0.223153
-0.017131999 0.149358 -0.223177
-0.0172185 0.149462 -0.223115
-0.017129 0.14943001 -0.22318999
-0.017213 0.14957 -0.22313701
-0.017209001 0.149644 -0.223167
-0.017304 0.14971299 -0.223102
-0.017252501 0.14975151 -0.22315651
-0.017294999 0.14986099 -0.223159
-0.017291 0.149933 -0.22318301
-0.017375 0.15007301 -0.223129
-0.01737 0.150148 -0.223175
-0.017451501 0.1502555 -0.223149
-0.017532 0.150435 -0.22313
-0.02799 0.15059 -0.223112
-0.017616 0.1505425 -0.22310799
-0.017526001 0.15054649 -0.223177
-0.017611001 0.15064999 -0.223133
-0.017648499 0.1507585 -0.22313949
-0.017688001 0.15086401 -0.223124
-0.017682999 0.150938 -0.22316
-0.017757 0.15104449 -0.223133
-0.017677501 0.15104699 -0.223188
-0.017751001 0.151154 -0.223167
-0.01794 0.151237 -0.223114
-0.017854333 0.15125167 -0.22312467
-0.017746 0.15122899 -0.22319999
-0.017952332 0.15135701 -0.223141
-0.017864333 0.15135266 -0.22316734
-0.017984999 0.15145101 -0.223124
-0.017981 0.151526 -0.22316
-0.017976001 0.1516 -0.22319201
-0.0269705 0.1517345 -0.22310999
-0.018030001 0.151737 -0.223134
-0.026955334 0.151833 -0.223167
-0.026889499 0.15184149 -0.223138
-0.026837001 0.15194499 -0.223142
-0.026831999 0.152022 -0.223198
-0.026766 0.15205501 -0.22315
-0.026726 0.152151 -0.223167
-0.026645999 0.1522495 -0.223153
-0.018692 0.152687 -0.22316401
-0.018942 0.152778 -0.223162
-0.01919 0.15299401 -0.223103
-0.019098001 0.152922 -0.223158
-0.019275 0.15306699 -0.22310799
-0.019184999 0.153072 -0.223161
-0.019269001 0.153145 -0.223166
-0.019444 0.15329 -0.223124
-0.019626001 0.153366 -0.223111
-0.019438 0.153366 -0.223176
-0.019621 0.15344299 -0.22316299
-0.019726001 0.153585 -0.22313599
-0.019675501 0.1535535 -0.223171
-0.019749001 0.153657 -0.223133
-0.019768 0.153736 -0.223186
-0.021636 0.15487599 -0.223112
-0.021574501 0.1548385 -0.22312799
-0.0214485 0.15480301 -0.2231535
-0.021859001 0.15496451 -0.2231275
-0.021762501 0.15496099 -0.22314951
-0.021654001 0.154954 -0.223158
-0.022043001 0.155045 -0.22314
-0.021955 0.155046 -0.223158
-0.021854499 0.15503949 -0.223162
-0.021780999 0.15504099 -0.22319899
-0.024005 0.125872 -0.223058
-0.023929499 0.12586901 -0.223085
-0.023840001 0.1258585 -0.223075
-0.024826 0.125989 -0.22303499
-0.024005 0.125944 -0.223004
-0.023929499 0.12594351 -0.22302249
-0.023840001 0.12593201 -0.22301501
-0.025646999 0.126037 -0.22306199
-0.02547 0.12602399 -0.223031
-0.025371 0.12602 -0.22303499
-0.025286 0.12601601 -0.223033
-0.025198 0.126012 -0.22301
-0.025025001 0.126003 -0.223052
-0.024702 0.126049 -0.223077
-0.026010999 0.126195 -0.223097
-0.0259395 0.126195 -0.223061
-0.025869001 0.1261525 -0.22307099
-0.025646999 0.12611 -0.22301801
-0.024622001 0.126118 -0.223038
-0.024534 0.12614849 -0.2230465
-0.024443001 0.1261445 -0.22305501
-0.0243535 0.12614051 -0.223059
-0.024267498 0.12613651 -0.2230415
-0.023168501 0.1261425 -0.223037
-0.023078 0.126173 -0.223074
-0.026010999 0.12627 -0.223039
-0.025961 0.126268 -0.223005
-0.023039501 0.126241 -0.2230625
-0.023001 0.12630901 -0.223051
-0.022971001 0.126376 -0.22304851
-0.022873498 0.12636501 -0.22309351
-0.026255 0.12649 -0.223077
-0.022969499 0.1264485 -0.22302601
-0.022872001 0.1264385 -0.22306451
-0.022762001 0.126461 -0.22308099
-0.026254 0.126563 -0.22304299
-0.022939 0.126517 -0.22302701
-0.022869751 0.12654549 -0.22302625
-0.022768 0.12654567 -0.22305267
-0.026349001 0.12663899 -0.22307099
-0.026253 0.126634 -0.22300699
-0.0227575 0.12663999 -0.22303051
-0.026433501 0.1267485 -0.2230465
-0.026349001 0.12671299 -0.223005
-0.022731001 0.12674451 -0.223022
-0.022666 0.126736 -0.22308999
-0.026431 0.126856 -0.22300699
-0.022728 0.12685201 -0.223001
-0.022662999 0.12684201 -0.22307201
-0.02651 0.1269595 -0.22306651
-0.022659499 0.126947 -0.223057
-0.022576001 0.126977 -0.22310001
-0.026547499 0.12706751 -0.2230565
-0.022655999 0.12705401 -0.223049
-0.022574 0.127048 -0.223088
-0.02248 0.12704299 -0.223093
-0.022303 0.127037 -0.223077
-0.021948501 0.1270555 -0.223047
-0.021820335 0.12705867 -0.22304566
-0.021756999 0.127041 -0.223037
-0.021636 0.127064 -0.223076
-0.026546001 0.12714 -0.2230325
-0.022652499 0.127159 -0.223029
-0.0225715 0.12715551 -0.22305551
-0.022479 0.1271525 -0.22303951
-0.022301499 0.1271455 -0.223022
-0.021946 0.12716199 -0.22300699
-0.021849001 0.127159 -0.223002
-0.021635 0.127138 -0.22302499
-0.021555999 0.127132 -0.223066
-0.021464 0.12719899 -0.223067
-0.02672 0.12728401 -0.223095
-0.026583001 0.12724501 -0.22304499
-0.022648999 0.127267 -0.22301
-0.022569001 0.12726299 -0.22302701
-0.022475 0.127259 -0.223022
-0.021633999 0.12721001 -0.223001
-0.021554001 0.127203 -0.22303601
-0.021462001 0.12727199 -0.223033
-0.021286 0.127261 -0.223088
-0.026718 0.12735599 -0.223075
-0.02658 0.127352 -0.223029
-0.022647001 0.12733699 -0.223004
-0.022567 0.127333 -0.223015
-0.021461001 0.127343 -0.223003
-0.021284999 0.127334 -0.22305401
-0.026714999 0.127463 -0.2230435
-0.026578 0.127423 -0.223005
-0.022644 0.127406 -0.223003
-0.022564 0.127404 -0.223006
-0.021282 0.12744001 -0.22303501
-0.026712 0.12756801 -0.22303
-0.021279 0.127547 -0.223011
-0.026709 0.127638 -0.22303
-0.0210885 0.12763751 -0.22305149
-0.026846999 0.127782 -0.22309799
-0.026704501 0.1277425 -0.223037
-0.021086 0.127744 -0.223014
-0.026846001 0.127854 -0.223079
-0.026701 0.127848 -0.22301701
-0.021082999 0.12781601 -0.223012
-0.02733 0.12795299 -0.223046
-0.026845001 0.12792701 -0.22302701
-0.027546 0.12806299 -0.22307101
-0.027713001 0.128177 -0.223074
-0.027661499 0.12814051 -0.2230725
-0.027545501 0.12813699 -0.223023
-0.027735 0.12825051 -0.22306401
-0.027659001 0.128249 -0.22302601
-0.020858999 0.12825599 -0.223087
-0.027818331 0.12837434 -0.22307332
-0.027757 0.12836251 -0.223029
-0.020855 0.128362 -0.223076
-0.020757001 0.128352 -0.223093
-0.027903501 0.128436 -0.22306401
-0.027825 0.12847051 -0.223024
-0.020853 0.12843201 -0.22307099
-0.020752501 0.128456 -0.223086
-0.027902 0.128545 -0.22300699
-0.020849001 0.128538 -0.223057
-0.020749001 0.128561 -0.22308201
-0.028044 0.12869 -0.22308999
-0.020845 0.12864301 -0.223056
-0.020746 0.128631 -0.223076
-0.028043 0.12876099 -0.22305401
-0.0208415 0.128748 -0.223052
-0.0207425 0.128738 -0.223078
-0.02069 0.128768 -0.22309899
-0.028042 0.12883399 -0.223012
-0.020837 0.12885299 -0.223058
-0.020738 0.12884299 -0.223077
-0.020832501 0.128958 -0.22306
-0.020734001 0.12894699 -0.22308099
-0.020682 0.128978 -0.22310001
-0.020829 0.129063 -0.22305299
-0.02073 0.129053 -0.22307999
-0.020826999 0.129134 -0.22303601
-0.0207265 0.1291585 -0.223068
-0.020022999 0.129154 -0.223092
-0.019936999 0.12914599 -0.223083
-0.020823501 0.12923899 -0.223032
-0.020723 0.129264 -0.223057
-0.020112 0.12923101 -0.22309101
-0.0200205 0.12926051 -0.223048
-0.019934501 0.129253 -0.223041
-0.019841665 0.12926532 -0.223067
