0.0257574 -0.0507379 0.99838 0.0262236
0.0559417 -0.0460148 0.997373 0
0.0808299 -0.0231722 0.996458 0
0.0906528 -0.030646 0.995411 0.00308905
0.0989642 -0.0184875 0.994919 0.0004047
0.112426 -0.0304318 0.993194 0
0.125657 -0.0359637 0.991422 0
0.13543 -0.0273357 0.99041 0
0.14857 -0.0311757 0.98841 0
0.156705 -0.0348345 0.987031 0
-0.0476253 5.78572e-05 0.998865 0.0170203
-0.0246728 -0.00569544 0.999679 0.0259227
-0.0150212 0.000953637 0.999887 0.0215086
-0.026065 0.00727308 0.999634 0.0137844
-0.0195492 0.0246127 0.999506 0
-0.0210628 0.0192257 0.999593 0
-0.0232251 0.0162812 0.999598 0
-0.035006 0.00422903 0.999378 0.00649276
-0.0290546 0.0041008 0.999569 0.00826293
-0.0292746 0.00192188 0.99957 0.0165796
-0.0363794 -0.0068198 0.999315 0.0248239
-0.043786 -0.0132965 0.998952 0.0325701
-0.0409109 -0.0120381 0.99909 0.0231258
-0.0435588 -0.0206376 0.998838 0.030969
-0.0481584 -0.0123378 0.998764 0.0237061
-0.0464692 -0.0188169 0.998742 0.0336379
-0.0374829 -0.0258139 0.998964 0.0348447
-0.0362635 -0.023692 0.999061 0.0260606
-0.0331648 -0.0177261 0.999293 0.0209564
-0.0395285 -0.0253616 0.998897 0.0210864
-0.0386046 -0.0346263 0.998654 0.0141836
-0.0309396 -0.0348572 0.998913 0.0213027
-0.0211356 -0.0119347 0.999705 0.0181867
-0.0168933 -0.0136921 0.999764 0.0203059
-0.00565651 0.00579996 0.999967 0.00667665
-0.00319762 0.0169658 0.999851 0.00916298
-0.0144836 -0.0156251 0.999773 0.0213317
-0.0121898 0.00126097 0.999925 0.0123627
-0.00373383 0.00817077 0.99996 0
0.0029671 0.0151603 0.999881 0.00655627
0.00245287 -0.00115596 0.999996 0.0224111
0.0175521 -0.0397892 0.999054 0.0319218
0.0194825 -0.0594632 0.99804 0.0403578
0.0223135 -0.0497977 0.99851 0.0344677
0.062601 -0.0172275 0.99789 0.00226635
0.0738066 -0.00511026 0.997259 0.00353512
0.0802721 -0.00959193 0.996727 0
0.0966794 -0.0157806 0.99519 0.00832609
0.112861 -0.0320082 0.993095 0.0013398
0.124371 -0.0291345 0.991808 0
0.130075 -0.0390515 0.990735 0
0.155062 -0.0334817 0.987337 0
0.16042 -0.0239678 0.986758 0
0.166098 -0.0348264 0.985494 0
-0.021273 0.00432505 0.999764 0.0196607
-0.0230868 0.0135059 0.999642 0.0118282
-0.0258548 0.0243744 0.999369 0.0161424
-0.0192496 0.0312812 0.999325 0
-0.0246301 0.0295408 0.99926 0
-0.0199137 0.0354353 0.999174 0
-0.0187696 0.0236275 0.999545 0
-0.0220345 0.026445 0.999407 0
-0.0345299 0.000245686 0.999404 0.0189388
-0.0349385 0.00639509 0.999369 0.0242824
-0.0334978 0.00285455 0.999435 0.0215243
-0.0281044 0.0058739 0.999588 0.0176459
-0.0276956 -0.0102937 0.999563 0.0276823
-0.0348385 0.00320714 0.999388 0.0378716
-0.0401207 0.00855243 0.999158 0.0362769
-0.0400423 -0.00622483 0.999179 0.0387773
-0.0392201 -0.00400493 0.999223 0.0330343
-0.0380132 -0.00866607 0.99924 0.0281431
-0.0382634 -0.0205734 0.999056 0.0178568
-0.0395211 -0.00425894 0.99921 0.00426047
-0.0376865 -0.00544157 0.999275 0.00610278
-0.0224104 0.0023387 0.999746 0.0036068
-0.0241073 0.0231428 0.999442 0
-0.017084 0.0246559 0.99955 0.00122757
-0.000822663 0.0275188 0.999621 4.38456e-05
-0.00260231 0.00922136 0.999954 0.00596589
0.00187489 0.0140911 0.999899 0
0.00319887 0.0117149 0.999926 0
-0.00104898 0.0177525 0.999842 0.00374045
-0.00325102 -0.00483135 0.999983 0.0318865
0.0124106 -0.0291525 0.999498 0.0312441
0.0190691 -0.0147609 0.999709 0.028779
0.0191262 -0.0264209 0.999468 0.0374865
0.0585705 -0.00410534 0.998275 0.00533284
0.0634909 -0.00744357 0.997955 0.0157406
0.0787511 -0.0194344 0.996705 0.00662486
0.0981679 -0.0159779 0.995042 0.0134632
0.107741 -0.0186237 0.994004 0.00678515
0.120831 -0.0373973 0.991968 0.0020686
0.127243 -0.0307176 0.991396 0
0.146349 -0.0330635 0.98868 0.00435677
0.146169 -0.025915 0.98892 0.0115905
0.14734 -0.0229109 0.988821 0
-0.0351481 0.0078354 0.999351 0.0310273
-0.0255345 0.0349519 0.999063 0
-0.0326894 0.0222333 0.999218 0
-0.0327409 0.0158021 0.999339 0
-0.0283972 0.0193676 0.999409 0
-0.0210726 0.0364367 0.999114 0
-0.0253636 0.0292115 0.999251 0
-0.0222624 0.0430449 0.998825 0.0124315
-0.0173388 0.0323679 0.999326 0.0167748
-0.0179588 0.0265631 0.999486 0.00330704
-0.0275805 0.00928213 0.999576 0.00916355
-0.0299645 0.00388039 0.999543 0.0164506
-0.0318625 0.0215705 0.99926 0.0357635
-0.0339689 0.0188463 0.999245 0.0304704
-0.0364989 0.021314 0.999106 0.02534
-0.0404217 0.0091902 0.99914 0.0203196
-0.0405437 0.00217749 0.999175 0.0206644
-0.0442738 -0.0040249 0.999011 0.0274015
-0.0327145 0.00690586 0.999441 0.0135937
-0.0332128 0.00100771 0.999448 0.000986702
-0.0262694 0.0168291 0.999513 0.00025005
-0.0219862 0.0384413 0.999019 0
-0.0133307 0.0504107 0.99864 0
-0.00823668 0.04388 0.999003 0
-0.00804969 0.0199162 0.999769 0.00792605
-0.00286725 0.0196613 0.999803 0.000342193
0.00231356 0.0273634 0.999623 0
-0.00177273 0.0241244 0.999707 0.0082048
-0.00804931 -0.0181146 0.999803 0.0261796
0.0148592 -0.017541 0.999736 0.0368527
0.013379 -0.026491 0.99956 0.0288043
0.0256368 -0.017485 0.999518 0.0281158
0.0576614 -0.00564759 0.99832 0.00997896
0.0638869 0.00481106 0.997946 0.00178837
0.069426 0.000400888 0.997587 0.00515566
0.082 -0.00443199 0.996622 0.00609524
0.0936644 -0.0220829 0.995359 0.0127982
0.112508 -0.0196357 0.993457 0.00361481
0.120339 -0.0106691 0.992676 0.00564638
0.143868 -0.0164013 0.989461 0
0.148948 -0.0223983 0.988591 0.00990722
0.156962 -0.0289824 0.987179 0.00526548
-0.0382845 0.0246205 0.998963 0
-0.0384866 0.0260246 0.99892 0
-0.033486 0.0303654 0.998978 0
-0.0324865 0.0315432 0.998974 0
-0.0339669 0.0262246 0.999079 0
-0.0212338 0.032364 0.999251 0
-0.0213556 0.0284261 0.999368 0.00759789
-0.0220719 0.0272837 0.999384 0.00497141
-0.0292519 0.00619922 0.999553 0.0108582
-0.0315162 0.014915 0.999392 0.0320746
-0.0389869 0.0171342 0.999093 0.0342756
-0.0339748 0.0274312 0.999046 0.0205207
-0.0383682 0.00455913 0.999253 0.0188138
-0.0418358 0.000654722 0.999124 0.0140885
-0.0394405 -0.00543694 0.999207 0.0172582
-0.0340854 -0.000152359 0.999419 0
-0.0380152 0.0109747 0.999217 0.00256039
-0.0271455 0.0226188 0.999376 0
-0.0197347 0.03103 0.999324 0
-0.00859765 0.0514412 0.998639 0
-0.000245666 0.0518446 0.998655 0
-0.00283021 0.0259319 0.99966 0
-0.00302502 0.0286625 0.999585 0
-0.000545711 0.0282625 0.9996 0
-0.00400613 0.0192575 0.999807 0.0142141
-0.00698211 -0.00713152 0.99995 0.0237656
0.0134027 0.000472188 0.99991 0.0242028
0.0220399 -0.00916337 0.999715 0.0331445
0.037207 -0.0256544 0.998978 0.0258382
0.0516813 -0.012856 0.998581 0.00609191
0.0638443 -0.010762 0.997902 0.00363559
0.0753652 0.00425344 0.997147 0.00335471
0.0823361 -0.0133809 0.996515 0.0123093
0.0906965 -0.0229833 0.995613 0.0159873
0.112006 -0.0165009 0.993571 0.0120602
0.118659 -0.0139266 0.992837 0.0228437
0.131222 -0.0258728 0.991015 0.0224147
0.139089 -0.0197956 0.990082 0.0221402
0.159556 -0.0254034 0.986862 0.00950095
-0.0418854 0.0378893 0.998404 0.00374811
-0.0514237 0.033174 0.998126 0.00435698
-0.0383861 0.0372754 0.998567 0
-0.0369174 0.0370675 0.998631 0
-0.0312253 0.041483 0.998651 0.01343
-0.0358806 0.0331476 0.998806 0.0201841
-0.0333513 0.00659302 0.999422 0.0264076
-0.0425716 0.0204955 0.998883 0.0254119
-0.0443672 0.0260544 0.998675 0.0188397
-0.0363286 0.0209525 0.99912 0.00547919
-0.0448063 0.0237697 0.998713 0.012439
-0.0380838 0.0198669 0.999077 0.00130989
-0.0347362 0.024677 0.999092 0
-0.0322763 0.0402287 0.998669 0
-0.0176274 0.0540997 0.99838 0
-0.0157669 0.057603 0.998215 0
-0.00382918 0.0648417 0.997888 0
0.00545718 0.0725673 0.997349 0
0.00713615 0.056395 0.998383 0
0.000614947 0.0268163 0.99964 0
7.48477e-05 0.0370454 0.999314 0
-0.00252733 0.0403675 0.999182 0.00684981
-0.00215036 0.00579881 0.999981 0.0270885
0.00779216 0.00587182 0.999952 0.0308748
0.0216488 0.00237105 0.999763 0.0256029
0.0316472 -0.00397148 0.999491 0.0263942
0.0667115 0.0116979 0.997704 0.0117484
0.0657697 0.0128307 0.997752 0.0141791
0.0664762 0.00163966 0.997787 0.0142034
0.0789044 0.0140097 0.996784 0.00493573
0.0953381 -0.00600403 0.995427 0
0.0973536 -0.00603429 0.995232 0.0154089
0.110586 -0.0117905 0.993797 0.0178613
0.124281 -0.0159863 0.992118 0.0252641
0.144303 -0.0194878 0.989342 0.0276579
-0.03831 0.0428866 0.998345 0
-0.0383055 0.0553244 0.997733 0.0103094
-0.0337677 0.0621683 0.997494 0.0163288
-0.047329 0.0337759 0.998308 0.021672
-0.045033 0.0289413 0.998566 0.0157634
-0.0507064 0.0236656 0.998433 0.0207287
-0.0415229 0.020188 0.998934 0.0106978
-0.040285 0.0300737 0.998736 0.0187847
-0.0353868 0.0487345 0.998185 0
-0.0244324 0.0599832 0.9979 0
-0.0142125 0.078232 0.996834 0
-0.0119107 0.0720417 0.99733 0
-0.00739533 0.0702083 0.997505 0
-0.00796185 0.0601025 0.99816 0
0.00630214 0.0590538 0.998235 0
0.00904068 0.0612482 0.998082 0
0.00332857 0.0543711 0.998515 0
0.00961739 0.0453717 0.998924 0.00872748
0.00698581 0.0120149 0.999903 0.0339736
0.0111849 -0.00689415 0.999914 0.0463128
0.0229964 -0.000401924 0.999735 0.0301016
0.0228822 -0.00193561 0.999736 0.0319191
0.0582337 0.00407725 0.998295 0.0233878
0.0662718 0.0166283 0.997663 0.0346851
0.0593801 0.0189052 0.998056 0.0146972
0.0844197 0.00730236 0.996404 0
0.0909052 0.025914 0.995522 0.000791361
0.100826 -0.00480223 0.994892 0
0.109169 -0.011155 0.993961 0.00383642
0.12118 -0.00731939 0.992604 0.00213258
0.137322 -0.00234009 0.990524 0.00504912
-0.0498785 0.0340148 0.998176 0.019396
-0.0372097 0.0217105 0.999072 0.00625373
-0.0344247 0.0306922 0.998936 0.00479622
-0.0325302 0.0429653 0.998547 0.00435861
-0.0256509 0.0545798 0.99818 0
-0.0213986 0.0566073 0.998167 0
-0.00984174 0.0504435 0.998678 0
-0.007491 0.0323822 0.999448 0
0.0078735 0.0559125 0.998405 0
0.010332 0.0612075 0.998072 0
0.00712883 0.0438594 0.999012 0
0.0125959 0.03606 0.99927 0.00457092
0.0107898 0.0316469 0.999441 0.0167591
0.0181332 0.0175528 0.999681 0.0210298
0.0208892 0.0119524 0.99971 0.0286767
0.0245381 0.0105867 0.999643 0.0243535
0.0311459 0.00780875 0.999484 0.02938
0.0440364 0.0114607 0.998964 0.0234558
0.0692687 0.00892865 0.997558 0.0109697
0.0869437 0.0159376 0.996086 0
0.0970506 0.00595773 0.995262 0
0.101874 0.0100439 0.994747 0
0.107614 0.000512023 0.994193 0.00254478
0.114803 0.00489959 0.993376 0.00102486
0.125198 -0.00046853 0.992132 0.0135003
-0.0235769 0.0476866 0.998584 0
-0.019378 0.0344202 0.99922 0.0042268
-0.0110095 0.0286988 0.999527 0.00165548
2.34623e-05 0.0346283 0.9994 0
0.00853324 0.0609622 0.998104 0
0.00543367 0.0342296 0.999399 0
0.0064505 0.0173348 0.999829 0
0.00687235 0.0204246 0.999768 0.0104993
0.0146235 0.0271833 0.999523 0.0111731
0.0159065 0.0175627 0.999719 0.0206098
0.023662 0.00853068 0.999684 0.0335476
0.045997 0.0210558 0.99872 0.0263268
0.0532856 0.0201925 0.998375 0.0154948
0.0664846 0.0131033 0.997701 0.0059651
0.0868695 0.0183096 0.996051 0
0.0893081 0.00532576 0.99599 0
0.102851 0.0162569 0.994564 0
0.103262 0.0143681 0.99455 0
0.113944 0.00206032 0.993485 0.0130941
-0.0156683 0.0679177 0.997568 0
-0.00920116 0.0427569 0.999043 0.00196573
-0.00371023 0.0366667 0.999321 0
0.00367582 0.0501293 0.998736 0
0.0147287 0.0529972 0.998486 0
0.00736719 0.0335187 0.999411 0
0.00914071 0.016779 0.999817 0
0.0184854 0.0173229 0.999679 0.0123681
0.0220116 0.0328656 0.999217 0.0235249
0.0277814 0.0128971 0.999531 0.0298255
0.0416908 0.0315083 0.998634 0.0222465
0.0557436 0.0275963 0.998064 0
0.0618215 0.030175 0.997631 0
0.0818935 0.0226455 0.996384 0
0.109393 0.0314376 0.993501 0
0.10974 0.0188217 0.993782 0
0.11614 0.0334598 0.992669 0
0.117045 0.0433499 0.99218 0
0.12363 0.0429444 0.991399 0
-0.024423 0.0698836 0.997256 0
-0.0117699 0.0592379 0.998174 0
0.0007574 0.032337 0.999477 0
-0.00048792 0.0416709 0.999131 0
0.0142115 0.0611142 0.99803 0
0.0170567 0.0596805 0.998072 0
0.0215912 0.0386163 0.999021 0
0.0176402 0.0346489 0.999244 0
0.0156897 0.0290203 0.999456 0.00330109
0.00489615 0.00828092 0.999954 0.0236987
0.043712 0.0328555 0.998504 0.0185292
0.0545019 0.0232646 0.998243 0.00395747
0.0685689 0.031585 0.997146 0
0.0901715 0.0258103 0.995592 0
0.104597 0.0436611 0.993556 0
0.11525 0.0283303 0.992932 0
0.10537 0.0441325 0.993453 0
0.115104 0.0619972 0.991417 0
0.121119 0.053624 0.991189 0
-0.0154906 0.066402 0.997673 0.00591799
-0.00190922 0.0305581 0.999531 0.0139253
-0.00153029 0.0377713 0.999285 0.00318908
0.011405 0.0562057 0.998354 0
0.0197356 0.0436119 0.998854 0
0.0170322 0.0377616 0.999142 0
0.00920773 0.0280347 0.999565 0
0.0104521 0.0119682 0.999874 0.0080417
0.00568734 0.00345114 0.999978 0.00794752
0.0146077 0.00296803 0.999889 0
0.0436814 0.0378159 0.99833 0
0.0447046 0.0332832 0.998446 0
0.0693237 0.0468899 0.996492 0
0.0906685 0.0395105 0.995097 0
0.101404 0.0373064 0.994146 0
0.103641 0.0457561 0.993562 0
0.109685 0.0476339 0.992824 0
0.118453 0.0579388 0.991268 0
-0.0118541 0.0569369 0.998307 0.0179519
-0.0085726 0.050003 0.998712 0.0197665
-0.0111106 0.0471145 0.998828 0.0227052
0.0042682 0.0482792 0.998825 0
0.0117043 0.0362404 0.999275 0
0.0149848 0.0382627 0.999155 0
0.0120399 0.0273965 0.999552 0
0.0129894 0.0281047 0.999521 0
0.0144224 0.0270642 0.99953 0
0.0443251 0.0556762 0.997465 0
0.0558656 0.0520674 0.99708 0
0.0507961 0.0372975 0.998012 0
0.0720071 0.0406282 0.996576 0
0.0823039 0.0403131 0.995792 0
0.0995246 0.0426219 0.994122 0
0.101633 0.056756 0.993202 0
0.104766 0.0473299 0.99337 0
-0.0264494 0.0546124 0.998157 0.027363
-0.0210868 0.0406135 0.998952 0.0188335
0.00977477 0.0400486 0.99915 0
0.00525653 0.0414154 0.999128 0
0.00766463 0.0446573 0.998973 0
0.0351835 0.0484768 0.998204 0
0.0565837 0.0565608 0.996794 0
0.0635938 0.0432087 0.99704 0
0.0704176 0.050093 0.996259 0
0.0750487 0.0492457 0.995963 0
0.0826319 0.0395072 0.995797 0
0.101106 0.0501421 0.993611 0
0.1058 0.0520658 0.993023 0
-0.0261548 0.0491917 0.998447 0.0137211
0.00443288 0.0488149 0.998798 0
0.00298521 0.0385688 0.999251 0
0.00862309 0.0462671 0.998892 0
0.0375723 0.0595371 0.997519 0
0.0367143 0.0413939 0.998468 0
0.053711 0.0553139 0.997023 0
0.0692636 0.0530333 0.996188 0
0.0732972 0.0378567 0.996591 0
0.0840536 0.0581526 0.994763 0
0.0272457 0.0386642 0.998881 0
0.0266724 0.0351334 0.999027 0
0.0390925 0.0420216 0.998352 0
0.0596733 0.022434 0.997966 0
0.0117977 0.0555816 0.998384 0
0.0285188 0.0505474 0.998314 0
0.0303077 0.0483856 0.998369 0
0.0321644 0.0472776 0.998364 0
0.0365393 0.0536438 0.997891 0.00741109
0.0347027 0.071158 0.996861 0
0.0360464 0.0676685 0.997056 0
0.0411587 0.0482017 0.997989 0.00539091
0.0274343 -0.0557233 0.998069 0
0.0200505 -0.0541549 0.998331 0
0.0282019 -0.0619929 0.997678 0
0.0279669 -0.0577123 0.997941 0
0.0331217 -0.0569686 0.997826 0.0127809
0.011435 -0.064073 0.99788 0
0.0185716 -0.0703809 0.997347 0
0.031139 -0.0467931 0.998419 0
0.0302585 -0.0591802 0.997789 0
0.0382362 -0.056896 0.997648 0
0.0447884 -0.0626777 0.997028 0
0.0122077 -0.0710406 0.997399 0
0.0187505 -0.0886733 0.995884 0
0.0277634 -0.0829091 0.99617 0
0.0345233 -0.0659272 0.997227 0
0.0431541 -0.0613842 0.997181 0
0.0446528 -0.0663606 0.996796 0
0.0580062 -0.0519069 0.996966 0
0.0642929 -0.0561896 0.996348 0
0.011178 -0.0456446 0.998895 0
0.0142941 -0.0575808 0.998239 0
0.0129245 -0.0688163 0.997546 0
0.0379025 -0.0698447 0.996838 0
0.037597 -0.077021 0.99632 0
0.0440807 -0.0659762 0.996847 0
0.0636102 -0.053489 0.99654 0
0.0608218 -0.0621763 0.99621 0
0.072198 -0.0559418 0.99582 0
0.0752219 -0.0588545 0.995428 0
0.0915478 -0.0621944 0.993856 0
0.0905917 -0.0629153 0.993899 0
-0.00413698 -0.078025 0.996943 0
-0.00760406 -0.0557453 0.998416 0
0.00631402 -0.0507943 0.998689 0
0.0152214 -0.0605522 0.998049 0
0.0163657 -0.0756274 0.997002 0
0.0200562 -0.0773394 0.996803 0
0.0402379 -0.0658353 0.997019 0
0.0496072 -0.068679 0.996405 0
0.0605705 -0.0649381 0.996049 0
0.0622787 -0.0622455 0.996116 0
0.0743937 -0.0546163 0.995732 0
0.0838053 -0.0605001 0.994644 0
0.0962741 -0.0643122 0.993275 0
0.101556 -0.0584123 0.993114 0
-0.0196106 -0.066208 0.997613 0
-0.0134931 -0.072748 0.997259 0
-0.00845526 -0.0896164 0.99594 0
0.00316512 -0.0506255 0.998713 0
0.0114748 -0.0583277 0.998232 0
0.0126926 -0.0626426 0.997955 0
0.0187385 -0.0673414 0.997554 0
0.0255879 -0.0583578 0.997968 0
0.0399012 -0.0626169 0.99724 0
0.0478976 -0.0623898 0.996902 0
0.0638889 -0.0621455 0.99602 0
0.0666855 -0.0704105 0.995287 0
0.0828449 -0.0658312 0.994386 0
0.0875102 -0.0735661 0.993443 0
0.0969938 -0.0655342 0.993125 0
0.106226 -0.0699259 0.99188 0
0.112228 -0.0602518 0.991854 0
-0.0126499 -0.0879231 0.996047 0
-0.00669483 -0.071825 0.997395 0
-0.00624472 -0.0622178 0.998043 0
0.00717275 -0.0630544 0.997984 0
0.00976716 -0.0637645 0.997917 0
0.0153758 -0.0661662 0.99769 0
0.0180598 -0.0547385 0.998337 0
0.0288962 -0.0691765 0.997186 0
0.0373688 -0.0602926 0.997481 0
0.0497851 -0.0561566 0.99718 0
0.0613243 -0.0631607 0.996118 0
0.0701402 -0.0726292 0.99489 0
0.0790723 -0.0789504 0.993738 0
0.0861617 -0.0727587 0.993621 0
0.0907915 -0.0739324 0.993122 0
0.0965396 -0.0665733 0.9931 0
0.100272 -0.067941 0.992638 0
-0.0522647 -0.0948844 0.994115 0.0177231
-0.0529105 -0.0919 0.994362 0.0229656
-0.0496343 -0.0820777 0.995389 0.0219078
-0.0101575 -0.0841087 0.996405 0
-0.0063372 -0.0725802 0.997342 0
0.0010418 -0.0774357 0.996997 0
0.00316357 -0.0769798 0.997028 0
0.00862839 -0.0737015 0.997243 0
0.0146307 -0.0752259 0.997059 0
0.0139636 -0.0587683 0.998174 0
0.0204441 -0.0602363 0.997975 0
0.0256409 -0.0745737 0.996886 0
0.0381174 -0.0749911 0.996455 0
0.0539203 -0.0671687 0.996284 0
0.0667599 -0.072208 0.995153 0
0.0672471 -0.0846189 0.994142 0
0.0843206 -0.0799557 0.993226 0
0.0917211 -0.0801906 0.992551 0
0.0941163 -0.0838768 0.992022 0
0.104747 -0.0781393 0.991424 0
-0.0463017 -0.0873032 0.995105 0.0131091
-0.0414112 -0.0662751 0.996942 0.0037129
-0.0147888 -0.0780065 0.996843 0
-0.00147976 -0.0454839 0.998964 0
-0.00568026 -0.0551888 0.99846 0
0.00715954 -0.0528408 0.998577 0
0.00845337 -0.0596954 0.998181 0
0.0170775 -0.0578929 0.998177 0
0.0171735 -0.0699012 0.997406 0
0.0178357 -0.0650218 0.997724 0
0.0227193 -0.0810031 0.996455 0
0.0341289 -0.0751697 0.996587 0
0.0534752 -0.0645251 0.996482 0
0.0691671 -0.0623058 0.995658 0
0.0676351 -0.0704097 0.995223 0
0.08085 -0.0694076 0.994307 0
0.0953206 -0.064309 0.993367 0
0.10346 -0.0777181 0.991593 0
0.118028 -0.0785318 0.9899 0
-0.0436175 -0.0576782 0.997382 0.00391509
-0.0459993 -0.0671701 0.996681 0.0123748
-0.0347678 -0.0744944 0.996615 0.0100508
-0.000102453 -0.0527057 0.99861 0
0.00152984 -0.0481891 0.998837 0
0.00689745 -0.0453544 0.998947 0
0.00691269 -0.0664711 0.997764 0
0.00611886 -0.0772748 0.996991 0
0.00593482 -0.0848376 0.996377 0
0.012665 -0.0850451 0.996297 0
0.0126244 -0.0893058 0.995924 0
0.0288447 -0.0869098 0.995799 0
0.0401967 -0.0707289 0.996685 0
0.043389 -0.0729738 0.99639 0
0.0544305 -0.0729531 0.995849 0
0.0720259 -0.0668104 0.995163 0
0.0785217 -0.0703142 0.99443 0
0.0893166 -0.0727217 0.993345 0
0.0945855 -0.0702741 0.993033 0
0.109875 -0.0754476 0.991078 0
0.132858 -0.0890647 0.987125 0
-0.0452425 -0.0653413 0.996837 0.00372053
-0.0464484 -0.0776789 0.995896 0.00255247
-0.0461382 -0.0746856 0.996139 0.00792264
-0.00654004 -0.062375 0.998031 0
-0.00438777 -0.0720436 0.997392 0.00333138
0.00723685 -0.0503037 0.998708 0
0.00799693 -0.0470335 0.998861 0
0.0140421 -0.0500747 0.998647 0
0.0132338 -0.0840598 0.996373 0
0.0225842 -0.0872163 0.995933 0
0.0362424 -0.0854175 0.995686 0
0.0451352 -0.0831851 0.995511 0.00130993
0.0520811 -0.0791775 0.995499 0
0.06633 -0.0833815 0.994308 0
0.0822399 -0.0763942 0.99368 0
0.0989457 -0.0796337 0.991901 0
0.107951 -0.0644887 0.992062 0
0.120934 -0.0751851 0.989809 0
0.125946 -0.0956894 0.987411 0.000761351
-0.0567956 -0.0544684 0.996899 0
-0.0533198 -0.0525409 0.997194 0
-0.0527097 -0.0753176 0.995766 0
-0.047563 -0.0760997 0.995965 0
-0.0583387 -0.0653726 0.996154 0.0160156
-0.049501 -0.0735523 0.996062 0.0161523
-0.0402915 -0.0560664 0.997614 0
-0.042262 -0.0579553 0.997424 0
-0.0125071 -0.0592387 0.998165 0.0107285
0.00144669 -0.049216 0.998787 0
-0.00159959 -0.0463884 0.998922 0.00162191
-0.0101908 -0.0630947 0.997956 0
0.0104436 -0.0598437 0.998153 0
0.020948 -0.0776968 0.996757 0
0.0287951 -0.0742056 0.996827 0
0.0277887 -0.0790735 0.996481 0
0.0398127 -0.0793201 0.996054 0.010293
0.06313 -0.081598 0.994664 0
0.0780441 -0.0794666 0.993778 0
0.100094 -0.0708828 0.99245 0
0.11292 -0.0715328 0.991026 0
0.12971 -0.0746087 0.988741 0
0.135503 -0.0821661 0.987364 0
0.132136 -0.0955493 0.986616 0.0115555
0.148245 -0.0854164 0.985255 0
-0.0688579 -0.0702506 0.99515 0
-0.0569475 -0.0265539 0.998024 0
-0.058238 -0.0524843 0.996922 0
-0.051707 -0.0587234 0.996934 0
-0.0518526 -0.0563424 0.997064 0
-0.0548754 -0.0803571 0.995254 0.0163057
-0.0465023 -0.0757122 0.996045 0.0145914
-0.0380638 -0.0447784 0.998272 0.00339235
-0.038434 -0.0594401 0.997492 0.0075582
-0.0109851 -0.0465783 0.998854 0.00480087
-0.0048923 -0.0461449 0.998923 0
-0.00695132 -0.0565175 0.998377 0.0185821
-0.000115522 -0.0596247 0.998221 0.0044366
0.0610512 -0.0844362 0.994557 0
0.0866076 -0.0668845 0.993995 0
0.0998974 -0.0606027 0.99315 0
0.103206 -0.0754466 0.991795 0
0.120735 -0.0871036 0.988856 0
0.139352 -0.0818841 0.986852 0
0.14635 -0.0818848 0.985838 0
0.151116 -0.087182 0.984664 0
-0.0672023 -0.07076 0.995227 0
-0.0645861 -0.0470797 0.996801 0
-0.0584223 -0.0541016 0.996825 0
-0.0611998 -0.0517672 0.996782 0
-0.0574422 -0.0536615 0.996906 0
-0.0545369 -0.0662888 0.996309 0
-0.0512242 -0.0653214 0.996549 0.00748183
-0.0438977 -0.0563812 0.997444 0.00724572
-0.035724 -0.0517338 0.998022 0
-0.0351822 -0.0503427 0.998112 0
-0.0132277 -0.0526408 0.998526 0.0140856
0.0015863 -0.0586671 0.998276 0.0191806
0.0693604 -0.0802087 0.994362 0
0.0667315 -0.0801197 0.994549 0
0.0739398 -0.0851395 0.993622 0
0.0959125 -0.0845064 0.991796 0
0.116678 -0.0919457 0.988904 0
0.126193 -0.0954321 0.987405 0
0.132771 -0.102187 0.985865 0.00801478
0.147696 -0.0935482 0.984599 0
-0.0629049 -0.06085 0.996163 0
-0.0559033 -0.0496515 0.997201 0
-0.054727 -0.0397169 0.997711 0
-0.0631305 -0.0651371 0.995877 0
-0.0609386 -0.0574851 0.996485 0
-0.0634685 -0.0562561 0.996397 0
-0.0580437 -0.0655115 0.996162 0
-0.0522162 -0.0597278 0.996848 0
-0.0455758 -0.0494687 0.997735 0
-0.0442934 -0.0703074 0.996542 0.00929813
-0.034484 -0.0647406 0.997306 0.00204419
-0.0372297 -0.0736216 0.996591 0.00722616
0.0709729 -0.0872145 0.993658 0
0.0655536 -0.0832466 0.994371 0.00286495
0.0831848 -0.0997547 0.991529 0.0105487
0.109197 -0.0905799 0.989884 0
0.133633 -0.0801289 0.987786 0
0.135833 -0.082954 0.987253 0
0.143117 -0.0910457 0.985509 0
0.144812 -0.0961239 0.984779 0.00994193
-0.0546578 -0.0764485 0.995574 0
-0.0598129 -0.0466883 0.997117 0
-0.0606132 -0.0446673 0.997161 0
-0.0541562 -0.0418318 0.997656 0
-0.0561966 -0.0445592 0.997425 0
-0.0670241 -0.051005 0.996447 0
-0.0693004 -0.0481216 0.996435 0
-0.0534381 -0.0602203 0.996754 0
-0.051518 -0.0638682 0.996628 0
-0.0547429 -0.0677617 0.996199 0
-0.0521256 -0.0695634 0.996215 0.0124399
-0.0378354 -0.0749648 0.996468 0.0197178
-0.03311 -0.0564696 0.997855 0.0119995
0.065486 -0.0814393 0.994525 0
0.0803177 -0.0771113 0.993782 0
0.0849381 -0.0874746 0.992539 0
0.0823867 -0.091469 0.992394 0
0.100158 -0.097848 0.990149 0.00565885
0.114091 -0.0950728 0.988911 0
0.129427 -0.0940883 0.987115 0
0.148126 -0.0965637 0.984243 0
-0.0521123 -0.0655346 0.996489 0
-0.0500582 -0.0674307 0.996467 0
-0.0494111 -0.0766702 0.995831 0
-0.0475753 -0.0768368 0.995908 0
-0.0528171 -0.05049 0.997327 0
-0.0564741 -0.0488297 0.997209 0
-0.0506236 -0.0393889 0.997941 0
-0.0603612 -0.0439521 0.997208 0
-0.063469 -0.056051 0.996409 0
-0.062752 -0.0576174 0.996365 0
-0.051101 -0.0589349 0.996953 0
-0.0549307 -0.0674115 0.996212 0
-0.051303 -0.0665727 0.996462 0
-0.0524005 -0.0644689 0.996543 0.00297621
-0.0434627 -0.0477828 0.997912 0.0149755
-0.0361684 -0.0511234 0.998037 0.0203197
0.122593 -0.0997863 0.987428 0.00466141
0.144199 -0.110031 0.983412 0.0205048
0.138002 -0.109236 0.98439 0.0228225
0.166822 -0.0906985 0.981807 0
-0.0611602 -0.0691474 0.99573 0.0088769
-0.0570472 -0.0651111 0.996246 0.00304892
-0.0450518 -0.061867 0.997067 0
-0.0397045 -0.0707399 0.996704 0
-0.0396379 -0.0602293 0.997397 0
-0.0409179 -0.0465264 0.998079 0
-0.0479811 -0.0542711 0.997373 0
-0.0560384 -0.0589139 0.996689 0
-0.0542258 -0.048268 0.997361 0
-0.0634378 -0.0582737 0.996283 0
-0.0474703 -0.0643114 0.9968 0
-0.0461216 -0.0685094 0.996584 0
-0.0504873 -0.0577865 0.997052 0
-0.0456451 -0.0639868 0.996906 0
-0.0447354 -0.0581021 0.997308 0
-0.0412957 -0.0472323 0.99803 0.00790328
-0.0351518 -0.0603161 0.99756 0.00845881
0.126033 -0.109109 0.986008 0.0144805
0.144675 -0.102066 0.984201 0.00804808
0.152829 -0.102443 0.982929 0.00796417
0.159235 -0.0983869 0.982326 0
-0.0596579 -0.0504591 0.996943 0
-0.0539625 -0.0438223 0.997581 0.00305484
-0.0484212 -0.0518733 0.997479 0
-0.0370635 -0.052114 0.997953 0
-0.0298059 -0.0425854 0.998648 0
-0.0395299 -0.050609 0.997936 0
-0.0408611 -0.0449191 0.998155 0
-0.0466469 -0.0524903 0.997531 0
-0.0465903 -0.0503025 0.997647 0
-0.0527622 -0.0534267 0.997177 0
-0.0590141 -0.0600842 0.996447 0
-0.0534516 -0.0584856 0.996856 0
-0.0430075 -0.0646375 0.996982 0
-0.0503649 -0.0457744 0.997681 0
-0.045162 -0.038741 0.998228 0
-0.0409714 -0.0583531 0.997455 0
-0.0371395 -0.049921 0.998062 0.000810314
-0.037435 -0.0559765 0.99773 0.00989454
0.116331 -0.0932228 0.988826 0.0116847
0.117625 -0.0943342 0.988567 0.0142102
0.136404 -0.0891155 0.986637 0.00393297
0.150716 -0.105436 0.982938 0.00237364
-0.0467024 -0.0354842 0.998278 0
-0.0520796 -0.043766 0.997683 0
-0.0426532 -0.0333853 0.998532 0
-0.0379829 -0.0307451 0.998805 0
-0.0323205 -0.0241303 0.999186 0
-0.0316891 -0.0210045 0.999277 0
-0.033129 -0.036203 0.998795 0
-0.047024 -0.032664 0.99836 0
-0.0503685 -0.0450298 0.997715 0
-0.0501 -0.0554031 0.997206 0
-0.049074 -0.0413959 0.997937 0
-0.0590096 -0.0580866 0.996566 0
-0.0540171 -0.0514939 0.997211 0
-0.0470367 -0.0396614 0.998105 0
-0.051022 -0.0368847 0.998016 0
-0.0432012 -0.0385236 0.998323 0
-0.038913 -0.0536944 0.997799 0
-0.0346208 -0.0542423 0.997927 0
0.121642 -0.0893407 0.988545 0.0132563
0.1315 -0.0902547 0.987199 0.0172454
0.151649 -0.105197 0.982821 0.0241691
0.148357 -0.102858 0.98357 0.0246674
-0.0375002 -0.0429998 0.998371 0
-0.0347179 -0.0264119 0.999048 0
-0.0442033 -0.0221305 0.998777 0.00150501
-0.0499442 -0.0375056 0.998048 0.00500116
-0.0495909 -0.0329444 0.998226 0
-0.0498652 -0.0413116 0.997901 0
-0.0505172 -0.0327795 0.998185 0.00572162
-0.0511519 -0.0422015 0.997799 0
-0.047231 -0.0396579 0.998096 0
-0.0416092 -0.0143547 0.999031 0
-0.0353327 -0.0162007 0.999244 0
-0.0445383 -0.026118 0.998666 0
-0.0469123 -0.0381125 0.998172 0
-0.0461809 -0.0518871 0.997585 0
-0.0466866 -0.0476817 0.997771 0
-0.0570966 -0.0545256 0.996879 0
-0.0419857 -0.0487337 0.997929 0
-0.0385273 -0.0192533 0.999072 0
-0.0329657 -0.0152722 0.99934 0
-0.0388976 -0.0187978 0.999066 0
-0.0347522 -0.0335773 0.998832 0
0.125715 -0.0756261 0.98918 0.0146184
0.131198 -0.0766307 0.98839 0.0146246
0.144887 -0.0852197 0.985771 0.0171837
0.14829 -0.087151 0.985096 0.0139162
-0.0327633 -0.0418816 0.998585 0
-0.0379688 -0.0391879 0.99851 0.00210722
-0.0414972 -0.0234645 0.998863 0.00225194
-0.0386844 -0.0281248 0.998856 0.00150807
-0.032846 -0.0268104 0.999101 0
-0.0323152 -0.0188844 0.999299 0
-0.0390496 -0.0214124 0.999008 0
-0.0497049 -0.0284524 0.998359 0
-0.0485572 -0.0251077 0.998505 0
-0.0475505 -0.019512 0.998678 0
-0.0509858 -0.0256051 0.998371 0.00225901
-0.0442335 -0.0208549 0.998804 0
-0.0437078 -0.0177866 0.998886 0
-0.0417894 -0.00747218 0.999099 0
-0.0341236 -0.00175156 0.999416 0
-0.0397369 -0.014607 0.999103 0
-0.0368541 -0.0248782 0.999011 0
-0.0430507 -0.0316091 0.998573 0
-0.0445549 -0.0413048 0.998153 0
-0.0453035 -0.0262622 0.998628 0
-0.0375364 -0.0145527 0.999189 0
-0.0407716 -0.00695362 0.999144 0
0.124143 -0.0650538 0.99013 0.015468
0.138854 -0.0739354 0.987549 0.025743
0.159044 -0.0656387 0.985087 0
0.169703 -0.0650406 0.983347 0
-0.0360403 -0.0220235 0.999108 0
-0.0326135 -0.00959668 0.999422 0
-0.0298368 0.00355527 0.999548 0
-0.0276733 -0.0265305 0.999265 0
-0.0352443 -0.0166161 0.999241 0
-0.0367455 -0.0133855 0.999235 0
-0.0314672 -0.0166167 0.999367 0
-0.0379791 -0.00750968 0.99925 0
-0.041332 -0.0231338 0.998878 0
-0.0442123 -0.00773999 0.998992 0
-0.0464579 -0.0166301 0.998782 0
-0.0394218 -0.00886212 0.999183 0
-0.0428193 -0.0208089 0.998866 0
-0.0386407 -0.0151601 0.999138 0
-0.0386576 -0.00104173 0.999252 0
-0.0354056 -0.000682779 0.999373 0
-0.0297518 0.00353508 0.999551 0
-0.0345569 -0.000981325 0.999402 0
-0.0351889 -0.000841367 0.99938 0
-0.0443333 -0.0348705 0.998408 0
-0.0482885 -0.0300179 0.998382 0
0.145601 -0.0784903 0.986225 0.0307331
0.154131 -0.0639245 0.98598 0.0261704
0.169439 -0.066098 0.983322 0.0144605
0.175459 -0.0670478 0.982201 0.023736
0.179976 -0.0610655 0.981774 0.013586
-0.0318691 -0.00505217 0.999479 0
-0.0342021 -0.010884 0.999356 0
-0.0290576 0.0167167 0.999438 0
-0.0325105 0.00651219 0.99945 0
-0.0316005 -0.020631 0.999288 0
-0.0417836 -0.0190251 0.998946 0.00556441
-0.0461527 -0.0189658 0.998754 0.0102574
-0.0326577 -0.0201552 0.999263 0.00361065
-0.0385984 -0.0283099 0.998854 0
-0.0361375 -0.0209356 0.999128 0
-0.046585 -0.00402494 0.998906 0
-0.0486901 -0.0159545 0.998686 0.00144093
-0.0414559 -0.0234691 0.998865 0.00145037
-0.0342815 -0.0144477 0.999308 0
-0.0418651 -0.0171061 0.998977 0
-0.0383423 0.00909459 0.999223 0
-0.0376597 0.0143837 0.999187 0
-0.026382 0.0180017 0.99949 0
-0.0323202 0.0341261 0.998895 0
-0.0380021 0.0245605 0.998976 0
0.144635 -0.0424511 0.988574 0.0173915
0.156927 -0.0487243 0.986408 0.0237859
0.171374 -0.053395 0.983758 0.0225474
0.181584 -0.0366056 0.982694 0.00880968
0.196334 -0.0468561 0.979417 0.0181666
-0.0415232 -0.00218921 0.999135 0
-0.0487264 -0.0279788 0.99842 0
-0.0426625 -0.0216229 0.998855 0
-0.0368969 0.00141901 0.999318 0
-0.0395906 0.00583179 0.999199 0
-0.0385869 -0.000584657 0.999255 0
-0.0445004 -0.00918009 0.998967 0.00865046
-0.0366194 -0.0144657 0.999225 0.00595643
-0.0400668 -0.022041 0.998954 0.000976181
-0.0421694 -0.0222243 0.998863 0.00172075
-0.045471 -0.0283593 0.998563 0
-0.0487446 -0.0238187 0.998527 0
-0.0488139 -0.0253755 0.998486 0.00160793
-0.0428323 -0.0158391 0.998957 0.000803404
-0.0360926 -0.0161556 0.999218 0.00131641
-0.0344266 0.000543746 0.999407 0
-0.0313121 0.0275168 0.999131 0
-0.0386594 0.0222244 0.999005 0
-0.0363437 0.0358705 0.998695 0
-0.0288576 0.0393392 0.998809 0
-0.0404019 0.0248349 0.998875 0
0.178337 -0.0295608 0.983525 0
0.200707 -0.0265059 0.979293 0.00197064
-0.0442651 0.0182198 0.998854 0.013553
-0.0462631 0.00366545 0.998923 0.00218848
-0.0424773 0.00265609 0.999094 0
-0.0412969 -0.0119434 0.999076 0
-0.0427678 -0.00656252 0.999063 0
-0.0413527 -0.00111409 0.999144 0
-0.0345051 0.0070499 0.99938 0
-0.0326646 0.00732523 0.99944 0
-0.0368659 -0.0106124 0.999264 0
-0.0301498 -0.0183076 0.999378 0.00550957
-0.0405941 -0.0222129 0.998929 0.00885193
-0.0390472 -0.0140524 0.999139 0.00815247
-0.0494496 -0.024091 0.998486 0
-0.0471044 -0.0268594 0.998529 0
-0.041485 -0.0330359 0.998593 0.00108263
-0.0362722 -0.0156201 0.99922 0
-0.0476338 -0.017089 0.998719 0.00552078
-0.0367511 0.0167176 0.999185 0
-0.0395612 0.0356778 0.99858 0
-0.0405955 0.0341126 0.998593 0
-0.0313147 0.0347393 0.998906 0
-0.0398341 0.0276251 0.998824 0
-0.0452476 0.0367617 0.998299 0
0.166063 -0.0294791 0.985674 0
0.193363 -0.0237755 0.980839 0
0.200345 -0.0347666 0.979108 0.0134829
0.208162 -0.0310792 0.9776 0.00502991
-0.0478927 0.00950171 0.998807 0.0219694
-0.0447495 0.0136926 0.998904 0.0230681
-0.0490536 0.0171112 0.99865 0.0282816
-0.0450044 0.0143496 0.998884 0.0109703
-0.0381381 0.0183651 0.999104 0.00799924
-0.0411696 0.000214786 0.999152 0
-0.0374122 0.0243667 0.999003 0
-0.0395744 0.0174687 0.999064 0
-0.0373444 0.0249226 0.998992 0
-0.0408458 0.0271924 0.998795 0
-0.0424133 0.0222592 0.998852 0
-0.0449791 0.005715 0.998972 0
-0.0368589 0.0249445 0.999009 0
-0.0352047 0.0133424 0.999291 0
-0.0366528 0.0127509 0.999247 0
-0.0408085 0.0081022 0.999134 0
-0.0421709 -0.00291803 0.999106 0
-0.0414394 -0.00568725 0.999125 0
-0.0493319 -0.0134148 0.998692 0.000359357
-0.0475882 -0.00175762 0.998865 0
-0.0529791 0.0122487 0.998521 0.00512773
-0.0489173 0.0271545 0.998434 0
-0.0411602 0.0387257 0.998402 0
-0.0437953 0.0437315 0.998083 0
-0.048181 0.0400097 0.998037 0
-0.041662 0.0486912 0.997945 0
0.19578 -0.03468 0.980034 0.0114169
0.206601 -0.0372274 0.977717 0.0084766
0.208389 -0.0327121 0.977499 0.00161353
-0.0386704 0.022742 0.998993 0.0159846
-0.0427585 0.0127961 0.999004 0.015493
-0.0403005 0.0279358 0.998797 0.0124148
-0.040443 0.0193983 0.998994 0.0117186
-0.040753 0.0132024 0.999082 0
-0.0428741 -0.000158681 0.99908 0
-0.0549713 0.0112547 0.998425 0
-0.0396298 0.030278 0.998756 0
-0.0375147 0.0284397 0.998891 0
-0.0409006 0.02125 0.998937 0
-0.0414622 0.0206141 0.998927 0
-0.0414263 0.0237631 0.998859 0
-0.0381071 0.0197322 0.999079 0
-0.0378159 0.0158383 0.999159 0
-0.0378936 0.0126771 0.999201 0
-0.0412211 0.0175581 0.998996 0
-0.0409769 0.0426246 0.99825 0
-0.0424184 0.0210322 0.998879 0
-0.0445057 0.0213876 0.99878 0
-0.0508526 0.0169286 0.998563 0.00243216
-0.0459461 0.0322358 0.998424 0
-0.0477703 0.035501 0.998227 0.00241307
-0.0541481 0.0229741 0.998269 0.00941961
-0.0501431 0.0411586 0.997894 0.00353874
-0.0564176 0.0500884 0.99715 0.00760906
-0.0488654 0.0566963 0.997195 0.00955618
0.197352 -0.0287995 0.97991 0.00605037
0.207602 -0.0200363 0.978008 0
0.216081 -0.0153651 0.976255 0
-0.0361182 0.0325151 0.998818 0
-0.0346638 0.0243039 0.999103 0.000312034
-0.0357476 0.0153646 0.999243 0.000675842
-0.034854 0.0128358 0.99931 0
-0.0401557 0.00737937 0.999166 0
-0.0494669 0.014383 0.998672 0
-0.0437417 0.0333343 0.998487 0
-0.0414206 0.0293329 0.998711 0
-0.0398488 0.0234943 0.99893 0
-0.0372537 0.0267359 0.998948 0
-0.0359777 0.00881089 0.999314 0
-0.0306251 0.0147376 0.999422 0
-0.0354793 0.0143011 0.999268 0
-0.0297784 0.0313728 0.999064 0
-0.0345571 0.0368562 0.998723 0
-0.036877 0.0469226 0.998218 0
-0.0472654 0.0331153 0.998333 0.00184194
-0.0473183 0.0332685 0.998326 0
-0.0500612 0.025335 0.998425 0.0108053
-0.0440064 0.0404454 0.998212 0.003844
-0.0536653 0.0501042 0.997301 0.00563929
-0.0508395 0.0292695 0.998278 0.0115917
-0.052907 0.0538299 0.997148 0.0168897
-0.0532513 0.0695422 0.996157 0.0108218
-0.0494831 0.0481928 0.997612 0.0129169
-0.0600992 0.0340124 0.997613 0.017425
0.201347 -3.00383e-05 0.97952 0.0124933
0.206213 0.0029694 0.978503 0.00672924
0.198627 0.00710239 0.980049 0
-0.0446177 0.0280633 0.99861 0.0126107
-0.0446767 0.0142012 0.998901 0.0167164
-0.0441818 0.0339941 0.998445 0.0091774
-0.0370303 0.0330546 0.998767 0.00232314
-0.0326543 0.0311184 0.998982 0
-0.0283273 0.028383 0.999196 0
-0.0290901 0.0270503 0.999211 0
-0.0255944 0.0393948 0.998896 0
-0.0437476 0.0227216 0.998784 0
-0.0449271 0.0253452 0.998669 0.00121202
-0.0389145 0.0310851 0.998759 0
-0.0404743 0.0351437 0.998562 0
-0.0399574 0.041829 0.998325 0
-0.0369279 0.00434544 0.999308 0
-0.0336571 0.0198849 0.999236 0
-0.0198882 0.050843 0.998509 0
-0.0196879 0.0456703 0.998763 0
-0.028274 0.0413882 0.998743 0
-0.0342879 0.0509855 0.998111 0
-0.0439846 0.0433135 0.998093 0.0100534
-0.0498838 0.0272709 0.998383 0.00832997
-0.0496484 0.0294114 0.998334 0.0101413
-0.048735 0.0412699 0.997959 0.00800975
-0.0475994 0.0529424 0.997463 0.00227089
-0.0467801 0.0533611 0.997479 0.00690138
-0.0436785 0.078665 0.995944 0.0101258
-0.0387151 0.0863212 0.995515 0
-0.0474962 0.0562369 0.997287 0.00369113
-0.0527664 0.0337025 0.998038 0.0141364
0.193996 0.0159035 0.980873 0.00551282
0.208713 0.0316034 0.977466 0
0.213783 0.0237306 0.976593 0
0.215918 0.0195187 0.976216 0
-0.0368401 0.048838 0.998127 0.00752875
-0.0387922 0.0690888 0.996856 0.00639063
-0.0322798 0.036616 0.998808 0
-0.0255439 0.0504574 0.9984 0
-0.029333 0.050043 0.998316 0
-0.0282567 0.0681833 0.997273 0
-0.0276464 0.0760034 0.996724 0
-0.0336361 0.0681733 0.997106 0
-0.0399206 0.0411176 0.998356 0
-0.0497842 0.0443584 0.997774 0
-0.03692 0.0382947 0.998584 0
-0.0368958 0.042323 0.998423 0
-0.0460162 0.0344435 0.998347 0
-0.0337768 0.0408377 0.998595 0
-0.0287657 0.0599333 0.997788 0
-0.0140046 0.0553078 0.998371 0
-0.0182365 0.0669624 0.997589 0
-0.0275099 0.0930386 0.995282 0
-0.0298665 0.0584724 0.997842 0
-0.0402726 0.0452019 0.998166 0.00555918
-0.0484161 0.0440034 0.997857 0.00488503
-0.0542686 0.0470545 0.997417 0.000902566
-0.0564858 0.0442159 0.997424 0.017134
-0.0567902 0.0542876 0.996909 0.0200273
-0.0483538 0.0763572 0.995907 0.020491
-0.0372278 0.0966561 0.994621 0.00309876
-0.0430732 0.0712447 0.996528 0
-0.0524003 0.0648958 0.996515 0.00563603
-0.0435233 0.0690831 0.996661 0.00447733
0.198237 0.0163371 0.980018 0.0291884
0.218297 0.0131231 0.975794 0.0236254
0.205302 0.00926859 0.978655 0.0227863
0.203611 0.0228457 0.978785 0.00835023
-0.0283703 0.0478541 0.998451 0.0011131
-0.0243076 0.0511481 0.998395 0.00323771
-0.0191801 0.0428898 0.998896 0.00418428
-0.0218275 0.0635885 0.997737 0
-0.0249335 0.0808787 0.996412 0
-0.0296363 0.0835303 0.996064 0
-0.0392913 0.0860567 0.995515 0
-0.0418224 0.0540152 0.997664 0.00295885
-0.040289 0.0441137 0.998214 0
-0.036819 0.0403947 0.998505 0
-0.0383885 0.0526504 0.997875 0
-0.0361636 0.0467129 0.998254 0
-0.0276249 0.0718491 0.997033 0
-0.016312 0.0638967 0.997823 0
-0.0260069 0.0646782 0.997567 0
-0.0387566 0.0864217 0.995504 0
-0.0369542 0.0666318 0.997093 0
-0.0514047 0.0555095 0.997134 0.0256937
-0.0611034 0.0535946 0.996692 0.0178752
-0.0553893 0.0476938 0.997325 0.0199642
-0.0472104 0.0674301 0.996606 0.0109777
-0.0524268 0.0640673 0.996567 0.0269774
-0.0452383 0.0759515 0.996085 0.0106454
-0.0500659 0.0632436 0.996742 0.00860123
-0.0479282 0.0637238 0.996816 0.00838611
-0.0432557 0.0720744 0.996461 0
0.194902 0.0176553 0.980664 0.0114702
0.196791 0.0171938 0.980295 0.00563266
0.200881 0.027658 0.979225 0.00422642
-0.0252935 0.0522003 0.998316 0.00265905
-0.0213645 0.0492008 0.99856 0.0147378
-0.0280671 0.0920755 0.995356 0
-0.0340181 0.0907235 0.995295 0
-0.0368372 0.0785796 0.996227 0
-0.0287996 0.0918436 0.995357 0
-0.0385793 0.0694621 0.996838 0
-0.0349684 0.0692018 0.99699 0
-0.0439188 0.0529977 0.997628 0
-0.0400723 0.0569077 0.997575 0
-0.034845 0.07208 0.99679 0
-0.0317447 0.071372 0.996944 0
-0.0222844 0.0708629 0.997237 0
-0.0310809 0.0585741 0.997799 0
-0.0286499 0.0783565 0.996514 0
-0.0312487 0.0732533 0.996824 0
-0.043532 0.05909 0.997303 0.0133408
-0.044308 0.0752951 0.996176 0.0127827
-0.0502859 0.074865 0.995925 0.0113226
-0.042267 0.0786288 0.996008 0.00663883
-0.0388729 0.0702112 0.996774 0.00549716
-0.0420077 0.0877946 0.995252 0
-0.0412244 0.0849143 0.995535 0
-0.0364894 0.0904603 0.995231 0
-0.0449114 0.0675018 0.996708 0
0.181261 0.0170258 0.983288 0.0132248
0.191462 0.0262989 0.981148 0.0216856
0.182517 0.0284112 0.982792 0.0101497
-0.0371135 0.0707788 0.996801 0.00511777
-0.0173511 0.0732078 0.997166 0.00702962
-0.0272553 0.0815793 0.996294 0.000403866
-0.0360308 0.0909525 0.995203 0
-0.0271346 0.0812852 0.996321 0
-0.027835 0.0922418 0.995347 0
-0.0374957 0.0658271 0.997126 0
-0.0338279 0.0770955 0.99645 0
-0.0438049 0.0731824 0.996356 0
-0.0396118 0.0684303 0.996869 0
-0.0435257 0.0777083 0.996026 0
-0.0345779 0.060091 0.997594 0
-0.0349331 0.0613417 0.997505 0
-0.0334359 0.0469619 0.998337 0
-0.0273358 0.0741458 0.996873 0
-0.0305588 0.062047 0.997605 0
-0.0319579 0.086377 0.99575 0.00122734
-0.047516 0.0665262 0.996653 0.0218343
-0.0523443 0.0868882 0.994842 0.0105645
-0.0485197 0.0654602 0.996675 0.00385773
-0.0316315 0.0847492 0.9959 0
-0.0362975 0.0891901 0.995353 0
-0.035392 0.0971324 0.994642 0
-0.0317804 0.108321 0.993608 0
-0.0399602 0.102145 0.993967 0
0.172302 0.0221518 0.984795 0.0196727
0.178294 0.0307688 0.983496 0.0120766
0.180348 0.0290695 0.983173 0.0057193
-0.020808 0.0786774 0.996683 0.0158411
-0.0315277 0.0885705 0.995571 0.0153963
-0.0339653 0.0968421 0.99472 0.0124618
-0.0259421 0.0883599 0.995751 0.000981809
-0.0299136 0.107596 0.993745 0
-0.0325891 0.0780193 0.996419 0
-0.0354844 0.0819986 0.996001 0
-0.0312052 0.0748631 0.996705 0
-0.0386706 0.0769057 0.996288 0
-0.038375 0.067664 0.99697 0
-0.0457142 0.0775033 0.995944 0
-0.0431663 0.0721488 0.996459 0
-0.0381998 0.0679034 0.99696 0
-0.032317 0.0766157 0.996537 0
-0.0357915 0.0834744 0.995867 0
-0.0361563 0.0890209 0.995373 0.00840974
-0.0416124 0.0751135 0.996306 0.0176497
-0.0434638 0.0618783 0.997137 0.0151713
-0.0585134 0.0641383 0.996224 0.0131999
-0.0426172 0.080322 0.995858 0
-0.0365441 0.0858504 0.995638 0
-0.0362591 0.0888808 0.995382 0
-0.0311232 0.11187 0.993235 0
-0.0333137 0.110177 0.993353 0
-0.0443476 0.0928338 0.994694 0
0.171716 0.0235692 0.984864 0.0130184
0.17735 0.0128825 0.984064 0.0138224
0.186985 0.0203783 0.982151 0.0123157
-0.0318942 0.0824426 0.996085 0.0240806
-0.0305748 0.0914999 0.995336 0.0241374
-0.031086 0.0932219 0.99516 0.0239473
-0.0270259 0.0839264 0.996105 0.0186705
-0.0335031 0.0732282 0.996752 0.0128757
-0.0342954 0.0592373 0.997655 0
-0.0341058 0.0671019 0.997163 0
-0.0380722 0.0800885 0.99606 0
-0.0398504 0.0579174 0.997526 0
-0.0499381 0.0646663 0.996657 0
-0.0464301 0.0694211 0.996506 0
-0.038689 0.0801891 0.996029 0
-0.0388959 0.0813644 0.995925 0
-0.0451368 0.0755091 0.996123 0.00755169
-0.0451551 0.0854072 0.995322 0.0142482
-0.0473312 0.0855162 0.995212 0.0263125
-0.0428576 0.083719 0.995567 0.00745455
-0.0494284 0.0684825 0.996427 0.0183706
-0.0446564 0.0862863 0.995269 0
-0.0443646 0.086826 0.995235 0
-0.0393028 0.0931125 0.99488 0
-0.0390126 0.0949153 0.994721 0
-0.0460116 0.104339 0.993477 0
-0.0468167 0.0822451 0.995512 0.00605881
-0.0420444 0.0820591 0.99574 0.00031343
0.17378 0.0270453 0.984413 0.0219966
0.174308 0.0250261 0.984373 0.0157553
0.193059 0.0132163 0.981098 0.0209162
-0.0369593 0.0834935 0.995823 0.0294775
-0.0278201 0.0825388 0.996199 0.0244272
-0.0297744 0.0807522 0.996289 0.0118434
-0.0433133 0.0779049 0.996019 0.00523551
-0.0439797 0.0662467 0.996834 0
-0.0397296 0.0638468 0.997169 0
-0.0516101 0.0660036 0.996484 0
-0.0518237 0.0552713 0.997126 0.0148957
-0.0438404 0.0616412 0.997135 0.00495892
-0.0481746 0.0705823 0.996342 0.00765285
-0.0478436 0.0938217 0.994439 0.0191665
-0.0513514 0.0939905 0.994248 0.0218009
-0.0435039 0.0930962 0.994706 0.017155
-0.0492673 0.0820008 0.995414 0.0206411
-0.0472498 0.0784218 0.9958 0.0125052
-0.0417569 0.0896984 0.995093 0
-0.0500829 0.0912427 0.994569 0
-0.0406889 0.0948278 0.994662 0
-0.0499987 0.0823203 0.995351 0.00723135
-0.0405523 0.0903323 0.995086 0
-0.0366483 0.0934929 0.994945 0
-0.0427086 0.0909224 0.994942 0.00722156
0.169603 0.0185987 0.985337 0.0403744
0.17176 0.0350641 0.984515 0.0368592
0.171846 0.0234873 0.984844 0.0256119
-0.0409245 0.0810568 0.995869 0
-0.045389 0.0837045 0.995456 0
-0.0433192 0.0760439 0.996163 0
-0.0395282 0.0719027 0.996628 0
-0.0504154 0.0658456 0.996555 0.000991956
-0.0501689 0.0643174 0.996668 0.019266
-0.0503034 0.0647448 0.996633 0.0177381
-0.04615 0.0859706 0.995228 0.0213796
-0.0515318 0.0906678 0.994547 0.0246157
-0.0566038 0.0979932 0.993576 0.0170524
-0.0489108 0.089529 0.994783 0.0109867
-0.0520947 0.108668 0.992712 0.0158966
-0.0507722 0.0801835 0.995486 0.0166735
-0.0442423 0.0794303 0.995858 0
-0.0400673 0.0888044 0.995243 0
-0.0381572 0.0910477 0.995115 0
-0.0477577 0.0791743 0.995716 0.006738
-0.0436732 0.105261 0.993485 0.00068417
-0.0412764 0.109435 0.993137 0.0183424
-0.0478152 0.10811 0.992988 0.0028803
-0.0434964 0.107683 0.993233 0
-0.0418281 0.111357 0.9929 0.00391001
0.132688 0.038458 0.990411 0.0314526
0.163305 0.0246405 0.986268 0.0272245
0.165121 0.0218906 0.98603 0.0327833
0.162667 0.0211357 0.986455 0.029435
-0.0434071 0.0796525 0.995877 0
-0.0380298 0.0853003 0.995629 0.00589462
-0.047304 0.0834163 0.995391 0.00665559
-0.0421223 0.0756489 0.996244 0.00261267
-0.0368787 0.0745116 0.996538 0
-0.0479235 0.071752 0.996271 0
-0.0522529 0.0778972 0.995591 0.00722808
-0.0479646 0.0849693 0.995228 0.0117635
-0.045873 0.0957281 0.99435 0.0292018
-0.0502358 0.107832 0.992899 0.0355995
-0.0506187 0.101946 0.993501 0.0403365
-0.0613897 0.0977617 0.993315 0.02344
-0.0536324 0.0956976 0.993965 0.00423124
-0.0503843 0.090468 0.994624 0
-0.0563623 0.0667567 0.996176 0.0116362
-0.0517758 0.0645331 0.996571 0.00251531
-0.0414696 0.0754281 0.996289 0.0033909
-0.0491215 0.0686625 0.99643 0.00601371
-0.0473391 0.102144 0.993643 0.0168164
-0.0448585 0.110134 0.992904 0.0108541
-0.0462018 0.125925 0.990963 0.0123495
-0.0455096 0.122354 0.991443 0.00943051
-0.0517705 0.105823 0.993036 0.00636744
-0.041233 0.121041 0.991791 0
-0.0369438 0.144255 0.988851 0
-0.0305633 0.149599 0.988274 0
0.133451 0.0592866 0.98928 0.0214204
0.157037 0.0336946 0.987018 0.0131522
0.161885 0.0248486 0.986497 0.025083
0.173377 0.0175822 0.984699 0.0217323
-0.043535 0.0830627 0.995593 0.00276459
-0.0466071 0.0864399 0.995166 0
-0.0419035 0.0942593 0.994665 0
-0.0509055 0.069553 0.996279 0
-0.0522931 0.0700749 0.99617 0
-0.0478136 0.0898602 0.994806 0
-0.0478594 0.0992737 0.993909 0.00793077
-0.0512305 0.103875 0.99327 0.032585
-0.0500095 0.100919 0.993637 0.0373242
-0.0478983 0.109355 0.992848 0.0422626
-0.0549142 0.107888 0.992645 0.0258427
-0.0596661 0.0978749 0.993409 0.0123362
-0.0549321 0.0876934 0.994632 0.00121836
-0.0472777 0.0841961 0.995327 0
-0.0491527 0.0816112 0.995451 0
-0.0478557 0.0684481 0.996506 0
-0.0483432 0.0832444 0.995356 0
-0.0466962 0.105662 0.993305 0.00750322
-0.0561335 0.0834194 0.994932 0.0283876
-0.0587251 0.104691 0.992769 0.0300312
-0.0533182 0.127337 0.990425 0.0329387
-0.0489759 0.124832 0.990968 0.00210142
-0.0431744 0.147029 0.988189 0
-0.0347803 0.151816 0.987797 0
-0.0329505 0.161163 0.986378 0
-0.0340253 0.160196 0.986499 0
-0.0343952 0.151338 0.987884 0.00148905
-0.034198 0.144347 0.988936 0
0.122266 0.0831829 0.989005 0.0133945
0.136943 0.0856927 0.986865 0.0291094
0.149014 0.0512314 0.987507 0.0190473
0.157628 0.0341301 0.986909 0.0238206
0.171853 0.0490473 0.983901 0.0146635
-0.0372494 0.0902206 0.995225 0
-0.0418038 0.0992465 0.994184 0
-0.0470045 0.0869919 0.995099 0
-0.0593268 0.0687865 0.995866 0.00493047
-0.0467294 0.0949271 0.994387 0
-0.0465713 0.109672 0.992876 0
-0.0465086 0.111636 0.99266 0.00875948
-0.04696 0.12487 0.991061 0.0276097
-0.0476009 0.128769 0.990531 0.0268798
-0.0542493 0.105204 0.99297 0.0506152
-0.0510426 0.120556 0.991393 0.0207903
-0.0581873 0.083687 0.994792 0.0147078
-0.0536387 0.0843785 0.994989 0.0109956
-0.0512469 0.0815311 0.995352 0.00481596
-0.0503186 0.0858207 0.995039 0.0067219
-0.0514036 0.0810153 0.995386 0
-0.049528 0.101197 0.993633 0
-0.0477496 0.104284 0.993401 0
-0.0537681 0.0945321 0.994069 0.00665821
-0.0673402 0.0890183 0.993751 0.0360006
-0.0586162 0.12798 0.990043 0.0215017
-0.0530985 0.145488 0.987934 0.0166065
-0.0400954 0.154674 0.987152 0
-0.0360598 0.175726 0.983778 0
-0.0317097 0.162105 0.986264 0
-0.0328414 0.140067 0.989597 0.00123019
-0.0391528 0.137518 0.989725 0.00153725
-0.0351785 0.159862 0.986512 0
-0.0302278 0.139462 0.989766 0
0.120645 0.0972664 0.987919 0.00229711
0.138403 0.0980108 0.985514 0.023785
0.148177 0.0681579 0.986609 0
0.157346 0.0463647 0.986455 0.0164967
-0.0472658 0.080488 0.995634 0
-0.0559164 0.0841662 0.994882 0.00858022
-0.0499853 0.104778 0.993239 0.00752769
-0.0447036 0.132516 0.990172 0.0254418
-0.0528927 0.102538 0.993322 0.0393688
-0.0477952 0.13009 0.990349 0.0168193
-0.0573136 0.0899894 0.994292 0.0162233
-0.0600136 0.0725955 0.995554 0.0187022
-0.0526896 0.0881565 0.994712 0.00369201
-0.0476156 0.0814284 0.995541 0
-0.0515036 0.106552 0.992972 0
-0.0506287 0.101906 0.993505 0
-0.050494 0.102928 0.993406 0
-0.05904 0.0837733 0.994734 0.011127
-0.0610944 0.100009 0.993109 0.0272214
-0.0546342 0.131685 0.989785 0.00944269
-0.0537862 0.145122 0.987951 0.0128505
-0.0401194 0.183618 0.982179 0
-0.0298126 0.203494 0.978622 0
-0.0280803 0.183984 0.982528 0
-0.0294327 0.160489 0.986599 0
-0.0304395 0.170685 0.984855 0
-0.0350181 0.17592 0.983781 0
-0.0372299 0.134252 0.990248 0
-0.0364421 0.145526 0.988683 0
0.113527 0.112228 0.987176 0.00859517
