# .PCD v0.7 - Point Cloud Data file format
VERSION 0.7
FIELDS x y z
SIZE 4 4 4
TYPE F F F
COUNT 1 1 1
WIDTH 1372
HEIGHT 1
VIEWPOINT 0 0 0 1 0 0 0
POINTS 1372
DATA ascii
-0.147122 -0.271579 -0.40680099
-0.14626801 -0.27151 -0.40680301
-0.145978 -0.27141601 -0.406811
-0.145705 -0.27142501 -0.406804
-0.13428992 -0.27151492 -0.40690863
-0.154158 -0.27120599 -0.40699899
-0.15350001 -0.27123201 -0.40698999
-0.1532872 -0.27128598 -0.40698701
-0.153198 -0.27129701 -0.40696001
-0.152897 -0.271303 -0.40695199
-0.1527185 -0.27130872 -0.40696147
-0.15251441 -0.27129179 -0.40697798
-0.15231284 -0.27128676 -0.40698007
-0.15213318 -0.27130565 -0.40696788
-0.15188183 -0.27130815 -0.40697321
-0.1516955 -0.271319 -0.40698633
-0.15151726 -0.27129599 -0.4069705
-0.1512991 -0.27129856 -0.40696689
-0.15112799 -0.27129498 -0.40694633
-0.150916 -0.271299 -0.40694633
-0.15050249 -0.27131748 -0.40695396
-0.15030827 -0.27131829 -0.40696886
-0.15007 -0.27130902 -0.40695149
-0.14945601 -0.27130333 -0.40689465
-0.14926633 -0.27131245 -0.40689421
-0.1491195 -0.271294 -0.4068625
-0.14889616 -0.27130166 -0.40687415
-0.14872199 -0.27130598 -0.40689901
-0.14852834 -0.27127501 -0.40687835
-0.14829282 -0.27129182 -0.40687945
-0.148113 -0.27130798 -0.40684268
-0.14793999 -0.27131221 -0.40685466
-0.14774384 -0.27131552 -0.40686551
-0.14743501 -0.271299 -0.40680701
-0.1473126 -0.27129397 -0.40681142
-0.145972 -0.27130601 -0.40680802
-0.14569633 -0.27127635 -0.40681434
-0.13429722 -0.27130044 -0.40689954
-0.134195 -0.27130565 -0.40693367
-0.153492 -0.27108565 -0.40698531
-0.15329733 -0.27109396 -0.40697682
-0.153189 -0.27111635 -0.40694368
-0.15288766 -0.27112052 -0.40694866
-0.15270884 -0.27112517 -0.40696618
-0.1525242 -0.27111402 -0.40697441
-0.1523035 -0.2711035 -0.40697891
-0.15212134 -0.27108583 -0.40697432
-0.15187034 -0.27108851 -0.40697351
-0.1516934 -0.2711134 -0.40698999
-0.15150715 -0.27111217 -0.40697435
-0.15130329 -0.27111912 -0.40697393
-0.15111601 -0.27107501 -0.40695032
-0.150903 -0.27107766 -0.40696099
-0.15049084 -0.27109748 -0.40695652
-0.1502905 -0.27110484 -0.40697518
-0.15005966 -0.27112469 -0.40696397
-0.14944434 -0.27108335 -0.406896
-0.14925487 -0.27109221 -0.40688789
-0.14910966 -0.27111101 -0.4068597
-0.14889801 -0.27112824 -0.40686336
-0.148733 -0.27110302 -0.40690178
-0.14851901 -0.27109301 -0.4068715
-0.14827478 -0.27109686 -0.40688181
-0.148102 -0.27108899 -0.40683463
-0.14792834 -0.27109149 -0.40685949
-0.14773233 -0.27109614 -0.40687147
-0.147425 -0.27111533 -0.406813
-0.14729267 -0.27111843 -0.40681311
-0.14719 -0.27109349 -0.40680349
-0.14624301 -0.271034 -0.406804
-0.145687 -0.27109301 -0.40681249
-0.13428576 -0.27107868 -0.40689433
-0.13418333 -0.27108467 -0.40693498
-0.15414268 -0.27091435 -0.40699002
-0.153484 -0.27093899 -0.40699899
-0.15328 -0.27089599 -0.40697458
-0.15317701 -0.27089599 -0.40695
-0.15287566 -0.27090034 -0.40695605
-0.15269767 -0.27090633 -0.40695468
-0.1525045 -0.27091017 -0.40696684
-0.15229367 -0.2709209 -0.4069747
-0.1521115 -0.27090251 -0.40697601
-0.15186 -0.27090448 -0.40698802
-0.151631 -0.27095601 -0.40699899
-0.15149532 -0.2708917 -0.40698519
-0.15127872 -0.270913 -0.40698054
-0.151106 -0.27089202 -0.406959
-0.15089351 -0.27089399 -0.40696001
-0.150479 -0.27087769 -0.40696231
-0.15027884 -0.27088499 -0.40697327
-0.150048 -0.27090397 -0.40696466
-0.14943349 -0.270899 -0.40691751
-0.14927 -0.27090698 -0.40689123
-0.14912207 -0.27088764 -0.40686989
-0.14891718 -0.27089784 -0.40687335
-0.14874583 -0.27090153 -0.40687951
-0.14850967 -0.27090967 -0.40686598
-0.148288 -0.27092379 -0.40687451
-0.14812768 -0.27088931 -0.40684798
-0.14791849 -0.2709085 -0.40685847
-0.1477126 -0.27089021 -0.40687522
-0.14741234 -0.27089402 -0.40682802
-0.14728022 -0.2708973 -0.4068239
-0.14718001 -0.27090999 -0.4068087
-0.14658201 -0.270897 -0.40680599
-0.14625032 -0.27085832 -0.40680432
-0.145677 -0.27090999 -0.40681204
-0.134276 -0.27089366 -0.40690032
-0.134174 -0.27090102 -0.406928
-0.15414999 -0.2707088 -0.40699044
-0.15327801 -0.27073932 -0.40699068
-0.15316701 -0.27071148 -0.40696099
-0.15286367 -0.27067932 -0.40696132
-0.15268566 -0.270686 -0.40696147
-0.15249284 -0.2706905 -0.40696868
-0.15228184 -0.27070066 -0.40698192
-0.1521015 -0.27071884 -0.40698585
-0.15186119 -0.27073541 -0.40698117
-0.15173666 -0.27067801 -0.40699032
-0.15153299 -0.270744 -0.40699601
-0.15125862 -0.27069384 -0.40698487
-0.15109599 -0.27070701 -0.40697667
-0.15088399 -0.27071103 -0.40695468
-0.15046901 -0.270693 -0.40697074
-0.15027957 -0.27070659 -0.4069716
-0.150077 -0.27068126 -0.40696073
-0.14942333 -0.27071467 -0.40692568
-0.14925902 -0.27072066 -0.406914
-0.14911176 -0.27070299 -0.40688199
-0.14890583 -0.27067783 -0.40687105
-0.148734 -0.2706815 -0.40688154
-0.148498 -0.27068901 -0.4068757
-0.14828689 -0.27070376 -0.40686265
-0.14813684 -0.27071801 -0.40685582
-0.14790867 -0.27072433 -0.40686667
-0.14771979 -0.27071199 -0.40689021
-0.147403 -0.270711 -0.40683252
-0.14726812 -0.27067646 -0.40683722
-0.14712116 -0.27069318 -0.40681997
-0.14654925 -0.27069551 -0.40680975
-0.146256 -0.27071622 -0.4068082
-0.134518 -0.27067399 -0.406804
-0.13426599 -0.27070943 -0.40690446
-0.13416399 -0.27071604 -0.40693602
-0.153216 -0.2705113 -0.40699634
-0.153157 -0.27052632 -0.40697667
-0.1528545 -0.27049726 -0.40695399
-0.15267549 -0.270502 -0.40697348
-0.15248226 -0.2705065 -0.40698498
-0.15229613 -0.27048737 -0.40698862
-0.15214841 -0.27050415 -0.40699029
-0.151792 -0.270574 -0.40699899
-0.15126668 -0.27051267 -0.40699565
-0.15111226 -0.27050075 -0.40697801
-0.15087201 -0.270491 -0.40696397
-0.15045901 -0.27051035 -0.40697202
-0.15028289 -0.27051723 -0.40697622
-0.15012459 -0.27051398 -0.4069666
-0.14941201 -0.27049401 -0.40693
-0.14924701 -0.27050015 -0.406921
-0.14910133 -0.27051869 -0.40689632
-0.1488955 -0.27049398 -0.40688872
-0.14872375 -0.27049699 -0.40689149
-0.148488 -0.270504 -0.406883
-0.14827444 -0.27048334 -0.40687466
-0.14812434 -0.27049646 -0.40686783
-0.14789666 -0.27050352 -0.40687856
-0.14770018 -0.27050719 -0.40689051
-0.14730355 -0.27050403 -0.40683112
-0.14710079 -0.27048841 -0.40681681
-0.14682999 -0.27044898 -0.40680301
-0.14650549 -0.27051833 -0.40681133
-0.14639799 -0.27049699 -0.40680501
-0.145928 -0.27046299 -0.406804
-0.14565599 -0.27050698 -0.406809
-0.13451201 -0.27056301 -0.40680301
-0.13426125 -0.27049801 -0.40689862
-0.13416375 -0.27047351 -0.4069345
-0.15320466 -0.27029231 -0.40699235
-0.153145 -0.27030799 -0.40697166
-0.15286699 -0.27033001 -0.40697375
-0.15269876 -0.27030787 -0.40697625
-0.15249725 -0.27033851 -0.40698776
-0.152126 -0.27027801 -0.40699068
-0.15107399 -0.270302 -0.4069815
-0.15086201 -0.27030599 -0.406973
-0.15045682 -0.27030382 -0.40697679
-0.15027969 -0.27029544 -0.40698746
-0.15009701 -0.27030984 -0.40697405
-0.14940301 -0.27034599 -0.40694401
-0.149275 -0.27026752 -0.40694323
-0.14909755 -0.2703037 -0.40690649
-0.14890058 -0.27029786 -0.40690756
-0.14871384 -0.27031282 -0.40690267
-0.14847766 -0.27032101 -0.40688732
-0.14826368 -0.270298 -0.40689349
-0.14810219 -0.2702904 -0.40687698
-0.14788418 -0.27028149 -0.40688932
-0.14768799 -0.27028599 -0.40690252
-0.14731021 -0.27030766 -0.40684301
-0.14714237 -0.27031061 -0.40682727
-0.14682201 -0.27030098 -0.40680501
-0.14652067 -0.27029702 -0.40682065
-0.14629187 -0.27026185 -0.40680817
-0.1462 -0.270224 -0.40680999
-0.14591967 -0.27031431 -0.40681466
-0.14564599 -0.270322 -0.40681735
-0.134498 -0.27030402 -0.406809
-0.1342705 -0.27030399 -0.40689701
-0.13416725 -0.27030599 -0.40693849
-0.1531345 -0.270123 -0.40698901
-0.15287301 -0.27005303 -0.40699899
-0.15274376 -0.27011201 -0.4069865
-0.152512 -0.27017 -0.40699601
-0.152174 -0.27011999 -0.40699899
-0.15106399 -0.27011904 -0.40698799
-0.15085132 -0.27012166 -0.406991
-0.150481 -0.27010399 -0.406997
-0.150392 -0.270105 -0.40699399
-0.15010162 -0.27010021 -0.40698856
-0.15000001 -0.27002001 -0.40699899
-0.14929481 -0.2700986 -0.40695897
-0.14911179 -0.27008069 -0.40693319
-0.14891078 -0.27008533 -0.40692714
-0.148701 -0.27009085 -0.40692067
-0.14846499 -0.27009901 -0.40690565
-0.14825423 -0.27011466 -0.406894
-0.14811361 -0.27011117 -0.4068976
-0.1478745 -0.27009773 -0.40689474
-0.14767824 -0.27010149 -0.40690848
-0.14729744 -0.27008522 -0.40686548
-0.14712055 -0.27009881 -0.40684354
-0.14681132 -0.270116 -0.40682033
-0.146496 -0.2701247 -0.40683386
-0.14630882 -0.27009568 -0.40681931
-0.14614384 -0.27007899 -0.40682733
-0.145908 -0.27009431 -0.40681267
-0.14563434 -0.27010235 -0.40681767
-0.134488 -0.27011904 -0.40681934
-0.13426016 -0.27011883 -0.40690783
-0.13415682 -0.27011982 -0.40695238
-0.15083951 -0.26990002 -0.40699801
-0.15038401 -0.26995802 -0.40699899
-0.149992 -0.26987502 -0.40699601
-0.14930718 -0.26990584 -0.40697634
-0.1491286 -0.26990527 -0.40695676
-0.14890049 -0.26990101 -0.40693733
-0.14869025 -0.26990625 -0.40694296
-0.14845234 -0.26987699 -0.40692902
-0.14826584 -0.26989251 -0.40691066
-0.14812456 -0.26990035 -0.40692133
-0.14786367 -0.26991317 -0.40691185
-0.14766766 -0.26991767 -0.40691784
-0.147287 -0.26990065 -0.40688238
-0.14710063 -0.26988724 -0.40686399
-0.14680301 -0.269968 -0.40682799
-0.14679649 -0.269858 -0.40684402
-0.14648332 -0.26990268 -0.40685451
-0.14629823 -0.26990953 -0.40684178
-0.14613375 -0.269896 -0.406838
-0.14589751 -0.26990899 -0.40682101
-0.13447434 -0.26989499 -0.40685165
-0.13424633 -0.26989365 -0.40695021
-0.1341455 -0.26993275 -0.40697804
-0.150832 -0.26975301 -0.40699601
-0.14929549 -0.26968446 -0.40698233
-0.14910816 -0.2696999 -0.40696564
-0.14889033 -0.2697162 -0.40694791
-0.14867984 -0.269721 -0.40695667
-0.148442 -0.269692 -0.40694499
-0.14825475 -0.26970577 -0.40693802
-0.14810437 -0.26968938 -0.40693027
-0.14785133 -0.26969081 -0.40693033
-0.1476555 -0.26969567 -0.40693066
-0.14727645 -0.26971531 -0.40689304
-0.14710699 -0.2697053 -0.40688658
-0.146788 -0.26970798 -0.406865
-0.1464705 -0.26968017 -0.40687785
-0.14628465 -0.26968566 -0.40687701
-0.14612266 -0.2697095 -0.40686333
-0.14588635 -0.26972267 -0.40686035
-0.145613 -0.26969802 -0.40681899
-0.13463899 -0.26970249 -0.40681499
-0.1344635 -0.26970801 -0.406883
-0.13424565 -0.26971868 -0.40697864
-0.149287 -0.2695365 -0.406997
-0.14908209 -0.26948741 -0.40698051
-0.14890072 -0.26950356 -0.40697053
-0.14869912 -0.26948801 -0.40698004
-0.14843135 -0.26950634 -0.40696397
-0.14824401 -0.26952103 -0.406957
-0.14810283 -0.26951766 -0.40696099
-0.1478865 -0.26950598 -0.40695
-0.14771421 -0.26951522 -0.40694898
-0.147596 -0.26943803 -0.40696299
-0.14729883 -0.26949349 -0.40690085
-0.14711441 -0.26950386 -0.40689445
-0.14677733 -0.26952299 -0.40688232
-0.14645976 -0.269494 -0.40689749
-0.146274 -0.269501 -0.40689734
-0.14611001 -0.26948717 -0.40688053
-0.14587367 -0.26949999 -0.40688065
-0.145605 -0.26955003 -0.406827
-0.14548266 -0.26946798 -0.40682164
-0.145209 -0.269454 -0.406804
-0.144411 -0.26941299 -0.406804
-0.144251 -0.26942 -0.40680301
-0.14414701 -0.26946402 -0.40680599
-0.143769 -0.26944101 -0.40680301
-0.134801 -0.26944801 -0.40680501
-0.13467066 -0.26951668 -0.40684366
-0.134451 -0.26951933 -0.40692535
-0.134258 -0.26959401 -0.406993
-0.14904 -0.26929849 -0.40699202
-0.14887001 -0.26934499 -0.40699801
-0.14873441 -0.26928884 -0.40698975
-0.14841866 -0.26928401 -0.4069837
-0.14823779 -0.26931378 -0.4069764
-0.14809032 -0.26930881 -0.40698162
-0.14790601 -0.26929924 -0.406977
-0.14773117 -0.26932132 -0.40696716
-0.14758751 -0.26929 -0.406982
-0.14728825 -0.269308 -0.40691802
-0.14711499 -0.26930824 -0.4069151
-0.14699399 -0.269256 -0.40691149
-0.14676432 -0.26930097 -0.40690398
-0.14644982 -0.26930967 -0.40690315
-0.14628342 -0.26932532 -0.40690774
-0.1461315 -0.26929602 -0.40690219
-0.145861 -0.26927865 -0.40689501
-0.14550216 -0.26929453 -0.4068383
-0.14528117 -0.26930448 -0.40681335
-0.1451714 -0.26929122 -0.40682441
-0.14489201 -0.26925001 -0.40680248
-0.14470966 -0.26927534 -0.406811
-0.1444875 -0.26929799 -0.40681586
-0.144245 -0.26930648 -0.4068155
-0.14410719 -0.26925161 -0.40681419
-0.14395675 -0.26925048 -0.40681401
-0.14376134 -0.269292 -0.40680933
-0.14347599 -0.26923499 -0.40682
-0.14330101 -0.26927602 -0.40680599
-0.143186 -0.269245 -0.40680599
-0.13487667 -0.26929367 -0.40681365
-0.13470167 -0.26929277 -0.40687215
-0.13443899 -0.2693305 -0.40697151
-0.148691 -0.269126 -0.40700001
-0.148103 -0.26915899 -0.406995
-0.14799249 -0.26913148 -0.406968
-0.14773001 -0.26911381 -0.40698299
-0.14757766 -0.26910499 -0.40698934
-0.14727716 -0.26912197 -0.40694579
-0.14713299 -0.26911852 -0.40694675
-0.14698601 -0.26911002 -0.406912
-0.146752 -0.269079 -0.40691867
-0.14648099 -0.269086 -0.40693298
-0.14632022 -0.26908988 -0.40693066
-0.14612079 -0.26911044 -0.40692255
-0.14585 -0.26909298 -0.40691751
-0.14552067 -0.26911798 -0.40687498
-0.14529414 -0.26907927 -0.40685743
-0.14516351 -0.26908186 -0.40685317
-0.14488201 -0.26909867 -0.40684569
-0.14471349 -0.26910016 -0.40684536
-0.14451817 -0.2691097 -0.40684935
-0.14431334 -0.2691175 -0.40684417
-0.14407951 -0.26909718 -0.40683413
-0.14394824 -0.2691015 -0.40683752
-0.14374951 -0.26910502 -0.406845
-0.14346699 -0.269086 -0.40684101
-0.14325899 -0.26909217 -0.40681532
-0.14316474 -0.269081 -0.40681049
-0.142876 -0.26907098 -0.40680364
-0.14255901 -0.26905599 -0.40680701
-0.142105 -0.26900801 -0.40681201
-0.14195301 -0.26901701 -0.406804
-0.134865 -0.269106 -0.406854
-0.13470781 -0.26911259 -0.40690762
-0.134598 -0.26906201 -0.40696201
-0.14726366 -0.26889798 -0.40698084
-0.1471087 -0.26892701 -0.40697598
-0.14697467 -0.26892301 -0.40694568
-0.1467405 -0.2688925 -0.40695
-0.14647001 -0.26890099 -0.40695602
-0.14630949 -0.26890433 -0.40695319
-0.14609937 -0.26889661 -0.40696362
-0.14583834 -0.26890531 -0.40695867
-0.145567 -0.26891634 -0.40692067
-0.145318 -0.26890427 -0.40691426
-0.145151 -0.268893 -0.40691
-0.14486974 -0.2689105 -0.40689647
-0.14469159 -0.26889038 -0.40689641
-0.14450367 -0.26888415 -0.40690064
-0.14429949 -0.26889265 -0.40688384
-0.14406745 -0.26890901 -0.40687782
-0.14393634 -0.26891384 -0.40687868
-0.14373733 -0.26891634 -0.40689501
-0.14345551 -0.26889801 -0.40687299
-0.1432475 -0.26890576 -0.40684652
-0.14309181 -0.26888493 -0.40683752
-0.14285234 -0.26889715 -0.40682635
-0.14266433 -0.26885033 -0.406822
-0.1425066 -0.26889479 -0.40683359
-0.14232078 -0.2689074 -0.40681344
-0.1420985 -0.268897 -0.40682948
-0.14187475 -0.26890627 -0.406831
-0.14166451 -0.2688385 -0.40681949
-0.14147499 -0.26881301 -0.40680751
-0.13529851 -0.26882249 -0.40682399
-0.13491684 -0.26891649 -0.40687016
-0.13472183 -0.26891801 -0.40694034
-0.134591 -0.26894897 -0.40698901
-0.14705899 -0.26876399 -0.40699199
-0.14696249 -0.26873499 -0.406986
-0.1467315 -0.26874298 -0.40697902
-0.1464605 -0.2687515 -0.406984
-0.1463 -0.26877224 -0.40698799
-0.14609934 -0.26876166 -0.406986
-0.145556 -0.26876399 -0.406984
-0.14528251 -0.26870924 -0.40697396
-0.14513816 -0.26870367 -0.40696716
-0.14485832 -0.2687228 -0.40693697
-0.14469782 -0.268709 -0.40693599
-0.14449225 -0.26869699 -0.40694001
-0.14428701 -0.268704 -0.406937
-0.1440521 -0.26868236 -0.40694797
-0.14392017 -0.26868534 -0.4069595
-0.14372301 -0.26869032 -0.40695432
-0.14344299 -0.26870999 -0.40692768
-0.14324281 -0.2687324 -0.4068934
-0.14309961 -0.26870057 -0.40689048
-0.14285399 -0.26872098 -0.40687564
-0.14269559 -0.26870379 -0.40686521
-0.14248249 -0.2686837 -0.40688884
-0.142298 -0.2686955 -0.40687168
-0.142086 -0.26870668 -0.40688238
-0.14193167 -0.26871166 -0.40691701
-0.14171101 -0.26871225 -0.40688166
-0.1414675 -0.26869801 -0.40684849
-0.14133 -0.26867399 -0.40680999
-0.14107299 -0.26865602 -0.406836
-0.140892 -0.26864451 -0.40682799
-0.140709 -0.26863152 -0.40682399
-0.140063 -0.268635 -0.40682697
-0.13988499 -0.26864567 -0.4068335
-0.139733 -0.26861599 -0.40681899
-0.13569349 -0.26869398 -0.40682799
-0.13547425 -0.2686995 -0.40683401
-0.13529025 -0.2687085 -0.40685952
-0.13490234 -0.26868984 -0.4069235
-0.13472533 -0.26874101 -0.40698668
-0.145106 -0.268554 -0.40698999
-0.14484799 -0.26857099 -0.40698099
-0.14467999 -0.26857299 -0.406975
-0.14448199 -0.26854524 -0.40698397
-0.14435649 -0.26854849 -0.40698299
-0.144199 -0.26859301 -0.40698099
-0.143433 -0.268558 -0.40697601
-0.1432545 -0.26852649 -0.406959
-0.14310615 -0.26850745 -0.40694979
-0.14291839 -0.26850122 -0.40694118
-0.14270036 -0.26852056 -0.40693134
-0.14247 -0.26849449 -0.40694401
-0.14228401 -0.26850376 -0.40695399
-0.1420715 -0.26851499 -0.40697402
-0.14192 -0.26855701 -0.40698701
-0.141701 -0.26851767 -0.40695083
-0.14148927 -0.26849562 -0.40692437
-0.14131801 -0.26851869 -0.40689135
-0.1410625 -0.26850399 -0.40689301
-0.14089982 -0.26851234 -0.40686584
-0.14069949 -0.26848015 -0.40686986
-0.14049 -0.26849732 -0.40684465
-0.140293 -0.26850298 -0.40684998
-0.140081 -0.26851577 -0.40688002
-0.13989156 -0.26848653 -0.40689516
-0.13967749 -0.26850152 -0.40685451
-0.13610832 -0.26843765 -0.40681967
-0.13591 -0.268426 -0.40684
-0.13568099 -0.26850367 -0.40688267
-0.13546117 -0.26850817 -0.40689835
-0.13527784 -0.26851901 -0.40691712
-0.13495299 -0.26849902 -0.406959
-0.14292151 -0.26836249 -0.406993
-0.14268999 -0.26836899 -0.40698466
-0.142462 -0.268381 -0.406986
-0.14232001 -0.268388 -0.406991
-0.14140099 -0.268356 -0.406964
-0.1413255 -0.26828748 -0.40697774
-0.14105 -0.26831433 -0.40694368
-0.14088733 -0.26832268 -0.40691432
-0.14068699 -0.26829201 -0.40691549
-0.1404765 -0.26830602 -0.40692002
-0.1402795 -0.26831251 -0.40691501
-0.140092 -0.26828369 -0.40695867
-0.13992478 -0.26829898 -0.40696409
-0.13970788 -0.26830974 -0.40692335
-0.13906601 -0.26824099 -0.406813
-0.137826 -0.26826599 -0.406818
-0.137541 -0.26820201 -0.40680599
-0.1364235 -0.2682825 -0.406876
-0.136287 -0.268291 -0.40686053
-0.13611624 -0.268296 -0.40687674
-0.135901 -0.26830798 -0.40691
-0.13566801 -0.26831251 -0.406948
-0.135497 -0.268314 -0.406966
-0.1353264 -0.26833183 -0.4069832
-0.14104 -0.26816201 -0.40698799
-0.1408886 -0.26814121 -0.40696782
-0.1406765 -0.2681385 -0.40697101
-0.140466 -0.26815403 -0.40697199
-0.14026901 -0.26815951 -0.40697598
-0.139917 -0.26814801 -0.40699801
-0.13967399 -0.26814026 -0.40696949
-0.13905549 -0.26808798 -0.40686148
-0.13886775 -0.26809999 -0.40683749
-0.138721 -0.26809499 -0.40682432
-0.13848425 -0.26806024 -0.4068265
-0.13827033 -0.26803532 -0.40683699
-0.13800099 -0.26818499 -0.40682
-0.13788612 -0.2681025 -0.40686238
-0.13768451 -0.26811567 -0.40685847
-0.13749126 -0.2680935 -0.40683901
-0.13727 -0.268069 -0.406809
-0.13708501 -0.26807401 -0.406802
-0.136916 -0.26801899 -0.40680099
-0.136601 -0.26801899 -0.40683299
-0.13646685 -0.26809916 -0.40687001
-0.13627549 -0.26810297 -0.40689266
-0.13610299 -0.26810434 -0.40694603
-0.13589001 -0.268154 -0.40696698
-0.13565899 -0.268197 -0.40700001
-0.139044 -0.26793349 -0.406932
-0.13885318 -0.26790583 -0.40693095
-0.13869248 -0.26791349 -0.40691033
-0.13852498 -0.26790577 -0.40689564
-0.13838601 -0.26788849 -0.40691
-0.138197 -0.26789749 -0.40689301
-0.13790199 -0.26792622 -0.40693599
-0.13770013 -0.26787436 -0.40695664
-0.13747667 -0.26789984 -0.40692735
-0.13725899 -0.26791301 -0.40688369
-0.13707434 -0.267921 -0.40686235
-0.13690501 -0.26790199 -0.40684435
-0.1367255 -0.26790175 -0.40685251
-0.13652059 -0.26791438 -0.40690142
-0.1362896 -0.26790398 -0.4069522
-0.13614701 -0.26795 -0.406984
-0.1386805 -0.26775801 -0.4069885
-0.138505 -0.26776451 -0.40697649
-0.138376 -0.26777101 -0.40697899
-0.138188 -0.26778099 -0.40694699
-0.137972 -0.2678 -0.40699601
-0.13742299 -0.26774901 -0.40699899
-0.137246 -0.26775801 -0.40696901
-0.13705949 -0.26772499 -0.40696502
-0.13689217 -0.26774484 -0.40693566
-0.13671276 -0.26774499 -0.40693799
-0.136553 -0.26776132 -0.40696564
-0.136392 -0.26779199 -0.40699899
-0.141453 -0.29600799 -0.4068
-0.140532 -0.29605499 -0.4068
-0.14035635 -0.29608667 -0.40678534
-0.14227401 -0.29580101 -0.40679899
-0.142143 -0.29580551 -0.40678599
-0.1419345 -0.29585952 -0.40678701
-0.14173749 -0.29586649 -0.40677798
-0.14148234 -0.29587832 -0.40678966
-0.14112425 -0.29590848 -0.40678751
-0.14052533 -0.29590568 -0.40677533
-0.14030588 -0.29590914 -0.40677986
-0.140126 -0.295854 -0.40679699
-0.1398675 -0.29590201 -0.40678599
-0.139676 -0.29587299 -0.40678599
-0.14274999 -0.29562101 -0.406791
-0.142497 -0.29564601 -0.4068
-0.14233713 -0.29570299 -0.40677887
-0.14213826 -0.29569352 -0.40676451
-0.14192751 -0.29571003 -0.406764
-0.14172967 -0.29568002 -0.40673634
-0.14149217 -0.29570284 -0.40675953
-0.14131263 -0.29570886 -0.4067809
-0.14111601 -0.29572317 -0.40675935
-0.14051567 -0.29568335 -0.4067367
-0.140286 -0.29569745 -0.40675724
-0.14007549 -0.29570553 -0.40676752
-0.13990016 -0.29571751 -0.40677431
-0.139669 -0.29572603 -0.40676633
-0.139447 -0.29560599 -0.40677801
-0.142838 -0.29546601 -0.40678301
-0.14274549 -0.29550898 -0.40677202
-0.142491 -0.29549667 -0.40676263
-0.14232734 -0.29550168 -0.40674412
-0.1421295 -0.29550865 -0.40674019
-0.14191933 -0.295526 -0.406739
-0.1417205 -0.29549599 -0.40672702
-0.14147201 -0.29549658 -0.40673321
-0.14130367 -0.29549468 -0.40674216
-0.14110567 -0.29550084 -0.40672532
-0.14050651 -0.29549748 -0.40671301
-0.1403088 -0.29548761 -0.4067212
-0.14010888 -0.29548177 -0.40673608
-0.13988949 -0.29549548 -0.40675083
-0.13965799 -0.29550433 -0.40675235
-0.139442 -0.29549348 -0.40675351
-0.139329 -0.29546401 -0.406791
-0.1444145 -0.29527652 -0.40679252
-0.144117 -0.295286 -0.40679801
-0.143887 -0.2952615 -0.406793
-0.14370474 -0.29530901 -0.40678599
-0.143334 -0.29522401 -0.40679601
-0.14304334 -0.295259 -0.40679169
-0.14286439 -0.29530138 -0.40676337
-0.14273702 -0.295324 -0.40674034
-0.1424835 -0.29530901 -0.40671802
-0.14231755 -0.29527843 -0.40670079
-0.14211935 -0.29528582 -0.4067055
-0.14190933 -0.29530299 -0.40670133
-0.14171267 -0.29530966 -0.40669736
-0.1414856 -0.29531521 -0.40669817
-0.14128457 -0.29529443 -0.40671882
-0.14109617 -0.29527748 -0.40668151
-0.14049833 -0.29531264 -0.40668765
-0.14031479 -0.29530922 -0.4067038
-0.1401 -0.29529783 -0.40672401
-0.1398716 -0.29528862 -0.40672642
-0.13964701 -0.29528299 -0.40673134
-0.13943399 -0.29530799 -0.40672699
-0.139294 -0.29530182 -0.4067722
-0.139165 -0.29524601 -0.40679401
-0.14443433 -0.29506615 -0.40677667
-0.14427251 -0.29506248 -0.406791
-0.14408271 -0.29509071 -0.40677801
-0.14388034 -0.29511419 -0.40677449
-0.14369616 -0.2951245 -0.40676185
-0.143482 -0.295104 -0.406784
-0.143328 -0.29507568 -0.40676269
-0.14309511 -0.29508457 -0.40676999
-0.14286333 -0.29509398 -0.40673468
-0.14272767 -0.2951 -0.40669236
-0.14247499 -0.29512501 -0.40669033
-0.14230883 -0.29509351 -0.4066802
-0.14211075 -0.29510152 -0.40668499
-0.14189933 -0.29508004 -0.40666166
-0.141702 -0.29508799 -0.40667
-0.14146416 -0.29511169 -0.40669599
-0.14129537 -0.29511327 -0.40667278
-0.141087 -0.29509377 -0.40666676
-0.14048801 -0.295091 -0.40665832
-0.14029799 -0.29510266 -0.40667632
-0.14010249 -0.29512212 -0.40670261
-0.13989915 -0.29510102 -0.40671816
-0.1396385 -0.29509902 -0.40671399
-0.139423 -0.29508731 -0.40671197
-0.13927732 -0.29509449 -0.40675116
-0.13915867 -0.29509732 -0.40676299
-0.1446515 -0.29488599 -0.40678602
-0.14452088 -0.29490525 -0.40677613
-0.1443176 -0.29488802 -0.4067494
-0.144098 -0.29487908 -0.40674722
-0.14386983 -0.29489282 -0.4067525
-0.14368583 -0.29490265 -0.40673232
-0.14347367 -0.29491767 -0.40674233
-0.14331999 -0.29488897 -0.406721
-0.1431046 -0.2949062 -0.4067418
-0.1428705 -0.29488367 -0.40671086
-0.14271733 -0.29487866 -0.40666631
-0.14246434 -0.29490399 -0.40666699
-0.14230067 -0.29490933 -0.40665403
-0.14210249 -0.29491532 -0.40665117
-0.1418905 -0.29489699 -0.40664899
-0.14169401 -0.2949025 -0.40663099
-0.14146599 -0.2949014 -0.40665278
-0.14127655 -0.29490256 -0.40665948
-0.14107834 -0.29490867 -0.40664569
-0.140479 -0.29490602 -0.40665001
-0.1402875 -0.29488119 -0.40665093
-0.1401245 -0.29489067 -0.40667567
-0.13990444 -0.29490277 -0.40670431
-0.13962901 -0.29491535 -0.40670934
-0.139413 -0.29490399 -0.4067125
-0.1392608 -0.29488778 -0.4067238
-0.13910821 -0.29489577 -0.40678257
-0.1448175 -0.29466152 -0.406784
-0.14464299 -0.29470196 -0.40676466
-0.14450575 -0.2947115 -0.4067466
-0.1443352 -0.29471022 -0.40673023
-0.144107 -0.29470199 -0.4067274
-0.14387383 -0.29468283 -0.406737
-0.14367467 -0.29468232 -0.40671918
-0.14346367 -0.29469731 -0.40671965
-0.14331099 -0.2947053 -0.40671468
-0.143122 -0.29471269 -0.4067148
-0.14291999 -0.29472098 -0.40669996
-0.14273867 -0.29468066 -0.40666464
-0.14245366 -0.29468268 -0.40664831
-0.14228944 -0.29468843 -0.40663648
-0.14209233 -0.29469332 -0.40662268
-0.14188166 -0.29471168 -0.40661836
-0.14168534 -0.294718 -0.40661097
-0.14149949 -0.29469502 -0.40662599
-0.1412795 -0.29470369 -0.40662098
-0.14109962 -0.29467821 -0.40663373
-0.14047001 -0.294723 -0.4066287
-0.1402785 -0.29469725 -0.40664151
-0.14011525 -0.29470676 -0.40666747
-0.13989212 -0.29468346 -0.40671137
-0.13961734 -0.29469535 -0.40670934
-0.139405 -0.29475701 -0.40671402
-0.13928716 -0.29470167 -0.40673497
-0.13908824 -0.29469848 -0.40678576
-0.146257 -0.294411 -0.4068
-0.14609399 -0.29442748 -0.40679649
-0.14581101 -0.294429 -0.406793
-0.145731 -0.29446399 -0.4067955
-0.14553633 -0.294462 -0.40678737
-0.145372 -0.29445401 -0.40679401
-0.14480899 -0.29447731 -0.40676165
-0.14463267 -0.29448 -0.40673497
-0.144495 -0.29449067 -0.40672979
-0.14431234 -0.29450434 -0.40671232
-0.14412366 -0.29450998 -0.40671217
-0.14394818 -0.29451683 -0.40672716
-0.1437095 -0.294496 -0.40670648
-0.143452 -0.29447734 -0.40672335
-0.14329967 -0.29448566 -0.40670332
-0.14311151 -0.29449216 -0.4066948
-0.14292867 -0.29449901 -0.40668201
-0.142746 -0.29450801 -0.40665519
-0.142444 -0.29449901 -0.40663749
-0.14228325 -0.29452151 -0.40661475
-0.14208224 -0.2944915 -0.40660399
-0.14187066 -0.29449201 -0.40661368
-0.1414925 -0.2945475 -0.406609
-0.141259 -0.294496 -0.40661299
-0.14110218 -0.29450235 -0.40661749
-0.14045833 -0.2945033 -0.40663171
-0.14026916 -0.29451367 -0.40663078
-0.14010583 -0.29452351 -0.40666032
-0.13992575 -0.29449722 -0.4067075
-0.13968261 -0.2944864 -0.40670601
-0.13929567 -0.29450491 -0.40672266
-0.13907917 -0.29451466 -0.40677619
-0.1466978 -0.2942948 -0.4067924
-0.14652041 -0.29428619 -0.40679222
-0.1462515 -0.29430002 -0.40679199
-0.1461056 -0.29430521 -0.40678281
-0.14586583 -0.29428685 -0.40677866
-0.14572133 -0.29428169 -0.40679231
-0.14548413 -0.29428601 -0.40678126
-0.14531849 -0.29425251 -0.40678596
-0.14507701 -0.29424199 -0.406793
-0.144802 -0.29433101 -0.40674901
-0.14468133 -0.29428235 -0.40673065
-0.14447755 -0.29429579 -0.40670565
-0.14430185 -0.29428264 -0.4066852
-0.14411317 -0.29428986 -0.40669766
-0.14393783 -0.29429564 -0.40670601
-0.14369999 -0.29431266 -0.40670398
-0.14344251 -0.29429349 -0.40671301
-0.14329 -0.29430199 -0.4066965
-0.14310199 -0.29430872 -0.40669051
-0.1429175 -0.2942785 -0.40667298
-0.14273533 -0.29428735 -0.40663517
-0.142435 -0.29431534 -0.40663001
-0.14227666 -0.29431966 -0.40661299
-0.1420735 -0.29432702 -0.4066065
-0.1418615 -0.29430699 -0.40660301
-0.14126474 -0.294294 -0.40661424
-0.14111872 -0.2943297 -0.40662327
-0.14099801 -0.294287 -0.40663299
-0.14044601 -0.29428399 -0.40663901
-0.14025749 -0.29429469 -0.40663418
-0.14009501 -0.29430285 -0.40664983
-0.13991667 -0.294314 -0.40669361
-0.13978766 -0.29432201 -0.40670666
-0.13959751 -0.29429099 -0.40668702
-0.13929613 -0.29429203 -0.40669399
-0.13908657 -0.29428187 -0.40675244
-0.13888219 -0.29429501 -0.40679222
-0.148303 -0.29400501 -0.40678701
-0.14689399 -0.29400799 -0.4068
-0.14667882 -0.29408866 -0.40677318
-0.14651024 -0.2940855 -0.40677586
-0.14624234 -0.29411599 -0.40677735
-0.1461225 -0.2941125 -0.40676668
-0.14593716 -0.29411998 -0.40676734
-0.14575425 -0.29409575 -0.40675676
-0.14547484 -0.294099 -0.40676418
-0.14531463 -0.29407856 -0.40676069
-0.14506966 -0.29409298 -0.406773
-0.14470266 -0.29411098 -0.40672502
-0.14449181 -0.29412007 -0.40670037
-0.14431399 -0.29409221 -0.40667599
-0.144104 -0.2941055 -0.40668073
-0.14391801 -0.294092 -0.40670863
-0.1437 -0.29410148 -0.4066993
-0.14347474 -0.29408848 -0.40669775
-0.143281 -0.29411867 -0.4066917
-0.14309333 -0.29412466 -0.40667269
-0.1429085 -0.29409501 -0.40665975
-0.142726 -0.29410449 -0.40662774
-0.14242399 -0.29409531 -0.4066143
-0.14228025 -0.29411873 -0.40660399
-0.14202 -0.294182 -0.406602
-0.14184999 -0.29408848 -0.40660551
-0.141468 -0.29407099 -0.40660399
-0.14126399 -0.29410839 -0.4066202
-0.1411265 -0.29409948 -0.40662119
-0.14098866 -0.29410434 -0.40663466
-0.14043701 -0.29410151 -0.40663999
-0.1402396 -0.29408941 -0.40662861
-0.140083 -0.29408401 -0.40665582
-0.13990532 -0.294094 -0.40669152
-0.13977666 -0.29410169 -0.40669537
-0.139588 -0.29410735 -0.40667465
-0.13931724 -0.29409873 -0.40668675
-0.13908914 -0.2940926 -0.40674186
-0.13886316 -0.29409048 -0.40678751
-0.138638 -0.29402801 -0.40679801
-0.1483552 -0.2939122 -0.40678644
-0.14806551 -0.29390448 -0.40679348
-0.1477236 -0.29383761 -0.40679139
-0.147559 -0.29381499 -0.40679899
-0.1473515 -0.29387701 -0.40678501
-0.1471625 -0.29388899 -0.406789
-0.14688951 -0.29389799 -0.406782
-0.14667025 -0.29390475 -0.40675476
-0.14650233 -0.29390982 -0.40674165
-0.14623266 -0.29389399 -0.4067367
-0.14611234 -0.29389119 -0.40673816
-0.145926 -0.29390052 -0.40675783
-0.1457445 -0.29391348 -0.40675485
-0.14550158 -0.29391 -0.4067564
-0.14531274 -0.29390198 -0.40675151
-0.145061 -0.29390901 -0.406753
-0.1447102 -0.29390478 -0.40670881
-0.14450182 -0.2938903 -0.40668911
-0.14431956 -0.293917 -0.40667355
-0.14409433 -0.29392299 -0.40668568
-0.1439262 -0.29391581 -0.406708
-0.1437128 -0.29388756 -0.40669924
-0.14350617 -0.29388434 -0.40669465
-0.14326967 -0.29390001 -0.4066827
-0.14308216 -0.29390499 -0.40666583
-0.14289884 -0.29391232 -0.4066585
-0.14271651 -0.29392132 -0.40662363
-0.142415 -0.29391098 -0.40660548
-0.14184 -0.29390702 -0.406618
-0.14164099 -0.29387701 -0.40660799
-0.14145933 -0.29392633 -0.40661466
-0.14122701 -0.29387501 -0.40660965
-0.14111532 -0.29387966 -0.40661064
-0.14097767 -0.29388466 -0.40662265
-0.14042699 -0.293919 -0.40663835
-0.14025575 -0.29392725 -0.4066295
-0.1400988 -0.29389259 -0.40664744
-0.1398862 -0.29388902 -0.40667921
-0.13976566 -0.29388165 -0.40668735
-0.13957734 -0.29388633 -0.40665531
-0.13930833 -0.2939145 -0.40667033
-0.13912158 -0.29392201 -0.4067103
-0.13886917 -0.29388067 -0.40678251
-0.13863166 -0.293881 -0.40678033
-0.14832541 -0.29369378 -0.40677661
-0.14805634 -0.29372165 -0.40678266
-0.147659 -0.29369748 -0.40677449
-0.1474836 -0.29369378 -0.40679461
-0.14734299 -0.29369199 -0.40675867
-0.14715333 -0.293704 -0.40678033
-0.14688067 -0.29371536 -0.40676832
-0.14666133 -0.29372099 -0.40673551
-0.14649357 -0.293726 -0.40672764
-0.14622167 -0.29367504 -0.40672934
-0.14610276 -0.2937085 -0.406735
-0.14592579 -0.29369599 -0.4067626
-0.14573249 -0.29369518 -0.40676931
-0.14548016 -0.29370651 -0.40676117
-0.14530292 -0.29371917 -0.40675285
-0.14505135 -0.29372501 -0.40674964
-0.1447715 -0.29370549 -0.40669399
-0.1444979 -0.29369253 -0.40668344
-0.14430821 -0.29369676 -0.40666756
-0.14408283 -0.29370412 -0.40668264
-0.1439075 -0.29371014 -0.40669051
-0.14372179 -0.2937102 -0.40668583
-0.14349574 -0.29370224 -0.406703
-0.14325899 -0.29367933 -0.40666601
-0.14307101 -0.29368484 -0.4066495
-0.14288783 -0.29369199 -0.40664384
-0.14270534 -0.2937015 -0.40661368
-0.14182867 -0.29368767 -0.40660766
-0.141636 -0.29376799 -0.40660101
-0.141452 -0.29378 -0.40660301
-0.1412175 -0.29369199 -0.40661049
-0.1411055 -0.293697 -0.40661126
-0.14096799 -0.29370099 -0.40662301
-0.140416 -0.293699 -0.4066337
-0.14026266 -0.29370531 -0.40662131
-0.14010654 -0.29371545 -0.40663868
-0.1398948 -0.29371178 -0.40667337
-0.1397565 -0.29369801 -0.40667552
-0.13956749 -0.29370302 -0.406661
-0.13929717 -0.2936942 -0.40665832
-0.13913083 -0.29369965 -0.40667817
-0.13891856 -0.29371572 -0.40676442
-0.13868099 -0.29368332 -0.40677801
-0.14832334 -0.29348883 -0.40678501
-0.148045 -0.29350165 -0.40677431
-0.14769143 -0.29351488 -0.40677744
-0.14749242 -0.29352757 -0.40678802
-0.1473345 -0.2935085 -0.40674049
-0.14714234 -0.29348466 -0.40676937
-0.14686933 -0.29349533 -0.40675831
-0.14664967 -0.29350135 -0.40673497
-0.14648201 -0.29350698 -0.40672734
-0.146213 -0.29349101 -0.406708
-0.14609367 -0.29352516 -0.40672252
-0.1459045 -0.29350001 -0.40676853
-0.14573021 -0.29348981 -0.40676159
-0.14546917 -0.29348665 -0.40674484
-0.14530073 -0.29350501 -0.40673095
-0.14508 -0.29348701 -0.40673825
-0.14476134 -0.29352298 -0.40670535
-0.1445096 -0.29351568 -0.4066878
-0.14434816 -0.29347467 -0.40665135
-0.14411232 -0.29348364 -0.40667957
-0.14389567 -0.29349133 -0.40669647
-0.14370149 -0.29350665 -0.40669736
-0.14350501 -0.29353219 -0.40668958
-0.143299 -0.29348132 -0.40667498
-0.14306201 -0.29350099 -0.406643
-0.14286719 -0.29348761 -0.40663958
-0.1427165 -0.29346251 -0.40662202
-0.14227301 -0.29349574 -0.40660751
-0.14216299 -0.29351869 -0.406607
-0.141819 -0.293504 -0.40660951
-0.141616 -0.29340199 -0.40660799
-0.14109649 -0.29351401 -0.40660799
-0.140958 -0.29351801 -0.40662298
-0.14040466 -0.293479 -0.40662399
-0.140251 -0.293486 -0.40662265
-0.14009544 -0.2934961 -0.40663433
-0.13987499 -0.29350767 -0.40667853
-0.13974701 -0.29351366 -0.40666565
-0.139558 -0.29352102 -0.40665999
-0.1392754 -0.29349041 -0.40666479
-0.139119 -0.29348066 -0.40668812
-0.13892716 -0.29349315 -0.40674868
-0.13870101 -0.29351184 -0.40678069
-0.14850999 -0.29327124 -0.40679628
-0.14831425 -0.29330677 -0.40677902
-0.14803366 -0.29328302 -0.40677771
-0.14769025 -0.29330498 -0.40678176
-0.14748874 -0.29329151 -0.40679589
-0.14732434 -0.29332665 -0.40674767
-0.14713299 -0.293302 -0.40676349
-0.14685801 -0.29327667 -0.40676299
-0.14668299 -0.29328001 -0.40673134
-0.14650117 -0.29328728 -0.40673062
-0.14620501 -0.29334497 -0.40671399
-0.14609887 -0.29329571 -0.4067207
-0.14589651 -0.29331481 -0.4067328
-0.1457054 -0.29331356 -0.40674442
-0.1454595 -0.293304 -0.40674701
-0.1453111 -0.29327691 -0.40671647
-0.14511083 -0.2932848 -0.40673098
-0.14474966 -0.29330468 -0.40670934
-0.14448817 -0.29331249 -0.40669343
-0.1443385 -0.29329327 -0.40666103
-0.1441025 -0.29330167 -0.40668735
-0.14387661 -0.29328761 -0.4066948
-0.14369033 -0.29328719 -0.4066948
-0.14355899 -0.29329336 -0.40669131
-0.14331567 -0.29330984 -0.4066793
-0.14305151 -0.29331982 -0.40665582
-0.1428784 -0.29331002 -0.40663537
-0.142684 -0.29330024 -0.40662524
-0.14229614 -0.29328591 -0.40660924
-0.14212875 -0.29328176 -0.40661123
-0.14189149 -0.29331437 -0.4066135
-0.14161 -0.293293 -0.40660697
-0.14108433 -0.29329535 -0.4066132
-0.140947 -0.29329899 -0.40661633
-0.14031824 -0.2933 -0.40662175
-0.1401 -0.29330015 -0.40662518
-0.1398965 -0.29327726 -0.40666929
-0.139735 -0.29329535 -0.40668333
-0.13954566 -0.29330269 -0.40667233
-0.1392882 -0.29331297 -0.4066588
-0.13910949 -0.2932975 -0.4066875
-0.1389056 -0.29328936 -0.4067634
-0.1387082 -0.29330599 -0.40678081
-0.138596 -0.29322401 -0.406789
-0.14847635 -0.29315633 -0.40679932
-0.14830466 -0.29312366 -0.40677348
-0.14802301 -0.29310101 -0.406791
-0.14769533 -0.29312634 -0.40678969
-0.14749072 -0.29313087 -0.40679619
-0.147312 -0.29310867 -0.40676868
-0.14712299 -0.29312035 -0.406773
-0.14684799 -0.29309401 -0.406773
-0.14667299 -0.293098 -0.40673798
-0.1464915 -0.29310462 -0.40673092
-0.14611077 -0.29308745 -0.40672144
-0.14588533 -0.29309499 -0.40672615
-0.14570333 -0.29310831 -0.40673265
-0.145503 -0.29311499 -0.40674266
-0.14533278 -0.29310602 -0.40673587
-0.14510149 -0.29310051 -0.40671724
-0.14473833 -0.29308367 -0.40669534
-0.1444926 -0.29309911 -0.40669221
-0.14434512 -0.29309866 -0.40667349
-0.1440931 -0.29311848 -0.40668434
-0.1438842 -0.29311121 -0.40670356
-0.14368001 -0.2931045 -0.4067035
-0.14354767 -0.29307401 -0.40669766
-0.14330399 -0.29309016 -0.40667617
-0.143086 -0.29309931 -0.40666965
-0.14290255 -0.29310566 -0.4066537
-0.14267366 -0.29311851 -0.40663448
-0.14228266 -0.2930764 -0.40661702
-0.1420965 -0.29308218 -0.40661868
-0.14196199 -0.293089 -0.40662232
-0.14171879 -0.2931214 -0.4066278
-0.14146176 -0.29310149 -0.40661672
-0.141114 -0.2930747 -0.40662369
-0.140935 -0.2930803 -0.40662369
-0.14030917 -0.29311633 -0.40661415
-0.14014025 -0.29312801 -0.40662149
-0.13988499 -0.29308859 -0.40666804
-0.139723 -0.29307732 -0.40669203
-0.13953333 -0.29308432 -0.40669432
-0.13926549 -0.29311034 -0.40667799
-0.13909984 -0.29311466 -0.40668485
-0.13891658 -0.29311261 -0.40676385
-0.138769 -0.29310599 -0.40678349
-0.13858901 -0.29307535 -0.40678167
-0.14824599 -0.29290935 -0.40678799
-0.14801401 -0.29291931 -0.40679267
-0.14730033 -0.29289067 -0.40677199
-0.147111 -0.29290166 -0.40678266
-0.14683801 -0.29291067 -0.40677369
-0.14666301 -0.29291567 -0.40673831
-0.14648964 -0.29292864 -0.40672973
-0.14639799 -0.292851 -0.406737
-0.14610134 -0.29290435 -0.4067165
-0.14587301 -0.29287633 -0.40673932
-0.1456915 -0.29288885 -0.40673867
-0.14549135 -0.29289699 -0.40674332
-0.14531459 -0.29291165 -0.406739
-0.14509217 -0.29291818 -0.40671799
-0.144729 -0.29290101 -0.40669501
-0.14448471 -0.29289299 -0.40668485
-0.14434046 -0.2928881 -0.40666801
-0.14410602 -0.29291001 -0.40668827
-0.14389674 -0.29289749 -0.40670726
-0.14367001 -0.292923 -0.40671751
-0.14353749 -0.29289201 -0.40670651
-0.14327821 -0.29288679 -0.40667701
-0.14307466 -0.2928817 -0.40666732
-0.14293849 -0.29288515 -0.40667534
-0.14270566 -0.29289776 -0.40664855
-0.14228699 -0.29290098 -0.40662861
-0.1421088 -0.2928924 -0.40662917
-0.14195201 -0.29290599 -0.40663099
-0.14178467 -0.29288504 -0.40664068
-0.1415154 -0.29291201 -0.40663403
-0.141348 -0.29283899 -0.406625
-0.14110182 -0.292916 -0.40661618
-0.14092499 -0.292898 -0.40663001
-0.140374 -0.29289332 -0.40662
-0.14013025 -0.29292575 -0.40660927
-0.13993399 -0.29291451 -0.40664551
-0.13975525 -0.29289252 -0.40669
-0.13952449 -0.29290003 -0.40667599
-0.13928224 -0.29290748 -0.40667778
-0.13911501 -0.29288572 -0.40669435
-0.13889568 -0.29290816 -0.406762
-0.138759 -0.292923 -0.40678665
-0.14800601 -0.29277399 -0.406795
-0.1472905 -0.292707 -0.40676901
-0.14709933 -0.29268301 -0.40678331
-0.146826 -0.29269269 -0.40678433
-0.146651 -0.2926977 -0.40675166
-0.14649667 -0.292703 -0.40674064
-0.14639001 -0.29270601 -0.40675402
-0.14609134 -0.29272279 -0.40672547
-0.14586276 -0.29269451 -0.40674877
-0.1456805 -0.29270801 -0.40676251
-0.14547901 -0.29267833 -0.40675569
-0.14530267 -0.2926929 -0.40674555
-0.14512099 -0.29271701 -0.40673625
-0.144996 -0.29266599 -0.40674502
-0.14471768 -0.292721 -0.40672669
-0.14448901 -0.29271674 -0.40670487
-0.14432301 -0.29268 -0.40668237
-0.1441115 -0.29268101 -0.4067013
-0.14389601 -0.292687 -0.40671548
-0.143658 -0.29270399 -0.40672585
-0.143527 -0.29271066 -0.40672135
-0.14329819 -0.29271078 -0.40670204
-0.14306501 -0.29269803 -0.40666801
-0.14292824 -0.2927025 -0.40668699
-0.14270552 -0.29268837 -0.40666845
-0.142599 -0.29261199 -0.40665099
-0.14229751 -0.29271218 -0.40665236
-0.14211422 -0.29271734 -0.40664536
-0.14194167 -0.29272369 -0.40664199
-0.141776 -0.29270199 -0.40662
-0.141579 -0.29271001 -0.40662599
-0.14131175 -0.29268673 -0.40662226
-0.14108063 -0.29270089 -0.40662324
-0.14091599 -0.29271433 -0.40662932
-0.14030041 -0.29266199 -0.40661421
-0.14009666 -0.29268917 -0.40661201
-0.13992266 -0.29269552 -0.40664482
-0.13974565 -0.29270935 -0.40668735
-0.139515 -0.292716 -0.40666565
-0.13929901 -0.292705 -0.40666997
-0.13910499 -0.29268414 -0.40668899
-0.13888434 -0.29268783 -0.40675497
-0.13874766 -0.29270366 -0.40678534
-0.13856967 -0.29270998 -0.40678501
-0.14728068 -0.29252565 -0.40677735
-0.147089 -0.292501 -0.40679598
-0.146814 -0.29247466 -0.40678903
-0.14663899 -0.29247868 -0.40676498
-0.14648433 -0.292485 -0.40675512
-0.146378 -0.29248765 -0.40675333
-0.14610314 -0.29251501 -0.40674329
-0.145919 -0.29250884 -0.40674701
-0.14570263 -0.29251364 -0.40676549
-0.1454695 -0.29249603 -0.40676001
-0.14528483 -0.29248121 -0.40675208
-0.14514868 -0.29248035 -0.40675536
-0.14498599 -0.29248402 -0.40675434
-0.144706 -0.29250231 -0.4067367
-0.1444699 -0.29250887 -0.40672901
-0.14432542 -0.29250368 -0.40670684
-0.14410099 -0.29249951 -0.40671974
-0.14393 -0.29250124 -0.40671524
-0.14370851 -0.29249099 -0.40673774
-0.14353575 -0.29247251 -0.40673226
-0.14334799 -0.29250264 -0.4067153
-0.1431255 -0.2925137 -0.40668619
-0.14291848 -0.29252017 -0.40668702
-0.14272825 -0.29249549 -0.40669301
-0.142593 -0.292503 -0.406656
-0.14228551 -0.29249349 -0.40666369
-0.1421019 -0.29249847 -0.40666077
-0.141929 -0.29250634 -0.406661
-0.14176534 -0.29251933 -0.40664336
-0.14156801 -0.29252735 -0.40664399
-0.14127986 -0.29248849 -0.40663475
-0.14110142 -0.29250044 -0.40663642
-0.1409408 -0.29248101 -0.4066442
-0.14030233 -0.292505 -0.40661368
-0.14010902 -0.29249722 -0.40662161
-0.139911 -0.29247582 -0.40664816
-0.13973434 -0.29248932 -0.40668681
-0.139503 -0.29249701 -0.40668166
-0.13928933 -0.292523 -0.40668333
-0.13911501 -0.29250786 -0.40669313
-0.13887501 -0.29250425 -0.4067485
-0.13873601 -0.29248431 -0.40678599
-0.138558 -0.29249033 -0.40678966
-0.14726999 -0.29234397 -0.406795
-0.146806 -0.292328 -0.406795
-0.14662799 -0.29229799 -0.40679199
-0.14647433 -0.29230332 -0.40676597
-0.146368 -0.29230499 -0.406764
-0.14610817 -0.29228666 -0.40675935
-0.14594001 -0.29228851 -0.40675604
-0.14570272 -0.29231256 -0.40677804
-0.1454615 -0.29234999 -0.406771
-0.145289 -0.29230422 -0.406771
-0.1451395 -0.2922965 -0.40674698
-0.1449755 -0.292301 -0.40676701
-0.144693 -0.29228434 -0.40676734
-0.14446513 -0.29229888 -0.40674376
-0.144317 -0.29229778 -0.4067145
-0.1440905 -0.29231766 -0.40673983
-0.14391999 -0.29231998 -0.40673319
-0.1437325 -0.29229724 -0.40675673
-0.1435485 -0.292308 -0.40674451
-0.143336 -0.2922847 -0.4067297
-0.14311317 -0.29229566 -0.40670285
-0.14290632 -0.29230201 -0.40670565
-0.142718 -0.29231319 -0.40670404
-0.14258267 -0.29231966 -0.40666667
-0.14226399 -0.29229 -0.40667683
-0.14208978 -0.29228044 -0.4066771
-0.14191699 -0.29228699 -0.40666699
-0.14175235 -0.29230234 -0.40667602
-0.14155599 -0.29231 -0.40666267
-0.14129372 -0.29231071 -0.40665913
-0.14110699 -0.29230776 -0.40666002
-0.14093901 -0.29227719 -0.40665698
-0.14034301 -0.29230967 -0.40663001
-0.14011411 -0.29232144 -0.4066295
-0.13990051 -0.29229352 -0.40665925
-0.13972449 -0.29230672 -0.4066945
-0.13948999 -0.29228035 -0.40671036
-0.139277 -0.29230431 -0.40670332
-0.13909298 -0.29231021 -0.40671268
-0.13886499 -0.29232165 -0.40675834
-0.138726 -0.29229999 -0.40678599
-0.138549 -0.29230601 -0.40677899
-0.14661901 -0.29211533 -0.40678099
-0.14646399 -0.29214287 -0.40678373
-0.1463595 -0.29216 -0.40678501
-0.14609724 -0.29210502 -0.40678072
-0.14591901 -0.29208639 -0.40678221
-0.145778 -0.29215199 -0.4068
-0.14527112 -0.29211053 -0.40677026
-0.14515622 -0.29209939 -0.40676522
-0.14496601 -0.29211867 -0.40676436
-0.14468199 -0.29210401 -0.40679401
-0.14447451 -0.29210752 -0.40676424
-0.1443195 -0.29208484 -0.40673816
-0.14407884 -0.29209968 -0.40675035
-0.14390799 -0.29210132 -0.40674245
-0.14372216 -0.29211584 -0.40677533
-0.14353867 -0.29212549 -0.40674818
-0.14332551 -0.29210299 -0.40674502
-0.14310066 -0.29207817 -0.40672746
-0.14289434 -0.29208267 -0.40671918
-0.14270635 -0.29209468 -0.40671113
-0.14256966 -0.29210299 -0.40669599
-0.14227481 -0.29211378 -0.40668821
-0.14209621 -0.29210502 -0.40668741
-0.14193667 -0.29209164 -0.40668702
-0.14174034 -0.29208365 -0.406688
-0.141543 -0.29209134 -0.40669069
-0.141307 -0.29211101 -0.4066745
-0.14112878 -0.29212466 -0.40668499
-0.14092875 -0.29209501 -0.40667099
-0.14033033 -0.29209068 -0.40664732
-0.1401021 -0.29210222 -0.4066366
-0.13989051 -0.29211119 -0.40666601
-0.13971417 -0.29212484 -0.40670332
-0.13947999 -0.292097 -0.40671399
-0.139266 -0.29208368 -0.40668431
-0.139092 -0.29209989 -0.40670902
-0.13888668 -0.29210016 -0.40674999
-0.1387365 -0.29209676 -0.40678826
-0.13854 -0.29216099 -0.406793
-0.14661101 -0.29196799 -0.406793
-0.146449 -0.29197699 -0.40679899
-0.14607666 -0.29197231 -0.40679732
-0.14596401 -0.2919223 -0.40678069
-0.14526866 -0.29191616 -0.40678331
-0.14515151 -0.29189602 -0.40678498
-0.1449555 -0.29193801 -0.406789
-0.14446384 -0.29192567 -0.40678883
-0.1442975 -0.29188338 -0.40676728
-0.14406534 -0.29188135 -0.40678334
-0.14389533 -0.29188284 -0.40676451
-0.14371067 -0.29189685 -0.40678287
-0.14352651 -0.29190668 -0.40676498
-0.143315 -0.291922 -0.40676466
-0.1430905 -0.29189551 -0.40673923
-0.14288375 -0.29190248 -0.40673876
-0.14269365 -0.29187617 -0.406737
-0.14255701 -0.29188499 -0.40672365
-0.1422642 -0.2919246 -0.40670282
-0.14212213 -0.29190531 -0.40670985
-0.14194232 -0.291922 -0.40670201
-0.141729 -0.29190248 -0.406717
-0.141533 -0.2919085 -0.406699
-0.141295 -0.29189268 -0.4066855
-0.14111711 -0.29190555 -0.40669113
-0.14091884 -0.29191253 -0.40668437
-0.14032 -0.291908 -0.406663
-0.14009011 -0.29188377 -0.40665078
-0.139879 -0.29189131 -0.40666953
-0.13970217 -0.29190534 -0.4067103
-0.13947067 -0.29191336 -0.40671167
-0.13925651 -0.29190099 -0.40668201
-0.13911149 -0.29190651 -0.40670624
-0.13893279 -0.29189119 -0.406744
-0.13876951 -0.29190823 -0.40678474
-0.14595599 -0.29177701 -0.406795
-0.14522566 -0.29167566 -0.40678632
-0.1451468 -0.29169121 -0.40679699
-0.14448801 -0.291778 -0.40679401
-0.14426339 -0.29171258 -0.40678221
-0.14401799 -0.29173601 -0.40679401
-0.14389966 -0.29171363 -0.40678898
-0.143647 -0.29171899 -0.40679049
-0.1435058 -0.29170379 -0.40678582
-0.14330266 -0.29170331 -0.40678468
-0.14307983 -0.29171386 -0.40676287
-0.142873 -0.29172 -0.40675566
-0.14268276 -0.291695 -0.406764
-0.142547 -0.29170197 -0.406728
-0.14229232 -0.29168966 -0.40671733
-0.14212768 -0.29169667 -0.40672857
-0.14193051 -0.29170182 -0.40671
-0.14171867 -0.29172066 -0.40673566
-0.141524 -0.29172668 -0.40669668
-0.14127341 -0.2916896 -0.40669361
-0.14110534 -0.29168656 -0.40669343
-0.14090683 -0.29169348 -0.40669167
-0.14030999 -0.29172632 -0.406672
-0.1400958 -0.29170781 -0.40666342
-0.139883 -0.29168382 -0.40666535
-0.13969149 -0.29168466 -0.40669617
-0.13946001 -0.2916933 -0.40669236
-0.139247 -0.29171732 -0.40668634
-0.13910185 -0.29172418 -0.40670899
-0.13894299 -0.29171401 -0.40673342
-0.13873599 -0.2916725 -0.40678
-0.14423999 -0.291547 -0.40679201
-0.143922 -0.29159099 -0.40679699
-0.143462 -0.291545 -0.40679601
-0.143291 -0.291484 -0.40679133
-0.14310375 -0.29151249 -0.40678373
-0.14289476 -0.29149097 -0.40676463
-0.14267316 -0.29151183 -0.40676117
-0.142537 -0.29152036 -0.40674233
-0.14228299 -0.2915065 -0.40671301
-0.14211553 -0.29147789 -0.40674186
-0.14191784 -0.29148385 -0.40673018
-0.141706 -0.29150268 -0.40676001
-0.14151032 -0.291509 -0.40673602
-0.1412842 -0.29151183 -0.40671641
-0.141095 -0.29150382 -0.406708
-0.1408864 -0.29148859 -0.40669361
-0.14029799 -0.29150733 -0.406679
-0.14010935 -0.29151669 -0.40667185
-0.13991401 -0.29151613 -0.40667439
-0.13968149 -0.29150248 -0.40670201
-0.13944733 -0.29147568 -0.40671667
-0.139235 -0.29149866 -0.40669632
-0.13909 -0.29150385 -0.40671083
-0.1389225 -0.29150966 -0.4067415
-0.138749 -0.29152426 -0.406789
-0.14289474 -0.29129076 -0.40678364
-0.14266084 -0.29129335 -0.40678132
-0.14252466 -0.2913017 -0.40675303
-0.142272 -0.29132465 -0.40674067
-0.142106 -0.29129466 -0.40673864
-0.14190775 -0.29130077 -0.40673652
-0.14169499 -0.29128298 -0.40675068
-0.141499 -0.29128933 -0.40672997
-0.14126267 -0.29130885 -0.40671954
-0.14108557 -0.29132167 -0.40670934
-0.14089619 -0.2913132 -0.40669498
-0.140286 -0.29128766 -0.40669033
-0.1400975 -0.291298 -0.40668467
-0.1399025 -0.291316 -0.40669236
-0.13968928 -0.29130831 -0.40671673
-0.13943699 -0.29129398 -0.40674198
-0.13922299 -0.29127935 -0.40670133
-0.1390775 -0.2912865 -0.40673718
-0.13891101 -0.29128984 -0.40673804
-0.142682 -0.29108739 -0.40679398
-0.14251199 -0.29108366 -0.40676937
-0.14226067 -0.29110599 -0.406746
-0.14209634 -0.29111201 -0.40673733
-0.14189866 -0.29111868 -0.40673149
-0.14168501 -0.29110101 -0.406753
-0.141489 -0.29110652 -0.40673399
-0.14127825 -0.29110426 -0.40673
-0.14109553 -0.29109547 -0.40672237
-0.1408755 -0.29110882 -0.406703
-0.14027551 -0.29110599 -0.40671
-0.14008518 -0.29107949 -0.40669098
-0.13992299 -0.29108682 -0.40669653
-0.13970301 -0.29109848 -0.406728
