0.147052 0.0178404 0.988968 0
0.153376 0.0233316 0.987892 0
-0.0678159 0.0322869 0.997175 0.0303296
-0.0565856 0.0321223 0.997881 0.00573158
-0.0599709 0.0374857 0.997496 0.0245748
-0.060019 0.0179114 0.998037 0.0129396
-0.0630452 0.0277743 0.997624 0.0168113
-0.060286 0.0288601 0.997764 0.0224531
-0.0587675 0.0554986 0.996728 0.0129413
-0.0594852 0.0297812 0.997785 0.0108813
-0.0588634 0.0292793 0.997837 0.0194308
-0.0530468 0.0435948 0.99764 0.00733949
-0.0510487 0.0353315 0.998071 0.0023407
-0.0414067 0.0340482 0.998562 0.00748687
-0.0336951 0.0502071 0.99817 0.00787481
-0.0306877 0.0474771 0.998401 0.0142255
-0.0190956 0.0376859 0.999107 0.0173364
0.110499 0.0185087 0.993704 0
0.130436 0.0180443 0.991293 0
0.142018 0.0113963 0.989798 0
0.14906 0.0123783 0.988751 0
-0.0641191 0.019029 0.997761 0.0349045
-0.0592551 0.0274536 0.997865 0.0250637
-0.0604348 0.0165268 0.998035 0.0265901
-0.0548631 0.0382615 0.997761 0
-0.0573547 0.0356813 0.997716 0.00448654
-0.0576708 0.0265859 0.997982 0.0115412
-0.0582152 0.0394448 0.997524 0.0116543
-0.0628795 0.0161282 0.997891 0.0219178
-0.0608031 0.0278663 0.997761 0.018706
-0.0560305 0.0176323 0.998273 0.021043
-0.0497902 0.0299421 0.998311 0.0152823
-0.0445254 0.0185546 0.998836 0.0142819
-0.0350747 0.0329622 0.998841 0.0179742
-0.0325132 0.0183991 0.999302 0.027807
-0.0248298 0.0112869 0.999628 0.0252099
0.106904 0.0283302 0.993866 0
0.117122 0.0169267 0.992973 0
0.13085 0.0189539 0.991221 0.00327059
0.14039 0.0159962 0.989967 0
0.150165 0.0128517 0.988577 0
-0.0576185 0.035491 0.997708 0
-0.0593271 0.050679 0.996951 0.0046509
-0.0580639 0.0259553 0.997975 0
-0.0575198 0.0206999 0.99813 0.0040537
-0.0631918 0.018553 0.997829 0.0268805
-0.0562655 0.020138 0.998213 0.014194
-0.0529311 0.0194282 0.998409 0.0167004
-0.0480985 0.0118043 0.998773 0.0218619
-0.0432599 0.0164052 0.998929 0.0216954
-0.032911 0.00428775 0.999449 0.0250448
-0.025948 0.0142259 0.999562 0.0196228
-0.0180988 0.0313307 0.999345 0.0291487
-0.00349387 0.0427312 0.999081 0.0098047
0.0060757 0.0409496 0.999143 0.00545298
0.0847383 -0.0041529 0.996395 0.0364027
0.0964582 -0.00114532 0.995336 0.0206934
0.102457 0.0138219 0.994641 0.00906586
0.108714 0.0206499 0.993859 0
0.108442 0.0158461 0.993977 0.0017771
0.123987 0.00690766 0.99226 0
0.135645 -0.00697402 0.990733 0.00341123
0.135299 -0.00593612 0.990787 0
-0.0639264 0.0461397 0.996887 0.00637008
-0.0634584 0.0484825 0.996806 0.00366784
-0.0643654 0.0279632 0.997535 0.030184
-0.0628724 0.0115652 0.997955 0.011837
-0.0633819 0.0139146 0.997892 0.0216172
-0.0647185 0.0094105 0.997859 0.0274493
-0.0620276 0.0068676 0.998051 0.0238209
-0.0572831 -0.00157903 0.998357 0.0241704
-0.049392 0.000136524 0.99878 0.0285049
-0.0425138 0.00506183 0.999083 0.0267863
-0.038728 -0.00281267 0.999246 0.0308058
-0.0295764 0.0107545 0.999505 0.0228291
-0.0154241 0.0247875 0.999574 0.00914145
-0.0061577 0.039108 0.999216 0.00504309
0.00621472 0.049667 0.998747 0
0.0561571 0.0127435 0.998341 0.0177144
0.0857491 0.00428895 0.996308 0.0427811
0.0979586 -0.00221808 0.995188 0.0261249
0.104437 0.00765685 0.994502 0.0147237
0.106811 0.00895892 0.994239 0.0143576
0.112178 -0.00399104 0.99368 0.0204622
0.117997 0.00060901 0.993014 0.0117523
0.133591 0.00415309 0.991028 0.00942209
0.134754 -0.00635728 0.990859 0.0105868
-0.0682001 0.0470577 0.996561 0.00596687
-0.0687089 0.0410613 0.996791 0.0257101
-0.0666399 0.00944628 0.997732 0.0273517
-0.0698759 -0.000154049 0.997556 0.0216066
-0.0718431 0.00158048 0.997415 0.0326141
-0.0618222 0.0068912 0.998063 0.0266181
-0.0529371 -0.00376762 0.998591 0.0314729
-0.0490885 0.004898 0.998782 0.0333663
-0.0402783 0.000253304 0.999188 0.0239038
-0.0359091 -0.00541809 0.99934 0.0177888
-0.0345297 0.0121933 0.999329 0.0215511
-0.0201888 0.0345274 0.9992 0.00614254
-0.0102099 0.0318993 0.999439 0.00361666
0.00157007 0.0365779 0.99933 0.0011283
0.0184027 0.0435456 0.998882 0
0.0537609 0.0312564 0.998065 0.0177665
0.0838406 0.000530996 0.996479 0.0351752
0.10023 -0.00965518 0.994917 0.039803
0.103128 0.00182979 0.994666 0.0238853
0.106449 -0.0105486 0.994262 0.0306435
0.110496 -0.00507767 0.993864 0.0312864
0.118394 -0.00226731 0.992964 0.0284539
0.126148 -0.00564436 0.991995 0.014784
0.140401 -0.00675859 0.990072 0.0182948
-0.0707349 0.0485323 0.996314 0.0172465
-0.0741526 0.0316966 0.996743 0.0187129
-0.0727264 0.008067 0.997319 0.031997
-0.0736326 0.00642517 0.997265 0.0325155
-0.0670276 0.0182571 0.997584 0.0262824
-0.0643876 -0.0118321 0.997855 0.0313602
-0.0528381 -0.00264915 0.9986 0.0227513
-0.0511171 -0.000566065 0.998693 0.0221435
-0.0502351 -0.015635 0.998615 0.0304778
-0.0398523 -0.00175576 0.999204 0.0127771
-0.0323641 0.0174651 0.999324 0
-0.0230651 0.0360192 0.999085 0.00409328
-0.0175755 0.0248029 0.999538 0.00557862
-0.00180612 0.0304377 0.999535 0
0.0129754 0.0467314 0.998823 0
0.0220195 0.0659853 0.997578 0
0.0500596 0.0257783 0.998413 0.0211035
0.0870274 0.00770718 0.996176 0.0335792
0.099434 -0.00945817 0.994999 0.0372676
0.10465 -0.0125733 0.99443 0.0395922
0.113572 -0.00730197 0.993503 0.052646
0.111457 -0.0174379 0.993616 0.0303763
0.116192 -0.0186563 0.993051 0.0281055
0.130334 -0.0136426 0.991376 0.0289024
0.142344 -0.00977752 0.989769 0.0285853
-0.0710691 0.0317544 0.996966 0.0218678
-0.0727832 0.0200667 0.997146 0.0333936
-0.072223 0.00849426 0.997352 0.0288417
-0.0677873 0.00396783 0.997692 0.0290324
-0.0692494 -0.0113255 0.997535 0.0292699
-0.0562882 -0.0134811 0.998324 0.0254658
-0.057302 -0.00880181 0.998318 0.0310619
-0.0508334 -0.00877213 0.998669 0.0192935
-0.0447332 -0.00677027 0.998976 0.0166394
-0.0373822 0.0121227 0.999227 0.00823081
-0.0252117 0.0165773 0.999545 0.00833679
-0.0160265 0.0190769 0.99969 0
-0.00573766 0.0242555 0.999689 0
0.0114551 0.0384452 0.999195 0
0.0229056 0.0513558 0.998418 0
0.0505059 0.0207482 0.998508 0.019504
0.0854162 0.0114927 0.996279 0.00501037
0.0980201 -0.00575771 0.995168 0.0434458
0.105131 -0.0248472 0.994148 0.0594073
0.113448 -0.0243493 0.993245 0.0647474
0.115133 -0.0159304 0.993222 0.049349
0.121632 -0.0159801 0.992447 0.0545393
0.139696 -0.0271256 0.989823 0.0534326
-0.0703893 0.0397631 0.996727 0.0168894
-0.0770636 0.012918 0.996943 0.0462913
-0.0753475 0.00271655 0.997154 0.0408194
-0.0732506 0.00624872 0.997294 0.0335627
-0.0673299 -0.00672412 0.997708 0.0327336
-0.063223 -0.0377987 0.997283 0.0360869
-0.0529743 -0.00805508 0.998563 0.0246965
-0.0507302 -0.00992642 0.998663 0.032028
-0.043127 -0.00725098 0.999043 0.0236067
-0.0404264 0.00697744 0.999158 0.0197882
-0.0271826 0.0117741 0.999561 0.0129691
-0.0182278 -0.00242374 0.999831 0.0095206
-0.00618059 0.0351354 0.999363 0
0.00654408 0.0299676 0.999529 0
0.0194633 0.0377721 0.999097 0
0.0339536 0.0396188 0.998638 0
0.0399191 0.0344816 0.998608 0.00793983
0.0466881 0.0137007 0.998816 0.0203532
0.0539671 0.0222373 0.998295 0.016556
0.0808399 0.00835702 0.996692 0.0185309
0.08882 -0.00983163 0.995999 0.0396282
0.0956815 -0.020779 0.995195 0.0531284
0.106822 -0.0373287 0.993577 0.060016
0.110879 -0.0316132 0.993331 0.0557083
0.121414 -0.039147 0.99183 0.057655
0.132949 -0.0185908 0.990948 0.0622554
-0.0739135 0.0130006 0.99718 0.0425698
-0.0623302 0.0304102 0.997592 0.023632
-0.0616769 0.0187187 0.997921 0.0173726
-0.0576405 -0.00122669 0.998337 0.034607
-0.0498861 0.00268318 0.998751 0.0276445
-0.0469204 0.00281586 0.998895 0.0266166
-0.0437195 -0.00224347 0.999041 0.0225589
-0.0378422 0.0103324 0.99923 0.01287
-0.0288482 0.0175592 0.99943 0.01058
-0.0181889 0.0170914 0.999689 0.0115579
-0.00549297 0.0437133 0.999029 0
0.00216841 0.0447571 0.998996 0
0.0146916 0.0358092 0.999251 0
0.0327707 0.0359195 0.998817 0
0.0382171 0.0271152 0.998901 0.00643814
0.0440493 0.0103968 0.998975 0.0138957
0.0513762 0.0154884 0.998559 0.0216966
0.0514855 0.0176823 0.998517 0.0198465
0.0841933 0.000371304 0.996449 0.0271033
0.0905064 -0.00235295 0.995893 0.0382546
0.0998469 -0.027804 0.994614 0.0564461
0.104806 -0.043116 0.993558 0.0645836
0.108604 -0.0480846 0.992921 0.0669243
0.124414 -0.0445177 0.991231 0.0804731
0.135432 -0.0263871 0.990435 0.0736804
-0.0646182 0.0205061 0.997699 0.0368791
-0.0573911 0.0357745 0.997711 0.0170138
-0.0540534 0.0212565 0.998312 0.0241177
-0.0488361 0.0123028 0.998731 0.0264428
-0.0453597 0.0027893 0.998967 0.0279231
-0.0423218 -0.0023819 0.999101 0.0340354
-0.0347907 0.0191182 0.999212 0.0155151
-0.0276932 0.0302218 0.99916 0.0017803
-0.0144337 0.0282186 0.999498 0
-0.00612251 0.0358013 0.99934 0
0.00259203 0.0323069 0.999475 0
0.0124905 0.0311167 0.999438 0
0.0297504 0.0369298 0.998875 2.68263e-05
0.0319555 0.024735 0.999183 0.0085449
0.0422452 0.0210575 0.998885 0.0275029
0.0446416 0.0188759 0.998825 0.0160471
0.0499581 0.0151189 0.998637 0.0195404
0.0786252 0.00220123 0.996902 0.0214959
0.0870492 -0.00423805 0.996195 0.0391844
0.0942504 -0.0162081 0.995417 0.0539249
0.101489 -0.0183252 0.994668 0.0656502
0.103198 -0.0308906 0.994181 0.0578105
0.1129 -0.0202239 0.993401 0.0554508
0.124534 -0.00553465 0.9922 0.0577161
0.135488 -0.00546272 0.990764 0.0668288
-0.0621997 0.0323705 0.997539 0.0203877
-0.0522698 0.0459895 0.997573 0.00839599
-0.0445208 0.0341833 0.998423 0
-0.0398913 0.0330325 0.998658 0
-0.0428017 0.0264983 0.998732 0.0125555
-0.0390648 0.00652592 0.999215 0.0228275
-0.0298974 0.0195868 0.999361 0.00759237
-0.0250438 0.0276066 0.999305 0
-0.0144434 0.0165985 0.999758 0
-0.00635587 0.0385623 0.999236 0
0.00561674 0.0497637 0.998745 0
0.0129135 0.0347553 0.999312 0
0.0276723 0.0381301 0.99889 0
0.029689 0.0389136 0.998801 0.00586774
0.0383573 0.034968 0.998652 0.0175268
0.0416537 0.019709 0.998938 0.0141949
0.0515959 0.01741 0.998516 0.0111068
0.0750879 0.014693 0.997069 0.0251771
0.0815563 -0.00663892 0.996647 0.0453205
0.0911166 -0.00631324 0.99582 0.0522389
0.09788 -0.00992815 0.995149 0.0625052
0.100576 -0.00825391 0.994895 0.0513244
0.107544 -0.00915486 0.994158 0.0511709
0.118492 -0.0005582 0.992955 0.0402977
0.124183 0.0145327 0.992153 0.0448047
-0.053976 0.0474092 0.997416 0
-0.0441893 0.0483225 0.997854 0
-0.0457667 0.0377107 0.99824 0
-0.0398696 0.0390495 0.998442 0
-0.0335614 0.029243 0.999009 0
-0.0293051 0.0225826 0.999315 0
-0.0255335 0.0220545 0.999431 0
-0.0150081 0.021806 0.99965 0
-0.00984732 0.0260611 0.999612 0
0.00538705 0.0503051 0.998719 0
0.0140223 0.0449204 0.998892 0
0.0230128 0.0295684 0.999298 0
0.0293798 0.0458472 0.998516 0
0.0387519 0.0353146 0.998625 0.0100291
0.0427311 0.0318961 0.998577 0.00677096
0.0500456 0.0373514 0.998048 0.0176288
0.0524327 0.0240901 0.998334 0.0144737
0.0723325 0.0370562 0.996692 0.0222402
0.0803931 0.0228241 0.996502 0.0375412
0.0831869 0.0146105 0.996427 0.025504
0.092527 0.00337324 0.995704 0.0433856
0.0939792 0.00387497 0.995567 0.0506169
0.0985412 0.0259175 0.994795 0.0338811
0.107461 0.0186903 0.994034 0.032718
0.11332 0.0208727 0.993339 0.0306882
-0.0457395 0.0461352 0.997887 0
-0.0391147 0.052027 0.997879 0
-0.0345654 0.057062 0.997772 0
-0.0273682 0.0368206 0.998947 0
-0.0269127 0.0259114 0.999302 0
-0.0206944 0.0223093 0.999537 0
-0.012916 0.0299747 0.999467 0
0.000945625 0.0452117 0.998977 0
0.0101304 0.0565427 0.998349 0
0.0204387 0.0423925 0.998892 0
0.0270815 0.0494343 0.99841 0
0.0346211 0.0460803 0.998338 0
0.0416676 0.054447 0.997647 0
0.0451035 0.0520158 0.997627 0.00147439
0.0523762 0.0370496 0.99794 0.0092639
0.0719239 0.041443 0.996549 0.012896
0.0747635 0.0407751 0.996367 0.0163088
0.0750374 0.028655 0.996769 0.0018496
0.0816036 0.0255633 0.996337 0
0.0879146 0.0268436 0.995766 0.0302724
0.0944553 0.0318301 0.99502 0.0357109
0.0962777 0.0382109 0.994621 0.0208522
0.10896 0.0296302 0.993604 0.0247703
-0.0437227 0.0469973 0.997938 0
-0.0369054 0.0467892 0.998223 0
-0.0293081 0.0377094 0.998859 0.0105993
-0.0290299 0.0225003 0.999325 0.0134824
-0.0212636 0.0345729 0.999176 0.0107091
-0.00979403 0.0391149 0.999187 0
-0.0060955 0.030872 0.999505 0.00710795
0.00340064 0.0451273 0.998975 0
0.0201556 0.0477113 0.998658 0
0.0258169 0.0628865 0.997687 0
0.0351108 0.052888 0.997983 0
0.0381005 0.0490307 0.99807 0
0.0455803 0.0479947 0.997807 0.00422779
0.0510286 0.0422787 0.997802 0.00401551
0.0680932 0.0477981 0.996533 0
0.0706656 0.0539905 0.996038 0
0.0714149 0.0312353 0.996957 0.00520038
0.0787045 0.0303416 0.996436 0.0209598
0.080902 0.0307986 0.996246 0.0288845
0.091258 0.0121956 0.995753 0.0313331
0.10033 0.0202943 0.994747 0.0327044
0.108336 0.0202505 0.993908 0.0263703
-0.0478468 0.039114 0.998089 0
-0.0456229 0.0276826 0.998575 0
-0.026522 0.036362 0.998987 0.00384718
-0.0266659 0.0281917 0.999247 0.0120261
-0.0206542 0.0255081 0.999461 0.0101989
-0.0173504 0.0164748 0.999714 0.0126852
-0.00527147 0.0413461 0.999131 0.0100101
0.00112725 0.0402132 0.999191 0.00373059
0.0172572 0.0484428 0.998677 0
0.024529 0.0525537 0.998317 0
0.0342034 0.0529712 0.99801 0
0.0390893 0.0471937 0.998121 0.00219997
0.0468876 0.04608 0.997837 0
0.0511733 0.0424715 0.997786 0.00221978
0.06816 0.0338121 0.997101 0
0.0669473 0.0301517 0.997301 0
0.0722255 0.0372027 0.996694 0.00501712
0.0765544 0.0254541 0.99674 0.0197021
0.0787651 0.0300922 0.996439 0.0120728
0.0868012 0.0160385 0.996097 0.0159135
0.0980401 0.0290385 0.994759 0.0262504
0.103491 0.01881 0.994453 0.0318932
0.106817 0.0205419 0.994067 0.0206599
-0.0466313 0.0280134 0.998519 0.00150962
-0.0382185 0.0230714 0.999003 0.00786361
-0.0310078 0.0112188 0.999456 0.020607
-0.029406 0.0081178 0.999535 0.0186177
-0.0258544 0.000865595 0.999665 0.0251201
-0.0198 0.0165503 0.999667 0.0268503
-0.0111446 0.0259725 0.999601 0.021925
-0.00251867 0.0263875 0.999649 0.0158934
0.0168272 0.03848 0.999118 0.00253972
0.0260461 0.0594457 0.997892 0
0.0334254 0.0515898 0.998109 0
0.0370593 0.0440183 0.998343 0
0.0467606 0.0376604 0.998196 0
0.0481891 0.0342329 0.998251 0.000814568
0.0641111 0.0178569 0.997783 0
0.0682551 0.0253668 0.997345 0
0.0683249 0.032497 0.997134 0
0.074371 0.0328622 0.996689 0
0.0768935 0.0221158 0.996794 0.00117337
0.0883479 0.0142982 0.995987 0.0115701
0.0920475 0.0203721 0.995546 0.0205461
0.101404 0.0199116 0.994646 0.0260619
0.108779 0.0158312 0.99394 0.0313182
-0.0469693 0.0334163 0.998337 0.00547797
-0.0388039 0.0237283 0.998965 0.0128311
-0.0330517 0.000120441 0.999454 0.0172674
-0.026963 -0.00768922 0.999607 0.0317797
-0.0189896 -0.00286192 0.999816 0.0296522
-0.0133417 0.00287945 0.999907 0.019831
-0.00867125 0.00114266 0.999962 0.0325211
0.0210323 0.0450451 0.998764 0.00262553
0.031606 0.0539806 0.998042 0
0.0365672 0.0436408 0.998378 0.000277413
0.0414254 0.0309094 0.998663 0.00493424
0.0471944 0.0165712 0.998748 0.00654564
0.0615385 0.0218552 0.997865 0
0.0652052 0.0279515 0.99748 0
0.0680216 0.025257 0.997364 0
0.0705088 0.0305965 0.997042 0
0.0717066 0.0135364 0.997334 0.00701448
0.0800081 0.0126788 0.996714 0
0.0899878 0.0139087 0.995846 0.0264534
0.0938211 0.00461076 0.995578 0.0338964
0.103792 0.0139932 0.994501 0.0266908
-0.0499058 0.0271212 0.998386 0
-0.0360873 0.0209015 0.99913 0
-0.0330846 0.00116695 0.999452 0.00693661
-0.02901 -0.0063395 0.999559 0.0330294
-0.0199798 0.00252995 0.999797 0.0233591
-0.0162124 -0.0189365 0.999689 0.0413773
-0.00605805 0.00234531 0.999979 0.0314628
0.020765 0.0413929 0.998927 0.0105274
0.0330047 0.0426328 0.998546 0.00662453
0.0379177 0.0363117 0.998621 0
0.0438447 0.02682 0.998678 0.00143364
0.0466784 0.0174707 0.998757 0.0176073
0.0596328 0.00615399 0.998201 0.00596721
0.0645882 0.0235836 0.997633 0
0.06948 0.0203538 0.997376 0
0.0735543 0.0146936 0.997183 0.0203846
0.0763572 0.0105107 0.997025 0.0146006
0.077459 0.00841819 0.99696 0.00693465
0.0861367 0.0130254 0.996198 0.0184783
0.0918633 0.00882194 0.995733 0.018027
-0.0463042 0.00868462 0.99889 0.00293264
-0.040331 0.0103042 0.999133 0
-0.0296323 0.00783074 0.99953 0
-0.0283668 -0.00442066 0.999588 0.0239718
-0.0241903 -0.0017797 0.999706 0.0270651
-0.0133627 -0.0287208 0.999498 0.0329308
-0.00449727 0.00412696 0.999981 0.00960793
0.0221582 0.0409804 0.998914 0.0209468
0.0307266 0.032216 0.999008 0.0185575
0.0411676 0.0138324 0.999057 0.0166495
0.0455036 0.0101808 0.998912 0.0154862
0.047137 0.0119355 0.998817 0.0144103
0.0590653 0.00904107 0.998213 0
0.0609949 0.0057228 0.998122 0.00147344
0.0667799 0.00482321 0.997756 0.00849372
0.0709575 0.00699295 0.997455 0.0133999
0.0734557 0.00814431 0.997265 0.0105331
0.0801907 0.0128468 0.996697 0.0112776
0.0861241 0.0100826 0.996233 0.00674842
0.0942012 0.00910662 0.995512 0.00401189
-0.0463928 0.0101718 0.998871 0
-0.0355634 0.00469512 0.999356 0
-0.0330562 -0.0104521 0.999399 0.00766606
-0.0273664 0.00116176 0.999625 0.0092227
-0.0199799 -0.011413 0.999735 0.00654206
-0.0109118 -0.000592703 0.99994 0.0130352
-0.00184952 0.00812703 0.999965 0.0168747
0.0214243 0.011364 0.999706 0.00871205
0.0294856 0.0133943 0.999475 0.0175279
0.0389348 0.0039505 0.999234 0.0217727
0.0427239 0.00114693 0.999086 0.01042
0.0463748 0.0152945 0.998807 0
0.0576027 -0.0012722 0.998339 0.000762414
0.0634284 -0.00098993 0.997986 0
0.0672219 -0.00250749 0.997735 0
0.0688713 0.00293366 0.997621 0.00545832
0.0724869 -0.000910997 0.997369 0.00765083
0.0776021 0.0119251 0.996913 0
0.08654 0.0134728 0.996157 0
0.0930846 0.00713706 0.995633 0.00555705
-0.0484666 0.0159433 0.998698 0
-0.0396185 0.000850283 0.999215 0
-0.0345173 -0.00107659 0.999404 0
-0.0270219 0.00203579 0.999633 0
-0.0238955 -0.0164527 0.999579 0.000110642
-0.0108497 -0.000765947 0.999941 0.00908551
0.000280983 0.00904594 0.999959 0.0126187
0.0231082 0.025216 0.999415 0.00118757
0.0332256 0.0125495 0.999369 0.00838368
0.0408907 0.0198755 0.998966 0
0.0437179 0.00597187 0.999026 0.0118657
0.0455291 0.00740998 0.998936 0
0.0608615 -0.0038939 0.998139 0
0.0654115 0.00749403 0.99783 0
0.0722002 0.00921714 0.997348 0
0.0718796 -0.00405499 0.997405 0
0.0728966 -0.00482042 0.997328 0
0.0848758 0.00212203 0.996389 0.00418796
0.0909519 0.0144598 0.99575 0.0112048
-0.0511605 0.00641436 0.99867 0.00139257
-0.038075 -0.0136563 0.999182 0.00993773
-0.0315283 -0.0125381 0.999424 0
-0.0227375 -0.0157258 0.999618 0
-0.0124967 -0.00791099 0.999891 0
0.000878577 0.00648784 0.999979 0.00209942
0.0272776 0.0243762 0.999331 0
0.0363714 0.0310599 0.998856 0
0.0401724 0.0238213 0.998909 0
0.0403563 0.0126396 0.999105 0.000831475
0.0448245 0.00576209 0.998978 0.00345662
0.0564389 0.0021338 0.998404 0
0.0657871 0.00675523 0.997811 0
0.0691927 0.0121122 0.99753 0
0.0707295 0.00115919 0.997495 0
0.0777644 -0.00267323 0.996968 0.0094506
0.0871234 -0.0050484 0.996185 0.00324654
-0.0540484 -0.0208434 0.998321 0.014627
-0.052338 -0.00477235 0.998618 0.0113894
-0.0410212 -0.0153432 0.99904 0.00747212
-0.0271441 -0.0110435 0.999571 0
-0.0206253 -0.00706492 0.999762 0
-0.00412425 0.00715378 0.999966 0
0.00570344 0.0182717 0.999817 0
0.0294797 0.0209808 0.999345 0
0.0333885 0.0286653 0.999031 0
0.0356741 0.0256696 0.999034 0
0.0396921 0.0100389 0.999162 0
0.0438527 0.0129786 0.998954 0
0.0580479 0.00816331 0.99828 0.00237964
0.0642586 -0.00555214 0.997918 0
0.066288 0.00354148 0.997794 0
0.0724203 0.00241888 0.997371 0
0.0781015 -0.00684211 0.996922 0
0.0854104 -0.0108107 0.996287 0.00418282
-0.0547748 -0.0225029 0.998245 0.0127712
-0.0529192 -0.0113529 0.998534 0.015929
-0.0425921 -0.0143597 0.998989 0.00230129
-0.0411048 -0.0173584 0.999004 0.0108802
-0.0267183 0.00112837 0.999642 0
-0.0211619 0.00535688 0.999762 0
-0.0111897 0.000200559 0.999937 0
0.00250433 0.0121704 0.999923 0
0.00620583 0.0171465 0.999834 0
0.0230992 0.0165103 0.999597 0
0.0290683 0.0217085 0.999342 0.00303001
0.0341439 0.0164219 0.999282 0
0.0402919 0.00305127 0.999183 0
0.0451855 0.00880999 0.99894 0
0.0630646 -0.0036882 0.998003 0
0.0661981 -0.000552771 0.997806 0
0.066245 -0.00604888 0.997785 0.0112532
0.0723892 0.00282762 0.997373 0
0.0769983 -0.0100538 0.99698 0.000975973
0.0820167 -0.00591301 0.996613 0.00478924
0.0918535 -0.0139154 0.995675 0.0104368
-0.0534632 -0.0218869 0.99833 0.00836511
-0.0482423 -0.0112609 0.998772 0.011549
-0.0343525 -0.00802262 0.999378 0
-0.0274095 0.00470747 0.999613 0
-0.0169616 0.0060823 0.999838 0
-0.00962021 0.0101563 0.999902 0
-0.00408581 0.000151364 0.999992 0.00111032
0.00103491 -0.00419294 0.999991 0.00378966
0.0243173 0.0134235 0.999614 0
0.0302138 0.00859909 0.999506 0
0.0355217 -0.0032127 0.999364 0.00312849
0.0396196 0.00376618 0.999208 0
0.0435586 0.0152922 0.998934 0
0.0562196 -0.00127471 0.998418 0.00778988
0.0661083 0.00796773 0.997781 0.00438721
0.0688269 -0.00176909 0.997627 0.00287034
0.0698273 -0.0102755 0.997506 0.00641356
0.076459 -0.00762897 0.997044 0
0.0788197 0.00310252 0.996884 0
0.0868159 -0.0142501 0.996122 0
-0.047361 -0.0193274 0.998691 0
-0.0428778 0.000955478 0.99908 0.000804515
-0.0333591 -0.00990712 0.999394 0.00649058
-0.0243355 0.0169997 0.999559 0
-0.0151891 0.0106742 0.999828 0
-0.0100604 0.0221447 0.999704 0
-0.00256682 0.000511547 0.999997 0
0.00188799 -0.00240144 0.999995 0.0109408
0.0216352 -0.000238821 0.999766 0.00259481
0.0305771 0.00253474 0.999529 0
0.031893 -0.013341 0.999402 0.00470755
0.0338317 -0.0156532 0.999305 0.00662175
0.0399114 0.00111405 0.999203 0
0.0542559 0.00887097 0.998488 0.00831984
0.0635543 0.0210346 0.997757 0
0.070526 -0.00599619 0.997492 0.0103456
0.0740575 -0.00588856 0.997237 0
0.0754207 -0.0169037 0.997009 0.00993319
0.0772798 -0.00209566 0.997007 0.00188638
0.0866774 -0.00259297 0.996233 0
-0.046557 -0.0143123 0.998813 0
-0.0426425 -0.00758427 0.999062 0
-0.0312984 -0.00659929 0.999488 0
-0.0225373 0.0202941 0.99954 0
-0.0168102 0.0275092 0.99948 0
-0.0125529 0.0214698 0.999691 0
-0.00462487 -0.00381038 0.999982 0.00474479
-0.0012458 -0.0106214 0.999943 0.012364
0.018801 -0.00670489 0.999801 0.00171818
0.0255847 -0.0107873 0.999614 0
0.029877 -0.00313669 0.999549 0.00564016
0.0350255 -0.0051612 0.999373 0
0.0414134 -0.0035058 0.999136 0
0.0581169 0.00015655 0.99831 0
0.0649881 9.06671e-05 0.997886 0
0.0690763 -0.00492729 0.997599 0
0.0737243 -0.0110659 0.997217 0
0.075914 -0.0120551 0.997042 0.000538064
0.0790181 -0.00830754 0.996839 0
0.0865244 -0.0186352 0.996075 0.000894851
-0.042452 -0.0122197 0.999024 0
-0.0261078 0.0213193 0.999432 0
-0.016131 0.0308552 0.999394 0
-0.0123169 0.0279799 0.999533 0
-0.00216358 0.000113421 0.999998 0
0.00282709 -0.000357147 0.999996 0
0.0178302 -0.0162236 0.999709 0.00849382
0.0233552 -0.00689709 0.999703 0
0.030366 -1.35825e-05 0.999539 0
0.0337964 -0.00334705 0.999423 0
0.0422138 0.00749214 0.999081 0
0.058183 -0.00521101 0.998292 0
0.0651444 -0.00182874 0.997874 0
0.0705262 -0.00420894 0.997501 0
0.0734016 -0.00626358 0.997283 0
0.0765719 -0.00685312 0.997041 0
0.0806336 -0.0156317 0.996621 0
0.0932214 -0.0104196 0.995591 0
-0.0270454 0.0258591 0.9993 0
-0.0237881 0.0303961 0.999255 0
-0.0153981 0.020339 0.999675 0
-0.0110274 0.0139686 0.999842 0
-0.00219615 0.00650121 0.999976 0
0.00436606 0.00447986 0.99998 0
0.0188019 -0.00418448 0.999814 0
0.0252174 -0.0128532 0.999599 0
0.0333572 -0.0019712 0.999442 0
0.034446 -0.00539535 0.999392 0
0.0425389 0.00132111 0.999094 0
0.056205 -0.00243928 0.998416 0
0.0662374 0.00320832 0.997799 0
0.0656179 0.00344166 0.997839 0
0.0730458 -0.0097374 0.997281 0
0.0773466 -0.011505 0.996938 0
0.0809142 -0.00857004 0.996684 0
0.0908717 -0.010899 0.995803 0
-0.0468286 -0.0162014 0.998772 0
-0.0300919 0.0180405 0.999384 0
-0.0270109 0.0210962 0.999413 0
-0.0203997 0.025475 0.999467 0
-0.0127464 0.00824974 0.999885 0
-0.000286622 0.0118829 0.999929 0
0.00462895 -0.000669747 0.999989 0
0.0208061 -0.00575665 0.999767 0
0.0264787 -0.00482364 0.999638 0
0.0344248 -0.00382945 0.9994 0
0.0392484 -0.00965912 0.999183 0
0.0415859 -0.00801461 0.999103 0
0.0581095 0.0035831 0.998304 0
0.063432 -0.00387004 0.997979 0
0.0683255 0.00283257 0.997659 0
0.0706396 -0.0105394 0.997446 0
0.0749829 -0.0123722 0.997108 0
0.0797234 -0.0114504 0.996751 0
0.0841682 -0.0135825 0.996359 0
-0.0439684 -0.0212295 0.998807 0
-0.0301006 0.00735569 0.99952 0
-0.0293114 0.0104888 0.999515 0
-0.018492 0.0250037 0.999516 0
-0.0142146 0.00791856 0.999868 0
-0.00151328 0.0130113 0.999914 0
0.00867188 0.00443524 0.999953 0
0.0200155 -0.00820384 0.999766 0
0.0256397 -0.00780406 0.999641 0
0.0346833 -0.00490265 0.999386 0
0.0398933 -0.0056638 0.999188 0
0.0401473 -0.0147157 0.999085 0
0.0411929 -0.0195189 0.998961 0
0.0531371 -0.00927134 0.998544 0
0.063765 0.00165144 0.997964 0
0.0642584 -0.0145912 0.997827 0
0.0644157 -0.0194077 0.997734 0
0.0719732 -0.0121293 0.997333 0
0.0807373 -0.0101758 0.996683 0
0.0866381 -0.00785004 0.996209 0
0.0938435 -0.00737735 0.99556 0
-0.0446906 -0.0222966 0.998752 0
-0.0382341 -0.010785 0.999211 0
-0.0317865 -0.00299269 0.99949 0
-0.0197783 0.0190032 0.999624 0
-0.0117919 0.0133612 0.999841 0
-0.00355565 0.00943557 0.999949 0.00477105
0.00332809 -0.00487116 0.999983 0.00285161
0.0197494 -0.00824853 0.999771 0
0.0254228 -0.006229 0.999657 0
0.0326525 -0.0205496 0.999255 0
0.0357191 -0.0263031 0.999016 0
0.0386835 -0.0224462 0.998999 0
0.0426718 -0.0200883 0.998887 0
0.0501108 -0.0158606 0.998618 0
0.0589253 -0.0233055 0.99799 0
0.0642613 -0.0176082 0.997778 0
0.0635906 -0.0158124 0.997851 0
0.0700453 -0.00803044 0.997512 0
0.0790928 -0.0167199 0.996727 0
0.0825343 -0.0204061 0.996379 0.00171595
0.0913777 -0.00999807 0.995766 0
-0.0479079 -0.0377215 0.998139 0
-0.0463314 -0.0453183 0.997898 0.00600693
-0.0471033 -0.0341187 0.998307 0.00916322
-0.0415546 -0.0217539 0.998899 0
-0.0349977 0.00547686 0.999372 0
-0.0227811 0.00805329 0.999708 0
-0.0107594 0.012889 0.999859 0
-0.00395044 0.0101253 0.999941 0
0.00336708 0.00346067 0.999988 0
0.021228 -0.0140699 0.999676 0
0.0237762 -0.0121899 0.999643 0
0.0341156 -0.00978854 0.99937 0
0.0365855 -0.027949 0.99894 0
0.0433067 -0.0313547 0.99857 0
0.0433527 -0.0529125 0.997658 0.016165
0.0496523 -0.0426869 0.997854 0
0.0559572 -0.0279736 0.998041 0
0.0598443 -0.027461 0.99783 0
0.0597678 -0.0288309 0.997796 0
0.0629633 -0.0234899 0.997739 0
0.0719333 -0.0196673 0.997216 0
0.0849638 -0.027383 0.996008 0
0.0898623 -0.0236972 0.995672 0
-0.0484005 -0.0421698 0.997937 0.000912482
-0.0484916 -0.0525991 0.997438 0.0165691
-0.0466994 -0.039125 0.998142 0.00764764
-0.0432861 -0.0232102 0.998793 0
-0.0320868 0.00391201 0.999477 0
-0.0223426 0.00790561 0.999719 0
-0.0139224 0.0118519 0.999833 0
-0.00497372 0.00403187 0.999979 0
0.00277059 0.00306219 0.999991 0
0.022562 -0.0125863 0.999666 0
0.0281059 -0.0123962 0.999528 0
0.0319779 -0.0184337 0.999319 0
0.0372585 -0.0320057 0.998793 0.00740378
0.0414249 -0.0467927 0.998045 0.0113381
0.0456771 -0.0602149 0.99714 0.0137138
0.0562006 -0.0544884 0.996932 0
0.053862 -0.0519923 0.997194 0
0.0557648 -0.0422124 0.997551 0
0.0621338 -0.0272592 0.997696 0
0.0622678 -0.0298979 0.997612 0
0.073699 -0.0319491 0.996769 0
0.0797776 -0.0285788 0.996403 0
-0.0516879 -0.0602529 0.996844 0.00838034
-0.0455843 -0.0420611 0.998075 0.0129225
-0.0394503 -0.0334261 0.998662 0.00492386
-0.0322821 -0.00905167 0.999438 0
-0.0224838 -0.00547751 0.999732 0
-0.0136908 -0.00934582 0.999863 0
-0.00320326 -0.00339342 0.999989 0
0.00387463 -0.0128776 0.99991 0
0.0199599 -0.0195783 0.999609 0
0.0272001 -0.0242744 0.999335 0
0.0312939 -0.0217357 0.999274 0
0.0342932 -0.0447772 0.998408 0.0133378
0.0415099 -0.0653159 0.997001 0.0227834
0.0452527 -0.0750695 0.996151 0.025575
0.0532907 -0.0664027 0.996369 0.0029006
0.0555836 -0.0583676 0.996747 0
0.0619408 -0.0599237 0.996279 0
0.0652905 -0.0454901 0.996829 0
0.0674543 -0.0417827 0.996847 0
0.0720907 -0.0371947 0.996704 0
0.0767815 -0.0397465 0.996255 0
0.0945041 -0.036058 0.994871 0
-0.0572551 -0.0450579 0.997342 0
-0.0508306 -0.0769987 0.995735 0.0115731
-0.0484403 -0.0546902 0.997328 0.0145502
-0.0395788 -0.0352524 0.998594 0
-0.0321199 -0.0174717 0.999331 0
-0.0209726 -0.00722373 0.999754 0
-0.0104522 -0.00513265 0.999932 0
-0.000635772 -0.00900032 0.999959 0
0.00501663 -0.00983464 0.999939 0
0.0248992 -0.0097411 0.999642 0
0.0331025 -0.0370726 0.998764 0
0.0344422 -0.0513208 0.998088 0.0069175
0.0416214 -0.0716316 0.996562 0.0240919
0.044066 -0.0695212 0.996607 0.0255476
0.0549559 -0.0605116 0.996654 0
0.0595049 -0.0628 0.996251 0
0.0650702 -0.0614114 0.995989 0
0.0683724 -0.0529127 0.996256 0
0.0696494 -0.0397008 0.996781 0
0.0685178 -0.0337602 0.997078 0
0.0826822 -0.0407518 0.995742 0
0.0848219 -0.0470793 0.995283 0
0.0900611 -0.0495868 0.994701 0
-0.0548859 -0.0484151 0.997318 0
-0.0593836 -0.0730672 0.995557 0.0169029
-0.0493339 -0.0784026 0.9957 0.0107375
-0.0423395 -0.0389795 0.998343 0.00397983
-0.041152 -0.0323387 0.998629 0
-0.0319495 -0.0212993 0.999263 5.05136e-05
-0.0199512 -0.0119907 0.999729 0
-0.0119063 -0.00774836 0.999899 0
-0.00534913 -0.0235589 0.999708 0
0.000479713 -0.0150864 0.999886 0
0.0222711 -0.0108975 0.999693 0
0.0309369 -0.028638 0.999111 0
0.0314706 -0.044518 0.998513 0.0069678
0.0365815 -0.0641753 0.997268 0.031725
0.037543 -0.0638795 0.997251 0.0206032
0.0493869 -0.0747417 0.995979 0.0167672
0.0544189 -0.0645587 0.996429 0.00473808
0.0621118 -0.0457847 0.997018 0
0.0643967 -0.0413598 0.997067 0
0.0675826 -0.0327396 0.997176 0
0.0706563 -0.0463814 0.996422 0
0.0753823 -0.060808 0.995299 0
0.0785006 -0.0568353 0.995293 0
0.0877276 -0.0610419 0.994272 0
-0.0609393 -0.0552397 0.996612 0.00014945
-0.0566707 -0.0702105 0.995921 0.00733081
-0.0552424 -0.0704122 0.995987 0.00883893
-0.050758 -0.0668402 0.996472 0.00714663
-0.0409379 -0.0473564 0.998039 0
-0.034959 -0.0336945 0.998821 0
-0.0292127 -0.0243294 0.999277 0
-0.018759 -0.0120287 0.999752 0
-0.0134038 -0.0064092 0.99989 0
-0.00940255 -0.0172605 0.999807 0
-0.00333611 -0.0293474 0.999564 0
0.015889 -0.0220534 0.999631 0
0.0267503 -0.031472 0.999147 0
0.0278842 -0.047626 0.998476 0.00791791
0.0354106 -0.0547893 0.99787 0.0209957
0.0499429 -0.0630034 0.996763 0.00445904
0.052423 -0.0681662 0.996296 0.0126765
0.0576326 -0.04816 0.997176 0
0.0617591 -0.0491678 0.996879 0
0.0605755 -0.0444969 0.997171 0
0.0654988 -0.041336 0.996996 0
0.0712091 -0.058476 0.995746 0
0.0751231 -0.0699382 0.994719 0
0.0858888 -0.0767129 0.993347 0
0.100894 -0.0676687 0.992593 0
-0.0585885 -0.0477143 0.997141 0
-0.0594347 -0.056988 0.996604 0.0109129
-0.0588577 -0.0721354 0.995657 0.0120972
-0.0558837 -0.0717655 0.995855 0.0131806
-0.0499867 -0.0663385 0.996544 0.00706244
-0.0430424 -0.0596824 0.997289 0.0029841
-0.0385297 -0.0482204 0.998093 0.00282927
-0.0320869 -0.0387759 0.998733 0
-0.024047 -0.0296478 0.999271 0.00432511
-0.0182169 -0.0251718 0.999517 0
-0.0134412 -0.0283189 0.999509 0
-0.00538143 -0.0440104 0.999017 0
0.0133483 -0.0451292 0.998892 0
0.0496607 -0.0717803 0.996183 0.0140536
0.0522144 -0.0660932 0.996446 0.00261748
0.0579302 -0.0537381 0.996873 0
0.0592918 -0.0493984 0.997018 0
0.0585254 -0.0581375 0.996592 0
0.0641869 -0.0528403 0.996538 0
0.0671081 -0.0607359 0.995895 0
0.0778007 -0.067437 0.994686 0.00865798
0.0883027 -0.0734794 0.99338 0
-0.058273 -0.0639164 0.996252 0.00558947
-0.0570507 -0.0612224 0.996492 0.00694955
-0.0597694 -0.0657601 0.996044 0.00778563
-0.0611034 -0.0851378 0.994494 0.0294567
-0.0559772 -0.0805632 0.995176 0.0206307
-0.051635 -0.0661664 0.996472 0.0182714
-0.0443538 -0.0575962 0.997354 0.0128951
-0.0359894 -0.0368509 0.998673 0
-0.0337404 -0.0301036 0.998977 0.0027758
-0.0280717 -0.0314154 0.999112 0
-0.0254665 -0.0289396 0.999257 0
-0.0150189 -0.0482425 0.998723 0
-0.00659277 -0.0434992 0.999032 0
0.012564 -0.0477804 0.998779 0
0.04706 -0.0585848 0.997173 0.0153801
0.0537975 -0.0560794 0.996976 0.00173229
0.0559852 -0.0524156 0.997055 0
0.0596651 -0.0650573 0.996096 0
0.0673232 -0.0615877 0.995829 0
0.0713015 -0.0670863 0.995196 0
0.0813576 -0.0659969 0.994498 0
0.0892612 -0.0713353 0.99345 0
0.0975894 -0.0715018 0.992655 0
0.104369 -0.065345 0.99239 0
-0.059066 -0.0707139 0.995746 0.0166668
-0.0604118 -0.0732543 0.995482 0.0123064
-0.0622574 -0.0693261 0.99565 0.00933378
-0.0588594 -0.0844891 0.994684 0.0204398
-0.0543712 -0.0717883 0.995937 0.0148812
-0.050383 -0.0645268 0.996643 0.0116563
-0.0434983 -0.0512189 0.99774 0
-0.0390462 -0.0410035 0.998396 0
-0.0342852 -0.0347906 0.998806 0
-0.0308529 -0.0347987 0.998918 0.0102804
-0.0287238 -0.0416008 0.998721 0.0166641
-0.0182001 -0.0603149 0.998013 0.00414835
-0.0089709 -0.0519416 0.99861 0
0.00754949 -0.0522838 0.998604 0.0108096
0.0492984 -0.0663433 0.996578 0.0182935
0.0585312 -0.0722492 0.995668 0.0123294
0.0644787 -0.0651387 0.995791 0
0.0695406 -0.0622178 0.995637 0
0.0755523 -0.0658061 0.994968 0
0.0820239 -0.0734294 0.993922 0
0.0895524 -0.0658612 0.993802 0
0.0940875 -0.0615817 0.993658 0
0.0997896 -0.0581933 0.993305 0
-0.0599433 -0.0748591 0.995391 0.0049242
-0.0580891 -0.0820285 0.994936 0.00187821
-0.0577795 -0.0703659 0.995846 0
-0.0540787 -0.0735591 0.995824 0.0101464
-0.0548655 -0.072922 0.995827 0.0122891
-0.0476876 -0.0623234 0.996916 0
-0.0417045 -0.0523162 0.997759 0
-0.0412948 -0.047485 0.998018 0.00126737
-0.0379498 -0.0407893 0.998447 0.00305451
-0.0351899 -0.0551833 0.997856 0.0240709
-0.0288056 -0.0583288 0.997882 0.0194408
-0.0192047 -0.0607969 0.997965 0.0123708
-0.010036 -0.0589588 0.99821 0.0080641
0.00554948 -0.0518274 0.998641 0.00425887
0.0567136 -0.0856287 0.994712 0.0237864
0.0635859 -0.0750181 0.995153 0.00791013
0.0704011 -0.0786371 0.994414 0.0127186
0.0754308 -0.0762754 0.994229 0.00710465
0.082331 -0.0802973 0.993365 0.00923736
0.0821893 -0.0653069 0.994475 0
0.0934379 -0.0755407 0.992755 0
0.0992723 -0.0710028 0.992524 0
-0.0670431 -0.0819244 0.994381 0.0225308
-0.0645966 -0.0804621 0.994662 0.0204098
-0.0612791 -0.0894356 0.994106 0.0127797
-0.0577168 -0.0834967 0.994835 0.00737891
-0.0583819 -0.0743654 0.995521 0.0119807
-0.0518735 -0.0706001 0.996155 0.00835127
-0.0460007 -0.0787167 0.995835 0
-0.0478219 -0.0612947 0.996973 0
-0.0435478 -0.0524287 0.997675 0.00233384
-0.0438673 -0.0663357 0.996833 0.0202142
-0.0376897 -0.0708991 0.996771 0.021746
-0.0309052 -0.0577809 0.997851 0.018237
-0.025272 -0.0638229 0.997641 0.019109
-0.0139878 -0.0679417 0.997591 0.00844814
0.0535782 -0.0921199 0.994305 0.0502698
0.0539109 -0.0969777 0.993825 0.0408393
0.0591538 -0.103998 0.992817 0.0386115
0.0629076 -0.0933807 0.993641 0.030264
0.06635 -0.0893678 0.993786 0.0229192
0.0823329 -0.0814682 0.993269 0.0221972
0.0912386 -0.0896108 0.991789 0.0208539
0.0915918 -0.0880463 0.991897 0.019176
0.0992763 -0.0884168 0.991124 0.00530508
0.101473 -0.0921499 0.990561 0
-0.0715491 -0.0930501 0.993087 0.0337375
-0.0600753 -0.0873214 0.994367 0.00996333
-0.0639902 -0.0831781 0.994478 0.0164292
-0.0594387 -0.0797066 0.995045 0.0089426
-0.0544686 -0.0759467 0.995623 0.00660222
-0.0526167 -0.0799311 0.995411 0.012067
-0.0484448 -0.0634167 0.996811 0
-0.0473081 -0.0588803 0.997143 0.00123544
-0.0448505 -0.0481281 0.997834 0
-0.0437164 -0.0556841 0.997491 0.0120881
-0.0418073 -0.071779 0.996544 0.0273485
-0.0345861 -0.0697403 0.996965 0.027341
-0.0285165 -0.0689869 0.99721 0.0164784
-0.0174131 -0.0747264 0.997052 0.0221989
-0.0132902 -0.0690334 0.997526 0.0131271
0.0496332 -0.0955499 0.994187 0.0446935
0.0566436 -0.106487 0.992699 0.0535142
0.0570045 -0.0943616 0.993905 0.0485293
0.064077 -0.0914443 0.993746 0.0397917
0.0828938 -0.100762 0.991451 0.0567502
0.0861795 -0.0927949 0.991949 0.0341017
0.0924508 -0.0898469 0.991655 0.0223865
0.0926908 -0.0957308 0.991082 0.0109106
0.102354 -0.0977462 0.989934 0
0.10854 -0.0962271 0.989424 0
-0.0657167 -0.102716 0.992537 0.0301903
-0.0600563 -0.070412 0.995708 0
-0.057724 -0.078011 0.99528 0.00179733
-0.0569906 -0.0726176 0.99573 0
-0.0542804 -0.0690875 0.996133 0
-0.0528573 -0.0751673 0.995769 0.0127763
-0.0477134 -0.0606107 0.99702 0.00075713
-0.0464625 -0.0595153 0.997145 0.00311183
-0.0460084 -0.0532079 0.997523 0
-0.0451734 -0.0616662 0.997074 0.00398624
-0.0434961 -0.0773458 0.996055 0.027658
-0.0359352 -0.0685247 0.997002 0.0146078
-0.0310257 -0.0674805 0.997238 0.0104558
0.0498436 -0.0958123 0.994151 0.0438013
0.0769364 -0.0945103 0.992546 0.0546129
0.0803594 -0.099399 0.991797 0.0470792
0.0870879 -0.0893266 0.992188 0.0218855
0.0908009 -0.0825009 0.992446 0
0.105496 -0.0868576 0.990619 0
0.109142 -0.0967152 0.98931 0
-0.057977 -0.0852132 0.994675 0.00671435
-0.0591646 -0.0795956 0.99507 0
-0.0573095 -0.0713639 0.995803 0
-0.0567438 -0.0722863 0.995768 0
-0.0566359 -0.0725999 0.995752 0
-0.0543852 -0.0752908 0.995677 3.37439e-05
-0.0479378 -0.0571404 0.997215 0.001919
-0.0475889 -0.0629113 0.996884 0.00737697
-0.0440181 -0.0601094 0.997221 0
-0.0465128 -0.0759779 0.996024 0.00730857
-0.0372768 -0.0649937 0.997189 0.0137249
-0.0321438 -0.0708033 0.996972 0.00798989
-0.0341255 -0.0649641 0.997304 0.0184552
-0.0198184 -0.0760073 0.99691 0.0217508
0.053957 -0.0888435 0.994583 0.0284274
0.0776009 -0.0981964 0.992137 0.0457632
0.080002 -0.0869275 0.992997 0.0356928
0.0828659 -0.0727157 0.993904 0
0.0953043 -0.072289 0.99282 0
0.101188 -0.0781788 0.991791 0.000130062
0.107382 -0.0790033 0.991074 0
-0.0587241 -0.083673 0.994761 0
-0.0560434 -0.0853031 0.994778 0
-0.0611493 -0.086379 0.994384 0
-0.0601826 -0.0793536 0.995028 0
-0.0597321 -0.0802321 0.994985 0
-0.0581427 -0.0743266 0.995538 0
-0.0546157 -0.0692559 0.996103 0
-0.0531407 -0.0673934 0.99631 0.00109671
-0.0460751 -0.0514578 0.997612 0
-0.046925 -0.0473639 0.997775 0
-0.0435565 -0.0490346 0.997847 0
-0.0437234 -0.0618987 0.997124 0.00533513
-0.041243 -0.0657901 0.996981 0.0120666
-0.0352336 -0.0701 0.996918 0.0195411
0.0525973 -0.0977343 0.993822 0.0316137
0.0767727 -0.0912979 0.99286 0.0288705
0.0783347 -0.0778148 0.993886 0.00710492
0.0855129 -0.0836645 0.992818 0.00730435
0.0867432 -0.0748283 0.993416 0.00743088
0.097431 -0.0724545 0.992601 0
0.10427 -0.084429 0.990959 0
-0.0613856 -0.0890508 0.994134 0.00325126
-0.0638934 -0.0866637 0.994187 0.00298961
-0.063637 -0.0874024 0.994138 0
-0.0580928 -0.072742 0.995657 0
-0.0603591 -0.0631249 0.996179 0
-0.0579493 -0.0733052 0.995625 0.0147901
-0.0517657 -0.0578489 0.996982 0
-0.0459745 -0.057684 0.997276 0
-0.0443543 -0.0486649 0.99783 0
-0.0428587 -0.0430332 0.998154 0
-0.0436441 -0.0501731 0.997786 0
0.0798432 -0.0773128 0.993805 0
0.0839492 -0.0731108 0.993784 0.000494139
0.0841545 -0.0790089 0.993316 0.0034799
0.0962795 -0.0888563 0.99138 0.00353839
0.0958814 -0.0869311 0.991589 0.00108009
0.109208 -0.0977889 0.989197 0
-0.0684648 -0.0603271 0.995828 0.0175952
-0.0641864 -0.0712294 0.995393 0.00312864
-0.065336 -0.0951758 0.993314 0.00246071
-0.0623565 -0.0932078 0.993692 0
-0.0644625 -0.0800359 0.994705 0
-0.060612 -0.06081 0.996307 0
-0.0559521 -0.0578366 0.996757 0
-0.058842 -0.0502061 0.997004 0
-0.0568697 -0.0517135 0.997041 0.00674177
-0.049784 -0.0541881 0.997289 0
-0.0452682 -0.0585446 0.997258 0
-0.0407512 -0.0430389 0.998242 0
-0.0444793 -0.0407611 0.998178 0
0.0833454 -0.0849461 0.992894 0.00473837
0.0880437 -0.0829696 0.992655 0.00345047
0.0916578 -0.0837919 0.992259 0
0.0985361 -0.0899607 0.991059 0.000264449
0.105599 -0.0922684 0.990119 0
0.109964 -0.0977279 0.989119 0
-0.0683344 -0.0488133 0.996468 0.0128731
-0.0717175 -0.0575032 0.995766 0.0186013
-0.0677125 -0.0646915 0.995605 0.0123716
-0.0676304 -0.0761984 0.994796 0.0179673
-0.071089 -0.0931285 0.993113 0.0114133
-0.064137 -0.0743504 0.995168 0
-0.0642532 -0.075335 0.995086 0
-0.0634698 -0.0569921 0.996355 0
-0.0626947 -0.0525864 0.996646 0
-0.0579151 -0.0450356 0.997305 0
-0.0575488 -0.0428799 0.997421 0.00540226
-0.0495021 -0.0515902 0.997441 0.00444674
-0.0486224 -0.0512164 0.997503 0
-0.0444845 -0.0493185 0.997792 0
-0.0416052 -0.0428605 0.998214 0
0.0844298 -0.0950281 0.991888 0
0.0874587 -0.0979772 0.991338 0
0.0958649 -0.101688 0.990187 0
0.0995382 -0.0915074 0.990817 0
0.109616 -0.0876185 0.990105 0
-0.0697168 -0.0483299 0.996395 0.0147786
-0.0696848 -0.0551094 0.996046 0.0149644
-0.0731532 -0.0822575 0.993923 0.0265069
-0.068963 -0.0795395 0.994443 0.0286464
-0.0674173 -0.084247 0.994162 0.0119681
-0.0672442 -0.0708974 0.995214 0.00892994
-0.0685175 -0.0645131 0.995562 0
-0.0672159 -0.0570284 0.996107 0.00562486
-0.0636342 -0.0488635 0.996776 0
-0.0581851 -0.0382331 0.997573 0
-0.0571516 -0.0475454 0.997233 0.00189648
-0.0495098 -0.0560578 0.997199 0.00105804
-0.0522996 -0.0577655 0.996959 0.00802053
-0.0404571 -0.0450422 0.998165 0
0.0859128 -0.107286 0.990509 0
0.0867364 -0.102094 0.990986 0
0.0922382 -0.103038 0.990391 0
0.103785 -0.106413 0.988891 0.0125865
0.127741 -0.113347 0.985309 0.0245586
0.129886 -0.113372 0.985026 0.0218442
-0.0720244 -0.0703655 0.994918 0.0251458
-0.0711807 -0.0609378 0.9956 0.0168523
-0.0698403 -0.0571318 0.995921 0.0138646
-0.0745902 -0.0703046 0.994733 0.0255177
-0.0703182 -0.0762708 0.994605 0.0255011
-0.0667175 -0.0638375 0.995728 0.00830645
-0.0688789 -0.0675489 0.995336 0.016002
-0.0673892 -0.0639173 0.995677 0.00120925
-0.064476 -0.0674318 0.995638 0.00669661
-0.0624457 -0.0516691 0.99671 0.00574067
-0.0584425 -0.0544712 0.996804 0
-0.0557523 -0.0628214 0.996466 0.00329604
-0.0502625 -0.0595064 0.996962 0
-0.0532898 -0.0679772 0.996263 0.0137172
0.0943873 -0.0935694 0.991129 0
0.101194 -0.0956709 0.990256 0
0.102441 -0.0964214 0.990055 0.00277314
0.120911 -0.101909 0.987418 0.0118146
0.126042 -0.0963379 0.987336 0
-0.070116 -0.0673242 0.995264 0.0141619
-0.0682299 -0.0538478 0.996215 0.00556357
-0.0670753 -0.0630293 0.995755 0.0152196
-0.0700255 -0.0703439 0.995062 0.0204763
-0.0671396 -0.064041 0.995686 0.0159547
-0.0678007 -0.0661273 0.995505 0.0134744
-0.0704843 -0.0765605 0.99457 0.0192079
-0.0682211 -0.0631486 0.99567 0.00629126
-0.064553 -0.0613391 0.996027 0.00105135
-0.0632273 -0.0640704 0.99594 0.00781836
-0.0564424 -0.0594217 0.996636 0
-0.0557847 -0.0674426 0.996162 0
-0.0518128 -0.0733571 0.995959 0
0.0883449 -0.100442 0.991013 0
0.0966518 -0.100685 0.990213 0
0.102406 -0.105936 0.989086 0.0126863
0.113774 -0.108826 0.987528 0.0190318
0.121167 -0.101438 0.987435 0.0102275
-0.0693303 -0.0842302 0.994031 0.0197473
-0.0691499 -0.0673104 0.995333 0.00787498
-0.0715231 -0.0784656 0.994348 0.0230104
-0.0667521 -0.0593127 0.996005 0.0139162
-0.0692384 -0.0623359 0.995651 0.0141002
-0.0682662 -0.0648117 0.99556 0.015985
-0.0630538 -0.0614444 0.996117 0.00752489
-0.065631 -0.0561217 0.996265 0.00217026
-0.0623023 -0.0525215 0.996674 0
-0.066961 -0.0591654 0.996 0.00328456
-0.0675545 -0.0579263 0.996033 0.00140603
-0.0676513 -0.0756726 0.994835 0.0084641
-0.0600028 -0.0703801 0.995714 0.00248931
-0.057313 -0.0813852 0.995034 0
-0.0563247 -0.0982502 0.993567 0.011169
0.0887863 -0.102105 0.990803 0.0163607
0.0931415 -0.119627 0.98844 0.0289268
0.114752 -0.111942 0.987067 0.0245588
0.115779 -0.0995944 0.988269 0
-0.0591171 -0.0844231 0.994675 0
-0.0628901 -0.084449 0.994441 0.00613759
-0.0684858 -0.0925828 0.993347 0.0168879
-0.0673382 -0.0720455 0.995126 0.00330384
-0.0674245 -0.0705873 0.995224 0.0083373
-0.0649335 -0.0648806 0.995778 0.0106014
-0.0650441 -0.0559167 0.996315 0
-0.0632121 -0.0694212 0.995583 0
-0.062286 -0.0466161 0.996969 0.000718055
-0.0662044 -0.0535956 0.996366 0.00264961
-0.0690283 -0.0696566 0.99518 0.00712111
-0.0702487 -0.0677023 0.995229 0.0105796
-0.0647971 -0.0811694 0.994592 0.0165799
-0.0597761 -0.075429 0.995358 0.00563659
-0.0615352 -0.0900146 0.994038 0.0136401
-0.0578948 -0.0926683 0.994012 0.00830533
0.0944563 -0.117631 0.988555 0.0151439
0.107381 -0.105916 0.98856 0
0.119047 -0.106885 0.987119 0.000578473
0.128268 -0.115478 0.984994 0
-0.0604269 -0.0767111 0.995221 0
-0.0639905 -0.078839 0.994832 0.00762904
-0.0663984 -0.0754684 0.994935 0.00524524
-0.069418 -0.0617365 0.995676 0.0042589
-0.0655232 -0.0612782 0.995968 0.00770645
-0.0646023 -0.0532743 0.996488 0.00196326
-0.0658176 -0.0530627 0.99642 0
-0.0627788 -0.0613836 0.996138 0
-0.0667027 -0.0558847 0.996207 0
-0.0654703 -0.0532954 0.99643 0.00167088
-0.0671488 -0.0606471 0.995898 0
-0.0669841 -0.0712935 0.995204 0.00356604
-0.067139 -0.0905398 0.993627 0.0265003
-0.0602435 -0.0774758 0.995173 0.0158943
-0.0577684 -0.0895826 0.994303 0.0158075
0.0954086 -0.119102 0.988287 0.00286574
0.106854 -0.109123 0.988268 0
0.117563 -0.111665 0.986767 0
0.1264 -0.116137 0.985157 0.000942467
-0.0559645 -0.0757621 0.995554 0
-0.0607014 -0.0802841 0.994922 0
-0.0611471 -0.0798868 0.994927 0
-0.0600733 -0.0681304 0.995866 0.00128597
-0.0617777 -0.06807 0.995766 0.00158015
-0.067402 -0.0704721 0.995234 0.00178618
-0.0639128 -0.065236 0.995821 0
-0.0622763 -0.0458015 0.997007 0
-0.0658576 -0.0480259 0.996673 0
-0.0643854 -0.0562926 0.996336 0
-0.0674218 -0.0703035 0.995245 0
-0.0650913 -0.0539848 0.996418 0
-0.0654741 -0.0638427 0.99581 0
-0.0634167 -0.0714302 0.995428 0
-0.0639801 -0.0716533 0.995376 0.00144849
-0.0677379 -0.0849963 0.994076 0.0175177
-0.0660327 -0.0851015 0.994182 0.0290573
-0.0608605 -0.0920069 0.993897 0.0208946
0.0972932 -0.113681 0.988742 0
0.110598 -0.114342 0.987266 0
0.119995 -0.125359 0.984828 0
0.126587 -0.114999 0.985267 0
-0.0544698 -0.0850618 0.994886 0
-0.0542642 -0.0916814 0.994309 0
-0.0581431 -0.0863298 0.994569 0
-0.0612059 -0.0916504 0.993908 0
-0.0587893 -0.0956654 0.993676 0
-0.0595574 -0.0675678 0.995935 0
-0.0627354 -0.0770355 0.995053 0
-0.06358 -0.0617517 0.996064 0
-0.0678728 -0.0632667 0.995686 0
-0.0659166 -0.0535198 0.996389 0
-0.0640782 -0.0502395 0.996679 0
-0.0634436 -0.0697313 0.995546 0
-0.0625002 -0.0663307 0.995838 0
-0.0631671 -0.0745786 0.995212 0
-0.0638502 -0.0672766 0.995689 0
-0.0632769 -0.0820898 0.994614 0
0.109897 -0.111225 0.9877 0
0.117987 -0.114084 0.98644 0
0.123434 -0.122383 0.984777 0
-0.0567887 -0.084665 0.99479 0
-0.0590564 -0.0909565 0.994102 0
-0.0551186 -0.102569 0.993198 0
-0.0593819 -0.0928737 0.993906 0
-0.0603523 -0.102664 0.992884 0
-0.0628521 -0.0855668 0.994348 0
-0.0621505 -0.0802561 0.994835 0
-0.0637696 -0.0752747 0.995122 0
-0.0653963 -0.0678196 0.995552 0
-0.0608837 -0.0584233 0.996434 0
-0.0616606 -0.0610015 0.996231 0
-0.0643966 -0.0820917 0.994542 0
-0.0630496 -0.0868129 0.994227 0
-0.0661308 -0.0846637 0.994213 0
-0.0654396 -0.0769074 0.994888 0
-0.0651138 -0.0877181 0.994015 0
0.103268 -0.121746 0.987175 0
0.108572 -0.126753 0.985975 0
0.121795 -0.12698 0.984399 0.00449304
-0.0591316 -0.0980656 0.993422 0
-0.0616894 -0.101331 0.992938 0
-0.0564677 -0.108519 0.992489 0
-0.0586895 -0.100293 0.993226 0
-0.0603782 -0.0958296 0.993565 0
-0.0615774 -0.0967194 0.993405 0
-0.0601004 -0.0829646 0.994739 0
-0.0614215 -0.0764481 0.99518 0
-0.0625909 -0.0863782 0.994294 0
-0.0647211 -0.0905344 0.993788 0
-0.0632611 -0.0891491 0.994007 0
-0.061714 -0.0788633 0.994973 0
-0.064647 -0.0916803 0.993688 0
-0.0611872 -0.0890995 0.994142 0
-0.0644807 -0.0803704 0.994677 0
-0.0664439 -0.0870084 0.993989 0
0.109627 -0.129293 0.985528 0
0.117779 -0.129152 0.984605 0
-0.0656315 -0.115643 0.99112 0.0060147
-0.0564466 -0.109497 0.992383 0
-0.0563592 -0.104547 0.992922 0
-0.060237 -0.111058 0.991987 0
-0.0568765 -0.0987185 0.993489 0
-0.0575914 -0.0967556 0.993641 0
-0.0622874 -0.101571 0.992876 0.00509266
-0.0656447 -0.103686 0.992441 0.00865687
-0.059693 -0.0861341 0.994494 0
-0.0584529 -0.0943741 0.993819 0
-0.0640061 -0.103111 0.992608 0
-0.0606773 -0.0970338 0.99343 0
-0.0604044 -0.0917824 0.993945 0
-0.0611037 -0.0829209 0.994681 0
-0.0641351 -0.107235 0.992163 0
-0.0655982 -0.100751 0.992747 0
0.111596 -0.124473 0.985927 0
0.121421 -0.123236 0.984921 0
0.145365 -0.118353 0.982274 0
-0.0656917 -0.100468 0.992769 0.0122201
-0.0657336 -0.114728 0.99122 0.00269074
-0.068312 -0.128751 0.989321 0.0252635
-0.0636318 -0.116295 0.991174 0.0155143
-0.0582998 -0.11235 0.991957 0
-0.0616115 -0.120198 0.990836 0.00744285
-0.0605375 -0.127526 0.989986 0.00635447
-0.060289 -0.107938 0.992328 0.000353269
-0.060501 -0.103765 0.99276 0
-0.0609669 -0.105839 0.992513 0.0092664
-0.0604419 -0.105758 0.992553 0.0146261
-0.0608491 -0.0938179 0.993728 0.0105951
-0.0650142 -0.105983 0.99224 0.00813557
-0.0633974 -0.101368 0.992827 0
-0.05694 -0.0988408 0.993473 0
-0.0586918 -0.101627 0.99309 0
-0.0608429 -0.115551 0.991436 0
0.124903 -0.129561 0.983673 0
0.137802 -0.123495 0.982731 0
-0.0604982 -0.1005 0.993096 0.00902752
-0.0644835 -0.116012 0.991152 0.00822712
-0.0711886 -0.128997 0.989086 0.0337621
-0.0673316 -0.116402 0.990917 0.0286575
-0.0635028 -0.125263 0.990089 0.0180069
