# .PCD v0.7 - Point Cloud Data file format
VERSION 0.7
FIELDS x y z
SIZE 4 4 4
TYPE F F F
COUNT 1 1 1
WIDTH 1326
HEIGHT 1
VIEWPOINT 0 0 0 1 0 0 0
POINTS 1326
DATA ascii
-0.064081997 -0.26989034 -0.40272251
-0.063913912 -0.26990375 -0.4027245
-0.063700996 -0.26991901 -0.40272835
-0.063533999 -0.26992199 -0.40272701
-0.062836654 -0.26989916 -0.40278831
-0.0668386 -0.26968959 -0.40278682
-0.066685669 -0.26968366 -0.402785
-0.066520996 -0.26968566 -0.40277734
-0.066327669 -0.26969203 -0.40276733
-0.066095002 -0.26972139 -0.40278301
-0.065891251 -0.26969874 -0.402767
-0.065706208 -0.26971221 -0.40275303
-0.065529749 -0.26969698 -0.40274975
-0.065251008 -0.26968986 -0.40274042
-0.065093748 -0.26970425 -0.4027375
-0.064904198 -0.26968098 -0.40270242
-0.064723879 -0.26970878 -0.40270585
-0.064334795 -0.26971141 -0.40269995
-0.064113669 -0.269703 -0.40272132
-0.063894637 -0.26968959 -0.40273455
-0.063688673 -0.26969698 -0.40274265
-0.063520998 -0.26970065 -0.40274933
-0.066808999 -0.26952699 -0.40279901
-0.066677667 -0.26953635 -0.40279365
-0.066512004 -0.269539 -0.402796
-0.066317007 -0.26950902 -0.40279001
-0.066147998 -0.269557 -0.40279701
-0.065843336 -0.26949701 -0.40277466
-0.065687165 -0.26950681 -0.40277579
-0.065520503 -0.26951101 -0.4027423
-0.065260604 -0.26951119 -0.40274763
-0.065115005 -0.269499 -0.402733
-0.064893596 -0.26948822 -0.40270996
-0.064712226 -0.26948535 -0.40270466
-0.064315498 -0.26950365 -0.40270436
-0.064102888 -0.26951832 -0.40273687
-0.063901 -0.26950869 -0.40274891
-0.063676 -0.26947701 -0.40276965
-0.06350901 -0.26947835 -0.40275466
-0.065830998 -0.26927498 -0.40278336
-0.065668397 -0.26930061 -0.40278396
-0.065508507 -0.26928884 -0.40275034
-0.065287329 -0.26930201 -0.40275666
-0.065148331 -0.26931068 -0.40275016
-0.064915203 -0.26930779 -0.40272743
-0.064702004 -0.269301 -0.40271068
-0.064303331 -0.26928183 -0.402715
-0.064090334 -0.26929724 -0.40275609
-0.063880667 -0.26931348 -0.40277088
-0.063666001 -0.26929098 -0.402767
-0.063498005 -0.26929301 -0.40278101
-0.065823004 -0.26912701 -0.402796
-0.065626003 -0.26906499 -0.40279099
-0.06549675 -0.26910549 -0.40278676
-0.065275997 -0.26907864 -0.40275165
-0.065136336 -0.26908901 -0.40275863
-0.0648885 -0.26910233 -0.40272734
-0.064691782 -0.26911557 -0.40272167
-0.064293504 -0.26909798 -0.40272522
-0.064101249 -0.26913026 -0.40277624
-0.063842997 -0.269171 -0.402787
-0.063738003 -0.2691156 -0.40278077
-0.063488334 -0.26910868 -0.40277967
-0.065622002 -0.26899099 -0.402789
-0.065487832 -0.2689195 -0.40277836
-0.065265 -0.268895 -0.40276599
-0.065126002 -0.26890448 -0.402771
-0.064904667 -0.26892734 -0.4027493
-0.064700544 -0.26888683 -0.40273628
-0.064282328 -0.26891333 -0.4027493
-0.064152002 -0.26892349 -0.40279299
-0.063775003 -0.26880199 -0.40279901
-0.063477002 -0.26888499 -0.402776
-0.065467596 -0.26871258 -0.4027822
-0.065255009 -0.26870999 -0.402778
-0.065117255 -0.26875752 -0.40279251
-0.064948998 -0.26879999 -0.402794
-0.064712577 -0.26871341 -0.40276399
-0.064594999 -0.268641 -0.40274999
-0.064269997 -0.26869154 -0.40276447
-0.064140998 -0.26870033 -0.40277001
-0.063769504 -0.26868898 -0.40279299
-0.063466996 -0.2687 -0.402776
-0.06515 -0.26853001 -0.40279198
-0.06472066 -0.26852214 -0.40277496
-0.064586505 -0.26849502 -0.40277702
-0.064259999 -0.26850674 -0.402771
-0.064133003 -0.26855299 -0.402789
-0.063964002 -0.26841199 -0.40279999
-0.063725002 -0.26848724 -0.40278524
-0.063457005 -0.26851499 -0.40278232
-0.064716622 -0.26830849 -0.40277225
-0.064576 -0.26830935 -0.40278634
-0.064249836 -0.26832098 -0.40277448
-0.064074755 -0.26829523 -0.40279299
-0.063956 -0.26826501 -0.402796
-0.063680835 -0.26828519 -0.40277967
-0.063449003 -0.26836699 -0.40279701
-0.064731598 -0.26809177 -0.40278322
-0.064563997 -0.26808667 -0.40279803
-0.064121999 -0.26812741 -0.40279171
-0.063950494 -0.26815301 -0.402794
-0.063716754 -0.26809701 -0.40278125
-0.063435495 -0.26810652 -0.402785
-0.064742506 -0.26788998 -0.40278301
-0.064269006 -0.26791197 -0.40279999
-0.064181998 -0.26784199 -0.40279198
-0.063934997 -0.267856 -0.402794
-0.063749 -0.26792318 -0.40277982
-0.063509248 -0.26792049 -0.40278724
-0.064736001 -0.26778099 -0.40279499
-0.064259671 -0.26772603 -0.40279233
-0.064173996 -0.26769298 -0.402789
-0.063720003 -0.26776099 -0.402796
-0.064167999 -0.267582 -0.40279299
-0.062201999 -0.256309 -0.40279999
-0.0621356 -0.25627059 -0.40277061
-0.062125199 -0.25608361 -0.40277576
-0.063095003 -0.25588799 -0.40279901
-0.062085859 -0.25591299 -0.40279001
-0.063109249 -0.25570273 -0.4027935
-0.062083002 -0.25577033 -0.40279135
-0.063088745 -0.25553548 -0.40279174
-0.062076252 -0.2554605 -0.40279025
-0.061887667 -0.25550568 -0.40279433
-0.063304998 -0.25520349 -0.40278751
-0.063083202 -0.25528002 -0.40277457
-0.062925003 -0.25523001 -0.402787
-0.062758505 -0.25526649 -0.40279201
-0.062062003 -0.25528997 -0.40278021
-0.061927143 -0.25527129 -0.40277413
-0.063258 -0.2551018 -0.40277362
-0.063105337 -0.25510716 -0.40276614
-0.062917665 -0.25508067 -0.40275833
-0.062750004 -0.25508234 -0.40276566
-0.062242001 -0.25511065 -0.40277997
-0.062093124 -0.25511575 -0.40277037
-0.061895501 -0.25509682 -0.40277383
-0.061721999 -0.25506699 -0.402798
-0.061542001 -0.25504202 -0.40279299
-0.06102325 -0.255088 -0.40279627
-0.063439332 -0.25484869 -0.40278998
-0.063268751 -0.25491673 -0.40277261
-0.063105896 -0.25491321 -0.40276751
-0.062909998 -0.25489652 -0.40272301
-0.062741503 -0.25489801 -0.4027375
-0.062231332 -0.25488868 -0.40275335
-0.062076885 -0.25490421 -0.40272847
-0.061886773 -0.25491178 -0.40275577
-0.061715335 -0.25491932 -0.40277699
-0.061533999 -0.25489402 -0.402794
-0.061356999 -0.254899 -0.402789
-0.061040752 -0.2549015 -0.4027895
-0.060941 -0.25486332 -0.40278018
-0.063446499 -0.254711 -0.40279004
-0.063295431 -0.25467214 -0.40277416
-0.063110746 -0.25469568 -0.40276709
-0.062900998 -0.25471166 -0.40270567
-0.062732667 -0.25471297 -0.40271866
-0.0622245 -0.25470501 -0.40270099
-0.062066112 -0.25468192 -0.4027057
-0.061916497 -0.25468948 -0.40271235
-0.061750501 -0.25469419 -0.40274987
-0.06152533 -0.25470865 -0.40277934
-0.061347336 -0.25471303 -0.40278134
-0.061044998 -0.25469702 -0.4027555
-0.060918998 -0.25470352 -0.40277901
-0.064032003 -0.25442499 -0.40279901
-0.063845001 -0.254435 -0.402796
-0.063542254 -0.25450075 -0.40279076
-0.063310497 -0.25449583 -0.40275815
-0.063090198 -0.25448948 -0.40274501
-0.062888332 -0.25448799 -0.40272367
-0.062721007 -0.25448999 -0.40271735
-0.062213998 -0.25451899 -0.40270901
-0.062057663 -0.25449702 -0.40267864
-0.061907001 -0.25450426 -0.40270951
-0.061731599 -0.25448799 -0.40272361
-0.061515 -0.25448668 -0.40274432
-0.061336998 -0.25449201 -0.40275231
-0.061113667 -0.25450483 -0.40276504
-0.060909782 -0.25451812 -0.40276733
-0.060743 -0.254446 -0.40279499
-0.064025335 -0.254278 -0.40278435
-0.063890398 -0.25426778 -0.40278283
-0.063511498 -0.25429866 -0.40276316
-0.06330166 -0.2543112 -0.40274119
-0.063102804 -0.25431043 -0.40273127
-0.062879995 -0.25430399 -0.40270352
-0.062712505 -0.25430548 -0.40270299
-0.062204 -0.25433299 -0.40270799
-0.062093709 -0.254298 -0.40267459
-0.061929557 -0.25431755 -0.40268743
-0.061742403 -0.25431004 -0.4026874
-0.061506502 -0.25430298 -0.40272099
-0.061326999 -0.25430501 -0.402762
-0.061103333 -0.25428233 -0.40273651
-0.060899999 -0.25429609 -0.40272671
-0.060736667 -0.254298 -0.40276834
-0.064067997 -0.25407466 -0.40277731
-0.063897669 -0.25409535 -0.40278232
-0.063492194 -0.25409079 -0.40276361
-0.063290991 -0.25408953 -0.40271965
-0.063081667 -0.25410402 -0.40271759
-0.062870003 -0.25411832 -0.40269801
-0.062703006 -0.25412035 -0.40269399
-0.062096622 -0.25409326 -0.40267363
-0.061919443 -0.25409609 -0.40265712
-0.061722171 -0.2541025 -0.40269002
-0.061497997 -0.25411767 -0.40269837
-0.061317667 -0.25412068 -0.40273938
-0.0610945 -0.25409773 -0.40270999
-0.060881004 -0.25408426 -0.40270752
-0.060722999 -0.25407401 -0.40279999
-0.064346001 -0.25383234 -0.40279198
-0.064084999 -0.25389799 -0.4027755
-0.063888669 -0.2539109 -0.40276989
-0.063500203 -0.25391281 -0.4027552
-0.063281164 -0.25390351 -0.40271798
-0.063089371 -0.25388962 -0.402715
-0.062926836 -0.25389102 -0.40268615
-0.062691666 -0.25389734 -0.40268168
-0.062111288 -0.25391287 -0.40265074
-0.061902124 -0.25388438 -0.40262139
-0.06171133 -0.25388035 -0.40267336
-0.061487 -0.25389501 -0.40268397
-0.061307669 -0.25389966 -0.40270802
-0.061085504 -0.25391269 -0.40270248
-0.060891859 -0.25390556 -0.40267739
-0.060717668 -0.25392631 -0.40276468
-0.065006003 -0.25362599 -0.402798
-0.064838998 -0.25366101 -0.40278968
-0.064668998 -0.25366667 -0.40278801
-0.064465001 -0.25372633 -0.40278903
-0.064324744 -0.25369874 -0.40277225
-0.064155996 -0.25370502 -0.40273702
-0.063907914 -0.25368857 -0.4027389
-0.063482836 -0.25370699 -0.40271464
-0.063311003 -0.25371718 -0.40269914
-0.063125804 -0.25371403 -0.40268892
-0.062904403 -0.25368601 -0.40264621
-0.062682003 -0.25367668 -0.40264103
-0.062089998 -0.25371432 -0.4026219
-0.061909568 -0.25370485 -0.40261969
-0.061702751 -0.25369599 -0.40264577
-0.061478503 -0.25371051 -0.40265799
-0.061296999 -0.253676 -0.40269503
-0.061150331 -0.2536813 -0.402742
-0.0609245 -0.25370851 -0.40266857
-0.060742803 -0.25369161 -0.40269417
-0.060525 -0.25370699 -0.402789
-0.06024 -0.25365001 -0.40279099
-0.065471001 -0.25345299 -0.40279999
-0.065300003 -0.25346199 -0.40279099
-0.065003 -0.25355199 -0.40278399
-0.064881496 -0.25347501 -0.40277714
-0.06467583 -0.25349265 -0.40276501
-0.064455338 -0.25350502 -0.40274432
-0.064316668 -0.25351399 -0.40274003
-0.064146332 -0.25351968 -0.402733
-0.063914001 -0.2535086 -0.40271088
-0.063799001 -0.253474 -0.40268701
-0.063472837 -0.25348583 -0.40268099
-0.063300841 -0.25349617 -0.40267
-0.063105591 -0.25350851 -0.40266049
-0.062923394 -0.25350758 -0.40262198
-0.062673002 -0.253492 -0.40263
-0.062087126 -0.25349915 -0.40262687
-0.061852802 -0.25351959 -0.40261999
-0.061671752 -0.25353101 -0.40263301
-0.061470002 -0.253526 -0.40263602
-0.061287001 -0.25349152 -0.402693
-0.061143003 -0.25349849 -0.40268451
-0.060927887 -0.253479 -0.40264535
-0.060742334 -0.25348517 -0.40265569
-0.060474001 -0.2534866 -0.40278357
-0.060285199 -0.25351262 -0.40279222
-0.060091887 -0.25350833 -0.40278849
-0.066006668 -0.25328767 -0.40278164
-0.06593167 -0.25324133 -0.40278232
-0.065654501 -0.25326002 -0.402796
-0.065462999 -0.25330365 -0.40279934
-0.065292664 -0.25331303 -0.40278032
-0.065137662 -0.25332066 -0.40277997
-0.064930499 -0.25329474 -0.40277272
-0.06471017 -0.25330648 -0.40275064
-0.064444661 -0.25328299 -0.402722
-0.064305499 -0.25329098 -0.40272698
-0.064136006 -0.25329801 -0.40270999
-0.06392356 -0.25331709 -0.40269625
-0.063791662 -0.25332633 -0.40267733
-0.063463494 -0.25330049 -0.40267152
-0.063282207 -0.25328961 -0.4026452
-0.063103266 -0.25328699 -0.40262443
-0.062898993 -0.25330067 -0.40261802
-0.0626655 -0.25334451 -0.40261298
-0.062120665 -0.25331298 -0.40261498
-0.061660498 -0.25330776 -0.40262276
-0.061458666 -0.25330296 -0.40262535
-0.061280336 -0.25330767 -0.40263033
-0.061135996 -0.25331333 -0.40264168
-0.060917828 -0.25329283 -0.40264985
-0.06073375 -0.25330076 -0.40263152
-0.060456499 -0.25330248 -0.402744
-0.060258001 -0.25329199 -0.40275183
-0.060122665 -0.25328034 -0.40277615
-0.059996333 -0.25329566 -0.40277836
-0.066228002 -0.25316101 -0.40279698
-0.066061497 -0.25309348 -0.40279102
-0.065910377 -0.25308773 -0.40276614
-0.065690503 -0.253075 -0.40278867
-0.065451667 -0.25308201 -0.40278664
-0.065281995 -0.25309166 -0.40275967
-0.065126993 -0.25309899 -0.40275967
-0.064920999 -0.2531105 -0.40276182
-0.06470111 -0.25312108 -0.4027389
-0.064435005 -0.2530975 -0.402724
-0.064296499 -0.25310674 -0.40271348
-0.064124331 -0.25307599 -0.40270066
-0.063913114 -0.253095 -0.40267301
-0.063780338 -0.25310299 -0.40267202
-0.063454501 -0.253115 -0.40265521
-0.0632912 -0.2531102 -0.40263262
-0.063086122 -0.25310099 -0.40261701
-0.062854499 -0.25309825 -0.402612
-0.062148999 -0.253187 -0.40260199
-0.061629999 -0.25314301 -0.40260199
-0.061450999 -0.25315499 -0.40261599
-0.061273001 -0.25316 -0.40261501
-0.061124668 -0.25309235 -0.40262434
-0.060917746 -0.25311691 -0.40262413
-0.060715199 -0.25310099 -0.40261641
-0.060474001 -0.25313625 -0.40270725
-0.060304575 -0.25310513 -0.40272358
-0.060114749 -0.25309551 -0.4027465
-0.059930664 -0.25309864 -0.40275702
-0.066210002 -0.25282699 -0.40279901
-0.066051669 -0.25290897 -0.402787
-0.06591019 -0.25291383 -0.40275756
-0.065681249 -0.25289077 -0.402771
-0.065442994 -0.25289798 -0.402758
-0.065273002 -0.25290698 -0.40274298
-0.065115996 -0.25287798 -0.40273866
-0.064910673 -0.25288901 -0.40273181
-0.064701624 -0.252909 -0.40272078
-0.064468749 -0.25289175 -0.40271902
-0.064287663 -0.252922 -0.40269366
-0.064116001 -0.252891 -0.40267599
-0.063895427 -0.25289515 -0.40265003
-0.063770004 -0.25288165 -0.402639
-0.063452594 -0.25290781 -0.40264216
-0.063286334 -0.25290284 -0.40262416
-0.063103668 -0.25291365 -0.40261066
-0.061257999 -0.25286299 -0.40260199
-0.061117999 -0.25294301 -0.40260801
-0.060934 -0.25295848 -0.40260699
-0.060714997 -0.25293025 -0.40261447
-0.060486998 -0.25289467 -0.40268266
-0.060295004 -0.25290444 -0.40270457
-0.060105335 -0.25290981 -0.40273347
-0.059935499 -0.25290775 -0.40273702
-0.059716001 -0.252855 -0.40279499
-0.066945001 -0.25265101 -0.402789
-0.066205502 -0.2527155 -0.40278301
-0.066081248 -0.25266674 -0.40275824
-0.065922774 -0.2526978 -0.40273577
-0.065713897 -0.25270587 -0.40274644
-0.065434664 -0.25271299 -0.40273333
-0.065264337 -0.25272268 -0.40272132
-0.0651085 -0.25269401 -0.4027015
-0.064902753 -0.25270528 -0.40269476
-0.064724825 -0.25267699 -0.40267587
-0.064503334 -0.25268599 -0.40269122
-0.064277671 -0.25270101 -0.40265813
-0.064107001 -0.252707 -0.40265703
-0.063896433 -0.25272629 -0.40262359
-0.063761994 -0.2526975 -0.40260899
-0.063475996 -0.25270498 -0.402632
-0.063317858 -0.25270042 -0.40260884
-0.063042 -0.252772 -0.40260401
-0.060477503 -0.25270897 -0.40267849
-0.06033 -0.25268018 -0.40266767
-0.06012778 -0.25268811 -0.40270486
-0.059925999 -0.252722 -0.40273225
-0.059694126 -0.25269762 -0.4027676
-0.059517 -0.25264299 -0.402789
-0.067052498 -0.25245303 -0.4027825
-0.06694375 -0.25249299 -0.40277353
-0.066644333 -0.252514 -0.40278232
-0.066113248 -0.25249702 -0.40275699
-0.065905623 -0.2524856 -0.40271574
-0.065703779 -0.25248414 -0.40271956
-0.065424003 -0.25249135 -0.40271333
-0.065254666 -0.25250199 -0.40268064
-0.065099329 -0.25250936 -0.40268767
-0.06489516 -0.25252137 -0.40265533
-0.064715751 -0.25249276 -0.40265548
-0.064496249 -0.25250351 -0.402641
-0.064268336 -0.25248048 -0.40261614
-0.064097337 -0.25248599 -0.40261969
-0.063832 -0.25258201 -0.402605
-0.063470997 -0.25259599 -0.40261999
-0.060469329 -0.25252435 -0.40265167
-0.060320251 -0.25249398 -0.40266252
-0.060118828 -0.2525025 -0.40268919
-0.059957337 -0.25248101 -0.402697
-0.059707627 -0.25249413 -0.40273786
-0.059540004 -0.25249133 -0.40277299
-0.068066001 -0.252213 -0.4027985
-0.067881003 -0.25226402 -0.40278399
-0.067573994 -0.25235 -0.40279201
-0.067044497 -0.252303 -0.40278301
-0.066926219 -0.25227943 -0.40276498
-0.066698804 -0.2522732 -0.40276843
-0.066104837 -0.25231317 -0.40273318
-0.065911427 -0.25230646 -0.40270382
-0.065694667 -0.25229898 -0.40270534
-0.065414503 -0.25230598 -0.402704
-0.065244332 -0.25228068 -0.40265766
-0.065088332 -0.25228664 -0.40266737
-0.064884335 -0.25229967 -0.402637
-0.064707495 -0.25230882 -0.40263113
-0.064532995 -0.25233576 -0.40261224
-0.064323403 -0.25229898 -0.40261158
-0.060459334 -0.25230399 -0.40261534
-0.060311336 -0.25230968 -0.40264615
-0.060110338 -0.25231856 -0.40266335
-0.059948999 -0.25229698 -0.40266901
-0.0597325 -0.25229675 -0.40274298
-0.059559662 -0.25229034 -0.40276
-0.068087839 -0.25210035 -0.40278766
-0.067872338 -0.25207999 -0.40275702
-0.067525804 -0.25207901 -0.40276822
-0.067322671 -0.25205132 -0.40279102
-0.067034334 -0.25211799 -0.402787
-0.066916667 -0.252094 -0.402758
-0.066707753 -0.25210327 -0.40273902
-0.066093668 -0.25209153 -0.4027175
-0.065894455 -0.25210711 -0.40267834
-0.065697253 -0.25212377 -0.40268311
-0.065453246 -0.252101 -0.40268674
-0.065234005 -0.25209498 -0.402657
-0.065079495 -0.252103 -0.402652
-0.064861402 -0.2520926 -0.4026348
-0.064706199 -0.25210181 -0.40261179
-0.064565003 -0.25209332 -0.40260366
-0.064358667 -0.25215164 -0.40261135
-0.060451999 -0.25215399 -0.40260199
-0.060326003 -0.25210524 -0.40261173
-0.060099225 -0.25209591 -0.40265089
-0.059941664 -0.25211266 -0.40262434
-0.059724331 -0.25211298 -0.4027122
-0.059535831 -0.25211883 -0.40275702
-0.068570003 -0.25181401 -0.40279299
-0.068209998 -0.251831 -0.40279099
-0.068078443 -0.25191486 -0.40277946
-0.067863002 -0.25189501 -0.40274751
-0.067499407 -0.25188822 -0.4027372
-0.067329496 -0.25187883 -0.40276566
-0.067024998 -0.25189766 -0.40274167
-0.066908106 -0.25190967 -0.40273434
-0.066698663 -0.25191817 -0.40272984
-0.06608475 -0.25190699 -0.40269524
-0.0658952 -0.25187722 -0.4026545
-0.065718673 -0.25189283 -0.40265918
-0.065588675 -0.25189301 -0.40266433
-0.065310501 -0.25190452 -0.40265214
-0.065070003 -0.251917 -0.40264034
-0.064876199 -0.25191301 -0.40262818
-0.064730003 -0.25190097 -0.40261599
-0.060341001 -0.25193799 -0.402601
-0.060077798 -0.25191921 -0.40262479
-0.059929669 -0.25188935 -0.40262333
-0.059713662 -0.25189066 -0.40268898
-0.059525501 -0.25189635 -0.40272915
-0.059393 -0.25186199 -0.40279099
-0.068656504 -0.25170201 -0.40279099
-0.068514749 -0.25170451 -0.40278751
-0.068291575 -0.25168028 -0.40277758
-0.068080999 -0.25168481 -0.40275869
-0.067855664 -0.25171134 -0.40270197
-0.067508399 -0.25171 -0.4027226
-0.067321002 -0.25169474 -0.40274122
-0.067014337 -0.25167599 -0.40272132
-0.066897884 -0.25168857 -0.40270543
-0.066688664 -0.25169715 -0.40269116
-0.066157669 -0.25171867 -0.40268198
-0.065904498 -0.25169823 -0.40264425
-0.065709993 -0.25170898 -0.40263224
-0.065580502 -0.25170851 -0.40263999
-0.065299496 -0.2516835 -0.40263152
-0.065058999 -0.25169566 -0.40262833
-0.064917997 -0.25177801 -0.402603
-0.064761505 -0.25178748 -0.40260649
-0.05970525 -0.25170624 -0.40266702
-0.059507001 -0.2516908 -0.40270358
-0.059385002 -0.25167668 -0.40276131
-0.068687998 -0.25151783 -0.40277684
-0.068506174 -0.25152019 -0.40276468
-0.068327256 -0.25149399 -0.40276375
-0.068083219 -0.25149509 -0.40273178
-0.067844003 -0.25148967 -0.40269998
-0.067489669 -0.25150368 -0.40269983
-0.067312494 -0.2515105 -0.40271518
-0.067006007 -0.25149202 -0.40270102
-0.066890173 -0.251506 -0.40266767
-0.066762999 -0.2515085 -0.402661
-0.066596664 -0.25148335 -0.40264201
-0.066147 -0.25149733 -0.4026573
-0.065924875 -0.25152987 -0.40263063
-0.065700337 -0.25152349 -0.40263185
-0.065572001 -0.25152469 -0.40260699
-0.06529025 -0.25149775 -0.40262324
-0.065050006 -0.25151098 -0.402614
-0.059676502 -0.25154173 -0.40262601
-0.05951 -0.25152928 -0.40264976
-0.059347 -0.25148234 -0.40273532
-0.069245331 -0.25128701 -0.40279266
-0.069049001 -0.25125575 -0.40278926
-0.068949506 -0.2512455 -0.402787
-0.068678334 -0.2512975 -0.4027375
-0.068496332 -0.25130033 -0.40272483
-0.068318665 -0.25130999 -0.40273467
-0.068113334 -0.25132075 -0.40271032
-0.067916751 -0.25129899 -0.40268224
-0.067480169 -0.251284 -0.40265465
-0.067302667 -0.25128949 -0.40268067
-0.067001 -0.25138101 -0.40268099
-0.066902548 -0.2513127 -0.40264139
-0.066754334 -0.25132298 -0.40264502
-0.066588506 -0.25129998 -0.40261501
-0.066137336 -0.251277 -0.40261731
-0.065977998 -0.251358 -0.40261
-0.065691002 -0.25133872 -0.40262449
-0.065368503 -0.25134701 -0.40261099
-0.059452999 -0.25130901 -0.40266433
-0.059324335 -0.25131068 -0.40271401
-0.069865666 -0.25109032 -0.40276799
-0.069652669 -0.25109801 -0.4027783
-0.069311872 -0.25112125 -0.40277565
-0.069087498 -0.25111437 -0.40276387
-0.068961658 -0.25108364 -0.402771
-0.068667166 -0.25107518 -0.40272722
-0.068485834 -0.25107849 -0.40270317
-0.068308666 -0.25108886 -0.40270135
-0.068103448 -0.25110066 -0.40267405
-0.06790784 -0.25111383 -0.40266153
-0.067471497 -0.25109875 -0.40263778
-0.067293748 -0.25110501 -0.40266401
-0.066903181 -0.25110319 -0.40261927
-0.066743672 -0.251102 -0.40262434
-0.066578999 -0.251113 -0.402601
-0.059441667 -0.251086 -0.40265265
-0.059313167 -0.25108781 -0.40270269
-0.070130996 -0.25084701 -0.40279901
-0.069857001 -0.25090599 -0.40275002
-0.069642 -0.25087735 -0.40274966
-0.069337331 -0.25088966 -0.40275118
-0.069112778 -0.25090066 -0.40272942
-0.068963669 -0.250911 -0.40274397
-0.068658248 -0.250891 -0.40270802
-0.068477497 -0.2508955 -0.40267399
-0.068300001 -0.25090474 -0.40267849
-0.068093441 -0.25088036 -0.40263945
-0.067915 -0.25090781 -0.40262899
-0.067462668 -0.25091499 -0.40261602
-0.067284994 -0.25092083 -0.40264201
-0.066895567 -0.25091672 -0.40260699
-0.0667345 -0.25091702 -0.402612
-0.059432998 -0.25090098 -0.4026325
-0.059304748 -0.25090349 -0.40267676
-0.059067998 -0.25087434 -0.402787
-0.070209503 -0.25066 -0.402787
-0.070068672 -0.25070378 -0.40278292
-0.069894671 -0.25071684 -0.40276113
-0.069634005 -0.25069401 -0.402722
-0.0693295 -0.25070575 -0.4027195
-0.069092877 -0.25068951 -0.4027054
-0.068953 -0.250689 -0.40272215
-0.068650164 -0.25070766 -0.40267333
-0.068469167 -0.25071067 -0.40264848
-0.068291001 -0.25072032 -0.40266049
-0.068104252 -0.25071326 -0.40261924
-0.067970499 -0.25070351 -0.40261102
-0.067263 -0.25075001 -0.40261135
-0.066973001 -0.250792 -0.402605
-0.059296336 -0.2507185 -0.40265217
-0.059059501 -0.25068998 -0.40276
-0.070896 -0.250476 -0.402798
-0.070683502 -0.25044549 -0.40279251
-0.070556998 -0.25048798 -0.40279299
-0.070292003 -0.25050649 -0.402771
-0.070090994 -0.25048062 -0.40275371
-0.069912873 -0.25048488 -0.40273076
-0.069624335 -0.25050798 -0.40271303
-0.069320835 -0.25052217 -0.40269461
-0.069105573 -0.25050959 -0.4026849
-0.068944499 -0.25050551 -0.40269926
-0.068649195 -0.25050139 -0.40264001
-0.068467595 -0.25049159 -0.40261182
-0.068273202 -0.25051481 -0.40262598
-0.068153001 -0.25058001 -0.40260899
-0.059278406 -0.25051323 -0.40261778
-0.059051335 -0.25050631 -0.40272668
-0.058912501 -0.25043151 -0.402794
-0.070854604 -0.2502766 -0.40278602
-0.070710443 -0.25029713 -0.40278
-0.070548333 -0.25030366 -0.40278101
-0.070372999 -0.25031599 -0.40274766
-0.070117332 -0.25029516 -0.40272769
-0.069900997 -0.25029442 -0.40271029
-0.069614671 -0.25028765 -0.40268099
-0.069310002 -0.25030002 -0.40267482
-0.069084883 -0.25031078 -0.40266177
-0.068935998 -0.25032136 -0.40267119
-0.068672501 -0.25030249 -0.40262201
-0.068593003 -0.250341 -0.402605
-0.059234001 -0.25031501 -0.402605
-0.059041996 -0.25028533 -0.40268132
-0.058879554 -0.25028634 -0.40277275
-0.071842 -0.25002199 -0.402798
-0.071792662 -0.25009403 -0.40279269
-0.070877403 -0.25009722 -0.40277362
-0.070699662 -0.25007522 -0.40276352
-0.070537664 -0.25008199 -0.40275833
-0.070361994 -0.25009301 -0.40273699
-0.070108324 -0.25011069 -0.40270954
-0.069915876 -0.25011501 -0.40268886
-0.0696055 -0.2501035 -0.40266699
-0.069299005 -0.25007901 -0.40265617
-0.069074668 -0.25009033 -0.40263343
-0.068933405 -0.25011641 -0.40262318
-0.068663001 -0.25011835 -0.4026067
-0.059033498 -0.25010151 -0.40265
-0.058871668 -0.25010234 -0.40273914
-0.071835004 -0.24987499 -0.40278301
-0.071762331 -0.24987365 -0.40278935
-0.071343996 -0.24984168 -0.40279165
-0.071197003 -0.249825 -0.402796
-0.070886448 -0.24991809 -0.40276185
-0.070691168 -0.24989067 -0.4027395
-0.070528999 -0.249898 -0.40273499
-0.070353329 -0.24987601 -0.40266633
-0.070097774 -0.24988955 -0.40268382
-0.069894776 -0.24990354 -0.40266672
-0.069596 -0.249918 -0.40265599
-0.069290496 -0.2498945 -0.40263876
-0.069100499 -0.24990325 -0.40261599
-0.068969831 -0.24987566 -0.40260816
-0.059025332 -0.24991699 -0.40261933
-0.058863223 -0.24991767 -0.40271166
-0.0587015 -0.24988651 -0.40277052
-0.072038002 -0.249632 -0.40279999
-0.071859993 -0.24967234 -0.4027817
-0.071750402 -0.24971218 -0.40277058
-0.071323253 -0.24970725 -0.40277451
-0.07119 -0.249677 -0.40277401
-0.070875891 -0.2496971 -0.40273732
-0.070682555 -0.24970733 -0.40271455
-0.070520334 -0.249714 -0.40271464
-0.070343003 -0.249689 -0.40268099
-0.07008867 -0.24970484 -0.40267202
-0.069908284 -0.24969086 -0.402666
-0.069795996 -0.249651 -0.40263301
-0.069585331 -0.24969667 -0.40263769
-0.069302499 -0.24972576 -0.40262026
-0.069049999 -0.249795 -0.40260801
-0.068938002 -0.24972899 -0.40260401
-0.059018999 -0.24977 -0.402601
-0.058860376 -0.24970551 -0.40267587
-0.058719501 -0.2496835 -0.402722
-0.072310001 -0.249467 -0.402796
-0.072064601 -0.24946639 -0.4027862
-0.071904108 -0.24949521 -0.4027721
-0.071735501 -0.24950701 -0.4027395
-0.071314834 -0.24952285 -0.40275249
-0.071181506 -0.249493 -0.40275401
-0.070890397 -0.24948879 -0.40272561
-0.070723899 -0.24949169 -0.40269256
-0.070545204 -0.249476 -0.4026916
-0.070334002 -0.24950366 -0.40267399
-0.070079334 -0.24952009 -0.40266252
-0.0699175 -0.24949451 -0.40265226
-0.069789499 -0.249503 -0.40261599
-0.069576502 -0.24951249 -0.402612
-0.058866002 -0.24949022 -0.40262359
-0.058736999 -0.24948001 -0.40268382
-0.072561502 -0.24927001 -0.40279299
-0.072303109 -0.2493189 -0.40278378
-0.072064504 -0.2492965 -0.40277275
-0.071882427 -0.24929714 -0.40274501
-0.071726002 -0.24928732 -0.40269902
-0.071304329 -0.24930233 -0.40272114
-0.071173005 -0.249309 -0.40273437
-0.070903204 -0.24931021 -0.4027074
-0.070728004 -0.24929899 -0.40267918
-0.070546247 -0.2493075 -0.40267575
-0.070323341 -0.249283 -0.40265569
-0.070068553 -0.24929878 -0.4026449
-0.0699085 -0.24930967 -0.40263602
-0.069784001 -0.249394 -0.402601
-0.058867402 -0.2493116 -0.40260658
-0.058728252 -0.249295 -0.40266451
-0.072815001 -0.249111 -0.40279198
-0.072552003 -0.24908532 -0.40278566
-0.072292551 -0.24909814 -0.40276375
-0.072055832 -0.24911167 -0.40275633
-0.071929507 -0.24912167 -0.40275016
-0.071743168 -0.24910067 -0.4027063
-0.071294166 -0.24908151 -0.40269816
-0.071161993 -0.24908733 -0.40271235
-0.070882671 -0.24910401 -0.40268946
-0.070718892 -0.24911444 -0.40266389
-0.070537329 -0.24912202 -0.40265718
-0.070314497 -0.249099 -0.4026365
-0.070081398 -0.2490904 -0.40263438
-0.069929332 -0.24908532 -0.40262702
-0.058858335 -0.24907799 -0.40260267
-0.05871883 -0.24910967 -0.40264869
-0.058493663 -0.24911 -0.40278935
-0.073571995 -0.248923 -0.40279299
-0.072805338 -0.248926 -0.40278864
-0.072702006 -0.24889049 -0.402789
-0.072543502 -0.24890099 -0.40276349
-0.072316192 -0.24888821 -0.40274841
-0.072107621 -0.24889627 -0.40274698
-0.071929432 -0.24888757 -0.40274659
-0.071733892 -0.24891602 -0.40269446
-0.071284994 -0.24889699 -0.40268424
-0.071153499 -0.24890301 -0.40269297
-0.07087183 -0.24888301 -0.40266836
-0.070708543 -0.24889366 -0.40264156
-0.070527337 -0.2489015 -0.40262568
-0.070309997 -0.248988 -0.402614
-0.070090398 -0.24891241 -0.40261799
-0.069920339 -0.24890099 -0.40261269
-0.058869001 -0.248953 -0.402603
-0.058654666 -0.248888 -0.40265933
-0.058482334 -0.24888635 -0.40278003
-0.073288001 -0.248671 -0.40279299
-0.073102623 -0.24867088 -0.40278774
-0.072895102 -0.24869257 -0.40278625
-0.072744668 -0.24870616 -0.40275732
-0.072534665 -0.248717 -0.40274265
-0.072324798 -0.24871042 -0.40273041
-0.072133496 -0.24870074 -0.40272397
-0.071929 -0.24868612 -0.40271759
-0.071723118 -0.24869455 -0.40267941
-0.071276836 -0.24871399 -0.40265504
-0.071145333 -0.24871968 -0.40265965
-0.070863001 -0.24869825 -0.40264878
-0.070699498 -0.24870916 -0.40262333
-0.070516169 -0.24868052 -0.40261135
-0.070088007 -0.24875467 -0.40260997
-0.069883004 -0.24879301 -0.40260148
-0.058646001 -0.24870351 -0.40263
-0.058473498 -0.24870101 -0.40276301
-0.073696002 -0.248431 -0.40279499
-0.073279999 -0.24852265 -0.402794
-0.073105 -0.248495 -0.40276849
-0.072877713 -0.248492 -0.40277672
-0.072733335 -0.24848449 -0.40274882
-0.072523661 -0.24849534 -0.40272734
-0.072306164 -0.24850403 -0.402715
-0.072124667 -0.24851616 -0.40270916
-0.07193514 -0.24850671 -0.40271184
-0.071704999 -0.24849415 -0.40266699
-0.071265839 -0.24849267 -0.40263852
-0.071135335 -0.2485 -0.40262499
-0.070865199 -0.2485282 -0.40263781
-0.070660837 -0.24852467 -0.40261748
-0.070552006 -0.248493 -0.40260798
-0.058641002 -0.248593 -0.402605
-0.058465999 -0.24851835 -0.40271401
-0.073724858 -0.24827099 -0.40278396
-0.073538661 -0.24829167 -0.40278468
-0.073270001 -0.24830265 -0.40275201
-0.073095448 -0.24830978 -0.40276253
-0.072882503 -0.2483125 -0.40276426
-0.072724506 -0.248299 -0.40273151
-0.072514504 -0.248311 -0.40272
-0.072294667 -0.24828218 -0.40270552
-0.072114162 -0.2482955 -0.402686
-0.071917228 -0.24830621 -0.40269843
-0.071712129 -0.24831626 -0.40263915
-0.071256757 -0.2483075 -0.40262374
-0.071129002 -0.248353 -0.402603
-0.070896 -0.24828734 -0.40262666
-0.070643596 -0.24831781 -0.4026106
-0.058455665 -0.24829702 -0.40268564
-0.074749999 -0.24808601 -0.40279299
-0.0738585 -0.2480465 -0.40279001
-0.073731504 -0.24809651 -0.40276936
-0.073530495 -0.24810851 -0.402758
-0.073259331 -0.24808133 -0.40273699
-0.073095128 -0.24809752 -0.40274239
-0.072879203 -0.24809289 -0.40274802
-0.072715499 -0.24811535 -0.4027172
-0.072505668 -0.24812667 -0.40269598
-0.072285503 -0.24809675 -0.40269774
-0.072104506 -0.24811 -0.40268198
-0.071906336 -0.24808468 -0.40268046
-0.071693994 -0.24810368 -0.40263286
-0.071247332 -0.24812286 -0.40261316
-0.058445666 -0.24807601 -0.40265235
-0.074692003 -0.24786299 -0.402798
-0.074112996 -0.24781901 -0.40279999
-0.073845603 -0.24789819 -0.40279359
-0.073722214 -0.24791156 -0.4027583
-0.073520996 -0.24792333 -0.40275398
-0.073250502 -0.247897 -0.40271699
-0.073116995 -0.24790275 -0.40271226
-0.072880544 -0.247885 -0.40272522
-0.072705001 -0.24789417 -0.40269282
-0.072494663 -0.247905 -0.40268302
-0.072276667 -0.24791299 -0.40267667
-0.072094999 -0.24792467 -0.40267798
-0.071896665 -0.24789934 -0.40267667
-0.071682557 -0.24788067 -0.40262645
-0.071278661 -0.24789698 -0.40261436
-0.071148999 -0.24790467 -0.40261051
-0.0584375 -0.24789199 -0.40262601
-0.075395003 -0.247712 -0.40279651
-0.074669003 -0.247739 -0.40279698
-0.074107498 -0.247706 -0.40279102
-0.073835403 -0.2476898 -0.40277901
-0.073710889 -0.24768856 -0.40274936
-0.073511995 -0.24770367 -0.40270504
-0.073241666 -0.24771267 -0.40269968
-0.073108494 -0.24771935 -0.40268564
-0.072921284 -0.24770787 -0.40269229
-0.072716579 -0.24769087 -0.40268213
-0.072483666 -0.24768268 -0.40266898
-0.072266005 -0.24769133 -0.40266016
-0.072083674 -0.24770166 -0.40267035
-0.071886882 -0.24771322 -0.40267599
-0.071672834 -0.24769449 -0.40262666
-0.071268499 -0.24771 -0.402621
-0.071137495 -0.24768184 -0.40260783
-0.058427665 -0.247705 -0.40262532
-0.074677289 -0.24747099 -0.40279287
-0.074098669 -0.247522 -0.40277633
-0.0738362 -0.24751182 -0.40277418
-0.073701836 -0.24750416 -0.40273619
-0.073499665 -0.24748068 -0.40271035
-0.073230661 -0.24749033 -0.40268835
-0.073097497 -0.24749683 -0.40267786
-0.072900668 -0.24750778 -0.40268004
-0.072730497 -0.24751201 -0.40267247
-0.072474495 -0.24749801 -0.40265799
-0.072256498 -0.24750601 -0.40265349
-0.072071999 -0.2474785 -0.40266779
-0.071875006 -0.2474898 -0.40268147
-0.071662888 -0.24750911 -0.40263036
-0.071259335 -0.24752533 -0.40260699
-0.071171999 -0.247494 -0.40260699
-0.058421001 -0.247555 -0.40260899
-0.058315001 -0.24740499 -0.40266299
-0.075200997 -0.24738801 -0.402798
-0.075120665 -0.24729435 -0.40278497
-0.074922003 -0.247254 -0.402798
-0.074662335 -0.24730651 -0.40278554
-0.074087337 -0.24730033 -0.40276301
-0.073846333 -0.24730299 -0.40276599
-0.07371825 -0.24731617 -0.40273491
-0.073489994 -0.24729499 -0.4027085
-0.073221505 -0.2473065 -0.40267301
-0.0730782 -0.24728999 -0.4026702
-0.072888881 -0.24728476 -0.40267944
-0.072709002 -0.24729988 -0.40266377
-0.07246533 -0.24731232 -0.40264869
-0.072255403 -0.24733379 -0.40265861
-0.072090998 -0.2472858 -0.40264422
-0.071865499 -0.24730434 -0.40267766
-0.071678996 -0.24728434 -0.40263221
-0.071595334 -0.24728934 -0.40263596
-0.071244001 -0.247228 -0.40260401
-0.058407001 -0.24729601 -0.40260351
-0.058310002 -0.247293 -0.40265399
-0.075358003 -0.247007 -0.402794
-0.075097449 -0.24709831 -0.40277964
-0.074891001 -0.24708919 -0.40279198
-0.074671723 -0.24711491 -0.40277117
-0.074076675 -0.247079 -0.4027473
-0.073835336 -0.247081 -0.40274969
-0.073707588 -0.24709441 -0.40271655
-0.073481001 -0.24711032 -0.40269867
-0.073211335 -0.24711935 -0.40267667
-0.073086001 -0.24711041 -0.4026722
-0.072879665 -0.24709916 -0.40267166
-0.072689503 -0.247087 -0.4026565
-0.072453327 -0.24708967 -0.40264764
-0.072278 -0.24709433 -0.40264264
-0.07212957 -0.24711642 -0.40264317
-0.071889296 -0.24711561 -0.40267628
-0.071694799 -0.2470876 -0.40264741
-0.071585 -0.24710199 -0.40264601
-0.07124 -0.247154 -0.402601
-0.058401 -0.24718399 -0.40260199
-0.058364671 -0.24710701 -0.4026247
-0.075351998 -0.246894 -0.40279698
-0.075087167 -0.24691133 -0.40278468
-0.074927002 -0.24686199 -0.40279001
-0.074702993 -0.24689659 -0.40276498
-0.074593663 -0.24690068 -0.40276432
-0.074067503 -0.24689451 -0.40273398
-0.073826 -0.246895 -0.40274602
-0.073686004 -0.24688689 -0.40271872
-0.073469333 -0.24688701 -0.40269169
-0.073204003 -0.24697 -0.40267599
-0.073099129 -0.24689189 -0.40267384
-0.072878495 -0.24692151 -0.40267712
-0.072710246 -0.24689776 -0.40266699
-0.072444007 -0.246904 -0.40264201
-0.072268501 -0.24690899 -0.402641
-0.072138831 -0.24688219 -0.40263966
-0.071909994 -0.24689299 -0.40264988
-0.071703881 -0.24690843 -0.40263554
-0.071575336 -0.24691699 -0.40263632
-0.058385331 -0.24688466 -0.402603
-0.075259499 -0.246751 -0.402796
-0.075118832 -0.24672216 -0.40279016
-0.074907169 -0.24669482 -0.4027867
-0.074687444 -0.24668302 -0.40276009
-0.074582003 -0.246677 -0.40276465
-0.074057333 -0.24670768 -0.40273967
-0.073815666 -0.24670935 -0.40274933
-0.073696598 -0.24670529 -0.40273413
-0.073458999 -0.2467 -0.402704
-0.073088244 -0.24668638 -0.40267825
-0.072890997 -0.24668665 -0.402688
-0.072742447 -0.24669845 -0.40268254
-0.072513498 -0.24671285 -0.40265098
-0.072259001 -0.24672265 -0.402639
-0.072129503 -0.24669601 -0.40263247
-0.071890846 -0.24669345 -0.40263227
-0.071756005 -0.24670151 -0.40262499
-0.071569003 -0.24676999 -0.40260699
-0.075106829 -0.24649818 -0.40279451
-0.074897557 -0.24650913 -0.40278497
-0.074709401 -0.24650851 -0.40276352
-0.074571997 -0.246492 -0.40276399
-0.074044667 -0.24648333 -0.40275732
-0.073805496 -0.24652199 -0.40275902
-0.073700994 -0.24649598 -0.40273845
-0.073507801 -0.24649461 -0.40271339
-0.073119663 -0.24651383 -0.40268031
-0.072905004 -0.24649219 -0.40268484
-0.072724424 -0.24649701 -0.40268955
-0.072501667 -0.24648951 -0.40265632
-0.072246999 -0.24649934 -0.402639
-0.072120003 -0.24651033 -0.40262783
-0.07189925 -0.246512 -0.40263665
-0.07173533 -0.24648534 -0.40262532
-0.071555495 -0.246511 -0.40260398
-0.058363501 -0.246473 -0.40261048
-0.075048 -0.24627866 -0.40278864
-0.074885882 -0.24628578 -0.40278447
-0.074680626 -0.24630755 -0.40276745
-0.074562669 -0.246305 -0.40275967
-0.074035496 -0.246298 -0.40274599
-0.073705807 -0.2462873 -0.40273148
-0.073511504 -0.24628516 -0.40271935
-0.073122337 -0.24630134 -0.40269032
-0.072910994 -0.2463118 -0.40269458
-0.072726756 -0.2463135 -0.40271476
-0.07249175 -0.2463025 -0.40266302
-0.072234996 -0.24627499 -0.40264902
-0.072107837 -0.2462865 -0.40263882
-0.07187888 -0.24629767 -0.40264866
-0.071719401 -0.24631199 -0.4026278
-0.071546003 -0.246324 -0.40260398
-0.058352668 -0.24628401 -0.40262935
-0.075087495 -0.2461265 -0.40279001
-0.074859001 -0.24610682 -0.40279379
-0.074649282 -0.24610101 -0.40277272
-0.074561507 -0.24606276 -0.40276825
-0.074026667 -0.24611367 -0.40272868
-0.073717192 -0.24610671 -0.4027361
-0.073501498 -0.2460985 -0.40272102
-0.073101208 -0.24609201 -0.40271264
-0.072898656 -0.24608789 -0.40270707
-0.072709665 -0.24610032 -0.4027082
-0.072497994 -0.2461298 -0.40267482
-0.072283328 -0.246077 -0.40264133
-0.072098248 -0.24610101 -0.4026345
-0.071878999 -0.24609984 -0.40263566
-0.071748838 -0.24608482 -0.40263668
-0.071533665 -0.24610032 -0.40261102
-0.058341499 -0.246094 -0.40265799
-0.075029999 -0.24594399 -0.40279299
-0.07469181 -0.245941 -0.40278715
-0.074564502 -0.245894 -0.402776
-0.074014328 -0.24588935 -0.40273765
-0.07369592 -0.24589948 -0.40272793
-0.073491506 -0.245912 -0.40272713
-0.073109001 -0.24591079 -0.40272936
-0.072888009 -0.24589999 -0.40272233
-0.072692126 -0.24588625 -0.40271986
-0.072548002 -0.245885 -0.402706
-0.072302833 -0.24590117 -0.40265402
-0.072087668 -0.24591351 -0.40265167
-0.071901798 -0.24590901 -0.4026328
-0.071720831 -0.24589933 -0.40264285
-0.071523502 -0.24591449 -0.402623
-0.071129836 -0.24589102 -0.40261748
-0.070995003 -0.24582399 -0.40260199
-0.070767999 -0.24583501 -0.402603
-0.058329999 -0.24590532 -0.40268099
-0.074625336 -0.24570768 -0.40278935
-0.074567251 -0.24572526 -0.402787
-0.073675446 -0.24569957 -0.40275684
-0.073494203 -0.2457 -0.40275002
-0.073399 -0.24561501 -0.40277001
-0.073087998 -0.24570084 -0.40274653
-0.072901286 -0.24572185 -0.40273628
-0.07271634 -0.245698 -0.40273941
-0.072537497 -0.24569851 -0.40270901
-0.072292 -0.24571325 -0.40267277
-0.072092429 -0.24567628 -0.40266886
-0.071881831 -0.24570084 -0.40264049
-0.071710773 -0.245713 -0.40264788
-0.071535006 -0.24570921 -0.40262899
-0.071119502 -0.2457035 -0.40262777
-0.070986003 -0.245639 -0.402605
-0.070715599 -0.2456722 -0.40262341
-0.058487337 -0.24567866 -0.40261498
-0.058318499 -0.24571499 -0.40270901
-0.07457 -0.245556 -0.402798
-0.073689498 -0.24557625 -0.40278548
-0.073576994 -0.24550366 -0.40278032
-0.073394001 -0.245538 -0.40278801
-0.073066801 -0.2454904 -0.40276521
-0.072904833 -0.24548452 -0.40275967
-0.072703004 -0.24549824 -0.40275395
-0.072526999 -0.24551065 -0.40272701
-0.072368003 -0.24552099 -0.40271366
-0.072106004 -0.24549599 -0.40269768
-0.0718695 -0.24551025 -0.402686
-0.071696892 -0.24548565 -0.40268767
-0.071528338 -0.24549817 -0.40265569
-0.071109332 -0.24551666 -0.40263519
-0.070976004 -0.24548599 -0.402639
-0.070695251 -0.2455005 -0.40264124
-0.070528664 -0.24544966 -0.40260732
-0.070393331 -0.245479 -0.40261269
-0.058683001 -0.245441 -0.40260601
-0.0584765 -0.24549 -0.40263402
-0.058307003 -0.24552368 -0.40274903
-0.073068 -0.245361 -0.40279001
-0.072893754 -0.245296 -0.40278274
-0.072679251 -0.24530126 -0.40278062
-0.072512992 -0.24528366 -0.40276667
-0.072354667 -0.24529433 -0.40274069
-0.072093882 -0.24530476 -0.40274456
-0.071857326 -0.24531901 -0.40273151
-0.071703002 -0.2453008 -0.40272981
-0.071532398 -0.24529961 -0.40269679
-0.071094505 -0.245287 -0.40269467
-0.070964001 -0.24529533 -0.402679
-0.070684336 -0.24531265 -0.40266028
-0.070519745 -0.24531373 -0.40263164
-0.070336752 -0.24529275 -0.4026325
-0.070115 -0.245305 -0.40262401
-0.069890335 -0.24528116 -0.40262064
-0.069737501 -0.24528025 -0.40262476
-0.058667712 -0.24527916 -0.40263087
-0.058517996 -0.24529718 -0.402657
-0.058293 -0.245295 -0.40277934
-0.072848 -0.245185 -0.402794
-0.072685495 -0.245159 -0.402794
-0.072503999 -0.24513 -0.40279201
-0.072343007 -0.245104 -0.40277299
-0.072166502 -0.24510649 -0.40279001
-0.071859993 -0.245139 -0.40278134
-0.071726665 -0.24511117 -0.40277848
-0.071532331 -0.24511722 -0.4027282
-0.071083255 -0.24509825 -0.40272051
-0.070952505 -0.245106 -0.40270501
-0.0706705 -0.24508531 -0.40269682
-0.070507109 -0.24509519 -0.40266955
-0.07032416 -0.24509983 -0.40268567
-0.070101999 -0.24511166 -0.40269002
-0.069876254 -0.245086 -0.4026995
-0.069716834 -0.24509816 -0.40268016
-0.069557995 -0.245113 -0.40262499
-0.069341004 -0.245047 -0.40262499
-0.069073997 -0.24501599 -0.40261999
-0.068941996 -0.2450265 -0.40260649
-0.068707339 -0.245039 -0.40260601
-0.058680832 -0.24509585 -0.40267953
-0.058504749 -0.24510351 -0.40271899
-0.071518213 -0.24488799 -0.40277311
-0.071071677 -0.24490815 -0.40274933
-0.070941001 -0.24491566 -0.40274
-0.070657998 -0.24489325 -0.40274575
-0.070494838 -0.24490416 -0.40271333
-0.070311248 -0.2449075 -0.40273899
-0.0700875 -0.2449165 -0.40277302
-0.069854997 -0.24490781 -0.40275985
-0.069703788 -0.24490534 -0.40273726
-0.069544338 -0.24491866 -0.40269199
-0.069330499 -0.244893 -0.40267301
-0.069066495 -0.244901 -0.40265
-0.068934754 -0.244912 -0.40263602
-0.068705328 -0.24488558 -0.40264642
-0.068288282 -0.24488299 -0.40263411
-0.068072833 -0.24491267 -0.40263164
-0.067895748 -0.24488175 -0.40263849
-0.067714997 -0.24485767 -0.402603
-0.05903 -0.244817 -0.402628
-0.058947999 -0.24489868 -0.40262401
-0.058696166 -0.24492751 -0.40272531
-0.058533747 -0.24494573 -0.40276575
-0.071046673 -0.24473132 -0.40278468
-0.070929497 -0.244725 -0.40277299
-0.070703 -0.244774 -0.40278101
-0.070514672 -0.24473511 -0.40276965
-0.070303001 -0.24479049 -0.40278351
-0.069675997 -0.24473324 -0.40278649
-0.069528669 -0.24468666 -0.40276399
-0.069317669 -0.24469934 -0.40272966
-0.069054998 -0.24470998 -0.40269566
-0.068922669 -0.24472032 -0.4026812
-0.068692625 -0.24469286 -0.40269816
-0.068307601 -0.24471919 -0.40269178
-0.068073496 -0.24468966 -0.40272465
-0.067881994 -0.24468668 -0.4027122
-0.067703888 -0.2447021 -0.40266454
-0.067488 -0.24468151 -0.40263849
-0.067032337 -0.24469101 -0.40260866
-0.066648498 -0.244647 -0.402621
-0.066479601 -0.2446368 -0.40262461
-0.066238336 -0.24470367 -0.40266201
-0.065788001 -0.24464799 -0.40261799
-0.064303994 -0.244638 -0.40261251
-0.064171001 -0.24464101 -0.402623
-0.063995004 -0.24465001 -0.40260801
-0.059955999 -0.24462301 -0.40260699
-0.059549998 -0.244654 -0.402601
-0.0593355 -0.244654 -0.4026325
-0.059107002 -0.24469733 -0.40266064
-0.058933496 -0.2447025 -0.402704
-0.058745999 -0.244746 -0.40276799
-0.069306999 -0.244545 -0.40277499
-0.069039673 -0.24447866 -0.40275702
-0.068907835 -0.24449001 -0.40274015
-0.068697102 -0.24450639 -0.40275493
-0.068593502 -0.2444675 -0.402767
-0.068337001 -0.24456866 -0.40275133
-0.068123333 -0.24456967 -0.40276566
-0.067855 -0.24450666 -0.40276968
-0.067689665 -0.24450617 -0.40274397
-0.067474999 -0.244488 -0.402702
-0.067079 -0.24450934 -0.40265897
-0.066946499 -0.24451332 -0.40266231
-0.066638 -0.24449199 -0.40267152
-0.066522337 -0.24450584 -0.40264931
-0.066309251 -0.24450751 -0.40270901
-0.065696165 -0.24449651 -0.4026635
-0.0654945 -0.24447601 -0.40262902
-0.065342329 -0.24447133 -0.40262532
-0.065101996 -0.24445049 -0.40261599
-0.064678997 -0.24447 -0.40261701
-0.0644425 -0.24447875 -0.4026345
-0.064293168 -0.24448083 -0.40267119
-0.06416034 -0.24448568 -0.40267968
-0.063947 -0.24448439 -0.4026452
-0.063736498 -0.24443901 -0.40262598
-0.060224999 -0.244462 -0.40263
-0.060047001 -0.24450299 -0.402641
-0.059899751 -0.244509 -0.40266252
-0.059699833 -0.244519 -0.402657
-0.059537333 -0.24449401 -0.40268168
-0.059322666 -0.24449365 -0.40272081
-0.059105713 -0.24452086 -0.40275458
-0.058922999 -0.244582 -0.40278599
-0.067681663 -0.24438967 -0.402789
-0.067464001 -0.24433 -0.40276799
-0.066930167 -0.24428 -0.40274835
-0.066624008 -0.24429534 -0.40275335
-0.066507883 -0.24430935 -0.40273419
-0.066338502 -0.24432951 -0.40276226
-0.065710001 -0.24431233 -0.40274897
-0.065489374 -0.24429801 -0.40270963
-0.065315671 -0.24428833 -0.40270451
-0.065186664 -0.24428867 -0.40269566
-0.064996496 -0.2443365 -0.40266597
-0.064667009 -0.24431233 -0.40269101
-0.064491004 -0.2443195 -0.40269199
-0.0643024 -0.2442774 -0.4027482
-0.064147502 -0.244293 -0.402731
-0.063924253 -0.24430451 -0.40272149
-0.063726753 -0.24431801 -0.40269399
-0.063477501 -0.2442645 -0.4026525
-0.063354999 -0.24427274 -0.40263602
-0.062694803 -0.24429199 -0.40264302
-0.062543169 -0.24431284 -0.40262866
-0.062356003 -0.2443195 -0.40266499
-0.061678 -0.2442755 -0.40262902
-0.061548501 -0.24425101 -0.4026255
-0.060656 -0.244214 -0.40264001
-0.060474001 -0.2442655 -0.4026435
-0.060298555 -0.24430643 -0.40268049
-0.060032334 -0.24430466 -0.40273833
-0.059887748 -0.24435025 -0.4027395
-0.059687003 -0.24435849 -0.40274763
-0.059525002 -0.244332 -0.40277299
-0.065495595 -0.24416521 -0.40278077
-0.065303996 -0.24413049 -0.40277898
-0.065174997 -0.244131 -0.40276501
-0.064507 -0.24412149 -0.40277451
-0.064352006 -0.24416751 -0.4027825
-0.063694 -0.24417166 -0.40277335
-0.063464001 -0.24410275 -0.40275499
-0.063355334 -0.244123 -0.40273598
-0.063021496 -0.24412799 -0.402679
-0.06289117 -0.24409485 -0.40270934
-0.062694885 -0.24410422 -0.40271109
-0.062528335 -0.24411556 -0.40272179
-0.062341001 -0.24412066 -0.40275899
-0.061663501 -0.24411251 -0.40275401
-0.061501626 -0.24410199 -0.40271965
-0.061320443 -0.24410367 -0.40269557
-0.061151337 -0.244115 -0.4026607
-0.060649 -0.244133 -0.40269801
-0.060462002 -0.2441065 -0.40272301
-0.0603275 -0.24414551 -0.402778
-0.062006999 -0.25342599 -0.402585
-0.061938252 -0.25348479 -0.40258601
-0.061738998 -0.25347102 -0.40259898
-0.063015997 -0.25329599 -0.40259799
-0.062661 -0.253234 -0.402594
-0.062027 -0.25331151 -0.402587
-0.061901633 -0.25327465 -0.40257546
-0.061728001 -0.2532495 -0.40259498
-0.063000999 -0.253001 -0.40259099
-0.062955007 -0.253039 -0.40258649
-0.062653333 -0.25308433 -0.40258634
-0.062083997 -0.25310439 -0.40258902
-0.061901752 -0.25309736 -0.40255037
-0.061689664 -0.25309166 -0.402576
-0.061446503 -0.25304502 -0.40259498
-0.061268501 -0.25305003 -0.40259302
-0.060844999 -0.253039 -0.40259099
-0.060772002 -0.25319201 -0.40259901
-0.063313 -0.252828 -0.40259799
-0.062917657 -0.25289166 -0.40258703
-0.062644497 -0.2529 -0.40256947
-0.062084664 -0.25289699 -0.40255833
-0.061912201 -0.2529186 -0.402531
-0.061699249 -0.25291049 -0.40254575
-0.061439499 -0.25289702 -0.40257502
-0.061262999 -0.25293899 -0.402596
-0.061115 -0.25286999 -0.402596
-0.060889427 -0.25286686 -0.40258557
-0.060709998 -0.25282049 -0.402594
-0.063948996 -0.25265399 -0.40259001
-0.063258 -0.25260901 -0.40259549
-0.06309963 -0.25268251 -0.40258673
-0.062922373 -0.25271538 -0.40257213
-0.062677249 -0.25269726 -0.40253925
-0.062064599 -0.25269142 -0.40253741
-0.06191434 -0.25269067 -0.40249175
-0.061699782 -0.25269809 -0.40252444
-0.061430335 -0.25271299 -0.40255797
-0.06125167 -0.25271568 -0.40258065
-0.061107334 -0.252722 -0.40258703
-0.060890168 -0.25270268 -0.40257683
-0.060713001 -0.25268739 -0.40256777
-0.063892879 -0.25249636 -0.40258586
-0.063753001 -0.25251302 -0.40259466
-0.063466504 -0.25248551 -0.40259302
-0.063295998 -0.25249568 -0.40258181
-0.063075714 -0.25249299 -0.40256616
-0.062951326 -0.25248215 -0.40254751
-0.062708326 -0.25249317 -0.4025363
-0.062076796 -0.2525126 -0.40251023
-0.061904833 -0.25250465 -0.40249118
-0.061705831 -0.2525 -0.40249932
-0.061491799 -0.25247282 -0.40250999
-0.061241001 -0.25249434 -0.40255699
-0.061096668 -0.25250065 -0.40256333
-0.060881443 -0.25251788 -0.40255752
-0.060686998 -0.25250942 -0.40255442
-0.064213 -0.25226301 -0.40259799
-0.064089499 -0.25230199 -0.402585
-0.06387578 -0.25228468 -0.40256196
-0.063742995 -0.25229201 -0.40255931
-0.063458331 -0.25230166 -0.40255269
-0.06331329 -0.25232059 -0.40255287
-0.063105404 -0.252307 -0.40254521
-0.062943004 -0.2522985 -0.40251848
-0.06269975 -0.25230899 -0.40251526
-0.062056836 -0.25230667 -0.40249252
-0.06189533 -0.25231946 -0.40248469
-0.061733998 -0.2523104 -0.40249601
-0.06150125 -0.25230125 -0.40249726
-0.061232001 -0.25230998 -0.4025405
-0.061086666 -0.25228 -0.40252337
-0.060871337 -0.25229645 -0.40252835
-0.060685668 -0.25230217 -0.40253887
-0.064649999 -0.25201401 -0.40259701
-0.064264663 -0.25208566 -0.40258703
-0.06408 -0.25211799 -0.40256968
-0.063867003 -0.2521005 -0.40253866
-0.063734502 -0.25210798 -0.40254
-0.063448332 -0.25208068 -0.40252468
-0.063321494 -0.25208798 -0.40252018
-0.063097 -0.25210094 -0.40251246
-0.062935002 -0.2521145 -0.40248585
-0.062691167 -0.25212467 -0.40248898
-0.062095333 -0.25207803 -0.40249738
-0.061911583 -0.25209466 -0.40248027
-0.061715003 -0.25210318 -0.40248835
-0.061509799 -0.25212941 -0.40249482
-0.061267503 -0.25210601 -0.40250999
-0.0610765 -0.25209302 -0.40253502
-0.0608746 -0.2521174 -0.4025206
-0.060705628 -0.25207123 -0.40250897
-0.060446501 -0.25204402 -0.4025895
-0.060253002 -0.252056 -0.40259099
-0.064645 -0.251903 -0.40258402
-0.064556003 -0.25190699 -0.4025895
-0.064330332 -0.25188217 -0.40257815
-0.064132333 -0.25189498 -0.40255833
