# .PCD v0.7 - Point Cloud Data file format
VERSION 0.7
FIELDS x y z
SIZE 4 4 4
TYPE F F F
COUNT 1 1 1
WIDTH 1428
HEIGHT 1
VIEWPOINT 0 0 0 1 0 0 0
POINTS 1428
DATA ascii
-0.075342 0.129033 -0.23982701
-0.075275004 0.129068 -0.23979601
-0.075267501 0.1292235 -0.239829
-0.075181 0.12940601 -0.239701
-0.075173497 0.1295245 -0.239767
-0.075166501 0.12968099 -0.23978999
-0.074763 0.13108701 -0.23971701
-0.074756503 0.1312035 -0.239749
-0.074750997 0.131395 -0.239711
-0.074744999 0.131476 -0.239777
-0.07474 0.13159299 -0.239779
-0.074653998 0.131621 -0.23970699
-0.074605003 0.13177601 -0.23975849
-0.074492 0.131845 -0.23971
-0.074639 0.131861 -0.23982701
-0.074486002 0.131924 -0.239756
-0.074479997 0.132044 -0.239792
-0.074379504 0.1321035 -0.239737
-0.074473001 0.132164 -0.23984399
-0.074323997 0.132296 -0.239732
-0.074288502 0.13241151 -0.23974249
-0.073412001 0.134344 -0.239738
-0.073386334 0.13447799 -0.23980166
-0.073299997 0.134496 -0.239733
-0.073283002 0.1346066 -0.23978218
-0.073231995 0.13477001 -0.239813
-0.073141001 0.13479599 -0.239731
-0.073135003 0.1348795 -0.239796
-0.073033005 0.1349085 -0.239737
-0.069058001 0.138947 -0.239712
-0.068943001 0.139026 -0.23974399
-0.067874499 0.114684 -0.23963851
-0.068387002 0.114867 -0.23960499
-0.068172753 0.11479675 -0.2396225
-0.068054996 0.114771 -0.239577
-0.067911997 0.114764 -0.2395695
-0.068562001 0.115026 -0.23965999
-0.068479002 0.115024 -0.239621
-0.068354003 0.11496833 -0.239591
-0.068562999 0.115106 -0.239563
-0.068478003 0.115103 -0.239582
-0.068379 0.115099 -0.23957799
-0.073708504 0.12023351 -0.239637
-0.073609002 0.12023 -0.23955201
-0.073738329 0.12033734 -0.23958133
-0.073873997 0.12051199 -0.23960701
-0.073883198 0.12067439 -0.23961219
-0.074089997 0.121025 -0.23968001
-0.074088499 0.1211385 -0.23962849
-0.074087001 0.121254 -0.239565
-0.074515 0.12189 -0.239692
-0.074513502 0.1220055 -0.23964351
-0.074656002 0.122207 -0.23968101
-0.074511997 0.122121 -0.239575
-0.074712999 0.1223235 -0.23966101
-0.074653998 0.1223225 -0.239622
-0.074723996 0.122491 -0.23963232
-0.074652001 0.122436 -0.23957101
-0.074781403 0.1226294 -0.2396346
-0.074813001 0.122781 -0.23960967
-0.07491 0.1229565 -0.2396625
-0.074841999 0.122952 -0.23957199
-0.07491 0.123069 -0.23956101
-0.075069003 0.123235 -0.239656
-0.074979 0.123381 -0.239568
-0.075058997 0.123542 -0.239623
-0.074977003 0.123457 -0.23955201
-0.075057 0.123618 -0.23960701
-0.075342 0.12525 -0.23968799
-0.075340003 0.12532701 -0.239674
-0.075335503 0.125442 -0.239669
-0.075331494 0.1255945 -0.239638
-0.075325996 0.12574801 -0.23962501
-0.075321496 0.12590051 -0.23959899
-0.075357251 0.12605649 -0.239621
-0.075457498 0.12621701 -0.239682
-0.075366341 0.12619767 -0.23961265
-0.075479001 0.12637225 -0.23967901
-0.0753875 0.12636599 -0.23962301
-0.075500503 0.12652799 -0.239678
-0.075415254 0.12652075 -0.23961975
-0.075494498 0.126682 -0.23966849
-0.075409755 0.1266745 -0.23961349
-0.075488999 0.1268355 -0.239668
-0.075405002 0.12682751 -0.239593
-0.075484 0.12698799 -0.23965001
-0.075430498 0.126983 -0.239622
-0.075478494 0.127143 -0.23964199
-0.075393505 0.1271345 -0.2395795
-0.075471506 0.127296 -0.23965549
-0.075420499 0.12729001 -0.239599
-0.075466 0.12745 -0.23965299
-0.075414501 0.12744349 -0.23959801
-0.075460501 0.1276035 -0.23964
-0.075385332 0.127609 -0.23959298
-0.075453505 0.12775901 -0.239663
-0.075368501 0.1277495 -0.23959926
-0.075379603 0.12789801 -0.23961799
-0.075384833 0.12803584 -0.23964451
-0.075393751 0.128159 -0.239665
-0.075344741 0.1282925 -0.23966399
-0.075305499 0.128444 -0.2396525
-0.075298503 0.12859949 -0.239678
-0.075292997 0.12871601 -0.239695
-0.075202003 0.128941 -0.23964199
-0.075195998 0.129059 -0.239678
-0.075188503 0.12921301 -0.239695
-0.075185001 0.129328 -0.239687
-0.075092003 0.129355 -0.23958251
-0.075083002 0.129512 -0.23964199
-0.075076506 0.12966749 -0.23966199
-0.074993998 0.12965751 -0.23957551
-0.074893504 0.130119 -0.23958001
-0.074890003 0.130233 -0.23955999
-0.074881002 0.130465 -0.239557
-0.074878 0.130541 -0.239565
-0.074780002 0.13077 -0.2396
-0.074775502 0.1308865 -0.239611
-0.074767999 0.131006 -0.239675
-0.074683003 0.131069 -0.23955099
-0.074673995 0.131191 -0.239627
-0.074754998 0.13131601 -0.239695
-0.07464233 0.131354 -0.23959334
-0.074620754 0.13149825 -0.239654
-0.074510999 0.13152599 -0.23955999
-0.074573502 0.1316525 -0.23967299
-0.074504495 0.13164401 -0.2396
-0.074449003 0.131754 -0.23962101
-0.074395999 0.131825 -0.23961601
-0.074366994 0.13194075 -0.23962051
-0.074306995 0.132094 -0.23961699
-0.074289002 0.13223799 -0.239658
-0.074262001 0.132369 -0.239695
-0.073604003 0.13372099 -0.239575
-0.073596999 0.1338415 -0.23963499
-0.073435999 0.13394199 -0.239554
-0.073405504 0.13405749 -0.2395705
-0.073408 0.13415201 -0.23961766
-0.073320001 0.13417201 -0.239565
-0.073385 0.13428134 -0.239636
-0.073314503 0.13429001 -0.23958999
-0.073358998 0.134415 -0.23969901
-0.073271334 0.13443334 -0.23963301
-0.073148996 0.13449834 -0.23957901
-0.073135749 0.13461074 -0.23961902
-0.073146999 0.13471401 -0.239674
-0.073044494 0.13474399 -0.23963499
-0.072958499 0.13489249 -0.239609
-0.070660003 0.137693 -0.239586
-0.070559002 0.137767 -0.239645
-0.070466504 0.1377935 -0.239575
-0.070372999 0.13790999 -0.23960599
-0.069178998 0.138777 -0.23955099
-0.069092497 0.138863 -0.23963049
-0.069008999 0.13894001 -0.239659
-0.068906501 0.1389745 -0.239659
-0.068778999 0.138997 -0.239562
-0.067552 0.11467 -0.23950499
-0.068130001 0.114855 -0.23952499
-0.068054996 0.114851 -0.23950601
-0.067860998 0.114822 -0.23948875
-0.067726001 0.114759 -0.239444
-0.067636997 0.114753 -0.23945799
-0.068295002 0.115018 -0.23954
-0.068157502 0.11497416 -0.23947799
-0.068053499 0.1149675 -0.23944399
-0.067942999 0.114928 -0.239417
-0.068606496 0.11519 -0.2394945
-0.068478003 0.115182 -0.239518
-0.068607002 0.11527 -0.23942199
-0.069960669 0.11587767 -0.23951066
-0.069808498 0.115871 -0.2394765
-0.0700645 0.115999 -0.239456
-0.0699706 0.1159876 -0.23943539
-0.069851004 0.115952 -0.239401
-0.070184499 0.1161635 -0.239439
-0.070010997 0.116116 -0.239401
-0.071364999 0.117186 -0.239419
-0.073533997 0.120226 -0.239437
-0.073707499 0.120388 -0.23952851
-0.073608503 0.120345 -0.2394795
-0.073736168 0.12050467 -0.2394955
-0.073605001 0.12049749 -0.239429
-0.073731668 0.12065817 -0.23946534
-0.073893666 0.1208205 -0.23949917
-0.073761001 0.120775 -0.239419
-0.073889174 0.12097484 -0.23946632
-0.073898748 0.12110949 -0.23943399
-0.074084997 0.121332 -0.239537
-0.073934004 0.121245 -0.239411
-0.074083999 0.1214455 -0.23946899
-0.074510999 0.122196 -0.239537
-0.074508995 0.1223115 -0.239483
-0.074651003 0.122513 -0.239537
-0.074506 0.1224645 -0.23942101
-0.074707001 0.122667 -0.239509
-0.074649997 0.1226265 -0.2394615
-0.074720673 0.12279501 -0.239452
-0.07473167 0.12292299 -0.23946035
-0.074951999 0.123109 -0.23950651
-0.074791498 0.123096 -0.239456
-0.074948251 0.12322401 -0.23949552
-0.048746001 0.123264 -0.23946799
-0.074942999 0.12334 -0.23950851
-0.048693668 0.12336167 -0.23943667
-0.074938998 0.123493 -0.2394655
-0.075057 0.123694 -0.239539
-0.074974 0.1236475 -0.23944899
-0.075053498 0.123808 -0.239516
-0.074970499 0.12379999 -0.239407
-0.075048998 0.123924 -0.23951501
-0.074965999 0.123915 -0.239401
-0.075045496 0.124114 -0.23943901
-0.075039998 0.12426651 -0.239427
-0.075114504 0.1245785 -0.23943901
-0.075177997 0.12507901 -0.23942
-0.075176001 0.125155 -0.23940299
-0.075170003 0.12530901 -0.239415
-0.075231001 0.125891 -0.239483
-0.075147003 0.12592199 -0.239406
-0.075227 0.12604401 -0.239438
-0.075310998 0.12624399 -0.239538
-0.075221501 0.12619701 -0.23944101
-0.075307503 0.126358 -0.23951301
-0.075215504 0.126351 -0.23942801
-0.075304002 0.12647299 -0.239508
-0.075300001 0.126551 -0.239526
-0.075299501 0.12666351 -0.23944601
-0.075293496 0.126817 -0.239438
-0.075367495 0.12697801 -0.239548
-0.075287506 0.12696999 -0.23944101
-0.075281501 0.127124 -0.23944399
-0.0753555 0.127285 -0.239546
-0.075276002 0.127277 -0.23944101
-0.075349495 0.12743899 -0.239545
-0.075270995 0.1274305 -0.23941699
-0.075346 0.127555 -0.239535
-0.075257003 0.127777 -0.239437
-0.075250998 0.12789249 -0.239461
-0.075243503 0.128048 -0.239492
-0.075237006 0.12820199 -0.239501
-0.075144 0.128231 -0.23941299
-0.075230002 0.12835801 -0.23952401
-0.075140998 0.128309 -0.23941299
-0.075224504 0.128511 -0.23952
-0.075218998 0.128627 -0.23954201
-0.075124003 0.128695 -0.239448
-0.075121 0.12877101 -0.239444
-0.075028002 0.128995 -0.239411
-0.075065002 0.12907749 -0.23947249
-0.075073339 0.129207 -0.23949499
-0.075012505 0.129343 -0.23944101
-0.074917004 0.129686 -0.239428
-0.074965671 0.12979366 -0.239482
-0.074988998 0.129922 -0.239474
-0.074813001 0.130143 -0.239426
-0.074887998 0.130308 -0.239538
-0.074808002 0.13025999 -0.23943201
-0.074885003 0.13038599 -0.23954099
-0.074800998 0.13041401 -0.239452
-0.074764334 0.13058001 -0.23947066
-0.074730329 0.130706 -0.23946033
-0.074667335 0.13088234 -0.23945732
-0.074648499 0.1309855 -0.2394775
-0.074537501 0.131015 -0.239416
-0.074598506 0.1311795 -0.23953101
-0.074530497 0.1311695 -0.239438
-0.074593 0.13129701 -0.239546
-0.074473001 0.13131949 -0.239464
-0.074449994 0.13146 -0.23949067
-0.074369997 0.131501 -0.239415
-0.074407995 0.131625 -0.23952501
-0.074343331 0.131631 -0.23944001
-0.074326001 0.13177425 -0.23947251
-0.074288502 0.1319295 -0.2395
-0.074132003 0.13211 -0.239437
-0.074126005 0.13222751 -0.23947999
-0.074119002 0.132348 -0.23952299
-0.073621005 0.1334395 -0.23944801
-0.073611498 0.1335995 -0.23951501
-0.073422506 0.133774 -0.2394295
-0.07340733 0.133882 -0.23948599
-0.073337004 0.13389051 -0.239444
-0.073383003 0.134013 -0.23952299
-0.0733025 0.13404626 -0.23948249
-0.073239751 0.13419574 -0.23947051
-0.0731465 0.13418651 -0.23942301
-0.0732335 0.13431551 -0.23951051
-0.073121801 0.13435419 -0.23948541
-0.073059499 0.1345005 -0.239512
-0.072981998 0.134527 -0.239415
-0.072973505 0.1346505 -0.239492
-0.072966002 0.134771 -0.23954201
-0.070959002 0.137061 -0.23942301
-0.070952997 0.137144 -0.239482
-0.070863999 0.137219 -0.23947901
-0.070859998 0.137299 -0.239501
-0.070680998 0.137363 -0.239409
-0.070701994 0.13747834 -0.23951833
-0.070580006 0.137472 -0.2394385
-0.070666 0.13761 -0.23954099
-0.070570499 0.1376355 -0.239503
-0.070434503 0.13765951 -0.2394405
-0.070382997 0.1377825 -0.239503
-0.070288002 0.137784 -0.239435
-0.070257336 0.13792168 -0.23951133
-0.070168667 0.13794033 -0.239464
-0.069320999 0.138538 -0.239406
-0.069187999 0.138651 -0.23946199
-0.069108002 0.13868651 -0.2394485
-0.068971999 0.13867401 -0.23940399
-0.069063 0.13878475 -0.23948327
-0.068922505 0.13879701 -0.239472
-0.068792999 0.138824 -0.239408
-0.068873003 0.138919 -0.239539
-0.068784997 0.13891 -0.23949599
-0.063189 0.113437 -0.23925699
-0.065748997 0.114114 -0.239324
-0.065661997 0.11411 -0.23929401
-0.065479003 0.114104 -0.239251
-0.066078 0.114215 -0.23929501
-0.065903001 0.1142 -0.239297
-0.067727 0.114839 -0.239355
-0.067598 0.1147945 -0.2393375
-0.067461997 0.114753 -0.23927
-0.067881241 0.1149625 -0.23933624
-0.067727998 0.11492 -0.239279
-0.068346001 0.115144 -0.239309
-0.068162002 0.11509699 -0.23928334
-0.068056002 0.11509 -0.239288
-0.068737499 0.1153975 -0.239319
-0.06865 0.115354 -0.239355
-0.069767997 0.115948 -0.239393
-0.069682002 0.115907 -0.2393395
-0.069592997 0.115864 -0.23932
-0.069908001 0.116032 -0.23937599
-0.069808997 0.1160275 -0.239336
-0.070062503 0.116155 -0.23937
-0.069959 0.116153 -0.23931026
-0.069852002 0.116109 -0.239261
-0.070123002 0.116277 -0.23931551
-0.071121 0.116946 -0.239317
-0.070994601 0.1169114 -0.239338
-0.071276002 0.117105 -0.23938
-0.071168333 0.11705133 -0.23930633
-0.071055003 0.117025 -0.239262
-0.071320504 0.117224 -0.2393415
-0.071190998 0.11718 -0.23927
-0.071486659 0.11740433 -0.23934202
-0.071364999 0.117343 -0.23929401
-0.071629003 0.117587 -0.239356
-0.071544997 0.117507 -0.23928601
-0.071710996 0.117745 -0.23932201
-0.071630999 0.117665 -0.239264
-0.071710996 0.117822 -0.23925599
-0.071851499 0.117944 -0.23930201
-0.072256334 0.11841733 -0.23932232
-0.072472498 0.1185935 -0.23933899
-0.072376996 0.11855 -0.239262
-0.072524332 0.118738 -0.23929501
-0.073532 0.120341 -0.239375
-0.073528498 0.1204935 -0.23932201
-0.073576994 0.12063766 -0.23933201
-0.07371375 0.12083 -0.239363
-0.073599502 0.1208045 -0.23929501
-0.073726498 0.120965 -0.23932017
-0.073858999 0.121165 -0.23938149
-0.073753744 0.1211195 -0.23929399
-0.073871598 0.1212884 -0.23935661
-0.07378 0.1212745 -0.23926699
-0.073878832 0.12143382 -0.23930933
-0.074082002 0.121599 -0.2393785
-0.073903501 0.121549 -0.2392635
-0.074078999 0.1217515 -0.23932001
-0.074077003 0.121866 -0.239272
-0.074503496 0.122616 -0.23935001
-0.074648499 0.1227795 -0.23936
-0.074501 0.1227685 -0.239274
-0.074662663 0.12294634 -0.239353
-0.074668497 0.12308675 -0.23933175
-0.074789502 0.1232485 -0.239375
-0.074665003 0.12323949 -0.239281
-0.074784748 0.123402 -0.239352
-0.048802 0.123337 -0.23927
-0.048721001 0.12341399 -0.23935601
-0.074900001 0.123527 -0.2394
-0.074781999 0.12351599 -0.239317
-0.048670501 0.12348551 -0.23930851
-0.074896999 0.1236425 -0.239383
-0.0748275 0.123638 -0.239316
-0.074891999 0.1237945 -0.23934901
-0.074823499 0.1237905 -0.23927501
-0.074914329 0.12396133 -0.239317
-0.07493633 0.12409101 -0.23931833
-0.074957497 0.1242575 -0.23930299
-0.075034998 0.124458 -0.23938499
-0.074955001 0.124372 -0.23925801
-0.075031504 0.1245715 -0.239352
-0.075084664 0.12471633 -0.23934267
-0.075108498 0.1248835 -0.23932001
-0.075103998 0.125035 -0.239283
-0.075173996 0.125231 -0.239397
-0.075097501 0.12518901 -0.23930651
-0.075091004 0.12534249 -0.23931399
-0.075086996 0.125494 -0.239263
-0.075083002 0.12560999 -0.239253
-0.0750755 0.125801 -0.23926401
-0.07509467 0.12596934 -0.23930199
-0.075103998 0.1260715 -0.23930199
-0.075138494 0.12618899 -0.23935699
-0.075135998 0.12634 -0.23929399
-0.075212501 0.12650049 -0.239373
-0.0752085 0.126653 -0.23933101
-0.075202003 0.126808 -0.23934999
-0.075117998 0.126837 -0.23925599
-0.075196996 0.126922 -0.239361
-0.075222 0.12757626 -0.23931375
-0.075199671 0.12771733 -0.23933166
-0.075161994 0.1278815 -0.239306
-0.075152501 0.128038 -0.239384
-0.075071 0.12802851 -0.23928049
-0.075092338 0.12817234 -0.239317
-0.075084664 0.12835266 -0.239343
-0.075093746 0.12849399 -0.23933926
-0.075046495 0.12864399 -0.2392945
-0.075037494 0.1287995 -0.23936
-0.074956998 0.128833 -0.239283
-0.075030997 0.12891699 -0.239399
-0.074949995 0.12895149 -0.239337
-0.074943498 0.12910649 -0.23934799
-0.074909665 0.129269 -0.23932034
-0.074891999 0.12936899 -0.239305
-0.074848004 0.12944099 -0.23925699
-0.074927002 0.129492 -0.2393795
-0.074844003 0.12952 -0.23927499
-0.074913003 0.129839 -0.23939
-0.074832 0.12982801 -0.239278
-0.074909501 0.129953 -0.239384
-0.074731499 0.130092 -0.239315
-0.074649997 0.130199 -0.239251
-0.074725002 0.13024649 -0.23932201
-0.074646004 0.13027699 -0.239259
-0.074716501 0.130404 -0.239381
-0.074639 0.1303945 -0.239308
-0.074711002 0.13052 -0.239392
-0.074596755 0.13054824 -0.2393115
-0.074460499 0.130606 -0.239255
-0.074590251 0.13070226 -0.2393245
-0.074453503 0.130761 -0.23927
-0.074619003 0.130823 -0.239382
-0.074484996 0.13086724 -0.23932999
-0.0744415 0.130996 -0.23933801
-0.0743955 0.130992 -0.23927701
-0.074433506 0.131152 -0.23937401
-0.074368998 0.13115834 -0.239282
-0.074351251 0.13130175 -0.23932248
-0.074333996 0.13144466 -0.23935832
-0.074307002 0.131576 -0.239388
-0.074159995 0.131597 -0.239271
-0.074152 0.13175401 -0.239319
-0.074143 0.1319115 -0.239373
-0.074138001 0.132029 -0.239393
-0.073647 0.133 -0.23926701
-0.073639005 0.13312051 -0.239327
-0.073631003 0.13328001 -0.239375
-0.0734272 0.13342279 -0.23928121
-0.073408999 0.13357283 -0.23932201
-0.073428005 0.1336935 -0.2393865
-0.073321998 0.13372424 -0.239333
-0.073258504 0.133876 -0.23934299
-0.073142327 0.13387667 -0.23926634
-0.073219493 0.13403201 -0.23937699
-0.073122002 0.134023 -0.239326
-0.073078498 0.1341795 -0.239369
-0.073000997 0.134206 -0.239269
-0.072993502 0.13432699 -0.23933899
-0.072985999 0.13444801 -0.239398
-0.071883999 0.13600899 -0.239299
-0.071878999 0.13609099 -0.239335
-0.071795002 0.136159 -0.239297
-0.071658999 0.13628066 -0.23929566
-0.071592003 0.13638499 -0.239307
-0.071502 0.136457 -0.239292
-0.071291998 0.13659599 -0.23925699
-0.071118996 0.1368645 -0.239328
-0.070974499 0.1368525 -0.23927701
-0.070965998 0.136977 -0.239361
-0.070882 0.13700449 -0.23928401
-0.070873998 0.137128 -0.23935699
-0.070740499 0.1371555 -0.2392845
-0.070688002 0.13727801 -0.23933101
-0.070492499 0.137454 -0.2393025
-0.070441 0.137575 -0.2393675
-0.070320003 0.137646 -0.239342
-0.070225999 0.1377205 -0.23932999
-0.070171498 0.13779649 -0.23934451
-0.070142001 0.13787401 -0.239384
-0.070028998 0.13794 -0.23933899
-0.069328003 0.13845 -0.239315
-0.069205999 0.138432 -0.239255
-0.069199003 0.13851801 -0.23933101
-0.069093004 0.13855125 -0.23931
-0.068980999 0.138584 -0.23929299
-0.069086999 0.13864 -0.239389
-0.068890996 0.13866501 -0.239355
-0.068802997 0.13872901 -0.239279
-0.068709001 0.13880301 -0.23926599
-0.067237005 0.139745 -0.239281
-0.067125 0.139818 -0.239292
-0.066954501 0.13988701 -0.2392855
-0.063510999 0.113537 -0.239121
-0.063095503 0.113454 -0.23918325
-0.062962003 0.113429 -0.23914149
-0.062622502 0.113453 -0.23911849
-0.065562002 0.114107 -0.239223
-0.065393001 0.114099 -0.239208
-0.066212997 0.11422651 -0.239167
-0.066108003 0.114298 -0.23911551
-0.065947331 0.11425867 -0.23915
-0.065792747 0.1142385 -0.2391535
-0.065614 0.114189 -0.239159
-0.065482996 0.114187 -0.23910999
-0.066322997 0.114388 -0.239124
-0.066211998 0.1143045 -0.239124
-0.067558996 0.114835 -0.23921099
-0.067461997 0.114834 -0.23919
-0.067813002 0.114999 -0.239243
-0.067728996 0.114999 -0.23918501
-0.067600995 0.114955 -0.23915049
-0.067460999 0.114911 -0.239152
-0.068302996 0.115183 -0.239232
-0.068163335 0.11517634 -0.23919
-0.068057999 0.11517 -0.23917601
-0.067883998 0.11510324 -0.23916474
-0.068489 0.115349 -0.23914
-0.068346247 0.115302 -0.2391775
-0.068163 0.115255 -0.23913734
-0.068057999 0.11525 -0.239106
-0.068599001 0.11540467 -0.23917101
-0.068898 0.115605 -0.239144
-0.068738997 0.115517 -0.23918401
-0.068654999 0.115515 -0.239125
-0.069594003 0.115944 -0.239234
-0.069683 0.116026 -0.23922101
-0.069596 0.116024 -0.239122
-0.069911003 0.116192 -0.23918401
-0.069798671 0.116161 -0.23915499
-0.069683999 0.116104 -0.23914699
-0.070124999 0.1163575 -0.2392095
-0.069971599 0.11630319 -0.2391516
-0.070145003 0.11646233 -0.23913999
-0.070012003 0.116432 -0.23910999
-0.07085 0.1168955 -0.23917401
-0.070707999 0.116851 -0.239104
-0.071119003 0.117103 -0.239241
-0.071006 0.11706225 -0.23919125
-0.071276002 0.117261 -0.239246
-0.071155995 0.11722 -0.239162
-0.071305335 0.11739267 -0.239188
-0.071486659 0.11756 -0.23920201
-0.071364 0.117498 -0.239178
-0.071630001 0.117743 -0.23920999
-0.071514994 0.11768899 -0.23913734
-0.071629502 0.1178585 -0.23913199
-0.071709998 0.117939 -0.23918501
-0.071851999 0.1181 -0.239167
-0.071708001 0.118055 -0.239126
-0.072002999 0.118264 -0.23921099
-0.071850002 0.118216 -0.239108
-0.072203003 0.118468 -0.23918501
-0.072002001 0.118381 -0.239127
-0.072375 0.118627 -0.239234
-0.072286002 0.118626 -0.23914
-0.072471 0.118787 -0.239213
-0.072373502 0.1187415 -0.23917499
-0.072284997 0.118703 -0.239104
-0.072524332 0.11889233 -0.23917735
-0.072711997 0.119025 -0.239243
-0.072549999 0.119022 -0.239122
-0.072710998 0.119141 -0.23915899
-0.073524997 0.120687 -0.239242
-0.073522002 0.120801 -0.2392095
-0.073557496 0.1209565 -0.23919599
-0.073661 0.1211145 -0.23923099
-0.073553503 0.121109 -0.2391545
-0.073688745 0.12126949 -0.2392085
-0.073587999 0.1212645 -0.23915699
-0.073715329 0.121424 -0.23918168
-0.073584005 0.1214175 -0.23911801
-0.073862746 0.12160625 -0.23923101
-0.073743507 0.1215785 -0.23913676
-0.073649004 0.1215745 -0.23910899
-0.073872171 0.12174016 -0.23919702
-0.073771 0.121695 -0.239108
-0.074074998 0.121943 -0.23924799
-0.073869668 0.12189216 -0.239134
-0.074072003 0.1220575 -0.2392135
-0.073918 0.12201 -0.23912901
-0.074069001 0.12221 -0.239158
-0.074066997 0.122326 -0.23911101
-0.074340001 0.122492 -0.23921201
-0.074338004 0.122605 -0.239153
-0.074334003 0.122721 -0.23914
-0.074496999 0.122921 -0.23923999
-0.074492 0.123075 -0.239216
-0.074487999 0.123227 -0.239182
-0.074661747 0.123391 -0.23921999
-0.074483499 0.123379 -0.2391475
-0.048802 0.123413 -0.239196
-0.074731998 0.123585 -0.23924699
-0.074658252 0.12354401 -0.23917575
-0.048711251 0.12354325 -0.239182
-0.074728996 0.12369899 -0.239228
-0.074654251 0.123697 -0.23914149
-0.048686601 0.12366639 -0.23913741
-0.074726 0.1238505 -0.239158
-0.074681997 0.123811 -0.239103
-0.048641 0.123788 -0.23915701
-0.048588 0.123864 -0.239233
-0.074772507 0.1239725 -0.2391475
-0.048588 0.123976 -0.23914099
-0.074883997 0.124137 -0.23923901
-0.074766755 0.12412475 -0.2391405
-0.074882001 0.1242515 -0.239204
-0.07476075 0.12427825 -0.2391385
-0.074902661 0.12441933 -0.23919566
-0.074806497 0.124401 -0.23913801
-0.074910499 0.12456 -0.2391925
-0.074803002 0.124515 -0.23911101
-0.075029999 0.124761 -0.239241
-0.074920334 0.12470033 -0.23915601
-0.075025998 0.1248755 -0.2392205
-0.074942499 0.124867 -0.23912901
-0.075021997 0.125028 -0.23918599
-0.074937001 0.125019 -0.239114
-0.075014994 0.12518099 -0.23920199
-0.074929997 0.125212 -0.239106
-0.075009502 0.12533349 -0.23919499
-0.075006001 0.12548649 -0.239149
-0.074995004 0.125829 -0.239103
-0.074989006 0.125945 -0.23913001
-0.075062998 0.12614501 -0.23924001
-0.074982494 0.12609801 -0.239142
-0.075061001 0.12625849 -0.2392035
-0.074977502 0.126252 -0.23912799
-0.075057 0.12637401 -0.239187
-0.074974 0.12636501 -0.23910999
-0.075093001 0.12648951 -0.23920551
-0.07508675 0.126643 -0.239208
-0.075068332 0.126783 -0.23919266
-0.075076245 0.12694876 -0.23918299
-0.075071 0.12710175 -0.2391675
-0.075065248 0.12725475 -0.23916602
-0.075099498 0.12740999 -0.239189
-0.075094506 0.12756249 -0.239171
-0.075061671 0.12770267 -0.23916768
-0.075080499 0.12787101 -0.239214
-0.074994504 0.1280205 -0.23916
-0.074986994 0.12817651 -0.23919299
-0.074981496 0.12832901 -0.23918301
-0.074975505 0.128482 -0.239182
-0.07492625 0.12863401 -0.23918226
-0.074904658 0.12877466 -0.23921834
-0.074794002 0.128736 -0.239104
-0.074869007 0.128941 -0.23922101
-0.074784003 0.128967 -0.239124
-0.074862495 0.129095 -0.2392305
-0.074780002 0.12908199 -0.23911649
-0.074858002 0.129209 -0.23923901
-0.074772507 0.1292385 -0.23915499
-0.074764505 0.129393 -0.23918299
-0.074760497 0.129545 -0.239152
-0.074754998 0.12969801 -0.2391475
-0.074674003 0.12973 -0.23910899
-0.074746996 0.1298535 -0.23918
-0.074671 0.12980799 -0.239117
-0.074662998 0.13003699 -0.23910099
-0.074607335 0.130141 -0.23917232
-0.074468337 0.13014935 -0.239124
-0.074575007 0.13030851 -0.239204
-0.074453749 0.130291 -0.2391365
-0.074568003 0.130427 -0.23924901
-0.074446507 0.13044624 -0.23917
-0.074363001 0.13047799 -0.23910899
-0.074414 0.13060349 -0.2392095
-0.074357495 0.13059551 -0.2391275
-0.074406996 0.130758 -0.23923099
-0.074349999 0.130751 -0.23915699
-0.074340999 0.1309095 -0.23921901
-0.074194998 0.13089401 -0.23910999
-0.074336 0.131025 -0.239232
-0.074186996 0.1310485 -0.2391445
-0.074331999 0.13110299 -0.239246
-0.0741795 0.13120499 -0.239178
-0.074174002 0.13132299 -0.23920099
-0.074167997 0.13143951 -0.23923101
-0.073671997 0.13252699 -0.23910999
-0.073665 0.1326465 -0.239167
-0.073656 0.13280499 -0.239233
-0.073651001 0.13292199 -0.23924001
-0.073477663 0.13295266 -0.239121
-0.073435672 0.13309582 -0.23914735
-0.073426843 0.13325383 -0.23920034
-0.073323503 0.1332435 -0.239133
-0.073193997 0.133349 -0.239103
-0.073367 0.133371 -0.23923101
-0.073285744 0.13339624 -0.23914951
-0.073191002 0.13342699 -0.239115
-0.073276997 0.133555 -0.23920001
-0.073161006 0.13355666 -0.23913501
-0.073239505 0.13370949 -0.23922899
-0.073141754 0.13370049 -0.23917499
-0.073100999 0.133817 -0.239195
-0.073019996 0.133885 -0.23914
-0.073011994 0.1340075 -0.23920399
-0.073005997 0.13412499 -0.239243
-0.072079495 0.1354975 -0.23915499
-0.072071999 0.135617 -0.239207
-0.071899503 0.13580149 -0.239151
-0.071891002 0.13592499 -0.23922101
-0.071775995 0.13596267 -0.23915499
-0.071751997 0.1360715 -0.23922199
-0.071639664 0.136114 -0.23917668
-0.071524002 0.13612901 -0.23910899
-0.071602002 0.13622101 -0.23921899
-0.071516499 0.1362495 -0.239158
-0.071509004 0.136371 -0.239223
-0.071303003 0.13643 -0.239143
-0.071296997 0.13651299 -0.239207
-0.071138002 0.136577 -0.23916
-0.070988998 0.136645 -0.239141
-0.071129501 0.1366995 -0.239235
-0.070982002 0.136728 -0.239207
-0.070896998 0.136795 -0.239131
-0.070891999 0.136878 -0.239181
-0.070799001 0.136949 -0.239168
-0.070749998 0.13702899 -0.2391925
-0.070609003 0.13709 -0.23912799
-0.070699997 0.13711099 -0.23922899
-0.070539996 0.13719633 -0.23917933
-0.070548996 0.1372925 -0.2392365
-0.070417494 0.1373525 -0.2391285
-0.07034 0.13738699 -0.239117
-0.070409 0.137477 -0.23921099
-0.070272252 0.13750625 -0.23914576
-0.070266671 0.13760434 -0.23921168
-0.070164002 0.137613 -0.239125
-0.070155002 0.137705 -0.239246
-0.070044003 0.137766 -0.23917
-0.070037 0.137852 -0.23925
-0.069342002 0.13827699 -0.239167
-0.069334999 0.13836201 -0.239245
-0.069178335 0.138372 -0.23917668
-0.069079995 0.1384135 -0.23914
-0.069046997 0.13849799 -0.239216
-0.068933666 0.13851434 -0.23916499
-0.068748333 0.13866434 -0.239186
-0.067557998 0.139428 -0.239131
-0.067410499 0.139541 -0.239142
-0.067216001 0.13964599 -0.23912001
-0.067139499 0.139642 -0.239127
-0.067358002 0.139663 -0.239205
-0.067277998 0.13965601 -0.239172
-0.067131504 0.139732 -0.239224
-0.066964999 0.1397565 -0.23916849
-0.066858999 0.13978601 -0.239154
-0.066991001 0.139805 -0.239217
-0.066809505 0.13987151 -0.239215
-0.062757999 0.113346 -0.23907299
-0.063384503 0.113534 -0.239089
-0.06323 0.113525 -0.23906949
-0.063097499 0.11351649 -0.2390945
-0.062965497 0.11351199 -0.23899651
-0.062801503 0.113466 -0.23904401
-0.062669002 0.113496 -0.239053
-0.062177002 0.113473 -0.23899698
-0.062026251 0.11350299 -0.23899025
-0.061849501 0.113527 -0.239096
-0.063554004 0.113621 -0.23902801
-0.063384995 0.1136145 -0.239007
-0.063152 0.113602 -0.238951
-0.061893001 0.11361 -0.238988
-0.061719999 0.113603 -0.238986
-0.061590999 0.1135985 -0.238977
-0.061462 0.11359 -0.23905601
-0.061271001 0.113654 -0.238984
-0.060428999 0.113842 -0.23899201
-0.060253002 0.113907 -0.238975
-0.065617003 0.114271 -0.239026
-0.065486997 0.11427 -0.238956
-0.065356001 0.1141835 -0.23898549
-0.066211499 0.1143835 -0.239078
-0.066105999 0.1143775 -0.23907849
-0.065938495 0.11440475 -0.23900449
-0.065808333 0.114386 -0.23899467
-0.066324003 0.114506 -0.23900899
-0.066210501 0.11450174 -0.23899576
-0.066104747 0.11449424 -0.23901024
-0.066515997 0.114634 -0.23899101
-0.067461997 0.114991 -0.239058
-0.067281 0.1149415 -0.2389935
-0.067882493 0.115165 -0.2390735
-0.067731 0.1151185 -0.239048
-0.067616336 0.11510134 -0.23900433
-0.067463003 0.115071 -0.238984
-0.068163671 0.11533433 -0.239052
-0.068060003 0.11533 -0.239006
-0.0678984 0.1152754 -0.23899779
-0.068488002 0.115426 -0.23909201
-0.068348497 0.115421 -0.239024
-0.068164334 0.11541334 -0.23897767
-0.068741001 0.115597 -0.239086
-0.068598665 0.11556233 -0.23905165
-0.068486497 0.1155425 -0.239041
-0.068391003 0.115502 -0.239006
-0.068898998 0.115724 -0.239032
-0.068742 0.115677 -0.239006
-0.068655998 0.115674 -0.238975
-0.069424503 0.11605451 -0.238993
-0.069683999 0.116184 -0.23906501
-0.069596 0.1161415 -0.23902801
-0.069911003 0.116349 -0.23906
-0.069811746 0.11630525 -0.2390565
-0.069683999 0.1163015 -0.238977
-0.070064001 0.11651 -0.23905601
-0.069950201 0.11647439 -0.23901442
-0.069852002 0.116423 -0.23899999
-0.070124246 0.11663026 -0.23899975
-0.069985002 0.11658449 -0.23897451
-0.070707999 0.11693 -0.239058
-0.070960999 0.117098 -0.239043
-0.070851497 0.117053 -0.23901901
-0.070707001 0.117007 -0.23900799
-0.071121 0.117259 -0.239072
-0.071018599 0.11721261 -0.23901641
-0.071157001 0.117377 -0.2390115
-0.071057998 0.117337 -0.23895501
-0.071304999 0.11754867 -0.23906499
-0.071191996 0.117493 -0.23898099
-0.071456 0.117742 -0.23906399
-0.0713645 0.1176935 -0.23901001
-0.071498752 0.11785699 -0.239024
-0.071626998 0.117976 -0.239078
-0.071542002 0.117973 -0.238977
-0.071707003 0.118132 -0.239086
-0.071626499 0.11809149 -0.239011
-0.071754336 0.11826267 -0.23902333
-0.071624003 0.118207 -0.238957
-0.072002999 0.118458 -0.23905499
-0.071849003 0.118371 -0.23900101
-0.072205499 0.1185855 -0.2390365
-0.072228663 0.11875167 -0.23902933
-0.072470002 0.118943 -0.239097
-0.072372496 0.1188965 -0.23907
-0.072254002 0.11888134 -0.23899066
-0.072495334 0.11907067 -0.23905267
-0.072369501 0.1190505 -0.239004
-0.072279997 0.119011 -0.23896299
-0.072493002 0.11919934 -0.23900335
-0.072709501 0.11929651 -0.239072
-0.0725445 0.1192925 -0.23900101
-0.072707504 0.1194495 -0.238995
-0.072704002 0.119564 -0.238959
-0.072880499 0.1197705 -0.238977
-0.073510498 0.12126 -0.2390835
-0.073506504 0.12141301 -0.239043
-0.073541254 0.1215685 -0.239039
-0.073729672 0.12174367 -0.23907633
-0.073611252 0.12172475 -0.2390455
-0.0735 0.12168 -0.23896401
-0.073735997 0.12188426 -0.23904499
-0.073606998 0.12187725 -0.23900524
-0.073855802 0.122052 -0.23906639
-0.073732004 0.12203725 -0.23900723
-0.073615007 0.122018 -0.23897
-0.073862173 0.1221975 -0.23903532
-0.073738664 0.12217767 -0.23896734
-0.073857993 0.12235016 -0.239004
-0.074063495 0.122439 -0.23908401
-0.0738675 0.122485 -0.2389705
-0.0740605 0.1225915 -0.239023
-0.074332997 0.122796 -0.239098
-0.074056506 0.1227445 -0.23898199
-0.074330002 0.122911 -0.23907851
-0.074054003 0.122858 -0.238956
-0.074323997 0.123064 -0.239072
-0.074320003 0.123216 -0.239033
-0.074315995 0.123369 -0.2390015
-0.074480996 0.1235315 -0.239086
-0.074311003 0.1235205 -0.23897499
-0.048804998 0.123525 -0.239043
-0.074476004 0.123685 -0.23906
-0.048746999 0.123719 -0.23908301
-0.074640669 0.12386099 -0.23907234
-0.074470997 0.1238375 -0.23903799
-0.048704401 0.1238362 -0.23904319
-0.074646756 0.124001 -0.23904626
-0.074467003 0.1239895 -0.238997
-0.048641998 0.123938 -0.23899999
-0.074640997 0.1241525 -0.23904601
-0.074461997 0.124141 -0.23898
-0.048586503 0.1241275 -0.23904949
-0.074635498 0.12430649 -0.23903351
-0.074458003 0.124257 -0.23896299
-0.048585001 0.124242 -0.238976
-0.074708 0.124424 -0.239079
-0.074630752 0.12445974 -0.23900875
-0.074737333 0.12455533 -0.23905367
-0.074616998 0.12459767 -0.23897631
-0.074868999 0.124747 -0.23907401
-0.074765332 0.12468734 -0.23906367
-0.074648999 0.12470725 -0.23899701
-0.074864499 0.124861 -0.2390715
-0.074791998 0.124858 -0.239069
-0.074655004 0.124834 -0.238988
-0.074859001 0.1250135 -0.23905599
-0.074789502 0.12500951 -0.239003
-0.074692003 0.124956 -0.238978
-0.074881002 0.12515534 -0.239052
-0.074785501 0.1251615 -0.23896649
-0.07490167 0.12530966 -0.23904967
-0.074802332 0.12532867 -0.23898435
-0.074921504 0.125478 -0.23906851
-0.074821673 0.125457 -0.23898299
-0.075003505 0.12563699 -0.23908299
-0.074918501 0.1256295 -0.239002
-0.074840002 0.125624 -0.23896399
-0.074941665 0.12577166 -0.23902833
-0.074836001 0.12573799 -0.238956
-0.074907005 0.125935 -0.23899999
-0.074899495 0.12609001 -0.239039
-0.074821994 0.126082 -0.238965
-0.074894503 0.12624151 -0.239021
-0.074916333 0.12641101 -0.23903601
-0.074925497 0.12655251 -0.23904526
-0.0748045 0.126542 -0.23896199
-0.074920252 0.12670475 -0.23903251
-0.074916497 0.126819 -0.23901001
-0.074954495 0.126938 -0.23904499
-0.074919663 0.12712634 -0.239011
-0.074782997 0.127115 -0.238951
-0.074914664 0.12725334 -0.23901333
-0.075023502 0.1274025 -0.23905501
-0.074895747 0.12739225 -0.238987
-0.075016499 0.12755701 -0.23907501
-0.074932501 0.1275495 -0.239021
-0.075007997 0.127749 -0.239097
-0.074925497 0.12770399 -0.23903801
-0.074841499 0.12769401 -0.2389535
-0.075004503 0.127864 -0.2390765
-0.074920505 0.127857 -0.239016
-0.074835494 0.127847 -0.238957
-0.074912503 0.12801149 -0.23906
-0.074787751 0.1279995 -0.23898201
-0.074675001 0.128032 -0.238959
-0.0749055 0.12816601 -0.23909199
-0.074780002 0.12815501 -0.23901601
-0.074669495 0.12814701 -0.238967
-0.074899003 0.12832001 -0.23909351
-0.074789666 0.12829499 -0.23899134
-0.074666001 0.128262 -0.23895399
-0.074893504 0.128473 -0.23909
-0.074781664 0.128474 -0.23900568
-0.074657001 0.128492 -0.23896
-0.074760497 0.128617 -0.23905149
-0.074616998 0.128617 -0.23898368
-0.074740998 0.12878133 -0.23904999
-0.074643999 0.12876301 -0.239006
-0.074546501 0.128746 -0.23896399
-0.074736334 0.12890933 -0.23904167
-0.074639 0.128914 -0.23899001
-0.074540496 0.12889999 -0.23895501
-0.074703999 0.12903699 -0.23906
-0.074654669 0.12908433 -0.23903465
-0.074517004 0.12906666 -0.23897301
-0.07465975 0.129227 -0.2390615
-0.074503005 0.129208 -0.23898277
-0.074653745 0.12937999 -0.23906201
-0.074506335 0.12934767 -0.23896967
-0.074648753 0.12953299 -0.23904875
-0.074474603 0.1295208 -0.23897199
-0.074629672 0.12967499 -0.23907767
-0.074467406 0.1296608 -0.2390112
-0.074399002 0.129704 -0.238988
-0.074621998 0.12985499 -0.239087
-0.074476503 0.1298245 -0.23904149
-0.074392498 0.12982151 -0.2390205
-0.074243002 0.12984601 -0.238951
-0.07461933 0.12998033 -0.23904701
-0.074470751 0.12997775 -0.2390395
-0.074387997 0.12997299 -0.238996
-0.074237496 0.12996301 -0.238967
-0.074438997 0.130096 -0.239088
-0.074379504 0.13012999 -0.23904401
-0.0742305 0.130117 -0.23898399
-0.0743725 0.130284 -0.239071
-0.074223503 0.130272 -0.239012
-0.074367002 0.130402 -0.239087
-0.074217007 0.130427 -0.239024
-0.074210495 0.13058001 -0.239035
-0.074202001 0.13073701 -0.23908499
-0.074027002 0.130876 -0.238966
-0.074020505 0.13103101 -0.238993
-0.074012995 0.13118601 -0.239014
-0.074006006 0.1313415 -0.239043
-0.074000001 0.131457 -0.23906501
-0.073712997 0.13167 -0.23895501
-0.073708504 0.13178399 -0.2389535
-0.073702 0.13193899 -0.238969
-0.073693499 0.1320965 -0.239021
-0.073684499 0.13225451 -0.239077
-0.073529497 0.132239 -0.238978
-0.073678002 0.13240999 -0.239086
-0.073522501 0.132395 -0.239003
-0.073454 0.13240068 -0.23896332
-0.073515505 0.13254949 -0.23902199
-0.073437504 0.132544 -0.23899999
-0.073506996 0.132708 -0.23907501
-0.073414601 0.1326908 -0.2390188
-0.073349997 0.13273101 -0.23898301
-0.073500998 0.132824 -0.239097
-0.073422253 0.13285725 -0.2390665
-0.073324673 0.13285868 -0.23898701
-0.073389001 0.132974 -0.239089
-0.073276162 0.13299884 -0.23900934
-0.073256001 0.1331474 -0.23904541
-0.073137999 0.1331435 -0.238967
-0.073264003 0.13327301 -0.23907299
-0.073152333 0.13329066 -0.23903799
-0.073120996 0.1334585 -0.23906
-0.073044002 0.133485 -0.238956
-0.073035493 0.13360649 -0.23902801
-0.073030002 0.133725 -0.23905601
-0.073026001 0.133803 -0.23906501
-0.072096005 0.13525051 -0.23900199
-0.072088003 0.13537399 -0.23907501
-0.071923003 0.135435 -0.23895399
-0.071916506 0.13555601 -0.238998
-0.071833 0.13558599 -0.23897199
-0.071907997 0.13568 -0.239078
-0.071792006 0.135717 -0.23901767
-0.0717685 0.13582399 -0.2390745
-0.071625002 0.13589101 -0.239011
-0.071714997 0.13590001 -0.239077
-0.071617998 0.135974 -0.239077
-0.071531504 0.1360065 -0.239039
-0.071321003 0.136182 -0.238979
-0.071311995 0.1363045 -0.23906
-0.071148999 0.13644651 -0.23903501
-0.071002997 0.136473 -0.23898301
-0.070996001 0.13655899 -0.239059
-0.070911497 0.1365875 -0.238994
-0.07084433 0.13672966 -0.239034
-0.070726 0.13673601 -0.23898
-0.070805997 0.13686401 -0.23909
-0.070714504 0.1369025 -0.239078
-0.070591666 0.13689433 -0.23899834
-0.070552334 0.13702834 -0.23906
-0.070435002 0.13706701 -0.238988
-0.070390247 0.13718675 -0.23903124
-0.070262998 0.1372155 -0.2389635
-0.070272796 0.1373322 -0.23904499
-0.070179999 0.13736799 -0.238993
-0.070221998 0.13746101 -0.239079
-0.070136331 0.13749699 -0.239022
-0.070053503 0.13763849 -0.239068
-0.069357 0.13810299 -0.23899899
-0.069349997 0.138189 -0.239071
-0.069199502 0.13821326 -0.239032
-0.069094002 0.13824001 -0.2389805
-0.069059998 0.13832299 -0.23903699
-0.068946004 0.13837032 -0.23903365
-0.068829998 0.138384 -0.238975
-0.068777755 0.138504 -0.23902
-0.067837 0.139116 -0.238974
-0.067746997 0.139189 -0.238968
-0.067656003 0.13926101 -0.238998
-0.067609504 0.139339 -0.2390195
-0.067470998 0.139331 -0.238989
-0.067404993 0.13943599 -0.23902833
-0.067259498 0.1394795 -0.239016
-0.067179002 0.139469 -0.238966
-0.0672535 0.1395635 -0.23907501
-0.067147501 0.139552 -0.239031
-0.066979006 0.13961801 -0.23899201
-0.066940002 0.139704 -0.239096
-0.066868998 0.139691 -0.239015
-0.066644505 0.1398405 -0.2390285
-0.065123998 0.14053801 -0.238978
-0.064897999 0.1406 -0.23895501
-0.062077001 0.113545 -0.238949
-0.063345 0.113696 -0.23886301
-0.06320475 0.11364675 -0.23888975
-0.063052796 0.11363021 -0.2388508
-0.062935002 0.1136325 -0.238855
-0.062802255 0.113626 -0.23889099
-0.062642664 0.11360333 -0.23889565
-0.062410001 0.11357 -0.23883601
-0.062176999 0.113593 -0.23889434
-0.062025998 0.11362267 -0.238874
-0.061841667 0.11366466 -0.238858
-0.061725002 0.113687 -0.23880801
-0.061593503 0.11368001 -0.23885101
-0.061417997 0.113669 -0.23890099
-0.063700996 0.113792 -0.238842
-0.063557498 0.11374401 -0.238859
-0.063431002 0.1137 -0.238873
-0.061240502 0.1137365 -0.238839
-0.061161 0.113728 -0.23886301
-0.060952 0.113794 -0.238823
-0.060836002 0.1137455 -0.23888451
-0.060699001 0.113777 -0.23894399
-0.060534 0.113848 -0.238914
-0.060617 0.113857 -0.238864
-0.060383499 0.11392 -0.238877
-0.060254999 0.113986 -0.238867
-0.060040999 0.113974 -0.238869
-0.065207496 0.114101 -0.238933
-0.065355495 0.11426251 -0.2389285
-0.065204501 0.11421825 -0.23889148
-0.065072 0.1142135 -0.23882701
-0.065756001 0.114438 -0.238911
-0.065618247 0.114392 -0.23889799
-0.065486498 0.11438949 -0.23886201
-0.065356001 0.114343 -0.23885551
-0.065203995 0.114336 -0.238813
-0.065938994 0.1145245 -0.23889449
-0.065795496 0.114518 -0.2388645
-0.065669999 0.114515 -0.238801
-0.066515997 0.114715 -0.238931
-0.066326 0.114628 -0.238866
-0.066210754 0.114661 -0.2388605
-0.0661055 0.1146535 -0.2388685
-0.065938994 0.1146035 -0.23883051
-0.066515997 0.1148325 -0.238839
-0.067561001 0.115152 -0.238923
-0.067461997 0.11515 -0.23892801
-0.067281 0.115059 -0.238893
-0.067817003 0.115317 -0.238903
-0.067731999 0.11527701 -0.23890901
-0.067616664 0.11525967 -0.238873
-0.067461997 0.115228 -0.238866
-0.068164997 0.11549366 -0.23889633
-0.068060003 0.11544751 -0.2389065
-0.06788516 0.11544 -0.23884483
-0.067731999 0.115395 -0.23881499
-0.068334661 0.115553 -0.23890431
-0.068165667 0.115572 -0.23882432
-0.068060003 0.115565 -0.238813
-0.068742 0.115756 -0.23893
-0.068599999 0.11572167 -0.23888732
-0.068488002 0.11570249 -0.23886651
-0.068392999 0.115661 -0.23882499
-0.069049999 0.115925 -0.238929
-0.068899497 0.1158815 -0.23889551
-0.0687415 0.1158735 -0.23884901
-0.068613499 0.115826 -0.238831
-0.069049999 0.116001 -0.238864
-0.068898998 0.116 -0.238811
-0.069424003 0.116173 -0.23889101
-0.069596 0.116299 -0.23890901
-0.069422498 0.1162885 -0.23883501
-0.069797665 0.11647467 -0.23892133
-0.069683 0.116458 -0.23886651
-0.069593996 0.1164545 -0.23881599
-0.069946498 0.116642 -0.23890676
-0.069809251 0.116617 -0.23884974
-0.070123747 0.116787 -0.2388815
-0.069994003 0.11676866 -0.23883499
-0.070184 0.116909 -0.238828
-0.070707999 0.117085 -0.23892801
-0.070449002 0.117074 -0.23881701
-0.07096 0.117254 -0.23894601
-0.070852503 0.11720949 -0.2388645
-0.070707999 0.117165 -0.23885
-0.070997201 0.117382 -0.23890141
-0.071143337 0.11754467 -0.238895
-0.071015403 0.1175228 -0.23883381
-0.071275502 0.1176905 -0.238913
-0.071167 0.11767501 -0.23883067
-0.071317747 0.11784674 -0.23887825
-0.0714975 0.118012 -0.2389275
-0.071359999 0.1180025 -0.238859
-0.071480997 0.11810333 -0.238883
-0.071622998 0.118285 -0.238915
-0.071493253 0.1182425 -0.2388345
-0.071752332 0.11841733 -0.23893566
-0.071621999 0.1183995 -0.238847
-0.072004497 0.1185755 -0.238915
-0.071775004 0.11856 -0.2388555
-0.072002001 0.11869 -0.23887999
-0.071998999 0.118767 -0.238876
-0.071846999 0.118679 -0.238803
-0.072196998 0.11893 -0.23892801
-0.071996003 0.11888149 -0.238841
-0.072223336 0.11906034 -0.23888333
-0.072367504 0.11920451 -0.238922
-0.072250001 0.11918966 -0.23883499
-0.072463997 0.119326 -0.23892
-0.0723655 0.1193585 -0.238846
-0.072274998 0.119318 -0.238813
-0.072502501 0.11944325 -0.23889025
-0.072362997 0.119473 -0.238803
-0.072702996 0.119642 -0.238931
-0.072513334 0.11958467 -0.23884499
-0.072700001 0.119756 -0.23890099
-0.072536997 0.119715 -0.23881701
-0.072876498 0.119923 -0.23893701
-0.0726965 0.1199085 -0.23885301
-0.072874002 0.1200765 -0.238865
-0.072691999 0.12006199 -0.23881
-0.073498003 0.121758 -0.238942
-0.073495001 0.12187199 -0.23890701
-0.073568001 0.122067 -0.238932
-0.073491998 0.12202451 -0.23885199
-0.073697001 0.122225 -0.23893499
-0.073599003 0.12218225 -0.238921
-0.073486499 0.122177 -0.23883601
-0.073723502 0.122343 -0.2389285
-0.07359425 0.12233575 -0.23889175
-0.073481001 0.122329 -0.23882601
-0.073854998 0.122539 -0.23892599
-0.0737352 0.1225036 -0.23891158
-0.073589996 0.122488 -0.23886651
-0.073877499 0.12265575 -0.2389065
-0.073742002 0.12264916 -0.23888366
-0.073585495 0.12263999 -0.2388415
-0.073863663 0.12279534 -0.23889901
-0.073737331 0.12280232 -0.23886199
-0.073580749 0.1227925 -0.2388095
-0.074051 0.122936 -0.238948
-0.073867999 0.122924 -0.2388915
-0.073743396 0.12294801 -0.23885639
-0.074046999 0.1230495 -0.2389385
-0.073872671 0.12305067 -0.23886834
-0.073747665 0.12309566 -0.23883401
-0.074042499 0.123202 -0.23890501
-0.073859498 0.123191 -0.238849
-0.073779501 0.123189 -0.238838
-0.074037001 0.1233545 -0.23889801
-0.073854752 0.12334225 -0.23882499
-0.073775999 0.123302 -0.23882701
-0.0740325 0.123508 -0.2388715
-0.074307501 0.1236735 -0.23893499
-0.074028999 0.1236585 -0.23882399
-0.048805498 0.1236755 -0.23890799
-0.074302003 0.123826 -0.238913
-0.048806001 0.123789 -0.238814
-0.074298002 0.1239785 -0.238884
-0.048695501 0.12397725 -0.23890275
-0.074293494 0.12413099 -0.238858
-0.048639499 0.1241285 -0.23890799
-0.074455999 0.124332 -0.23894501
-0.074287996 0.124283 -0.238846
-0.048585001 0.124317 -0.238912
-0.074452505 0.124448 -0.23893
-0.074283496 0.1244365 -0.2388155
-0.048587002 0.124391 -0.23882399
-0.074446999 0.1245995 -0.238921
-0.074442998 0.1247515 -0.23888001
-0.074588001 0.124877 -0.23892599
-0.074439496 0.124903 -0.238842
-0.07463 0.125 -0.23891819
-0.074432999 0.12505549 -0.238847
-0.074635327 0.12514567 -0.23890667
-0.074428 0.125209 -0.238832
-0.074629836 0.1252975 -0.23889899
-0.074423999 0.125323 -0.238823
-0.074772999 0.125505 -0.238941
-0.074624166 0.12545098 -0.23889367
-0.074419498 0.125439 -0.23881999
-0.074769497 0.12561899 -0.23892599
-0.074619003 0.12560315 -0.23888218
-0.074414499 0.12559 -0.23880801
-0.074786663 0.12578601 -0.23893
-0.074612997 0.12575601 -0.23887832
-0.074408501 0.125743 -0.23881
-0.074793756 0.12592649 -0.2389255
-0.074618593 0.12590219 -0.238886
-0.074451663 0.125912 -0.23882468
-0.074751005 0.12607799 -0.23893601
-0.074628755 0.1260635 -0.23889674
-0.074546002 0.1260605 -0.238858
-0.074396506 0.126048 -0.238805
-0.074783504 0.126232 -0.23889977
-0.074625254 0.12621425 -0.23885
-0.074541494 0.12621149 -0.238819
-0.074777499 0.126385 -0.23889598
-0.074619748 0.12636825 -0.2388365
-0.074538 0.126325 -0.238803
-0.074734494 0.126537 -0.238923
-0.074612752 0.12652099 -0.23885851
-0.074529499 0.1265175 -0.23882401
-0.074764997 0.12669149 -0.23890749
-0.074607499 0.12667376 -0.238846
-0.074523002 0.12667149 -0.2388325
-0.074873 0.12688901 -0.23894501
-0.074759997 0.1268435 -0.2388915
-0.0746025 0.126826 -0.2388335
-0.074518502 0.12682301 -0.238805
-0.0748685 0.12700599 -0.238949
-0.074752748 0.1269975 -0.2389185
-0.074595496 0.12698025 -0.23885299
-0.074512497 0.126975 -0.238802
-0.074864 0.127119 -0.23894399
-0.074734002 0.12716334 -0.238923
-0.074589498 0.1271335 -0.23885925
-0.074506499 0.127129 -0.23881701
-0.074740753 0.127304 -0.23891699
-0.074583754 0.12728524 -0.23884675
-0.074500501 0.12728199 -0.238823
-0.074748002 0.12744467 -0.23891099
-0.074601807 0.12745 -0.23885942
-0.074494496 0.127435 -0.238818
-0.074807249 0.12757599 -0.23891601
-0.074644752 0.1276 -0.23888199
-0.074518502 0.12759 -0.2388235
-0.074759997 0.127726 -0.23893
-0.074638754 0.12775351 -0.238884
-0.074512251 0.12774301 -0.23883
-0.074755996 0.127841 -0.238921
-0.074616663 0.12789166 -0.23887999
-0.074505746 0.1278965 -0.238841
-0.074610338 0.12802033 -0.23890768
-0.074499249 0.128051 -0.23886099
-0.074569501 0.128208 -0.238902
-0.074492753 0.12820449 -0.2388635
-0.074736997 0.12834001 -0.23892701
-0.074597664 0.128353 -0.23890799
-0.0744875 0.1283565 -0.23885751
-0.074732997 0.128416 -0.23893499
-0.074610002 0.128445 -0.238922
-0.074471004 0.128498 -0.23887001
-0.074299999 0.128535 -0.23880699
-0.074555002 0.128553 -0.238933
-0.074485995 0.12860233 -0.23889767
-0.074295506 0.12865099 -0.23881301
-0.074469998 0.1287425 -0.23890699
-0.074288502 0.12880599 -0.2388345
-0.074463502 0.12889549 -0.2389105
-0.074282497 0.128959 -0.23884299
-0.074447997 0.12903634 -0.23891835
-0.074276999 0.12907401 -0.23885199
-0.074420497 0.12920299 -0.238932
-0.074272498 0.12919 -0.23886
-0.074434005 0.12936966 -0.23893833
-0.074266002 0.129343 -0.23887101
-0.074409001 0.129471 -0.23895
-0.074259505 0.12949851 -0.2388895
-0.074253999 0.12961499 -0.238903
-0.074249998 0.129691 -0.238923
-0.074081004 0.129676 -0.238805
-0.074245997 0.12977 -0.238941
-0.074076504 0.129792 -0.23881
-0.074070007 0.12994501 -0.238823
-0.074064001 0.13009951 -0.23883501
-0.0740555 0.130255 -0.238875
-0.074048504 0.13041 -0.238894
-0.074042499 0.130564 -0.238895
-0.074036002 0.13071901 -0.238915
-0.073756002 0.13073701 -0.23881
-0.073751003 0.13085401 -0.23881701
-0.073744506 0.13100749 -0.23883149
-0.0737385 0.13116151 -0.23883
-0.073731005 0.13131699 -0.23886
-0.073723495 0.1314725 -0.23889801
-0.07354933 0.13147034 -0.23881634
-0.073459998 0.131492 -0.238801
-0.073716 0.13159201 -0.238947
-0.07353425 0.13161251 -0.23884249
-0.073455498 0.13160899 -0.238811
-0.073536664 0.13175468 -0.23885866
-0.073465668 0.13177668 -0.23883633
-0.073546499 0.1319235 -0.238875
-0.073452607 0.1319246 -0.23884639
-0.073538005 0.13208151 -0.23892701
-0.073434666 0.13207316 -0.23887734
-0.073321998 0.1321 -0.23880599
-0.073427498 0.13222782 -0.23890133
-0.073294006 0.132227 -0.23882265
-0.073385336 0.13236801 -0.23891467
-0.073276997 0.13237025 -0.23884699
-0.073359996 0.13253501 -0.23893601
-0.073269002 0.132526 -0.23888299
-0.073167995 0.13251901 -0.23884
-0.073261246 0.13268276 -0.23891649
-0.073160499 0.13267499 -0.23887199
-0.073244333 0.13282433 -0.238931
-0.073126666 0.13284034 -0.23888068
-0.073106997 0.13298199 -0.23889351
-0.073061496 0.13313201 -0.238876
-0.073053002 0.13328901 -0.238922
-0.073048003 0.133406 -0.23894
-0.072122 0.134808 -0.238811
-0.072115496 0.13492951 -0.238858
-0.072106004 0.1350895 -0.238924
-0.071908332 0.13524267 -0.23883666
-0.071928002 0.135354 -0.238924
-0.071812332 0.13539366 -0.23885368
-0.071771331 0.13552399 -0.23890601
-0.071618333 0.13553633 -0.23881833
-0.071731001 0.135655 -0.23894501
-0.071595997 0.13568276 -0.23886299
-0.071630999 0.13580699 -0.238949
-0.071545497 0.1358355 -0.23888001
-0.071341 0.135856 -0.238819
-0.071334004 0.13597751 -0.238866
-0.071326002 0.136099 -0.238933
-0.071170494 0.1361185 -0.23884401
-0.071024001 0.13614701 -0.238813
-0.071160495 0.13628151 -0.23892599
-0.071016505 0.1362685 -0.23886999
-0.070932001 0.136298 -0.23880801
-0.071009003 0.13639 -0.238933
-0.070893668 0.13643134 -0.23887467
-0.070827499 0.13657099 -0.238878
-0.070739999 0.13656551 -0.238822
-0.070636503 0.136713 -0.2388635
-0.070534997 0.136831 -0.238911
-0.070410997 0.136896 -0.2388415
-0.070389666 0.13700767 -0.23892599
-0.070263498 0.13702676 -0.2388425
-0.070269004 0.13713101 -0.2389015
-0.070193 0.13716251 -0.238883
-0.070111997 0.1373 -0.23889434
-0.070068002 0.137429 -0.238932
-0.069922507 0.13745549 -0.238875
-0.069914997 0.13758001 -0.23894399
