-0.0547021 -0.0280153 0.99811 0.00395534
-0.0542505 -0.0281457 0.998131 0.000504709
-0.0537776 -0.0264608 0.998202 0
-0.0536495 -0.0272139 0.998189 0.000869426
-0.0532652 -0.0251807 0.998263 0
-0.0537142 -0.0284927 0.99815 0
-0.0536507 -0.0265946 0.998206 0
-0.0533411 -0.0261349 0.998234 0
-0.0536217 -0.0274327 0.998184 0
-0.053597 -0.0270745 0.998196 0
-0.0536779 -0.0280976 0.998163 0
-0.0537513 -0.0285167 0.998147 0
-0.0535031 -0.0253669 0.998245 0
-0.0533912 -0.0246368 0.99827 0
-0.0532886 -0.0248468 0.99827 0
-0.0531936 -0.0210359 0.998363 0
-0.0532566 -0.0205942 0.998368 0.000426952
-0.0534655 -0.0237773 0.998287 0.000759926
-0.0531919 -0.0213528 0.998356 0
-0.0534185 -0.0237706 0.998289 0.00290048
-0.0527953 -0.0221175 0.99836 0.00071707
-0.0531146 -0.023261 0.998317 0
-0.0535332 -0.0243954 0.998268 0.00292898
-0.053403 -0.0242047 0.99828 0.00289799
-0.0538625 -0.0288388 0.998132 0.00403756
-0.0540796 -0.0288433 0.99812 0.00483115
-0.0540635 -0.0315775 0.998038 0.00588571
-0.0539927 -0.0315605 0.998042 0.00614596
-0.0537525 -0.0315457 0.998056 0.00452233
-0.0538424 -0.0336332 0.997983 0.00531957
-0.0533383 -0.0333273 0.99802 0.00534045
-0.0525837 -0.0334258 0.998057 0.00437658
-0.0519962 -0.0324881 0.998119 0.00195735
-0.051795 -0.0335399 0.998094 0.000844407
-0.051964 -0.03481 0.998042 0.00307733
-0.0520462 -0.0358838 0.998 0.00401485
-0.0513201 -0.036574 0.998012 0.00195271
-0.0510932 -0.0371564 0.998002 0.00251393
-0.0508606 -0.0361773 0.99805 0
-0.0505651 -0.0369917 0.998035 0
-0.0512128 -0.0403714 0.997871 0
-0.051733 -0.0437993 0.9977 0
-0.0516998 -0.0451594 0.997641 0.00178598
-0.0519643 -0.0457921 0.997599 0.00478646
-0.0510629 -0.0459365 0.997638 0.00287191
-0.0510777 -0.045972 0.997636 0.00162544
-0.0516218 -0.0488171 0.997473 0.00379994
-0.0516474 -0.0511864 0.997353 0.00553942
-0.0511023 -0.0520033 0.997339 0.0054967
-0.0505643 -0.0538459 0.997268 0.00627895
-0.0494996 -0.0544756 0.997287 0
-0.0494646 -0.0541619 0.997306 0
-0.0495184 -0.055239 0.997245 0.000492212
-0.0488862 -0.0585855 0.997085 0.000175975
-0.0485166 -0.0606169 0.996981 0.000820218
-0.048018 -0.0620953 0.996914 0
-0.0477256 -0.0640302 0.996806 0
-0.0478607 -0.064699 0.996756 0
-0.047727 -0.0685551 0.996505 0
-0.0478036 -0.0708151 0.996343 0
-0.0480545 -0.0730373 0.996171 0.000303285
-0.0480445 -0.0738307 0.996113 0.00250652
-0.047134 -0.0720192 0.996289 0
-0.0463891 -0.0728662 0.996262 0
-0.046276 -0.0741599 0.996172 0
-0.0464601 -0.0764591 0.99599 0
-0.0474975 -0.0831718 0.995403 0.00678236
-0.0479894 -0.0865992 0.995087 0.0104261
-0.0475064 -0.0867493 0.995097 0.00908994
-0.0474547 -0.0870602 0.995072 0.0091154
-0.0478048 -0.0867765 0.99508 0.00875194
-0.0465671 -0.0876412 0.995063 0.0064611
-0.0468889 -0.0923909 0.994618 0.00851641
-0.0465252 -0.0938826 0.994496 0.00311684
-0.0468166 -0.0945396 0.99442 0.00315116
-0.0475979 -0.0977505 0.994072 0.00954084
-0.0469456 -0.0979193 0.994086 0.00925004
-0.0470357 -0.0977669 0.994097 0.00851036
-0.046677 -0.0980172 0.994089 0.0078417
-0.0466454 -0.0974861 0.994143 0.00502984
-0.0466324 -0.101614 0.99373 0.00668931
-0.0467554 -0.103466 0.993534 0.00854913
-0.0466824 -0.105094 0.993366 0.0108047
-0.0467806 -0.103649 0.993513 0.0114589
-0.0459231 -0.102455 0.993677 0.0112925
-0.0450668 -0.10623 0.99332 0.00744734
-0.0446755 -0.105869 0.993376 0.00627941
-0.0438974 -0.105121 0.99349 0.00277089
-0.0440188 -0.107827 0.993195 0.00429305
-0.0438364 -0.10939 0.993032 0.00654586
-0.0427907 -0.104514 0.993602 0
-0.0429202 -0.106091 0.99343 0
-0.0425905 -0.107452 0.993298 0
-0.0422987 -0.105218 0.993549 0
-0.0424272 -0.102566 0.993821 0
-0.0431024 -0.100983 0.993954 0
-0.0427775 -0.101125 0.993954 0
-0.0420514 -0.101082 0.993989 0
-0.0416944 -0.0998287 0.994131 0
-0.0414214 -0.0998055 0.994144 0
-0.0414205 -0.101845 0.993938 0
-0.0415637 -0.104436 0.993663 0
-0.041401 -0.10684 0.993414 0
-0.0410506 -0.111532 0.992913 0
-0.0406104 -0.113112 0.992752 0
-0.0408097 -0.112184 0.992849 0
-0.0406615 -0.112464 0.992824 0
-0.040546 -0.111253 0.992965 0
-0.0408426 -0.112633 0.992797 0
-0.040772 -0.11751 0.992234 0
-0.0406199 -0.11709 0.99229 0
-0.0404477 -0.116199 0.992402 0
-0.040224 -0.114422 0.992618 0
-0.0403297 -0.116231 0.992403 0
-0.040092 -0.117141 0.992306 0
-0.0398847 -0.118711 0.992128 0
-0.0399342 -0.119852 0.991988 0
-0.0398973 -0.122017 0.991726 0
-0.0402008 -0.126192 0.991191 0.000578969
-0.0404775 -0.128761 0.990849 0.00143185
-0.0405211 -0.129439 0.990759 0.00180096
-0.0403383 -0.126689 0.991122 0
-0.0405508 -0.127083 0.991063 0.000583259
-0.0408241 -0.129334 0.99076 0.000244891
-0.0413872 -0.131772 0.990416 0.00239756
-0.0418731 -0.132962 0.990236 0.00383628
-0.0419756 -0.133031 0.990223 0.00503291
-0.0421436 -0.135583 0.989869 0.006879
-0.0425066 -0.137601 0.989575 0.00886181
-0.0422953 -0.13854 0.989453 0.00671783
-0.042603 -0.139581 0.989294 0.00905633
-0.042992 -0.138587 0.989417 0.0111021
-0.0427601 -0.135256 0.989888 0.00531375
-0.0429963 -0.137067 0.989628 0.00850121
-0.0429606 -0.137094 0.989626 0.00909583
-0.0427776 -0.135552 0.989846 0.00820488
-0.042457 -0.131884 0.990356 0.00569643
-0.0420609 -0.124938 0.991273 0.00232886
-0.042 -0.12354 0.99145 0.00194396
-0.0418295 -0.117469 0.992195 0
-0.0419325 -0.120182 0.991866 0.00243929
-0.0314018 -0.391806 0.919512 0.0120969
-0.0311898 -0.381961 0.923652 0.00946844
-0.0310674 -0.379675 0.924598 0.0104278
-0.0307318 -0.364298 0.930775 0.00333435
-0.0309346 -0.366066 0.930075 0.00359974
-0.030891 -0.361532 0.931848 0.00366287
-0.030503 -0.357569 0.933389 0.00233698
-0.0303632 -0.356994 0.933613 0.00431298
-0.0308001 -0.357952 0.933232 0.00709395
-0.0305882 -0.352738 0.935222 0.00508881
-0.030945 -0.358144 0.933153 0.00897814
-0.0311565 -0.357263 0.933484 0.0101367
-0.031118 -0.352507 0.935292 0.00852855
-0.0310599 -0.349831 0.936298 0.00728955
-0.0308633 -0.346519 0.937535 0.00459543
-0.0312908 -0.347998 0.936973 0.00794052
-0.0315039 -0.350511 0.936029 0.00961498
-0.0311343 -0.346585 0.937502 0.00691351
-0.030798 -0.340953 0.939576 0.00435997
-0.0307929 -0.335331 0.941597 0.00167153
-0.0305741 -0.335335 0.941603 0.00205463
-0.0303956 -0.331924 0.942816 0
-0.0303316 -0.330094 0.943461 0
-0.0302868 -0.328216 0.944117 0
-0.02995 -0.325348 0.94512 0
-0.0303641 -0.325173 0.945167 0
-0.0303903 -0.322202 0.946183 0
-0.0304585 -0.319212 0.947194 0
-0.0307382 -0.317651 0.94771 0
-0.0312944 -0.317594 0.94771 0
-0.031486 -0.315333 0.948459 0
-0.0317798 -0.314806 0.948624 0
-0.0323111 -0.31421 0.948804 0
-0.032724 -0.313875 0.9489 0.00058567
-0.0328724 -0.31224 0.949434 0.000547627
-0.0333533 -0.310931 0.949847 0
-0.0334193 -0.309489 0.950315 0
-0.0337381 -0.308415 0.950653 0.000367128
-0.0344382 -0.308156 0.950712 0.00265631
-0.0347168 -0.307389 0.95095 0.00320305
-0.0348304 -0.305589 0.951526 0.00338227
-0.0351937 -0.303552 0.952165 0.00275785
-0.0352168 -0.301773 0.952729 0.00146232
-0.0352304 -0.298178 0.95386 0
-0.0352941 -0.296292 0.954445 0.000155893
-0.0357086 -0.296454 0.954379 0.00221464
-0.0358454 -0.294738 0.954906 0.00192129
-0.0357962 -0.292308 0.955654 0.00225998
-0.0362948 -0.292465 0.955587 0.00408544
-0.0364107 -0.287902 0.956967 0.00132955
-0.0360936 -0.286213 0.957486 0.00223137
-0.0363462 -0.284476 0.957994 0.00280211
-0.0359162 -0.280208 0.959267 0
-0.0364637 -0.277252 0.960105 0
-0.036587 -0.276248 0.96039 0
-0.0370541 -0.27655 0.960285 0.00276843
-0.0378953 -0.27216 0.961506 0.00106062
-0.0381619 -0.269564 0.962226 0.00155629
-0.0380685 -0.266378 0.963116 0.000871542
-0.0386361 -0.268499 0.962505 0.00785402
-0.038228 -0.2646 0.9636 0.00790319
-0.0372165 -0.259811 0.964942 0.00631019
-0.0361009 -0.252922 0.966813 0.00322999
-0.036285 -0.248186 0.968032 0.00265774
-0.035931 -0.245679 0.968685 0.00568194
-0.0367532 -0.245393 0.968727 0.00964915
-0.0376923 -0.243704 0.969117 0.0124936
-0.0362016 -0.236725 0.970902 0.00882841
-0.0358586 -0.231521 0.972169 0.00749239
-0.0357699 -0.225138 0.97367 0.00445825
-0.0359219 -0.219627 0.974922 0.0024008
-0.0350528 -0.213016 0.97642 0
-0.0347068 -0.20909 0.97728 0
-0.0347645 -0.204994 0.978146 0
-0.0346211 -0.201041 0.978971 0
-0.0344008 -0.197967 0.979605 0
-0.0348803 -0.194803 0.980222 0
-0.0350189 -0.192476 0.980677 0
-0.0362461 -0.191341 0.980854 0.0059789
-0.0364991 -0.189062 0.981287 0.00621596
-0.0358917 -0.183266 0.982408 0.00338349
-0.0365521 -0.180595 0.982878 0.00345152
-0.0359712 -0.175082 0.983896 0.00102804
-0.0360632 -0.171384 0.984544 0.00202277
-0.0355428 -0.165785 0.985521 0
-0.0356739 -0.161916 0.98616 0
-0.0352171 -0.157885 0.986829 0
-0.0355947 -0.15458 0.987339 0
-0.0363405 -0.15256 0.987626 0.0049806
-0.0353177 -0.146615 0.988563 0
-0.0352072 -0.142443 0.989177 0.000373155
-0.0357401 -0.139757 0.989541 0.00138609
-0.0359057 -0.135194 0.990168 0
-0.0355633 -0.132272 0.990575 0
-0.0362042 -0.130207 0.990826 0
-0.036398 -0.126913 0.991246 0
-0.0372117 -0.123463 0.991651 0
-0.0373633 -0.122403 0.991777 0.00237819
-0.0379172 -0.120317 0.992011 0.00537176
-0.0383127 -0.117729 0.992306 0.00434613
-0.0400658 -0.117146 0.992306 0.010936
-0.0395679 -0.112034 0.992916 0.00435919
-0.0403078 -0.109767 0.99314 0.00556494
-0.0420891 -0.110555 0.992978 0.0150844
-0.0422782 -0.107267 0.993331 0.0117055
-0.0433198 -0.106029 0.993419 0.0161142
-0.0434136 -0.102049 0.993832 0.0137257
-0.0427792 -0.0989145 0.994176 0.0136563
-0.0426717 -0.0955075 0.994514 0.0117764
-0.0425038 -0.0922675 0.994827 0.00994506
-0.0414423 -0.0866307 0.995378 0.00509027
-0.0416361 -0.0844061 0.995561 0.00254864
-0.0427433 -0.0838373 0.995562 0.00873633
-0.0432474 -0.0801708 0.995843 0.0107819
-0.0433774 -0.0774262 0.996054 0.00948825
-0.0436533 -0.0747487 0.996246 0.0131436
-0.0441178 -0.0713962 0.996472 0.0141066
-0.043554 -0.0676561 0.996758 0.00872019
-0.0444735 -0.0656523 0.996851 0.0111031
-0.0437444 -0.061531 0.997146 0.00899211
-0.0439363 -0.0580686 0.997345 0.00647792
-0.0434722 -0.0544924 0.997567 0.00608054
-0.0422926 -0.0502748 0.99784 0.00266513
-0.0418242 -0.0467222 0.998032 0.00315113
-0.0422844 -0.0436784 0.99815 0.00550755
-0.0419281 -0.0394143 0.998343 0.00463516
-0.0414665 -0.0359535 0.998493 0.0019085
-0.0422809 -0.0337068 0.998537 0.00840474
-0.0419859 -0.0305391 0.998651 0.00752902
-0.0426312 -0.0271487 0.998722 0.0102427
-0.043043 -0.0247584 0.998766 0.0155113
-0.0425619 -0.0208788 0.998876 0.0132182
-0.0417526 -0.0148943 0.999017 0.00921603
-0.041595 -0.0111709 0.999072 0.0100763
-0.0421639 -0.00750722 0.999082 0.0113219
-0.0413291 -0.00243313 0.999143 0.00569185
-0.0422155 -9.92865e-05 0.999109 0.0123702
-0.0423275 0.00249352 0.999101 0.0152881
-0.0424003 0.00569688 0.999084 0.0142693
-0.0417175 0.00904329 0.999089 0.0122263
-0.0415432 0.012096 0.999063 0.0111847
-0.0402525 0.015266 0.999073 0.00687923
-0.0400518 0.0183334 0.999029 0.00546525
-0.0395602 0.0208605 0.998999 0.00484105
-0.0390027 0.022715 0.998981 0.00145302
-0.0389702 0.0236314 0.998961 0.00225297
-0.0392039 0.0251156 0.998915 0.00544186
-0.0393331 0.0266318 0.998871 0.00864912
-0.0390802 0.0288719 0.998819 0.00714159
-0.0378937 0.0307792 0.998808 0.000194529
-0.037671 0.0333784 0.998733 0.000537171
-0.0370811 0.0349226 0.998702 0.000559126
-0.0374163 0.0368944 0.998618 0.00230769
-0.0382004 0.0387095 0.99852 0.00726847
-0.037664 0.0395948 0.998506 0.00264636
-0.03807 0.0418517 0.998398 0.00277244
-0.0383855 0.0428229 0.998345 0.00669436
-0.0386584 0.0443613 0.998267 0.00745398
-0.0381597 0.0461117 0.998207 0.00608776
-0.0379684 0.0479331 0.998129 0.00424699
-0.0375622 0.0491306 0.998086 0.00249304
-0.0377541 0.0512843 0.99797 0.00207701
-0.0373924 0.0540348 0.997839 0.000553196
-0.0368896 0.0561483 0.997741 0
-0.0373505 0.057031 0.997674 0
-0.0372114 0.0599091 0.99751 0
-0.0370071 0.0618061 0.997402 0
-0.0372198 0.0620001 0.997382 0
-0.0372508 0.0635596 0.997283 0
-0.037476 0.0649216 0.997186 0
-0.0376297 0.0678337 0.996987 0
-0.037474 0.0712728 0.996753 0
-0.0373113 0.0731984 0.996619 0
-0.0372873 0.0760562 0.996406 0
-0.0370356 0.0806458 0.996055 0
-0.0371515 0.0832532 0.995836 0
-0.0369271 0.088912 0.995355 0
-0.0366499 0.0913366 0.995145 0
-0.0366206 0.0951914 0.994785 0
-0.0367427 0.0970416 0.994602 0
-0.0365639 0.0996656 0.994349 0
-0.0368087 0.104734 0.993819 0
-0.0368986 0.106197 0.99366 0
-0.0369817 0.108082 0.993454 0
-0.0370685 0.111174 0.993109 0
-0.0370026 0.112356 0.992979 0
-0.0373278 0.113858 0.992796 0
-0.0377706 0.115717 0.992564 0
-0.0377818 0.120883 0.991948 0
-0.0377977 0.122465 0.991753 0
-0.0375891 0.124574 0.991498 0
-0.0371713 0.127988 0.991079 0
-0.0372509 0.128292 0.991037 0
-0.0373968 0.129228 0.99091 0
-0.0370735 0.13081 0.990714 0
-0.036691 0.134212 0.990273 0
-0.0361808 0.134508 0.990252 0
-0.0359344 0.136155 0.990036 0
-0.0358609 0.137672 0.989828 0
-0.035383 0.139922 0.98953 0
-0.0349314 0.141929 0.98926 0
-0.0486476 -0.0309984 0.998335 0.00112934
-0.0486061 -0.0290097 0.998397 0
-0.0495396 -0.034493 0.998176 0.00044585
-0.0498862 -0.0353552 0.998129 0.0012824
-0.0498178 -0.0368872 0.998077 0.000420079
-0.0497049 -0.0352851 0.99814 0.000486136
-0.0501488 -0.037979 0.998019 0.00190667
-0.0489739 -0.0320283 0.998286 0
-0.0491631 -0.0304643 0.998326 0.00284511
-0.0490844 -0.029275 0.998366 0.00216774
-0.0488339 -0.0269643 0.998443 0.00220011
-0.04882 -0.0271437 0.998439 0.00277613
-0.0490736 -0.0291654 0.998369 0.00653387
-0.0492105 -0.0305987 0.99832 0.00619621
-0.0485478 -0.0265895 0.998467 0.00328637
-0.0481787 -0.0263388 0.998491 0.00079942
-0.0480652 -0.0275504 0.998464 0.000942047
-0.0478117 -0.0266215 0.998502 0
-0.0476561 -0.027901 0.998474 0
-0.0476626 -0.0289712 0.998443 0
-0.0477322 -0.0289765 0.99844 0.00046838
-0.0476174 -0.0283546 0.998463 0
-0.0479744 -0.0279927 0.998456 0.00444741
-0.0483677 -0.0300988 0.998376 0.00892615
-0.0483049 -0.0287436 0.998419 0.00734243
-0.0479771 -0.0290207 0.998427 0.00534404
-0.0479517 -0.0280368 0.998456 0.00379249
-0.0480159 -0.0283892 0.998443 0.00339989
-0.0475318 -0.0245258 0.998569 0.00144212
-0.0474884 -0.0253405 0.99855 0.000666461
-0.0470655 -0.0225954 0.998636 0
-0.0471596 -0.0219847 0.998645 0
-0.0469916 -0.0213173 0.998668 0
-0.0469734 -0.0227666 0.998637 0
-0.0477219 -0.0242914 0.998565 0.00329727
-0.0481157 -0.0261838 0.998499 0.0056679
-0.0485473 -0.0277493 0.998435 0.00657833
-0.0477363 -0.0269732 0.998496 0.00373848
-0.0475465 -0.0291903 0.998442 0.00482764
-0.0480154 -0.0327542 0.998309 0.00576309
-0.0480884 -0.0333349 0.998287 0.00644257
-0.0475913 -0.034564 0.998269 0.00493407
-0.0465072 -0.0325983 0.998386 0.00269559
-0.0458359 -0.0312763 0.998459 0
-0.045949 -0.0327175 0.998408 4.18221e-07
-0.0464561 -0.0362053 0.998264 0.00119472
-0.0460672 -0.0371816 0.998246 0.000921393
-0.0458384 -0.0381648 0.99822 0.000694524
-0.0459014 -0.0396956 0.998157 0.00144175
-0.0467882 -0.040504 0.998083 0.00750346
-0.0462117 -0.0396692 0.998144 0.00570477
-0.0464358 -0.0433298 0.997981 0.00821781
-0.0464177 -0.0449527 0.99791 0.00802751
-0.0460484 -0.0471246 0.997827 0.00715693
-0.0455222 -0.0461592 0.997896 0.0038105
-0.0457683 -0.049158 0.997742 0.00781658
-0.0457333 -0.0495318 0.997725 0.0061499
-0.0457433 -0.0498212 0.99771 0.00527845
-0.0460622 -0.0507286 0.99765 0.00595042
-0.0465212 -0.0518898 0.997569 0.00781034
-0.0456778 -0.0543611 0.997476 0.00726532
-0.0448143 -0.0525778 0.997611 0.00342491
-0.0453296 -0.0528547 0.997573 0.00647953
-0.0445695 -0.0550443 0.997489 0.0056022
-0.0434611 -0.0546603 0.997559 0.000661848
-0.0443592 -0.057486 0.99736 0.00484462
-0.0437448 -0.0624483 0.997089 0.00654005
-0.0431321 -0.0626936 0.9971 0.00292477
-0.0432338 -0.0643702 0.996989 0.00198751
-0.0419288 -0.0645666 0.997032 0
-0.042684 -0.0689562 0.996706 0.00277484
-0.0428432 -0.0701121 0.996619 0.00254956
-0.0430223 -0.0760894 0.996172 0.00701182
-0.0417601 -0.0755414 0.996268 0.00397023
-0.0429436 -0.0781779 0.996014 0.00949377
-0.0440463 -0.0809874 0.995741 0.0141181
-0.0439715 -0.0825711 0.995615 0.0142436
-0.0436911 -0.0836792 0.995534 0.0184417
-0.0437215 -0.0837043 0.995531 0.0211019
-0.0426088 -0.0819761 0.995723 0.0133807
-0.0420145 -0.0836584 0.995608 0.00956992
-0.0423024 -0.0862448 0.995376 0.0131058
-0.041553 -0.0870075 0.995341 0.0084914
-0.0418667 -0.0889908 0.995152 0.0114834
-0.0418297 -0.0903343 0.995033 0.0101664
-0.0414451 -0.0909624 0.994992 0.00929534
-0.0415085 -0.0951519 0.994597 0.00810377
-0.0416876 -0.0969745 0.994413 0.00641484
-0.0407743 -0.0987778 0.994274 0.00303691
-0.0408196 -0.101319 0.994016 0.00477366
-0.0418516 -0.105874 0.993498 0.0125919
-0.0415094 -0.103605 0.993752 0.0102147
-0.0403815 -0.101159 0.99405 0.00686171
-0.0410817 -0.102858 0.993847 0.0105996
-0.0416032 -0.105889 0.993507 0.0135333
-0.041993 -0.108331 0.993228 0.0152476
-0.0413574 -0.107686 0.993324 0.0148595
-0.0401999 -0.10441 0.993722 0.00876029
-0.0385958 -0.102153 0.99402 0.00205615
-0.0382309 -0.100879 0.994164 0
-0.0377999 -0.101376 0.99413 0
-0.0366232 -0.101659 0.994145 0
-0.0367443 -0.100677 0.99424 0
-0.037064 -0.100272 0.994269 0
-0.0372293 -0.100778 0.994212 0
-0.0375511 -0.100894 0.994188 0
-0.0379263 -0.0994164 0.994323 0
-0.0376784 -0.10123 0.994149 0
-0.0373659 -0.10413 0.993861 0
-0.0370948 -0.104711 0.993811 0
-0.0371499 -0.105958 0.993676 0
-0.0371644 -0.107346 0.993527 0
-0.0370377 -0.107922 0.993469 0
-0.0370741 -0.10825 0.993432 0
-0.036675 -0.108235 0.993449 0
-0.0363567 -0.10873 0.993406 0
-0.0361874 -0.111197 0.993139 0
-0.0363001 -0.112644 0.992972 0
-0.0364494 -0.11026 0.993234 0
-0.0363627 -0.112232 0.993016 0
-0.0360613 -0.111522 0.993107 0
-0.0360218 -0.113352 0.992902 0
-0.0357887 -0.114582 0.992769 0
-0.0358148 -0.11768 0.992406 0
-0.0358903 -0.118491 0.992306 0
-0.0356175 -0.120401 0.992086 0
-0.0356951 -0.11984 0.992151 0
-0.0353879 -0.119195 0.99224 0
-0.0355322 -0.119845 0.992157 0
-0.0354982 -0.122707 0.991808 0
-0.0355261 -0.123672 0.991687 0
-0.0355414 -0.124748 0.991552 0
-0.0355747 -0.126235 0.991362 0
-0.0356302 -0.128175 0.991111 0
-0.0356713 -0.128922 0.991013 0
-0.0358014 -0.13016 0.990846 0
-0.036336 -0.131405 0.990663 0
-0.0366482 -0.129283 0.99093 0
-0.0369904 -0.128397 0.991033 0
-0.0372724 -0.127342 0.991158 0
-0.0379869 -0.126142 0.991285 0.00257658
-0.0382366 -0.127185 0.991142 0.00495394
-0.038376 -0.131774 0.990537 0.00592515
-0.0385853 -0.133768 0.990261 0.00790293
-0.0386868 -0.1331 0.990347 0.00746556
-0.0383396 -0.129777 0.990802 0.00628653
-0.0379644 -0.122658 0.991723 0.00223086
-0.037998 -0.120415 0.991996 0.00266899
-0.0381969 -0.119425 0.992108 0.00473531
-0.0383581 -0.117975 0.992275 0.00376342
-0.0380627 -0.113748 0.99278 0.00342264
-0.0301762 -0.396835 0.917394 0.0101019
-0.0298199 -0.387946 0.921199 0.00801491
-0.0296241 -0.390129 0.920284 0.0107136
-0.028954 -0.385108 0.922417 0.00961315
-0.0285162 -0.377336 0.925637 0.00747322
-0.0277441 -0.370041 0.928601 0.00590858
-0.027242 -0.368531 0.929216 0.00680535
-0.0271157 -0.364114 0.93096 0.00543948
-0.0266805 -0.359875 0.932619 0.00523493
-0.026594 -0.354015 0.934861 0.00309752
-0.0264484 -0.344484 0.93842 0.000353488
-0.0268802 -0.34728 0.937376 0.00331443
-0.0267952 -0.343421 0.938799 0.00149575
-0.0265819 -0.338582 0.940562 0.00165182
-0.0267032 -0.34228 0.939218 0.00452294
-0.0267457 -0.339756 0.940133 0.00416705
-0.0266317 -0.339802 0.94012 0.00318091
-0.0264781 -0.334442 0.942044 0
-0.0268186 -0.335332 0.941718 0.00139091
-0.0268419 -0.331744 0.942987 0
-0.0270647 -0.333457 0.942377 0.0022077
-0.0268923 -0.331187 0.943182 0.00198593
-0.0271136 -0.330187 0.943526 0.00199698
-0.0271625 -0.329142 0.94389 0.00175943
-0.0274664 -0.33089 0.943269 0.00376835
-0.0271438 -0.328048 0.944271 0.00232202
-0.0269078 -0.32519 0.945266 0.000711433
-0.0268545 -0.32492 0.94536 0.000234604
-0.0268843 -0.321283 0.946602 0
-0.0272345 -0.319517 0.947189 0
-0.0279507 -0.318934 0.947365 0
-0.0284994 -0.320113 0.946951 0.00295409
-0.0283772 -0.317279 0.947908 0.000387807
-0.0286771 -0.314358 0.948871 0.000348343
-0.0290889 -0.312365 0.949517 0
-0.0293941 -0.311306 0.949855 0
-0.0299739 -0.309617 0.950389 0
-0.030473 -0.308499 0.950736 0
-0.0306094 -0.307002 0.951217 0
-0.0311103 -0.305859 0.951568 0
-0.0314502 -0.303703 0.952248 0
-0.0316772 -0.302771 0.952537 0
-0.0320348 -0.300617 0.953207 0
-0.0324048 -0.29941 0.953574 0
-0.0327249 -0.297441 0.954179 0
-0.0329967 -0.295376 0.954811 0
-0.0332187 -0.293976 0.955235 0
-0.0333633 -0.291673 0.955936 0
-0.0338333 -0.290757 0.956198 0
-0.0336852 -0.288091 0.95701 0
-0.0340456 -0.28623 0.957556 0
-0.0342732 -0.284584 0.958038 0.000827379
-0.0340445 -0.282054 0.958794 0.000927704
-0.0346098 -0.279146 0.959625 0.00091743
-0.0341715 -0.275129 0.9608 0
-0.034037 -0.271647 0.961795 0
-0.0347995 -0.27069 0.962037 0
-0.034958 -0.268982 0.962511 0
-0.0356028 -0.266608 0.963147 0
-0.0363964 -0.265157 0.963518 0.00235401
-0.0376239 -0.26513 0.963478 0.00687745
-0.0367418 -0.260877 0.964673 0.00472035
-0.0364811 -0.25543 0.966139 0.00205677
-0.0361125 -0.250747 0.967379 0
-0.0366363 -0.248766 0.96787 0.00344831
-0.0365748 -0.247291 0.968251 0.00652857
-0.0368014 -0.246562 0.968428 0.0124552
-0.0358209 -0.23909 0.970336 0.00716809
-0.0356975 -0.235162 0.9713 0.00851767
-0.0347239 -0.227837 0.97308 0.00424544
-0.0337989 -0.223044 0.974222 0.00124066
-0.0338812 -0.21976 0.974965 0.00292224
-0.0349993 -0.217999 0.975321 0.00629354
-0.0353321 -0.214417 0.976103 0.00701949
-0.0353011 -0.210273 0.977005 0.00571626
-0.0347164 -0.203589 0.978441 0.00237361
-0.033941 -0.197432 0.979729 0
-0.0338231 -0.193476 0.980522 0
-0.0341572 -0.191073 0.980981 0.00276469
-0.0342942 -0.186873 0.981785 0.0014505
-0.0344685 -0.184653 0.982199 0.00361009
-0.0347792 -0.18135 0.982803 0.00336615
-0.0351204 -0.176136 0.983739 0.00274127
-0.0352155 -0.171781 0.984506 0.00211986
-0.0348059 -0.166827 0.985372 0
-0.0348525 -0.163099 0.985994 0.000892124
-0.0353287 -0.159217 0.986611 0.000724401
-0.0352838 -0.155058 0.987275 0
-0.0356086 -0.151267 0.987851 0
-0.0357283 -0.146996 0.988492 0
-0.0357453 -0.1427 0.98912 0
-0.0358148 -0.139825 0.989528 0
-0.0354769 -0.136691 0.989978 0
-0.035551 -0.133088 0.990466 0
-0.0357866 -0.130362 0.99082 0
-0.0358971 -0.127397 0.991202 0
-0.0365099 -0.124834 0.991506 0
-0.0372084 -0.121821 0.991854 0
-0.0370983 -0.117945 0.992327 0
-0.0377591 -0.116148 0.992514 0
-0.03791 -0.11341 0.992825 0
-0.038761 -0.111604 0.992997 0.000615152
-0.0391794 -0.107622 0.99342 0
-0.0400405 -0.105544 0.993608 0.00182173
-0.0401779 -0.102785 0.993892 0.0017409
-0.0401404 -0.0998215 0.994195 0
-0.0407345 -0.0977816 0.994374 0.00258627
-0.0401747 -0.0935145 0.994807 0
-0.0404106 -0.0925869 0.994884 0.00152967
-0.0407108 -0.0904682 0.995067 0.000911655
-0.0416757 -0.0883592 0.995216 0.00324449
-0.0424929 -0.0860977 0.99538 0.00530311
-0.0426474 -0.0838513 0.995565 0.00901742
-0.0426535 -0.0784272 0.996007 0.00445042
-0.0429986 -0.0761583 0.996168 0.0074954
-0.0425462 -0.0733034 0.996402 0.0070565
-0.0423268 -0.0694138 0.99669 0.00698119
-0.0419531 -0.0659413 0.996941 0.00616407
-0.0427511 -0.0634026 0.997072 0.00873932
-0.0436718 -0.062002 0.99712 0.0145262
-0.043379 -0.0590425 0.997312 0.0160569
-0.0440935 -0.0580266 0.997341 0.0201627
-0.0443525 -0.0554231 0.997477 0.0195437
-0.0450804 -0.0524701 0.997604 0.019813
-0.045702 -0.0513438 0.997635 0.023317
-0.0446278 -0.0463935 0.997926 0.0195194
-0.0448833 -0.042931 0.998069 0.0179352
-0.0441125 -0.0382069 0.998296 0.0156873
-0.0443755 -0.0348093 0.998408 0.0151055
-0.043734 -0.0295106 0.998607 0.011132
-0.0425326 -0.0246676 0.998791 0.00448497
-0.0424806 -0.0210829 0.998875 0.00578395
-0.0409737 -0.0155349 0.999039 0.000876406
-0.0405904 -0.0106572 0.999119 0
-0.0404817 -0.00719725 0.999154 0.000946301
-0.039932 -0.00385887 0.999195 0.000510024
-0.03906 0.000519401 0.999237 0
-0.0387344 0.00524333 0.999236 0
-0.0383848 0.00858545 0.999226 0
-0.0392466 0.0109131 0.99917 0
-0.0389519 0.0135913 0.999149 0
-0.0395718 0.0143502 0.999114 0.00506314
-0.0393074 0.0169859 0.999083 0.0026233
-0.0395921 0.0189911 0.999035 0.00370692
-0.038635 0.0212913 0.999027 0.00111125
-0.038535 0.0236538 0.998977 0.000741053
-0.0378525 0.025433 0.99896 0
-0.0376209 0.027021 0.998927 0.00171705
-0.0374454 0.0294249 0.998865 0.0039935
-0.0379448 0.0310419 0.998798 0.00204561
-0.0380639 0.0316212 0.998775 0.00388422
-0.0379535 0.0339832 0.998702 0.00189065
-0.0378502 0.0358791 0.998639 0.00100707
-0.0382066 0.037867 0.998552 0.0032373
-0.0386726 0.0395841 0.998468 0.00259111
-0.0387265 0.0414313 0.998391 0.00233413
-0.0386935 0.0437182 0.998294 0.0019069
-0.03875 0.0454533 0.998215 0.00304298
-0.0385438 0.0468259 0.998159 0.00304195
-0.038543 0.0464218 0.998178 0.00373652
-0.0387407 0.0486513 0.998064 0.00311359
-0.0387741 0.049668 0.998013 0.00335091
-0.038891 0.0516234 0.997909 0.00256214
-0.0383331 0.0540224 0.997804 0
-0.0388389 0.0562423 0.997661 0
-0.0386984 0.0598134 0.997459 0
-0.0385555 0.0619019 0.997337 0
-0.0386057 0.0647297 0.997156 0
-0.0388532 0.0653526 0.997106 0
-0.0388055 0.0690349 0.996859 0
-0.0391421 0.0715004 0.996672 0
-0.0391326 0.0738924 0.996498 0
-0.0392385 0.0761497 0.996324 0
-0.0390682 0.0811801 0.995933 0
-0.0390872 0.0846416 0.995644 0
-0.0391471 0.0869915 0.99544 0
-0.0392 0.0880928 0.995341 0
-0.0391183 0.0928456 0.994912 0
-0.0390389 0.093895 0.994816 0
-0.0390259 0.0960796 0.994608 0
-0.0393347 0.099269 0.994283 0
-0.0392962 0.10178 0.994031 0
-0.0393597 0.105476 0.993643 0
-0.0395915 0.107874 0.993376 0
-0.0398041 0.108082 0.993345 0
-0.0395766 0.110971 0.993035 0
-0.0394724 0.115729 0.992496 0
-0.0392887 0.115625 0.992516 0
-0.0392872 0.116641 0.992397 0
-0.0397137 0.119937 0.991987 0
-0.0395985 0.122082 0.99173 0
-0.039798 0.124098 0.991471 0
-0.0399518 0.125156 0.991332 0
-0.0397307 0.126526 0.991167 0
-0.0395935 0.128516 0.990917 0
-0.0390257 0.130708 0.990652 0
-0.0384444 0.130583 0.990692 0
-0.0378106 0.133295 0.990355 0
-0.0373957 0.136675 0.98991 0
-0.0365549 0.136505 0.989965 0
-0.0359108 0.138058 0.989773 0
-0.0353649 0.139348 0.989612 0
-0.0449052 -0.0454515 0.997957 0.00502291
-0.0448744 -0.0448524 0.997985 0.00446435
-0.0455286 -0.0480273 0.997808 0.00585179
-0.0451243 -0.045046 0.997965 0.00525389
-0.0451095 -0.0435535 0.998032 0.00511233
-0.0446877 -0.0389231 0.998242 0.00488388
-0.0450076 -0.0408467 0.998151 0.00756628
-0.0436615 -0.0337835 0.998475 0
-0.0436688 -0.0331302 0.998497 0
-0.043908 -0.0343819 0.998444 0
-0.043293 -0.0322246 0.998543 0
-0.0433742 -0.0309764 0.998578 0
-0.0433656 -0.0313781 0.998566 0.00327142
-0.0433177 -0.0307127 0.998589 0.00224808
-0.0432868 -0.0301136 0.998609 0.00385569
-0.0433624 -0.0280966 0.998664 0.00345974
-0.0427815 -0.024236 0.99879 0.00103292
-0.0425549 -0.0240354 0.998805 0
-0.0425992 -0.0242859 0.998797 0.00157217
-0.0426372 -0.0256714 0.998761 0.00293412
-0.0421233 -0.0251011 0.998797 0.000110817
-0.0421591 -0.0248572 0.998802 0
-0.0422916 -0.0257928 0.998772 0.00189501
-0.0421587 -0.0257765 0.998778 0.00247804
-0.0423523 -0.0272036 0.998732 0.00384909
-0.042562 -0.0259638 0.998756 0.00615353
-0.0418236 -0.0252954 0.998805 0.00142
-0.0418342 -0.0244973 0.998824 0.00242009
-0.0414568 -0.024313 0.998844 0
-0.0417682 -0.0266565 0.998772 0.000452152
-0.0416372 -0.0281252 0.998737 0.0018573
-0.0414696 -0.0282221 0.998741 0
-0.0419228 -0.028228 0.998722 0.00316828
-0.0422915 -0.0302968 0.998646 0.00342892
-0.0420691 -0.0309697 0.998635 0.00118468
-0.0419725 -0.0293969 0.998686 0.00257174
-0.0423288 -0.0293802 0.998672 0.0033891
-0.0426724 -0.0304517 0.998625 0.00468729
-0.0431097 -0.0310483 0.998588 0.00634707
-0.0425792 -0.0290274 0.998671 0.00529185
-0.0423954 -0.0296418 0.998661 0.00474011
-0.0420383 -0.0279039 0.998726 0.00439611
-0.0421897 -0.0291309 0.998685 0.00562646
-0.0419118 -0.0321649 0.998603 0.00479782
-0.0419777 -0.0324408 0.998592 0.00276485
-0.0419495 -0.0340498 0.998539 0.00175874
-0.0417031 -0.0333315 0.998574 0
-0.0420393 -0.0325392 0.998586 0.00156552
-0.041775 -0.0322386 0.998607 0.0021663
-0.0416185 -0.0352161 0.998513 0.00222513
-0.0410439 -0.0360122 0.998508 0.00070397
-0.0409476 -0.036626 0.99849 6.08775e-05
-0.0408646 -0.0408526 0.998329 0.00159203
-0.041114 -0.0433785 0.998212 0.00245404
-0.041332 -0.0440545 0.998174 0.00433926
-0.0410436 -0.0436624 0.998203 0.00507338
-0.0400753 -0.0415609 0.998332 0.00122898
-0.040372 -0.0443324 0.998201 0.00598228
-0.0400074 -0.0463375 0.998124 0.00604356
-0.0394236 -0.0481219 0.998063 0.00175871
-0.0392532 -0.0484779 0.998053 0.00311761
-0.0390706 -0.0485367 0.998057 0.00117185
-0.0399997 -0.0532109 0.997782 0.00725253
-0.0400975 -0.0562146 0.997613 0.00723383
-0.0394974 -0.0591157 0.997469 0.00546391
-0.0389297 -0.0578828 0.997564 0.00369462
-0.0383864 -0.0597989 0.997472 0.00218027
-0.0377806 -0.0636224 0.997259 0.00108589
-0.0372426 -0.0664184 0.997097 0.00142621
-0.0378539 -0.06918 0.996886 0.0061694
-0.0389177 -0.0749327 0.996429 0.0125964
-0.0386116 -0.0761824 0.996346 0.0105407
-0.0384532 -0.0786901 0.996157 0.0126993
-0.0379768 -0.0798374 0.996084 0.0107726
-0.0370384 -0.0777008 0.996288 0.00547161
-0.0380658 -0.0791329 0.996137 0.0115722
-0.0374738 -0.0805625 0.996045 0.0104737
-0.0365712 -0.080975 0.996045 0.00775953
-0.036091 -0.0799359 0.996146 0.00632467
-0.0359142 -0.0789483 0.996232 0.00410939
-0.036043 -0.0808321 0.996076 0.00469551
-0.0365872 -0.084248 0.995773 0.00576309
-0.0365162 -0.0874275 0.995501 0.0075987
-0.036905 -0.0905942 0.995204 0.00985742
-0.0368429 -0.0944599 0.994847 0.0122917
-0.0365983 -0.0947353 0.99483 0.0089828
-0.0358133 -0.0951638 0.994817 0.00375435
-0.0355637 -0.0983008 0.994521 0.00490207
-0.035541 -0.100398 0.994312 0.00471245
-0.0355606 -0.103007 0.994045 0.00735168
-0.0353512 -0.101814 0.994175 0.00477516
-0.0351539 -0.10183 0.994181 0.00626891
-0.0354373 -0.100909 0.994264 0.00627421
-0.0355524 -0.0994722 0.994405 0.00747521
-0.0362949 -0.0995223 0.994373 0.00867087
-0.0358856 -0.0972284 0.994615 0.00620775
-0.0358413 -0.0979658 0.994544 0.00681536
-0.0356456 -0.0955478 0.994786 0.00320348
-0.0351116 -0.0948892 0.994868 0.000794001
-0.0344655 -0.0940209 0.994973 0
-0.0343063 -0.0943302 0.99495 0
-0.03393 -0.0972633 0.99468 0
-0.0336179 -0.101219 0.994296 0
-0.0336955 -0.103374 0.994072 0
-0.0338004 -0.106829 0.993703 0
-0.0338745 -0.106716 0.993712 0
-0.0337585 -0.105879 0.993806 0
-0.0338257 -0.107122 0.99367 0
-0.0333819 -0.108129 0.993576 0
-0.0335232 -0.10634 0.993765 0
-0.0330107 -0.104122 0.994017 0
-0.0328015 -0.104299 0.994005 0
-0.0328963 -0.104924 0.993936 0
-0.0329669 -0.10546 0.993877 0
-0.0328146 -0.108113 0.993597 0
-0.0325062 -0.109351 0.993472 0
-0.0323491 -0.111836 0.9932 0
-0.0322476 -0.113419 0.993024 0
-0.032623 -0.114672 0.992868 0
-0.0329056 -0.116457 0.99265 0
-0.0332206 -0.116017 0.992691 0
-0.0333233 -0.116818 0.992594 0
-0.0331503 -0.115822 0.992717 0
-0.0331469 -0.116098 0.992685 0
-0.032885 -0.116635 0.99263 0
-0.0328887 -0.116814 0.992609 0
-0.0327172 -0.117875 0.992489 0
-0.0326531 -0.118734 0.992389 0
-0.0323144 -0.118152 0.99247 0
-0.0323119 -0.120525 0.992184 0
-0.0326316 -0.120422 0.992186 0
-0.0324824 -0.117789 0.992507 0
-0.0327543 -0.119299 0.992318 0
-0.0330638 -0.121293 0.992066 0
-0.0332325 -0.125712 0.99151 0
-0.0332693 -0.127622 0.991265 0
-0.0332938 -0.125737 0.991505 0
-0.0336454 -0.124689 0.991625 0
-0.0332033 -0.126701 0.991385 0
-0.0335512 -0.128912 0.991088 0.00033284
-0.0340262 -0.12592 0.991457 0
-0.033926 -0.128872 0.991081 0.000282033
-0.0337121 -0.126995 0.99133 0
-0.0340795 -0.131915 0.990675 0.00385486
-0.0339529 -0.123633 0.991747 0.00134894
-0.0344284 -0.126227 0.991404 0.00503192
-0.0346295 -0.131295 0.990738 0.00825006
-0.0349736 -0.132084 0.990621 0.010254
-0.0349983 -0.133522 0.990428 0.0122944
-0.0350392 -0.130255 0.990861 0.0133627
-0.0349575 -0.127361 0.99124 0.0127734
-0.0292291 -0.399188 0.916403 0.00642349
-0.028564 -0.393325 0.918956 0.00687281
-0.0278401 -0.387653 0.921385 0.00618534
-0.0272495 -0.381146 0.924113 0.0041458
-0.0266988 -0.37137 0.928101 0.00221509
-0.0261662 -0.364591 0.9308 0.000763774
-0.0252068 -0.365084 0.930633 0.00262427
-0.0250602 -0.365844 0.930339 0.00499295
-0.0246874 -0.362597 0.931619 0.00411836
-0.0245536 -0.36254 0.931645 0.00615279
-0.0241386 -0.361693 0.931985 0.0062216
-0.0244172 -0.363054 0.931448 0.00885301
-0.024085 -0.358609 0.933177 0.00705925
-0.0239652 -0.353582 0.935096 0.00702017
-0.0236279 -0.350792 0.936155 0.00626012
-0.0232083 -0.34177 0.939497 0.00198519
-0.0226809 -0.335997 0.94159 0
-0.0229451 -0.334077 0.942266 0
-0.0231936 -0.333742 0.942379 0
-0.0231106 -0.333292 0.94254 0
-0.023428 -0.333644 0.942408 0.00151934
-0.0239768 -0.335426 0.941761 0.00337141
-0.0240776 -0.332454 0.942812 0.00245582
-0.0238958 -0.328761 0.944111 0.000979089
-0.0240201 -0.328843 0.944079 0.000910781
-0.0238743 -0.327728 0.94447 0
-0.0240286 -0.327024 0.94471 0
-0.0241162 -0.32493 0.94543 0
-0.0244839 -0.323971 0.94575 0
-0.0245837 -0.321351 0.946641 0
-0.0248371 -0.31825 0.947682 0
-0.0249514 -0.316643 0.948217 0
-0.0256648 -0.315142 0.948697 0
-0.0260479 -0.31397 0.949075 0.000495986
-0.0265753 -0.31283 0.949437 1.36014e-05
-0.0268467 -0.312373 0.94958 0.00222768
-0.0271162 -0.312084 0.949667 0.00275255
-0.0275588 -0.312454 0.949533 0.00315922
-0.0273678 -0.306908 0.951346 0
-0.0277656 -0.306074 0.951603 0
-0.028241 -0.303084 0.952545 0
-0.0292209 -0.302985 0.952547 0
-0.0294688 -0.302165 0.9528 0.000246323
-0.0302086 -0.299397 0.95365 0.000149687
-0.0299525 -0.296441 0.954581 0
-0.0309518 -0.297077 0.954352 0.00158465
-0.0312192 -0.295406 0.954862 0.000998829
-0.0315742 -0.290923 0.956225 0
-0.0316471 -0.289562 0.956636 0.000375577
-0.0319496 -0.285526 0.957838 0
-0.0322059 -0.283595 0.958403 0
-0.0325694 -0.280486 0.959305 0
-0.0326927 -0.278782 0.959798 0
-0.0328472 -0.274608 0.960995 0
-0.0335065 -0.273652 0.961245 0
-0.0332717 -0.270265 0.962211 0
-0.0332924 -0.267428 0.963002 0
-0.0336531 -0.264946 0.963676 0
-0.0335248 -0.262731 0.964286 0
-0.0337991 -0.26281 0.964255 0.000675675
-0.0339362 -0.260427 0.964897 0.00144332
-0.0338777 -0.256042 0.966072 0
-0.033918 -0.253298 0.966793 0.00143239
-0.0333268 -0.249586 0.967779 0
-0.0334544 -0.246183 0.968646 0.000377056
-0.0339179 -0.244247 0.96912 0.0018979
-0.0343612 -0.241885 0.969696 0.0035839
-0.0345411 -0.239724 0.970226 0.00472581
-0.0345458 -0.235002 0.971381 0.00359101
-0.0341639 -0.228398 0.972968 0
-0.0343757 -0.226486 0.973408 0.00372628
-0.0335481 -0.219647 0.975002 0
-0.0333338 -0.21616 0.975789 0
-0.0335666 -0.212268 0.976635 0
-0.033621 -0.208254 0.977497 0
-0.0330715 -0.203536 0.978509 0
-0.0334049 -0.200507 0.979123 0
-0.0334137 -0.195718 0.980091 0
-0.0330684 -0.191152 0.981003 0
-0.0336229 -0.187542 0.981681 0
-0.034134 -0.184494 0.982241 0
-0.0345357 -0.181346 0.982813 0
-0.0354277 -0.178852 0.983238 0.00133737
-0.0354127 -0.174347 0.984047 0.000449419
-0.0355798 -0.17126 0.984583 0.0020071
-0.0363351 -0.169968 0.98478 0.00495429
-0.0359823 -0.165081 0.985624 0.00225615
-0.0356799 -0.160648 0.986367 0.000796285
-0.0358463 -0.157086 0.986934 0.00180809
-0.0366422 -0.154996 0.987235 0.00439831
-0.0367184 -0.15048 0.987931 0.00315374
-0.0370439 -0.146279 0.988549 0.00332383
-0.0365677 -0.141052 0.989327 0.00141141
-0.0368887 -0.137216 0.989854 0.00323408
-0.0380136 -0.135656 0.990026 0.00691579
-0.038506 -0.131986 0.990503 0.00726498
-0.0387601 -0.12922 0.990858 0.00738922
-0.0386099 -0.125916 0.991289 0.00495127
-0.0389455 -0.122714 0.991678 0.00723284
-0.0383495 -0.118211 0.992248 0.00117858
-0.0381198 -0.11495 0.99264 0
-0.0381223 -0.111526 0.99303 0
-0.0379194 -0.107842 0.993445 0
-0.0377998 -0.104309 0.993826 0
-0.0384853 -0.102374 0.994001 0
-0.0396783 -0.100309 0.994165 0
-0.0398205 -0.0983285 0.994357 0.00135089
-0.0403863 -0.0957733 0.994584 0.00399298
-0.0400611 -0.0905962 0.995082 0
-0.0407551 -0.0878272 0.995302 0.00168136
-0.0417355 -0.0876425 0.995277 0.00781017
-0.041849 -0.0862253 0.995396 0.00950723
-0.0430813 -0.0853461 0.99542 0.0146876
-0.0427453 -0.080214 0.995861 0.00930153
-0.0424665 -0.0768108 0.996141 0.00650233
-0.0438363 -0.0764699 0.996108 0.0123086
-0.0432837 -0.0717814 0.996481 0.00927533
-0.043053 -0.0672632 0.996806 0.00611286
-0.0430424 -0.0634354 0.997057 0.00342213
-0.0426252 -0.0586091 0.997371 0
-0.043284 -0.0571235 0.997428 0.00375679
-0.043938 -0.0550549 0.997516 0.00719012
-0.0451181 -0.0546154 0.997488 0.0125144
-0.0453219 -0.0518971 0.997624 0.0140343
-0.0443523 -0.0474213 0.99789 0.00892475
-0.0444151 -0.0445114 0.998021 0.0078228
-0.0441766 -0.0414251 0.998165 0.00895075
-0.0446951 -0.0397813 0.998208 0.0129293
-0.0436563 -0.03491 0.998437 0.00774963
-0.0436072 -0.0311265 0.998564 0.00726768
-0.0423234 -0.0272092 0.998733 0.000181244
-0.0423912 -0.0240728 0.998811 0.00262798
-0.0420049 -0.0202776 0.998912 0
-0.0419365 -0.0160071 0.998992 0
-0.041686 -0.0130327 0.999046 0
-0.0416978 -0.00957767 0.999084 0.00147055
-0.0409758 -0.00445952 0.99915 0
-0.0401495 -0.00144148 0.999193 0
-0.0405647 0.00145799 0.999176 0
-0.0405537 0.00491969 0.999165 0.00337083
-0.0401643 0.00734312 0.999166 0.00226554
-0.0394964 0.00994274 0.99917 0.000253223
-0.03984 0.012751 0.999125 0
-0.0392928 0.016127 0.999098 0
-0.0397237 0.0179917 0.999049 0
-0.0402514 0.0196443 0.998996 0.00321746
-0.0404882 0.0220051 0.998938 0.00512368
-0.0407951 0.0234831 0.998892 0.00924019
-0.0405604 0.027081 0.99881 0.00843062
-0.0409208 0.0291935 0.998736 0.00792602
-0.0409068 0.0315973 0.998663 0.012358
-0.0404048 0.0332863 0.998629 0.00834908
-0.0398201 0.0369447 0.998524 9.21445e-05
-0.039583 0.038792 0.998463 0.00119726
-0.0398712 0.0408311 0.99837 0.00164997
-0.0401019 0.0428483 0.998277 0.00224414
-0.0405575 0.0446508 0.998179 0.00506303
-0.0396887 0.0456346 0.998169 0.00399152
-0.0398068 0.0484075 0.998034 0.000606154
-0.0399818 0.0501403 0.997942 0.00203584
-0.0398442 0.0525261 0.997824 0.00102081
-0.0405134 0.054683 0.997682 0.00349822
-0.0403792 0.0576841 0.997518 0.00235842
-0.0407105 0.0588336 0.997437 0.0043187
-0.0411243 0.0602389 0.997337 0.00860881
-0.0413667 0.0619788 0.99722 0.0101654
-0.0415204 0.0632758 0.997132 0.00896195
-0.0413516 0.0665605 0.996925 0.00453253
-0.0413574 0.0679468 0.996831 0.00370243
-0.0415992 0.0701944 0.996666 0.00250939
-0.041665 0.0708716 0.996615 0
-0.041835 0.0719968 0.996527 0
-0.042098 0.0751485 0.996283 0
-0.0418496 0.0780857 0.996068 0
-0.0419404 0.081353 0.995803 0
-0.0419915 0.0838986 0.995589 0
-0.0422033 0.0862272 0.995381 0
-0.0423353 0.0870709 0.995302 0
-0.0424194 0.0886017 0.995163 0
-0.0426122 0.0921406 0.994834 0
-0.0428728 0.0953747 0.994518 0
-0.042572 0.0974519 0.994329 0
-0.0426148 0.102293 0.993841 0
-0.0424737 0.105617 0.993499 0
-0.0426969 0.108902 0.993135 0
-0.0428877 0.109212 0.993093 0
-0.0428429 0.111579 0.992832 0
-0.0429501 0.112165 0.992761 0
-0.0428989 0.114066 0.992546 0
-0.0427004 0.114567 0.992497 0
-0.0428143 0.115589 0.992374 0
-0.0431331 0.115761 0.99234 0
-0.0431994 0.117218 0.992166 0
-0.0428055 0.120813 0.991752 0
-0.0424875 0.123639 0.991417 0
-0.041849 0.124656 0.991317 0
-0.0417619 0.124316 0.991364 0
-0.0409293 0.125028 0.991309 0
-0.0401823 0.124818 0.991366 0
-0.0393697 0.12777 0.991022 0.00187778
-0.0393348 0.132045 0.990463 0.00867162
-0.0385543 0.134602 0.990149 0.00761786
-0.0393417 -0.030547 0.998759 0
-0.0398292 -0.0337411 0.998637 0
-0.0397969 -0.0348015 0.998602 0
-0.0397031 -0.0345132 0.998615 0
-0.039685 -0.0322944 0.99869 0
-0.0399242 -0.0312016 0.998715 0
-0.0395613 -0.0294235 0.998784 0
-0.0391371 -0.0258028 0.998901 0
-0.0388612 -0.0212153 0.999019 0
-0.0390909 -0.022168 0.99899 0
-0.0386888 -0.018261 0.999084 0
-0.0388692 -0.0212143 0.999019 0
-0.0393005 -0.02507 0.998913 0
-0.0393902 -0.023652 0.998944 0
-0.0393671 -0.0242375 0.998931 0
-0.0391891 -0.0226507 0.998975 0
-0.0399001 -0.0282724 0.998804 0
-0.0399078 -0.0278605 0.998815 0
-0.039683 -0.0233129 0.99894 0
-0.0397383 -0.0237439 0.998928 0.00193141
-0.039337 -0.0236903 0.998945 0.000395027
-0.0398554 -0.026263 0.99886 0.00208138
-0.0394285 -0.0256503 0.998893 0.00080415
-0.0401105 -0.0282888 0.998795 0.00315777
-0.0401543 -0.0285219 0.998786 0.00675963
-0.0397893 -0.0272725 0.998836 0.00482388
-0.0398384 -0.0243277 0.99891 0.00639757
-0.0399604 -0.0265305 0.998849 0.00540021
-0.039569 -0.0236681 0.998936 0.00359289
-0.0399122 -0.0293081 0.998773 0.00416159
-0.0398337 -0.0274323 0.99883 0.00362045
-0.0396287 -0.0286662 0.998803 0.00258395
-0.0394608 -0.0275909 0.99884 0.0024797
-0.0395513 -0.0273788 0.998842 0.00357516
-0.0389784 -0.025262 0.998921 3.15164e-07
-0.039185 -0.0241391 0.99894 0.000784112
-0.0388203 -0.0236693 0.998966 0
-0.0388907 -0.0245054 0.998943 0
-0.0392558 -0.0266086 0.998875 0
-0.038934 -0.0266423 0.998887 0
-0.0387355 -0.0300923 0.998796 0
-0.0389778 -0.0288183 0.998824 0
-0.0388761 -0.028621 0.998834 0
-0.0386789 -0.0248371 0.998943 0
-0.0386022 -0.0265361 0.998902 0
-0.0383843 -0.0274733 0.998885 0
-0.0383571 -0.0295482 0.998827 0
-0.0377706 -0.0305551 0.998819 2.30441e-07
-0.0373474 -0.0288031 0.998887 0
-0.0375581 -0.0304824 0.998829 0
-0.037436 -0.031883 0.99879 0.00140674
-0.0374699 -0.0332875 0.998743 0.00107745
-0.0374777 -0.0342862 0.998709 0.00077264
-0.0373885 -0.0359636 0.998653 0.00235758
-0.0373712 -0.0385559 0.998557 0.00502017
-0.0368855 -0.038701 0.99857 0.00187136
-0.0369849 -0.0440924 0.998343 0.00403606
-0.0369122 -0.0471091 0.998208 0.00723995
-0.0366949 -0.0478772 0.998179 0.006781
-0.0366284 -0.0485605 0.998148 0.00606522
-0.0357799 -0.0509985 0.998058 0.00373656
-0.0348311 -0.0497548 0.998154 0
-0.0350843 -0.0538703 0.997931 0.0026337
-0.0349892 -0.0591345 0.997637 0.00155446
-0.0345429 -0.061724 0.997495 0.00123938
-0.0341638 -0.0635861 0.997391 0
-0.0340589 -0.064366 0.997345 0
-0.0345821 -0.0674849 0.997121 0.00267223
-0.0340274 -0.0678163 0.997117 0
-0.0335196 -0.0691223 0.997045 0
-0.0337511 -0.0715043 0.996869 0.000207952
-0.033618 -0.0750064 0.996616 0.00200307
-0.0329906 -0.0747007 0.99666 0.00123331
-0.0331657 -0.0767823 0.996496 0.0030818
-0.0328182 -0.0775977 0.996445 0.00301147
-0.0327716 -0.0805182 0.996214 0.00456513
-0.032516 -0.0811611 0.996171 0.00309107
-0.0331625 -0.0833667 0.995967 0.00562008
-0.0324471 -0.0837899 0.995955 0.00568039
-0.0326544 -0.086912 0.995681 0.00837184
-0.0326619 -0.0890995 0.995487 0.00714971
-0.032904 -0.0912725 0.995282 0.00628812
-0.0338515 -0.0972096 0.994688 0.0107968
-0.0335602 -0.0983344 0.994587 0.0130705
-0.0327195 -0.0973349 0.994714 0.00834778
-0.0329509 -0.100206 0.994421 0.00946993
-0.0325144 -0.10185 0.994268 0.00967043
-0.0327452 -0.102397 0.994204 0.0106074
-0.0334121 -0.105316 0.993877 0.0145216
-0.0332062 -0.108121 0.993583 0.0132654
-0.0321137 -0.104608 0.993995 0.00824734
-0.0326246 -0.103768 0.994066 0.00930788
-0.0328524 -0.103673 0.994069 0.00876456
-0.0326821 -0.102655 0.99418 0.0086313
-0.0324304 -0.100988 0.994359 0.00332724
-0.0327581 -0.101453 0.994301 0.00468351
-0.0327155 -0.100465 0.994403 0.00259048
-0.0326273 -0.0994039 0.994512 0.00493913
-0.0325267 -0.0999561 0.99446 0.00694859
-0.0329255 -0.0995471 0.994488 0.00812547
-0.0325641 -0.0991843 0.994536 0.00617637
-0.0330589 -0.102014 0.994233 0.00486043
-0.0331275 -0.105669 0.993849 0.00579549
-0.0327749 -0.107566 0.993657 0.00483708
-0.0331812 -0.109121 0.993474 0.0057745
-0.0335903 -0.109673 0.9934 0.00578119
-0.0331432 -0.109565 0.993427 0.00428265
-0.0329242 -0.111068 0.993267 0.00225976
-0.0323102 -0.112897 0.993081 0.000892095
-0.0320569 -0.116906 0.992625 0.000171825
-0.0319602 -0.117339 0.992578 0
-0.031653 -0.11856 0.992442 0
-0.0314484 -0.118679 0.992435 0
-0.0318456 -0.117413 0.992573 0
-0.0317891 -0.116211 0.992716 0
-0.0313056 -0.113397 0.993056 0
-0.0316371 -0.112987 0.993093 0
-0.0312099 -0.113602 0.993036 0
-0.0312525 -0.114799 0.992897 0
-0.0313777 -0.117885 0.992531 0
-0.0310465 -0.116725 0.992679 0
-0.0310136 -0.116546 0.992701 0
-0.0309537 -0.117381 0.992604 0
-0.0306079 -0.118938 0.99243 0
-0.0307413 -0.120713 0.992211 0
-0.0305221 -0.123718 0.991848 0
-0.030508 -0.124855 0.991706 0
-0.0304896 -0.124319 0.991774 0
-0.0302043 -0.122112 0.992057 0
-0.0305952 -0.125015 0.991683 0
-0.0306587 -0.123358 0.991889 0
-0.0310354 -0.125463 0.991613 0
-0.0312207 -0.125092 0.991654 0
-0.0315169 -0.12888 0.991159 0
-0.0315196 -0.128916 0.991154 0
-0.0318548 -0.127706 0.9913 0.000265711
-0.0320838 -0.125547 0.991569 0
-0.0321794 -0.123784 0.991787 0
-0.0328584 -0.128547 0.991159 0.00610179
-0.0336058 -0.132716 0.990584 0.00769898
-0.0338861 -0.134752 0.9903 0.011177
-0.034286 -0.13381 0.990414 0.0117518
-0.034838 -0.13825 0.989784 0.014795
-0.0347729 -0.135395 0.990181 0.0151522
-0.0346064 -0.129556 0.990968 0.0146474
-0.0347586 -0.126417 0.991368 0.013496
-0.0347239 -0.124007 0.991674 0.0103999
-0.0345107 -0.127321 0.991261 0.0117085
-0.0343757 -0.130172 0.990895 0.0131785
-0.0343094 -0.124298 0.991652 0.00875192
-0.0348543 -0.123989 0.991671 0.0136973
-0.0289754 -0.398691 0.916627 0.00341017
-0.028383 -0.389637 0.920531 0.00196069
-0.027593 -0.380454 0.924388 0
-0.0269621 -0.38045 0.924408 0.00101192
-0.0261487 -0.384327 0.922826 0.0047728
-0.0254787 -0.381976 0.923821 0.00496548
-0.0246444 -0.369955 0.928723 0.000721399
-0.0239988 -0.364426 0.930923 0.000394962
-0.023481 -0.361908 0.931918 0
-0.0229809 -0.354686 0.934703 0
-0.0227986 -0.352034 0.93571 0
-0.022766 -0.349371 0.936708 0.000821407
-0.0228054 -0.348305 0.937104 0.00115321
-0.0225809 -0.347686 0.937339 0.00155669
-0.0224726 -0.345865 0.938015 0.00120757
-0.0222863 -0.342375 0.939299 0
-0.0224806 -0.340221 0.940077 0
-0.0223677 -0.340533 0.939966 0
-0.0224572 -0.336324 0.941478 0
-0.0225251 -0.336861 0.941285 0
-0.0224499 -0.333429 0.942508 0
-0.0225552 -0.330269 0.943617 0
-0.0227425 -0.331109 0.943319 0
-0.0227323 -0.331637 0.943133 0
-0.0225292 -0.330327 0.943598 0
-0.0227533 -0.328432 0.944254 0
-0.0231064 -0.32866 0.944165 0.000791745
-0.0233184 -0.32539 0.945292 0
-0.0235137 -0.325564 0.945228 0.000322165
-0.0236539 -0.324131 0.945717 0
-0.0241119 -0.325543 0.94522 0.00368287
-0.0242546 -0.319576 0.94725 0.000778619
-0.0248696 -0.318592 0.947566 0.00259936
-0.0250422 -0.318211 0.947689 0.00439377
-0.0256133 -0.315942 0.948433 0.00340558
-0.0256247 -0.315436 0.948601 0.00359433
-0.0255312 -0.310394 0.950265 0.00164844
-0.0260189 -0.307908 0.95106 0.00174099
-0.0259474 -0.304268 0.952233 0
-0.0266344 -0.303446 0.952476 0.00178041
-0.026979 -0.300806 0.953304 0.000523904
-0.0277116 -0.299165 0.953799 0.00172234
-0.0281604 -0.300525 0.953358 0.00425729
-0.02865 -0.297058 0.95443 0.00346366
-0.0286409 -0.292069 0.955968 0.000990986
-0.029432 -0.291726 0.956049 0.0017786
-0.0295913 -0.290186 0.956513 0.00164319
-0.0297541 -0.285892 0.9578 0
-0.0306258 -0.284896 0.958069 0.0020778
-0.0313035 -0.28391 0.95834 0.00431838
-0.03128 -0.278813 0.959836 0.00211981
-0.0315221 -0.275127 0.960891 0.000132957
-0.0319838 -0.273259 0.961409 0
-0.032712 -0.270882 0.962057 0
-0.0327198 -0.26913 0.962548 0
-0.0328826 -0.266765 0.963201 0
-0.0329217 -0.26455 0.96381 0
-0.0336238 -0.264305 0.963853 0.00199796
-0.0330493 -0.261005 0.964771 0
-0.0333244 -0.259133 0.965267 0
-0.0331469 -0.255914 0.966131 0
-0.0337621 -0.253808 0.966665 0
-0.0346156 -0.252156 0.967067 0
-0.0347692 -0.24914 0.967843 3.00879e-05
-0.0344283 -0.2467 0.96848 0.00126629
-0.0345268 -0.244089 0.969138 0.00159285
-0.0347512 -0.24181 0.969701 0.00280411
-0.0337975 -0.237239 0.970863 0.00163467
-0.0334825 -0.232204 0.972091 0.000719809
-0.0336279 -0.227734 0.973143 0.000963613
-0.0341005 -0.223627 0.974078 0
-0.0338363 -0.219113 0.975113 0
-0.0347026 -0.215343 0.975922 0
-0.03463 -0.212205 0.976611 0
-0.0346553 -0.208116 0.97749 0
-0.0345869 -0.204398 0.978277 0
-0.0351262 -0.202205 0.978713 0.00143611
-0.0347599 -0.196614 0.979865 0
-0.0348115 -0.191466 0.980882 0
-0.034917 -0.187137 0.981713 0
-0.0357897 -0.186132 0.981873 0.00381304
-0.0360475 -0.184743 0.982126 0.00777104
-0.03602 -0.180238 0.982963 0.00785666
-0.0354688 -0.174536 0.984012 0.00554059
-0.0351987 -0.170601 0.984711 0.00425831
-0.0354582 -0.166515 0.985401 0.00497066
-0.0356483 -0.162386 0.986083 0.00404925
-0.0356293 -0.159011 0.986634 0.00187056
