# .PCD v0.7 - Point Cloud Data file format
VERSION 0.7
FIELDS x y z
SIZE 4 4 4
TYPE F F F
COUNT 1 1 1
WIDTH 1415
HEIGHT 1
VIEWPOINT 0 0 0 1 0 0 0
POINTS 1415
DATA ascii
-0.032667 0.086015001 -0.22680099
-0.032667998 0.086085998 -0.226726
-0.032667998 0.086156003 -0.226666
-0.032667998 0.086227 -0.226613
-0.032667998 0.086295001 -0.22654501
-0.032667998 0.086365998 -0.22648101
-0.032667998 0.086437002 -0.226438
-0.032667 0.086507998 -0.226386
-0.032667 0.086576998 -0.22633401
-0.032666001 0.086648002 -0.22629701
-0.032664001 0.086718999 -0.22627699
-0.032662001 0.086788997 -0.226261
-0.032660998 0.086860001 -0.226238
-0.03266 0.086929001 -0.226198
-0.032659002 0.086999997 -0.226156
-0.032657001 0.087070003 -0.226135
-0.032655001 0.087141998 -0.22612099
-0.032653 0.087210998 -0.226107
-0.032651 0.087283 -0.226088
-0.032650001 0.087352 -0.22606
-0.032648001 0.087424003 -0.226034
-0.032646 0.087493002 -0.226017
-0.032644998 0.087564997 -0.22599301
-0.032643002 0.087633997 -0.225971
-0.032641001 0.087704003 -0.22595599
-0.032639001 0.087774999 -0.225936
-0.032637 0.087844998 -0.225914
-0.032636002 0.087916002 -0.225885
-0.032634001 0.087985002 -0.225861
-0.032632999 0.088055 -0.22583701
-0.032630999 0.088125996 -0.22581001
-0.032628998 0.088196002 -0.225796
-0.032627001 0.088267997 -0.225786
-0.032625001 0.088336997 -0.225769
-0.032623999 0.088407002 -0.22574501
-0.032621998 0.088477999 -0.22572701
-0.032620002 0.088547997 -0.225714
-0.032618001 0.088619001 -0.225696
-0.032614999 0.088688999 -0.225684
-0.032613002 0.088758998 -0.225683
-0.032609999 0.088831 -0.225677
-0.032607999 0.088900998 -0.225667
-0.032605 0.088973001 -0.225667
-0.032602001 0.089042999 -0.22567201
-0.032600001 0.089112997 -0.22566199
-0.032598 0.089184001 -0.22565
-0.032595001 0.089253999 -0.22564501
-0.032591999 0.089326002 -0.22564501
-0.032590002 0.089396 -0.225641
-0.032588001 0.089465998 -0.22563
-0.032586001 0.089537002 -0.225614
-0.032582998 0.089607 -0.22560801
-0.032579999 0.089679003 -0.225621
-0.032577001 0.089749001 -0.22562701
-0.032574002 0.089821003 -0.225623
-0.032570999 0.089891002 -0.225631
-0.032568 0.089964002 -0.22563601
-0.032565001 0.090033002 -0.22563
-0.032561999 0.090104997 -0.22563399
-0.032559998 0.090175003 -0.225631
-0.032556999 0.090246998 -0.225629
-0.032554999 0.090317003 -0.22562499
-0.032552 0.090388998 -0.22562
-0.032549001 0.090458997 -0.225624
-0.032545999 0.090529002 -0.22562601
-0.032543 0.090600997 -0.22563399
-0.032540001 0.090673 -0.225641
-0.032536998 0.090742998 -0.225639
-0.032534 0.090815 -0.225647
-0.032529999 0.090885997 -0.22567201
-0.032526001 0.090957999 -0.225692
-0.032524001 0.091030002 -0.22569001
-0.032520998 0.0911 -0.225684
-0.032517999 0.091172002 -0.225687
-0.032515999 0.091242 -0.22568101
-0.032513 0.091314003 -0.225679
-0.032508999 0.091384001 -0.225696
-0.032506 0.091456003 -0.22570799
-0.032503001 0.091528997 -0.225714
-0.032499999 0.091599002 -0.22572
-0.032497 0.091670997 -0.225729
-0.032492999 0.091743 -0.22573701
-0.032490999 0.091812998 -0.225731
-0.032488 0.091885 -0.225729
-0.032485001 0.091954999 -0.22574399
-0.032481 0.092027001 -0.22576199
-0.032478001 0.092099003 -0.225768
-0.032474998 0.092170998 -0.225769
-0.032473002 0.092240997 -0.225767
-0.032469999 0.092311002 -0.225767
-0.032466002 0.092384003 -0.225777
-0.032462999 0.092455998 -0.225786
-0.03246 0.092528 -0.225796
-0.032457002 0.092597999 -0.225804
-0.032453999 0.092670001 -0.22580899
-0.032451 0.092742004 -0.22581699
-0.032448001 0.092812002 -0.225815
-0.032444999 0.092883997 -0.225813
-0.032442998 0.092954002 -0.225812
-0.032439001 0.093025997 -0.22581799
-0.032437 0.093098 -0.22582
-0.032434002 0.093167998 -0.225823
-0.032430001 0.09324 -0.225835
-0.032427002 0.093312003 -0.22583701
-0.032425001 0.093382001 -0.225835
-0.032421999 0.093454003 -0.225842
-0.032418001 0.093526997 -0.225852
-0.032414999 0.093598999 -0.22585399
-0.032412 0.093668997 -0.225859
-0.032409001 0.093741 -0.225871
-0.032405999 0.093813002 -0.22587501
-0.032403 0.093883 -0.225869
-0.032400001 0.093955003 -0.22587401
-0.032398 0.094026998 -0.22587401
-0.032395002 0.094097003 -0.225862
-0.032393001 0.094168 -0.225857
-0.032389998 0.094238997 -0.22586299
-0.032386001 0.094310999 -0.22587501
-0.032384001 0.094383001 -0.225877
-0.032381002 0.094453 -0.225872
-0.032377999 0.094524004 -0.225868
-0.032375 0.094596997 -0.22587401
-0.032373 0.094667003 -0.22587501
-0.032370001 0.094738998 -0.22587501
-0.032366998 0.094809003 -0.22587501
-0.032365002 0.09488 -0.225867
-0.032361999 0.094949998 -0.225866
-0.032359 0.095022 -0.225866
-0.032357 0.095091999 -0.225848
-0.032354999 0.095160998 -0.225835
-0.032352 0.095233001 -0.22583701
-0.032349002 0.095305003 -0.225839
-0.032345999 0.095377997 -0.225844
-0.032343999 0.095448002 -0.225844
-0.032341 0.095518999 -0.22583599
-0.032338999 0.095588997 -0.225824
-0.032336999 0.095659003 -0.225815
-0.032334 0.095730998 -0.225813
-0.032331001 0.095803 -0.22581699
-0.032327998 0.095872998 -0.225816
-0.032326002 0.095945001 -0.22581001
-0.032322999 0.096014 -0.225804
-0.032320999 0.096086003 -0.225795
-0.032319002 0.096156001 -0.225787
-0.032315999 0.096225999 -0.225785
-0.032313999 0.096298002 -0.22577301
-0.032311998 0.096367002 -0.22575399
-0.032310002 0.096437 -0.225742
-0.032306001 0.096509002 -0.22575
-0.032303002 0.096580997 -0.225757
-0.032301001 0.096651003 -0.225749
-0.032299001 0.096720003 -0.225733
-0.032295998 0.096791998 -0.22572801
-0.032294001 0.096862003 -0.22572599
-0.032292001 0.096932001 -0.225714
-0.03229 0.097001001 -0.22569101
-0.032288 0.097070999 -0.225677
-0.032285001 0.097143002 -0.225677
-0.032281999 0.097214997 -0.225676
-0.032280002 0.097285002 -0.22566999
-0.032276999 0.097356997 -0.22566999
-0.032274999 0.097427003 -0.225666
-0.032272 0.097498 -0.225657
-0.032269999 0.097567998 -0.225649
-0.032267999 0.097638004 -0.22563501
-0.032265998 0.097707003 -0.22561599
-0.032264002 0.097777002 -0.22559801
-0.032262001 0.097847 -0.22558799
-0.032258999 0.097916998 -0.225583
-0.032257002 0.097988002 -0.225575
-0.032255001 0.098058 -0.225555
-0.032253001 0.098125003 -0.225536
-0.032251 0.098196998 -0.22553401
-0.032248002 0.098269001 -0.225536
-0.032244999 0.098338999 -0.225539
-0.032242 0.098411001 -0.22553501
-0.03224 0.098480999 -0.225517
-0.032239001 0.098549999 -0.22549599
-0.032237001 0.098619998 -0.22547799
-0.032235 0.098687001 -0.22545201
-0.032233 0.098756999 -0.225437
-0.032230001 0.098829001 -0.22544099
-0.032226998 0.098901004 -0.225447
-0.032224 0.098972999 -0.225448
-0.032221999 0.099042997 -0.225446
-0.032219999 0.099113002 -0.225436
-0.032217 0.099182002 -0.22542299
-0.032214999 0.099253997 -0.22541501
-0.032212999 0.099324003 -0.225407
-0.03221 0.099394001 -0.225399
-0.032207999 0.099466003 -0.225398
-0.032205001 0.099535003 -0.22538801
-0.032203 0.099605002 -0.22537
-0.032201 0.099675 -0.225357
-0.032198999 0.099744 -0.22534101
-0.032196999 0.099813998 -0.225327
-0.032195002 0.099884003 -0.22532199
-0.032191999 0.099955998 -0.225328
-0.032189 0.100028 -0.225324
-0.032187 0.100095 -0.225309
-0.032184999 0.100167 -0.22530299
-0.032182001 0.100239 -0.225307
-0.032179002 0.100309 -0.22530399
-0.032177001 0.100379 -0.22529399
-0.032173999 0.100451 -0.22528601
-0.032171998 0.100521 -0.225282
-0.032168999 0.10059 -0.22527701
-0.032166999 0.100662 -0.22527701
-0.032163002 0.100735 -0.225283
-0.032161001 0.100806 -0.22528
-0.032157999 0.100876 -0.22527599
-0.032156002 0.100946 -0.225274
-0.032152999 0.101018 -0.22526699
-0.032150999 0.101088 -0.225263
-0.032147001 0.101162 -0.22527499
-0.032143999 0.101232 -0.225279
-0.032141998 0.101304 -0.225274
-0.032139 0.101374 -0.22526801
-0.032136001 0.101446 -0.22527
-0.032133002 0.101518 -0.225281
-0.032129999 0.10159 -0.225281
-0.032127 0.101662 -0.22528499
-0.032124002 0.101734 -0.225297
-0.032120999 0.101806 -0.2253
-0.032118 0.101878 -0.22530399
-0.032113999 0.101951 -0.22531199
-0.032111999 0.102023 -0.22531401
-0.032109 0.102095 -0.225317
-0.032104999 0.102167 -0.225337
-0.032101002 0.102241 -0.225355
-0.032097999 0.102313 -0.225357
-0.032095 0.102386 -0.225364
-0.032090999 0.10246 -0.22537801
-0.032088 0.102532 -0.225394
-0.032083999 0.102606 -0.225408
-0.032081001 0.102679 -0.225421
-0.032077 0.102753 -0.22544301
-0.032072 0.10283 -0.225475
-0.032067999 0.102904 -0.22550499
-0.032063998 0.102979 -0.225529
-0.032060001 0.103053 -0.22555099
-0.032056 0.10313 -0.225582
-0.032051001 0.103205 -0.22561
-0.032047 0.103281 -0.22564401
-0.032042999 0.103356 -0.22566
-0.032037999 0.103432 -0.225692
-0.032033 0.103509 -0.225734
-0.032028999 0.103586 -0.225766
-0.032024 0.103663 -0.225805
-0.032019999 0.103739 -0.225839
-0.032015 0.103814 -0.225869
-0.03201 0.103893 -0.225917
-0.032005001 0.10397 -0.225953
-0.032000002 0.104047 -0.225987
-0.031994 0.10413 -0.226059
-0.031987 0.104212 -0.226133
-0.031978998 0.104298 -0.22623301
-0.031971999 0.104382 -0.226307
-0.032596 0.085803002 -0.227051
-0.032598 0.085872002 -0.22694001
-0.032600001 0.085940003 -0.22685599
-0.032600001 0.086010002 -0.226778
-0.032600999 0.086080998 -0.226715
-0.032600999 0.086152002 -0.22665299
-0.032600999 0.086222 -0.226597
-0.032600999 0.086291 -0.22653399
-0.032600999 0.086361997 -0.226486
-0.032600001 0.086433001 -0.22645099
-0.032598 0.086503997 -0.22641499
-0.032598 0.086572997 -0.226365
-0.032598 0.086644001 -0.226312
-0.032597002 0.086714998 -0.226276
-0.032595001 0.086785004 -0.22626001
-0.032593001 0.086856 -0.226245
-0.032591999 0.086925 -0.22621299
-0.032590002 0.086997002 -0.226181
-0.032588001 0.087066002 -0.226166
-0.032586001 0.087137997 -0.22614799
-0.032584999 0.087206997 -0.22612
-0.032582998 0.087278999 -0.2261
-0.032581002 0.087347999 -0.226081
-0.032579001 0.087420002 -0.226061
-0.032577999 0.087489001 -0.226028
-0.032577999 0.087559998 -0.22598
-0.032575998 0.087628998 -0.22596
-0.032574002 0.087699004 -0.225951
-0.032572001 0.087770998 -0.225933
-0.032570001 0.087839998 -0.22590899
-0.032568999 0.087911002 -0.22587501
-0.032568 0.087981001 -0.225844
-0.032566 0.08805 -0.225822
-0.032563999 0.088122003 -0.22580899
-0.032561999 0.088192001 -0.225797
-0.032559998 0.088262998 -0.22578099
-0.032558002 0.088333003 -0.225757
-0.032556001 0.088402003 -0.22574
-0.032552999 0.088473998 -0.22574
-0.032551002 0.088544004 -0.22573601
-0.032549001 0.088615999 -0.225719
-0.032547001 0.088684998 -0.225703
-0.032545 0.088754997 -0.225695
-0.032543 0.088826999 -0.22567999
-0.032540999 0.088895999 -0.225664
-0.032538 0.088968001 -0.225664
-0.032535002 0.089038 -0.225669
-0.032531999 0.089107998 -0.22566301
-0.032529999 0.08918 -0.225657
-0.032527 0.089249998 -0.22566199
-0.032524001 0.089322001 -0.225656
-0.032522999 0.089391001 -0.22563399
-0.03252 0.089460999 -0.225628
-0.032517999 0.089533001 -0.225623
-0.032515999 0.089602999 -0.22560699
-0.032513 0.089675002 -0.225611
-0.032508999 0.089745 -0.22562601
-0.032506 0.089817002 -0.22563601
-0.032501999 0.089890003 -0.22565
-0.032499 0.089960001 -0.225656
-0.032497 0.090030998 -0.225651
-0.032494001 0.090101004 -0.225647
-0.032492001 0.090171002 -0.22564501
-0.032489002 0.090242997 -0.225646
-0.032485999 0.090313002 -0.22565199
-0.032483 0.090384997 -0.22565
-0.032481 0.090455003 -0.22564299
-0.032478001 0.090526998 -0.22564501
-0.032474 0.090599 -0.225657
-0.032471001 0.090668999 -0.22566301
-0.032469001 0.090741001 -0.225658
-0.032466002 0.090810999 -0.22566
-0.032462001 0.090884 -0.225678
-0.032458998 0.090953998 -0.225687
-0.032455999 0.091026001 -0.22568101
-0.032453999 0.091095999 -0.22568101
-0.032450002 0.091168001 -0.22569899
-0.032446999 0.091240004 -0.22571
-0.032444 0.091310002 -0.225702
-0.032442 0.091381997 -0.22570001
-0.032437999 0.091452003 -0.22571699
-0.032435 0.091523997 -0.225729
-0.032430999 0.091596998 -0.225741
-0.032428 0.091669001 -0.225751
-0.032425001 0.091738999 -0.225752
-0.032423001 0.091808997 -0.22574
-0.032421 0.091880001 -0.225732
-0.032416999 0.091950998 -0.225747
-0.032412998 0.092024997 -0.225769
-0.03241 0.092095003 -0.225779
-0.032407001 0.092166997 -0.225785
-0.032404002 0.092238002 -0.22579201
-0.032400001 0.092309996 -0.225804
-0.032398 0.092381999 -0.225806
-0.032395002 0.092451997 -0.22580101
-0.032393001 0.092523001 -0.225793
-0.032389 0.092593998 -0.225805
-0.032386001 0.092666 -0.225823
-0.032382 0.092738003 -0.22583
-0.03238 0.092808001 -0.225822
-0.032377999 0.092880003 -0.22581001
-0.032375 0.092951998 -0.22581699
-0.032370999 0.093021996 -0.22582901
-0.032368001 0.093093999 -0.225833
-0.032365002 0.093166001 -0.225841
-0.032361999 0.093238004 -0.22585399
-0.032359 0.093308002 -0.22585
-0.032357 0.093379997 -0.225844
-0.032354001 0.093450002 -0.225848
-0.032350998 0.093521997 -0.225857
-0.032348 0.093594 -0.225857
-0.032345001 0.093663998 -0.225853
-0.032342002 0.093736 -0.22585601
-0.032338999 0.093808003 -0.225862
-0.032336999 0.093878001 -0.225858
-0.032334 0.093950003 -0.22585601
-0.032331001 0.094020002 -0.22586299
-0.032327998 0.094091997 -0.22586299
-0.032325 0.094163999 -0.225867
-0.032322001 0.094236001 -0.225876
-0.032319002 0.094309002 -0.22588199
-0.032315999 0.094379 -0.225888
-0.032313 0.094451003 -0.22588401
-0.032311 0.094520003 -0.22587501
-0.032308001 0.094591998 -0.22587299
-0.032304998 0.094662003 -0.22587501
-0.032302 0.094733998 -0.225878
-0.032299001 0.094806001 -0.22588
-0.032297 0.094875999 -0.22587401
-0.032294001 0.094948001 -0.22587501
-0.032290999 0.095020004 -0.225879
-0.032288998 0.095090002 -0.225871
-0.032287002 0.09516 -0.22585499
-0.032283999 0.095232002 -0.22585399
-0.032281 0.095301002 -0.22584599
-0.032279 0.095371 -0.225834
-0.032276001 0.095443003 -0.22583701
-0.032274 0.095514998 -0.22583701
-0.032271001 0.095585003 -0.225823
-0.032269001 0.095654003 -0.22580799
-0.032267001 0.095725998 -0.22580799
-0.032263 0.095798001 -0.225816
-0.032260001 0.095868997 -0.225824
-0.032257002 0.095941 -0.225825
-0.032255001 0.09601 -0.225811
-0.032253001 0.096082002 -0.225793
-0.032251 0.096152 -0.225784
-0.032249 0.096221 -0.225778
-0.032246001 0.096293002 -0.22577199
-0.032244001 0.096363001 -0.225765
-0.032242 0.096432999 -0.225751
-0.032239001 0.096504003 -0.22574501
-0.032235999 0.096574999 -0.22575
-0.032233 0.096647002 -0.22575
-0.032230999 0.096716002 -0.225742
-0.032228999 0.096787997 -0.22572801
-0.032226998 0.096858002 -0.225719
-0.032224 0.096928 -0.225715
-0.032221999 0.096998997 -0.225705
-0.032219 0.097069003 -0.22570001
-0.032217 0.097140998 -0.225694
-0.032214001 0.097211003 -0.225684
-0.032212 0.097281002 -0.225679
-0.03221 0.097351998 -0.225669
-0.032207001 0.097421996 -0.22566301
-0.032203998 0.097493999 -0.22566199
-0.032202002 0.097563997 -0.225658
-0.032200001 0.097634003 -0.225648
-0.032196999 0.097705998 -0.22563601
-0.032196 0.097774997 -0.225619
-0.032194 0.097842999 -0.225595
-0.032191999 0.097911999 -0.225578
-0.032189999 0.097981997 -0.225566
-0.032187998 0.098053999 -0.225556
-0.032184999 0.098122999 -0.225555
-0.032182001 0.098195001 -0.22555301
-0.03218 0.098265 -0.225545
-0.032177001 0.098337002 -0.225541
-0.032175001 0.098407 -0.22553
-0.032173 0.098476 -0.225508
-0.032171998 0.098545998 -0.225486
-0.032170001 0.098613001 -0.225471
-0.032166999 0.098684996 -0.225463
-0.032164998 0.098755002 -0.225463
-0.032161999 0.098826997 -0.225462
-0.032159001 0.098898999 -0.225462
-0.032156002 0.098968998 -0.225458
-0.032154001 0.099039003 -0.225453
-0.032150999 0.099110998 -0.225447
-0.03215 0.099179998 -0.225427
-0.032148 0.099247999 -0.2254
-0.032145999 0.099316999 -0.22538801
-0.032143001 0.099389002 -0.2254
-0.032139 0.099463999 -0.22541
-0.032136999 0.099532999 -0.225401
-0.032136001 0.099601001 -0.22537699
-0.032134 0.09967 -0.225362
-0.032131001 0.099739999 -0.225356
-0.032129001 0.099812001 -0.225352
-0.032125998 0.099881999 -0.225348
-0.032122999 0.099954002 -0.225345
-0.032120999 0.100024 -0.225335
-0.032118998 0.100093 -0.22532301
-0.032117002 0.100163 -0.225308
-0.032115001 0.100233 -0.22529601
-0.032111999 0.100305 -0.225292
-0.032109 0.100377 -0.225297
-0.032106001 0.100447 -0.225299
-0.032102998 0.100519 -0.225297
-0.032101002 0.100589 -0.225298
-0.032097999 0.100661 -0.22529601
-0.032095999 0.10073 -0.22529
-0.032093 0.100802 -0.225288
-0.032090001 0.100874 -0.22528701
-0.032088 0.100944 -0.225281
-0.032085001 0.101016 -0.225281
-0.032081999 0.101086 -0.225288
-0.032079 0.10116 -0.22529399
-0.032076001 0.10123 -0.22529399
-0.032074001 0.1013 -0.22527801
-0.032072 0.101369 -0.225263
-0.032069001 0.101442 -0.225269
-0.032065999 0.101514 -0.22527701
-0.032063 0.101586 -0.22527801
-0.032058999 0.101658 -0.225288
-0.032056 0.10173 -0.22529601
-0.032053001 0.101802 -0.225298
-0.032049999 0.101874 -0.225309
-0.032047 0.101946 -0.225315
-0.032044001 0.102018 -0.225319
-0.032040998 0.102091 -0.225327
-0.032037001 0.102163 -0.225334
-0.032033999 0.102237 -0.22534201
-0.032030001 0.102309 -0.22536001
-0.032026999 0.102381 -0.22536799
-0.032024 0.102455 -0.225375
-0.032021001 0.102528 -0.22538701
-0.032017 0.1026 -0.22539701
-0.032014001 0.102674 -0.22541299
-0.03201 0.102749 -0.225436
-0.032005999 0.102823 -0.225462
-0.032001 0.102898 -0.225492
-0.031996999 0.102974 -0.225518
-0.031993002 0.103049 -0.225538
-0.031989001 0.103123 -0.22556999
-0.031984001 0.1032 -0.22559699
-0.03198 0.103275 -0.225621
-0.031975999 0.103349 -0.225649
-0.031971 0.103428 -0.225693
-0.031966999 0.103503 -0.225721
-0.031962998 0.103577 -0.225741
-0.031959001 0.103652 -0.225766
-0.031954002 0.10373 -0.225802
-0.031948999 0.103805 -0.225834
-0.031943001 0.103886 -0.225894
-0.031938002 0.103965 -0.22595
-0.031932998 0.104042 -0.225988
-0.031927001 0.104123 -0.226044
-0.031920999 0.104205 -0.22611
-0.031913999 0.104287 -0.22618601
-0.031907 0.10437 -0.22626001
-0.032551002 0.085804 -0.227062
-0.032552999 0.085873 -0.226946
-0.032554999 0.085941002 -0.22685701
-0.032556001 0.086011 -0.226781
-0.032556001 0.086081997 -0.226722
-0.032556001 0.086153001 -0.226658
-0.032556001 0.086222999 -0.226602
-0.032556001 0.086291999 -0.226547
-0.032554999 0.086363003 -0.226503
-0.032554999 0.086433999 -0.226459
-0.032554001 0.086505003 -0.226422
-0.032552999 0.086574003 -0.22637799
-0.032552999 0.086645 -0.226326
-0.032552 0.086716004 -0.226283
-0.032551002 0.086785004 -0.226257
-0.032549001 0.086856999 -0.226239
-0.032547001 0.086925998 -0.22621
-0.032545999 0.086998001 -0.226182
-0.032543 0.087067999 -0.22617599
-0.032540999 0.087139003 -0.226163
-0.032540001 0.087209001 -0.226133
-0.032538999 0.087279998 -0.22610299
-0.032536998 0.087348998 -0.22608399
-0.032534 0.087421 -0.226072
-0.032533001 0.08749 -0.226044
-0.032531999 0.087560996 -0.225999
-0.032531001 0.087631002 -0.225963
-0.032529 0.087700002 -0.225951
-0.032527 0.087771997 -0.225932
-0.032526001 0.087840997 -0.225904
-0.032524999 0.087912001 -0.225872
-0.032522999 0.087981999 -0.22584701
-0.032520998 0.088050999 -0.225831
-0.032519002 0.088123001 -0.22581901
-0.032517001 0.088192999 -0.225802
-0.032515001 0.088264003 -0.22578201
-0.032513998 0.088334002 -0.22576
-0.032511 0.088403001 -0.225749
-0.032508999 0.088474996 -0.225749
-0.032506 0.088545002 -0.22574501
-0.032504 0.088616997 -0.22572801
-0.032501999 0.088685997 -0.22570799
-0.032499999 0.088756002 -0.225694
-0.032497998 0.088827997 -0.225684
-0.032496002 0.088898003 -0.225677
-0.032492999 0.088969998 -0.225675
-0.03249 0.089040004 -0.225675
-0.032487001 0.089111 -0.22567201
-0.032485001 0.089180999 -0.225664
-0.032481998 0.089250997 -0.22566199
-0.032480001 0.089322999 -0.225655
-0.032478001 0.089392997 -0.225637
-0.032474998 0.089461997 -0.225633
-0.032472 0.089534998 -0.225642
-0.032469999 0.089606002 -0.22564
-0.032467 0.089676 -0.22563399
-0.032464001 0.089748003 -0.225638
-0.032460999 0.089818001 -0.225641
-0.032458 0.089890003 -0.225647
-0.032455001 0.089961 -0.22565299
-0.032451998 0.090033002 -0.22565199
-0.032449 0.090103 -0.22565401
-0.032446999 0.090172999 -0.22565401
-0.032444 0.090244003 -0.22564501
-0.032442 0.090314001 -0.225647
-0.032437999 0.090387002 -0.22566099
-0.032435 0.090458997 -0.225665
-0.032432999 0.090527996 -0.225656
-0.032430001 0.090600997 -0.225664
-0.032426 0.090671003 -0.225678
-0.032423999 0.090742998 -0.22567099
-0.032421 0.090811998 -0.22566301
-0.032418001 0.090884998 -0.225679
-0.032414999 0.090954997 -0.225687
-0.032412 0.091026999 -0.22568201
-0.032409001 0.091099001 -0.225686
-0.032405 0.091169 -0.225706
-0.032402001 0.091241002 -0.225713
-0.032400001 0.091311 -0.22570901
-0.032396998 0.091383003 -0.22570901
-0.032393001 0.091454998 -0.225721
-0.032389998 0.091526002 -0.22573601
-0.032386001 0.091597997 -0.225756
-0.032382999 0.091669999 -0.225768
-0.03238 0.091739997 -0.225766
-0.032377999 0.091812 -0.225759
-0.032375 0.091881998 -0.22575501
-0.032372002 0.091954 -0.225761
-0.032368999 0.092026003 -0.22577401
-0.032365002 0.092096999 -0.22578999
-0.032361999 0.092169002 -0.225796
-0.032359 0.092240997 -0.225802
-0.032356001 0.092311002 -0.225813
-0.032352999 0.092382997 -0.22581699
-0.03235 0.092453003 -0.225807
-0.032348 0.092524998 -0.225802
-0.032345001 0.092597 -0.22581001
-0.032341 0.092666999 -0.22583
-0.032338001 0.092739001 -0.22583801
-0.032334998 0.092811003 -0.225835
-0.032333001 0.092881002 -0.225825
-0.032329999 0.092952996 -0.22582901
-0.032326002 0.093024999 -0.225848
-0.032322999 0.093098 -0.225858
-0.03232 0.093167998 -0.225858
-0.032317001 0.09324 -0.225858
-0.032315001 0.093309 -0.22585499
-0.032311998 0.093381003 -0.22584701
-0.032308999 0.093452998 -0.225851
-0.032306001 0.093523003 -0.225858
-0.032303002 0.093594998 -0.225862
-0.032299999 0.093667999 -0.225868
-0.032297 0.093737997 -0.22587401
-0.032294001 0.09381 -0.225881
-0.032290999 0.093882002 -0.225877
-0.032288 0.093952 -0.22587501
-0.032285001 0.094024003 -0.225888
-0.032281999 0.094095998 -0.225894
-0.032280002 0.094166003 -0.22588199
-0.032276999 0.094237998 -0.225876
-0.032274 0.094310001 -0.22588301
-0.032271001 0.094379999 -0.22589099
-0.032267999 0.094452001 -0.225887
-0.032265998 0.094521001 -0.225878
-0.032263 0.094593003 -0.22588
-0.032260001 0.094664998 -0.22588401
-0.032257002 0.094736002 -0.225888
-0.032253999 0.094807997 -0.225889
-0.032251999 0.094876997 -0.225879
-0.032249998 0.094949 -0.225871
-0.032246999 0.095021002 -0.225876
-0.032244001 0.095091 -0.22587401
-0.032242 0.095160998 -0.225868
-0.032239001 0.095233001 -0.22587299
-0.032235999 0.095305003 -0.225869
-0.032233998 0.095374003 -0.225853
-0.032232001 0.095444001 -0.225841
-0.032228999 0.095516004 -0.22583801
-0.032226998 0.095586002 -0.225832
-0.032224 0.095657997 -0.225832
-0.032221001 0.095729999 -0.225833
-0.032218002 0.095799997 -0.225831
-0.032216001 0.095872 -0.22582901
-0.032212999 0.095941 -0.22581799
-0.032210998 0.096010998 -0.225806
-0.032209001 0.096083 -0.225804
-0.032205999 0.096152999 -0.225802
-0.032203998 0.096225001 -0.22579101
-0.032202002 0.096294001 -0.225775
-0.032198999 0.096363999 -0.225765
-0.032196999 0.096436001 -0.22576401
-0.032194 0.096507996 -0.22577
-0.032191001 0.096578002 -0.225766
-0.032189 0.096648 -0.225751
-0.032187 0.096718997 -0.225741
-0.032184001 0.096789002 -0.22573499
-0.032182001 0.096860997 -0.225732
-0.032179002 0.096931003 -0.22573601
-0.032175999 0.097002998 -0.22572599
-0.032173999 0.097073004 -0.225714
-0.032171998 0.097142003 -0.22570901
-0.032168999 0.097212002 -0.225697
-0.032166999 0.097283997 -0.225685
-0.032164998 0.097354002 -0.225674
-0.032163002 0.097423002 -0.225664
-0.032159999 0.097494997 -0.225666
-0.032157 0.097566999 -0.225667
-0.032155 0.097636998 -0.22566099
-0.032152001 0.097707003 -0.225647
-0.032150999 0.097776003 -0.22562601
-0.032148998 0.097846001 -0.225604
-0.032147001 0.097915001 -0.22558799
-0.032145001 0.097984999 -0.22557899
-0.032141998 0.098054998 -0.225573
-0.032140002 0.098127 -0.225573
-0.032136999 0.098199002 -0.225568
-0.032134999 0.098268002 -0.225556
-0.032133002 0.098338 -0.22554
-0.032131001 0.098407999 -0.225521
-0.032129001 0.098475002 -0.225501
-0.032127 0.098546997 -0.22548699
-0.032125 0.098617002 -0.225482
-0.032122001 0.098687001 -0.225484
-0.032118998 0.098759003 -0.225484
-0.032116 0.098830998 -0.22548001
-0.032113999 0.098899998 -0.225475
-0.032111999 0.098970003 -0.225465
-0.032109 0.099041998 -0.22545899
-0.032106999 0.099111997 -0.22545201
-0.032104999 0.099180996 -0.22543
-0.032104 0.099248998 -0.225402
-0.032101002 0.099320002 -0.22539701
-0.032097999 0.099393003 -0.225409
-0.032095 0.099464998 -0.225411
-0.032093 0.099533997 -0.2254
-0.032090999 0.099604003 -0.225384
-0.032088999 0.099674001 -0.225374
-0.032086 0.099744 -0.225371
-0.032083001 0.099816002 -0.225365
-0.032081001 0.099885002 -0.22535899
-0.032078002 0.099956997 -0.225356
-0.032076001 0.100027 -0.225346
-0.032074001 0.100097 -0.22533201
-0.032072 0.100166 -0.225317
-0.03207 0.100236 -0.22530501
-0.032067001 0.100306 -0.22530299
-0.032063998 0.100378 -0.22530501
-0.032062002 0.10045 -0.22530399
-0.032058999 0.10052 -0.22529601
-0.032056998 0.100589 -0.22529
-0.032054 0.100661 -0.225289
-0.032051001 0.100731 -0.22528499
-0.032049 0.100803 -0.225283
-0.032046001 0.100873 -0.225284
-0.032042999 0.100945 -0.225284
-0.03204 0.101017 -0.22529
-0.032037001 0.101089 -0.22529399
-0.032033999 0.101161 -0.225299
-0.032031 0.101233 -0.225299
-0.032028999 0.101301 -0.22528701
-0.032026999 0.101373 -0.22527599
-0.032024 0.101443 -0.22527599
-0.032021001 0.101515 -0.22527599
-0.032017998 0.101587 -0.22527801
-0.032015 0.101659 -0.22528701
-0.032012001 0.101731 -0.225297
-0.032009002 0.101803 -0.22530299
-0.032005999 0.101875 -0.225307
-0.032003 0.101947 -0.225308
-0.031998999 0.10202 -0.225324
-0.031996001 0.102094 -0.225336
-0.031993002 0.102166 -0.225336
-0.031989999 0.102238 -0.225347
-0.031985998 0.102312 -0.225365
-0.031982999 0.102384 -0.225371
-0.03198 0.102456 -0.225375
-0.031975999 0.102529 -0.22539
-0.031973001 0.102603 -0.2254
-0.031969 0.102675 -0.22541399
-0.031964999 0.10275 -0.22543401
-0.031961001 0.102824 -0.225463
-0.031957 0.102901 -0.22549701
-0.031952001 0.102975 -0.225521
-0.031948999 0.10305 -0.225537
-0.031945001 0.103124 -0.225559
-0.031941 0.103199 -0.225583
-0.031936999 0.103273 -0.22561
-0.031932 0.10335 -0.225646
-0.031927001 0.103427 -0.225686
-0.031923 0.103504 -0.22571599
-0.031918999 0.103578 -0.225734
-0.031915002 0.103652 -0.22576
-0.031909999 0.103729 -0.225793
-0.031906001 0.103806 -0.225821
-0.0319 0.103883 -0.225869
-0.031893998 0.103964 -0.225933
-0.031888999 0.104043 -0.225977
-0.031883001 0.104124 -0.226035
-0.031877 0.104204 -0.22609299
-0.03187 0.104285 -0.226171
-0.031863999 0.104369 -0.226245
-0.032455999 0.085859999 -0.226878
-0.032457002 0.085928001 -0.226799
-0.032458 0.086001001 -0.22672699
-0.032458 0.086070001 -0.226671
-0.032458 0.086139999 -0.226612
-0.032458 0.086211003 -0.22655199
-0.032458 0.086280003 -0.226501
-0.032457002 0.086351 -0.226459
-0.032455999 0.086421996 -0.22641499
-0.032455999 0.086493 -0.226366
-0.032455001 0.086562 -0.226322
-0.032453999 0.086632997 -0.22628801
-0.032453001 0.086704001 -0.226245
-0.032453001 0.086773001 -0.22619499
-0.032451998 0.086843997 -0.22616699
-0.032449 0.086914003 -0.226156
-0.032446999 0.086984999 -0.226146
-0.032444999 0.087054998 -0.22613201
-0.032442998 0.087127 -0.22611301
-0.032441001 0.087196 -0.226099
-0.032439001 0.087268002 -0.226079
-0.032437999 0.087337002 -0.22605599
-0.032435998 0.087408997 -0.22603799
-0.032434002 0.087477997 -0.226008
-0.032434002 0.087549001 -0.22596499
-0.032432999 0.087618001 -0.22592901
-0.032430999 0.087687999 -0.225913
-0.032430001 0.087759003 -0.22588
-0.032428 0.087828003 -0.225844
-0.032427002 0.087899998 -0.225824
-0.032425001 0.087970003 -0.22580899
-0.032423001 0.088039003 -0.22579101
-0.032421 0.088110998 -0.225771
-0.032419 0.088179998 -0.22575
-0.032418001 0.088252001 -0.22572599
-0.032416001 0.088321 -0.225706
-0.032412998 0.088390999 -0.225701
-0.032411002 0.088463001 -0.22569899
-0.032407999 0.088532999 -0.22568899
-0.032405999 0.088604003 -0.225677
-0.032404002 0.088674001 -0.225666
-0.032400999 0.088744 -0.22566
-0.032398999 0.088816002 -0.225648
-0.032396998 0.088885002 -0.225641
-0.032393999 0.088956997 -0.225637
-0.032391999 0.089027002 -0.22562701
-0.032389 0.089097001 -0.225624
-0.032387 0.089169003 -0.22562
-0.032384001 0.089239001 -0.225612
-0.032382 0.089309998 -0.22559901
-0.03238 0.089380004 -0.225593
-0.032377001 0.089450002 -0.22559699
-0.032373998 0.089521997 -0.22559699
-0.032370999 0.089592002 -0.22559801
-0.032368001 0.089663997 -0.225604
-0.032365002 0.089734003 -0.22561
-0.032361999 0.089805998 -0.22561499
-0.032359 0.089876004 -0.225619
-0.032357 0.089947999 -0.225613
-0.032354999 0.090017997 -0.2256
-0.032352 0.090088002 -0.225594
-0.032349002 0.090159997 -0.225594
-0.032345999 0.090232 -0.22559801
-0.032343 0.090301998 -0.225603
-0.032341 0.090374 -0.225601
-0.032338001 0.090443999 -0.225601
-0.032334 0.090513997 -0.225618
-0.032331001 0.090585999 -0.22563
-0.032327998 0.090658002 -0.22562601
-0.032325 0.090728 -0.225628
-0.032322001 0.090801001 -0.225649
-0.032318 0.090870999 -0.22566099
-0.032315001 0.090943001 -0.22566301
-0.032311998 0.091015004 -0.225676
-0.032308999 0.091086999 -0.225688
-0.032306001 0.091156997 -0.22568201
-0.032303002 0.091227002 -0.225688
-0.032299001 0.091300003 -0.225703
-0.032295998 0.091371998 -0.22570699
-0.032294001 0.091444001 -0.22570901
-0.032290999 0.091513999 -0.225712
-0.032288 0.091583997 -0.22570799
-0.032285001 0.091655999 -0.225714
-0.032281999 0.091728002 -0.22572801
-0.032278001 0.091799997 -0.22573701
-0.032274999 0.091870002 -0.225743
-0.032272 0.091941997 -0.22575299
-0.032269001 0.092014998 -0.225759
-0.032265998 0.092084996 -0.22576
-0.032263 0.092156 -0.225758
-0.032260001 0.092226997 -0.22577199
-0.032257002 0.092298999 -0.22578301
-0.032253999 0.092371002 -0.22578099
-0.032251 0.092441 -0.22578301
-0.032248002 0.092513002 -0.22578301
-0.032244999 0.092583001 -0.225784
-0.032242 0.092655003 -0.22578999
-0.032239001 0.092726998 -0.225798
-0.032235999 0.092797004 -0.225805
-0.032233 0.092868999 -0.22581699
-0.032230001 0.092941999 -0.225823
-0.032226998 0.093011998 -0.225825
-0.032224 0.093084 -0.225832
-0.032221001 0.093156002 -0.22583599
-0.032218002 0.093227997 -0.22583599
-0.032214999 0.093296997 -0.22582901
-0.032212999 0.093367003 -0.22582901
-0.032209001 0.093440004 -0.22583701
-0.032207001 0.093511999 -0.225839
-0.032203998 0.093584001 -0.22584
-0.032201 0.093653999 -0.225842
-0.032198001 0.093725003 -0.22583801
-0.032196 0.093795002 -0.225833
-0.032193001 0.093866996 -0.225839
-0.032189 0.093939997 -0.225853
-0.032186002 0.094012 -0.225857
-0.032182999 0.094081998 -0.22586
-0.032180998 0.094154 -0.22585601
-0.032179002 0.094223 -0.22584
-0.032175999 0.094295003 -0.225839
-0.032171998 0.094366997 -0.225853
-0.032170001 0.094437003 -0.22584701
-0.032168001 0.094507001 -0.22583801
-0.032164998 0.094578996 -0.225842
-0.032161999 0.094650999 -0.225842
-0.032159999 0.094720997 -0.225832
-0.032157999 0.094789997 -0.22581699
-0.032155 0.094861999 -0.22581699
-0.032150999 0.094935 -0.225841
-0.032148 0.095007002 -0.22585
-0.032145999 0.095077001 -0.22583599
-0.032143001 0.095149003 -0.225832
-0.032140002 0.095220998 -0.22584
-0.032136999 0.095291004 -0.225835
-0.032134999 0.095360003 -0.225825
-0.032132 0.095431998 -0.22581901
-0.032129999 0.095501997 -0.225816
-0.032127 0.095573999 -0.225812
-0.032125 0.095643997 -0.225804
-0.032122001 0.095716 -0.225797
-0.032120001 0.095785998 -0.225797
-0.032117002 0.095858 -0.225797
-0.032113999 0.095927 -0.22579101
-0.032111999 0.095999002 -0.22578
-0.032109998 0.096069001 -0.22576
-0.032108001 0.096138 -0.225748
-0.032104999 0.096210003 -0.225751
-0.032102998 0.096280001 -0.22574501
-0.032099999 0.096349999 -0.22573701
-0.032097001 0.096422002 -0.225742
-0.032095 0.096493997 -0.22574
-0.032093 0.096564002 -0.225722
-0.032090999 0.096633002 -0.225703
-0.032088999 0.096703 -0.225695
-0.032086 0.096775003 -0.225693
-0.032083001 0.096846998 -0.225696
-0.032079998 0.096917003 -0.225692
-0.032078002 0.096986003 -0.225678
-0.032076001 0.097056001 -0.225669
-0.032074001 0.097127996 -0.22566301
-0.032071002 0.097198002 -0.225657
-0.032069001 0.097269997 -0.225651
-0.032065999 0.097338997 -0.225642
-0.032063998 0.097409002 -0.225632
-0.032062002 0.097479001 -0.22561599
-0.032060001 0.097548001 -0.225601
-0.032056998 0.097620003 -0.225601
-0.032054 0.097691998 -0.225603
-0.032051999 0.097762004 -0.2256
-0.032049 0.097833999 -0.22559001
-0.032047 0.097903997 -0.225578
-0.032044999 0.097971 -0.22556099
-0.032042999 0.098043002 -0.22555099
-0.032040998 0.098113 -0.225541
-0.032039002 0.098182 -0.22553
-0.032035999 0.098254003 -0.22552399
-0.032033999 0.098324001 -0.225512
-0.032032002 0.098393001 -0.22548901
-0.032031 0.098461002 -0.225465
-0.032028999 0.098532997 -0.225453
-0.032026 0.098601997 -0.225446
-0.032024 0.098672003 -0.225444
-0.032021001 0.098743998 -0.225448
-0.032017998 0.098816 -0.225446
-0.032015 0.098885998 -0.225439
-0.032012999 0.098958001 -0.225435
-0.032010999 0.099026002 -0.225421
-0.032009002 0.099095002 -0.225398
-0.032007001 0.099165 -0.22539
-0.032003999 0.099237002 -0.225394
-0.032001 0.099308997 -0.22538701
-0.031998999 0.099376 -0.225371
-0.031996999 0.099448003 -0.22535899
-0.031994998 0.099518001 -0.225352
-0.031992 0.099587999 -0.225346
-0.031989999 0.099660002 -0.225338
-0.031987999 0.099729002 -0.22533099
-0.031985998 0.099799 -0.225315
-0.031984001 0.099868998 -0.225301
-0.031980999 0.099937998 -0.22529
-0.031978998 0.100008 -0.225288
-0.031975999 0.10008 -0.22529399
-0.031973001 0.100152 -0.225292
-0.031971 0.100222 -0.225279
-0.031969 0.100292 -0.225265
-0.031966001 0.100361 -0.22525901
-0.031962998 0.100433 -0.22526
-0.031961001 0.100503 -0.225256
-0.031959001 0.100573 -0.225236
-0.031957999 0.10064 -0.22521099
-0.031955 0.100712 -0.225207
-0.031952001 0.100784 -0.225219
-0.031948 0.100857 -0.225234
-0.031945001 0.100929 -0.22524001
-0.031941999 0.101001 -0.225242
-0.031939998 0.101071 -0.225236
-0.031936999 0.101142 -0.225227
-0.031934001 0.101212 -0.225229
-0.031931002 0.101287 -0.225243
-0.031927001 0.101359 -0.225262
-0.031923998 0.101431 -0.22526599
-0.031922001 0.101503 -0.225256
-0.031920001 0.101573 -0.225246
-0.031916998 0.101643 -0.225245
-0.031913999 0.101715 -0.225253
-0.031911001 0.101787 -0.22525901
-0.031907 0.101861 -0.225269
-0.031904001 0.101933 -0.22527801
-0.031900998 0.102005 -0.225282
-0.031897999 0.102077 -0.225292
-0.031895 0.102149 -0.225293
-0.031892002 0.102222 -0.225301
-0.031888001 0.102294 -0.225315
-0.031885002 0.102366 -0.22532301
-0.031881001 0.10244 -0.225336
-0.031877998 0.102512 -0.22535001
-0.031874001 0.102587 -0.225366
-0.031870998 0.102659 -0.22537801
-0.031868 0.102731 -0.22538801
-0.031863 0.102808 -0.225411
-0.031860001 0.102882 -0.22543301
-0.031856 0.102957 -0.225453
-0.031851999 0.103029 -0.22546899
-0.031847998 0.103103 -0.22548699
-0.031844001 0.103178 -0.225508
-0.03184 0.103252 -0.225538
-0.031835001 0.103331 -0.225576
-0.031831 0.103406 -0.22560801
-0.031826999 0.10348 -0.22563399
-0.031822 0.103557 -0.22566199
-0.031817 0.103634 -0.22570699
-0.031812001 0.103715 -0.225757
-0.031806 0.103792 -0.22580101
-0.031803001 0.103864 -0.225815
-0.031799 0.103938 -0.22582699
-0.031794 0.104017 -0.225877
-0.031787999 0.104099 -0.22593901
-0.031783 0.104178 -0.225981
-0.031775001 0.104262 -0.22606701
-0.032347001 0.085995004 -0.226705
-0.032347001 0.086062998 -0.226652
-0.032347001 0.086134002 -0.226592
-0.032345999 0.086204998 -0.226541
-0.032345999 0.086273998 -0.226493
-0.032345999 0.086345002 -0.22644299
-0.032345999 0.086415 -0.22638801
-0.032345001 0.086485997 -0.226346
-0.032343 0.086556002 -0.226322
-0.032341 0.086626999 -0.226301
-0.032340001 0.086699001 -0.226271
-0.032338999 0.086768001 -0.22623301
-0.032338001 0.086838998 -0.226198
-0.032336 0.086907998 -0.22617599
-0.032334998 0.08698 -0.226154
-0.032333001 0.087049 -0.226137
-0.032331001 0.087121002 -0.226117
-0.032329001 0.087190002 -0.226089
-0.032327998 0.087261997 -0.226068
-0.032326002 0.087330997 -0.22605
-0.032324001 0.087402999 -0.226028
-0.032322001 0.087471999 -0.226005
-0.032320999 0.087544002 -0.22597501
-0.03232 0.087613001 -0.22594699
-0.032318 0.087682001 -0.22591799
-0.032318 0.087752998 -0.225876
-0.032317001 0.087821998 -0.225834
-0.032315001 0.087894 -0.22580899
-0.032313 0.087963998 -0.22579899
-0.032311 0.088032998 -0.225793
-0.032308001 0.088105001 -0.225784
-0.032306001 0.088174999 -0.225768
-0.032304 0.088246003 -0.22575399
-0.032302 0.088316001 -0.225741
-0.032299999 0.088385999 -0.225729
-0.032297999 0.088458002 -0.22571699
-0.032295 0.088527001 -0.225704
-0.032292999 0.088598996 -0.22569001
-0.032290999 0.088669002 -0.22568201
-0.032288998 0.088738002 -0.225674
-0.032286 0.088809997 -0.22566301
-0.032283999 0.088880002 -0.22565299
-0.032281 0.088951997 -0.225657
-0.032278001 0.089022003 -0.225664
-0.032274999 0.089093998 -0.225658
-0.032274 0.089162998 -0.22563601
-0.032272 0.089233004 -0.225619
-0.032269001 0.089304999 -0.225629
-0.032265 0.089374997 -0.22564299
-0.032263 0.089446999 -0.225639
-0.032260001 0.089516997 -0.225628
-0.032258 0.089589 -0.22562601
-0.032255001 0.089658998 -0.225628
-0.032251999 0.089731 -0.22562701
-0.032249 0.089800999 -0.225629
-0.032246001 0.089873001 -0.225633
-0.032242998 0.089942999 -0.22564
-0.03224 0.090015002 -0.225642
-0.032237001 0.090085 -0.225642
-0.032235 0.090154998 -0.22564
-0.032232001 0.090227 -0.225637
-0.032230001 0.090296999 -0.225633
-0.032226998 0.090368003 -0.225621
-0.032225002 0.090438999 -0.225624
-0.032221001 0.090511002 -0.225642
-0.032218002 0.090582997 -0.22565199
-0.032214999 0.090653002 -0.225651
-0.032210998 0.090724997 -0.225665
-0.032207999 0.090796001 -0.225677
-0.032205001 0.090866998 -0.225677
-0.032202002 0.090939999 -0.225684
-0.032198999 0.091009997 -0.225692
-0.032196 0.091081999 -0.22570001
-0.032193001 0.091151997 -0.22570799
-0.032189 0.091224 -0.22571699
-0.032186002 0.091296002 -0.225725
-0.032182999 0.091366 -0.225725
-0.032180998 0.091438003 -0.22572599
-0.032177001 0.091508001 -0.225734
-0.032173999 0.091581002 -0.225738
-0.032171 0.091652997 -0.225748
-0.032168001 0.091723002 -0.225767
-0.032164 0.091794997 -0.225775
-0.032161001 0.091867 -0.22578099
-0.032157999 0.091936998 -0.22578999
-0.032155 0.092009 -0.22578999
-0.032152001 0.092081003 -0.22578999
-0.032148998 0.092151001 -0.225794
-0.032145999 0.092224002 -0.225803
-0.032143999 0.092294 -0.225803
-0.032141 0.092366003 -0.22580101
-0.032136999 0.092437997 -0.225816
-0.032134 0.09251 -0.22582801
-0.032131001 0.092579998 -0.225824
-0.032129001 0.092652 -0.225822
-0.032125998 0.092721999 -0.22582699
-0.032122999 0.092794001 -0.22582699
-0.032120001 0.092866004 -0.225835
-0.032116 0.092937998 -0.22584499
-0.032113001 0.093007997 -0.22585
-0.032111 0.093079999 -0.22583801
-0.032109 0.093149997 -0.22581799
-0.032106001 0.093222 -0.22583701
-0.032102 0.093294002 -0.22586299
-0.032099001 0.093364999 -0.225869
-0.032095 0.093437001 -0.22587299
-0.032092001 0.093509004 -0.225878
-0.032090001 0.09358 -0.22587
-0.032088 0.093649998 -0.225862
-0.032085001 0.093719997 -0.225859
-0.032081999 0.093791999 -0.225861
-0.032079 0.093864001 -0.22587501
-0.032076001 0.093937002 -0.225881
-0.032072999 0.094006002 -0.225876
-0.032071002 0.094077997 -0.22587
-0.032067999 0.094148003 -0.22587401
-0.032063998 0.094221003 -0.225887
-0.032060999 0.094292 -0.225885
-0.032058999 0.094361998 -0.225877
-0.032056998 0.094434001 -0.225872
-0.032054 0.094506003 -0.22587401
-0.032049999 0.094576001 -0.225888
-0.032047 0.094649002 -0.225896
-0.032044999 0.094719999 -0.225889
-0.032042 0.094789997 -0.225885
-0.032039002 0.094861999 -0.225881
-0.032037001 0.094931997 -0.22588199
-0.032033999 0.095004 -0.225878
-0.032032002 0.095073998 -0.22587
-0.032028999 0.095146 -0.225868
-0.032026 0.095215999 -0.22586299
-0.032024 0.095287003 -0.22585499
-0.032021999 0.095357001 -0.225849
-0.032019001 0.095429003 -0.22585
-0.032016002 0.095499001 -0.22584599
-0.032014001 0.095570996 -0.225834
-0.032010999 0.095641002 -0.225831
-0.032009002 0.095712997 -0.22582699
-0.032005999 0.095781997 -0.225821
-0.032003999 0.095853999 -0.225813
-0.032001998 0.095923997 -0.22579999
-0.031998999 0.095994003 -0.225794
-0.031996999 0.096065998 -0.22579201
-0.031994 0.096134998 -0.225789
-0.031991001 0.096207 -0.225789
-0.031989001 0.096279003 -0.225785
-0.031985998 0.096349001 -0.225776
-0.031984001 0.096418999 -0.225768
-0.031980999 0.096491002 -0.22576401
-0.031978998 0.096561 -0.225757
-0.031975999 0.096631996 -0.225751
-0.031973999 0.096702002 -0.225749
-0.031971 0.096773997 -0.225747
-0.031969 0.096844003 -0.225742
-0.031966001 0.096915998 -0.225738
-0.031962998 0.096986003 -0.225734
-0.031961001 0.097057998 -0.225721
-0.031959001 0.097126998 -0.22570699
-0.031957 0.097197004 -0.225703
-0.031954002 0.097267002 -0.225694
-0.031952001 0.097338997 -0.22568201
-0.031950001 0.097407997 -0.225674
-0.031947002 0.097479999 -0.225669
-0.031945001 0.097549997 -0.225665
-0.031941999 0.097620003 -0.225665
-0.031939998 0.097691998 -0.22565
-0.031938002 0.097759001 -0.225628
-0.031936001 0.097831003 -0.22561599
-0.031934001 0.097901002 -0.225609
-0.031931002 0.097971 -0.22560699
-0.031927999 0.098041996 -0.22559901
-0.031927001 0.098112002 -0.22557899
-0.031925 0.098182 -0.225566
-0.031922001 0.098251 -0.225558
-0.031920001 0.098320998 -0.22555
-0.031918 0.098393001 -0.22553299
-0.031916 0.098459996 -0.22551499
-0.031913999 0.098531999 -0.225509
-0.031911001 0.098601997 -0.225504
-0.031909 0.098672003 -0.225486
-0.031907 0.098741002 -0.22546799
-0.031904999 0.098811001 -0.225453
-0.031902999 0.09888 -0.225437
-0.031900998 0.098952003 -0.225437
-0.031897001 0.099023998 -0.225446
-0.031895 0.099096 -0.225444
-0.031892002 0.099165998 -0.225436
-0.031890001 0.099235997 -0.225419
-0.031888001 0.099304996 -0.225403
-0.031886999 0.099372998 -0.22538701
-0.031885002 0.099443004 -0.225366
-0.031884 0.099509999 -0.225338
-0.031881001 0.099582002 -0.225324
-0.031877998 0.099653997 -0.22533301
-0.031874999 0.099724002 -0.225339
-0.031872999 0.099794999 -0.225327
-0.031870998 0.099863 -0.22531
-0.031868 0.099935003 -0.225306
-0.031865001 0.100007 -0.22531401
-0.031863 0.100077 -0.225309
-0.031860001 0.100149 -0.22530501
-0.031856999 0.100219 -0.22530299
-0.031856 0.100288 -0.22528499
-0.031853002 0.100358 -0.22527599
-0.031849999 0.10043 -0.225282
-0.031847998 0.100502 -0.22527801
-0.031845 0.100572 -0.225271
-0.031842999 0.100642 -0.225263
-0.031840999 0.100711 -0.225253
-0.031838 0.100783 -0.22524799
-0.031835001 0.100853 -0.22525001
-0.031831998 0.100925 -0.22525001
-0.031829 0.100997 -0.225256
-0.031826001 0.101069 -0.225265
-0.031823002 0.101142 -0.225269
-0.031819999 0.101214 -0.225269
-0.031817999 0.101283 -0.22526801
-0.031815 0.101355 -0.225264
-0.031812001 0.101425 -0.22525799
-0.031810001 0.101497 -0.225256
-0.031807002 0.101567 -0.225255
-0.031803999 0.101639 -0.225255
-0.031801 0.101711 -0.225255
-0.031799 0.101781 -0.225254
-0.031794999 0.101855 -0.225262
-0.031792 0.101927 -0.22526801
-0.031789001 0.101999 -0.22528
-0.031785998 0.102072 -0.225289
-0.031783 0.102144 -0.22529501
-0.031780001 0.102216 -0.225297
-0.031776998 0.102288 -0.225297
-0.031773999 0.10236 -0.225308
-0.031769998 0.102434 -0.225326
-0.031766001 0.102506 -0.225336
-0.031762999 0.102579 -0.225348
-0.031759001 0.102653 -0.225375
-0.031755 0.102728 -0.22539499
-0.031752001 0.102802 -0.225407
-0.031748001 0.102874 -0.225425
-0.031744 0.102951 -0.22545099
-0.031739999 0.103025 -0.225474
-0.031736001 0.103098 -0.225492
-0.031732 0.103172 -0.225508
-0.031727999 0.103248 -0.22553401
-0.031723 0.103325 -0.225568
-0.031718999 0.1034 -0.225596
-0.031714998 0.103474 -0.225623
-0.031709999 0.103551 -0.225657
-0.031706002 0.103628 -0.225693
-0.031700999 0.103704 -0.225719
-0.031697001 0.103779 -0.22575299
-0.031691998 0.103858 -0.225797
-0.031686999 0.103935 -0.225839
-0.031682 0.104014 -0.225881
-0.031676002 0.104093 -0.225926
-0.031670999 0.104172 -0.225986
-0.032047998 0.088019997 -0.22576
-0.032046001 0.088091001 -0.225734
-0.032044001 0.088160999 -0.225715
-0.032042 0.088232003 -0.225701
-0.032039002 0.088302001 -0.22569899
-0.032037001 0.088372 -0.225696
-0.032035001 0.088444002 -0.225676
-0.032033 0.088513002 -0.225658
-0.032030001 0.088584997 -0.225655
-0.032028001 0.088655002 -0.22564501
-0.032026 0.088725001 -0.225631
-0.032023001 0.088795997 -0.225632
-0.032019999 0.088867001 -0.22564
-0.032017998 0.088937998 -0.225628
-0.032016002 0.089008003 -0.225603
-0.032014001 0.089078002 -0.225595
-0.032010999 0.089149997 -0.22560699
-0.032007001 0.089220002 -0.225619
-0.032005001 0.089291997 -0.225618
-0.032001998 0.089362003 -0.225614
-0.032000002 0.089432001 -0.22560599
-0.031996999 0.089502998 -0.225595
-0.031994998 0.089573003 -0.225591
-0.031991001 0.089644998 -0.225603
-0.031987999 0.089717999 -0.22561701
-0.031985 0.089787997 -0.22562601
-0.031982001 0.08986 -0.225632
-0.031978998 0.089929998 -0.225638
-0.031975999 0.090002 -0.225637
-0.031973999 0.090071999 -0.225629
-0.031971 0.090141997 -0.22562499
-0.031968001 0.090213999 -0.22563
-0.031964999 0.090286002 -0.22563399
-0.031962 0.090356 -0.225632
-0.031959001 0.090428002 -0.225632
-0.031955998 0.090498 -0.225639
-0.031953 0.090570003 -0.225657
-0.031948999 0.090640001 -0.225667
-0.031947002 0.090712003 -0.22566999
-0.031943001 0.090784997 -0.22567999
-0.031939998 0.090855002 -0.225684
-0.031938002 0.090926997 -0.22567999
-0.031934999 0.090997003 -0.225685
-0.031931002 0.091068998 -0.225697
-0.031927999 0.091141 -0.225705
-0.031925 0.091210999 -0.22571599
-0.031922001 0.091283001 -0.22572599
-0.031918 0.091356002 -0.22573601
-0.031915002 0.091426 -0.225748
-0.031911999 0.091498002 -0.22575299
-0.031909 0.091568001 -0.225747
-0.031907 0.091640003 -0.225749
-0.031902999 0.091711998 -0.22576
-0.0319 0.091782004 -0.22576
-0.031897001 0.091853999 -0.225768
-0.031893998 0.091926001 -0.225784
-0.031890001 0.091996998 -0.225797
-0.031886999 0.092069 -0.22580101
-0.031884 0.092141002 -0.22580101
-0.031881999 0.092211001 -0.225798
-0.031879 0.092283003 -0.22579999
-0.031876002 0.092353001 -0.225806
-0.031872999 0.092425004 -0.225816
-0.031869002 0.092496999 -0.22582699
-0.031865999 0.092569001 -0.225839
-0.031863 0.092638999 -0.22584499
-0.031860001 0.092711002 -0.22583701
-0.031858001 0.092781 -0.22582801
-0.031854998 0.092853002 -0.22582801
-0.031851999 0.092924997 -0.22584
-0.031849001 0.092995003 -0.225849
-0.031846002 0.093066998 -0.225851
-0.031842999 0.093139 -0.225849
-0.03184 0.093211003 -0.225857
-0.031837001 0.093281999 -0.225868
-0.031833999 0.093354002 -0.22587401
-0.031830002 0.093425997 -0.22588401
-0.031826999 0.093496002 -0.22589099
-0.031824999 0.093567997 -0.225887
-0.031822 0.09364 -0.225889
-0.031819001 0.093709998 -0.225887
-0.031815998 0.093782 -0.22588199
-0.031814002 0.093851998 -0.22588
-0.031810999 0.093924001 -0.225888
-0.031807002 0.093996003 -0.225899
-0.031803999 0.094067998 -0.22590099
-0.031801999 0.094137996 -0.225899
-0.031799 0.094209999 -0.225889
-0.031796999 0.094279997 -0.225886
-0.031794 0.094351999 -0.225888
-0.031791002 0.094420999 -0.22588199
-0.031789001 0.094493002 -0.225871
-0.031785998 0.094563 -0.225877
-0.031783 0.094636999 -0.22589099
-0.031780001 0.094706997 -0.22589099
-0.031776998 0.094777003 -0.225888
-0.031775001 0.094848998 -0.225876
-0.031773001 0.094919004 -0.22587
-0.031769998 0.094990999 -0.225869
-0.031767 0.095063001 -0.22587299
-0.031764001 0.095132999 -0.22587501
-0.031762 0.095205002 -0.22586
-0.03176 0.095274001 -0.225848
-0.031757001 0.095345996 -0.22585399
-0.031753998 0.095416002 -0.22585601
-0.031750999 0.095487997 -0.225853
-0.031748999 0.095558003 -0.225839
-0.031746998 0.095628001 -0.225825
-0.031744 0.095700003 -0.225826
-0.031741001 0.095771998 -0.22582801
-0.031739 0.095840998 -0.22582
-0.031736001 0.095913 -0.225813
-0.031734001 0.095982999 -0.225811
-0.031730998 0.096055001 -0.225807
-0.031729002 0.096124999 -0.225804
-0.031725999 0.096197002 -0.22579999
-0.031723 0.096267 -0.225794
-0.031721 0.096337996 -0.22578999
-0.031718999 0.096408002 -0.22578099
-0.031716999 0.096478 -0.22576299
