-0.0526644 0.12407 0.990875 0.0114927
-0.0508586 0.111742 0.992435 0.00525001
-0.0494443 0.104675 0.993277 0
-0.048128 0.100624 0.99376 0
-0.0493986 0.110815 0.992613 0
-0.0501063 0.12411 0.991003 0
-0.0514348 0.139055 0.988948 0
-0.0519194 0.159751 0.985791 0
-0.051822 0.166115 0.984744 0.000397241
-0.0506246 0.173075 0.983607 0
-0.0507479 0.188512 0.980759 0
-0.0497729 0.196935 0.979152 0
-0.0511556 0.216842 0.974866 0
-0.0509419 0.217321 0.97477 0
-0.0531735 0.221589 0.973689 0
-0.0576995 0.240523 0.968927 0
-0.0572901 0.24464 0.96792 0
-0.0578837 0.254612 0.965309 0
-0.05375 0.233469 0.970877 0
-0.0778488 -0.310947 0.947234 0.039323
-0.0778205 -0.310576 0.947358 0.0469881
-0.0840142 -0.321174 0.943286 0.0689549
-0.081691 -0.303417 0.94935 0.0662724
-0.0846192 -0.308669 0.947398 0.0828318
-0.0867897 -0.302945 0.949048 0.0885251
-0.0870559 -0.293138 0.952098 0.0932191
-0.0854575 -0.275399 0.957524 0.0927718
-0.0806457 -0.251506 0.96449 0.0792346
-0.0806622 -0.247052 0.965639 0.0768838
-0.0797686 -0.247106 0.9657 0.0691385
-0.0766556 -0.240725 0.967561 0.0564732
-0.0746815 -0.237029 0.968628 0.0487226
-0.0720991 -0.225678 0.97153 0.0393711
-0.0692557 -0.207603 0.975759 0.0289491
-0.0684463 -0.198601 0.977687 0.029174
-0.0674503 -0.191469 0.979178 0.0282458
-0.0660434 -0.190145 0.979532 0.02387
-0.0664007 -0.183892 0.980701 0.0245207
-0.0665591 -0.18034 0.98135 0.0242016
-0.06596 -0.181481 0.98118 0.0223249
-0.064644 -0.17901 0.981721 0.0188646
-0.0643135 -0.187852 0.98009 0.0196441
-0.0647846 -0.183517 0.980879 0.0201156
-0.0642918 -0.179014 0.981744 0.0166158
-0.0630678 -0.17684 0.982217 0.0117777
-0.0620123 -0.168275 0.983788 0.00981275
-0.0602855 -0.159306 0.985387 0.00306257
-0.0600946 -0.150912 0.986719 0.00762262
-0.0598407 -0.14741 0.987264 0.00768412
-0.0597452 -0.147194 0.987302 0.005711
-0.0595779 -0.145174 0.987611 0.0047656
-0.0590446 -0.143846 0.987837 0.00230549
-0.0585677 -0.142579 0.988049 0
-0.0576108 -0.142251 0.988153 0
-0.0570269 -0.147505 0.987416 0
-0.0566368 -0.150592 0.986972 0
-0.0560654 -0.141292 0.988379 0
-0.0561146 -0.135815 0.989144 0
-0.05618 -0.132465 0.989594 0
-0.0565725 -0.129203 0.990003 0
-0.0561408 -0.128858 0.990073 0
-0.0560858 -0.121996 0.990945 0
-0.0548407 -0.116863 0.991633 0.00369982
-0.0545641 -0.119035 0.99139 0.0056646
-0.0557627 -0.119978 0.991209 0.0100521
-0.0559523 -0.120923 0.991084 0.00860414
-0.0540293 -0.118318 0.991505 0.00117925
-0.0545262 -0.113667 0.992022 0.00573708
-0.0545797 -0.10559 0.992911 0.00588521
-0.0542712 -0.0987979 0.993626 0.00917866
-0.0533839 -0.0884406 0.99465 0.00853138
-0.0532631 -0.0886598 0.994637 0.00934264
-0.0554323 -0.0848472 0.994851 0.018343
-0.0564361 -0.0821738 0.995019 0.0214487
-0.0562513 -0.0749831 0.995597 0.0292547
-0.058687 -0.0714165 0.995719 0.0411099
-0.0570385 -0.0724055 0.995743 0.0366342
-0.0584426 -0.0686661 0.995926 0.0428919
-0.0592574 -0.0630372 0.99625 0.0501563
-0.0625877 -0.0561953 0.996456 0.0608181
-0.062967 -0.0488149 0.996821 0.0625072
-0.0621962 -0.048305 0.996894 0.0597832
-0.0616675 -0.0435338 0.997147 0.0612824
-0.0615803 -0.0387589 0.997349 0.0652315
-0.06054 -0.0364382 0.9975 0.0625012
-0.0613555 -0.031872 0.997607 0.0625978
-0.0630316 -0.0270423 0.997645 0.0637831
-0.0597928 -0.0293113 0.99778 0.0516691
-0.0575652 -0.0261656 0.997999 0.0422405
-0.0569448 -0.0242787 0.998082 0.0364647
-0.056369 -0.0289449 0.99799 0.0330651
-0.0558755 -0.017478 0.998285 0.0378867
-0.055719 -0.012775 0.998365 0.0420535
-0.0542903 -0.00348096 0.998519 0.0420384
-0.0510427 -0.00392428 0.998689 0.0292013
-0.0513504 -0.000329153 0.998681 0.0272966
-0.0509308 -5.09193e-05 0.998702 0.0285915
-0.0511139 0.00443477 0.998683 0.0320529
-0.0500389 0.00287133 0.998743 0.0308251
-0.0477353 -0.00129062 0.998859 0.0228301
-0.0459974 0.00719992 0.998916 0.0173146
-0.0437023 0.00758255 0.999016 0.0108298
-0.0415449 0.00343845 0.999131 0.00399407
-0.0388705 -0.00293017 0.99924 0
-0.0366705 -0.00624278 0.999308 0
-0.0357494 -0.00171099 0.999359 0
-0.0357274 -0.00624935 0.999342 0
-0.034747 0.000318461 0.999396 0
-0.0331361 -0.00018116 0.999451 0
-0.0322807 -0.00248208 0.999476 0
-0.0316079 -0.00742355 0.999473 0
-0.0308919 -0.00866948 0.999485 0
-0.0299581 -0.00372643 0.999544 0
-0.0302704 -0.00237105 0.999539 0
-0.0284619 0.00045739 0.999595 0
-0.026813 -0.00151755 0.999639 0
-0.0275189 0.00322429 0.999616 0
-0.0280478 0.000355903 0.999607 0
-0.0281964 0.00243342 0.999599 0
-0.0304788 0.0123553 0.999459 0
-0.0337749 0.0230886 0.999163 0.00500035
-0.0402475 0.0390319 0.998427 0.037568
-0.0502533 0.0662084 0.99654 0.0686305
-0.060174 0.0932797 0.99382 0.0980046
-0.0710147 0.127171 0.989335 0.123936
-0.0802592 0.161905 0.983537 0.140418
-0.0884372 0.188317 0.978118 0.150501
-0.0989892 0.218991 0.970693 0.163168
-0.10822 0.237604 0.965315 0.173027
-0.117026 0.246887 0.961952 0.182371
-0.118001 0.238683 0.963902 0.183362
-0.11543 0.224451 0.967625 0.179999
-0.111218 0.213498 0.970592 0.173879
-0.106283 0.198715 0.974277 0.168317
-0.0999842 0.188633 0.976945 0.166111
-0.0935044 0.16663 0.981576 0.16223
-0.0872907 0.140238 0.986262 0.154744
-0.0817891 0.128544 0.988325 0.146145
-0.0764394 0.117622 0.990112 0.137926
-0.0724718 0.110833 0.991193 0.131216
-0.0679619 0.101474 0.992514 0.120132
-0.0637089 0.0788638 0.994848 0.109075
-0.0606564 0.0706888 0.995652 0.0946863
-0.0561576 0.0547568 0.996919 0.080809
-0.0553598 0.0604901 0.996632 0.0742157
-0.0561017 0.0630641 0.996431 0.0736769
-0.0564954 0.0636903 0.996369 0.0760002
-0.0584451 0.0640929 0.996231 0.0801006
-0.0605648 0.0645522 0.996075 0.084452
-0.0650018 0.0782435 0.994813 0.0969261
-0.0685059 0.0807495 0.994377 0.106289
-0.0714148 0.0874108 0.993609 0.115644
-0.0744212 0.0900366 0.993154 0.119416
-0.0751209 0.0865548 0.993411 0.121508
-0.0733003 0.0827786 0.993869 0.119099
-0.0696983 0.0679597 0.995251 0.111768
-0.0663113 0.0667879 0.995561 0.108644
-0.0612184 0.049369 0.996903 0.103455
-0.0578322 0.0250854 0.998011 0.092406
-0.0533353 0.00380223 0.998569 0.0829611
-0.048784 -0.0119388 0.998738 0.0689351
-0.0410246 -0.0238304 0.998874 0.0465323
-0.0346804 -0.0364066 0.998735 0.0188947
-0.0299212 -0.0509371 0.998254 0
-0.0259911 -0.0655457 0.997511 0
-0.0223522 -0.0833437 0.99627 0
-0.0178884 -0.0902912 0.995755 0
-0.0159844 -0.098737 0.994985 0
-0.0148324 -0.0991286 0.994964 0
-0.0151132 -0.097178 0.995152 0
-0.0162996 -0.10001 0.994853 0
-0.0184221 -0.0991682 0.9949 0
-0.0226039 -0.0905723 0.995633 0.00195158
-0.0250697 -0.0878031 0.995822 0.0182902
-0.0286696 -0.073962 0.996849 0.0291588
-0.0307619 -0.0676849 0.997232 0.0342085
-0.0322214 -0.067791 0.997179 0.0354222
-0.0329432 -0.0678474 0.997152 0.0348045
-0.0345936 -0.0732016 0.996717 0.0283009
-0.0345381 -0.068696 0.99704 0.0201585
-0.0341928 -0.0649969 0.997299 0.0128112
-0.0337847 -0.0634911 0.99741 0.00790487
-0.0321058 -0.0690838 0.997094 0.00659368
-0.0309763 -0.0779671 0.996475 0.00994322
-0.0299438 -0.0765452 0.996616 0.00729804
-0.0295823 -0.0826988 0.996135 0.0106151
-0.0284822 -0.0741677 0.996839 0.0132484
-0.0258932 -0.0819402 0.996301 0.0115142
-0.0230678 -0.0933925 0.995362 0.00172372
-0.0225553 -0.099378 0.994794 0
-0.0225763 -0.101816 0.994547 0
-0.0218811 -0.102864 0.994455 0
-0.0217939 -0.105038 0.994229 0
-0.0211937 -0.11236 0.993442 0
-0.0213192 -0.116774 0.99293 0
-0.0213052 -0.13129 0.991115 0
-0.0200071 -0.12649 0.991766 0
-0.0175746 -0.123696 0.992165 0
-0.016766 -0.117856 0.992889 0
-0.0163827 -0.121186 0.992495 0
-0.0153752 -0.126095 0.991899 0
-0.0163378 -0.123335 0.992231 0
-0.0195657 -0.117755 0.99285 0
-0.0216421 -0.101827 0.994567 0
-0.0251519 -0.0913585 0.9955 0
-0.0281495 -0.0865319 0.995851 0
-0.0310305 -0.0777039 0.996493 0
-0.0325885 -0.0714494 0.996912 0.0012636
-0.034399 -0.0643376 0.997335 0.00982248
-0.0345041 -0.057241 0.997764 0.00893141
-0.0339936 -0.061878 0.997505 0.00972698
-0.035271 -0.0628628 0.997399 0.00722407
-0.0362775 -0.0638016 0.997303 0.00610581
-0.0368543 -0.0656166 0.997164 0.00888316
-0.0377049 -0.0633926 0.997276 0.00663905
-0.0380507 -0.0576327 0.997612 0.0015764
-0.0378134 -0.05708 0.997653 0
-0.038789 -0.0533581 0.997822 0
-0.0387485 -0.0456029 0.998208 0
-0.0391803 -0.0501264 0.997974 0
-0.0390254 -0.0418133 0.998363 0
-0.0372656 -0.0401663 0.998498 0
-0.0381244 -0.0373098 0.998576 0
-0.0382992 -0.043239 0.99833 0
-0.0379888 -0.043566 0.998328 0
-0.0379477 -0.0496059 0.998048 0
-0.0382978 -0.0471182 0.998155 0
-0.0388527 -0.038307 0.99851 0
-0.037491 -0.0406508 0.99847 0
-0.0360344 -0.0422875 0.998455 0
-0.0352704 -0.0407677 0.998546 0
-0.0337838 -0.0528281 0.998032 0
-0.0333204 -0.0550411 0.997928 0
-0.0327362 -0.0518949 0.998116 0
-0.0331909 -0.0489676 0.998249 0
-0.034123 -0.046346 0.998342 0
-0.0342444 -0.0545388 0.997924 0
-0.0331582 -0.0584168 0.997741 0
-0.0333112 -0.0539397 0.997988 0
-0.035208 -0.0462995 0.998307 0
-0.0352667 -0.0379615 0.998657 0
-0.0354909 -0.036351 0.998709 0
-0.0354 -0.0385971 0.998628 0
-0.035817 -0.0474102 0.998233 0
-0.0363916 -0.047533 0.998206 0
-0.037507 -0.0431906 0.998363 0
-0.0376208 -0.0420779 0.998406 0
-0.0378021 -0.038069 0.99856 0
-0.0390146 -0.037825 0.998522 0
-0.039783 -0.0300362 0.998757 0
-0.0386205 -0.041098 0.998408 0
-0.0397937 -0.0439125 0.998242 0
-0.0373216 -0.046164 0.998236 0
-0.0371004 -0.0469058 0.99821 0
-0.0361135 -0.0442118 0.998369 0
-0.0372957 -0.0397417 0.998514 0
-0.0368803 -0.0341535 0.998736 0
-0.0378349 -0.0292364 0.998856 0
-0.0411176 -0.0120985 0.999081 0
-0.0443347 -0.00225559 0.999014 0
-0.0465614 0.00988719 0.998866 0
-0.047321 0.0212305 0.998654 0.00647171
-0.0471558 0.0238736 0.998602 0.00531842
-0.0478144 0.0307897 0.998382 0.00830329
-0.0482621 0.0350674 0.998219 0.00626463
-0.0491168 0.0409284 0.997954 0.0103628
-0.0507011 0.0444933 0.997722 0.0136408
-0.0511298 0.0461696 0.997624 0.0132914
-0.0507994 0.059588 0.99693 0.0106171
-0.0503265 0.0655409 0.99658 0.00364475
-0.05046 0.0697296 0.996289 0.00117115
-0.0490208 0.0685858 0.99644 0
-0.0492726 0.071041 0.996256 0
-0.0491097 0.0755537 0.995932 0
-0.0492483 0.0850728 0.995157 0
-0.0496467 0.0916113 0.994556 0.00107957
-0.0520169 0.110414 0.992524 0.010411
-0.0528353 0.121775 0.991151 0.0134989
-0.0538773 0.126662 0.990482 0.0189875
-0.0541597 0.124825 0.990699 0.0218608
-0.0543203 0.130725 0.989929 0.0227041
-0.0528954 0.126814 0.990515 0.0188485
-0.0507276 0.117753 0.991746 0.0107884
-0.049498 0.117814 0.991801 0.00495825
-0.0493972 0.116559 0.991955 0
-0.0487538 0.110243 0.992708 0
-0.0477174 0.108695 0.992929 0
-0.047849 0.125589 0.990928 0
-0.0499424 0.143322 0.988415 0.000664998
-0.0520807 0.16261 0.985315 0.00568814
-0.0530534 0.179199 0.982381 0.0110569
-0.0516407 0.185265 0.981331 0
-0.0498138 0.186604 0.981171 0
-0.0498081 0.200315 0.978464 0
-0.0505509 0.22171 0.973801 0
-0.0512694 0.228515 0.972189 0
-0.0533534 0.23065 0.971573 0
-0.0551977 0.240275 0.969134 0.00258446
-0.0557708 0.253806 0.965646 0.00325359
-0.0552664 0.258548 0.964416 0.00125375
-0.0504119 0.240768 0.969273 0
-0.0743699 -0.311446 0.947349 0.0379178
-0.0755241 -0.308231 0.948309 0.0431749
-0.0786493 -0.298112 0.951285 0.0628346
-0.0817011 -0.310967 0.946902 0.0762354
-0.0821437 -0.306008 0.948479 0.0827373
-0.0838285 -0.309668 0.947142 0.0918678
-0.0871431 -0.303016 0.948993 0.098694
-0.0851907 -0.284354 0.954927 0.0925931
-0.0837978 -0.269192 0.959434 0.0877142
-0.0804458 -0.241192 0.967137 0.0803371
-0.0777858 -0.228603 0.970407 0.0718832
-0.0766926 -0.23098 0.969931 0.0655831
-0.0750163 -0.226922 0.97102 0.0556067
-0.0724944 -0.226016 0.971422 0.0456595
-0.0712745 -0.20932 0.975246 0.042458
-0.0690603 -0.191118 0.979135 0.0321556
-0.0666329 -0.184395 0.980591 0.0236064
-0.0656447 -0.178024 0.981834 0.0231893
-0.0657667 -0.178584 0.981724 0.0235192
-0.0658487 -0.181725 0.981142 0.025045
-0.0658914 -0.178273 0.981772 0.0266129
-0.0654097 -0.17287 0.98277 0.0238224
-0.0645711 -0.185374 0.980544 0.0163101
-0.0640892 -0.184204 0.980796 0.0192454
-0.0642846 -0.184379 0.980751 0.0200161
-0.0646889 -0.181283 0.981301 0.0185316
-0.0639695 -0.171607 0.983086 0.0150476
-0.0621271 -0.161964 0.984839 0.0111031
-0.0604812 -0.153229 0.986338 0.00959652
-0.0602994 -0.152146 0.986517 0.00877339
-0.059076 -0.151279 0.986724 0.00353261
-0.0591398 -0.150411 0.986853 0.00297082
-0.0587991 -0.147071 0.987377 0.00419661
-0.0574747 -0.143603 0.987965 0.00193785
-0.0565451 -0.143063 0.988097 0
-0.0554397 -0.14694 0.987591 0
-0.054456 -0.14637 0.98773 0
-0.0543937 -0.14684 0.987664 0
-0.0539755 -0.142436 0.988331 0
-0.0543477 -0.13459 0.98941 0
-0.0553329 -0.124061 0.990731 0
-0.0549351 -0.124284 0.990725 0
-0.0537303 -0.122186 0.991052 0
-0.054159 -0.118107 0.991523 0
-0.0552801 -0.119924 0.991243 0.001661
-0.0560977 -0.119304 0.991272 0.00897359
-0.0548558 -0.122394 0.990964 0.00820067
-0.0545298 -0.124304 0.990745 0.00528284
-0.0557839 -0.11976 0.991234 0.010986
-0.053492 -0.110879 0.992393 0.0046034
-0.0533701 -0.102816 0.993268 0.00438662
-0.0529038 -0.0946731 0.994102 0.00756231
-0.0529651 -0.0857958 0.994904 0.00862475
-0.0529747 -0.0823445 0.995195 0.0104234
-0.0524234 -0.0840431 0.995082 0.0107664
-0.0529927 -0.0784649 0.995507 0.0130054
-0.052102 -0.0722737 0.996023 0.0163893
-0.0535082 -0.0722393 0.995951 0.0245921
-0.0555628 -0.0692564 0.99605 0.0300252
-0.0560412 -0.0668374 0.996189 0.0342379
-0.0582347 -0.0622314 0.996361 0.0461892
-0.0591751 -0.0554268 0.996708 0.0498256
-0.0597746 -0.0521319 0.99685 0.0504071
-0.0596473 -0.0432102 0.997284 0.0541443
-0.058838 -0.0401435 0.99746 0.0587913
-0.0584745 -0.039507 0.997507 0.0497399
-0.0588647 -0.0349955 0.997652 0.0518426
-0.0600671 -0.0324588 0.997666 0.0514561
-0.0571201 -0.0347668 0.997762 0.0424347
-0.058465 -0.0222522 0.998041 0.0459271
-0.0577425 -0.0219873 0.998089 0.039492
-0.056369 -0.0213902 0.998181 0.0315548
-0.0553442 -0.0172514 0.998318 0.0333808
-0.0550022 -0.0139586 0.998389 0.0344567
-0.0536644 -0.0100511 0.998508 0.0330078
-0.0499552 -0.0128887 0.998668 0.0217363
-0.0497235 -0.00349574 0.998757 0.0245465
-0.0508558 0.00118797 0.998705 0.0273561
-0.0509042 0.00179985 0.998702 0.0263923
-0.0491376 0.00228894 0.998789 0.0189032
-0.0475309 -0.00130016 0.998869 0.0134412
-0.0471434 0.00722686 0.998862 0.0117862
-0.0461346 0.00394317 0.998927 0.0117451
-0.0412797 0.00800039 0.999116 0.00232215
-0.0398336 0.00819632 0.999173 0
-0.0390629 8.90442e-05 0.999237 0
-0.038682 -0.00295509 0.999247 0
-0.038214 -0.00307465 0.999265 0
-0.0377535 0.00263627 0.999284 0
-0.0351164 0.00366134 0.999377 0
-0.032926 0.00319659 0.999453 0
-0.0317509 6.76243e-05 0.999496 0
-0.0322725 -0.00205903 0.999477 0
-0.0332554 -0.00168807 0.999445 0
-0.0329243 -0.00332487 0.999452 0
-0.0313682 0.000237127 0.999508 0
-0.0287706 0.00316688 0.999581 0
-0.028509 0.00290389 0.999589 0
-0.0294864 0.00111007 0.999565 0
-0.0300659 0.000364186 0.999548 0
-0.0312832 0.0067697 0.999488 0
-0.0341286 0.0182803 0.99925 0
-0.0395541 0.039923 0.99842 0.0234812
-0.0479007 0.0644779 0.996769 0.0512559
-0.0555289 0.0865285 0.994701 0.0804727
-0.0655481 0.106896 0.992107 0.104271
-0.0738956 0.13053 0.988687 0.121788
-0.0829369 0.160675 0.983517 0.133718
-0.0922034 0.184041 0.978585 0.145403
-0.101449 0.203043 0.9739 0.15886
-0.107178 0.218471 0.96994 0.16894
-0.110594 0.220887 0.969009 0.173581
-0.112241 0.220936 0.968808 0.175242
-0.111523 0.221736 0.968708 0.171677
-0.107909 0.213201 0.971031 0.167684
-0.105414 0.20482 0.973107 0.165091
-0.102864 0.18596 0.977158 0.167271
-0.0997357 0.165201 0.981204 0.163476
-0.0944157 0.146834 0.984645 0.15783
-0.0888578 0.129455 0.987596 0.149679
-0.0824651 0.122178 0.989076 0.136398
-0.0749859 0.109966 0.991103 0.124716
-0.0695115 0.0929127 0.993245 0.115135
-0.0672727 0.0797732 0.99454 0.105643
-0.0617584 0.0693232 0.995681 0.0960167
-0.0616837 0.0779848 0.995044 0.0933787
-0.0620842 0.0753516 0.995222 0.0946878
-0.061073 0.0765612 0.995193 0.0864451
-0.0614686 0.0686862 0.995743 0.0838556
-0.063933 0.0642771 0.995882 0.0875511
-0.0657416 0.0673864 0.995559 0.0942857
-0.069276 0.0668063 0.995358 0.105664
-0.0706228 0.0670437 0.995247 0.109734
-0.0697173 0.0653793 0.995422 0.111308
-0.0659169 0.057328 0.996177 0.107612
-0.0626574 0.0520296 0.996678 0.104827
-0.0602874 0.0424038 0.99728 0.0998141
-0.0583797 0.0430305 0.997367 0.092525
-0.0545915 0.0272394 0.998137 0.0838657
-0.0506501 0.0114015 0.998651 0.0734114
-0.0457588 -0.0102005 0.9989 0.0577892
-0.0410623 -0.0296792 0.998716 0.0376275
-0.0371817 -0.0360432 0.998658 0.0103048
-0.0338053 -0.0443972 0.998442 0
-0.0309132 -0.0536253 0.998083 0
-0.0266926 -0.06686 0.997405 0
-0.0241215 -0.0811618 0.996409 0
-0.020021 -0.094187 0.995353 0
-0.0173607 -0.101158 0.994719 0
-0.016813 -0.0995916 0.994886 0
-0.0180604 -0.0927255 0.995528 0
-0.0199571 -0.0903105 0.995714 0
-0.0217388 -0.0944738 0.99529 0
-0.0257023 -0.0865442 0.995916 0.013942
-0.0305534 -0.0797827 0.996344 0.0298961
-0.0340764 -0.0675781 0.997132 0.0374983
-0.0360336 -0.064452 0.99727 0.043111
-0.0378282 -0.0642826 0.997214 0.0422733
-0.037308 -0.0655029 0.997155 0.0349494
-0.0357324 -0.073231 0.996675 0.024802
-0.0343919 -0.070873 0.996892 0.009156
-0.0342152 -0.0654372 0.99727 0.00282855
-0.0335165 -0.0660948 0.99725 0.00155555
-0.0326406 -0.0702083 0.996998 0.00336378
-0.0311729 -0.0817652 0.996164 0.0027835
-0.0305142 -0.0889028 0.995573 0.00455817
-0.0306052 -0.0874117 0.995702 0.00696978
-0.0302217 -0.0862168 0.995818 0.00649677
-0.030164 -0.0852809 0.9959 0.00953084
-0.0279277 -0.0936317 0.995215 0.0070188
-0.0260347 -0.0989889 0.994748 0
-0.0242477 -0.108235 0.99383 0
-0.0236338 -0.107771 0.993895 0
-0.0228505 -0.107126 0.993983 0
-0.021616 -0.109346 0.993769 0
-0.0213997 -0.117806 0.992806 0
-0.0211577 -0.131751 0.991057 0
-0.0206247 -0.133108 0.990887 0
-0.0195504 -0.130914 0.991201 0
-0.0187103 -0.127815 0.991622 0
-0.018252 -0.128711 0.991514 0
-0.0172504 -0.13285 0.990986 0
-0.0174396 -0.126307 0.991838 0
-0.0198418 -0.124138 0.992067 0
-0.0218277 -0.109759 0.993718 0
-0.0244232 -0.0956751 0.995113 0
-0.0268808 -0.0963892 0.994981 0
-0.0282545 -0.0865498 0.995847 0
-0.0313297 -0.08396 0.995976 0
-0.0337517 -0.0738137 0.996701 0
-0.0352789 -0.0621379 0.997444 0.00159474
-0.0362375 -0.063482 0.997325 0.00843184
-0.0355924 -0.0629436 0.997382 0.011525
-0.0360773 -0.0620789 0.997419 0.00815059
-0.0370489 -0.0617737 0.997402 0.00861132
-0.0390066 -0.0655476 0.997087 0.00920788
-0.0385747 -0.0594742 0.997484 0
-0.0382315 -0.0580848 0.997579 0
-0.03899 -0.0566478 0.997633 0
-0.0388987 -0.0558361 0.997682 0
-0.0384344 -0.0615257 0.997365 0
-0.0383909 -0.0475896 0.998129 0
-0.0372664 -0.0459715 0.998247 0
-0.0375355 -0.0441041 0.998322 0
-0.037875 -0.0447074 0.998282 0
-0.0380091 -0.0499925 0.998026 0
-0.0362433 -0.0552603 0.997814 0
-0.0364861 -0.0533347 0.99791 0
-0.0374314 -0.0441895 0.998322 0
-0.0381667 -0.0449049 0.998262 0
-0.0376095 -0.0471267 0.998181 0
-0.0368646 -0.055829 0.99776 0
-0.0357761 -0.054452 0.997875 0
-0.0350236 -0.0562478 0.997802 0
-0.0348162 -0.0551921 0.997869 0
-0.0354274 -0.0497035 0.998136 0
-0.034812 -0.0457492 0.998346 0
-0.0323882 -0.049295 0.998259 0
-0.0319585 -0.0553534 0.997955 0
-0.0319604 -0.0601923 0.997675 0
-0.0322392 -0.0536258 0.998041 0
-0.0331298 -0.0436167 0.998499 0
-0.0345467 -0.0406152 0.998577 0
-0.0351088 -0.0408783 0.998547 0
-0.0356998 -0.042312 0.998466 0
-0.0361012 -0.0478978 0.9982 0
-0.0370475 -0.0439109 0.998348 0
-0.0378526 -0.0413126 0.998429 0
-0.0384658 -0.041437 0.9984 0
-0.0392509 -0.036356 0.998568 0
-0.0395291 -0.0318015 0.998712 0
-0.0384456 -0.0386624 0.998512 0
-0.0388011 -0.0398842 0.998451 0
-0.0392675 -0.0403333 0.998414 0
-0.0384359 -0.0368161 0.998583 0
-0.0376566 -0.0363102 0.998631 0
-0.0386203 -0.0309093 0.998776 0
-0.0377063 -0.0264083 0.99894 0
-0.0387111 -0.0201955 0.999046 0
-0.0426962 -0.0086048 0.999051 0
-0.0443635 0.00315603 0.999011 0
-0.0452248 0.00786487 0.998946 0.00297598
-0.0452882 0.0169703 0.99883 0.0102509
-0.0458706 0.0248196 0.998639 0.0101616
-0.0465306 0.0311632 0.998431 0.0102195
-0.0483023 0.0398875 0.998036 0.0120832
-0.0510657 0.0530139 0.997287 0.0183166
-0.0520907 0.0568518 0.997023 0.0213254
-0.0518383 0.0579442 0.996973 0.0189913
-0.0513682 0.0668657 0.996439 0.0136732
-0.0498284 0.0746244 0.995966 0.00850311
-0.0496506 0.07777 0.995734 0.00529009
-0.0475714 0.0740263 0.996121 0
-0.0469459 0.0774062 0.995894 0
-0.0469761 0.0773971 0.995893 0
-0.0483689 0.0887343 0.99488 0
-0.0480654 0.095816 0.994238 0.000229745
-0.0504699 0.113464 0.992259 0.0086804
-0.0519434 0.122126 0.991154 0.0162886
-0.0528202 0.12794 0.990374 0.0203641
-0.0524686 0.127727 0.990421 0.0200143
-0.0515289 0.125318 0.990777 0.0155611
-0.0504801 0.123462 0.991064 0.0116123
-0.0514626 0.132759 0.989811 0.015076
-0.0505422 0.130461 0.990164 0.00981125
-0.0490601 0.122846 0.991212 0.003352
-0.0483739 0.116429 0.99202 0
-0.0475643 0.115206 0.992202 0
-0.0471808 0.117685 0.99193 0
-0.0489727 0.145635 0.988126 0.00679511
-0.0510284 0.163555 0.985214 0.00779336
-0.0539955 0.195837 0.979149 0.016241
-0.0521792 0.191835 0.980039 0.00848766
-0.0489965 0.192925 0.97999 0
-0.049585 0.207495 0.976979 0
-0.0500369 0.218904 0.974463 0
-0.0503487 0.22802 0.972354 0
-0.0517403 0.231586 0.971438 0
-0.0536498 0.24288 0.968572 0.00725952
-0.0531018 0.248551 0.967162 0.00555591
-0.051782 0.253953 0.965829 0
-0.0500968 0.249489 0.967081 0
-0.044027 0.220634 0.974362 0
-0.0736902 -0.314312 0.946455 0.0437956
-0.0730447 -0.316462 0.945789 0.0465089
-0.0776073 -0.308929 0.947913 0.0680893
-0.0785063 -0.305286 0.949019 0.0722161
-0.0802984 -0.305869 0.948681 0.080244
-0.0837624 -0.320344 0.943591 0.0945754
-0.0860027 -0.313188 0.945789 0.101814
-0.0847093 -0.287644 0.953984 0.0994442
-0.0832724 -0.280268 0.956303 0.0920645
-0.0806639 -0.245928 0.965926 0.0858501
-0.0772921 -0.227726 0.970653 0.0737752
-0.0767763 -0.222306 0.971949 0.0671224
-0.0746224 -0.220324 0.972568 0.0589233
-0.0717213 -0.220872 0.972662 0.0504426
-0.0696263 -0.211461 0.974903 0.0444966
-0.0685127 -0.194202 0.978566 0.0416891
-0.0685864 -0.195343 0.978334 0.039519
-0.0665767 -0.187529 0.98 0.0317865
-0.0653106 -0.183172 0.980909 0.0254688
-0.066166 -0.182776 0.980926 0.028919
-0.0652241 -0.175944 0.982237 0.0279084
-0.0643287 -0.170876 0.98319 0.0269242
-0.065695 -0.180856 0.981313 0.0290388
-0.0659492 -0.184343 0.980647 0.0233974
-0.0645372 -0.190252 0.979612 0.0214637
-0.0644016 -0.18413 0.98079 0.0192294
-0.0652526 -0.181975 0.981136 0.0235703
-0.0623656 -0.166916 0.983997 0.0177041
-0.0598852 -0.161722 0.985018 0.0087493
-0.0586408 -0.157845 0.985721 0.00525637
-0.0584934 -0.153852 0.986361 0.0037652
-0.0569155 -0.152809 0.986615 0.000985463
-0.0562887 -0.151126 0.986911 0
-0.0550116 -0.14872 0.987348 0
-0.0543354 -0.145728 0.987831 0
-0.0534341 -0.14762 0.9876 0
-0.0535654 -0.148553 0.987453 0
-0.0530297 -0.146386 0.987805 0
-0.0529895 -0.142006 0.988446 0
-0.0526431 -0.133898 0.989596 0
-0.0525523 -0.128552 0.990309 0
-0.0525302 -0.125412 0.990713 0
-0.0523584 -0.122687 0.991063 0
-0.0520057 -0.121647 0.99121 0
-0.0521871 -0.121054 0.991273 0
-0.053884 -0.119239 0.991402 0.00699333
-0.0545365 -0.121331 0.991113 0.00626316
-0.0526533 -0.123061 0.991001 0.000819194
-0.051811 -0.124551 0.99086 0
-0.0518947 -0.114354 0.992084 0
-0.0516069 -0.106573 0.992965 0.00135787
-0.0513531 -0.0991032 0.993751 0.000995091
-0.0519164 -0.0887203 0.994703 0.000995672
-0.0504945 -0.0888834 0.994761 0
-0.0496389 -0.0876491 0.994914 0
-0.0488389 -0.0774824 0.995797 0
-0.047988 -0.0698178 0.996405 0
-0.0481135 -0.0696987 0.996407 0.000941992
-0.0487911 -0.0676925 0.996512 0.00457813
-0.0527292 -0.0637279 0.996573 0.0211284
-0.0525683 -0.0650006 0.9965 0.0245145
-0.0546105 -0.0613264 0.996623 0.0308404
-0.0563442 -0.0534879 0.996978 0.0332718
-0.058314 -0.0448395 0.997291 0.041187
-0.0585659 -0.0422341 0.99739 0.0423263
-0.0582245 -0.0406845 0.997474 0.0346108
-0.0583993 -0.0429065 0.997371 0.0327692
-0.056275 -0.0388755 0.997658 0.031062
-0.0548636 -0.0375826 0.997786 0.0267302
-0.0534168 -0.0296601 0.998132 0.0337348
-0.053615 -0.0220015 0.998319 0.034114
-0.0537553 -0.0222475 0.998306 0.0309044
-0.055038 -0.0160262 0.998356 0.034883
-0.0560063 -0.0182084 0.998264 0.0342473
-0.0517605 -0.0170476 0.998514 0.0229092
-0.0501719 -0.0130343 0.998656 0.0154246
-0.0504854 -0.00468649 0.998714 0.0195885
-0.0532833 0.00248216 0.998576 0.0282492
-0.0537486 -0.000864702 0.998554 0.0286855
-0.0510678 -0.0026 0.998692 0.0149148
-0.0491702 0.000647736 0.99879 0.0125022
-0.0472324 0.00665902 0.998862 0.0116309
-0.0452259 0.00889142 0.998937 0.00914723
-0.044589 0.0152895 0.998888 0.0100824
-0.0438018 0.0173278 0.99889 0.00536297
-0.0430588 0.0135742 0.99898 0.00236364
-0.0430163 0.0110393 0.999013 0
-0.0409208 0.00542327 0.999148 0
-0.0404161 0.0113755 0.999118 0
-0.0382873 0.0114338 0.999201 0
-0.0368622 0.00755844 0.999292 0
-0.0362367 0.00626421 0.999324 0
-0.0349402 0.00655387 0.999368 0
-0.0338507 -9.80193e-05 0.999427 0
-0.0329932 -0.00116494 0.999455 0
-0.0318849 0.00122287 0.999491 0
-0.0312197 -0.000766199 0.999512 0
-0.0301198 -0.00773479 0.999516 0
-0.0312024 -0.00370829 0.999506 0
-0.0319044 -0.001097 0.99949 0
-0.0329262 0.00612085 0.999439 0
-0.0349814 0.0168576 0.999246 0
-0.0388703 0.0338083 0.998672 0.00405359
-0.04554 0.0585958 0.997243 0.0330259
-0.051783 0.0725455 0.99602 0.0588732
-0.0594013 0.086024 0.994521 0.0839133
-0.0702984 0.106814 0.991791 0.102629
-0.0784519 0.125788 0.98895 0.114674
-0.0844505 0.15003 0.985068 0.128164
-0.0916746 0.165019 0.982021 0.140011
-0.095044 0.180394 0.978992 0.146477
-0.0994926 0.188175 0.977083 0.153792
-0.103311 0.194454 0.975456 0.157528
-0.104558 0.204855 0.973192 0.157
-0.10595 0.21225 0.971455 0.158396
-0.106316 0.202979 0.973394 0.157633
-0.1051 0.18871 0.976393 0.158618
-0.10393 0.170615 0.979841 0.160418
-0.0978345 0.156802 0.982772 0.154893
-0.0917357 0.136903 0.986328 0.146913
-0.0839215 0.126435 0.988419 0.135203
-0.079808 0.11507 0.990146 0.125902
-0.0777001 0.102427 0.991701 0.120538
-0.0734637 0.0902803 0.993203 0.114247
-0.0684603 0.0719677 0.995055 0.105233
-0.0657599 0.0769955 0.99486 0.0999459
-0.0663762 0.0767778 0.994836 0.0986039
-0.0660628 0.0779973 0.994762 0.094203
-0.0653891 0.0707299 0.99535 0.0910433
-0.0638927 0.0588118 0.996222 0.0906667
-0.0632852 0.0563529 0.996403 0.0944208
-0.0638594 0.0494678 0.996732 0.0959198
-0.0622134 0.0441172 0.997087 0.0946447
-0.0609997 0.0371919 0.997445 0.0933049
-0.0580954 0.0302299 0.997853 0.0904956
-0.0561359 0.0199238 0.998224 0.0868931
-0.0534627 0.011239 0.998507 0.0778009
-0.0523734 0.00945082 0.998583 0.0730198
-0.0488923 -0.00140335 0.998803 0.0612848
-0.0440004 -0.0121757 0.998957 0.0492625
-0.0397997 -0.0241721 0.998915 0.0310967
-0.0347986 -0.0380764 0.998669 0.00146035
-0.0336162 -0.0452438 0.99841 0
-0.032507 -0.0495344 0.998243 0
-0.0307407 -0.0537953 0.998079 0
-0.0275867 -0.0677014 0.997324 0
-0.024952 -0.0832623 0.996215 0
-0.0232465 -0.0955607 0.995152 0
-0.0229175 -0.0987701 0.994846 0
-0.0214852 -0.094919 0.995253 0
-0.0226511 -0.0866401 0.995982 0
-0.0239338 -0.0804735 0.996469 0
-0.0260027 -0.0824253 0.996258 0.00401959
-0.030778 -0.0806593 0.996266 0.0193624
-0.0343097 -0.0767257 0.996462 0.0310486
-0.0382522 -0.0637148 0.997235 0.0397542
-0.0400723 -0.0593652 0.997432 0.040215
-0.0399343 -0.0549887 0.997688 0.0376879
-0.0387329 -0.0619828 0.997325 0.0204641
-0.0365909 -0.0714089 0.996776 0.00465609
-0.0351402 -0.0706982 0.996879 0
-0.0346362 -0.0724974 0.996767 0
-0.0340717 -0.0704648 0.996932 0
-0.033496 -0.0775734 0.996424 0
-0.0327704 -0.0897068 0.995429 0
-0.0320501 -0.0968436 0.994783 0
-0.0309919 -0.0977781 0.994726 0
-0.0308293 -0.0944261 0.995054 0.00125627
-0.0303479 -0.0902138 0.99546 0.000373585
-0.0279924 -0.0979626 0.994796 0
-0.0271092 -0.109584 0.993608 0
-0.0247327 -0.117549 0.992759 0
-0.0240075 -0.121907 0.992251 0
-0.0237046 -0.114359 0.993157 0
-0.0222702 -0.1154 0.993069 0
-0.0217072 -0.116666 0.992934 0
-0.020408 -0.132321 0.990997 0
-0.020123 -0.131096 0.991165 0
-0.0215027 -0.128857 0.99143 0
-0.022202 -0.120784 0.992431 0
-0.021142 -0.12384 0.992077 0
-0.0199493 -0.132888 0.99093 0
-0.0192692 -0.12703 0.991712 0
-0.0195344 -0.130565 0.991247 0
-0.0216434 -0.1119 0.993484 0
-0.0240741 -0.102135 0.994479 0
-0.0249327 -0.100178 0.994657 0
-0.0275189 -0.0923314 0.995348 0
-0.0305971 -0.0835297 0.996035 0
-0.0340058 -0.0758125 0.996542 0
-0.0357259 -0.0722029 0.99675 0
-0.0357977 -0.0692787 0.996955 0
-0.0376323 -0.0650146 0.997174 0
-0.0382484 -0.062833 0.997291 0.00166919
-0.0389602 -0.060793 0.99739 0.0049393
-0.0397235 -0.0642042 0.997146 0.00365661
-0.0385173 -0.0587733 0.997528 0
-0.0382313 -0.0569811 0.997643 0
-0.0387379 -0.0522596 0.997882 0
-0.0383518 -0.0540418 0.997802 0
-0.0378129 -0.0604579 0.997454 0
-0.0378543 -0.0509568 0.997983 0
-0.0386952 -0.0573163 0.997606 0
-0.0395884 -0.0459395 0.998159 0
-0.038124 -0.0484393 0.998098 0
-0.0380068 -0.0519245 0.997927 0
-0.0356894 -0.061586 0.997464 0
-0.0344361 -0.0677037 0.997111 0
-0.0357118 -0.0594816 0.99759 0
-0.0360787 -0.0541929 0.997878 0
-0.0365124 -0.046332 0.998259 0
-0.037085 -0.0560087 0.997741 0
-0.0364363 -0.0582615 0.997636 0
-0.0355843 -0.0606341 0.997526 0
-0.0349015 -0.0544673 0.997905 0
-0.0343812 -0.0511612 0.998098 0
-0.0361194 -0.0413937 0.99849 0
-0.0358912 -0.044172 0.998379 0
-0.0356918 -0.0465387 0.998279 0
-0.0334342 -0.0534981 0.998008 0
-0.0335522 -0.0500645 0.998182 0
-0.0331719 -0.0443308 0.998466 0
-0.0341057 -0.0409871 0.998577 0
-0.03516 -0.0453195 0.998354 0
-0.0359098 -0.0464472 0.998275 0
-0.0373476 -0.0493232 0.998084 0
-0.0374381 -0.0523062 0.997929 0
-0.0387677 -0.0463973 0.99817 0
-0.0383554 -0.0477877 0.998121 0
-0.0382682 -0.0425519 0.998361 0
-0.036951 -0.0385122 0.998575 0
-0.0374081 -0.0368922 0.998619 0
-0.0375187 -0.0378914 0.998577 0
-0.0376722 -0.0335964 0.998725 0
-0.0393839 -0.0323032 0.998702 0
-0.0379037 -0.035432 0.998653 0
-0.038668 -0.0302326 0.998795 0
-0.038743 -0.0217535 0.999012 0
-0.0403913 -0.0117259 0.999115 0
-0.0415517 -0.0011053 0.999136 0
-0.0417922 0.00782288 0.999096 0
-0.0436857 0.0155308 0.998925 0
-0.045558 0.0266263 0.998607 0.0130796
-0.0475364 0.0363775 0.998207 0.0170094
-0.0467413 0.0354303 0.998279 0.0134019
-0.0482705 0.0480943 0.997676 0.0186193
-0.0501329 0.0593131 0.99698 0.0193205
-0.0510868 0.0671289 0.996436 0.0214316
-0.0513048 0.0741161 0.995929 0.0229696
-0.0513901 0.0789197 0.995556 0.0203686
-0.0498873 0.0812915 0.995441 0.016589
-0.0487713 0.0805914 0.995553 0.0106372
-0.0470431 0.0857408 0.995206 0.00342389
-0.0457939 0.0811196 0.995652 0
-0.0458786 0.0851224 0.995314 0.000803805
-0.0466257 0.0935078 0.994526 0.00184303
-0.0479699 0.104323 0.993386 0.00249391
-0.04842 0.108588 0.992907 0.00395313
-0.0500221 0.11531 0.992069 0.0110183
-0.051505 0.132937 0.989785 0.0196256
-0.0511897 0.135935 0.989394 0.0207517
-0.0493636 0.122826 0.9912 0.0114698
-0.0495885 0.124831 0.990938 0.0121807
-0.0494899 0.121509 0.991356 0.00966643
-0.0474599 0.119525 0.991696 0.00467338
-0.0467155 0.115092 0.992256 0
-0.0452344 0.116152 0.992201 0
-0.0458425 0.116257 0.992161 0
-0.0470038 0.129293 0.990492 0.00401652
-0.0467853 0.146378 0.988122 0.00416303
-0.0493542 0.167396 0.984653 0.0137901
-0.0495408 0.185045 0.98148 0.0139426
-0.0495247 0.195931 0.979366 0.0109396
-0.0469013 0.193553 0.979968 0.00171355
-0.0468397 0.20234 0.978194 0
-0.0475599 0.210864 0.976358 0
-0.0490752 0.228973 0.972195 0
-0.0490742 0.23061 0.971808 0
-0.0486191 0.229039 0.972202 0
-0.0486014 0.230319 0.971901 0
-0.0463616 0.236981 0.970407 0
-0.046031 0.247521 0.967789 0
-0.0431276 0.236467 0.970682 0
-0.0706874 -0.310504 0.94794 0.0363869
-0.0689722 -0.311565 0.947718 0.035178
-0.0721751 -0.291885 0.953726 0.0505809
-0.0746025 -0.302316 0.950284 0.0618234
-0.0769254 -0.310356 0.947503 0.0782738
-0.0802317 -0.311155 0.946967 0.0901434
-0.0843426 -0.320296 0.943555 0.100507
-0.0854366 -0.305376 0.948391 0.101184
-0.0818016 -0.288781 0.953894 0.0913659
-0.0792658 -0.258402 0.96278 0.0860989
-0.075683 -0.231964 0.969776 0.0741996
-0.0734963 -0.218624 0.973037 0.0626227
-0.0715484 -0.212929 0.974445 0.0534272
-0.0708945 -0.220548 0.972796 0.0493747
-0.0689057 -0.214715 0.974243 0.0459234
-0.0686275 -0.212452 0.974759 0.0435008
-0.0683789 -0.202381 0.976917 0.0432758
-0.0687747 -0.198282 0.977729 0.0448741
-0.0684557 -0.194254 0.97856 0.0397289
-0.0675081 -0.190987 0.979268 0.0386765
-0.0662991 -0.177792 0.981832 0.0370447
-0.0659949 -0.173293 0.982657 0.0335537
-0.0655352 -0.172966 0.982745 0.0311377
-0.0651769 -0.179203 0.981651 0.0265642
-0.0644453 -0.185553 0.980519 0.0202636
-0.0645847 -0.186143 0.980398 0.021772
-0.0635098 -0.186122 0.980472 0.021621
-0.0617775 -0.176288 0.982398 0.0190039
-0.0607666 -0.169524 0.983651 0.0170638
-0.0592752 -0.167269 0.984128 0.0121166
-0.0575071 -0.158915 0.985616 0.00294531
-0.0561312 -0.153316 0.986582 0
-0.0557209 -0.150494 0.987039 0
-0.0547996 -0.144713 0.987955 0
-0.0538655 -0.147606 0.987578 0
-0.0530598 -0.146929 0.987723 0
-0.0532733 -0.147951 0.987559 0
-0.0512957 -0.142893 0.988408 0
-0.0517228 -0.139378 0.988888 0
-0.0509708 -0.134406 0.989615 0
-0.0506753 -0.131012 0.990085 0
-0.0511901 -0.127091 0.990569 0
-0.0508852 -0.121574 0.991277 0
-0.049776 -0.123144 0.99114 0
-0.0499922 -0.124693 0.990935 0
-0.0509631 -0.119629 0.99151 0
-0.0501821 -0.119238 0.991597 0
-0.0493541 -0.120074 0.991537 0
-0.0508892 -0.119239 0.991561 0
-0.0509013 -0.114488 0.99212 0
-0.0508315 -0.107542 0.9929 0
-0.0493845 -0.100824 0.993678 0
-0.0489016 -0.0984092 0.993944 0
-0.0489001 -0.0903893 0.994705 0
-0.0483557 -0.0876434 0.994978 0
-0.0485839 -0.0841037 0.995272 0
-0.0481355 -0.0772823 0.995847 0
-0.0479184 -0.0682747 0.996515 0
-0.0485057 -0.0679973 0.996506 0
-0.0494398 -0.0637716 0.996739 0.00839453
-0.0538214 -0.0589092 0.996811 0.0203939
-0.0534482 -0.0588304 0.996836 0.0208444
-0.0565358 -0.0537611 0.996952 0.0267189
-0.0555372 -0.0521778 0.997092 0.0219545
-0.0547213 -0.0463001 0.997428 0.0214102
-0.0531195 -0.0460389 0.997526 0.014828
-0.053497 -0.0452582 0.997542 0.0142262
-0.054322 -0.0396309 0.997737 0.0212503
-0.0533619 -0.0378536 0.997858 0.0198393
-0.0524641 -0.0343831 0.998031 0.0266742
-0.052357 -0.0215029 0.998397 0.0293458
-0.0530884 -0.0231071 0.998322 0.0303942
-0.0530029 -0.0173661 0.998443 0.0245717
-0.0552285 -0.0181855 0.998308 0.0306512
-0.0541224 -0.0139637 0.998437 0.0278771
-0.052354 -0.0128841 0.998545 0.0177297
-0.0513592 -0.00221466 0.998678 0.0170771
-0.0543553 0.0020142 0.99852 0.0292222
-0.0532951 0.000431649 0.998579 0.0267728
-0.0497565 -0.00261508 0.998758 0.0114909
-0.0468356 -0.00212339 0.9989 0.000295181
-0.045309 0.00323419 0.998968 0.00331009
-0.0447428 0.00563248 0.998983 0.00316073
-0.0454802 0.0201181 0.998763 0.00813534
-0.0473084 0.022923 0.998617 0.0125689
-0.0479891 0.0216147 0.998614 0.0147764
-0.0458493 0.019946 0.998749 0.0124025
-0.0447988 0.0204679 0.998786 0.00597973
-0.0436237 0.0187868 0.998871 0
-0.0425194 0.0175365 0.998942 0
-0.0405658 0.0166783 0.999038 0
-0.0385676 0.0136307 0.999163 0
-0.0366662 0.0137904 0.999232 0
-0.0351071 0.00293553 0.999379 0
-0.0344563 0.00125661 0.999405 0
-0.0326172 -0.000682598 0.999468 0
-0.0320398 -0.00324647 0.999481 0
-0.0321139 -0.00399129 0.999476 0
-0.0326318 -0.00354143 0.999461 0
-0.0336237 0.00510674 0.999421 0
-0.0342457 0.0100074 0.999363 0
-0.0362716 0.0175965 0.999187 0
-0.038663 0.031307 0.998762 0
-0.0439104 0.0450051 0.998021 0.0152458
-0.0500917 0.0567941 0.997128 0.0398879
-0.0570835 0.0697086 0.995933 0.0615355
-0.0643265 0.0810468 0.994632 0.0772382
-0.0709429 0.0986514 0.99259 0.0926596
-0.0779482 0.11818 0.989928 0.109708
-0.0837681 0.138481 0.986816 0.122613
-0.0873672 0.155875 0.983905 0.128908
-0.0909542 0.162879 0.982445 0.133906
-0.0937869 0.165619 0.98172 0.138768
-0.0955939 0.177209 0.97952 0.138097
-0.0988112 0.181891 0.978342 0.140662
-0.0993897 0.188726 0.976987 0.142107
-0.102308 0.178596 0.978589 0.143564
-0.104653 0.172059 0.979512 0.151314
-0.105347 0.16391 0.980834 0.155436
-0.0988076 0.150723 0.983626 0.152892
-0.0927582 0.141823 0.985537 0.143524
-0.0869959 0.128598 0.987874 0.132228
-0.0828071 0.116497 0.989733 0.12766
-0.0791174 0.099397 0.991898 0.122803
-0.0763768 0.0835794 0.99357 0.117315
-0.0747132 0.0802503 0.993971 0.110993
-0.0737888 0.075455 0.994415 0.106656
-0.0706656 0.0715047 0.994934 0.1017
-0.0680586 0.0681183 0.995353 0.092951
-0.0646211 0.0556024 0.99636 0.0878694
-0.060826 0.0442056 0.997169 0.0838577
-0.057603 0.032272 0.997818 0.0820266
-0.0551053 0.0298971 0.998033 0.0797041
-0.0525657 0.0203206 0.998411 0.0768265
-0.0502249 0.0113356 0.998674 0.0686997
-0.0478549 -0.00312333 0.998849 0.0577143
-0.0459887 -0.0122354 0.998867 0.0473801
-0.0440079 -0.0154692 0.998911 0.0361468
-0.0424124 -0.0236471 0.99882 0.025988
-0.0395247 -0.0303073 0.998759 0.0130732
-0.0361633 -0.0337525 0.998776 0
-0.0343547 -0.0454956 0.998374 0
-0.0327539 -0.0536838 0.998021 0
-0.0313881 -0.0551369 0.997985 0
-0.0294297 -0.0572124 0.997928 0
-0.0273968 -0.0655364 0.997474 0
-0.0274034 -0.0752169 0.996791 0
-0.0270214 -0.0854488 0.995976 0
-0.0266203 -0.0914804 0.995451 0
-0.0270979 -0.0885753 0.995701 0
-0.0287662 -0.0790451 0.996456 0
-0.0315114 -0.0719308 0.996912 0
-0.0328437 -0.0696238 0.997033 0.0110238
-0.0359158 -0.0679895 0.997039 0.0239255
-0.0368492 -0.0673399 0.997049 0.0254105
-0.0393496 -0.0602705 0.997406 0.0284943
-0.03918 -0.0578779 0.997555 0.0216267
-0.0375757 -0.0570856 0.997662 0.0113171
-0.036155 -0.0606744 0.997503 0
-0.0361156 -0.0734543 0.996644 0
-0.0367128 -0.0795051 0.996158 0
-0.0364855 -0.0806416 0.996075 0
-0.0356094 -0.0772272 0.996377 0
-0.0357448 -0.0796465 0.996182 0
-0.033385 -0.0894727 0.99543 0
-0.0325986 -0.0970772 0.994743 0
-0.0310435 -0.10262 0.994236 0
-0.0297752 -0.0992531 0.994617 0
-0.0290297 -0.100589 0.994504 0
-0.0282115 -0.103672 0.994211 0
-0.0272421 -0.114729 0.993023 0
-0.0265281 -0.122615 0.9921 0
-0.0252701 -0.12913 0.991306 0
-0.0250411 -0.123125 0.992075 0
-0.0234798 -0.123609 0.992053 0
-0.0236607 -0.121126 0.992355 0
-0.0222752 -0.128267 0.991489 0
-0.0207008 -0.124712 0.991977 0
-0.0216111 -0.128131 0.991522 0
-0.0221702 -0.124896 0.991922 0
-0.0229348 -0.121513 0.992325 0
-0.0222034 -0.125166 0.991887 0
-0.0212048 -0.125332 0.991888 0
-0.0208846 -0.128992 0.991426 0
-0.0233853 -0.118095 0.992727 0
-0.0241044 -0.111436 0.993479 0
-0.0247636 -0.100491 0.99463 0
-0.0278409 -0.0895064 0.995597 0
-0.0314059 -0.084357 0.995941 0
-0.0336809 -0.0781002 0.996376 0
-0.0354931 -0.0756511 0.996502 0
-0.0358812 -0.0720702 0.996754 0
-0.0379429 -0.0649705 0.997166 0
-0.039558 -0.0661974 0.997022 0
-0.0409219 -0.0587013 0.997436 0
-0.0397792 -0.067871 0.996901 0
-0.0389912 -0.0611017 0.99737 0
-0.03756 -0.0594503 0.997524 0
-0.0369359 -0.0595542 0.997541 0
-0.0378743 -0.0550083 0.997767 0
-0.0381588 -0.0602442 0.997454 0
-0.0385394 -0.052764 0.997863 0
-0.0380889 -0.0588365 0.997541 0
-0.0385714 -0.0540814 0.997791 0
-0.0385604 -0.0573214 0.997611 0
-0.0370873 -0.0550195 0.997796 0
-0.0363184 -0.0613793 0.997454 0
-0.0354569 -0.0681605 0.997044 0
-0.0355729 -0.0659168 0.997191 0
-0.0357523 -0.0625321 0.997402 0
-0.0365679 -0.058244 0.997632 0
-0.0368932 -0.0545748 0.997828 0
-0.0361866 -0.0590401 0.9976 0
-0.0360962 -0.051251 0.998033 0
-0.0351292 -0.0555719 0.997837 0
-0.0361211 -0.0453202 0.998319 0
-0.0362421 -0.0431359 0.998412 0
-0.0364035 -0.0405049 0.998516 0
-0.0373094 -0.0424281 0.998403 0
-0.0357114 -0.0507515 0.998073 0
-0.0360042 -0.0460786 0.998289 0
-0.0356286 -0.0438705 0.998402 0
-0.0349074 -0.0481279 0.998231 0
-0.0363795 -0.0455338 0.9983 0
-0.0373558 -0.0437607 0.998343 0
-0.0377579 -0.0459978 0.998228 0
-0.0378334 -0.050968 0.997983 0
-0.0387277 -0.0436924 0.998294 0
-0.0374539 -0.0473746 0.998175 0
-0.037159 -0.0451236 0.99829 0
-0.0373857 -0.0358136 0.998659 0
-0.0380598 -0.0345292 0.998679 0
-0.0366697 -0.0388865 0.998571 0
-0.0367695 -0.035673 0.998687 0
-0.0358229 -0.0357768 0.998717 0
-0.0372157 -0.0304037 0.998845 0
-0.0380519 -0.0254921 0.998951 0
-0.0395342 -0.0127845 0.999136 0
-0.0398695 -0.00253626 0.999202 0
-0.0395246 0.00590188 0.999201 0
-0.0416637 0.0148342 0.999022 0
-0.0439574 0.0279965 0.998641 0.00695421
-0.0443676 0.0348391 0.998408 0.00868656
-0.045064 0.0371103 0.998295 0.0117798
-0.0456677 0.045492 0.99792 0.0116337
-0.0466427 0.0516878 0.997573 0.0151884
-0.0480846 0.0593452 0.997079 0.0166476
-0.0500988 0.075891 0.995857 0.0241839
-0.051321 0.0855155 0.995014 0.0246187
-0.0507898 0.0890865 0.994728 0.0240613
-0.0475137 0.0807632 0.9956 0.0163212
-0.0470122 0.0865638 0.995136 0.0125457
-0.0460933 0.0869478 0.995146 0.00839378
-0.0462275 0.088571 0.994997 0.00685962
-0.045968 0.0939217 0.994518 0.00406386
-0.0464838 0.0943214 0.994456 0.00387224
-0.0470768 0.0992905 0.993944 0.00583449
-0.0478649 0.110972 0.99267 0.00747467
-0.0481526 0.11525 0.992169 0.00897403
-0.0496694 0.12705 0.990652 0.0142965
-0.0497589 0.129431 0.990339 0.0122147
-0.0502263 0.131935 0.989985 0.012918
-0.0504793 0.13294 0.989838 0.0151343
-0.0470298 0.117669 0.991939 0.00326334
-0.0443331 0.10938 0.993011 0
-0.0439684 0.111502 0.992791 0
-0.0435897 0.114678 0.992446 0
-0.0442247 0.12135 0.991624 0
-0.0450346 0.13838 0.989355 0.00412572
-0.0454564 0.153017 0.987177 0.00597255
-0.0461592 0.164769 0.985251 0.00925951
-0.0478286 0.183105 0.981929 0.0145395
-0.0488487 0.19915 0.978751 0.0128289
-0.0473893 0.198011 0.979054 0.0025639
-0.0470223 0.197312 0.979212 0
-0.0462807 0.213556 0.975834 0
-0.0460085 0.229684 0.972177 0
-0.0454108 0.228282 0.972535 0
-0.0477529 0.25445 0.965906 0.00727485
-0.0474531 0.24556 0.968219 0.00769886
-0.0437603 0.230552 0.972076 0
-0.0438332 0.242831 0.969078 0
-0.0405703 0.235743 0.970968 0
-0.0685435 -0.323502 0.943742 0.0406068
-0.0672809 -0.314462 0.946883 0.0350805
-0.0678723 -0.300979 0.951212 0.0445314
-0.0725757 -0.308805 0.948352 0.0623481
-0.0757626 -0.327301 0.941878 0.0763048
-0.0794825 -0.327856 0.941378 0.0902607
-0.0816129 -0.312291 0.946474 0.0951875
-0.0818052 -0.299415 0.950609 0.0983876
-0.0803527 -0.286489 0.954708 0.0892421
-0.0800817 -0.272905 0.958702 0.0859064
-0.0771704 -0.240017 0.967696 0.0811537
-0.0730776 -0.229985 0.970447 0.0700221
-0.0705588 -0.219465 0.973065 0.0585045
-0.0689074 -0.220336 0.972987 0.0450001
-0.0676334 -0.216899 0.973848 0.0405157
-0.0677747 -0.21669 0.973885 0.0379208
-0.0668155 -0.212576 0.974857 0.0367524
-0.067249 -0.206488 0.976135 0.0445066
-0.0675206 -0.205125 0.976404 0.0449333
-0.0665278 -0.19628 0.978288 0.0390509
-0.0668584 -0.184644 0.980529 0.0420184
-0.0671892 -0.186077 0.980235 0.0427394
-0.065663 -0.176846 0.982046 0.0349212
-0.0651021 -0.182057 0.98113 0.03363
-0.0632338 -0.186939 0.980334 0.0252379
-0.0632734 -0.189907 0.979761 0.0245079
-0.062749 -0.186714 0.980408 0.0230928
-0.0617243 -0.181218 0.981504 0.0195112
-0.0611364 -0.169128 0.983696 0.0181286
-0.0600021 -0.170567 0.983518 0.0121413
-0.0579 -0.158995 0.98558 0.00537089
-0.0563374 -0.152108 0.986757 0.00033714
-0.0548331 -0.150229 0.98713 0
-0.0540393 -0.14778 0.987543 0
-0.0536816 -0.147133 0.987659 0
-0.0530319 -0.143677 0.988203 0
-0.0519986 -0.140132 0.988766 0
-0.0518101 -0.142839 0.988389 0
-0.0502489 -0.137096 0.989282 0
-0.049687 -0.138196 0.989158 0
-0.0484508 -0.1362 0.989496 0
-0.0485502 -0.137013 0.989379 0
-0.0478733 -0.128917 0.990499 0
-0.0464697 -0.124802 0.991093 0
-0.0475273 -0.119511 0.991695 0
-0.0478149 -0.119231 0.991715 0
-0.0481254 -0.117602 0.991894 0
-0.0484607 -0.116898 0.991961 0
-0.0494954 -0.112178 0.992455 0
-0.050567 -0.111237 0.992507 0
-0.0505608 -0.101672 0.993532 0
-0.0499645 -0.0966933 0.994059 0
-0.0491794 -0.0922541 0.99452 0
-0.0490139 -0.0879499 0.994918 0
-0.0488455 -0.0836225 0.9953 0
-0.047081 -0.0851034 0.995259 0
-0.0469835 -0.0822666 0.995502 0
-0.0480658 -0.0779214 0.9958 0
-0.0478635 -0.0725083 0.996219 0
-0.048216 -0.066296 0.996634 0
-0.0502269 -0.0632115 0.996735 0.00117657
-0.0510106 -0.063197 0.996697 0.00140759
-0.0546088 -0.0585143 0.996792 0.00994872
-0.054661 -0.0539735 0.997045 0.0140487
-0.052607 -0.0506581 0.99733 0.0104341
-0.0496202 -0.049434 0.997544 0.00458555
-0.0500914 -0.0440648 0.997772 0.00435393
-0.049912 -0.0464416 0.997673 0.0075122
-0.0509544 -0.0412284 0.99785 0.013716
-0.0524642 -0.0358723 0.997978 0.0193073
-0.0542572 -0.0269451 0.998163 0.0271503
-0.0536595 -0.0176784 0.998403 0.0301633
-0.050649 -0.0176494 0.998561 0.0201849
-0.0525757 -0.0171149 0.99847 0.0259328
-0.0538399 -0.0131429 0.998463 0.0237514
-0.0539524 -0.0123788 0.998467 0.0238582
-0.0535216 -0.00155546 0.998565 0.0238747
-0.0556893 0.00269809 0.998444 0.0354372
-0.0545756 0.00718729 0.998484 0.0302701
-0.0497726 0.00264948 0.998757 0.0134676
-0.0468958 -0.00179089 0.998898 0.00254403
-0.0464433 0.00573209 0.998904 0.0060639
-0.0466519 0.00667741 0.998889 0.00660568
-0.0490407 0.0166302 0.998658 0.0109178
-0.0492181 0.0232318 0.998518 0.0195717
-0.0492386 0.0255278 0.998461 0.0197103
-0.0505945 0.0265067 0.998367 0.0240452
-0.0510372 0.0322274 0.998177 0.022732
-0.0496213 0.029403 0.998335 0.0126211
-0.0453602 0.0251797 0.998653 0
-0.0432747 0.0292621 0.998635 0
-0.0410216 0.0279566 0.998767 0
-0.0396309 0.0207123 0.999 0
-0.0385676 0.015631 0.999134 0
-0.0372351 0.00813736 0.999273 0
-0.0365843 0.0029083 0.999326 0
-0.034631 -0.00157916 0.999399 0
-0.0336269 0.000100476 0.999434 0
-0.0337844 0.000157635 0.999429 0
-0.034849 0.00467992 0.999382 0
-0.0368283 0.00776502 0.999291 0
-0.0384072 0.0118941 0.999191 0
-0.0390104 0.0228448 0.998978 0
-0.0423206 0.0332701 0.99855 0
-0.0473126 0.0452276 0.997856 0.0185368
-0.049987 0.0518161 0.997405 0.0296223
-0.0563632 0.0626124 0.996445 0.046817
-0.0621914 0.0726379 0.995417 0.0626532
-0.067498 0.0872196 0.9939 0.0789496
-0.0721473 0.106925 0.991646 0.0922663
-0.0772557 0.120551 0.989696 0.103302
-0.0799519 0.124179 0.989034 0.108072
-0.0830575 0.127012 0.988418 0.112528
-0.0856273 0.135888 0.987017 0.113759
-0.0874815 0.142229 0.98596 0.115236
-0.088741 0.146005 0.985296 0.117271
-0.0903329 0.145967 0.985157 0.118726
-0.0926525 0.144903 0.985098 0.127453
-0.0948198 0.141935 0.985324 0.134931
-0.094321 0.13313 0.9866 0.137896
-0.089834 0.130496 0.98737 0.135321
-0.0854699 0.115518 0.989621 0.130043
-0.0817135 0.106371 0.990963 0.124533
-0.0802161 0.0931124 0.992419 0.123063
-0.0780797 0.0781313 0.993881 0.117888
-0.076709 0.0695766 0.994623 0.112
-0.0730142 0.0615906 0.995427 0.105903
-0.0693347 0.057343 0.995944 0.101721
-0.066583 0.0590312 0.996033 0.0941213
-0.0621911 0.0482162 0.996899 0.0832345
-0.0582113 0.0339023 0.997728 0.0764109
-0.0526237 0.0218805 0.998375 0.0706755
-0.051007 0.014746 0.998589 0.0685613
-0.0493576 0.00768704 0.998752 0.0645303
-0.0466675 -0.00105815 0.99891 0.0521045
-0.0439785 -0.0111795 0.99897 0.0359189
-0.0410394 -0.0222168 0.998911 0.0169527
-0.0384497 -0.0297786 0.998817 0.0033896
-0.0372346 -0.0402962 0.998494 0
-0.0370792 -0.0406261 0.998486 0
-0.0345053 -0.0459651 0.998347 0
-0.0338763 -0.051289 0.998109 0
-0.0324735 -0.0540928 0.998008 0
-0.0321038 -0.06314 0.997488 0
-0.0312296 -0.0652947 0.997377 0
-0.0313266 -0.0652168 0.997379 0
-0.0301857 -0.0679072 0.997235 0
-0.0292442 -0.0721378 0.996966 0
-0.0312212 -0.0725138 0.996879 0
-0.0325818 -0.0759287 0.996581 0
-0.0339285 -0.0704785 0.996936 0
-0.0345589 -0.0660865 0.997215 3.82995e-05
-0.036766 -0.0639726 0.997274 0.012493
-0.0392082 -0.0636089 0.997204 0.0236695
-0.0420026 -0.0634739 0.997099 0.0259328
-0.0428453 -0.0573917 0.997432 0.0212623
-0.0416228 -0.0586154 0.997413 0.0137579
-0.0386622 -0.0543531 0.997773 0.00258261
-0.0371266 -0.0620375 0.997383 0
-0.0372221 -0.0709767 0.996783 0
-0.0372057 -0.0747588 0.996507 0
-0.0362848 -0.0794766 0.996176 0
-0.0368014 -0.0740944 0.996572 0
-0.0365804 -0.0803953 0.996092 0
-0.0365797 -0.0829551 0.995882 0
-0.0357891 -0.0936331 0.994963 0
-0.0343154 -0.0943063 0.994952 0
-0.0332326 -0.101902 0.994239 0
-0.0304157 -0.10299 0.994217 0
-0.0286816 -0.10651 0.993898 0
-0.0274999 -0.114956 0.99299 0
