# .PCD v0.7 - Point Cloud Data file format
VERSION 0.7
FIELDS x y z
SIZE 4 4 4
TYPE F F F
COUNT 1 1 1
WIDTH 1471
HEIGHT 1
VIEWPOINT 0 0 0 1 0 0 0
POINTS 1471
DATA ascii
-0.135582 0.165254 -0.23499399
-0.13391501 0.16529199 -0.23496801
-0.133673 0.16524699 -0.23499
-0.132155 0.165245 -0.23499601
-0.13166299 0.16526049 -0.2349755
-0.130042 0.1653055 -0.23481999
-0.1296895 0.165297 -0.234854
-0.129448 0.165299 -0.23491201
-0.12920301 0.165254 -0.23493101
-0.129199 0.165332 -0.234956
-0.128968 0.165249 -0.23497599
-0.12845933 0.16528501 -0.23489134
-0.13586 0.16542201 -0.23499601
-0.1339075 0.165445 -0.23499501
-0.13003235 0.16549899 -0.23486535
-0.12967901 0.16549367 -0.23491932
-0.12944001 0.165455 -0.2349565
-0.12919401 0.16541301 -0.234992
-0.12844799 0.16551767 -0.23494333
-0.12769599 0.165539 -0.234814
-0.127427 0.165525 -0.234805
-0.1250225 0.1655315 -0.234826
-0.130023 0.165692 -0.234907
-0.12966999 0.165649 -0.23496599
-0.128438 0.165711 -0.23499
-0.127976 0.16577899 -0.23481099
-0.12768668 0.16569968 -0.23488633
-0.127418 0.16568233 -0.23485768
-0.126352 0.16577899 -0.234807
-0.12556 0.16575 -0.234837
-0.13001266 0.165887 -0.23496331
-0.12796751 0.1659025 -0.23488599
-0.12767449 0.1659005 -0.23497599
-0.12740499 0.165886 -0.234963
-0.12634599 0.165897 -0.2348405
-0.12580851 0.16594499 -0.234817
-0.12555033 0.16591035 -0.23490833
-0.122718 0.165989 -0.234824
-0.127957 0.16609834 -0.23494901
-0.12633534 0.16609234 -0.23490201
-0.1260535 0.16611099 -0.234851
-0.12580299 0.166062 -0.23483799
-0.125798 0.16614 -0.23486599
-0.12554049 0.166105 -0.234953
-0.1227105 0.1661105 -0.23487401
-0.121275 0.16614699 -0.23480301
-0.1210345 0.16610301 -0.23483801
-0.126324 0.1662925 -0.234979
-0.12604134 0.16631366 -0.23494534
-0.12578833 0.16630267 -0.234946
-0.125535 0.16622099 -0.234981
-0.12269967 0.16630767 -0.234942
-0.12248667 0.16628566 -0.23485033
-0.122303 0.166346 -0.23482201
-0.12148251 0.1663475 -0.234827
-0.12126434 0.16631299 -0.23489767
-0.12102333 0.16630267 -0.23491567
-0.12074301 0.16631749 -0.234833
-0.12269 0.16646799 -0.235
-0.12247451 0.1664885 -0.23494101
-0.122292 0.16650967 -0.234914
-0.12212133 0.16649599 -0.23486383
-0.121942 0.166559 -0.23485
-0.121652 0.16654199 -0.23483901
-0.1214705 0.1665145 -0.234933
-0.121253 0.16647699 -0.234989
-0.121013 0.166465 -0.234988
-0.1207335 0.1664785 -0.234907
-0.12047001 0.16649801 -0.23485367
-0.120228 0.166557 -0.234816
-0.1193765 0.1664885 -0.234881
-0.118964 0.16655999 -0.23480301
-0.118606 0.16655 -0.23481201
-0.12211 0.16666201 -0.2349655
-0.121934 0.1666825 -0.23491749
-0.12171417 0.16670549 -0.23489849
-0.120725 0.166603 -0.23497801
-0.120459 0.16666199 -0.23494001
-0.12022001 0.1666785 -0.23487601
-0.119963 0.166784 -0.23488399
-0.118601 0.166632 -0.234854
-0.118325 0.166688 -0.23480301
-0.100941 0.166752 -0.234828
-0.120211 0.166806 -0.234972
-0.113352 0.166925 -0.234807
-0.113122 0.16688851 -0.234887
-0.1128768 0.1668978 -0.2348704
-0.112677 0.166981 -0.23487499
-0.100935 0.16683599 -0.23487499
-0.113347 0.167006 -0.234845
-0.113113 0.167015 -0.23496801
-0.112951 0.167006 -0.234965
-0.1063545 0.1277025 -0.2347655
-0.104812 0.12775999 -0.234767
-0.104552 0.127786 -0.23477501
-0.108623 0.1278965 -0.23478201
-0.10635 0.12789534 -0.23469268
-0.106168 0.127958 -0.234782
-0.105765 0.12799799 -0.2348
-0.10503999 0.12788266 -0.23476632
-0.104808 0.127913 -0.23472601
-0.1045495 0.12790149 -0.23472899
-0.10869034 0.1280915 -0.23473851
-0.108434 0.12808233 -0.23475033
-0.108213 0.128141 -0.234758
-0.10716 0.12808299 -0.23476933
-0.106346 0.12804601 -0.23465
-0.1061062 0.12812021 -0.2347426
-0.10568625 0.12810999 -0.23473951
-0.105464 0.12809551 -0.23477951
-0.10526234 0.12812166 -0.23474033
-0.10503566 0.12811433 -0.23467201
-0.10480466 0.12810634 -0.234641
-0.104546 0.128096 -0.23464034
-0.104269 0.1281065 -0.23477601
-0.108878 0.12829101 -0.234787
-0.10867079 0.12830301 -0.23467501
-0.10842967 0.12831266 -0.23465966
-0.10820899 0.12829368 -0.234712
-0.107954 0.128277 -0.23474433
-0.107674 0.128298 -0.234786
-0.1074075 0.1282845 -0.23475701
-0.10715533 0.12831266 -0.23468466
-0.10608825 0.12829724 -0.23467
-0.10568199 0.12830283 -0.23466851
-0.10546 0.12828666 -0.23470767
-0.105258 0.128314 -0.234676
-0.105031 0.12826701 -0.23463
-0.10426567 0.128299 -0.23469333
-0.104022 0.12834699 -0.234782
-0.109286 0.128574 -0.234787
-0.10893401 0.12848434 -0.23474066
-0.108753 0.12847534 -0.23465101
-0.108426 0.128466 -0.234602
-0.1082045 0.12848449 -0.234649
-0.10794967 0.12850867 -0.23464201
-0.10767 0.12849034 -0.23470999
-0.10740399 0.12847733 -0.23467399
-0.107152 0.128466 -0.234626
-0.1060125 0.12844551 -0.234624
-0.105601 0.12845001 -0.234622
-0.1054565 0.12848049 -0.234621
-0.105255 0.1284665 -0.234615
-0.104261 0.128491 -0.234632
-0.10401966 0.12850334 -0.23470533
-0.110746 0.12872399 -0.234796
-0.110505 0.12875149 -0.23477
-0.110014 0.12876301 -0.234778
-0.109534 0.128731 -0.23478401
-0.109283 0.1286875 -0.234754
-0.1089416 0.1286988 -0.23466261
-0.108749 0.128626 -0.234603
-0.108202 0.1286 -0.234607
-0.1076665 0.12868151 -0.234625
-0.107401 0.12863199 -0.23461001
-0.104258 0.12860399 -0.234607
-0.104014 0.12869251 -0.234668
-0.10376867 0.12871699 -0.23472066
-0.11074233 0.128877 -0.23475635
-0.110501 0.12890249 -0.2347295
-0.11001 0.12891434 -0.23472632
-0.10977233 0.12890166 -0.23473233
-0.10953233 0.12888734 -0.23469932
-0.10927933 0.128879 -0.23467566
-0.1089835 0.128905 -0.234635
-0.104009 0.12888134 -0.23462367
-0.103765 0.12890899 -0.23464701
-0.10354467 0.12891833 -0.23475367
-0.103392 0.128987 -0.234779
-0.102934 0.12892666 -0.23476899
-0.111825 0.129164 -0.234798
-0.111449 0.129132 -0.234791
-0.111293 0.12909299 -0.23476499
-0.111142 0.129087 -0.234789
-0.11095599 0.12911333 -0.23476033
-0.11073667 0.12910467 -0.23468967
-0.11049601 0.12909199 -0.23467799
-0.1100045 0.129103 -0.234695
-0.1097695 0.12909451 -0.23463401
-0.1095285 0.12907851 -0.234622
-0.109276 0.129032 -0.234622
-0.10898 0.129016 -0.234616
-0.1037605 0.12906 -0.23461249
-0.103541 0.1291105 -0.234678
-0.1033195 0.129094 -0.23476949
-0.10290267 0.12910217 -0.23472434
-0.102636 0.129161 -0.234797
-0.11188839 0.12933281 -0.23476961
-0.111682 0.129345 -0.234773
-0.11149321 0.1293066 -0.2347358
-0.11128834 0.12928234 -0.23470499
-0.11113834 0.12927668 -0.23472531
-0.110951 0.129301 -0.234706
-0.1107305 0.129291 -0.23466399
-0.11048967 0.12931834 -0.23462565
-0.110001 0.129214 -0.234671
-0.1099975 0.129327 -0.2346645
-0.109765 0.129245 -0.23460701
-0.10353533 0.129299 -0.23464234
-0.1033145 0.1292835 -0.23472698
-0.102897 0.12929076 -0.23468673
-0.10263167 0.12931132 -0.23476966
-0.1136595 0.129521 -0.23479551
-0.1119005 0.12950625 -0.23473749
-0.111677 0.12949499 -0.234743
-0.11148779 0.1295028 -0.23468721
-0.11128233 0.12951 -0.23464334
-0.111132 0.12950267 -0.23466967
-0.11094532 0.12948968 -0.23467301
-0.11072467 0.12947832 -0.234632
-0.10999066 0.12951232 -0.23464932
-0.103529 0.12948599 -0.234614
-0.10330751 0.12950867 -0.23469065
-0.10289217 0.12947999 -0.23463635
-0.1026255 0.12949851 -0.2347445
-0.114801 0.129704 -0.234791
-0.114798 0.129778 -0.234788
-0.114574 0.1297285 -0.23479
-0.1139795 0.12975401 -0.234799
-0.1118945 0.129694 -0.234707
-0.11167134 0.129683 -0.234708
-0.1115066 0.12968621 -0.23465721
-0.111277 0.129697 -0.234606
-0.111126 0.129691 -0.23463699
-0.11093867 0.12971534 -0.23463
-0.11072 0.12963 -0.23460101
-0.109987 0.129665 -0.23460799
-0.10330125 0.12969625 -0.23466349
-0.1028682 0.12968761 -0.23462979
-0.10261967 0.12968667 -0.23471266
-0.102384 0.129741 -0.23478401
-0.115089 0.129939 -0.2348
-0.1147945 0.12988999 -0.234777
-0.11452575 0.12993075 -0.23477599
-0.113975 0.129905 -0.23478
-0.1119046 0.129904 -0.2346808
-0.1116985 0.1299285 -0.23466399
-0.111518 0.12987901 -0.234634
-0.11112034 0.12987767 -0.23460667
-0.1109325 0.12990201 -0.234611
-0.103295 0.12988366 -0.23464067
-0.1026862 0.1299012 -0.234658
-0.10237834 0.12989067 -0.234779
-0.11508299 0.130087 -0.23479849
-0.114788 0.13007499 -0.23476233
-0.1145605 0.130101 -0.23476601
-0.11430334 0.13011834 -0.23478733
-0.114116 0.1301415 -0.23477599
-0.1139102 0.13010421 -0.234772
-0.11363833 0.130077 -0.23478401
-0.1119655 0.130108 -0.23467401
-0.1117265 0.130097 -0.23465601
-0.111539 0.13012402 -0.23463434
-0.110928 0.130013 -0.234607
-0.10327361 0.13009059 -0.2346328
-0.102606 0.130099 -0.234661
-0.10237134 0.13011567 -0.23474534
-0.11507499 0.130309 -0.23478967
-0.11477967 0.13029701 -0.23476167
-0.11455367 0.13028701 -0.23475401
-0.1143195 0.13030499 -0.23479399
-0.1141095 0.13029 -0.2347855
-0.11388867 0.13031299 -0.23475735
-0.11363067 0.130299 -0.23476601
-0.111959 0.13029332 -0.23466833
-0.11171933 0.13028184 -0.23465268
-0.11153249 0.130309 -0.23462451
-0.103211 0.130289 -0.23462451
-0.102602 0.130211 -0.234649
-0.1025985 0.13032299 -0.234642
-0.1023645 0.13030249 -0.23474
-0.1150675 0.130494 -0.23479649
-0.11477166 0.13052033 -0.23474467
-0.11454567 0.13050835 -0.234742
-0.11438134 0.130495 -0.23478334
-0.11410233 0.130474 -0.23479068
-0.1138815 0.1304975 -0.23474875
-0.113622 0.13052233 -0.23476167
-0.11195034 0.13051499 -0.23466933
-0.11171216 0.13050599 -0.23462282
-0.111528 0.130419 -0.234624
-0.10320467 0.130475 -0.23461032
-0.10259166 0.13050835 -0.23463267
-0.10235734 0.13048699 -0.23473567
-0.11506 0.13067833 -0.23479332
-0.1147645 0.130706 -0.234742
-0.114538 0.13069201 -0.234752
-0.11433775 0.13073376 -0.23477425
-0.114095 0.13069767 -0.23475701
-0.1138894 0.1306684 -0.23474722
-0.113677 0.13072367 -0.23475434
-0.1119435 0.13069999 -0.2346635
-0.11169001 0.1307116 -0.2346302
-0.1025845 0.130693 -0.234632
-0.10234933 0.130711 -0.23472099
-0.11505133 0.13089933 -0.23479301
-0.114757 0.130889 -0.23474967
-0.11453167 0.130879 -0.23473434
-0.11429675 0.13089649 -0.23478276
-0.11408633 0.13091867 -0.23476066
-0.113938 0.13090533 -0.23473501
-0.11370099 0.13089783 -0.23475732
-0.111936 0.13088299 -0.23467232
-0.11171 0.13088921 -0.23464379
-0.1115095 0.13090199 -0.234613
-0.102577 0.130878 -0.23463567
-0.1023425 0.13089651 -0.2347075
-0.11504301 0.13112199 -0.23478734
-0.11474834 0.13111167 -0.23474734
-0.11452299 0.13109966 -0.23474233
-0.114358 0.13108601 -0.23478734
-0.114079 0.13110301 -0.234769
-0.1139305 0.13109049 -0.23473799
-0.11372566 0.13107167 -0.23475634
-0.113598 0.1311505 -0.23475599
-0.111927 0.13110501 -0.23467034
-0.11168849 0.13109533 -0.23463883
-0.11150267 0.13108566 -0.23461334
-0.10256901 0.13110133 -0.234622
-0.10233533 0.13108234 -0.23470734
-0.1150365 0.13130599 -0.234786
-0.1147415 0.13129599 -0.23473901
-0.11451367 0.131321 -0.23474967
-0.114352 0.13123301 -0.234798
-0.11407133 0.13128765 -0.23477201
-0.11392333 0.131275 -0.23473334
-0.11378 0.13127433 -0.23474801
-0.113593 0.1313 -0.2347385
-0.11192051 0.131292 -0.23466
-0.11167983 0.13131683 -0.23463865
-0.111494 0.13130735 -0.23461367
-0.103173 0.13128901 -0.234603
-0.102561 0.13132501 -0.234607
-0.10232601 0.13130432 -0.23471934
-0.115029 0.13149001 -0.23479199
-0.114734 0.13147967 -0.23474967
-0.11450601 0.131505 -0.23475599
-0.114342 0.13149101 -0.23479401
-0.114097 0.13153002 -0.23478024
-0.11391567 0.13149767 -0.234721
-0.113772 0.131496 -0.23474033
-0.11358666 0.131486 -0.23472534
-0.111913 0.131475 -0.23466401
-0.11167224 0.131502 -0.2346465
-0.11148649 0.13149151 -0.234623
-0.103161 0.131585 -0.23460799
-0.1025535 0.13150901 -0.234622
-0.102317 0.13152565 -0.23473465
-0.115304 0.13173001 -0.23479401
-0.1150215 0.131675 -0.234797
-0.11472467 0.13170101 -0.23476768
-0.114498 0.13168834 -0.23477232
-0.11433651 0.131639 -0.234798
-0.11410266 0.131685 -0.23478599
-0.11390633 0.13171832 -0.23472834
-0.11376333 0.13171732 -0.23473935
-0.113578 0.131706 -0.23473066
-0.111904 0.131697 -0.234672
-0.111733 0.13168867 -0.23465832
-0.111538 0.13167934 -0.23463066
-0.1031565 0.131694 -0.23462451
-0.10254566 0.131694 -0.23462801
-0.1023095 0.13170999 -0.23473799
-0.1152995 0.131841 -0.234798
-0.114715 0.13191967 -0.23479001
-0.114489 0.131909 -0.23477733
-0.11432699 0.131899 -0.23477532
-0.11411834 0.13188334 -0.2347855
-0.1138995 0.13190299 -0.234727
-0.1137565 0.131901 -0.23474151
-0.1135705 0.131891 -0.234723
-0.111895 0.131917 -0.23468535
-0.11172467 0.13191 -0.23465936
-0.11152849 0.13189983 -0.23465268
-0.10314866 0.131879 -0.23463367
-0.102536 0.131914 -0.23464601
-0.10230301 0.131896 -0.23472966
-0.1144815 0.132094 -0.23478499
-0.1143195 0.132084 -0.234781
-0.11408767 0.13205267 -0.23479234
-0.113892 0.13208835 -0.23473001
-0.113749 0.13208599 -0.23474367
-0.113563 0.132075 -0.23473667
-0.1118875 0.132101 -0.2346895
-0.11171649 0.132093 -0.2346765
-0.11151934 0.13212018 -0.23466533
-0.103276 0.132185 -0.234602
-0.10314 0.132101 -0.23463432
-0.102529 0.132101 -0.234643
-0.10229266 0.13211633 -0.234761
-0.1146985 0.13232601 -0.234798
-0.11447466 0.13227832 -0.234779
-0.11388233 0.13230699 -0.23475568
-0.11374 0.13230734 -0.23475099
-0.113554 0.13229632 -0.23474699
-0.11188 0.13228567 -0.23469032
-0.11170801 0.132276 -0.23469834
-0.11151125 0.13230449 -0.23468
-0.111026 0.13231499 -0.234605
-0.1032715 0.13229699 -0.234616
-0.103131 0.132323 -0.23464835
-0.1028655 0.132264 -0.23460349
-0.10252034 0.13228333 -0.23467301
-0.102285 0.132301 -0.2347665
-0.11469167 0.132511 -0.23479833
-0.114466 0.13250001 -0.23478766
-0.1138745 0.13249201 -0.23476401
-0.113732 0.13249049 -0.234771
-0.113545 0.13251765 -0.23474766
-0.11187166 0.13250767 -0.23469301
-0.1117 0.132498 -0.23469967
-0.111504 0.13248885 -0.23467982
-0.1110185 0.13249999 -0.234607
-0.103264 0.13248067 -0.234616
-0.1031235 0.13250899 -0.23465601
-0.102693 0.13259 -0.234605
-0.10251 0.132503 -0.23470666
-0.10227734 0.13248567 -0.234778
-0.1146845 0.132696 -0.23479199
-0.114457 0.13272099 -0.23479266
-0.11386699 0.13267533 -0.234773
-0.113724 0.13267499 -0.23478432
-0.113537 0.13270099 -0.23476949
-0.11186349 0.13269 -0.234715
-0.111691 0.13271999 -0.23470066
-0.11149534 0.13271052 -0.23468034
-0.111316 0.13276801 -0.23460101
-0.11101067 0.13268466 -0.23461799
-0.11082301 0.132709 -0.23461199
-0.103255 0.13270266 -0.23462333
-0.10311534 0.13269199 -0.23466933
-0.102846 0.13274699 -0.234603
-0.1026875 0.132698 -0.23462501
-0.102503 0.132688 -0.234707
-0.10226967 0.13271034 -0.23475534
-0.11468 0.132805 -0.234798
-0.1144505 0.132906 -0.23478299
-0.11385833 0.132897 -0.23477499
-0.11371499 0.13289635 -0.23478867
-0.113529 0.13288467 -0.23478599
-0.11185566 0.13287467 -0.234731
-0.111683 0.13290299 -0.23471701
-0.11148725 0.13289325 -0.23470601
-0.11130933 0.13291366 -0.23463367
-0.11109199 0.13289401 -0.23461881
-0.11086124 0.1329145 -0.234623
-0.103246 0.13292533 -0.23462667
-0.10310634 0.13291399 -0.234676
-0.10284033 0.13289434 -0.23460867
-0.10268 0.132884 -0.23463134
-0.102497 0.132875 -0.23468967
-0.10226201 0.13289399 -0.23476899
-0.11384901 0.13311867 -0.23478568
-0.11370599 0.13311701 -0.23479468
-0.11352033 0.13310601 -0.23479033
-0.11184666 0.13309599 -0.23473734
-0.11167533 0.13308768 -0.23472799
-0.11147984 0.13307868 -0.23471133
-0.1113005 0.13309801 -0.234658
-0.111144 0.133095 -0.2346155
-0.11088099 0.133104 -0.23464239
-0.109852 0.133137 -0.23460101
-0.1032385 0.133109 -0.2346435
-0.103099 0.133099 -0.23467949
-0.10283067 0.13311601 -0.23462801
-0.10267067 0.13310499 -0.23464601
-0.102488 0.13309799 -0.23468868
-0.102254 0.13307901 -0.23478568
-0.113843 0.133266 -0.23479199
-0.1137 0.133265 -0.234796
-0.1135135 0.13329101 -0.23478401
-0.11183733 0.13331734 -0.23475067
-0.111666 0.13330901 -0.23473601
-0.111471 0.1332995 -0.23471333
-0.11129433 0.13328268 -0.234643
-0.111137 0.13327967 -0.23461032
-0.110986 0.13327335 -0.23465832
-0.1107985 0.133297 -0.23464751
-0.109843 0.133359 -0.234605
-0.10323133 0.13329434 -0.23463567
-0.10309201 0.13328467 -0.234679
-0.102823 0.13330001 -0.23464151
-0.1026635 0.1332905 -0.234652
-0.10247866 0.13332033 -0.23470066
-0.10224533 0.13330168 -0.23478566
-0.1138335 0.13352549 -0.234788
-0.1118295 0.13350099 -0.23476399
-0.11165901 0.133494 -0.2347385
-0.111462 0.13352166 -0.23471649
-0.11128633 0.13350533 -0.23462801
-0.11112867 0.13350134 -0.23461001
-0.11097767 0.13349533 -0.23465268
-0.11079101 0.13348199 -0.23465766
-0.109837 0.133507 -0.234613
-0.10322366 0.13351767 -0.23461634
-0.10308299 0.13350667 -0.23468167
-0.10281599 0.133485 -0.23463632
-0.10265633 0.133476 -0.234641
-0.102471 0.133504 -0.23471799
-0.102236 0.133523 -0.23479366
-0.113827 0.13371032 -0.23477601
-0.113686 0.133635 -0.2348
-0.113497 0.133696 -0.2348
-0.11182234 0.13368601 -0.23476434
-0.11165199 0.133679 -0.23474367
-0.1115135 0.133709 -0.23473501
-0.11132439 0.13371679 -0.23467699
-0.11111933 0.13372268 -0.234631
-0.11096799 0.133716 -0.23467433
-0.110782 0.13370401 -0.23465998
-0.110559 0.13376801 -0.23460101
-0.1098295 0.13369 -0.23462901
-0.103216 0.133702 -0.23462501
-0.1030755 0.133691 -0.23468401
-0.10280734 0.133707 -0.23463434
-0.102649 0.13369867 -0.23461866
-0.102464 0.133689 -0.23471166
-0.1139098 0.1338816 -0.23478401
-0.111814 0.133908 -0.23476134
-0.11164299 0.13390033 -0.23473768
-0.11150599 0.13389432 -0.23473899
-0.1113408 0.13389519 -0.2346942
-0.111111 0.13390499 -0.23465
-0.1109605 0.133899 -0.234679
-0.1107755 0.133889 -0.23465
-0.11055366 0.13391399 -0.23460233
-0.10982267 0.13387567 -0.23461668
-0.103209 0.13388701 -0.23462534
-0.103068 0.133876 -0.23469166
-0.102802 0.133855 -0.23463
-0.10267974 0.13392325 -0.23462626
-0.102455 0.13391167 -0.23471133
-0.113814 0.134005 -0.2348
-0.1118065 0.134093 -0.234763
-0.11163467 0.13412134 -0.23473834
-0.11149701 0.134115 -0.23474133
-0.1113205 0.1341015 -0.23469616
-0.11110433 0.13409133 -0.23464201
-0.11095367 0.13408534 -0.23467368
-0.11076766 0.13407268 -0.234659
-0.110546 0.13409901 -0.23460999
-0.10981401 0.13409699 -0.23461466
-0.103203 0.13403501 -0.23462901
-0.10311539 0.1341178 -0.2346638
-0.1027298 0.1340898 -0.23461279
-0.10244749 0.134096 -0.234723
-0.114393 0.13434701 -0.234798
-0.111802 0.134204 -0.234759
-0.1117125 0.13431001 -0.23475298
-0.1114895 0.13429999 -0.234745
-0.11130099 0.13430661 -0.23468521
-0.11109533 0.134312 -0.23464733
-0.11094501 0.134306 -0.23467468
-0.110758 0.134294 -0.234672
-0.11053801 0.13428266 -0.23462333
-0.109805 0.13431899 -0.23461334
-0.103108 0.1343098 -0.23466079
-0.102705 0.13429551 -0.23462735
-0.10243967 0.13428032 -0.23473366
-0.114391 0.13442101 -0.234797
-0.113797 0.13444699 -0.234798
-0.11170465 0.1344945 -0.23476548
-0.11148233 0.13448434 -0.23475401
-0.1113176 0.1344866 -0.23469619
-0.1110885 0.13449749 -0.234633
-0.11093751 0.134491 -0.23467
-0.11075 0.13451533 -0.23467334
-0.11052966 0.13450401 -0.23462166
-0.110286 0.134565 -0.234604
-0.10979851 0.13450401 -0.23461449
-0.10312939 0.13449061 -0.23464361
-0.10269585 0.13451684 -0.23464131
-0.10243034 0.13450234 -0.23475067
-0.113785 0.13474301 -0.234798
-0.11169666 0.13471633 -0.23475568
-0.111474 0.13470633 -0.23474599
-0.11129799 0.13469218 -0.234688
-0.111082 0.134681 -0.23463035
-0.110931 0.13467567 -0.23466533
-0.11074249 0.134699 -0.234679
-0.1105225 0.1346885 -0.234614
-0.110283 0.13463899 -0.234606
-0.109791 0.13468833 -0.23461433
-0.10310667 0.13469599 -0.23466301
-0.10268874 0.1347025 -0.23463801
-0.10242101 0.13472368 -0.23476867
-0.1139295 0.13494501 -0.23476401
-0.113744 0.13491026 -0.2347835
-0.1116895 0.13490099 -0.23475575
-0.1114665 0.134891 -0.2347495
-0.11129001 0.13491483 -0.23467316
-0.11107334 0.13490367 -0.23462667
-0.11092266 0.13489833 -0.23465268
-0.11073568 0.13488533 -0.234667
-0.11051566 0.13487333 -0.23461266
-0.10978166 0.13490967 -0.234631
-0.103098 0.13491799 -0.23466867
-0.10269801 0.1348736 -0.23464379
-0.10247634 0.13492566 -0.234708
-0.114362 0.135158 -0.234795
-0.113923 0.13509101 -0.23477751
-0.11370067 0.13511316 -0.23478167
-0.11176767 0.13508968 -0.23476034
-0.11152849 0.13507934 -0.23474467
-0.11128324 0.13509999 -0.23466125
-0.11091433 0.135121 -0.23464532
-0.110727 0.13510732 -0.23466332
-0.110507 0.135095 -0.23460799
-0.1097745 0.13509351 -0.23462501
-0.10309075 0.135103 -0.23466651
-0.102752 0.13511433 -0.234649
-0.1025005 0.13510068 -0.23469083
-0.11435699 0.135306 -0.23478501
-0.113918 0.13520101 -0.23479199
-0.1136935 0.13529749 -0.23477998
-0.11343399 0.13532233 -0.23479234
-0.11176 0.135313 -0.23474266
-0.1115205 0.13530166 -0.23472767
-0.11133533 0.13529132 -0.23468865
-0.1109085 0.135306 -0.234622
-0.1107205 0.13529199 -0.23465401
-0.110499 0.135317 -0.23460567
-0.109771 0.135206 -0.234604
-0.10308383 0.13528867 -0.23465832
-0.102744 0.135298 -0.23467001
-0.10252466 0.13527399 -0.23467799
-0.1023985 0.13535601 -0.234721
-0.11435 0.135454 -0.2348
-0.1141865 0.13548 -0.2347995
-0.11390667 0.13549735 -0.23479134
-0.1136865 0.13548167 -0.23478
-0.1134275 0.135508 -0.23478299
-0.111753 0.135498 -0.23473801
-0.11151216 0.1355235 -0.23471649
-0.11127941 0.1355232 -0.2346516
-0.111051 0.13549633 -0.23460734
-0.11090001 0.135491 -0.23464167
-0.110713 0.13547499 -0.234661
-0.110493 0.135465 -0.234604
-0.109762 0.135428 -0.234607
-0.10307501 0.13551068 -0.23466665
-0.10273767 0.13548432 -0.23465466
-0.10257733 0.135474 -0.23467834
-0.1023935 0.13550501 -0.23471001
-0.114568 0.13568699 -0.23479633
-0.11434267 0.135676 -0.23478234
-0.113898 0.135719 -0.23479335
-0.11367834 0.13570517 -0.23476183
-0.11342 0.135693 -0.23477934
-0.11174667 0.13568334 -0.23471498
-0.1115055 0.13570926 -0.2347075
-0.11126076 0.13569149 -0.234653
-0.11109567 0.135719 -0.23460601
-0.110892 0.13571133 -0.23464198
-0.110705 0.135699 -0.234641
-0.110482 0.13576099 -0.234604
-0.1031375 0.1357 -0.23464701
-0.102997 0.135691 -0.23469999
-0.102728 0.13570566 -0.23466432
-0.10256901 0.13569599 -0.23467465
-0.102386 0.13569 -0.23471367
-0.11455967 0.13590766 -0.23479266
-0.11433333 0.13589732 -0.234791
-0.11403 0.135951 -0.2348
-0.113891 0.135904 -0.234788
-0.11369634 0.13587767 -0.23474668
-0.11345875 0.1359175 -0.23476174
-0.11173833 0.13590533 -0.23470767
-0.11149883 0.13589384 -0.23469366
-0.11131334 0.13588335 -0.23466332
-0.111194 0.1359075 -0.234604
-0.110885 0.135897 -0.234633
-0.11069733 0.135921 -0.23462801
-0.110479 0.13583501 -0.234605
-0.10313001 0.135885 -0.23465432
-0.102989 0.135875 -0.23471634
-0.102722 0.135892 -0.234649
-0.10256034 0.13591866 -0.23466666
-0.10237633 0.13591067 -0.23473799
-0.114553 0.136094 -0.234781
-0.11432534 0.13611934 -0.23478234
-0.113884 0.136089 -0.23478098
-0.11373633 0.136075 -0.23474
-0.11351801 0.136085 -0.23475739
-0.111732 0.13609 -0.234695
-0.11149117 0.136116 -0.23467666
-0.11130533 0.136105 -0.23465633
-0.11119 0.13601799 -0.234607
-0.110878 0.13608199 -0.23462999
-0.11069 0.136105 -0.23462701
-0.103122 0.13610832 -0.23463833
-0.102981 0.13609767 -0.23470233
-0.102714 0.136077 -0.23465633
-0.1025535 0.136104 -0.2346645
-0.10237 0.136098 -0.234716
-0.1151255 0.136346 -0.234779
-0.114546 0.136279 -0.23477633
-0.114319 0.13630401 -0.23476
-0.11406066 0.13634866 -0.23479033
-0.11387601 0.13631134 -0.234769
-0.11372799 0.136297 -0.23473768
-0.113539 0.13627501 -0.23474576
-0.113398 0.1363225 -0.234732
-0.11172533 0.13627566 -0.23468132
-0.1114845 0.13630199 -0.234668
-0.111299 0.1362915 -0.234635
-0.1108705 0.13630351 -0.23460701
-0.11068366 0.13629133 -0.234613
-0.1031155 0.13629501 -0.2346105
-0.10297301 0.13632099 -0.23469234
-0.10270601 0.13629867 -0.23464768
-0.10254667 0.13629033 -0.23465167
-0.102363 0.13628332 -0.234713
-0.11512 0.13645799 -0.23479401
-0.1148315 0.136549 -0.234795
-0.11453766 0.13650067 -0.23477234
-0.11431199 0.136489 -0.23475899
-0.11409221 0.13648881 -0.23479161
-0.1138695 0.13649701 -0.2347485
-0.11371934 0.136519 -0.23473866
-0.113577 0.136518 -0.23473465
-0.113391 0.136507 -0.23473133
-0.11171734 0.13649867 -0.234667
-0.11147767 0.1364865 -0.23465265
-0.11129134 0.136476 -0.23463935
-0.1108635 0.13648801 -0.23460549
-0.110675 0.13651334 -0.23460667
-0.103108 0.13647868 -0.23462467
-0.1029665 0.13650501 -0.23468199
-0.10269734 0.13652067 -0.23465033
-0.10253867 0.13651265 -0.23463567
-0.102354 0.13650499 -0.23471832
-0.11452967 0.136722 -0.23475902
-0.114303 0.136711 -0.23476
-0.1140852 0.1366816 -0.23477599
-0.11389625 0.13670251 -0.23475875
-0.113714 0.136705 -0.23470199
-0.11357 0.136704 -0.23472601
-0.113384 0.136692 -0.23471999
-0.111709 0.13671933 -0.23467134
-0.11148419 0.13669461 -0.2346462
-0.11131226 0.13671851 -0.2346275
-0.1108545 0.13671 -0.23460799
-0.110668 0.13669901 -0.23460701
-0.103099 0.13670067 -0.23462801
-0.10295834 0.13669068 -0.23469599
-0.10269099 0.1367065 -0.23462701
-0.102531 0.13669801 -0.23464501
-0.10234649 0.13668901 -0.23472899
-0.1145225 0.136907 -0.23476499
-0.114296 0.13689551 -0.234754
-0.11413133 0.136921 -0.23477702
-0.1139094 0.1369068 -0.2347682
-0.11370633 0.13688932 -0.23470533
-0.11356333 0.13688833 -0.23471367
-0.113377 0.136877 -0.23471433
-0.1117015 0.136904 -0.23467451
-0.111531 0.136896 -0.23465
-0.1113222 0.13690761 -0.234635
-0.1108485 0.136858 -0.2346095
-0.110663 0.13680799 -0.234611
-0.103094 0.136848 -0.234621
-0.10294967 0.13691233 -0.23469466
-0.10268434 0.13689268 -0.23461933
-0.102524 0.13688268 -0.23464167
-0.102339 0.13687401 -0.23473734
-0.114515 0.13709199 -0.23475634
-0.11429 0.13708 -0.23473501
-0.1141245 0.137106 -0.23477501
-0.1139022 0.13711381 -0.2347502
-0.11369767 0.13710999 -0.23470832
-0.11355499 0.13710965 -0.23470502
-0.113369 0.13709867 -0.23470567
-0.11169467 0.137088 -0.23466568
-0.11152401 0.137081 -0.23464365
-0.111339 0.137086 -0.234641
-0.102944 0.13709849 -0.23466
-0.10267434 0.137114 -0.23464499
-0.102516 0.137104 -0.23462667
-0.10233101 0.13709733 -0.234721
-0.114799 0.13739701 -0.234796
-0.114507 0.13731334 -0.23475067
-0.114281 0.137302 -0.23473501
-0.114118 0.137291 -0.23475401
-0.11392441 0.13729379 -0.2347264
-0.11369149 0.1372965 -0.234688
-0.1135485 0.13729601 -0.234695
-0.113361 0.13732 -0.23469166
-0.11168633 0.13731 -0.23465766
-0.11151666 0.137302 -0.23461501
-0.11135 0.1372755 -0.23462701
-0.10307451 0.137329 -0.2346265
-0.10293701 0.13728465 -0.23465501
-0.1026665 0.137298 -0.234658
-0.1025095 0.13729 -0.23461899
-0.102322 0.137319 -0.23471934
-0.1147945 0.137508 -0.23479199
-0.1145 0.13749701 -0.23475099
-0.11427266 0.13752399 -0.23473299
-0.114109 0.13751233 -0.23476298
-0.11390217 0.13749899 -0.234735
-0.11368466 0.13747968 -0.23468268
-0.11354101 0.13747901 -0.23469533
-0.11335351 0.13750499 -0.23470449
-0.11167949 0.137495 -0.234651
-0.11150733 0.13752399 -0.23462467
-0.11137033 0.13751833 -0.23462398
-0.1030695 0.13747799 -0.234614
-0.10292833 0.13750599 -0.23465832
-0.10266 0.13748367 -0.23464501
-0.10250167 0.13747467 -0.23463434
-0.1023155 0.137504 -0.234716
-0.11507166 0.13771234 -0.23479165
-0.11478767 0.13769434 -0.23478301
-0.114493 0.13768168 -0.23473667
-0.1142655 0.13770801 -0.234742
-0.114102 0.13769749 -0.23475701
-0.11389467 0.13772117 -0.23470749
-0.113676 0.137701 -0.23468566
-0.11353267 0.13770068 -0.23469765
-0.11334634 0.13768999 -0.23469134
-0.11167333 0.13767967 -0.23462534
-0.111501 0.13770901 -0.23460901
-0.111364 0.137703 -0.234604
-0.10306 0.13773701 -0.23460799
-0.102922 0.137692 -0.2346455
-0.10265201 0.137705 -0.234635
-0.10249167 0.13769667 -0.23465766
-0.10230833 0.13769032 -0.23470767
-0.115066 0.13789749 -0.23476499
-0.11478033 0.13791633 -0.23475634
-0.114485 0.137903 -0.23473699
-0.11425833 0.13789167 -0.234735
-0.11409567 0.13788199 -0.23474102
-0.11388775 0.13790551 -0.23470649
-0.11366767 0.137923 -0.234677
-0.113524 0.137922 -0.23469333
-0.113339 0.13791133 -0.23467134
-0.111669 0.13782801 -0.23460101
-0.111497 0.13782001 -0.234605
-0.1113555 0.137924 -0.23460901
-0.103056 0.13781101 -0.234616
-0.102914 0.13787568 -0.23466067
-0.10264499 0.13789 -0.2346305
-0.10248401 0.137918 -0.23464298
-0.10229967 0.137913 -0.23470967
-0.11505967 0.138083 -0.23474233
-0.1147735 0.138101 -0.234752
-0.114476 0.138125 -0.23473334
-0.11425167 0.13811468 -0.23469667
-0.114088 0.13810401 -0.23472534
-0.11388034 0.13808967 -0.23470718
-0.1136605 0.138108 -0.234676
-0.1135175 0.138107 -0.2346805
-0.1133315 0.1380955 -0.23468
-0.1116555 0.13816001 -0.234606
-0.111348 0.138108 -0.23460932
-0.10290601 0.138099 -0.23464935
-0.10263833 0.13807701 -0.23461801
-0.1024765 0.13810399 -0.23463801
-0.102291 0.138096 -0.2347395
-0.116848 0.13831501 -0.234788
-0.11505034 0.13830332 -0.23476233
-0.11476634 0.13828532 -0.23475067
-0.1144695 0.13831 -0.23472801
-0.1142435 0.138298 -0.23470999
-0.11407966 0.13832533 -0.234717
-0.1138862 0.1382976 -0.2347106
-0.11369025 0.13831475 -0.23467174
-0.11351067 0.138292 -0.234677
-0.113325 0.138281 -0.234658
-0.1116495 0.13830751 -0.23461351
-0.111343 0.138256 -0.234602
-0.102897 0.138321 -0.23464499
-0.10263 0.13829868 -0.23460801
-0.10247 0.13828968 -0.23462398
-0.10228467 0.13828166 -0.23472466
-0.102048 0.13834301 -0.234796
-0.1170275 0.138514 -0.23479649
-0.1168405 0.13849899 -0.23479
-0.115042 0.13852467 -0.23475568
-0.11475799 0.13850732 -0.23474167
-0.11446267 0.138494 -0.23471566
-0.114237 0.13848366 -0.23470001
-0.1140735 0.13851 -0.23469299
-0.113935 0.13850051 -0.23471001
-0.113705 0.13850459 -0.2346746
-0.113502 0.13851267 -0.234679
-0.11331699 0.13850234 -0.234657
-0.11164233 0.13849235 -0.23461168
-0.1028905 0.138506 -0.23463699
-0.102619 0.138594 -0.234606
-0.102462 0.13851233 -0.23460533
-0.102277 0.138504 -0.23470099
-0.1020445 0.13845401 -0.23479399
-0.11683401 0.13868333 -0.23478234
-0.11503451 0.13870899 -0.234754
-0.1147505 0.13869099 -0.23474351
-0.11445466 0.138716 -0.23470433
-0.114228 0.138705 -0.23470898
-0.11406567 0.13869433 -0.23470934
-0.11392733 0.13868567 -0.23471534
-0.113728 0.13868442 -0.2346756
-0.1134945 0.138697 -0.234677
-0.11330801 0.138723 -0.23466568
-0.10288334 0.13869132 -0.23463367
-0.102616 0.138668 -0.234606
-0.102453 0.138735 -0.23461001
-0.102271 0.13869099 -0.234679
-0.10203501 0.13871367 -0.23477601
-0.115028 0.13889299 -0.23474534
-0.11474401 0.13887499 -0.23473734
-0.1144475 0.138901 -0.234706
-0.1142215 0.138889 -0.23469301
-0.11405667 0.138915 -0.23471732
-0.113919 0.13890733 -0.23470502
-0.11370467 0.13888967 -0.2346765
-0.11348733 0.13888167 -0.23467767
-0.1132995 0.138908 -0.23467951
-0.10287467 0.13891333 -0.234635
-0.10244733 0.13888167 -0.23461567
-0.10226401 0.13887601 -0.23467399
-0.10203 0.13890049 -0.234733
-0.116816 0.139127 -0.23479301
-0.11501967 0.13911501 -0.23473467
-0.114735 0.13909735 -0.23474066
-0.11444066 0.13908599 -0.234698
-0.11421467 0.139074 -0.23468466
-0.1140505 0.13910049 -0.23469499
-0.113912 0.139092 -0.23470101
-0.1136975 0.13911217 -0.23465399
-0.11347999 0.139103 -0.23465733
-0.11329367 0.13909233 -0.23465602
-0.102867 0.139099 -0.23464149
-0.10243899 0.13910434 -0.23461366
-0.10225532 0.13909833 -0.23467034
-0.10202233 0.13908465 -0.23474133
-0.1168565 0.139296 -0.23479299
-0.1150125 0.1393 -0.234735
-0.114727 0.139319 -0.234733
-0.114432 0.13930632 -0.23469634
-0.11420634 0.139296 -0.23467898
-0.11404333 0.13928534 -0.23469567
-0.11390499 0.139276 -0.23469932
-0.11369 0.1392965 -0.23465525
-0.11347133 0.13932501 -0.23465334
-0.11328533 0.139314 -0.23465101
-0.10286 0.13928334 -0.23464067
-0.10249461 0.1393154 -0.23461039
-0.10224634 0.13932033 -0.234679
-0.10201267 0.13930599 -0.23476367
-0.116896 0.13950233 -0.23477983
-0.11500499 0.139485 -0.23474102
-0.11472 0.139504 -0.234725
-0.1144255 0.13949201 -0.23467501
-0.114201 0.139443 -0.234669
-0.1140992 0.1395258 -0.23468721
-0.113897 0.13949867 -0.23468934
-0.11368283 0.13948117 -0.23465534
-0.1134645 0.1395095 -0.2346445
-0.1132785 0.13949899 -0.234648
-0.10285266 0.13950533 -0.23461533
-0.102532 0.13945633 -0.23460867
-0.102241 0.13950551 -0.23464251
-0.1020055 0.13949101 -0.234763
-0.1169825 0.13969401 -0.23478001
-0.116795 0.139717 -0.23475666
-0.114997 0.13970535 -0.23472901
-0.11471367 0.13968833 -0.23470099
-0.11441834 0.13967568 -0.23467501
-0.11410926 0.13969649 -0.234677
-0.113888 0.13971899 -0.23469633
-0.1136904 0.13968919 -0.23464262
-0.11349326 0.13971275 -0.2346285
-0.11327133 0.13968401 -0.23463933
-0.1028455 0.13969 -0.234615
-0.10223649 0.13965499 -0.23460901
-0.102002 0.139603 -0.234752
-0.101998 0.139714 -0.23473701
-0.11697433 0.13987967 -0.23479266
-0.11678649 0.139901 -0.23477501
-0.1149935 0.13989151 -0.23465
-0.114706 0.13991 -0.23468833
-0.11441133 0.139898 -0.23464699
-0.11410251 0.13988118 -0.234672
-0.113881 0.13990349 -0.234689
-0.1137435 0.1398945 -0.2346195
-0.11352117 0.13991649 -0.234623
-0.113263 0.13990533 -0.23462933
-0.102838 0.13987532 -0.234623
-0.10222634 0.13991368 -0.23460768
-0.10199168 0.13989966 -0.23471232
-0.116966 0.14010035 -0.23479201
-0.1167106 0.1400978 -0.23478
-0.11639149 0.140104 -0.23479849
-0.11498734 0.14007632 -0.23463334
-0.1146995 0.140094 -0.2346735
-0.1144035 0.140081 -0.23466051
-0.114399 0.140192 -0.234662
-0.11409366 0.14010151 -0.234676
-0.11387499 0.14008801 -0.23466967
-0.11373699 0.14007901 -0.23461001
-0.113514 0.140101 -0.23461601
-0.11325499 0.14012501 -0.23462433
-0.111583 0.14004099 -0.234602
-0.1028315 0.14006001 -0.23460799
-0.10198333 0.140122 -0.234708
-0.116958 0.14032167 -0.23477834
-0.1167295 0.140287 -0.23476626
-0.1165985 0.14033601 -0.234778
-0.116384 0.14028899 -0.23479767
-0.114976 0.140297 -0.23469234
-0.11469233 0.140279 -0.23466933
-0.1143955 0.140303 -0.23464599
-0.1140698 0.14030722 -0.23466399
-0.113866 0.14031 -0.23466967
-0.11372733 0.14030033 -0.23462868
-0.113507 0.14028467 -0.23462148
-0.1132475 0.14031 -0.234623
-0.10221199 0.14028366 -0.234614
-0.1019765 0.14030699 -0.234707
-0.1169505 0.140506 -0.234782
-0.116765 0.14049099 -0.23474699
-0.116591 0.140521 -0.23478366
-0.11637533 0.14050967 -0.23479833
-0.11496734 0.14051734 -0.23468934
-0.11468399 0.14049967 -0.23466033
-0.114389 0.140488 -0.23463567
-0.11416266 0.14047633 -0.234635
-0.11392801 0.14049825 -0.23466575
-0.11371867 0.14052133 -0.23462801
-0.1134985 0.14050567 -0.23461901
-0.11324099 0.140495 -0.234622
-0.102206 0.140431 -0.23460799
-0.101969 0.14049201 -0.23470734
-0.11694333 0.140691 -0.23478533
-0.11675867 0.14067601 -0.23473366
-0.11658449 0.140706 -0.23478
-0.1163685 0.14069399 -0.23479301
-0.11496051 0.14070199 -0.23468301
-0.114676 0.14072101 -0.23465931
-0.11438033 0.14070867 -0.23463666
-0.114154 0.14069666 -0.23462766
-0.11392134 0.140682 -0.23465998
-0.113712 0.140705 -0.234621
-0.11345474 0.14070825 -0.23462051
-0.11323199 0.140715 -0.23462234
-0.10196134 0.140714 -0.23468767
-0.10166866 0.14070199 -0.23478234
-0.11693466 0.14091165 -0.23478599
-0.11674867 0.14089566 -0.23476334
-0.116577 0.140889 -0.23478866
-0.116361 0.14087901 -0.234797
-0.11495201 0.14088599 -0.23471133
-0.11466751 0.14090499 -0.234678
-0.11437351 0.14089251 -0.234635
-0.11414667 0.14091733 -0.23460932
-0.11391317 0.14090367 -0.23465133
-0.113705 0.14089034 -0.23461568
-0.1134115 0.14091 -0.234625
-0.113225 0.1409 -0.23462349
-0.1019545 0.140899 -0.23468301
-0.116927 0.141096 -0.234795
-0.11674034 0.14111701 -0.23476034
-0.11656833 0.141111 -0.23478268
-0.116353 0.141101 -0.23479335
-0.114944 0.14110701 -0.23469967
-0.11466067 0.14108901 -0.23467632
-0.11436633 0.14107734 -0.23462866
-0.1141395 0.141102 -0.23460799
-0.113892 0.14110899 -0.23464
-0.11369699 0.141111 -0.23460434
-0.11346181 0.14108059 -0.2346158
-0.113218 0.141085 -0.23462133
-0.10194833 0.14108466 -0.23465466
-0.11691999 0.14128034 -0.23479033
-0.1167335 0.141302 -0.23475301
-0.1165615 0.141296 -0.23478201
-0.11634433 0.14132033 -0.23478866
-0.1149375 0.14129201 -0.23469301
-0.11465267 0.141311 -0.23466367
-0.114358 0.14129765 -0.234623
-0.11413167 0.14128667 -0.23461433
-0.1139132 0.14128761 -0.2346262
-0.1136895 0.14129549 -0.234605
-0.1132848 0.1412956 -0.23461039
-0.10194033 0.141306 -0.23464233
-0.116912 0.14150132 -0.23478501
-0.11672634 0.14148633 -0.23474599
-0.11655467 0.14148033 -0.23477167
-0.116338 0.141505 -0.234781
-0.11493067 0.14147633 -0.23467366
-0.1146455 0.1414955 -0.234661
-0.114349 0.141519 -0.23462732
-0.11412301 0.14150767 -0.23462133
-0.1138915 0.14149399 -0.23462284
-0.1132955 0.14149499 -0.23461524
-0.101933 0.141491 -0.23465049
-0.101634 0.141589 -0.23478299
-0.116903 0.14172266 -0.23478967
-0.116718 0.14170735 -0.23474266
-0.11654633 0.1417 -0.23476768
-0.116331 0.14169 -0.234771
-0.11492199 0.14169766 -0.23468234
-0.11463833 0.14167933 -0.23465733
-0.1143425 0.14170399 -0.23462099
-0.114115 0.141729 -0.234604
-0.11388266 0.14171466 -0.23462766
-0.113527 0.14161199 -0.234604
-0.11338166 0.14168499 -0.23461168
-0.113195 0.141674 -0.234614
-0.10192467 0.14167701 -0.23467267
-0.101631 0.141702 -0.234759
-0.1168965 0.14190701 -0.2347755
-0.1167115 0.141893 -0.23472801
-0.11653832 0.141922 -0.23475033
-0.11632299 0.14191133 -0.23475666
-0.114914 0.14191835 -0.23466568
-0.11462966 0.14190033 -0.23466165
-0.11433467 0.14188766 -0.23462899
-0.1141105 0.14184 -0.2346065
-0.11387575 0.14189899 -0.23462075
-0.11337 0.14198001 -0.234606
-0.113187 0.14189599 -0.23460349
-0.101917 0.14189933 -0.23464267
-0.101624 0.14188699 -0.23474501
-0.116892 0.14209068 -0.234716
-0.116707 0.14207633 -0.23467033
-0.116532 0.142106 -0.23473349
-0.1163155 0.142096 -0.23475499
-0.1149085 0.142102 -0.234635
-0.11462066 0.14212233 -0.234667
-0.11432634 0.14210868 -0.23462367
-0.114098 0.142171 -0.234605
-0.11390425 0.14206675 -0.234614
-0.1137975 0.142116 -0.23463601
-0.11336467 0.14212768 -0.23460768
-0.113181 0.14204399 -0.23460101
-0.101908 0.142122 -0.23465101
-0.10161533 0.14210933 -0.234753
-0.116884 0.142313 -0.23470898
-0.11669701 0.14229767 -0.23470168
-0.11652567 0.14229099 -0.23471932
-0.11630967 0.14228033 -0.23473434
-0.11490033 0.14228767 -0.23464899
-0.11461399 0.142305 -0.23466
-0.1143195 0.14229301 -0.23461699
-0.114095 0.14224499 -0.234606
-0.113929 0.142309 -0.23462467
-0.113791 0.14230032 -0.23461966
-0.1133575 0.14231201 -0.23460101
-0.10190099 0.142307 -0.234651
-0.1016085 0.142295 -0.23474249
-0.1168755 0.142497 -0.23473799
-0.11668734 0.14251867 -0.23472099
-0.116516 0.14251167 -0.23473299
-0.11630066 0.142501 -0.23474433
-0.11489233 0.14250833 -0.23463799
-0.114607 0.14249 -0.23465933
-0.11431199 0.142478 -0.23462601
-0.114084 0.14253999 -0.234603
-0.113922 0.14249299 -0.234616
-0.113783 0.14252166 -0.23461433
-0.11335 0.142496 -0.23460598
-0.10189467 0.14249133 -0.23463202
-0.10160249 0.142443 -0.234751
-0.101598 0.142554 -0.234742
-0.11686832 0.142681 -0.23473532
-0.116682 0.1427035 -0.23468849
-0.11651 0.14269549 -0.234716
-0.116292 0.14272299 -0.23473465
-0.1148845 0.142693 -0.23465601
-0.114601 0.142638 -0.23465499
-0.114597 0.142749 -0.23465499
-0.11430299 0.142699 -0.234632
-0.11407801 0.14268701 -0.23461032
-0.11391401 0.14267801 -0.23464034
-0.11372801 0.14271601 -0.23461866
-0.11334133 0.142718 -0.23461001
-0.1131565 0.142671 -0.234603
-0.101889 0.142676 -0.23460999
-0.10159334 0.142702 -0.23472799
-0.11686067 0.14290233 -0.23471566
-0.11667567 0.14288734 -0.234666
-0.11650401 0.14288001 -0.234698
-0.1162855 0.14290699 -0.23473001
-0.114879 0.14287667 -0.23462333
-0.114592 0.1428965 -0.23464599
-0.11429467 0.14292 -0.234622
-0.11406901 0.14290868 -0.23461099
-0.11390533 0.14289899 -0.23463966
-0.11369783 0.14288567 -0.23461884
-0.101879 0.14293499 -0.234604
-0.10158467 0.14292367 -0.23472767
-0.11685201 0.14312333 -0.23472033
-0.11666733 0.143108 -0.23466633
-0.11649533 0.14310201 -0.234686
-0.11627867 0.14309134 -0.23471999
-0.11486968 0.14309834 -0.23463632
-0.11458534 0.14308034 -0.23462832
-0.11428849 0.143104 -0.2346065
-0.114063 0.14305601 -0.23461001
-0.11389733 0.14311899 -0.23462634
-0.11372501 0.14309075 -0.234621
-0.1015785 0.14310899 -0.234715
-0.1172695 0.143334 -0.234798
-0.1168455 0.143308 -0.234696
-0.116661 0.14329199 -0.234644
-0.116488 0.14332233 -0.23466635
-0.11627066 0.14331199 -0.23471068
-0.11486066 0.143319 -0.23463799
-0.114576 0.143301 -0.23464365
-0.11428133 0.14328867 -0.23460567
-0.114055 0.14327668 -0.234604
-0.113891 0.14330401 -0.23460549
-0.1137525 0.143296 -0.234615
-0.10157067 0.14329433 -0.23471701
-0.11726266 0.14351833 -0.23479767
-0.11683834 0.143492 -0.23469867
-0.11665333 0.14347632 -0.23465534
-0.1164805 0.14350601 -0.234677
-0.116264 0.14349601 -0.23469549
-0.11485299 0.14350399 -0.23464701
-0.11456767 0.14352299 -0.234641
-0.114272 0.14351 -0.234616
-0.1140445 0.143535 -0.23460349
-0.11388334 0.143489 -0.23461799
-0.101563 0.143517 -0.23470502
-0.119852 0.143749 -0.23479301
-0.118068 0.14378101 -0.234796
-0.1172565 0.143703 -0.23478401
-0.11682967 0.14371334 -0.23469967
-0.116644 0.14369799 -0.23466635
-0.116473 0.143691 -0.23467366
-0.11625733 0.143681 -0.23468435
-0.11484534 0.14368767 -0.234659
-0.1145605 0.14370599 -0.234644
-0.1142655 0.143693 -0.23461001
-0.114039 0.143682 -0.234607
-0.113874 0.143709 -0.23462699
-0.11373701 0.143701 -0.23460634
-0.1015555 0.143702 -0.2347115
-0.1198465 0.143897 -0.2347845
-0.11806234 0.14392599 -0.23478967
-0.11724933 0.143887 -0.23478067
-0.1168225 0.14389649 -0.2347005
-0.11663634 0.14391799 -0.23465033
-0.11646533 0.14391167 -0.23466568
-0.116249 0.14390101 -0.23468667
-0.11483767 0.14390899 -0.23464368
-0.114553 0.14389101 -0.23464768
-0.114258 0.143877 -0.23460567
-0.1138675 0.143894 -0.234621
-0.10154799 0.143887 -0.23471801
-0.11983967 0.14408134 -0.23478067
-0.1180555 0.14411101 -0.234782
-0.11724167 0.144108 -0.23475735
-0.11681667 0.144081 -0.23467465
-0.116631 0.14410201 -0.234615
-0.1164595 0.144095 -0.2346365
-0.11624066 0.144123 -0.234679
-0.1148295 0.14409301 -0.23465401
-0.11454433 0.14411233 -0.23464467
-0.114253 0.144025 -0.234603
-0.113862 0.14404151 -0.234613
-0.10154 0.14410834 -0.23469199
-0.11983167 0.14430167 -0.23476399
-0.11804867 0.14429601 -0.23477633
-0.1172345 0.144293 -0.234752
-0.11680933 0.144302 -0.23465
-0.116624 0.14428599 -0.23460233
-0.116452 0.14428 -0.23463733
-0.116234 0.14430651 -0.23467
-0.11482266 0.14427701 -0.23465399
-0.114538 0.14429551 -0.23462799
-0.101823 0.14434201 -0.234616
-0.101534 0.1442925 -0.23466599
-0.119823 0.14452299 -0.23476934
-0.118885 0.14456201 -0.23479301
-0.11804133 0.14451568 -0.23474999
-0.11722799 0.14447533 -0.23474033
-0.1168035 0.14448649 -0.23462
-0.1166615 0.14452925 -0.23460774
-0.116443 0.14450067 -0.23465334
-0.116227 0.14449067 -0.23466499
-0.114817 0.14446101 -0.234623
-0.114533 0.14444301 -0.2346105
-0.1018195 0.144453 -0.23460999
-0.10152666 0.14447899 -0.23467635
-0.119817 0.14470649 -0.234752
-0.11888 0.14470766 -0.23477566
-0.11859 0.14473051 -0.23479599
-0.118305 0.14475399 -0.23479199
-0.1180345 0.14470001 -0.23474899
-0.11721934 0.144697 -0.23474334
-0.1167955 0.144706 -0.234614
-0.11643467 0.144722 -0.23464133
-0.11621767 0.14471233 -0.23467399
-0.101807 0.144786 -0.234605
-0.10151601 0.144702 -0.23470734
-0.11981001 0.14489065 -0.23474365
-0.118874 0.14489201 -0.234751
-0.118583 0.144915 -0.23479001
-0.11829966 0.14490201 -0.23478766
-0.11802834 0.14488433 -0.23472667
-0.11721099 0.14491832 -0.23473467
-0.11678699 0.14489101 -0.23463166
-0.1164275 0.144906 -0.234634
-0.1162115 0.144896 -0.23466299
-0.101804 0.14486 -0.234603
-0.101508 0.144924 -0.234699
-0.119803 0.14507499 -0.234733
-0.1198 0.14518601 -0.23471101
-0.11886667 0.14507633 -0.23475266
-0.118577 0.145099 -0.23476601
-0.118292 0.14512099 -0.23477034
-0.11802 0.14510466 -0.23471399
-0.1172045 0.14510199 -0.234735
-0.11677866 0.14511167 -0.23462833
-0.11650667 0.14509366 -0.234621
-0.11620467 0.14508 -0.23465334
-0.1015005 0.145109 -0.2347175
-0.1197955 0.14529499 -0.23471901
-0.118858 0.14529701 -0.23475301
-0.11857 0.145283 -0.23476733
-0.1182855 0.14530601 -0.23476399
-0.118013 0.145289 -0.23471251
-0.117197 0.14528699 -0.234731
-0.116772 0.14529601 -0.23462
-0.11641233 0.145311 -0.23462433
-0.11619633 0.14530134 -0.23464133
-0.10149234 0.145294 -0.23472734
-0.11978734 0.14548001 -0.23473935
-0.11915 0.145495 -0.234797
-0.11884934 0.14551868 -0.23475432
-0.11856201 0.14550433 -0.23475333
-0.11827833 0.145491 -0.23476134
-0.11800633 0.145474 -0.23470499
-0.11718867 0.145509 -0.23472632
-0.11676433 0.14548101 -0.23462266
-0.116406 0.145496 -0.234614
-0.11618832 0.14552234 -0.23462732
-0.10148434 0.14551733 -0.23471333
-0.11977933 0.14570133 -0.23472367
-0.119146 0.145606 -0.234798
-0.118844 0.145702 -0.234714
-0.118554 0.14572467 -0.23473267
-0.11827034 0.14571066 -0.23474334
-0.118001 0.145621 -0.234686
-0.1179975 0.14573 -0.23468199
-0.1171825 0.14569101 -0.234712
-0.116754 0.14577401 -0.23460101
-0.116402 0.145605 -0.234602
-0.1163975 0.145716 -0.23460701
-0.1161815 0.145706 -0.234616
-0.101478 0.1457015 -0.23470101
-0.119771 0.14592099 -0.23472033
-0.11883733 0.14588566 -0.234704
-0.1185475 0.145908 -0.23471899
-0.1182635 0.145895 -0.23473799
-0.11799034 0.145915 -0.23468034
-0.11717501 0.14587601 -0.23471266
-0.116748 0.14592201 -0.234605
-0.116392 0.14586399 -0.234606
-0.11617467 0.14589033 -0.23461467
-0.10147101 0.145887 -0.23468702
-0.1197635 0.146106 -0.234722
-0.11882967 0.14610635 -0.23468868
-0.11854 0.14609267 -0.23472868
-0.118256 0.14608 -0.23474234
-0.11798351 0.146099 -0.234671
-0.117167 0.146098 -0.23470533
-0.11616633 0.14611067 -0.23460901
-0.10146133 0.14611 -0.23471399
-0.119757 0.14628966 -0.23471068
-0.119394 0.1463165 -0.23478949
-0.1191185 0.14630499 -0.2347945
-0.118821 0.146292 -0.234723
-0.11853167 0.14631367 -0.23472834
-0.11824767 0.14630067 -0.23473567
-0.11797633 0.14628333 -0.23466967
-0.11715867 0.146318 -0.23469765
-0.1161595 0.146295 -0.234605
-0.101455 0.1462945 -0.234703
-0.119749 0.146511 -0.23469932
-0.11938801 0.14650001 -0.234769
-0.11911134 0.14648899 -0.23479433
-0.11881367 0.14647533 -0.23472099
-0.1185245 0.14649799 -0.234726
-0.11823934 0.146522 -0.23473333
-0.117969 0.146504 -0.23464866
-0.1171515 0.146503 -0.234696
-0.10144967 0.14647833 -0.23465599
-0.120748 0.14672901 -0.234799
-0.1197425 0.146694 -0.23468199
-0.11937967 0.146722 -0.23476666
-0.11910333 0.14671101 -0.23478299
-0.11880533 0.14669733 -0.23471101
-0.11851799 0.14668266 -0.23470433
-0.118233 0.146706 -0.234703
-0.117959 0.14672534 -0.234671
-0.11714467 0.14668734 -0.23469067
-0.10144166 0.14669999 -0.23464467
-0.12074 0.14694899 -0.23479401
-0.11973534 0.146878 -0.23468034
-0.119374 0.14690401 -0.23473701
-0.1190975 0.14689299 -0.234761
-0.118802 0.146842 -0.234676
-0.118797 0.14695349 -0.23468199
-0.11851 0.14690199 -0.234694
-0.11822667 0.146889 -0.23469834
-0.117952 0.146909 -0.2346665
-0.117136 0.146907 -0.234688
-0.10143267 0.146924 -0.23465133
-0.1207355 0.1470595 -0.234786
-0.11972734 0.1471 -0.23466967
-0.11936767 0.14708835 -0.23471832
-0.11909033 0.14707799 -0.23475701
-0.1187905 0.147102 -0.23469499
-0.11850233 0.14712399 -0.23467833
-0.118218 0.147111 -0.234697
-0.11794534 0.147094 -0.234658
-0.117129 0.147092 -0.234687
-0.101426 0.147109 -0.23464301
-0.120724 0.1473545 -0.234786
-0.11971901 0.147319 -0.23465933
-0.11935833 0.14730968 -0.23473768
-0.11908267 0.14729933 -0.23473834
-0.118784 0.14728467 -0.23467635
-0.118495 0.14730699 -0.2346845
-0.118211 0.1472955 -0.23469299
-0.117937 0.147314 -0.23465133
-0.11712267 0.14727567 -0.23466367
-0.10141933 0.14729333 -0.23463301
-0.120719 0.14750101 -0.23477599
-0.12047049 0.14755601 -0.23478851
-0.1201185 0.147542 -0.2347915
-0.1197125 0.147504 -0.23465201
-0.1193505 0.147494 -0.234743
-0.11907467 0.14751901 -0.23472135
-0.11877633 0.147506 -0.23466635
-0.11848833 0.14749168 -0.23467068
-0.118204 0.147478 -0.23469
-0.1179305 0.14749849 -0.234642
-0.117115 0.147496 -0.23465098
-0.101415 0.147441 -0.234606
-0.12071367 0.14768466 -0.23473901
-0.120465 0.14770301 -0.234777
-0.120113 0.14769 -0.23478299
-0.119706 0.147687 -0.23463567
-0.11934367 0.147679 -0.234744
-0.119067 0.14770451 -0.23473501
-0.11876866 0.147726 -0.23464866
-0.11848167 0.14771201 -0.23463599
-0.118196 0.1477 -0.23467802
-0.11792367 0.14768232 -0.23462999
-0.117107 0.147718 -0.234639
-0.122667 0.14799801 -0.234796
-0.1225205 0.14795351 -0.23478749
-0.1217455 0.147916 -0.23477
-0.1214615 0.1479055 -0.23479199
-0.120705 0.14790566 -0.23474567
-0.120459 0.14788666 -0.23475301
-0.120106 0.14787465 -0.234778
-0.11969733 0.147909 -0.234641
-0.119336 0.14789967 -0.23472868
-0.11906034 0.14788835 -0.23472834
-0.1187625 0.14791 -0.23462799
-0.11847401 0.14789601 -0.23464499
-0.11818833 0.14792 -0.23465668
-0.11791634 0.14790232 -0.23460765
