# .PCD v0.7 - Point Cloud Data file format
VERSION 0.7
FIELDS x y z
SIZE 4 4 4
TYPE F F F
COUNT 1 1 1
WIDTH 1599
HEIGHT 1
VIEWPOINT 0 0 0 1 0 0 0
POINTS 1599
DATA ascii
-0.082179 -0.032535 -0.266846
-0.082175 -0.032457 -0.266846
-0.082172 -0.032378 -0.266852
-0.082169 -0.032299 -0.266852
-0.082166 -0.032221 -0.266852
-0.082163 -0.032143 -0.266845
-0.082160 -0.032063 -0.266841
-0.082157 -0.031985 -0.266841
-0.082153 -0.031905 -0.266847
-0.082151 -0.031827 -0.266841
-0.082148 -0.031747 -0.266837
-0.082144 -0.031669 -0.266841
-0.082141 -0.031591 -0.266848
-0.082138 -0.031513 -0.266848
-0.082134 -0.031433 -0.266848
-0.082131 -0.031355 -0.266854
-0.082128 -0.031277 -0.266854
-0.082125 -0.031197 -0.266848
-0.082122 -0.031119 -0.266848
-0.082119 -0.031039 -0.266849
-0.082116 -0.030961 -0.266847
-0.082113 -0.030881 -0.266845
-0.082110 -0.030804 -0.266839
-0.082107 -0.030724 -0.266837
-0.082103 -0.030648 -0.266845
-0.082100 -0.030569 -0.266851
-0.082097 -0.030490 -0.266850
-0.082094 -0.030412 -0.266844
-0.082091 -0.030332 -0.266842
-0.082087 -0.030254 -0.266850
-0.082084 -0.030176 -0.266850
-0.082081 -0.030098 -0.266850
-0.082078 -0.030018 -0.266848
-0.082075 -0.029938 -0.266841
-0.082072 -0.029860 -0.266839
-0.082069 -0.029782 -0.266841
-0.082065 -0.029704 -0.266843
-0.082062 -0.029626 -0.266849
-0.082059 -0.029546 -0.266851
-0.082056 -0.029468 -0.266849
-0.082053 -0.029390 -0.266852
-0.082049 -0.029310 -0.266848
-0.082046 -0.029232 -0.266850
-0.082043 -0.029154 -0.266854
-0.082040 -0.029076 -0.266856
-0.082037 -0.028996 -0.266850
-0.082034 -0.028918 -0.266849
-0.082031 -0.028839 -0.266845
-0.082028 -0.028761 -0.266843
-0.082025 -0.028681 -0.266841
-0.082022 -0.028603 -0.266837
-0.082019 -0.028525 -0.266837
-0.082015 -0.028445 -0.266835
-0.082013 -0.028365 -0.266827
-0.082011 -0.028288 -0.266806
-0.082011 -0.028205 -0.266734
-0.082010 -0.028123 -0.266672
-0.082008 -0.028043 -0.266646
-0.082006 -0.027964 -0.266630
-0.082005 -0.027884 -0.266592
-0.082003 -0.027805 -0.266553
-0.082001 -0.027726 -0.266537
-0.082000 -0.027647 -0.266499
-0.082005 -0.027561 -0.266309
-0.082016 -0.027471 -0.266009
-0.082019 -0.027388 -0.265883
-0.082021 -0.027307 -0.265773
-0.082022 -0.027227 -0.265678
-0.082025 -0.027144 -0.265546
-0.082027 -0.027062 -0.265448
-0.082027 -0.026981 -0.265372
-0.082027 -0.026901 -0.265300
-0.082027 -0.026822 -0.265237
-0.082027 -0.026742 -0.265177
-0.082026 -0.026663 -0.265129
-0.082025 -0.026584 -0.265089
-0.082024 -0.026505 -0.265047
-0.082022 -0.026426 -0.265011
-0.082021 -0.026346 -0.264978
-0.082019 -0.026269 -0.264944
-0.082018 -0.026190 -0.264910
-0.082016 -0.026112 -0.264886
-0.082013 -0.026033 -0.264864
-0.082011 -0.025955 -0.264842
-0.082009 -0.025878 -0.264821
-0.082007 -0.025798 -0.264801
-0.082005 -0.025721 -0.264781
-0.082003 -0.025643 -0.264763
-0.082000 -0.025564 -0.264749
-0.081998 -0.025486 -0.264733
-0.081995 -0.025410 -0.264720
-0.081993 -0.025331 -0.264712
-0.081990 -0.025255 -0.264704
-0.081987 -0.025175 -0.264692
-0.081985 -0.025099 -0.264688
-0.081981 -0.025021 -0.264687
-0.081979 -0.024944 -0.264675
-0.081977 -0.024866 -0.264661
-0.081974 -0.024788 -0.264655
-0.081971 -0.024710 -0.264655
-0.081967 -0.024632 -0.264655
-0.081965 -0.024554 -0.264650
-0.081962 -0.024477 -0.264644
-0.081959 -0.024399 -0.264638
-0.081956 -0.024323 -0.264632
-0.081953 -0.024245 -0.264636
-0.081950 -0.024167 -0.264640
-0.081946 -0.024091 -0.264641
-0.081943 -0.024013 -0.264641
-0.081940 -0.023935 -0.264639
-0.081937 -0.023859 -0.264639
-0.081934 -0.023781 -0.264647
-0.081930 -0.023703 -0.264653
-0.081927 -0.023625 -0.264660
-0.081924 -0.023549 -0.264664
-0.081920 -0.023471 -0.264668
-0.081917 -0.023393 -0.264670
-0.081914 -0.023317 -0.264672
-0.081911 -0.023239 -0.264670
-0.081908 -0.023161 -0.264669
-0.081904 -0.023084 -0.264679
-0.081901 -0.023006 -0.264687
-0.081897 -0.022928 -0.264693
-0.081894 -0.022850 -0.264699
-0.081891 -0.022774 -0.264707
-0.081887 -0.022696 -0.264708
-0.081884 -0.022618 -0.264704
-0.081881 -0.022542 -0.264710
-0.081878 -0.022464 -0.264716
-0.081875 -0.022386 -0.264718
-0.081871 -0.022310 -0.264724
-0.081868 -0.022232 -0.264727
-0.081865 -0.022154 -0.264729
-0.081862 -0.022076 -0.264729
-0.081858 -0.021998 -0.264729
-0.081855 -0.021922 -0.264735
-0.081852 -0.021844 -0.264739
-0.081849 -0.021766 -0.264742
-0.081845 -0.021688 -0.264748
-0.081842 -0.021612 -0.264744
-0.081839 -0.021534 -0.264742
-0.081836 -0.021456 -0.264746
-0.081833 -0.021378 -0.264750
-0.081829 -0.021300 -0.264755
-0.081826 -0.021224 -0.264757
-0.081823 -0.021146 -0.264751
-0.081820 -0.021068 -0.264745
-0.081817 -0.020990 -0.264747
-0.081814 -0.020912 -0.264751
-0.081811 -0.020836 -0.264754
-0.081808 -0.020758 -0.264750
-0.081805 -0.020680 -0.264748
-0.081802 -0.020604 -0.264750
-0.081799 -0.020526 -0.264748
-0.081796 -0.020448 -0.264743
-0.081793 -0.020371 -0.264743
-0.081789 -0.020293 -0.264745
-0.081787 -0.020217 -0.264741
-0.081784 -0.020139 -0.264735
-0.081781 -0.020061 -0.264731
-0.081778 -0.019983 -0.264732
-0.081775 -0.019905 -0.264730
-0.081772 -0.019829 -0.264730
-0.081769 -0.019751 -0.264726
-0.081766 -0.019673 -0.264722
-0.081763 -0.019595 -0.264718
-0.081760 -0.019518 -0.264711
-0.081757 -0.019442 -0.264709
-0.081754 -0.019362 -0.264705
-0.081751 -0.019286 -0.264699
-0.081748 -0.019208 -0.264695
-0.081745 -0.019130 -0.264695
-0.081742 -0.019054 -0.264700
-0.081739 -0.018974 -0.264700
-0.081736 -0.018898 -0.264694
-0.081733 -0.018821 -0.264688
-0.081730 -0.018743 -0.264688
-0.081727 -0.018667 -0.264691
-0.081724 -0.018587 -0.264689
-0.081721 -0.018511 -0.264681
-0.081718 -0.018433 -0.264677
-0.081715 -0.018355 -0.264683
-0.081712 -0.018279 -0.264685
-0.081708 -0.018199 -0.264689
-0.081705 -0.018123 -0.264686
-0.081703 -0.018045 -0.264678
-0.081700 -0.017967 -0.264676
-0.081697 -0.017891 -0.264678
-0.081693 -0.017811 -0.264678
-0.081690 -0.017735 -0.264675
-0.081687 -0.017657 -0.264673
-0.081685 -0.017580 -0.264669
-0.081682 -0.017504 -0.264665
-0.081678 -0.017424 -0.264665
-0.081675 -0.017348 -0.264665
-0.081673 -0.017270 -0.264660
-0.081669 -0.017192 -0.264660
-0.081666 -0.017116 -0.264664
-0.081663 -0.017036 -0.264654
-0.081661 -0.016960 -0.264650
-0.081658 -0.016882 -0.264650
-0.081655 -0.016805 -0.264645
-0.081652 -0.016729 -0.264641
-0.081649 -0.016651 -0.264641
-0.081646 -0.016573 -0.264629
-0.081644 -0.016495 -0.264619
-0.081640 -0.016417 -0.264623
-0.081637 -0.016341 -0.264634
-0.081634 -0.016263 -0.264632
-0.081631 -0.016185 -0.264622
-0.081628 -0.016108 -0.264614
-0.081625 -0.016030 -0.264610
-0.081622 -0.015954 -0.264607
-0.081619 -0.015876 -0.264605
-0.081616 -0.015798 -0.264603
-0.081614 -0.015720 -0.264595
-0.081611 -0.015642 -0.264583
-0.081608 -0.015567 -0.264577
-0.081605 -0.015489 -0.264584
-0.081601 -0.015410 -0.264592
-0.081599 -0.015333 -0.264586
-0.081596 -0.015255 -0.264574
-0.081593 -0.015179 -0.264570
-0.081590 -0.015101 -0.264574
-0.081587 -0.015023 -0.264575
-0.081584 -0.014945 -0.264569
-0.081581 -0.014867 -0.264563
-0.081578 -0.014791 -0.264557
-0.081575 -0.014714 -0.264555
-0.081572 -0.014635 -0.264561
-0.081569 -0.014557 -0.264564
-0.081566 -0.014480 -0.264554
-0.081563 -0.014404 -0.264548
-0.081560 -0.014326 -0.264550
-0.081557 -0.014248 -0.264554
-0.081554 -0.014170 -0.264555
-0.081550 -0.014092 -0.264555
-0.081548 -0.014016 -0.264549
-0.081545 -0.013938 -0.264543
-0.081541 -0.013860 -0.264551
-0.081538 -0.013782 -0.264555
-0.081535 -0.013704 -0.264554
-0.081532 -0.013626 -0.264560
-0.081528 -0.013548 -0.264560
-0.081526 -0.013472 -0.264550
-0.081523 -0.013394 -0.264548
-0.081520 -0.013316 -0.264546
-0.081517 -0.013239 -0.264537
-0.081514 -0.013161 -0.264535
-0.081511 -0.013085 -0.264531
-0.081508 -0.013007 -0.264525
-0.081505 -0.012929 -0.264523
-0.081502 -0.012851 -0.264523
-0.081499 -0.012773 -0.264524
-0.081496 -0.012697 -0.264518
-0.081494 -0.012620 -0.264512
-0.081491 -0.012542 -0.264510
-0.081488 -0.012464 -0.264508
-0.081485 -0.012386 -0.264504
-0.081482 -0.012310 -0.264499
-0.081479 -0.012232 -0.264491
-0.081476 -0.012154 -0.264485
-0.081473 -0.012078 -0.264483
-0.081470 -0.011999 -0.264483
-0.081467 -0.011922 -0.264488
-0.081464 -0.011845 -0.264488
-0.081460 -0.011766 -0.264494
-0.081457 -0.011688 -0.264500
-0.081454 -0.011610 -0.264502
-0.081450 -0.011532 -0.264504
-0.081447 -0.011454 -0.264502
-0.081444 -0.011376 -0.264503
-0.081441 -0.011298 -0.264503
-0.081438 -0.011221 -0.264499
-0.081435 -0.011145 -0.264497
-0.081432 -0.011067 -0.264505
-0.081428 -0.010986 -0.264513
-0.081425 -0.010908 -0.264522
-0.081421 -0.010830 -0.264522
-0.081419 -0.010754 -0.264518
-0.081416 -0.010676 -0.264518
-0.081412 -0.010598 -0.264520
-0.081409 -0.010521 -0.264516
-0.081406 -0.010443 -0.264515
-0.081403 -0.010365 -0.264515
-0.081400 -0.010287 -0.264515
-0.081397 -0.010209 -0.264505
-0.081394 -0.010133 -0.264503
-0.081391 -0.010053 -0.264507
-0.081388 -0.009977 -0.264506
-0.081385 -0.009899 -0.264504
-0.081382 -0.009821 -0.264502
-0.081379 -0.009743 -0.264494
-0.081376 -0.009666 -0.264494
-0.081373 -0.009587 -0.264498
-0.081370 -0.009512 -0.264495
-0.081367 -0.009434 -0.264491
-0.081364 -0.009356 -0.264495
-0.081361 -0.009278 -0.264497
-0.081358 -0.009200 -0.264493
-0.081355 -0.009122 -0.264489
-0.081352 -0.009044 -0.264490
-0.081349 -0.008966 -0.264488
-0.081345 -0.008888 -0.264490
-0.081342 -0.008810 -0.264502
-0.081338 -0.008732 -0.264504
-0.081336 -0.008654 -0.264496
-0.081333 -0.008576 -0.264493
-0.081330 -0.008498 -0.264491
-0.081326 -0.008420 -0.264495
-0.081324 -0.008344 -0.264489
-0.081321 -0.008267 -0.264477
-0.081318 -0.008189 -0.264475
-0.081315 -0.008111 -0.264474
-0.081312 -0.008033 -0.264468
-0.081309 -0.007955 -0.264470
-0.081306 -0.007877 -0.264472
-0.081303 -0.007801 -0.264460
-0.081301 -0.007724 -0.264444
-0.081298 -0.007646 -0.264441
-0.081295 -0.007568 -0.264441
-0.081292 -0.007492 -0.264427
-0.081290 -0.007414 -0.264417
-0.081286 -0.007336 -0.264421
-0.081283 -0.007258 -0.264427
-0.081280 -0.007180 -0.264428
-0.081277 -0.007102 -0.264426
-0.081274 -0.007024 -0.264424
-0.081271 -0.006947 -0.264418
-0.081268 -0.006871 -0.264412
-0.081265 -0.006793 -0.264410
-0.081262 -0.006715 -0.264411
-0.081259 -0.006637 -0.264411
-0.081256 -0.006559 -0.264411
-0.081253 -0.006481 -0.264415
-0.081249 -0.006403 -0.264419
-0.081246 -0.006323 -0.264421
-0.081243 -0.006247 -0.264418
-0.081240 -0.006169 -0.264414
-0.081237 -0.006091 -0.264410
-0.081234 -0.006013 -0.264406
-0.081231 -0.005935 -0.264400
-0.081228 -0.005858 -0.264398
-0.081225 -0.005780 -0.264401
-0.081222 -0.005702 -0.264403
-0.081219 -0.005624 -0.264405
-0.081216 -0.005546 -0.264407
-0.081212 -0.005468 -0.264405
-0.081210 -0.005390 -0.264401
-0.081206 -0.005312 -0.264404
-0.081203 -0.005234 -0.264408
-0.081200 -0.005156 -0.264402
-0.081197 -0.005078 -0.264394
-0.081194 -0.005000 -0.264394
-0.081191 -0.004922 -0.264400
-0.081188 -0.004844 -0.264395
-0.081185 -0.004766 -0.264387
-0.081182 -0.004688 -0.264385
-0.081179 -0.004610 -0.264391
-0.081176 -0.004532 -0.264393
-0.081173 -0.004454 -0.264389
-0.081170 -0.004377 -0.264383
-0.081167 -0.004299 -0.264384
-0.081164 -0.004221 -0.264384
-0.081161 -0.004143 -0.264378
-0.081158 -0.004067 -0.264372
-0.081155 -0.003987 -0.264374
-0.081151 -0.003909 -0.264380
-0.081148 -0.003831 -0.264383
-0.081145 -0.003753 -0.264375
-0.081142 -0.003675 -0.264373
-0.081139 -0.003597 -0.264375
-0.081136 -0.003519 -0.264373
-0.081133 -0.003441 -0.264371
-0.081130 -0.003363 -0.264374
-0.081126 -0.003283 -0.264380
-0.081123 -0.003205 -0.264378
-0.081120 -0.003129 -0.264376
-0.081117 -0.003052 -0.264372
-0.081115 -0.002974 -0.264364
-0.081112 -0.002896 -0.264363
-0.081108 -0.002818 -0.264363
-0.081105 -0.002740 -0.264363
-0.081102 -0.002660 -0.264367
-0.081099 -0.002582 -0.264369
-0.081096 -0.002504 -0.264361
-0.081094 -0.002428 -0.264348
-0.081091 -0.002353 -0.264338
-0.081088 -0.002275 -0.264330
-0.081085 -0.002197 -0.264334
-0.081081 -0.002117 -0.264340
-0.081078 -0.002039 -0.264340
-0.081076 -0.001963 -0.264329
-0.081073 -0.001885 -0.264321
-0.081070 -0.001807 -0.264321
-0.081067 -0.001727 -0.264323
-0.081064 -0.001649 -0.264323
-0.081061 -0.001574 -0.264311
-0.081059 -0.001496 -0.264300
-0.081056 -0.001418 -0.264298
-0.081053 -0.001340 -0.264292
-0.081050 -0.001264 -0.264284
-0.081047 -0.001186 -0.264284
-0.081044 -0.001106 -0.264288
-0.081041 -0.001031 -0.264285
-0.081038 -0.000953 -0.264277
-0.081035 -0.000875 -0.264273
-0.081032 -0.000797 -0.264275
-0.081028 -0.000717 -0.264279
-0.081025 -0.000639 -0.264283
-0.081022 -0.000561 -0.264278
-0.081019 -0.000483 -0.264274
-0.081016 -0.000405 -0.264276
-0.081013 -0.000327 -0.264276
-0.081010 -0.000249 -0.264274
-0.081007 -0.000171 -0.264270
-0.081004 -0.000093 -0.264267
-0.081001 -0.000016 -0.264265
-0.080998 0.000062 -0.264263
-0.080995 0.000140 -0.264259
-0.080992 0.000218 -0.264253
-0.080989 0.000296 -0.264251
-0.080986 0.000374 -0.264253
-0.080983 0.000452 -0.264254
-0.080980 0.000530 -0.264252
-0.080977 0.000608 -0.264248
-0.080974 0.000686 -0.264244
-0.080971 0.000764 -0.264244
-0.080968 0.000842 -0.264244
-0.080965 0.000919 -0.264241
-0.080962 0.000997 -0.264235
-0.080959 0.001075 -0.264231
-0.080956 0.001153 -0.264231
-0.080953 0.001231 -0.264231
-0.080950 0.001309 -0.264229
-0.080947 0.001387 -0.264228
-0.080944 0.001465 -0.264228
-0.080940 0.001543 -0.264228
-0.080937 0.001623 -0.264228
-0.080934 0.001701 -0.264224
-0.080931 0.001779 -0.264220
-0.080928 0.001857 -0.264221
-0.080925 0.001935 -0.264221
-0.080922 0.002012 -0.264219
-0.080919 0.002090 -0.264219
-0.080916 0.002168 -0.264215
-0.080913 0.002246 -0.264211
-0.080910 0.002324 -0.264210
-0.080907 0.002402 -0.264206
-0.080904 0.002480 -0.264204
-0.080901 0.002558 -0.264202
-0.080898 0.002636 -0.264200
-0.080895 0.002714 -0.264200
-0.080892 0.002792 -0.264202
-0.080888 0.002872 -0.264205
-0.080885 0.002950 -0.264203
-0.080883 0.003025 -0.264193
-0.080880 0.003103 -0.264189
-0.080876 0.003183 -0.264193
-0.080873 0.003261 -0.264191
-0.080871 0.003339 -0.264186
-0.080867 0.003417 -0.264192
-0.080864 0.003495 -0.264194
-0.080861 0.003575 -0.264192
-0.080857 0.003653 -0.264198
-0.080854 0.003733 -0.264210
-0.080850 0.003811 -0.264210
-0.080847 0.003889 -0.264209
-0.080844 0.003969 -0.264213
-0.080841 0.004047 -0.264217
-0.080838 0.004127 -0.264217
-0.080834 0.004205 -0.264217
-0.080831 0.004283 -0.264219
-0.080828 0.004363 -0.264223
-0.080825 0.004441 -0.264226
-0.080821 0.004519 -0.264230
-0.080818 0.004599 -0.264232
-0.080815 0.004675 -0.264228
-0.080812 0.004755 -0.264224
-0.080809 0.004833 -0.264230
-0.080805 0.004913 -0.264242
-0.080801 0.004993 -0.264246
-0.080798 0.005071 -0.264249
-0.080795 0.005149 -0.264249
-0.080792 0.005229 -0.264249
-0.080789 0.005307 -0.264249
-0.080786 0.005385 -0.264247
-0.080783 0.005463 -0.264245
-0.080780 0.005541 -0.264242
-0.080777 0.005617 -0.264234
-0.080774 0.005695 -0.264228
-0.080771 0.005773 -0.264228
-0.080768 0.005853 -0.264234
-0.080764 0.005933 -0.264240
-0.080761 0.006011 -0.264240
-0.080758 0.006089 -0.264231
-0.080756 0.006164 -0.264227
-0.080752 0.006245 -0.264233
-0.080749 0.006322 -0.264233
-0.080746 0.006400 -0.264225
-0.080743 0.006478 -0.264221
-0.080740 0.006556 -0.264224
-0.082171 -0.043441 -0.266885
-0.082168 -0.043362 -0.266879
-0.082165 -0.043284 -0.266883
-0.082162 -0.043206 -0.266883
-0.082159 -0.043126 -0.266879
-0.082156 -0.043046 -0.266878
-0.082152 -0.042968 -0.266882
-0.082149 -0.042890 -0.266888
-0.082146 -0.042810 -0.266884
-0.082143 -0.042732 -0.266882
-0.082140 -0.042654 -0.266884
-0.082136 -0.042574 -0.266882
-0.082133 -0.042496 -0.266885
-0.082130 -0.042418 -0.266893
-0.082127 -0.042338 -0.266891
-0.082124 -0.042258 -0.266885
-0.082121 -0.042178 -0.266875
-0.082118 -0.042099 -0.266863
-0.082115 -0.042020 -0.266869
-0.082112 -0.041942 -0.266876
-0.082108 -0.041864 -0.266884
-0.082105 -0.041786 -0.266888
-0.082102 -0.041706 -0.266884
-0.082100 -0.041625 -0.266860
-0.082097 -0.041545 -0.266856
-0.082093 -0.041469 -0.266868
-0.082089 -0.041391 -0.266883
-0.082085 -0.041312 -0.266893
-0.082083 -0.041233 -0.266883
-0.082080 -0.041153 -0.266871
-0.082077 -0.041075 -0.266875
-0.082073 -0.040997 -0.266885
-0.082070 -0.040917 -0.266883
-0.082067 -0.040839 -0.266878
-0.082064 -0.040759 -0.266880
-0.082061 -0.040681 -0.266878
-0.082058 -0.040599 -0.266870
-0.082055 -0.040521 -0.266870
-0.082052 -0.040443 -0.266874
-0.082048 -0.040363 -0.266872
-0.082045 -0.040285 -0.266872
-0.082042 -0.040205 -0.266875
-0.082039 -0.040127 -0.266869
-0.082037 -0.040046 -0.266857
-0.082034 -0.039966 -0.266849
-0.082030 -0.039888 -0.266855
-0.082027 -0.039812 -0.266867
-0.082023 -0.039734 -0.266871
-0.082021 -0.039654 -0.266864
-0.082018 -0.039572 -0.266854
-0.082015 -0.039494 -0.266854
-0.082011 -0.039416 -0.266858
-0.082008 -0.039338 -0.266862
-0.082005 -0.039260 -0.266864
-0.082001 -0.039180 -0.266866
-0.081998 -0.039102 -0.266871
-0.081995 -0.039022 -0.266869
-0.081992 -0.038942 -0.266859
-0.081989 -0.038864 -0.266863
-0.081986 -0.038786 -0.266867
-0.081983 -0.038706 -0.266861
-0.081979 -0.038628 -0.266871
-0.081976 -0.038550 -0.266868
-0.081974 -0.038469 -0.266850
-0.081971 -0.038391 -0.266852
-0.081967 -0.038313 -0.266864
-0.081963 -0.038234 -0.266870
-0.081960 -0.038155 -0.266868
-0.081957 -0.038077 -0.266862
-0.081955 -0.037997 -0.266854
-0.081952 -0.037917 -0.266853
-0.081948 -0.037839 -0.266855
-0.081945 -0.037759 -0.266855
-0.081942 -0.037681 -0.266857
-0.081939 -0.037601 -0.266857
-0.081936 -0.037523 -0.266853
-0.081932 -0.037443 -0.266855
-0.081929 -0.037367 -0.266866
-0.081926 -0.037287 -0.266864
-0.081923 -0.037207 -0.266850
-0.081920 -0.037127 -0.266848
-0.081917 -0.037048 -0.266844
-0.081914 -0.036970 -0.266836
-0.081911 -0.036890 -0.266836
-0.081908 -0.036812 -0.266843
-0.081904 -0.036734 -0.266847
-0.081901 -0.036654 -0.266845
-0.081898 -0.036576 -0.266843
-0.081895 -0.036498 -0.266849
-0.081892 -0.036420 -0.266851
-0.081888 -0.036342 -0.266857
-0.081885 -0.036264 -0.266864
-0.081882 -0.036184 -0.266864
-0.081879 -0.036106 -0.266860
-0.081876 -0.036026 -0.266848
-0.081873 -0.035946 -0.266840
-0.081870 -0.035868 -0.266846
-0.081867 -0.035790 -0.266850
-0.081863 -0.035710 -0.266852
-0.081860 -0.035632 -0.266851
-0.081857 -0.035552 -0.266851
-0.081854 -0.035474 -0.266849
-0.081851 -0.035394 -0.266849
-0.081848 -0.035316 -0.266845
-0.081845 -0.035235 -0.266827
-0.081843 -0.035157 -0.266823
-0.081839 -0.035079 -0.266838
-0.081835 -0.035001 -0.266848
-0.081832 -0.034923 -0.266844
-0.081829 -0.034843 -0.266846
-0.081826 -0.034765 -0.266844
-0.081823 -0.034685 -0.266840
-0.081820 -0.034607 -0.266834
-0.081817 -0.034527 -0.266829
-0.081814 -0.034447 -0.266833
-0.081810 -0.034371 -0.266839
-0.081807 -0.034291 -0.266841
-0.081804 -0.034213 -0.266835
-0.081801 -0.034133 -0.266839
-0.081797 -0.034055 -0.266843
-0.081795 -0.033975 -0.266832
-0.081792 -0.033896 -0.266828
-0.081789 -0.033818 -0.266828
-0.081785 -0.033740 -0.266832
-0.081782 -0.033662 -0.266836
-0.081779 -0.033582 -0.266828
-0.081777 -0.033502 -0.266814
-0.081773 -0.033424 -0.266817
-0.081770 -0.033346 -0.266825
-0.081767 -0.033268 -0.266831
-0.081763 -0.033190 -0.266835
-0.081760 -0.033110 -0.266835
-0.081757 -0.033032 -0.266835
-0.081754 -0.032954 -0.266839
-0.081750 -0.032876 -0.266842
-0.081748 -0.032796 -0.266832
-0.081744 -0.032716 -0.266832
-0.081741 -0.032638 -0.266832
-0.081739 -0.032560 -0.266824
-0.081735 -0.032480 -0.266826
-0.081732 -0.032402 -0.266830
-0.081729 -0.032322 -0.266829
-0.081726 -0.032244 -0.266829
-0.081722 -0.032166 -0.266833
-0.081719 -0.032086 -0.266831
-0.081716 -0.032009 -0.266825
-0.081714 -0.031929 -0.266809
-0.081712 -0.031849 -0.266793
-0.081709 -0.031771 -0.266792
-0.081705 -0.031691 -0.266800
-0.081701 -0.031615 -0.266818
-0.081698 -0.031537 -0.266824
-0.081695 -0.031457 -0.266818
-0.081691 -0.031379 -0.266820
-0.081688 -0.031301 -0.266826
-0.081685 -0.031221 -0.266825
-0.081682 -0.031143 -0.266827
-0.081679 -0.031065 -0.266829
-0.081675 -0.030985 -0.266825
-0.081672 -0.030907 -0.266827
-0.081669 -0.030829 -0.266829
-0.081666 -0.030749 -0.266829
-0.081663 -0.030671 -0.266834
-0.081659 -0.030593 -0.266832
-0.081656 -0.030513 -0.266834
-0.081653 -0.030435 -0.266836
-0.081650 -0.030355 -0.266830
-0.081648 -0.030278 -0.266818
-0.081645 -0.030200 -0.266815
-0.081641 -0.030120 -0.266817
-0.081638 -0.030042 -0.266825
-0.081635 -0.029964 -0.266825
-0.081632 -0.029884 -0.266821
-0.081628 -0.029806 -0.266825
-0.081625 -0.029728 -0.266823
-0.081623 -0.029648 -0.266813
-0.081619 -0.029570 -0.266818
-0.081616 -0.029492 -0.266826
-0.081612 -0.029414 -0.266828
-0.081609 -0.029334 -0.266826
-0.081606 -0.029256 -0.266828
-0.081603 -0.029178 -0.266830
-0.081600 -0.029098 -0.266820
-0.081597 -0.029020 -0.266819
-0.081594 -0.028942 -0.266823
-0.081591 -0.028864 -0.266827
-0.081587 -0.028784 -0.266825
-0.081585 -0.028705 -0.266819
-0.081581 -0.028626 -0.266821
-0.081578 -0.028549 -0.266822
-0.081576 -0.028469 -0.266810
-0.081573 -0.028389 -0.266804
-0.081570 -0.028311 -0.266786
-0.081570 -0.028229 -0.266722
-0.081570 -0.028148 -0.266658
-0.081568 -0.028069 -0.266636
-0.081566 -0.027989 -0.266618
-0.081563 -0.027910 -0.266601
-0.081561 -0.027830 -0.266585
-0.081558 -0.027752 -0.266571
-0.081577 -0.027657 -0.266095
-0.081577 -0.027574 -0.266029
-0.081577 -0.027495 -0.265973
-0.081579 -0.027412 -0.265852
-0.081582 -0.027329 -0.265722
-0.081584 -0.027249 -0.265624
-0.081585 -0.027167 -0.265524
-0.081586 -0.027087 -0.265446
-0.081586 -0.027007 -0.265370
-0.081586 -0.026926 -0.265303
-0.081586 -0.026846 -0.265241
-0.081586 -0.026767 -0.265181
-0.081585 -0.026686 -0.265125
-0.081584 -0.026607 -0.265077
-0.081583 -0.026528 -0.265035
-0.081582 -0.026451 -0.265002
-0.081580 -0.026372 -0.264966
-0.081579 -0.026293 -0.264920
-0.081578 -0.026214 -0.264886
-0.081576 -0.026134 -0.264860
-0.081574 -0.026057 -0.264833
-0.081572 -0.025978 -0.264801
-0.081571 -0.025900 -0.264771
-0.081568 -0.025823 -0.264751
-0.081566 -0.025743 -0.264727
-0.081564 -0.025666 -0.264701
-0.081562 -0.025588 -0.264688
-0.081559 -0.025511 -0.264680
-0.081557 -0.025433 -0.264668
-0.081554 -0.025355 -0.264652
-0.081552 -0.025277 -0.264644
-0.081549 -0.025200 -0.264642
-0.081546 -0.025122 -0.264627
-0.081544 -0.025044 -0.264613
-0.081541 -0.024966 -0.264607
-0.081538 -0.024889 -0.264601
-0.081536 -0.024811 -0.264591
-0.081533 -0.024733 -0.264588
-0.081530 -0.024655 -0.264584
-0.081527 -0.024577 -0.264578
-0.081524 -0.024500 -0.264568
-0.081521 -0.024422 -0.264564
-0.081518 -0.024346 -0.264562
-0.081515 -0.024268 -0.264561
-0.081512 -0.024190 -0.264563
-0.081509 -0.024114 -0.264561
-0.081506 -0.024036 -0.264555
-0.081503 -0.023958 -0.264555
-0.081500 -0.023882 -0.264559
-0.081496 -0.023804 -0.264566
-0.081494 -0.023726 -0.264560
-0.081491 -0.023648 -0.264554
-0.081487 -0.023570 -0.264560
-0.081484 -0.023494 -0.264560
-0.081481 -0.023416 -0.264558
-0.081478 -0.023338 -0.264569
-0.081474 -0.023262 -0.264579
-0.081471 -0.023184 -0.264579
-0.081468 -0.023106 -0.264577
-0.081465 -0.023028 -0.264571
-0.081462 -0.022952 -0.264567
-0.081459 -0.022874 -0.264578
-0.081455 -0.022798 -0.264590
-0.081452 -0.022720 -0.264596
-0.081448 -0.022642 -0.264598
-0.081446 -0.022564 -0.264594
-0.081442 -0.022488 -0.264603
-0.081439 -0.022410 -0.264611
-0.081435 -0.022334 -0.264615
-0.081432 -0.022256 -0.264619
-0.081429 -0.022178 -0.264619
-0.081426 -0.022100 -0.264613
-0.081423 -0.022022 -0.264614
-0.081420 -0.021946 -0.264620
-0.081416 -0.021868 -0.264626
-0.081413 -0.021790 -0.264624
-0.081410 -0.021712 -0.264626
-0.081407 -0.021636 -0.264628
-0.081404 -0.021558 -0.264621
-0.081401 -0.021480 -0.264621
-0.081398 -0.021402 -0.264625
-0.081394 -0.021324 -0.264627
-0.081391 -0.021248 -0.264625
-0.081388 -0.021170 -0.264631
-0.081384 -0.021092 -0.264640
-0.081381 -0.021016 -0.264640
-0.081379 -0.020938 -0.264630
-0.081376 -0.020860 -0.264624
-0.081373 -0.020782 -0.264624
-0.081369 -0.020704 -0.264628
-0.081366 -0.020628 -0.264631
-0.081363 -0.020550 -0.264631
-0.081360 -0.020472 -0.264631
-0.081357 -0.020396 -0.264627
-0.081355 -0.020319 -0.264617
-0.081352 -0.020241 -0.264611
-0.081348 -0.020163 -0.264616
-0.081345 -0.020085 -0.264612
-0.081343 -0.020009 -0.264610
-0.081339 -0.019931 -0.264610
-0.081336 -0.019853 -0.264608
-0.081333 -0.019775 -0.264610
-0.081330 -0.019697 -0.264603
-0.081328 -0.019622 -0.264583
-0.081325 -0.019544 -0.264581
-0.081322 -0.019466 -0.264587
-0.081319 -0.019388 -0.264587
-0.081316 -0.019312 -0.264588
-0.081313 -0.019234 -0.264580
-0.081310 -0.019156 -0.264568
-0.081307 -0.019078 -0.264564
-0.081304 -0.019000 -0.264566
-0.081301 -0.018925 -0.264564
-0.081298 -0.018847 -0.264559
-0.081295 -0.018769 -0.264557
-0.081292 -0.018691 -0.264557
-0.081289 -0.018613 -0.264557
-0.081286 -0.018537 -0.264555
-0.081283 -0.018459 -0.264559
-0.081280 -0.018381 -0.264556
-0.081277 -0.018305 -0.264548
-0.081275 -0.018227 -0.264540
-0.081272 -0.018149 -0.264538
-0.081269 -0.018072 -0.264536
-0.081266 -0.017994 -0.264535
-0.081262 -0.017918 -0.264537
-0.081259 -0.017840 -0.264543
-0.081256 -0.017762 -0.264537
-0.081254 -0.017684 -0.264525
-0.081251 -0.017606 -0.264521
-0.081247 -0.017530 -0.264528
-0.081244 -0.017452 -0.264526
-0.081242 -0.017374 -0.264514
-0.081239 -0.017299 -0.264508
-0.081236 -0.017221 -0.264506
-0.081233 -0.017143 -0.264502
-0.081230 -0.017065 -0.264499
-0.081227 -0.016987 -0.264491
-0.081224 -0.016911 -0.264489
-0.081221 -0.016833 -0.264485
-0.081219 -0.016755 -0.264479
-0.081216 -0.016678 -0.264472
-0.081213 -0.016602 -0.264466
-0.081210 -0.016524 -0.264462
-0.081207 -0.016446 -0.264458
-0.081204 -0.016370 -0.264452
-0.081201 -0.016292 -0.264452
-0.081198 -0.016214 -0.264449
-0.081195 -0.016137 -0.264447
-0.081192 -0.016059 -0.264445
-0.081189 -0.015983 -0.264445
-0.081186 -0.015905 -0.264443
-0.081183 -0.015827 -0.264443
-0.081180 -0.015749 -0.264442
-0.081177 -0.015673 -0.264440
-0.081174 -0.015595 -0.264436
-0.081171 -0.015517 -0.264432
-0.081168 -0.015439 -0.264428
-0.081166 -0.015363 -0.264421
-0.081163 -0.015286 -0.264411
-0.081160 -0.015208 -0.264413
-0.081157 -0.015130 -0.264417
-0.081154 -0.015054 -0.264415
-0.081151 -0.014976 -0.264413
-0.081148 -0.014898 -0.264408
-0.081145 -0.014820 -0.264408
-0.081141 -0.014742 -0.264412
-0.081138 -0.014666 -0.264408
-0.081136 -0.014588 -0.264402
-0.081133 -0.014510 -0.264398
-0.081130 -0.014433 -0.264395
-0.081127 -0.014357 -0.264389
-0.081124 -0.014279 -0.264387
-0.081121 -0.014201 -0.264385
-0.081118 -0.014123 -0.264373
-0.081116 -0.014047 -0.264368
-0.081112 -0.013969 -0.264368
-0.081109 -0.013891 -0.264368
-0.081106 -0.013816 -0.264364
-0.081104 -0.013738 -0.264356
-0.081101 -0.013660 -0.264348
-0.081098 -0.013582 -0.264349
-0.081095 -0.013504 -0.264349
-0.081092 -0.013428 -0.264345
-0.081089 -0.013350 -0.264339
-0.081086 -0.013272 -0.264335
-0.081083 -0.013195 -0.264333
-0.081080 -0.013119 -0.264332
-0.081077 -0.013041 -0.264332
-0.081074 -0.012963 -0.264330
-0.081071 -0.012885 -0.264326
-0.081068 -0.012807 -0.264326
-0.081065 -0.012731 -0.264322
-0.081062 -0.012653 -0.264329
-0.081058 -0.012575 -0.264337
-0.081055 -0.012497 -0.264329
-0.081053 -0.012421 -0.264313
-0.081050 -0.012343 -0.264317
-0.081046 -0.012265 -0.264327
-0.081043 -0.012187 -0.264324
-0.081041 -0.012111 -0.264316
-0.081038 -0.012032 -0.264314
-0.081035 -0.011956 -0.264312
-0.081032 -0.011878 -0.264308
-0.081029 -0.011800 -0.264309
-0.081025 -0.011722 -0.264315
-0.081022 -0.011644 -0.264315
-0.081019 -0.011568 -0.264311
-0.081016 -0.011490 -0.264309
-0.081013 -0.011412 -0.264311
-0.081010 -0.011334 -0.264312
-0.081007 -0.011256 -0.264312
-0.081003 -0.011178 -0.264312
-0.081001 -0.011102 -0.264306
-0.080998 -0.011024 -0.264296
-0.080995 -0.010947 -0.264294
-0.080992 -0.010869 -0.264293
-0.080989 -0.010791 -0.264297
-0.080985 -0.010712 -0.264305
-0.080982 -0.010634 -0.264307
-0.080979 -0.010558 -0.264309
-0.080975 -0.010478 -0.264315
-0.080972 -0.010402 -0.264316
-0.080969 -0.010324 -0.264312
-0.080966 -0.010247 -0.264312
-0.080963 -0.010169 -0.264308
-0.080960 -0.010091 -0.264304
-0.080957 -0.010015 -0.264300
-0.080954 -0.009937 -0.264299
-0.080951 -0.009859 -0.264299
-0.080948 -0.009781 -0.264297
-0.080945 -0.009703 -0.264301
-0.080942 -0.009625 -0.264307
-0.080938 -0.009547 -0.264309
-0.080935 -0.009469 -0.264304
-0.080933 -0.009393 -0.264300
-0.080930 -0.009315 -0.264300
-0.080927 -0.009237 -0.264296
-0.080924 -0.009159 -0.264294
-0.080920 -0.009081 -0.264296
-0.080917 -0.009006 -0.264293
-0.080915 -0.008928 -0.264283
-0.080912 -0.008850 -0.264277
-0.080909 -0.008772 -0.264277
-0.080906 -0.008694 -0.264275
-0.080903 -0.008618 -0.264267
-0.080900 -0.008541 -0.264262
-0.080897 -0.008462 -0.264264
-0.080894 -0.008384 -0.264268
-0.080891 -0.008307 -0.264264
-0.080888 -0.008229 -0.264266
-0.080884 -0.008151 -0.264268
-0.080882 -0.008073 -0.264263
-0.080878 -0.007995 -0.264265
-0.080875 -0.007917 -0.264269
-0.080872 -0.007839 -0.264269
-0.080869 -0.007761 -0.264267
-0.080866 -0.007683 -0.264269
-0.080863 -0.007607 -0.264270
-0.080860 -0.007529 -0.264264
-0.080857 -0.007451 -0.264258
-0.080854 -0.007373 -0.264256
-0.080851 -0.007295 -0.264254
-0.080848 -0.007217 -0.264254
-0.080845 -0.007139 -0.264251
-0.080842 -0.007064 -0.264247
-0.080839 -0.006986 -0.264243
-0.080836 -0.006908 -0.264239
-0.080833 -0.006830 -0.264235
-0.080830 -0.006752 -0.264235
-0.080827 -0.006676 -0.264228
-0.080825 -0.006598 -0.264220
-0.080822 -0.006521 -0.264212
-0.080819 -0.006445 -0.264214
-0.080815 -0.006365 -0.264220
-0.080812 -0.006287 -0.264219
-0.080810 -0.006211 -0.264211
-0.080807 -0.006133 -0.264207
-0.080803 -0.006055 -0.264211
-0.080800 -0.005977 -0.264215
-0.080797 -0.005899 -0.264213
-0.080794 -0.005821 -0.264208
-0.080791 -0.005743 -0.264214
-0.080787 -0.005665 -0.264222
-0.080784 -0.005587 -0.264216
-0.080782 -0.005509 -0.264206
-0.080778 -0.005431 -0.264208
-0.080775 -0.005353 -0.264210
-0.080772 -0.005275 -0.264209
-0.080769 -0.005197 -0.264209
-0.080766 -0.005119 -0.264209
-0.080763 -0.005041 -0.264211
-0.080760 -0.004963 -0.264213
-0.080756 -0.004885 -0.264213
-0.080753 -0.004808 -0.264210
-0.080751 -0.004730 -0.264206
-0.080748 -0.004652 -0.264198
-0.080745 -0.004576 -0.264194
-0.080742 -0.004498 -0.264190
-0.080739 -0.004420 -0.264186
-0.080736 -0.004342 -0.264191
-0.080732 -0.004262 -0.264197
-0.080729 -0.004184 -0.264199
-0.080726 -0.004108 -0.264195
-0.080723 -0.004030 -0.264193
-0.080720 -0.003953 -0.264187
-0.080718 -0.003875 -0.264180
-0.080714 -0.003797 -0.264180
-0.080711 -0.003719 -0.264180
-0.080708 -0.003641 -0.264176
-0.080705 -0.003565 -0.264174
-0.080702 -0.003485 -0.264172
-0.080699 -0.003407 -0.264173
-0.080696 -0.003329 -0.264173
-0.080693 -0.003251 -0.264175
-0.080690 -0.003173 -0.264175
-0.080686 -0.003095 -0.264179
-0.080683 -0.003017 -0.264181
-0.080680 -0.002939 -0.264180
-0.080677 -0.002861 -0.264172
-0.080674 -0.002785 -0.264170
-0.080671 -0.002705 -0.264172
-0.080668 -0.002627 -0.264174
-0.080665 -0.002550 -0.264172
-0.080662 -0.002472 -0.264165
-0.080659 -0.002396 -0.264159
-0.080656 -0.002318 -0.264155
-0.080654 -0.002240 -0.264151
-0.080650 -0.002162 -0.264151
-0.080648 -0.002084 -0.264145
-0.080645 -0.002007 -0.264140
-0.080642 -0.001929 -0.264140
-0.080639 -0.001851 -0.264138
-0.080636 -0.001773 -0.264132
-0.080633 -0.001697 -0.264128
-0.080630 -0.001619 -0.264124
-0.080627 -0.001541 -0.264123
-0.080624 -0.001463 -0.264117
-0.080621 -0.001386 -0.264109
-0.080619 -0.001310 -0.264101
-0.080616 -0.001232 -0.264095
-0.080613 -0.001154 -0.264089
-0.080610 -0.001076 -0.264088
-0.080607 -0.000998 -0.264090
-0.080604 -0.000920 -0.264090
-0.080601 -0.000842 -0.264088
-0.080598 -0.000764 -0.264086
-0.080594 -0.000686 -0.264090
-0.080591 -0.000606 -0.264095
-0.080588 -0.000528 -0.264093
-0.080585 -0.000452 -0.264089
-0.080582 -0.000375 -0.264083
-0.080579 -0.000297 -0.264085
-0.080575 -0.000216 -0.264093
-0.080572 -0.000139 -0.264094
-0.080569 -0.000061 -0.264090
-0.080567 0.000017 -0.264082
-0.080564 0.000093 -0.264074
-0.080561 0.000171 -0.264074
-0.080558 0.000249 -0.264072
-0.080555 0.000327 -0.264069
-0.080552 0.000405 -0.264065
-0.080549 0.000482 -0.264061
-0.080546 0.000560 -0.264059
-0.080543 0.000638 -0.264061
-0.080540 0.000716 -0.264053
-0.080537 0.000792 -0.264046
-0.080534 0.000870 -0.264046
-0.080531 0.000950 -0.264048
-0.080528 0.001028 -0.264046
-0.080525 0.001106 -0.264044
-0.080522 0.001184 -0.264046
-0.080518 0.001262 -0.264049
-0.080515 0.001340 -0.264047
-0.080512 0.001418 -0.264045
-0.080509 0.001496 -0.264043
-0.080506 0.001573 -0.264043
-0.080503 0.001654 -0.264047
-0.080500 0.001732 -0.264049
-0.080496 0.001810 -0.264052
-0.080493 0.001888 -0.264054
-0.080490 0.001965 -0.264048
-0.080487 0.002043 -0.264040
-0.080484 0.002121 -0.264040
-0.080481 0.002199 -0.264042
-0.080478 0.002277 -0.264045
-0.080474 0.002357 -0.264051
-0.080471 0.002435 -0.264053
-0.080468 0.002513 -0.264047
-0.080465 0.002591 -0.264043
-0.080462 0.002669 -0.264043
-0.080459 0.002747 -0.264045
-0.080456 0.002827 -0.264050
-0.080452 0.002905 -0.264054
-0.080449 0.002985 -0.264056
-0.080446 0.003063 -0.264058
-0.080443 0.003141 -0.264062
-0.080440 0.003219 -0.264058
-0.080437 0.003297 -0.264048
-0.080434 0.003375 -0.264049
-0.080430 0.003453 -0.264059
-0.080427 0.003533 -0.264063
-0.080424 0.003611 -0.264059
-0.080421 0.003689 -0.264055
-0.080418 0.003767 -0.264057
-0.080414 0.003845 -0.264062
-0.080411 0.003925 -0.264066
-0.080408 0.004003 -0.264062
-0.080404 0.004083 -0.264070
-0.080401 0.004163 -0.264084
-0.080397 0.004243 -0.264096
-0.080393 0.004321 -0.264100
-0.080390 0.004401 -0.264108
-0.080386 0.004482 -0.264116
-0.080383 0.004560 -0.264119
-0.080380 0.004638 -0.264119
-0.080377 0.004718 -0.264121
-0.080373 0.004798 -0.264133
-0.080369 0.004878 -0.264143
-0.080366 0.004956 -0.264145
-0.080362 0.005036 -0.264153
-0.080359 0.005114 -0.264155
-0.080356 0.005192 -0.264156
-0.080353 0.005272 -0.264160
-0.080349 0.005350 -0.264162
-0.080346 0.005428 -0.264160
-0.080343 0.005508 -0.264168
-0.080338 0.005591 -0.264188
-0.080334 0.005671 -0.264204
-0.080331 0.005751 -0.264208
-0.080328 0.005829 -0.264207
-0.080325 0.005907 -0.264209
-0.080322 0.005985 -0.264209
-0.080319 0.006065 -0.264205
-0.080315 0.006143 -0.264211
-0.080312 0.006221 -0.264213
-0.080309 0.006299 -0.264205
-0.080307 0.006376 -0.264198
-0.080304 0.006454 -0.264192
-0.080300 0.006532 -0.264196
-0.080953 -0.043487 -0.266861
-0.080950 -0.043407 -0.266855
-0.080947 -0.043326 -0.266841
-0.080945 -0.043248 -0.266834
-0.080941 -0.043170 -0.266842
-0.080938 -0.043090 -0.266838
-0.080935 -0.043008 -0.266828
-0.080932 -0.042932 -0.266832
-0.080929 -0.042852 -0.266832
-0.080926 -0.042772 -0.266828
-0.080923 -0.042694 -0.266830
-0.080919 -0.042614 -0.266829
-0.080916 -0.042536 -0.266827
-0.080913 -0.042457 -0.266823
-0.080910 -0.042378 -0.266829
-0.080907 -0.042301 -0.266829
-0.080903 -0.042222 -0.266835
-0.080900 -0.042144 -0.266840
-0.080897 -0.042064 -0.266840
-0.080894 -0.041986 -0.266840
-0.080891 -0.041906 -0.266840
-0.080888 -0.041827 -0.266828
-0.080886 -0.041745 -0.266810
-0.080883 -0.041667 -0.266806
-0.080879 -0.041589 -0.266814
-0.080876 -0.041511 -0.266821
-0.080872 -0.041433 -0.266833
-0.080868 -0.041355 -0.266841
-0.080866 -0.041275 -0.266831
-0.080863 -0.041195 -0.266825
-0.080860 -0.041117 -0.266827
-0.080856 -0.041039 -0.266833
-0.080853 -0.040959 -0.266830
-0.080850 -0.040880 -0.266818
-0.080847 -0.040800 -0.266814
-0.080844 -0.040722 -0.266818
-0.080841 -0.040644 -0.266822
-0.080837 -0.040563 -0.266826
-0.080834 -0.040486 -0.266822
-0.080831 -0.040406 -0.266820
-0.080828 -0.040328 -0.266823
-0.080825 -0.040250 -0.266827
-0.080821 -0.040172 -0.266831
-0.080818 -0.040092 -0.266831
-0.080815 -0.040012 -0.266823
-0.080812 -0.039934 -0.266823
-0.080809 -0.039854 -0.266825
-0.080806 -0.039776 -0.266820
-0.080803 -0.039696 -0.266816
-0.080800 -0.039616 -0.266814
-0.080797 -0.039538 -0.266810
-0.080793 -0.039460 -0.266824
-0.080790 -0.039382 -0.266826
-0.080787 -0.039304 -0.266826
-0.080784 -0.039222 -0.266815
-0.080782 -0.039143 -0.266799
-0.080778 -0.039065 -0.266805
-0.080775 -0.038987 -0.266815
-0.080772 -0.038909 -0.266813
-0.080769 -0.038829 -0.266811
-0.080765 -0.038751 -0.266815
-0.080762 -0.038671 -0.266818
-0.080759 -0.038593 -0.266818
-0.080756 -0.038513 -0.266812
-0.080753 -0.038435 -0.266812
-0.080750 -0.038357 -0.266814
-0.080746 -0.038277 -0.266816
-0.080743 -0.038199 -0.266818
-0.080740 -0.038119 -0.266813
-0.080737 -0.038039 -0.266809
-0.080734 -0.037961 -0.266815
-0.080730 -0.037883 -0.266821
-0.080727 -0.037803 -0.266817
-0.080725 -0.037723 -0.266807
-0.080722 -0.037646 -0.266803
-0.080718 -0.037567 -0.266807
-0.080715 -0.037488 -0.266806
-0.080712 -0.037408 -0.266798
-0.080710 -0.037328 -0.266790
-0.080706 -0.037248 -0.266788
-0.080703 -0.037172 -0.266794
-0.080699 -0.037092 -0.266804
-0.080696 -0.037014 -0.266804
-0.080694 -0.036934 -0.266793
-0.080691 -0.036856 -0.266791
-0.080687 -0.036776 -0.266791
-0.080684 -0.036700 -0.266805
-0.080680 -0.036620 -0.266807
-0.080678 -0.036542 -0.266799
-0.080675 -0.036462 -0.266795
-0.080671 -0.036384 -0.266810
-0.080667 -0.036308 -0.266822
-0.080665 -0.036226 -0.266802
-0.080662 -0.036147 -0.266794
-0.080659 -0.036068 -0.266796
-0.080655 -0.035990 -0.266800
-0.080652 -0.035911 -0.266798
-0.080649 -0.035833 -0.266801
-0.080646 -0.035755 -0.266803
-0.080643 -0.035675 -0.266795
-0.080640 -0.035595 -0.266787
-0.080637 -0.035517 -0.266789
-0.080634 -0.035439 -0.266793
-0.080630 -0.035361 -0.266795
-0.080627 -0.035281 -0.266798
-0.080624 -0.035203 -0.266804
-0.080621 -0.035123 -0.266800
-0.080618 -0.035045 -0.266792
-0.080615 -0.034965 -0.266788
-0.080612 -0.034885 -0.266784
-0.080609 -0.034807 -0.266784
-0.080605 -0.034729 -0.266791
-0.080602 -0.034651 -0.266795
-0.080599 -0.034571 -0.266795
-0.080596 -0.034493 -0.266795
-0.080593 -0.034413 -0.266793
-0.080590 -0.034336 -0.266789
-0.080586 -0.034256 -0.266793
-0.080583 -0.034178 -0.266789
-0.080580 -0.034098 -0.266790
-0.080577 -0.034020 -0.266794
-0.080574 -0.033942 -0.266796
-0.080571 -0.033864 -0.266792
-0.080568 -0.033784 -0.266786
-0.080564 -0.033704 -0.266786
-0.080561 -0.033626 -0.266784
-0.080558 -0.033548 -0.266789
-0.080555 -0.033470 -0.266795
-0.080552 -0.033390 -0.266787
-0.080549 -0.033312 -0.266781
-0.080546 -0.033232 -0.266781
-0.080542 -0.033154 -0.266785
-0.080539 -0.033076 -0.266786
-0.080537 -0.032997 -0.266778
-0.080533 -0.032919 -0.266778
-0.080530 -0.032840 -0.266786
-0.080527 -0.032760 -0.266788
-0.080523 -0.032682 -0.266794
-0.080520 -0.032604 -0.266792
-0.080518 -0.032525 -0.266778
-0.080515 -0.032445 -0.266771
-0.080512 -0.032367 -0.266771
-0.080509 -0.032289 -0.266771
-0.080505 -0.032209 -0.266771
-0.080502 -0.032131 -0.266773
-0.080499 -0.032053 -0.266777
-0.080496 -0.031973 -0.266777
-0.080493 -0.031895 -0.266776
-0.080489 -0.031817 -0.266774
-0.080486 -0.031737 -0.266778
-0.080483 -0.031661 -0.266788
-0.080480 -0.031581 -0.266778
-0.080477 -0.031501 -0.266768
-0.080474 -0.031423 -0.266771
-0.080470 -0.031345 -0.266791
-0.080467 -0.031267 -0.266793
-0.080464 -0.031188 -0.266775
-0.080462 -0.031108 -0.266761
-0.080459 -0.031030 -0.266761
-0.080455 -0.030952 -0.266777
-0.080451 -0.030873 -0.266786
-0.080448 -0.030794 -0.266778
-0.080445 -0.030716 -0.266778
-0.080442 -0.030638 -0.266778
-0.080439 -0.030558 -0.266768
-0.080436 -0.030478 -0.266764
-0.080433 -0.030400 -0.266768
-0.080430 -0.030322 -0.266767
-0.080427 -0.030244 -0.266765
-0.080423 -0.030164 -0.266769
-0.080420 -0.030086 -0.266775
-0.080417 -0.030006 -0.266765
-0.080415 -0.029929 -0.266755
-0.080411 -0.029851 -0.266757
-0.080408 -0.029772 -0.266774
-0.080404 -0.029694 -0.266780
-0.080401 -0.029614 -0.266780
-0.080398 -0.029536 -0.266786
-0.080395 -0.029458 -0.266780
-0.080392 -0.029379 -0.266766
-0.080389 -0.029301 -0.266766
-0.080385 -0.029223 -0.266777
-0.080382 -0.029144 -0.266783
-0.080379 -0.029065 -0.266773
-0.080376 -0.028985 -0.266765
-0.080373 -0.028907 -0.266761
-0.080370 -0.028829 -0.266763
-0.080367 -0.028749 -0.266763
-0.080364 -0.028671 -0.266764
-0.080361 -0.028591 -0.266758
-0.080358 -0.028514 -0.266746
-0.080357 -0.028432 -0.266706
-0.080356 -0.028353 -0.266672
-0.080353 -0.028274 -0.266658
-0.080350 -0.028194 -0.266652
-0.080347 -0.028116 -0.266643
-0.080344 -0.028036 -0.266645
-0.080339 -0.027961 -0.266685
-0.080334 -0.027884 -0.266725
-0.080330 -0.027806 -0.266739
-0.080328 -0.027727 -0.266713
-0.080328 -0.027644 -0.266649
-0.080328 -0.027564 -0.266586
-0.080347 -0.027470 -0.266118
-0.080351 -0.027383 -0.265950
-0.080355 -0.027301 -0.265806
-0.080356 -0.027219 -0.265706
-0.080357 -0.027139 -0.265618
-0.080358 -0.027059 -0.265537
-0.080359 -0.026978 -0.265457
-0.080359 -0.026898 -0.265387
-0.080359 -0.026817 -0.265321
-0.080359 -0.026739 -0.265261
-0.080357 -0.026660 -0.265219
-0.080356 -0.026580 -0.265186
-0.080354 -0.026501 -0.265154
-0.080353 -0.026422 -0.265112
-0.080352 -0.026343 -0.265068
-0.080351 -0.026264 -0.265026
-0.080349 -0.026187 -0.265001
-0.080346 -0.026107 -0.264985
-0.080345 -0.026030 -0.264959
-0.080344 -0.025951 -0.264913
-0.080342 -0.025872 -0.264871
-0.080341 -0.025793 -0.264831
-0.080340 -0.025715 -0.264792
-0.080339 -0.025636 -0.264750
-0.080338 -0.025557 -0.264704
-0.080337 -0.025478 -0.264660
-0.080335 -0.025401 -0.264628
-0.080333 -0.025322 -0.264604
-0.080331 -0.025244 -0.264595
-0.080328 -0.025166 -0.264593
-0.080325 -0.025090 -0.264581
-0.080322 -0.025011 -0.264573
-0.080320 -0.024935 -0.264565
-0.080317 -0.024855 -0.264557
-0.080314 -0.024779 -0.264548
-0.080311 -0.024701 -0.264546
-0.080308 -0.024623 -0.264552
-0.080305 -0.024547 -0.264552
-0.080302 -0.024468 -0.264538
-0.080300 -0.024390 -0.264519
-0.080298 -0.024312 -0.264499
-0.080295 -0.024235 -0.264485
-0.080293 -0.024157 -0.264471
-0.080290 -0.024079 -0.264463
-0.080288 -0.024004 -0.264455
-0.080285 -0.023926 -0.264446
-0.080282 -0.023848 -0.264448
-0.080278 -0.023772 -0.264454
-0.080276 -0.023692 -0.264442
-0.080273 -0.023616 -0.264432
-0.080270 -0.023538 -0.264427
-0.080267 -0.023461 -0.264427
-0.080264 -0.023384 -0.264435
-0.080260 -0.023306 -0.264445
-0.080257 -0.023228 -0.264437
-0.080255 -0.023153 -0.264429
-0.080252 -0.023075 -0.264426
-0.080249 -0.022997 -0.264418
-0.080246 -0.022919 -0.264412
-0.080243 -0.022841 -0.264418
-0.080239 -0.022765 -0.264430
-0.080236 -0.022687 -0.264430
-0.080234 -0.022609 -0.264417
-0.080231 -0.022531 -0.264409
-0.080228 -0.022455 -0.264407
-0.080225 -0.022377 -0.264409
-0.080221 -0.022299 -0.264413
-0.080218 -0.022223 -0.264419
-0.080214 -0.022145 -0.264428
-0.080211 -0.022067 -0.264432
-0.080208 -0.021991 -0.264436
-0.080204 -0.021913 -0.264442
-0.080201 -0.021835 -0.264444
-0.080198 -0.021757 -0.264442
-0.080195 -0.021681 -0.264449
-0.080191 -0.021603 -0.264455
-0.080188 -0.021525 -0.264453
-0.080186 -0.021449 -0.264447
-0.080183 -0.021371 -0.264441
-0.080180 -0.021294 -0.264430
-0.080178 -0.021216 -0.264418
-0.080175 -0.021138 -0.264408
-0.080172 -0.021062 -0.264416
-0.080168 -0.020984 -0.264432
-0.080164 -0.020908 -0.264438
-0.080161 -0.020829 -0.264445
-0.080157 -0.020751 -0.264451
-0.080155 -0.020675 -0.264449
-0.080152 -0.020598 -0.264433
-0.080150 -0.020520 -0.264423
-0.080146 -0.020442 -0.264429
-0.080143 -0.020366 -0.264436
-0.080139 -0.020288 -0.264442
-0.080136 -0.020210 -0.264454
-0.080132 -0.020133 -0.264464
-0.080129 -0.020055 -0.264470
-0.080126 -0.019977 -0.264468
-0.080123 -0.019900 -0.264463
-0.080119 -0.019823 -0.264469
-0.080116 -0.019745 -0.264483
-0.080112 -0.019667 -0.264497
-0.080108 -0.019591 -0.264505
-0.080105 -0.019513 -0.264509
-0.080102 -0.019435 -0.264506
-0.080100 -0.019357 -0.264494
-0.080097 -0.019281 -0.264482
-0.080094 -0.019204 -0.264480
-0.080091 -0.019125 -0.264488
-0.080087 -0.019047 -0.264490
-0.080085 -0.018972 -0.264485
-0.080082 -0.018894 -0.264479
-0.080079 -0.018816 -0.264473
-0.080076 -0.018738 -0.264463
-0.080073 -0.018660 -0.264455
-0.080071 -0.018584 -0.264454
-0.080068 -0.018507 -0.264452
-0.080064 -0.018429 -0.264452
-0.080061 -0.018353 -0.264454
-0.080058 -0.018275 -0.264446
-0.080056 -0.018197 -0.264434
-0.080053 -0.018119 -0.264437
-0.080049 -0.018041 -0.264441
-0.080046 -0.017965 -0.264441
-0.080043 -0.017887 -0.264435
-0.080041 -0.017809 -0.264425
-0.080038 -0.017734 -0.264416
-0.080036 -0.017656 -0.264408
-0.080033 -0.017578 -0.264406
-0.080029 -0.017500 -0.264408
-0.080026 -0.017424 -0.264408
-0.080023 -0.017346 -0.264416
-0.080020 -0.017268 -0.264411
-0.080017 -0.017190 -0.264403
-0.080014 -0.017112 -0.264399
-0.080011 -0.017037 -0.264397
-0.080008 -0.016958 -0.264405
-0.080004 -0.016880 -0.264417
-0.080001 -0.016804 -0.264410
-0.079999 -0.016727 -0.264400
-0.079996 -0.016649 -0.264400
-0.079992 -0.016571 -0.264402
-0.079989 -0.016493 -0.264402
-0.079986 -0.016417 -0.264396
-0.079983 -0.016339 -0.264401
-0.079980 -0.016261 -0.264405
-0.079977 -0.016183 -0.264403
-0.079974 -0.016105 -0.264405
-0.079970 -0.016029 -0.264407
-0.079967 -0.015951 -0.264411
-0.079964 -0.015873 -0.264414
-0.079961 -0.015797 -0.264408
-0.079958 -0.015719 -0.264410
-0.079954 -0.015641 -0.264422
-0.079951 -0.015563 -0.264428
-0.079947 -0.015485 -0.264432
-0.079944 -0.015406 -0.264439
-0.079941 -0.015329 -0.264435
-0.079938 -0.015253 -0.264435
-0.079935 -0.015175 -0.264435
-0.079932 -0.015097 -0.264435
-0.079929 -0.015019 -0.264435
-0.079925 -0.014941 -0.264436
-0.079923 -0.014865 -0.264430
-0.079920 -0.014787 -0.264420
-0.079917 -0.014709 -0.264426
-0.079913 -0.014631 -0.264428
-0.079911 -0.014553 -0.264422
-0.079907 -0.014477 -0.264423
-0.079904 -0.014399 -0.264427
-0.079901 -0.014321 -0.264421
-0.079899 -0.014246 -0.264407
-0.079896 -0.014168 -0.264397
-0.079893 -0.014090 -0.264392
-0.079891 -0.014012 -0.264382
-0.079888 -0.013937 -0.264378
-0.079885 -0.013859 -0.264380
-0.079882 -0.013781 -0.264372
-0.079879 -0.013703 -0.264370
-0.079876 -0.013625 -0.264371
-0.079873 -0.013549 -0.264363
-0.079870 -0.013471 -0.264359
-0.079867 -0.013393 -0.264363
-0.079864 -0.013315 -0.264363
-0.079861 -0.013237 -0.264361
-0.079858 -0.013161 -0.264356
-0.079855 -0.013084 -0.264346
-0.079852 -0.013006 -0.264346
-0.079849 -0.012928 -0.264354
-0.079845 -0.012850 -0.264358
-0.079842 -0.012774 -0.264355
-0.079839 -0.012696 -0.264355
-0.079836 -0.012618 -0.264355
-0.079833 -0.012540 -0.264349
-0.079830 -0.012462 -0.264347
-0.079827 -0.012386 -0.264343
-0.079824 -0.012308 -0.264346
-0.079821 -0.012230 -0.264356
-0.079817 -0.012152 -0.264360
-0.079815 -0.012074 -0.264352
-0.079812 -0.011998 -0.264346
-0.079809 -0.011920 -0.264342
-0.079806 -0.011842 -0.264341
-0.079803 -0.011764 -0.264341
-0.079799 -0.011686 -0.264343
-0.079796 -0.011609 -0.264343
-0.079793 -0.011533 -0.264339
-0.079791 -0.011455 -0.264331
-0.079788 -0.011377 -0.264318
-0.079785 -0.011299 -0.264318
-0.079782 -0.011221 -0.264326
-0.079779 -0.011145 -0.264326
-0.079775 -0.011067 -0.264326
-0.079772 -0.010989 -0.264326
-0.079769 -0.010911 -0.264327
-0.079766 -0.010833 -0.264329
-0.079763 -0.010755 -0.264329
-0.079760 -0.010677 -0.264327
-0.079756 -0.010599 -0.264331
-0.079753 -0.010521 -0.264339
-0.079750 -0.010443 -0.264344
-0.079746 -0.010365 -0.264346
-0.079743 -0.010287 -0.264348
-0.079740 -0.010211 -0.264344
-0.079737 -0.010133 -0.264338
-0.079735 -0.010056 -0.264334
-0.079731 -0.009977 -0.264339
-0.079728 -0.009900 -0.264339
-0.079725 -0.009822 -0.264339
-0.079722 -0.009744 -0.264333
-0.079719 -0.009668 -0.264327
-0.079716 -0.009590 -0.264327
-0.079713 -0.009512 -0.264328
-0.079710 -0.009434 -0.264332
-0.079706 -0.009356 -0.264340
-0.079703 -0.009278 -0.264344
-0.079700 -0.009200 -0.264342
-0.079697 -0.009122 -0.264344
-0.079694 -0.009044 -0.264344
-0.079690 -0.008966 -0.264345
-0.079687 -0.008888 -0.264351
-0.079684 -0.008810 -0.264355
-0.079681 -0.008732 -0.264345
-0.079678 -0.008656 -0.264343
-0.079674 -0.008576 -0.264355
-0.079671 -0.008498 -0.264364
-0.079667 -0.008420 -0.264368
-0.079664 -0.008342 -0.264370
-0.079661 -0.008264 -0.264370
-0.079658 -0.008186 -0.264364
-0.079655 -0.008108 -0.264362
-0.079652 -0.008030 -0.264367
-0.079648 -0.007952 -0.264373
-0.079645 -0.007874 -0.264379
-0.079642 -0.007796 -0.264377
