# .PCD v0.7 - Point Cloud Data file format
VERSION 0.7
FIELDS x y z
SIZE 4 4 4
TYPE F F F
COUNT 1 1 1
WIDTH 1350
HEIGHT 1
VIEWPOINT 0 0 0 1 0 0 0
POINTS 1350
DATA ascii
-0.080623999 -0.001463 -0.264117
-0.080620997 -0.001386 -0.26410899
-0.080619 -0.00131 -0.264101
-0.080615997 -0.001232 -0.26409501
-0.080613002 -0.0011540001 -0.26408899
-0.08061 -0.001076 -0.264088
-0.080606997 -0.00099800003 -0.26409
-0.080604002 -0.00092000002 -0.26409
-0.080600999 -0.00084200001 -0.264088
-0.080597997 -0.000764 -0.26408601
-0.080594003 -0.00068599998 -0.26409
-0.080591001 -0.00060600002 -0.26409501
-0.080587998 -0.000528 -0.26409301
-0.080585003 -0.00045200001 -0.26408899
-0.080582 -0.000375 -0.264083
-0.080578998 -0.00029699999 -0.26408499
-0.080574997 -0.000216 -0.26409301
-0.080572002 -0.000139 -0.264094
-0.080568999 -6.0999999e-05 -0.26409
-0.080567002 1.7e-05 -0.26408201
-0.080564 9.3000002e-05 -0.264074
-0.080560997 0.00017100001 -0.264074
-0.080558002 0.000249 -0.264072
-0.080554999 0.00032699999 -0.26406899
-0.080551997 0.000405 -0.264065
-0.080549002 0.000482 -0.264061
-0.080545999 0.00056000001 -0.26405901
-0.080542997 0.00063800003 -0.264061
-0.080540001 0.00071599998 -0.26405299
-0.080536999 0.00079199998 -0.26404601
-0.080534004 0.00086999999 -0.26404601
-0.080531001 0.00095000002 -0.26404801
-0.080527999 0.001028 -0.26404601
-0.080525003 0.001106 -0.26404399
-0.080522001 0.0011840001 -0.26404601
-0.080518 0.0012619999 -0.26404899
-0.080514997 0.00134 -0.264047
-0.080512002 0.001418 -0.264045
-0.080509 0.001496 -0.264043
-0.080505997 0.001573 -0.264043
-0.080503002 0.001654 -0.264047
-0.080499999 0.001732 -0.26404899
-0.080495998 0.00181 -0.264052
-0.080493003 0.0018880001 -0.264054
-0.080490001 0.0019650001 -0.26404801
-0.080486998 0.002043 -0.26403999
-0.080484003 0.0021210001 -0.26403999
-0.080481 0.002199 -0.26404199
-0.080477998 0.0022770001 -0.264045
-0.080473997 0.002357 -0.26405099
-0.080471002 0.0024349999 -0.26405299
-0.080467999 0.002513 -0.264047
-0.080464996 0.0025909999 -0.264043
-0.080462001 0.0026690001 -0.264043
-0.080458999 0.002747 -0.264045
-0.080456004 0.0028270001 -0.26405001
-0.080452003 0.002905 -0.264054
-0.080449 0.0029849999 -0.264056
-0.080445997 0.003063 -0.26405799
-0.080443002 0.0031409999 -0.26406199
-0.08044 0.0032190001 -0.26405799
-0.080436997 0.003297 -0.26404801
-0.080434002 0.0033750001 -0.26404899
-0.080430001 0.003453 -0.26405901
-0.080426998 0.0035329999 -0.264063
-0.080424003 0.003611 -0.26405901
-0.080421001 0.0036889999 -0.26405501
-0.080417998 0.003767 -0.26405701
-0.080413997 0.0038449999 -0.26406199
-0.080411002 0.0039249999 -0.26406601
-0.080407999 0.004003 -0.26406199
-0.080403998 0.0040830001 -0.26407
-0.080401003 0.0041629998 -0.26408401
-0.080397002 0.0042429999 -0.26409599
-0.080393001 0.0043210001 -0.26409999
-0.080389999 0.0044010002 -0.264108
-0.080385998 0.0044820001 -0.26411599
-0.080383003 0.0045599998 -0.264119
-0.08038 0.0046379999 -0.264119
-0.080376998 0.0047180001 -0.264121
-0.080372997 0.0047980002 -0.26413301
-0.080369003 0.0048779999 -0.26414299
-0.080366001 0.004956 -0.26414499
-0.080362 0.0050360002 -0.264153
-0.080358997 0.0051139998 -0.264155
-0.080356002 0.005192 -0.26415601
-0.080352999 0.0052720001 -0.26416001
-0.080348998 0.0053500002 -0.264162
-0.080346003 0.0054279999 -0.26416001
-0.080343001 0.005508 -0.26416799
-0.080338001 0.005591 -0.26418799
-0.080334 0.0056710001 -0.264204
-0.080330998 0.0057509998 -0.26420799
-0.080328003 0.0058289999 -0.26420701
-0.080325 0.005907 -0.264209
-0.080356002 -0.02658 -0.26518601
-0.080353998 -0.026501 -0.265154
-0.080352999 -0.026422 -0.26511201
-0.080352001 -0.026342999 -0.26506799
-0.080351003 -0.026264001 -0.265026
-0.080348998 -0.026187001 -0.265001
-0.080346003 -0.026107 -0.264985
-0.080344997 -0.02603 -0.26495901
-0.080343999 -0.025951 -0.26491299
-0.080342002 -0.025872 -0.264871
-0.080340996 -0.025792999 -0.26483101
-0.080339998 -0.025715001 -0.264792
-0.080339 -0.025636001 -0.26475
-0.080338001 -0.025557 -0.26470399
-0.080337003 -0.025478 -0.26466
-0.080334999 -0.025401 -0.26462799
-0.080333002 -0.025322 -0.264604
-0.080330998 -0.025243999 -0.264595
-0.080328003 -0.025165999 -0.26459301
-0.080325 -0.02509 -0.26458099
-0.080321997 -0.025010999 -0.26457301
-0.080320001 -0.024935 -0.26456499
-0.080316998 -0.024855001 -0.264557
-0.080314003 -0.024778999 -0.264548
-0.080311 -0.024700999 -0.26454601
-0.080307998 -0.024622999 -0.264552
-0.080305003 -0.024546999 -0.264552
-0.080302 -0.024467999 -0.26453799
-0.080300003 -0.024390001 -0.26451901
-0.080297999 -0.024312001 -0.26449901
-0.080294997 -0.024235001 -0.264485
-0.080293 -0.024157001 -0.26447099
-0.080289997 -0.024079001 -0.26446301
-0.080288 -0.024003999 -0.26445499
-0.080284998 -0.023925999 -0.26444599
-0.080282003 -0.023848001 -0.26444799
-0.080278002 -0.023771999 -0.26445401
-0.080275998 -0.023692001 -0.264442
-0.080273002 -0.023615999 -0.26443201
-0.08027 -0.023538001 -0.26442701
-0.080266997 -0.023460999 -0.26442701
-0.080264002 -0.023383999 -0.26443499
-0.080260001 -0.023305999 -0.26444501
-0.080256999 -0.023228001 -0.26443699
-0.080255002 -0.023153 -0.264429
-0.080251999 -0.023074999 -0.26442599
-0.080248997 -0.022996999 -0.26441801
-0.080246001 -0.022918999 -0.26441199
-0.080242999 -0.022841001 -0.26441801
-0.080238998 -0.022764999 -0.26442999
-0.080236003 -0.022686999 -0.26442999
-0.080233999 -0.022608999 -0.26441699
-0.080231003 -0.022531001 -0.26440901
-0.080228001 -0.022454999 -0.26440701
-0.080224998 -0.022376999 -0.26440901
-0.080220997 -0.022298999 -0.264413
-0.080218002 -0.022222999 -0.26441899
-0.080214001 -0.022144999 -0.26442799
-0.080210999 -0.022066999 -0.26443201
-0.080208004 -0.021991 -0.26443601
-0.080204003 -0.021912999 -0.264442
-0.080201 -0.021834999 -0.26444399
-0.080197997 -0.021756999 -0.264442
-0.080195002 -0.021681 -0.264449
-0.080191001 -0.021602999 -0.26445499
-0.080187999 -0.021524999 -0.26445299
-0.080186002 -0.021449 -0.264447
-0.080182999 -0.021371 -0.26444101
-0.080179997 -0.021294 -0.26442999
-0.080178 -0.021215999 -0.26441801
-0.080174997 -0.021137999 -0.26440799
-0.080172002 -0.021062 -0.26441601
-0.080168001 -0.020984 -0.26443201
-0.080164 -0.020908 -0.264438
-0.080160998 -0.020829 -0.26444501
-0.080156997 -0.020750999 -0.264451
-0.080155 -0.020675 -0.264449
-0.080151998 -0.020598 -0.264433
-0.080150001 -0.02052 -0.26442301
-0.080146 -0.020442 -0.264429
-0.080142997 -0.020366 -0.26443601
-0.080139004 -0.020288 -0.264442
-0.080136001 -0.02021 -0.26445401
-0.080132 -0.020133 -0.26446399
-0.080128998 -0.020055 -0.26447001
-0.080126002 -0.019977 -0.26446801
-0.080123 -0.0199 -0.26446301
-0.080118999 -0.019823 -0.264469
-0.080115996 -0.019745 -0.264483
-0.080112003 -0.019667 -0.26449701
-0.080108002 -0.019591 -0.264505
-0.080104999 -0.019513 -0.26450899
-0.080101997 -0.019435 -0.26450601
-0.0801 -0.019357 -0.264494
-0.080096997 -0.019281 -0.26448199
-0.080094002 -0.019204 -0.26447999
-0.080091 -0.019125 -0.26448801
-0.080086999 -0.019047 -0.26449001
-0.080085002 -0.018972 -0.264485
-0.080081999 -0.018894 -0.26447901
-0.080078997 -0.018816 -0.26447299
-0.080076002 -0.018738 -0.26446301
-0.080072999 -0.01866 -0.26445499
-0.080071002 -0.018584 -0.26445401
-0.080068 -0.018507 -0.26445201
-0.080063999 -0.018429 -0.26445201
-0.080061004 -0.018353 -0.26445401
-0.080058001 -0.018275 -0.26444599
-0.080055997 -0.018197 -0.26443401
-0.080053002 -0.018119 -0.26443699
-0.080049001 -0.018041 -0.26444101
-0.080045998 -0.017965 -0.26444101
-0.080043003 -0.017887 -0.26443499
-0.080040999 -0.017809 -0.26442501
-0.080038004 -0.017734 -0.26441601
-0.080035999 -0.017656 -0.26440799
-0.080032997 -0.017578 -0.264406
-0.080029003 -0.0175 -0.26440799
-0.080026001 -0.017424 -0.26440799
-0.080022998 -0.017346 -0.26441601
-0.080020003 -0.017268 -0.264411
-0.080017 -0.01719 -0.26440299
-0.080013998 -0.017112 -0.26439899
-0.080011003 -0.017037001 -0.264397
-0.080008 -0.016958 -0.26440501
-0.080003999 -0.01688 -0.26441699
-0.080000997 -0.016804 -0.26440999
-0.079999 -0.016727 -0.26440001
-0.079995997 -0.016649 -0.26440001
-0.079991996 -0.016571 -0.264402
-0.079989001 -0.016493 -0.264402
-0.079985999 -0.016417 -0.26439601
-0.079983003 -0.016339 -0.26440099
-0.079980001 -0.016261 -0.26440501
-0.079976998 -0.016183 -0.26440299
-0.079974003 -0.016105 -0.26440501
-0.079970002 -0.016029 -0.26440701
-0.079967 -0.015951 -0.264411
-0.079963997 -0.015873 -0.26441401
-0.079961002 -0.015797 -0.26440799
-0.079957999 -0.015719 -0.26440999
-0.079953998 -0.015641 -0.264422
-0.079951003 -0.015563 -0.26442799
-0.079947002 -0.015485 -0.26443201
-0.079944 -0.015406 -0.26443899
-0.079940997 -0.015329 -0.26443499
-0.079938002 -0.015253 -0.26443499
-0.079934999 -0.015175 -0.26443499
-0.079931997 -0.015097 -0.26443499
-0.079929002 -0.015019 -0.26443499
-0.079925001 -0.014941 -0.26443601
-0.079922996 -0.014865 -0.26442999
-0.079920001 -0.014787 -0.26442
-0.079916999 -0.014709 -0.26442599
-0.079912998 -0.014631 -0.26442799
-0.079911001 -0.014553 -0.264422
-0.079907 -0.014477 -0.26442301
-0.079903997 -0.014399 -0.26442701
-0.079901002 -0.014321 -0.26442099
-0.079898998 -0.014246 -0.26440701
-0.079896003 -0.014168 -0.264397
-0.079893 -0.01409 -0.26439199
-0.079891004 -0.014012 -0.264382
-0.079888001 -0.013937 -0.26437801
-0.079884999 -0.013859 -0.26438001
-0.079882003 -0.013781 -0.26437199
-0.079879001 -0.013703 -0.26436999
-0.079875998 -0.013625 -0.26437101
-0.079873003 -0.013549 -0.26436299
-0.07987 -0.013471 -0.264359
-0.079866998 -0.013393 -0.26436299
-0.079864003 -0.013315 -0.26436299
-0.079861 -0.013237 -0.26436099
-0.079857998 -0.013161 -0.26435599
-0.079855002 -0.013084 -0.264346
-0.079852 -0.013006 -0.264346
-0.079848997 -0.012928 -0.26435399
-0.079844996 -0.01285 -0.26435801
-0.079842001 -0.012774 -0.264355
-0.079838999 -0.012696 -0.264355
-0.079836003 -0.012618 -0.264355
-0.079833001 -0.01254 -0.26434901
-0.079829998 -0.012462 -0.26434699
-0.079827003 -0.012386 -0.26434299
-0.079824001 -0.012308 -0.264346
-0.079820998 -0.01223 -0.26435599
-0.079816997 -0.012152 -0.26436001
-0.079815 -0.012074 -0.26435199
-0.079811998 -0.011998 -0.264346
-0.079809003 -0.01192 -0.26434201
-0.079806 -0.011842 -0.264341
-0.079802997 -0.011764 -0.264341
-0.079798996 -0.011686 -0.26434299
-0.079796001 -0.011609 -0.26434299
-0.079792999 -0.011533 -0.264339
-0.079791002 -0.011455 -0.26433101
-0.079787999 -0.011377 -0.26431799
-0.079784997 -0.011299 -0.26431799
-0.079782002 -0.011221 -0.26432601
-0.079778999 -0.011145 -0.26432601
-0.079774998 -0.011067 -0.26432601
-0.079772003 -0.010989 -0.26432601
-0.079769 -0.010911 -0.26432699
-0.079765998 -0.010833 -0.26432899
-0.079763003 -0.010755 -0.26432899
-0.07976 -0.010677 -0.26432699
-0.079755999 -0.010599 -0.26433101
-0.079752997 -0.010521 -0.264339
-0.079750001 -0.010443 -0.26434401
-0.079746 -0.010365 -0.264346
-0.079742998 -0.010287 -0.264348
-0.079740003 -0.010211 -0.26434401
-0.079737 -0.010133 -0.26433799
-0.079735003 -0.010056 -0.26433399
-0.079731002 -0.0099769998 -0.264339
-0.079728 -0.0098999999 -0.264339
-0.079724997 -0.0098219998 -0.264339
-0.079722002 -0.0097439997 -0.26433301
-0.079719 -0.009668 -0.26432699
-0.079715997 -0.0095899999 -0.26432699
-0.079713002 -0.0095119998 -0.264328
-0.079709999 -0.0094339997 -0.264332
-0.079705998 -0.0093560005 -0.26434001
-0.079703003 -0.0092780003 -0.26434401
-0.079700001 -0.0092000002 -0.26434201
-0.079696998 -0.0091220001 -0.26434401
-0.079694003 -0.0090439999 -0.26434401
-0.079690002 -0.0089659998 -0.26434499
-0.079686999 -0.0088879997 -0.26435101
-0.079683997 -0.0088099996 -0.264355
-0.079681002 -0.0087320004 -0.26434499
-0.079677999 -0.0086559998 -0.26434299
-0.079673998 -0.0085760001 -0.264355
-0.079671003 -0.008498 -0.264364
-0.079667002 -0.0084199999 -0.264368
-0.079663999 -0.0083419997 -0.26436999
-0.079660997 -0.0082639996 -0.26436999
-0.079658002 -0.0081860004 -0.264364
-0.079654999 -0.0081080003 -0.26436201
-0.079651996 -0.0080300001 -0.26436701
-0.079648003 -0.007952 -0.264373
-0.079645 -0.0078739999 -0.26437899
-0.079641998 -0.0077960002 -0.264377
-0.079639003 -0.0077180001 -0.264373
-0.079636 -0.00764 -0.26437899
-0.079631999 -0.0075599998 -0.26439101
-0.079627998 -0.0074809999 -0.264404
-0.079625003 -0.0074029998 -0.26440799
-0.079622 -0.0073250001 -0.264402
-0.079618998 -0.0072499998 -0.26439399
-0.079616003 -0.0071700001 -0.26439801
-0.079613 -0.007092 -0.26439801
-0.079609998 -0.0070139999 -0.26439899
-0.079605997 -0.0069360002 -0.26440701
-0.079603001 -0.0068580001 -0.264411
-0.079599999 -0.0067799999 -0.26440701
-0.079596996 -0.0067019998 -0.26440501
-0.079593003 -0.0066240001 -0.264411
-0.07959 -0.006546 -0.264411
-0.079586998 -0.0064679999 -0.26440999
-0.079584002 -0.0063900002 -0.26440999
-0.079581 -0.0063120001 -0.26440001
-0.079577997 -0.006234 -0.26439801
-0.079575002 -0.0061559998 -0.26440001
-0.079572 -0.0060800002 -0.26439399
-0.079570003 -0.0060020001 -0.26438901
-0.079567 -0.0059250002 -0.26438501
-0.079563998 -0.0058470001 -0.26438299
-0.079561003 -0.0057689999 -0.26437899
-0.079558 -0.0056909998 -0.264375
-0.079554997 -0.0056130001 -0.264373
-0.079552002 -0.005535 -0.26436999
-0.079549 -0.0054569999 -0.264368
-0.079545997 -0.0053790002 -0.264368
-0.079542004 -0.0053010001 -0.26436999
-0.079539001 -0.005223 -0.26437199
-0.079535998 -0.0051449998 -0.26437199
-0.079533003 -0.0050670002 -0.26437101
-0.079530001 -0.0049899998 -0.26436499
-0.079526998 -0.0049120001 -0.26436299
-0.079524003 -0.004834 -0.26436499
-0.079521 -0.0047559999 -0.26436499
-0.079517998 -0.0046780002 -0.264359
-0.079515003 -0.0046000001 -0.26436001
-0.079512 -0.004522 -0.26436201
-0.079507999 -0.0044439998 -0.26436001
-0.079504997 -0.0043660002 -0.264364
-0.079502001 -0.004286 -0.264368
-0.079498999 -0.0042099999 -0.264368
-0.079496004 -0.0041319998 -0.26436901
-0.079492003 -0.0040520001 -0.26437101
-0.079489 -0.003976 -0.26436499
-0.079487003 -0.0038980001 -0.264357
-0.079484001 -0.00382 -0.264359
-0.07948 -0.0037420001 -0.264359
-0.079476997 -0.003664 -0.26435801
-0.079474002 -0.0035860001 -0.26435399
-0.079471 -0.0035089999 -0.26435199
-0.079469003 -0.003431 -0.26434401
-0.079466 -0.0033529999 -0.26433599
-0.079462998 -0.003275 -0.26433
-0.079460002 -0.0031989999 -0.26432899
-0.079457 -0.003119 -0.26432899
-0.079453997 -0.0030429999 -0.26432699
-0.079451002 -0.002963 -0.26432499
-0.079448 -0.0028860001 -0.264323
-0.079444997 -0.002808 -0.26432499
-0.079442002 -0.0027300001 -0.264323
-0.079438999 -0.0026519999 -0.26431999
-0.079435997 -0.002574 -0.26431599
-0.079433002 -0.0024979999 -0.26430801
-0.079429999 -0.00242 -0.26430401
-0.079426996 -0.0023419999 -0.26430401
-0.079424001 -0.002264 -0.26430699
-0.07942 -0.0021840001 -0.26431701
-0.079415999 -0.002104 -0.26433301
-0.079412997 -0.0020260001 -0.26433501
-0.079410002 -0.001948 -0.26432899
-0.079406999 -0.00187 -0.26432899
-0.079403996 -0.001792 -0.26432699
-0.079401001 -0.001714 -0.26432699
-0.079397 -0.001634 -0.26433599
-0.079393998 -0.001556 -0.26434001
-0.079389997 -0.0014759999 -0.26434201
-0.079387002 -0.0013980001 -0.264346
-0.079383999 -0.00132 -0.264346
-0.079380997 -0.001242 -0.26434201
-0.079378001 -0.001164 -0.26434201
-0.079374 -0.001084 -0.26434901
-0.079370998 -0.001006 -0.26435101
-0.079368003 -0.00092800002 -0.26435301
-0.079364002 -0.000848 -0.264359
-0.079360999 -0.00076999998 -0.26436299
-0.079357997 -0.00069199997 -0.26436701
-0.079355001 -0.000612 -0.26436299
-0.079351999 -0.00053600001 -0.26435
-0.079348996 -0.00045799999 -0.264348
-0.079346001 -0.00038000001 -0.26435399
-0.079342999 -0.00030000001 -0.26435599
-0.079338998 -0.000222 -0.26436001
-0.079336002 -0.00014400001 -0.26435801
-0.079333998 -6.6000001e-05 -0.26435101
-0.079331003 1.1e-05 -0.26434299
-0.079328001 8.7e-05 -0.264341
-0.079324998 0.00016700001 -0.264339
-0.079322003 0.000245 -0.264337
-0.079318002 0.00032299999 -0.264341
-0.079315998 0.000401 -0.26433599
-0.079313003 0.00047699999 -0.26432201
-0.07931 0.00055499998 -0.26431599
-0.079306997 0.00063199998 -0.26431599
-0.079304002 0.00070999999 -0.26431599
-0.079301 0.00079000002 -0.26431999
-0.079297997 0.00086799997 -0.264321
-0.079295002 0.00094599999 -0.26431701
-0.079291001 0.001024 -0.264321
-0.079287 0.001105 -0.26433501
-0.079283997 0.0011849999 -0.26434699
-0.079279996 0.001265 -0.264355
-0.079277001 0.001345 -0.264359
-0.079273 0.001425 -0.264373
-0.079268999 0.001504 -0.26438501
-0.079264998 0.001584 -0.26439399
-0.079262003 0.001664 -0.26440001
-0.079258002 0.001744 -0.264406
-0.079255 0.001822 -0.26440799
-0.079251997 0.0019 -0.26440799
-0.079249002 0.0019799999 -0.26440999
-0.079245999 0.0020560001 -0.264406
-0.079242997 0.002134 -0.26440099
-0.079240002 0.0022110001 -0.26439101
-0.079237998 0.002287 -0.26437899
-0.079235002 0.0023650001 -0.26437101
-0.079232 0.002443 -0.26436701
-0.079228997 0.0025229999 -0.264375
-0.079225004 0.002603 -0.264388
-0.079222001 0.0026809999 -0.264388
-0.079218999 0.0027590001 -0.26437801
-0.079216003 0.0028349999 -0.26437199
-0.079213001 0.0029150001 -0.26437601
-0.079209998 0.002992 -0.264366
-0.079208001 0.0030680001 -0.264359
-0.079204999 0.003146 -0.26435301
-0.079203002 0.0032220001 -0.26433501
-0.0792 0.003297 -0.26431501
-0.079198003 0.0033750001 -0.26430899
-0.079195 0.003453 -0.26430801
-0.079191998 0.0035310001 -0.26430401
-0.079189003 0.003607 -0.26429799
-0.079186 0.0036859999 -0.264294
-0.079182997 0.003764 -0.264294
-0.079180002 0.0038419999 -0.264294
-0.079177 0.00392 -0.26429501
-0.079172999 0.0040000002 -0.26429901
-0.079168998 0.0040810001 -0.26430899
-0.079164997 0.0041609998 -0.26432499
-0.079162002 0.0042389999 -0.26432699
-0.079158999 0.0043190001 -0.26432699
-0.079154998 0.0043970002 -0.264337
-0.079152003 0.0044769999 -0.264339
-0.079149 0.004555 -0.26433399
-0.079145998 0.0046330001 -0.26433599
-0.079143003 0.0047109998 -0.26433599
-0.079139002 0.0047909999 -0.26434001
-0.079135999 0.0048710001 -0.264346
-0.079132996 0.0049490002 -0.264346
-0.079130001 0.0050249998 -0.26434001
-0.079126999 0.0051020002 -0.26433301
-0.079124004 0.0051799999 -0.26433301
-0.079121001 0.00526 -0.26433501
-0.079117998 0.0053380001 -0.26433501
-0.079115003 0.0054159998 -0.26433501
-0.079112001 0.0054939999 -0.26432899
-0.079108998 0.0055720001 -0.26432201
-0.079106003 0.0056520002 -0.26432601
-0.079102002 0.0057299999 -0.26432601
-0.079099998 0.005806 -0.26431799
-0.079097003 0.0058840001 -0.264312
-0.079094 0.005961 -0.26430601
-0.079090998 0.0060410001 -0.26430801
-0.079088002 0.0061169998 -0.26430699
-0.079882003 -0.026461 -0.26517901
-0.079879999 -0.026384 -0.26515299
-0.079878002 -0.026304999 -0.26512301
-0.079876997 -0.026226001 -0.26508099
-0.079875998 -0.026147 -0.26504099
-0.079874001 -0.026067 -0.265008
-0.079873003 -0.02599 -0.264972
-0.079870999 -0.025911 -0.26494199
-0.07987 -0.025831999 -0.264902
-0.079867996 -0.025753999 -0.26486999
-0.079866998 -0.025675001 -0.26482999
-0.079866 -0.025596 -0.26479301
-0.079864003 -0.025519 -0.26476699
-0.079861 -0.025441 -0.26475501
-0.079857998 -0.025363 -0.26475501
-0.079855002 -0.025285 -0.26475501
-0.079852 -0.025207 -0.26475301
-0.079848997 -0.025129 -0.26475
-0.079846002 -0.025051 -0.26475
-0.079843 -0.024974 -0.26474401
-0.079841003 -0.024896 -0.26472801
-0.079838999 -0.024819 -0.26470199
-0.079837002 -0.024741 -0.26467499
-0.079834998 -0.024661999 -0.26466101
-0.079830997 -0.024584999 -0.26466501
-0.079828002 -0.024506999 -0.264669
-0.079824001 -0.024429001 -0.26467699
-0.079820998 -0.024352999 -0.264685
-0.079818003 -0.024274999 -0.26467401
-0.079816997 -0.024197999 -0.26464599
-0.079814002 -0.024118001 -0.26463601
-0.079810999 -0.024042999 -0.26462999
-0.079809003 -0.023964999 -0.264622
-0.079806 -0.023886999 -0.26461601
-0.079802997 -0.023809001 -0.264617
-0.079798996 -0.023731001 -0.264617
-0.079797 -0.023654999 -0.26461101
-0.079793997 -0.023576999 -0.26460099
-0.079791002 -0.023499999 -0.26459301
-0.079787999 -0.023422001 -0.26458699
-0.079784997 -0.023344001 -0.264586
-0.079782002 -0.023266001 -0.264586
-0.079778999 -0.023189999 -0.264588
-0.079775997 -0.023112001 -0.26459399
-0.079772003 -0.023034001 -0.26459599
-0.079769 -0.022956001 -0.26459399
-0.079767004 -0.022879999 -0.26459101
-0.079764001 -0.022802001 -0.26458499
-0.079760998 -0.022724001 -0.26458099
-0.079758003 -0.022646001 -0.26458099
-0.079754002 -0.022568 -0.26458299
-0.079751 -0.022492001 -0.264584
-0.079749003 -0.022414999 -0.26457599
-0.079745002 -0.022337001 -0.26457801
-0.079742 -0.022258 -0.264586
-0.079738997 -0.022182001 -0.26459
-0.079735003 -0.022104001 -0.26459399
-0.079732001 -0.022026001 -0.26460099
-0.079728998 -0.021948 -0.26460299
-0.079726003 -0.021872001 -0.26460099
-0.079723001 -0.021794001 -0.264595
-0.079719998 -0.021717001 -0.26458699
-0.079717003 -0.021639001 -0.26458099
-0.079714 -0.021561 -0.264584
-0.079710998 -0.021485001 -0.26459399
-0.079706997 -0.021407001 -0.26460001
-0.079704002 -0.021329001 -0.264604
-0.079700999 -0.021252999 -0.26460001
-0.079697996 -0.021175001 -0.26459399
-0.079695001 -0.021097001 -0.264595
-0.079691999 -0.021019001 -0.264595
-0.079689004 -0.020941 -0.264597
-0.079686001 -0.020865001 -0.264597
-0.079682998 -0.020787001 -0.26459101
-0.079680003 -0.020709001 -0.26458901
-0.079677001 -0.020631 -0.264588
-0.079673998 -0.020553 -0.264586
-0.079669997 -0.020477001 -0.26459199
-0.079667002 -0.020399 -0.26460201
-0.079663001 -0.020321 -0.264604
-0.079659998 -0.020243 -0.264606
-0.079657003 -0.020167001 -0.264615
-0.079653002 -0.020089 -0.26462099
-0.07965 -0.020011 -0.26462099
-0.079646997 -0.019935001 -0.26462901
-0.079643004 -0.019856 -0.264649
-0.079639003 -0.019778 -0.26466301
-0.079636 -0.0197 -0.26466399
-0.079631999 -0.019622 -0.26467001
-0.079628997 -0.019546 -0.26468
-0.079625003 -0.019468 -0.26468799
-0.079622 -0.01939 -0.264696
-0.079618998 -0.019312 -0.264698
-0.079614997 -0.019234 -0.26470101
-0.079612002 -0.019158 -0.26470101
-0.079608999 -0.01908 -0.26469499
-0.079605997 -0.019002 -0.26469499
-0.079603001 -0.018924 -0.26469499
-0.079600997 -0.018846 -0.26468101
-0.079598002 -0.01877 -0.26467201
-0.079595 -0.018692 -0.26467401
-0.079591997 -0.018615 -0.26466799
-0.07959 -0.018537 -0.26465401
-0.079586998 -0.018459 -0.26464999
-0.079584002 -0.018383 -0.26464799
-0.079581 -0.018302999 -0.26463899
-0.079577997 -0.018228 -0.264633
-0.079575002 -0.01815 -0.26462901
-0.079572 -0.018072 -0.264633
-0.079568997 -0.017994 -0.264633
-0.079566002 -0.017916 -0.264631
-0.079562999 -0.01784 -0.26462999
-0.079559997 -0.017762 -0.264624
-0.079557002 -0.017684 -0.264622
-0.079553999 -0.017605999 -0.264622
-0.079550996 -0.017527999 -0.26461801
-0.079548001 -0.017452 -0.264615
-0.079544999 -0.017374 -0.264613
-0.079542004 -0.017295999 -0.264617
-0.079538003 -0.017217999 -0.26462299
-0.079535 -0.017139999 -0.26461899
-0.079533003 -0.017065 -0.264615
-0.079530001 -0.016987 -0.26461399
-0.079526 -0.016909 -0.26461399
-0.079522997 -0.016830999 -0.26460999
-0.079520002 -0.016752999 -0.26461199
-0.079516999 -0.016674999 -0.26461199
-0.079513997 -0.016599 -0.264604
-0.079512 -0.016520999 -0.264595
-0.079508997 -0.016442999 -0.26458499
-0.079506002 -0.016365999 -0.264577
-0.079503 -0.01629 -0.264577
-0.079499997 -0.016212 -0.264579
-0.079497002 -0.016133999 -0.264579
-0.079493999 -0.016055999 -0.26458001
-0.079490997 -0.015977999 -0.26458001
-0.079487003 -0.015900001 -0.264586
-0.079484001 -0.015823999 -0.26459199
-0.079480998 -0.015745999 -0.26459
-0.079478003 -0.015667999 -0.26459599
-0.079474002 -0.015589 -0.264613
-0.079470001 -0.015511 -0.26462099
-0.079466999 -0.015433 -0.26462501
-0.079464003 -0.015355 -0.26462701
-0.079460002 -0.015277 -0.26464301
-0.079455003 -0.015198 -0.26467299
-0.079451002 -0.01512 -0.264691
-0.079447001 -0.015042 -0.26470199
-0.079443999 -0.014964 -0.26471201
-0.079441004 -0.014886 -0.26471001
-0.079438001 -0.014808 -0.26470399
-0.079434998 -0.01473 -0.26470199
-0.079432003 -0.014652 -0.26470599
-0.079429001 -0.014574 -0.264705
-0.079425998 -0.014498 -0.264705
-0.079421997 -0.014418 -0.264709
-0.079419002 -0.014342 -0.264707
-0.079415999 -0.014264 -0.26470101
-0.079414003 -0.014187 -0.26467901
-0.079411998 -0.014111 -0.26465601
-0.079409003 -0.014033 -0.26465401
-0.079406001 -0.013955 -0.264658
-0.079402998 -0.013877 -0.26465401
-0.079400003 -0.013799 -0.26464799
-0.079397 -0.013722 -0.264642
-0.079395004 -0.013644 -0.264633
-0.079392001 -0.013568 -0.26462901
-0.079388998 -0.01349 -0.26462299
-0.079386003 -0.013412 -0.264617
-0.079383001 -0.013334 -0.26462099
-0.079379 -0.013256 -0.264635
-0.079375997 -0.013178 -0.26463601
-0.079373002 -0.0131 -0.26463401
-0.079369999 -0.013022 -0.26463401
-0.079366997 -0.012946 -0.26463601
-0.079364002 -0.012868 -0.26462999
-0.079360999 -0.012791 -0.26461899
-0.079357997 -0.012713 -0.264613
-0.079355001 -0.012635 -0.264613
-0.079352997 -0.012559 -0.26460701
-0.079350002 -0.012481 -0.26460099
-0.079347 -0.012403 -0.26459301
-0.079343997 -0.012326 -0.264588
-0.079341002 -0.012248 -0.26459199
-0.079337999 -0.01217 -0.26459
-0.079334997 -0.012092 -0.264584
-0.079332002 -0.012016 -0.264584
-0.079328999 -0.011938 -0.264588
-0.079324998 -0.01186 -0.26458901
-0.079323001 -0.011782 -0.26458499
-0.079319999 -0.011704 -0.26458099
-0.079317003 -0.011626 -0.264577
-0.079313003 -0.011548 -0.26458099
-0.07931 -0.01147 -0.26458499
-0.079305999 -0.011392 -0.26459399
-0.079302996 -0.011312 -0.26460999
-0.079299003 -0.011233 -0.26462001
-0.079296 -0.011157 -0.264622
-0.079291999 -0.011077 -0.26462999
-0.079288997 -0.010999 -0.26463601
-0.079285003 -0.010921 -0.26464
-0.079282001 -0.010843 -0.26464501
-0.079278998 -0.010765 -0.26464701
-0.079276003 -0.010687 -0.26464701
-0.079272002 -0.010609 -0.264649
-0.079268999 -0.010531 -0.26466101
-0.079264998 -0.010453 -0.264667
-0.079263002 -0.010375 -0.26465899
-0.079259999 -0.010297 -0.26464599
-0.079258002 -0.010222 -0.26462999
-0.079255998 -0.010144 -0.26460999
-0.079254001 -0.010069 -0.264586
-0.079250999 -0.0099910004 -0.26457199
-0.079248004 -0.0099130003 -0.264575
-0.079245001 -0.0098350001 -0.264575
-0.079241998 -0.009757 -0.26456499
-0.079240002 -0.0096819997 -0.264561
-0.079236001 -0.0096039996 -0.264561
-0.079233997 -0.0095260004 -0.26455599
-0.079231001 -0.0094480002 -0.26455
-0.079227 -0.0093700001 -0.26455399
-0.079223998 -0.009292 -0.26456201
-0.079221003 -0.0092139998 -0.264566
-0.079217002 -0.0091359997 -0.26457199
-0.079213001 -0.0090549998 -0.264586
-0.079209 -0.0089769997 -0.26460299
-0.079205997 -0.008897 -0.264613
-0.079201996 -0.0088189999 -0.26462299
-0.079198003 -0.0087400004 -0.264633
-0.079195 -0.0086620003 -0.26463699
-0.079191998 -0.0085819997 -0.26463899
-0.079189003 -0.0085039996 -0.26464099
-0.079185002 -0.0084260004 -0.26464301
-0.079181999 -0.0083480002 -0.264642
-0.079180002 -0.0082729999 -0.26462999
-0.079177 -0.0081949998 -0.26462001
-0.079173997 -0.0081169996 -0.26462001
-0.079171002 -0.0080390004 -0.26462799
-0.079167001 -0.0079589998 -0.26464
-0.079163998 -0.0078809997 -0.26464099
-0.079161003 -0.007803 -0.26462701
-0.079158999 -0.0077269999 -0.264617
-0.079155996 -0.0076489998 -0.264615
-0.079152003 -0.0075690001 -0.26462099
-0.079149 -0.007491 -0.26462701
-0.079144999 -0.0074129999 -0.26463801
-0.079141997 -0.0073350002 -0.26464
-0.079139002 -0.0072570001 -0.26463601
-0.079135001 -0.0071769999 -0.26464599
-0.079131998 -0.0070989998 -0.26465601
-0.079129003 -0.0070210001 -0.26465201
-0.079126 -0.006943 -0.26464599
-0.079122998 -0.0068649999 -0.26464701
-0.079118997 -0.0067870002 -0.26465499
-0.079115003 -0.0067070001 -0.264667
-0.079112001 -0.006629 -0.26466501
-0.079108998 -0.0065509998 -0.26467499
-0.079103999 -0.0064699999 -0.26469901
-0.079101004 -0.0063919998 -0.26470101
-0.079098001 -0.0063140001 -0.26470399
-0.079094 -0.006234 -0.264718
-0.079090998 -0.0061559998 -0.26470801
-0.079089001 -0.0060780002 -0.26470199
-0.079085998 -0.0060000001 -0.2647
-0.079083003 -0.0059250002 -0.26469201
-0.079080001 -0.0058470001 -0.26468101
-0.079077996 -0.0057689999 -0.264669
-0.079075001 -0.0056909998 -0.264667
-0.079071999 -0.0056139999 -0.26465899
-0.079070002 -0.0055379998 -0.26463899
-0.079066999 -0.0054600001 -0.264633
-0.079063997 -0.005382 -0.264642
-0.079058997 -0.0053019999 -0.264662
-0.079056002 -0.0052220002 -0.26467001
-0.079053 -0.0051440001 -0.264662
-0.079051003 -0.0050679999 -0.26464799
-0.079048 -0.0049899998 -0.26463601
-0.079044998 -0.0049120001 -0.264633
-0.079042003 -0.004834 -0.264635
-0.079039 -0.0047570001 -0.26462901
-0.079035997 -0.004679 -0.264631
-0.079033002 -0.0046009999 -0.264633
-0.079029001 -0.0045230002 -0.264635
-0.079025999 -0.0044419998 -0.26464301
-0.079023004 -0.0043640002 -0.26464599
-0.079020001 -0.0042869998 -0.264644
-0.079016998 -0.0042090002 -0.264642
-0.079012997 -0.004131 -0.264644
-0.079010002 -0.0040509999 -0.26463801
-0.079007998 -0.0039750002 -0.26462999
-0.079005003 -0.0038970001 -0.26462901
-0.079001002 -0.003817 -0.264633
-0.078997999 -0.0037390001 -0.26463899
-0.078994997 -0.0036609999 -0.26463899
-0.078992002 -0.003583 -0.26462701
-0.078988999 -0.0035049999 -0.26462099
-0.078985997 -0.003428 -0.26461899
-0.078984 -0.0033519999 -0.264604
-0.078982003 -0.003276 -0.264584
-0.078979 -0.0031989999 -0.26457399
-0.078975998 -0.003121 -0.26457399
-0.078973003 -0.0030429999 -0.264568
-0.078970999 -0.002965 -0.26455501
-0.078968003 -0.0028890001 -0.26454899
-0.078965001 -0.002809 -0.26455301
-0.078961998 -0.0027310001 -0.26455101
-0.078959003 -0.002656 -0.264539
-0.078956999 -0.0025780001 -0.26451999
-0.078955002 -0.002502 -0.26450601
-0.078952 -0.0024250001 -0.26450601
-0.078947999 -0.0023439999 -0.264512
-0.078945003 -0.002266 -0.264514
-0.078941002 -0.0021860001 -0.26452199
-0.078937002 -0.002106 -0.26453799
-0.078933001 -0.0020260001 -0.26455599
-0.078929998 -0.001948 -0.26456299
-0.078925997 -0.001867 -0.26456901
-0.078923002 -0.001787 -0.26458099
-0.078919001 -0.001709 -0.26458099
-0.078916997 -0.001634 -0.264561
-0.078915 -0.001558 -0.26454699
-0.078910001 -0.0014750001 -0.264579
-0.078904003 -0.001388 -0.26463899
-0.078900002 -0.0013079999 -0.26465899
-0.078896001 -0.0012300001 -0.26466399
-0.078892998 -0.00115 -0.26466
-0.078890003 -0.001072 -0.26466
-0.078887001 -0.00099199999 -0.26466799
-0.078883 -0.00091399997 -0.26467201
-0.078879997 -0.00083600002 -0.264676
-0.078877002 -0.00075599999 -0.264676
-0.078873999 -0.00067799998 -0.26467699
-0.078870997 -0.00060000003 -0.26467299
-0.078868002 -0.00052399997 -0.26465899
-0.078864999 -0.00044599999 -0.264653
-0.078863002 -0.00036899999 -0.26464701
-0.07886 -0.000291 -0.264635
-0.078856997 -0.00021300001 -0.26464
-0.078854002 -0.00013499999 -0.26464
-0.078850999 -5.7000001e-05 -0.264626
-0.078847997 2.1e-05 -0.26461601
-0.078846 9.6000003e-05 -0.264608
-0.078842998 0.000174 -0.264597
-0.078841001 0.000252 -0.26458901
-0.078837 0.00033000001 -0.26458699
-0.078833997 0.00040799999 -0.26458499
-0.078831002 0.000486 -0.26458499
-0.078828 0.00056399999 -0.26458099
-0.078824997 0.00064099999 -0.26457801
-0.078822002 0.00072100002 -0.26458001
-0.078818001 0.000802 -0.26459
-0.078814 0.00088200002 -0.26461199
-0.078809999 0.00096400001 -0.26463199
-0.078805998 0.001045 -0.264644
-0.078803003 0.0011230001 -0.26464999
-0.0788 0.0012009999 -0.26464599
-0.078795999 0.001281 -0.26466
-0.078791 0.001365 -0.26469001
-0.078786999 0.001446 -0.26470801
-0.078782998 0.001528 -0.264732
-0.078778997 0.001606 -0.26473701
-0.078776002 0.001686 -0.26473701
-0.078772001 0.001767 -0.26475099
-0.078768998 0.001845 -0.26474899
-0.078768 0.0019180001 -0.26471901
-0.078766003 0.001993 -0.26468599
-0.078763999 0.0020689999 -0.26467001
-0.078760996 0.0021470001 -0.26466599
-0.078758001 0.002227 -0.26467001
-0.078754999 0.0023050001 -0.26466799
-0.078752004 0.002382 -0.26466399
-0.078749001 0.0024600001 -0.26466301
-0.078745998 0.002538 -0.26465499
-0.078744002 0.0026140001 -0.26463899
-0.078740999 0.002692 -0.264631
-0.078736998 0.0027719999 -0.26463899
-0.078734003 0.00285 -0.26464701
-0.078731 0.00293 -0.26464501
-0.078727998 0.0030050001 -0.26463601
-0.078725003 0.003083 -0.26462999
-0.078722 0.0031610001 -0.264622
-0.078720003 0.003239 -0.26461801
-0.078716002 0.0033189999 -0.264624
-0.078713 0.003397 -0.264622
-0.078709997 0.0034749999 -0.264617
-0.078707002 0.003553 -0.264615
-0.078704 0.0036309999 -0.264615
-0.078700997 0.0037110001 -0.264613
-0.078698002 0.003786 -0.26460299
-0.078695998 0.0038620001 -0.26459301
-0.078693002 0.0039420002 -0.26459199
-0.078689002 0.0040199999 -0.26459399
-0.078685999 0.0041 -0.26459801
-0.078682996 0.0041780001 -0.26460001
-0.078680001 0.0042559998 -0.26459599
-0.078676999 0.0043339999 -0.264584
-0.078675002 0.0044089998 -0.264575
-0.078671999 0.0044869999 -0.26456699
-0.078670003 0.0045630001 -0.26455101
-0.078667 0.0046410002 -0.264543
-0.078665003 0.0047160001 -0.264523
-0.078662001 0.0047920002 -0.264512
-0.078658998 0.0048719998 -0.264516
-0.078656003 0.00495 -0.26450801
-0.078653999 0.0050249998 -0.264496
-0.078651004 0.005103 -0.264494
-0.078647003 0.0051830001 -0.26450399
-0.078644 0.005264 -0.264512
-0.078640997 0.0053409999 -0.26450899
-0.078638002 0.0054190001 -0.26450101
-0.078635 0.0054970002 -0.26449299
-0.078631997 0.0055749998 -0.26449299
-0.078629002 0.005653 -0.264487
-0.078625999 0.0057290001 -0.26447999
-0.078624003 0.005806 -0.26447201
-0.078621 0.0058860001 -0.26447201
-0.078616999 0.0059639998 -0.26447201
-0.078613997 0.0060419999 -0.26446801
-0.078611001 0.00612 -0.26446599
-0.078607999 0.0061980002 -0.26446399
-0.078605004 0.0062779998 -0.26447099
-0.078601003 0.006358 -0.26447701
-0.078598998 0.0064360001 -0.26447099
-0.079636998 -0.026481001 -0.26515099
-0.079636 -0.026402 -0.26510301
-0.079635002 -0.026323 -0.26506501
-0.079632998 -0.026244 -0.26504099
-0.079631001 -0.026165999 -0.26501799
-0.079628997 -0.026086999 -0.264994
-0.079627 -0.026009999 -0.26496601
-0.079625003 -0.025931999 -0.264938
-0.079622999 -0.025853001 -0.264916
-0.079621002 -0.025773 -0.264884
-0.079618998 -0.025696 -0.26486099
-0.079617001 -0.025618 -0.264853
-0.079613999 -0.02554 -0.26484901
-0.079611003 -0.025463 -0.264837
-0.079608999 -0.025385 -0.264819
-0.079605997 -0.025304999 -0.26480499
-0.079604 -0.025227999 -0.26479599
-0.079600997 -0.025149999 -0.26478001
-0.079599001 -0.025072001 -0.26477399
-0.079595 -0.024995999 -0.26478201
-0.079591997 -0.024917999 -0.26477799
-0.079589002 -0.024839999 -0.26477
-0.079586998 -0.024762999 -0.264763
-0.079584002 -0.024684999 -0.264759
-0.079581 -0.024607001 -0.264761
-0.079577997 -0.024529001 -0.26475099
-0.079575002 -0.024451001 -0.264745
-0.079572 -0.024373 -0.26473701
-0.079570003 -0.024296001 -0.26472399
-0.079567 -0.024218 -0.264714
-0.079565004 -0.02414 -0.26470399
-0.079562001 -0.024062 -0.26470199
-0.079558 -0.023986001 -0.26470399
-0.079554997 -0.023908 -0.26471001
-0.079552002 -0.02383 -0.26471299
-0.079549 -0.023752 -0.26471499
-0.079544999 -0.023676001 -0.26471701
-0.079542004 -0.023598 -0.26471299
-0.079539999 -0.023521001 -0.26470101
-0.079536997 -0.023443 -0.26469401
-0.079534002 -0.023365 -0.26469201
-0.079530999 -0.023287 -0.26468799
-0.079527996 -0.023211 -0.26468599
-0.079525001 -0.023133 -0.26468199
-0.079521999 -0.023055 -0.26468599
-0.079519004 -0.022977 -0.264687
-0.079515003 -0.022899 -0.26469499
-0.079512 -0.022823 -0.264705
-0.079507999 -0.022745 -0.26471499
-0.079504997 -0.022667 -0.26472101
-0.079502001 -0.022589 -0.26471901
-0.079498999 -0.022513 -0.264716
-0.079496004 -0.022435 -0.264714
-0.079493001 -0.022357 -0.26471001
-0.079489999 -0.022279 -0.26471001
-0.079487003 -0.022201 -0.26471001
-0.079484001 -0.022125 -0.26470801
-0.079480998 -0.022047 -0.264709
-0.079476997 -0.021969 -0.26471099
-0.079474002 -0.021891 -0.26471499
-0.079471 -0.021813 -0.26471499
-0.079467997 -0.021737 -0.26471701
-0.079465002 -0.021659 -0.26471499
-0.079461999 -0.021581 -0.26471001
-0.079458997 -0.021503 -0.26470801
-0.079456002 -0.021424999 -0.26471201
-0.079452001 -0.021349 -0.264718
-0.079448998 -0.021271 -0.264718
-0.079446003 -0.021194 -0.26471201
-0.079443 -0.021116 -0.264709
-0.079439998 -0.021038 -0.264709
-0.079437003 -0.020959999 -0.264709
-0.079434 -0.020884 -0.26470301
-0.079432003 -0.020806 -0.26469499
-0.079429001 -0.020728 -0.26469499
-0.079425 -0.020649999 -0.26470399
-0.079421997 -0.020571999 -0.2647
-0.079419002 -0.020496 -0.264696
-0.079415999 -0.020417999 -0.26470399
-0.079411998 -0.020339999 -0.26470801
-0.079409003 -0.020261999 -0.26470599
-0.079406001 -0.020183999 -0.264705
-0.079402998 -0.020107999 -0.264707
-0.079400003 -0.020029999 -0.26471701
-0.079396002 -0.019951999 -0.264725
-0.079392001 -0.019874001 -0.26473501
-0.079388998 -0.019796001 -0.26474699
-0.079384997 -0.019719001 -0.26475799
-0.079382002 -0.019641001 -0.26476601
-0.079378001 -0.019563001 -0.26477399
-0.079374999 -0.019485001 -0.26478401
-0.079370998 -0.019407 -0.26479799
-0.079366997 -0.019330001 -0.26481399
-0.079364002 -0.019252 -0.26482001
-0.079360001 -0.019174 -0.26482099
-0.079356998 -0.019096 -0.26482901
-0.079352997 -0.019018 -0.26484299
-0.079350002 -0.018942 -0.26484701
-0.079347 -0.018864 -0.26484299
-0.079343997 -0.018786 -0.26484099
-0.079341002 -0.018708 -0.264844
-0.079337001 -0.01863 -0.264846
-0.079333998 -0.018552 -0.26484799
-0.079331003 -0.018474 -0.264844
-0.079328001 -0.018395999 -0.26484001
-0.079325996 -0.018317999 -0.26482999
-0.079323001 -0.018243 -0.26482099
-0.079320997 -0.018165 -0.26481101
-0.079318002 -0.018087 -0.264799
-0.079314999 -0.01801 -0.26478899
-0.079311997 -0.017932 -0.26478699
-0.079309002 -0.017854 -0.264781
-0.079306997 -0.017778 -0.264768
-0.079305001 -0.0177 -0.26475599
-0.079301998 -0.017623 -0.26473799
-0.079300001 -0.017545 -0.26472601
-0.079296999 -0.017467 -0.26472199
-0.079294004 -0.017391 -0.264725
-0.079290003 -0.017310999 -0.26472899
-0.079287998 -0.017235 -0.26471901
-0.079286002 -0.017158 -0.26469901
-0.079282999 -0.01708 -0.26469699
-0.079278998 -0.017002 -0.26469699
-0.079277001 -0.016923999 -0.26469001
-0.079273999 -0.016848 -0.26469201
-0.079269998 -0.01677 -0.26470399
-0.079265997 -0.016692 -0.26471001
-0.079263002 -0.016613999 -0.26471001
-0.079260997 -0.016535999 -0.264698
-0.079258002 -0.016457999 -0.264691
-0.079255 -0.016380001 -0.26469499
-0.079250999 -0.016303999 -0.26470301
-0.079246998 -0.016225999 -0.264723
-0.079242997 -0.016145 -0.26474899
-0.079239003 -0.016069001 -0.26475701
-0.079236001 -0.015989 -0.26475701
-0.079232998 -0.015913 -0.26475799
-0.079228997 -0.015835 -0.264768
-0.079225004 -0.015757 -0.264792
-0.079222001 -0.015679 -0.26480001
-0.079218 -0.015601 -0.26480001
-0.079214998 -0.015523 -0.26480201
-0.079210997 -0.015444 -0.264817
-0.079207003 -0.015366 -0.26484701
-0.079203002 -0.015287 -0.26486701
-0.079199001 -0.015207 -0.264869
-0.079195999 -0.015131 -0.26487499
-0.079193003 -0.015053 -0.26487899
-0.079190001 -0.014975 -0.26486501
-0.079186998 -0.014898 -0.264864
-0.079184003 -0.01482 -0.26486599
-0.079181999 -0.014742 -0.264844
-0.079181001 -0.014667 -0.26479799
-0.079177998 -0.014589 -0.264792
-0.079173997 -0.014511 -0.26482701
-0.079170004 -0.01443 -0.26484501
-0.079167001 -0.014354 -0.264837
-0.079164997 -0.014277 -0.264817
-0.079162002 -0.014199 -0.264801
-0.079159997 -0.014123 -0.26479501
-0.079157002 -0.014044 -0.26479
-0.079154 -0.013968 -0.26479
-0.079149999 -0.01389 -0.26479599
-0.079147004 -0.013811 -0.26480001
-0.079144001 -0.013734 -0.26479399
-0.079141997 -0.013656 -0.26477599
-0.07914 -0.013581 -0.26475099
-0.079138003 -0.013503 -0.264725
-0.079135001 -0.013425 -0.26472899
-0.079131 -0.013347 -0.26475301
-0.079126 -0.013266 -0.264779
-0.079122998 -0.013188 -0.26478299
-0.079120003 -0.013112 -0.26477799
-0.079117 -0.013034 -0.26477799
-0.079113998 -0.012957 -0.26476401
-0.079112001 -0.012879 -0.26474199
-0.079109997 -0.012804 -0.26473001
-0.079107001 -0.012726 -0.264732
-0.079103 -0.012645 -0.264741
-0.079099998 -0.01257 -0.26473701
-0.079097003 -0.012492 -0.26473501
-0.079094 -0.012414 -0.26473099
-0.079090998 -0.012336 -0.26473299
-0.079088002 -0.012258 -0.26473901
-0.079084001 -0.01218 -0.26474601
-0.079080999 -0.012102 -0.26474401
-0.079077996 -0.012024 -0.26474199
-0.079075001 -0.011946 -0.26474199
-0.079071999 -0.011868 -0.26474601
-0.079069003 -0.01179 -0.26473999
-0.079066001 -0.011712 -0.26473099
-0.079063997 -0.011637 -0.26471299
-0.079062 -0.011559 -0.26469299
-0.079058997 -0.011481 -0.264687
-0.079054996 -0.011403 -0.26471099
-0.079049997 -0.011322 -0.264745
-0.079046004 -0.011244 -0.264759
-0.079043001 -0.011166 -0.26475799
-0.079039998 -0.011088 -0.26475999
-0.079037003 -0.01101 -0.26476201
-0.079034001 -0.010932 -0.26475999
-0.079030998 -0.010854 -0.26475999
-0.079026997 -0.010776 -0.26476201
-0.079024002 -0.010696 -0.26476699
-0.079020999 -0.010618 -0.26477301
-0.079016998 -0.01054 -0.264777
-0.079014003 -0.010462 -0.264777
-0.079011001 -0.010384 -0.26477501
-0.079007998 -0.010306 -0.26477301
-0.079005003 -0.010228 -0.26477101
-0.079001002 -0.01015 -0.26478001
-0.078997999 -0.010072 -0.26479399
-0.078994997 -0.0099940002 -0.26479399
-0.078992002 -0.0099160001 -0.264788
-0.078988999 -0.0098379999 -0.26478401
-0.078985997 -0.0097599998 -0.26478401
-0.078983001 -0.0096819997 -0.26477101
-0.078980997 -0.0096070003 -0.26475501
-0.078978002 -0.0095290001 -0.26474699
-0.078974999 -0.009451 -0.264741
-0.078971997 -0.0093729999 -0.264741
-0.07897 -0.0092949998 -0.26473099
-0.078966998 -0.0092200004 -0.264716
-0.078964002 -0.0091420002 -0.26471001
-0.078961 -0.0090640001 -0.264716
-0.078956999 -0.0089840004 -0.26472801
-0.078953996 -0.0089050001 -0.264736
-0.078950003 -0.0088269999 -0.26474199
-0.078947 -0.0087470002 -0.26475301
-0.078942999 -0.0086690001 -0.264763
-0.078938998 -0.0085890004 -0.26477301
-0.078934997 -0.0085100001 -0.26479101
-0.078932002 -0.0084319999 -0.26480299
-0.078928001 -0.0083520003 -0.264817
-0.078923002 -0.0082710003 -0.264851
-0.078913003 -0.0081810001 -0.26497501
-0.078906998 -0.0080970004 -0.26504499
-0.078902997 -0.0080190003 -0.26505899
-0.078899004 -0.0079389997 -0.26506299
-0.078896001 -0.0078609996 -0.26506701
-0.078893997 -0.0077829999 -0.265055
-0.078891002 -0.0077069998 -0.26504001
-0.078887001 -0.0076270001 -0.265062
-0.078883998 -0.007549 -0.265062
-0.078881003 -0.0074709998 -0.26504999
-0.078878 -0.0073910002 -0.26505601
-0.078873001 -0.007311 -0.26508
-0.078864999 -0.0070770001 -0.26506901
-0.078863002 -0.0070020002 -0.265037
-0.078859001 -0.0069240001 -0.265055
-0.078855 -0.0068430002 -0.26507899
-0.078850999 -0.006763 -0.26508299
-0.078849003 -0.0066869999 -0.26507199
-0.078846999 -0.00661 -0.26504201
-0.078844003 -0.0065319999 -0.26505601
-0.078838997 -0.006451 -0.26507801
-0.078836001 -0.0063709999 -0.265084
-0.078832999 -0.0062930002 -0.26507801
-0.078832999 -0.0062230001 -0.26501301
-0.078832999 -0.0061499998 -0.26495501
-0.078828 -0.0060669999 -0.26499301
-0.078822002 -0.0059839999 -0.26505101
-0.078818001 -0.0059039998 -0.26506701
-0.078814 -0.0058240001 -0.26507899
-0.078789003 -0.005196 -0.26507601
-0.078777 -0.0048839999 -0.26506701
-0.078772999 -0.0048039998 -0.265075
-0.078712001 -0.003237 -0.26505801
-0.078708 -0.0031590001 -0.265062
-0.078704998 -0.0030789999 -0.265066
-0.078702003 -0.003001 -0.26506299
-0.078713 -0.0028850001 -0.26473001
-0.078709997 -0.0028049999 -0.264736
-0.078694001 -0.002697 -0.26497701
-0.078691997 -0.0026219999 -0.26494801
-0.078691997 -0.0025490001 -0.264902
-0.078688003 -0.0024689999 -0.264916
-0.078684002 -0.002391 -0.26492199
-0.078680001 -0.0023080001 -0.264952
-0.078671999 -0.0022209999 -0.26503
-0.078612 -0.00072499999 -0.265039
-0.078608997 -0.00064699998 -0.26503101
-0.078606002 -0.00056700001 -0.265037
-0.078602999 -0.00049100001 -0.26502901
-0.078599997 -0.00041400001 -0.26502201
-0.078597002 -0.00033400001 -0.26502401
-0.078593999 -0.000256 -0.26501799
-0.078590997 -0.000178 -0.26501599
-0.078588001 -9.7999997e-05 -0.26502401
-0.078584 -1.9999999e-05 -0.26503
-0.078580998 5.9999998e-05 -0.26503199
-0.078578003 0.000138 -0.265026
-0.078575 0.000216 -0.26502499
-0.078571998 0.00029600001 -0.26503101
-0.078567997 0.00037600001 -0.26504499
-0.078564003 0.00045699999 -0.265055
-0.078561001 0.000535 -0.265055
-0.078557998 0.00061400002 -0.265053
-0.078555003 0.00069299998 -0.265055
-0.078551002 0.00076999998 -0.26505601
-0.078548998 0.000848 -0.265048
-0.078546003 0.00092600001 -0.265044
-0.078543 0.001004 -0.26503
-0.078541003 0.001081 -0.26501599
-0.078537002 0.00116 -0.26502401
-0.078534 0.00124 -0.26502401
-0.078532003 0.001315 -0.26500699
-0.078529999 0.001393 -0.26498899
-0.078527004 0.001468 -0.26497701
-0.078523003 0.001549 -0.26499501
-0.078519002 0.001631 -0.265017
-0.078515999 0.001709 -0.26501101
-0.078512996 0.001789 -0.26501399
-0.078509003 0.001869 -0.26503
-0.078505002 0.0019490001 -0.26503199
-0.078502998 0.0020250001 -0.26501399
-0.078501001 0.0021009999 -0.26499999
-0.078497 0.0021810001 -0.26500601
-0.078493997 0.002261 -0.26501399
-0.078491002 0.0023390001 -0.26501301
-0.078488 0.002419 -0.26501101
-0.078484997 0.0024969999 -0.26500699
-0.078481004 0.0025770001 -0.26500899
-0.078478001 0.002655 -0.26501301
-0.078474998 0.0027320001 -0.26500699
-0.078473002 0.002808 -0.26498899
-0.078470998 0.0028860001 -0.26497799
-0.078465998 0.002968 -0.26499799
-0.078463003 0.0030479999 -0.265008
-0.07846 0.0031260001 -0.26500201
-0.078456998 0.0032039999 -0.26499999
-0.078454003 0.0032820001 -0.26499999
-0.078451 0.003362 -0.26499799
-0.078446999 0.0034399999 -0.265001
-0.078443997 0.00352 -0.26500699
-0.078441001 0.0035999999 -0.26500899
-0.078437999 0.0036760001 -0.265003
-0.078436002 0.0037509999 -0.264979
-0.078433998 0.003827 -0.26495299
-0.078431003 0.0039049999 -0.264952
-0.078428 0.0039849998 -0.264952
-0.078424998 0.0040620002 -0.26495001
-0.078422002 0.0041419999 -0.264952
-0.078418002 0.0042209998 -0.26495999
-0.078414999 0.0043009999 -0.26496601
-0.078411996 0.004379 -0.26495999
-0.078409001 0.0044559999 -0.26495299
-0.078406997 0.004532 -0.26493701
-0.078405 0.0046069999 -0.26491699
-0.078403004 0.004683 -0.26489699
-0.078403004 0.0047519999 -0.26484001
-0.078406997 0.0048090001 -0.26470399
-0.078405999 0.0048799999 -0.26465699
-0.078405 0.0049510002 -0.264617
-0.078404002 0.0050240001 -0.264588
-0.078401998 0.0051000002 -0.26457
-0.078399003 0.0051750001 -0.26455799
-0.078396998 0.0052530002 -0.264548
-0.078394003 0.0053309998 -0.26453999
-0.078391001 0.005409 -0.26453799
-0.078387998 0.0054890001 -0.264541
-0.078383997 0.0055669998 -0.264539
-0.078381002 0.0056469999 -0.264543
-0.078377001 0.0057250001 -0.26455301
-0.078373998 0.0058050002 -0.264557
-0.078371003 0.0058829999 -0.26455301
-0.078368001 0.005961 -0.26454699
-0.078364998 0.0060390001 -0.264548
-0.078362003 0.0061189998 -0.26455599
-0.078359 0.0061969999 -0.26455
-0.078355998 0.0062739998 -0.26454201
-0.078353003 0.0063530002 -0.26454601
-0.07835 0.0064300001 -0.26453999
-0.078348003 0.0065060002 -0.26451901
-0.079355001 -0.026185 -0.26513401
-0.079352997 -0.026105 -0.26510999
-0.079351 -0.026028 -0.26508799
-0.079348996 -0.02595 -0.26506901
-0.079346001 -0.025870999 -0.26505101
-0.079343997 -0.025792999 -0.265037
-0.079341002 -0.025715001 -0.26502901
-0.079337999 -0.025637001 -0.26502499
-0.079334997 -0.025559001 -0.26502299
-0.079332002 -0.025482001 -0.26502001
-0.079328999 -0.025404001 -0.26502201
-0.079324998 -0.025327001 -0.26503599
-0.079322003 -0.025249001 -0.265044
-0.079319 -0.025171001 -0.265044
-0.079315998 -0.025093 -0.26504001
-0.079313003 -0.025015 -0.265039
-0.079309002 -0.024937 -0.265055
-0.079304002 -0.024861 -0.26507899
-0.079301 -0.024784001 -0.265091
-0.079297997 -0.024704 -0.26508901
-0.079295002 -0.024628 -0.265091
-0.079291001 -0.02455 -0.265095
-0.079287998 -0.024472 -0.26509601
-0.079286002 -0.024395 -0.265084
-0.079282999 -0.024317 -0.26507401
-0.079279996 -0.024239 -0.26507601
-0.079276003 -0.024161 -0.26508
-0.079273 -0.024083 -0.26508
-0.079269998 -0.024007 -0.26508501
-0.079267003 -0.023929 -0.26508701
-0.079263002 -0.023851 -0.26509699
-0.079259999 -0.023773 -0.26510301
-0.079256997 -0.023695 -0.26510099
-0.079254001 -0.023619 -0.26510501
-0.07925 -0.023541 -0.26510999
-0.079246998 -0.023463 -0.26510599
-0.079244003 -0.023384999 -0.265104
